# .PCD v0.7 - Point Cloud Data file format
VERSION 0.7
FIELDS x y z rgb
SIZE 4 4 4 4
TYPE F F F U
COUNT 1 1 1 1
WIDTH 1026
HEIGHT 1
VIEWPOINT 0 0 0 1 0 0 0
POINTS 1026
DATA ascii
0.088513389 -0.043610848 0.17819524 4284769380
0.08867006 -0.042894561 0.17017747 4284769380
0.087353833 -0.042325992 0.16225496 4284769380
0.084609389 -0.041924443 0.15469658 4284769380
0.080529891 -0.041703541 0.14775893 4284769380
0.0752538 -0.041670788 0.1416775 4284769380
0.068960212 -0.041827295 0.13665868 4284769380
0.061862763 -0.042167749 0.13287286 4284769380
0.054202359 -0.042680595 0.13044855 4284769380
0.08807981 -0.043703604 0.17878646 4284769380
0.089674219 -0.042866178 0.17093925 4284769380
0.089800432 -0.042152703 0.1629207 4284769380
0.088454172 -0.041587397 0.15500298 4284769380
0.085681133 -0.041189451 0.14745487 4284769380
0.081575438 -0.040972371 0.14053257 4284769380
0.076276459 -0.040943526 0.13447104 4284769380
0.069964051 -0.041103899 0.12947604 4284769380
0.062852502 -0.041448038 0.12571712 4284769380
0.05518318 -0.04196427 0.12332188 4284769380
0.04721643 -0.042635068 0.12237161 4284769380
0.089485787 -0.042240474 0.16358359 4284769380
0.089581549 -0.041529819 0.15556437 4284769380
0.08820527 -0.040967789 0.14765158 4284769380
0.085403666 -0.040573452 0.14011383 4284769380
0.081271842 -0.040360197 0.13320698 4284769380
0.075950049 -0.04033526 0.12716545 4284769380
0.069618918 -0.040499493 0.12219433 4284769380
0.062493362 -0.04084732 0.11846237 4284769380
0.05481524 -0.041366931 0.11609623 4284769380
0.046845187 -0.042040687 0.11517622 4284769380
0.038853731 -0.042845726 0.11573359 4284769380
0.0074404567 -0.056946144 0.24292292 4284769380
0.015373687 -0.056301467 0.24413551 4284769380
0.023382645 -0.055520568 0.24387297 4284769380
0.031195475 -0.054629952 0.2421442 4284769380
0.038546979 -0.053659849 0.23900791 4284769380
0.045187622 -0.052643187 0.23457052 4284769380
0.050891992 -0.051614478 0.22898266 4284769380
0.055466462 -0.050608642 0.22243403 4284769380
0.058755759 -0.049659818 0.21514688 4284769380
0.060648233 -0.048800211 0.2073686 4284769380
0.06107964 -0.048059005 0.19936319 4284769380
0.022700816 -0.055560399 0.24359074 4284769380
0.030708469 -0.054776959 0.24329774 4284769380
0.038514432 -0.053884391 0.24153922 4284769380
0.045853745 -0.052912988 0.23837489 4284769380
0.052477282 -0.05189573 0.23391214 4284769380
0.058160212 -0.05086714 0.22830248 4284769380
0.062709637 -0.049862139 0.22173628 4284769380
0.065971136 -0.048914835 0.21443647 4284769380
0.06783399 -0.048057385 0.20665079 4284769380
0.06823498 -0.047318894 0.19864355 4284769380
0.067160487 -0.046724431 0.19068652 4284769380
0.037792906 -0.053939551 0.24138927 4284769380
0.045591895 -0.053045042 0.23960103 4284769380
0.052918907 -0.052072357 0.23640873 4284769380
0.05952524 -0.051054511 0.23192067 4284769380
0.06518665 -0.050026059 0.22628926 4284769380
0.069710962 -0.049021907 0.21970561 4284769380
0.072944611 -0.048076138 0.21239322 4284769380
0.074777834 -0.047220856 0.20460027 4284769380
0.075148396 -0.046485096 0.19659132 4284769380
0.074043728 -0.045893829 0.18863818 4284769380
0.071501322 -0.045467123 0.18101086 4284769380
0.052183192 -0.052140899 0.23639634 4284769380
0.0594978 -0.051166944 0.23317608 4284769380
0.066086836 -0.050148528 0.22866282 4284769380
0.071726643 -0.049120225 0.22300974 4284769380
0.07622578 -0.048116934 0.21640873 4284769380
0.079431534 -0.047172714 0.20908386 4284769380
0.081235088 -0.046319615 0.20128375 4284769380
0.081575222 -0.045586593 0.1932732 4284769380
0.080440395 -0.04499853 0.18532407 4284769380
0.077869125 -0.044575389 0.17770623 4284769380
0.073948681 -0.044331532 0.17067823 4284769380
0.065362938 -0.050228026 0.22878845 4284769380
0.071934581 -0.049209055 0.22425002 4284769380
0.077552699 -0.048180915 0.21857536 4284769380
0.082026601 -0.047178503 0.21195708 4284769380
0.085204415 -0.046235844 0.20461985 4284769380
0.086978279 -0.04538494 0.1968127 4284769380
0.087287977 -0.044654667 0.18880065 4284769380
0.086123005 -0.044069819 0.18085566 4284769380
0.083522901 -0.043650247 0.17324741 4284769380
0.079575926 -0.043410189 0.16623414 4284769380
0.074416049 -0.043357797 0.16005392 4284769380
0.076866217 -0.048268557 0.21883456 4284769380
0.082462572 -0.047240596 0.2131384 4284769380
0.086911164 -0.046239078 0.20650296 4284769380
0.090060994 -0.045297995 0.19915345 4284769380
0.091805138 -0.044449296 0.19133939 4284769380
0.0920844 -0.043721784 0.18332596 4284769380
0.090889297 -0.043140158 0.17538521 4284769380
0.088260397 -0.042724159 0.16778666 4284769380
0.084286943 -0.042487908 0.16078824 4284769380
0.07910379 -0.04243942 0.15462749 4284769380
0.072886892 -0.042580348 0.14951354 4284769380
0.086286359 -0.046331767 0.20688656 4284769380
0.090709582 -0.045331154 0.20023404 4284769380
0.093831375 -0.044391662 0.19287239 4284769380
0.095545784 -0.043545179 0.1850515 4284769380
0.095794603 -0.042820442 0.17703682 4284769380
0.094569393 -0.042242046 0.16910043 4284769380
0.091911733 -0.041829627 0.16151169 4284769380
0.087911852 -0.04159718 0.15452822 4284769380
0.082705505 -0.041552603 0.14838703 4284769380
0.076469421 -0.041697402 0.1432966 4284769380
0.069415279 -0.042026665 0.13942972 4284769380
0.093290344 -0.044486124 0.19336686 4284769380
0.096384063 -0.043548234 0.18599315 4284769380
0.098068699 -0.042703982 0.17816556 4284769380
0.098287068 -0.041982025 0.17014974 4284769380
0.097031765 -0.041406866 0.16221781 4284769380
0.094345398 -0.040998034 0.15463899 4284769380
0.090319142 -0.040769402 0.14767055 4284769380
0.085089676 -0.040728729 0.14154902 4284769380
0.078834504 -0.040877398 0.13648219 4284769380
0.071765944 -0.041210365 0.13264203 4284769380
0.064123936 -0.041716322 0.13015892 4284769380
0.09763056 -0.042796873 0.17875338 4284769380
0.099285401 -0.041954864 0.17091917 4284769380
0.099473327 -0.041235697 0.16290234 4284769380
0.098187946 -0.040663786 0.154975 4284769380
0.095472895 -0.040258545 0.14740621 4284769380
0.091420338 -0.040033728 0.14045292 4284769380
0.08616782 -0.039996963 0.13435112 4284769380
0.079893649 -0.040149502 0.12930796 4284769380
0.072810777 -0.040486164 0.12549458 4284769380
0.065159634 -0.040995527 0.12304047 4284769380
0.057199925 -0.041660294 0.12202889 4284769380
0.099153571 -0.041323736 0.16356274 4284769380
0.099311039 -0.040607374 0.155545 4284769380
0.097995609 -0.04003872 0.14762235 4284769380
0.095251918 -0.039637074 0.14006372 4284769380
0.091173105 -0.039416075 0.13312566 4284769380
0.085897617 -0.039383218 0.12704369 4284769380
0.079604536 -0.039539624 0.12202426 4284769380
0.072507456 -0.039879978 0.11823774 4284769380
0.064847283 -0.040392734 0.11581265 4284769380
0.056884043 -0.041060485 0.11483133 4284769380
0.048888028 -0.041860562 0.11532707 4284769380
0.097805537 -0.040118791 0.14833198 4284769380
0.096460067 -0.0395534 0.14041415 4284769380
0.09368778 -0.03915536 0.13286577 4284769380
0.089582771 -0.03893818 0.12594306 4284769380
0.084284395 -0.038909234 0.119881 4284769380
0.077972487 -0.0390695 0.11488538 4284769380
0.070861302 -0.039413545 0.11112575 4284769380
0.063192219 -0.039929688 0.10872974 4284769380
0.055225551 -0.040600408 0.10777868 4284769380
0.047231726 -0.04140294 0.10830483 4284769380
0.039482083 -0.04231004 0.11029036 4284769380
0.031457804 -0.054526452 0.24124497 4284769380
0.039467979 -0.053748172 0.24101369 4284769380
0.047287736 -0.052859575 0.23931548 4284769380
0.054651644 -0.051890817 0.23620799 4284769380
0.061309744 -0.050874788 0.2317967 4284769380
0.067036033 -0.049845975 0.22623134 4284769380
0.07163614 -0.048839293 0.21970081 4284769380
0.074953921 -0.047888923 0.2124268 4284769380
0.076876752 -0.047027119 0.2046562 4284769380
0.077339374 -0.04628313 0.19665278 4284769380
0.07632608 -0.045682214 0.18868823 4284769380
0.046567343 -0.052914143 0.23915999 4284769380
0.05438035 -0.052023578 0.237432 4284769380
0.061732177 -0.051053509 0.23429644 4284769380
0.068373263 -0.050036866 0.22985972 4284769380
0.074078202 -0.049008157 0.22427244 4284769380
0.078653328 -0.048002299 0.21772428 4284769380
0.081943356 -0.047053434 0.21043748 4284769380
0.083836608 -0.046193771 0.20265938 4284769380
0.084268816 -0.04545249 0.19465402 4284769380
0.08322531 -0.044854756 0.18669312 4284769380
0.080741517 -0.044420853 0.1790469 4284769380
0.060996532 -0.051121552 0.2342784 4284769380
0.068336166 -0.050150182 0.2311148 4284769380
0.07496015 -0.049132939 0.22665271 4284769380
0.080643646 -0.048104346 0.22104362 4284769380
0.085193731 -0.047099322 0.2144779 4284769380
0.08845596 -0.046151981 0.2071784 4284769380
0.090319604 -0.045294471 0.19939293 4284769380
0.090721391 -0.04455591 0.19138573 4284769380
0.089647695 -0.043961365 0.1834286 4284769380
0.087134957 -0.043531012 0.17579165 4284769380
0.083268471 -0.043279462 0.16873409 4284769380
0.074235268 -0.049212042 0.22677277 4284769380
0.080842055 -0.048194211 0.22228539 4284769380
0.086504027 -0.047165755 0.21665454 4284769380
0.091029003 -0.046161577 0.21007136 4284769380
0.09426339 -0.045215771 0.20275928 4284769380
0.096097387 -0.044360433 0.19496654 4284769380
0.096468754 -0.043624599 0.18695761 4284769380
0.095364884 -0.043033246 0.17900439 4284769380
0.092823237 -0.042606451 0.17137681 4284769380
0.088930093 -0.042358696 0.16433378 4284769380
0.083817601 -0.042298391 0.15811437 4284769380
0.085815527 -0.047253124 0.21690844 4284769380
0.091455907 -0.046224814 0.21125592 4284769380
0.095955707 -0.045221504 0.20465536 4284769380
0.099162191 -0.04427724 0.19733083 4284769380
0.10096653 -0.043424085 0.18953091 4284769380
0.10130747 -0.042690992 0.18152039 4284769380
0.10017343 -0.042102844 0.17357117 4284769380
0.097602919 -0.04167961 0.16595307 4284769380
0.093683176 -0.041435651 0.15892468 4284769380
0.088547267 -0.041379251 0.15272456 4284769380
0.082369506 -0.041512325 0.1475632 4284769380
0.095327929 -0.045314047 0.20503414 4284769380
0.099802494 -0.044311613 0.19841631 4284769380
0.10298104 -0.043368913 0.19107939 4284769380
0.10475568 -0.042517953 0.18327244 4284769380
0.10506619 -0.041787606 0.17526042 4284769380
0.103902 -0.041202676 0.16731532 4284769380
0.10130266 -0.040783007 0.15970682 4284769380
0.097356379 -0.040542848 0.15269317 4284769380
0.09219712 -0.040490355 0.14651243 4284769380
0.086000003 -0.040627304 0.14137442 4284769380
0.078975372 -0.04094905 0.13745356 4284769380
0.10243618 -0.043463368 0.19156964 4284769380
0.10558674 -0.042522244 0.18422046 4284769380
0.10733168 -0.041673485 0.17640656 4284769380
0.10761174 -0.040945902 0.16839318 4284769380
0.10641743 -0.040364191 0.16045232 4284769380
0.10378929 -0.039948098 0.1528535 4284769380
0.099816523 -0.039711744 0.1458547 4284769380
0.094633989 -0.039663158 0.13969344 4284769380
0.088417597 -0.039803982 0.13457887 4284769380
0.081378348 -0.040129438 0.13068461 4284769380
0.073755197 -0.040628482 0.12814285 4284769380
0.106889 -0.041766506 0.17699096 4284769380
0.10860419 -0.040919967 0.16917023 4284769380
0.10885381 -0.040195152 0.1611556 4284769380
0.10762939 -0.039616674 0.15321907 4284769380
0.10497249 -0.039204158 0.14563009 4284769380
0.1009733 -0.038971614 0.13864622 4284769380
0.095767565 -0.038926933 0.13250451 4284769380
0.08953198 -0.039071631 0.12741347 4284769380
0.082478218 -0.039400794 0.12354588 4284769380
0.074845709 -0.039903253 0.12103304 4284769380
0.066893518 -0.040561955 0.11996023 4284769380
0.10852896 -0.040283453 0.16181348 4284769380
0.10874813 -0.039561421 0.15379769 4284769380
0.10749362 -0.03898618 0.14586565 4284769380
0.104808 -0.038577251 0.13828656 4284769380
0.10078245 -0.038348518 0.13131773 4284769380
0.095553584 -0.038307741 0.12519568 4284769380
0.089298911 -0.03845631 0.12012822 4284769380
0.082230732 -0.038789179 0.11628737 4284769380
0.074588969 -0.039295048 0.11380349 4284769380
0.066633008 -0.039956748 0.11276089 4284769380
0.05863291 -0.040751819 0.11319498 4284769380
0.10729808 -0.039066635 0.14657375 4284769380
0.1060135 -0.038494639 0.13864627 4284769380
0.1032992 -0.038089301 0.13107724 4284769380
0.099247329 -0.037864383 0.12412354 4284769380
0.093995422 -0.037827518 0.11802123 4284769380
0.087721743 -0.037979953 0.11297743 4284769380
0.080639251 -0.038316522 0.10916337 4284769380
0.072988346 -0.038825791 0.10670848 4284769380
0.065028735 -0.03949048 0.10569611 4284769380
0.057030592 -0.040288027 0.10616063 4284769380
0.049265407 -0.041191358 0.10808626 4284769380
0.10323989 -0.038159072 0.13181055 4284769380
0.10049696 -0.037757333 0.12425164 4284769380
0.096418835 -0.03753623 0.11731318 4284769380
0.091143951 -0.037503272 0.11123069 4284769380
0.084851362 -0.037659578 0.10621063 4284769380
0.077754654 -0.037999835 0.10242341 4284769380
0.070094727 -0.038512502 0.099997558 4284769380
0.062131573 -0.039180171 0.099015437 4284769380
0.054135501 -0.039980184 0.099510372 4284769380
0.046377927 -0.040885381 0.10146558 4284769380
0.039122175 -0.04186504 0.10481467 4284769380
0.054747898 -0.051800072 0.2352749 4284769380
0.062574469 -0.050913505 0.23360728 4284769380
0.06995067 -0.049946114 0.23052865 4284769380
0.076626122 -0.048930731 0.22614352 4284769380
0.082374245 -0.047901824 0.22060072 4284769380
0.086999916 -0.046894319 0.21408841 4284769380
0.090346128 -0.045942415 0.20682763 4284769380
0.092299297 -0.045078419 0.19906485 4284769380
0.092793122 -0.044331666 0.19106357 4284769380
0.091810845 -0.043727499 0.18309537 4284769380
0.0893858 -0.043286424 0.17543072 4284769380
0.069215134 -0.050013646 0.23050494 4284769380
0.076579362 -0.049044926 0.22739819 4284769380
0.083237909 -0.048028912 0.22298756 4284769380
0.08896476 -0.047000095 0.21742278 4284769380
0.093565524 -0.045993395 0.21089272 4284769380
0.096884027 -0.045042984 0.20361905 4284769380
0.09880764 -0.04418112 0.19584864 4284769380
0.099271066 -0.043437064 0.18784529 4284769380
0.098258562 -0.042836063 0.17988063 4284769380
0.095804505 -0.042398527 0.17222503 4284769380
0.091992199 -0.042139299 0.16513833 4284769380
0.082512073 -0.048107613 0.22310202 4284769380
0.089153618 -0.047090985 0.21866596 4284769380
0.094859108 -0.046062272 0.21307926 4284769380
0.099434897 -0.045056392 0.20653155 4284769380
0.10272565 -0.044107489 0.1992451 4284769380
0.10461969 -0.043247771 0.1914672 4284769380
0.10505269 -0.042506419 0.18346187 4284769380
0.10400999 -0.041908599 0.17550088 4284769380
0.10152695 -0.041474603 0.16785443 4284769380
0.097687878 -0.041219164 0.16078205 4284769380
0.092623077 -0.04115095 0.15452383 4284769380
0.094168633 -0.046149362 0.21332783 4284769380
0.099852696 -0.045120768 0.2077193 4284769380
0.10440344 -0.044115722 0.20115404 4284769380
0.1076664 -0.043168336 0.19385488 4284769380
0.10953082 -0.042310774 0.18606959 4284769380
0.10993341 -0.041572142 0.17806244 4284769380
0.10886051 -0.040977508 0.17010522 4284769380
0.10634853 -0.040547062 0.16246802 4284769380
0.10248274 -0.040295415 0.15541008 4284769380
0.09739437 -0.040231105 0.14917098 4284769380
0.091256127 -0.040356316 0.14396249 4284769380
0.10377273 -0.044208121 0.20152792 4284769380
0.10829837 -0.04320392 0.19494519 4284769380
0.11153349 -0.042258073 0.18763345 4284769380
0.11336827 -0.041402675 0.17984089 4284769380
0.11374043 -0.04066677 0.17183203 4284769380
0.11263735 -0.040075336 0.16387868 4284769380
0.11009647 -0.039648443 0.15625085 4284769380
0.10620403 -0.039400589 0.14920744 4284769380
0.10109215 -0.039340183 0.14298753 4284769380
0.094934359 -0.039469276 0.13780226 4284769380
0.087939672 -0.039783485 0.13382763 4284769380
0.11098483 -0.042352512 0.18811946 4284769380
0.11419206 -0.041408211 0.18079524 4284769380
0.11599717 -0.040554997 0.17299551 4284769380
0.11633891 -0.03982183 0.16498503 4284769380
0.11520567 -0.039233599 0.15703569 4284769380
0.11263592 -0.038810268 0.14941734 4284769380
0.10871688 -0.038566213 0.14238857 4284769380
0.10358158 -0.038509708 0.13618796 4284769380
0.097404331 -0.038642678 0.13102597 4284769380
0.090394817 -0.03896061 0.12707783 4284769380
0.082790963 -0.039452709 0.12447756 4284769380
0.11554998 -0.04064814 0.17357643 4284769380
0.11732541 -0.03979712 0.16576965 4284769380
0.11763672 -0.039066702 0.15775768 4284769380
0.11647332 -0.038481683 0.14981247 4284769380
0.11387474 -0.038061924 0.1422037 4284769380
0.10992916 -0.037821665 0.13518967 4284769380
0.10477051 -0.037769068 0.12900843 4284769380
0.098573893 -0.037905917 0.12386981 4284769380
0.091549657 -0.038227562 0.11994823 4284769380
0.083936222 -0.038723093 0.11737681 4284769380
0.075992025 -0.039375685 0.11624283 4284769380
0.11730679 -0.039155256 0.15841299 4284769380
0.11758766 -0.038427602 0.15039966 4284769380
0.11639414 -0.037845805 0.14245866 4284769380
0.11376676 -0.037429616 0.13485961 4284769380
0.10979469 -0.037193164 0.1278604 4284769380
0.10461277 -0.037144471 0.12169863 4284769380
0.098396875 -0.037285194 0.11658344 4284769380
0.091358013 -0.037610553 0.11268849 4284769380
0.083735108 -0.038109507 0.11014596 4284769380
0.075786904 -0.038765118 0.10904216 4284769380
0.067783199 -0.039555132 0.10941456 4284769380
0.11619315 -0.03792664 0.1431652 4284769380
0.11496952 -0.037348073 0.13522857 4284769380
0.11231338 -0.036935464 0.12763932 4284769380
0.10831489 -0.036702819 0.12065504 4284769380
0.10310976 -0.036658034 0.11451283 4284769380
0.096874684 -0.036802631 0.10942117 4284769380
0.089821301 -0.037131697 0.10555288 4284769380
0.082189031 -0.037634067 0.10303927 4284769380
0.074236944 -0.038292687 0.10196567 4284769380
0.066234961 -0.039085202 0.10236852 4284769380
0.058454696 -0.039984711 0.10423413 4284769380
0.11224843 -0.037005723 0.1283721 4284769380
0.10956357 -0.036596701 0.12079276 4284769380
0.1055387 -0.036367863 0.11382353 4284769380
0.10031045 -0.036326986 0.10770097 4284769380
0.094056278 -0.036475454 0.10263289 4284769380
0.086988479 -0.036808226 0.098791324 4284769380
0.079346955 -0.037314005 0.096306682 4284769380
0.071391091 -0.037975624 0.095263295 4284769380
0.063390948 -0.038770627 0.095696576 4284769380
0.055618066 -0.039672028 0.097591817 4284769380
0.048336297 -0.040649232 0.1008847 4284769380
0.10561208 -0.036425062 0.11455666 4284769380
0.10156091 -0.036200043 0.10760256 4284769380
0.096309602 -0.036163073 0.10149972 4284769380
0.090036422 -0.036315408 0.096455306 4284769380
0.082954302 -0.036651876 0.092640527 4284769380
0.075303636 -0.037161056 0.090184882 4284769380
0.067344122 -0.03782567 0.089171723 4284769380
0.059345927 -0.03862315 0.089635439 4284769380
0.051580545 -0.039526433 0.091560282 4284769380
0.044311557 -0.040504854 0.094880931 4284769380
0.037785709 -0.0415252 0.09948466 4284769380
0.076553166 -0.048855692 0.22520693 4284769380
0.083941549 -0.047889676 0.22215721 4284769380
0.090634257 -0.046874955 0.21779829 4284769380
0.09640412 -0.045845971 0.21227816 4284769380
0.10105529 -0.044837657 0.20578414 4284769380
0.10442989 -0.043884233 0.19853672 4284769380
0.10641336 -0.043018065 0.19078186 4284769380
0.10693838 -0.042268556 0.18278283 4284769380
0.10598713 -0.041661143 0.17481111 4284769380
0.10359191 -0.041216444 0.1671373 4284769380
0.099834003 -0.040949557 0.16002189 4284769380
0.08990752 -0.046953253 0.21790715 4284769380
0.096583419 -0.045937885 0.21352267 4284769380
0.1023321 -0.044908978 0.20798045 4284769380
0.10695843 -0.043901451 0.20146862 4284769380
0.11030536 -0.042949509 0.19420817 4284769380
0.11225931 -0.042085458 0.18644559 4284769380
0.11275394 -0.041338634 0.17844437 4284769380
0.11177246 -0.04073438 0.17047606 4284769380
0.10934818 -0.040293213 0.16281119 4284769380
0.10556339 -0.040030107 0.15570989 4284769380
0.10054658 -0.039953988 0.14941324 4284769380
0.10163968 -0.044995785 0.20822367 4284769380
0.1073671 -0.043966964 0.20265947 4284769380
0.11196852 -0.042960241 0.19612987 4284769380
0.11528775 -0.042009789 0.18885654 4284769380
0.11721215 -0.041147873 0.18108635 4284769380
0.11767636 -0.040403742 0.17308304 4284769380
0.11666466 -0.039802659 0.16511828 4284769380
0.11421137 -0.039365031 0.15746243 4284769380
0.11039977 -0.039105706 0.15037537 4284769380
0.10535923 -0.039033487 0.14409764 4284769380
0.099260859 -0.03915083 0.13884233 4284769380
0.11133491 -0.043052487 0.19649887 4284769380
0.11591135 -0.042046584 0.18995161 4284769380
0.11920284 -0.041097641 0.18266548 4284769380
0.12109765 -0.040237863 0.17488779 4284769380
0.12153146 -0.03949644 0.16688253 4284769380
0.12048955 -0.038898539 0.15892144 4284769380
0.11800727 -0.038464449 0.15127473 4284769380
0.1141689 -0.038208909 0.14420198 4284769380
0.10910472 -0.038140595 0.13794327 4284769380
0.10298663 -0.038261823 0.13271102 4284769380
0.096022286 -0.038568474 0.12868287 4284769380
0.11865044 -0.041192062 0.18314721 4284769380
0.12191413 -0.040244639 0.17584839 4284769380
0.12377933 -0.039387017 0.1680633 4284769380
0.12418272 -0.038648311 0.16005619 4284769380
0.12311061 -0.038053598 0.15209886 4284769380
0.12059939 -0.037623059 0.14446142 4284769380
0.11673431 -0.037371308 0.1374031 4284769380
0.11164655 -0.037306894 0.13116349 4284769380
0.10550882 -0.037432004 0.12595439 4284769380
0.098529458 -0.037742388 0.12195261 4284769380
0.090945356 -0.038227513 0.119294 4284769380
0.12332765 -0.03948028 0.16864072 4284769380
0.12516321 -0.038624827 0.16084835 4284769380
0.12553617 -0.037888851 0.15283951 4284769380
0.12443389 -0.037297331 0.14488608 4284769380
0.12189377 -0.036870345 0.13725799 4284769380
0.11800203 -0.03662239 0.13021421 4284769380
0.11289077 -0.03656188 0.12399379 4284769380
0.10673349 -0.036690872 0.1188079 4284769380
0.099739194 -0.037004981 0.11483257 4284769380
0.092145294 -0.037493553 0.11220273 4284769380
0.084209554 -0.038139999 0.11100764 4284769380
0.1252012 -0.037977654 0.15349223 4284769380
0.12554374 -0.037244417 0.1454818 4284769380
0.12441129 -0.036656104 0.13753235 4284769380
0.12184229 -0.03623268 0.12991375 4284769380
0.11792395 -0.035988521 0.12288459 4284769380
0.11278927 -0.035931915 0.11668346 4284769380
0.10661254 -0.036064785 0.11152086 4284769380
0.099603415 -0.036382619 0.10757203 4284769380
0.091999814 -0.036874626 0.10497099 4284769380
0.084059842 -0.037524108 0.10380606 4284769380
0.076053001 -0.038309023 0.10411675 4284769380
0.12420486 -0.036737312 0.13823727 4284769380
0.12304226 -0.03615221 0.13029195 4284769380
0.12044443 -0.035732351 0.12268293 4284769380
0.11649955 -0.035491996 0.1156685 4284769380
0.11134151 -0.035439294 0.10948675 4284769380
0.10514541 -0.035576042 0.10434752 4284769380
0.098121561 -0.03589759 0.10042524 4284769380
0.090508379 -0.036393031 0.097853065 4284769380
0.082564279 -0.037045542 0.096718289 4284769380
0.074558929 -0.037832979 0.097059436 4284769380
0.066764049 -0.03872861 0.098864928 4284769380
0.12037384 -0.035803095 0.12341515 4284769380
0.11774722 -0.035386812 0.11581583 4284769380
0.11377584 -0.03515026 0.10881623 4284769380
0.10859453 -0.035101466 0.10265394 4284769380
0.10237914 -0.035242084 0.097538151 4284769380
0.095340669 -0.035567347 0.093642488 4284769380
0.08771801 -0.036066212 0.091099195 4284769380
0.079769909 -0.036721744 0.089994602 4284769380
0.07176616 -0.037511691 0.0903662 4284769380
0.063978434 -0.038409241 0.092201374 4284769380
0.056671083 -0.039383929 0.09543784 4284769380
0.11384358 -0.035208032 0.10954985 4284769380
0.10984578 -0.034975287 0.10256518 4284769380
0.10464127 -0.034930401 0.096422456 4284769380
0.098406695 -0.035074893 0.091330171 4284769380
0.091353692 -0.035403863 0.087461181 4284769380
0.083721668 -0.035906143 0.084946811 4284769380
0.075769678 -0.036564685 0.083872415 4284769380
0.06776765 -0.037357133 0.084274456 4284769380
0.059987191 -0.038256593 0.086139292 4284769380
0.05269241 -0.039232526 0.089403622 4284769380
0.046130914 -0.040251814 0.093956642 4284769380
0.10484495 -0.034973159 0.09713155 4284769380
0.099617302 -0.034932181 0.091008462 4284769380
0.093363628 -0.035080545 0.085939765 4284769380
0.086296208 -0.035413221 0.082097501 4284769380
0.07865493 -0.03591891 0.079612091 4284769380
0.070699163 -0.036580451 0.078567907 4284769380
0.062698968 -0.037375391 0.079000391 4284769380
0.054925893 -0.038276739 0.08089485 4284769380
0.047643788 -0.039253909 0.084187001 4284769380
0.041099835 -0.040273726 0.088765077 4284769380
0.035516161 -0.041301578 0.09447369 4284769380
0.096164331 -0.045789082 0.21136852 4284769380
0.1028742 -0.044775039 0.2070359 4284769380
0.10866572 -0.043745995 0.2015385 4284769380
0.11334231 -0.042736884 0.19506291 4284769380
0.11674523 -0.041781958 0.18782893 4284769380
0.11875898 -0.04091363 0.18008213 4284769380
0.11931519 -0.040161375 0.17208545 4284769380
0.11839499 -0.039550725 0.16411033 4284769380
0.11602962 -0.039102413 0.15642749 4284769380
0.11229936 -0.038831651 0.14929768 4284769380
0.10733083 -0.038747635 0.14296296 4284769380
0.10797141 -0.043832511 0.20177636 4284769380
0.11374183 -0.042803526 0.1962568 4284769380
0.11839365 -0.04179519 0.18976326 4284769380
0.12176897 -0.040841728 0.18251617 4284769380
0.12375322 -0.039975505 0.17476153 4284769380
0.12427904 -0.039225925 0.16676255 4284769380
0.1233286 -0.03861843 0.15879074 4284769380
0.12093414 -0.038173638 0.1511167 4284769380
0.11717694 -0.037906654 0.14400092 4284769380
0.11218455 -0.037826534 0.13768493 4284769380
0.10612641 -0.037935998 0.13238312 4284769380
0.11775718 -0.041887276 0.19012734 4284769380
0.12238416 -0.04087973 0.18361597 4284769380
0.12573183 -0.039927747 0.17635587 4284769380
0.12768656 -0.039063644 0.1685935 4284769380
0.12818198 -0.038316745 0.16059232 4284769380
0.12720129 -0.03771241 0.15262392 4284769380
0.12477778 -0.037271149 0.14495881 4284769380
0.1209937 -0.037007943 0.13785715 4284769380
0.11597752 -0.036931723 0.13156 4284769380
0.10989948 -0.037045076 0.1262811 4284769380
0.10296591 -0.037344158 0.12219965 4284769380
0.1251757 -0.040022146 0.17683329 4284769380
0.12849566 -0.039071657 0.1695603 4284769380
0.13042083 -0.03820968 0.1617903 4284769380
0.13088585 -0.037465479 0.15378705 4284769380
0.12987494 -0.036864314 0.1458222 4284769380
0.12742242 -0.036426589 0.13816611 4284769380
0.12361152 -0.036167167 0.13107866 4284769380
0.11857161 -0.036094844 0.12480044 4284769380
0.11247376 -0.036212087 0.11954452 4284769380
0.10552495 -0.036514904 0.11548934 4284769380
0.097961053 -0.036993027 0.11277253 4284769380
0.12996471 -0.038303055 0.16236418 4284769380
0.13186029 -0.037443224 0.15458669 4284769380
0.13229489 -0.036701728 0.14658147 4284769380
0.13125378 -0.036103744 0.13862027 4284769380
0.12877227 -0.035669561 0.13097334 4284769380
0.1249346 -0.035413921 0.1239002 4284769380
0.11987104 -0.035345502 0.11764099 4284769380
0.11375346 -0.035466626 0.11240814 4284769380
0.10678952 -0.035773184 0.10837928 4284769380
0.099215604 -0.036254764 0.10569117 4284769380
0.09128879 -0.036895026 0.10443505 4284769380
0.13195489 -0.036790781 0.14723153 4284769380
0.13235909 -0.036052004 0.13922448 4284769380
0.13128777 -0.035457205 0.13126706 4284769380
0.12877731 -0.035026569 0.12362936 4284769380
0.12491293 -0.034774721 0.11657067 4284769380
0.1198258 -0.034710206 0.11033055 4284769380
0.11368858 -0.034835212 0.10512084 4284769380
0.10670961 -0.035145499 0.10111836 4284769380
0.099125773 -0.035630532 0.09845899 4284769380
0.091194488 -0.036273848 0.097232983 4284769380
0.083184987 -0.037053615 0.097481951 4284769380
0.1310759 -0.035538781 0.13197032 4284769380
0.12997441 -0.034947176 0.12401678 4284769380
0.12743504 -0.034520101 0.11638845 4284769380
0.12354401 -0.034272045 0.10934427 4284769380
0.11843336 -0.034211431 0.10312336 4284769380
0.11227661 -0.034340318 0.097936854 4284769380
0.1052827 -0.03465433 0.093960829 4284769380
0.097689055 -0.035142813 0.091330223 4284769380
0.089753427 -0.035789177 0.090134345 4284769380
0.081745178 -0.036571488 0.090413779 4284769380
0.073936142 -0.037463188 0.092159048 4284769380
0.12735881 -0.034591321 0.11712006 4284769380
0.12479058 -0.034167804 0.1095012 4284769380
0.12087294 -0.033923544 0.10247165 4284769380
0.11573887 -0.033866838 0.096270017 4284769380
0.10956264 -0.033999603 0.091106802 4284769380
0.10255391 -0.034317341 0.087157272 4284769380
0.094950564 -0.034809258 0.084555484 4284769380
0.087010704 -0.035458662 0.083389752 4284769380
0.079003818 -0.036243506 0.083699644 4284769380
0.071201712 -0.037137154 0.085474648 4284769380
0.063869208 -0.038109269 0.088654511 4284769380
0.12093504 -0.033981893 0.10320573 4284769380
0.11699085 -0.033741433 0.096190907 4284769380
0.11183342 -0.033688631 0.090008646 4284769380
0.10563783 -0.033825275 0.084868796 4284769380
0.098614365 -0.034146726 0.08094582 4284769380
0.091001436 -0.034642078 0.078372881 4284769380
0.083057448 -0.03529451 0.077237315 4284769380
0.075052053 -0.03608188 0.077577658 4284769380
0.067256987 -0.036977459 0.079382375 4284769380
0.059936836 -0.037950851 0.082590193 4284769380
0.053340085 -0.038969014 0.087092228 4284769380
0.11203166 -0.033732042 0.090719245 4284769380
0.10685096 -0.033683144 0.084556445 4284769380
0.10063608 -0.033823662 0.079440027 4284769380
0.093597986 -0.034148827 0.075543664 4284769380
0.085975572 -0.034647603 0.072999619 4284769380
0.078027576 -0.035303053 0.071894228 4284769380
0.070023783 -0.036092937 0.072265029 4284769380
0.062235869 -0.036990434 0.074099422 4284769380
0.054928187 -0.037965089 0.077335157 4284769380
0.048348788 -0.038983814 0.081862383 4284769380
0.042721 -0.040012028 0.087527439 4284769380
0.10096344 -0.033850599 0.080102026 4284769380
0.094729371 -0.033994991 0.075009122 4284769380
0.087676749 -0.034323864 0.071139425 4284769380
0.08004497 -0.034826055 0.068624295 4284769380
0.072093084 -0.035484519 0.067549109 4284769380
0.064091004 -0.036276899 0.067950346 4284769380
0.056310356 -0.037176307 0.069814406 4284769380
0.049015239 -0.03815221 0.073077999 4284769380
0.042453285 -0.039171483 0.077630356 4284769380
0.036847226 -0.040199526 0.083316952 4284769380
0.032387353 -0.041201446 0.089944758 4284769380
0.11294349 -0.042699993 0.19420983 4284769380
0.11875658 -0.041670907 0.18873525 4284769380
0.12345853 -0.040661015 0.18227816 4284769380
0.12688972 -0.039704598 0.17505775 4284769380
0.12893371 -0.038834121 0.1673191 4284769380
0.12952112 -0.038079135 0.15932491 4284769380
0.12863198 -0.037465259 0.15134653 4284769380
0.12629649 -0.037013337 0.14365475 4284769380
0.12259392 -0.036738705 0.13651069 4284769380
0.11764996 -0.036650687 0.13015682 4284769380
0.11163242 -0.036752272 0.12480883 4284769380
0.12281923 -0.040752936 0.18263729 4284769380
0.12749648 -0.039743803 0.17616217 4284769380
0.13090013 -0.03878884 0.16892855 4284769380
0.13291465 -0.037920456 0.16118196 4284769380
0.13347165 -0.03716813 0.15318534 4284769380
0.13255225 -0.036557399 0.14521013 4284769380
0.13018765 -0.036108993 0.13752705 4284769380
0.12645809 -0.035838131 0.13039689 4284769380
0.1214902 -0.03575401 0.12406167 4284769380
0.11545257 -0.035859484 0.11873644 4284769380
0.10855018 -0.036150973 0.11460194 4284769380
0.13034029 -0.038883209 0.16940165 4284769380
0.13371634 -0.037929706 0.1621549 4284769380
0.13570137 -0.037063427 0.15440045 4284769380
0.136228 -0.036313776 0.14640152 4284769380
0.13527834 -0.0357062 0.13842963 4284769380
0.13288465 -0.035261314 0.13075536 4284769380
0.12912816 -0.03499423 0.12363921 4284769380
0.12413639 -0.034914006 0.11732273 4284769380
0.11807878 -0.035023373 0.11202032 4284769380
0.11116094 -0.035318609 0.10791197 4284769380
0.10361771 -0.035789698 0.10513713 4284769380
0.13524081 -0.03715691 0.15497078 4284769380
0.1371963 -0.03629275 0.1472086 4284769380
0.13769253 -0.035545785 0.13920748 4284769380
0.13671264 -0.034941364 0.13123901 4284769380
0.13428989 -0.03450001 0.12357365 4284769380
0.13050653 -0.034236703 0.11647161 4284769380
0.12549096 -0.034160383 0.11017396 4284769380
0.11941344 -0.034273632 0.10489446 4284769380
0.11248028 -0.034572616 0.10081232 4284769380
0.10492679 -0.035047177 0.098066099 4284769380
0.097009376 -0.035681214 0.096749015 4284769380
0.1373475 -0.035635073 0.13985486 4284769380
0.13781333 -0.034890801 0.13185167 4284769380
0.13680321 -0.034289554 0.12388673 4284769380
0.13435145 -0.033851735 0.11623041 4284769380
0.13054125 -0.033592213 0.10914259 4284769380
0.12550196 -0.03351979 0.10286386 4284769380
0.11940464 -0.033636928 0.097607337 4284769380
0.11245623 -0.033939648 0.093551464 4284769380
0.1048926 -0.034417678 0.090833895 4284769380
0.096970491 -0.035054792 0.089546889 4284769380
0.088958807 -0.035829362 0.089734122 4284769380
0.13658594 -0.034371495 0.1245883 4284769380
0.13554561 -0.033773426 0.11662701 4284769380
0.13306485 -0.03333915 0.10897982 4284769380
0.12922789 -0.033083413 0.10190632 4284769380
0.12416495 -0.03301489 0.095646597 4284769380
0.11804789 -0.033135913 0.090413146 4284769380
0.11108435 -0.033442371 0.086383596 4284769380
0.10351069 -0.033923861 0.083694726 4284769380
0.095583998 -0.034564041 0.082437813 4284769380
0.087573335 -0.035341177 0.082655519 4284769380
0.079750605 -0.036228895 0.084340453 4284769380
0.132983 -0.033410847 0.10971077 4284769380
0.1304733 -0.032980122 0.10207283 4284769380
0.12660962 -0.032728173 0.095013753 4284769380
0.1215231 -0.032663554 0.088773139 4284769380
0.1153864 -0.032788459 0.083562814 4284769380
0.10840783 -0.033098646 0.079559647 4284769380
0.10082425 -0.033583589 0.076899514 4284769380
0.092893086 -0.034226827 0.075672708 4284769380
0.084883556 -0.035006523 0.07592088 4284769380
0.077067524 -0.035896212 0.077635601 4284769380
0.069710307 -0.0368657 0.080758668 4284769380
0.12666607 -0.032787088 0.095748238 4284769380
0.12277573 -0.032538936 0.088703677 4284769380
0.11766571 -0.032478217 0.082482256 4284769380
0.11150946 -0.032607004 0.077295147 4284769380
0.10451595 -0.032920919 0.073318414 4284769380
0.096922562 -0.033409309 0.070687056 4284769380
0.088987045 -0.034055591 0.069490381 4284769380
0.080978759 -0.034837835 0.069769017 4284769380
0.073169544 -0.035729486 0.071513504 4284769380
0.065824464 -0.036700275 0.074664615 4284769380
0.059192847 -0.037717253 0.079115406 4284769380
0.11785848 -0.032522272 0.083194315 4284769380
0.11272503 -0.032465462 0.076992169 4284769380
0.10654932 -0.032598127 0.071828343 4284769380
0.099540971 -0.032915764 0.067878112 4284769380
0.091937877 -0.033407591 0.065275565 4284769380
0.083998121 -0.034056913 0.064109042 4284769380
0.075991206 -0.034841694 0.06441813 4284769380
0.068188913 -0.03573529 0.066192351 4284769380
0.060856089 -0.036707371 0.069371477 4284769380
0.054241627 -0.037724942 0.073847592 4284769380
0.048570056 -0.038753461 0.079468757 4284769380
0.10687159 -0.032625761 0.072492801 4284769380
0.10067651 -0.0327623 0.067352332 4284769380
0.093653426 -0.033083655 0.063428655 4284769380
0.086040743 -0.033578914 0.060854957 4284769380
0.078096867 -0.034231268 0.059718594 4284769380
0.070091426 -0.035018571 0.060058143 4284769380
0.062296174 -0.035914101 0.061862074 4284769380
0.0549757 -0.036887459 0.065069154 4284769380
0.048378494 -0.037905607 0.069570534 4284769380
0.042728487 -0.038933985 0.075213403 4284769380
0.038217463 -0.039937682 0.081806228 4284769380
0.094093814 -0.033093892 0.06402202 4284769380
0.0870561 -0.033418961 0.06012496 4284769380
0.07943394 -0.033917643 0.057580147 4284769380
0.071486048 -0.034573015 0.056473963 4284769380
0.06348221 -0.035362832 0.056843959 4284769380
0.055694107 -0.036260281 0.058677576 4284769380
0.048386093 -0.037234902 0.061912574 4284769380
0.041806236 -0.038253613 0.066439144 4284769380
0.036177874 -0.039281834 0.072103634 4284769380
0.031692062 -0.04028466 0.078713775 4284769380
0.028501062 -0.041228056 0.086045191 4284769380
0.12634484 -0.039688904 0.17428897 4284769380
0.13107207 -0.038678247 0.16785049 4284769380
0.1345315 -0.03772036 0.16064377 4284769380
0.13660569 -0.036847748 0.15291341 4284769380
0.13722427 -0.036090039 0.14492182 4284769380
0.1363662 -0.035472948 0.13694029 4284769380
0.13406064 -0.035017423 0.12923969 4284769380
0.13038583 -0.034738924 0.12208147 4284769380
0.12546651 -0.03464691 0.11570855 4284769380
0.11946967 -0.034744497 0.11033729 4284769380
0.11259886 -0.035028379 0.10614999 4284769380
0.13396801 -0.037814692 0.1611125 4284769380
0.13739994 -0.036858238 0.15389244 4284769380
0.13944471 -0.035987709 0.14615402 4284769380
0.1400329 -0.035232648 0.13815989 4284769380
0.13914455 -0.034618694 0.13018142 4284769380
0.13680984 -0.034166679 0.12248942 4284769380
0.13310799 -0.033891946 0.11534498 4284769380
0.12816465 -0.033803828 0.10899062 4284769380
0.12214764 -0.033905309 0.10364203 4284769380
0.11526119 -0.034192946 0.099480763 4284769380
0.10773905 -0.034656975 0.09664806 4284769380
0.13897973 -0.036081292 0.14672074 4284769380
0.14099503 -0.035212856 0.13897435 4284769380
0.14155285 -0.034460459 0.13097779 4284769380
0.14063424 -0.033849645 0.12300251 4284769380
0.13827039 -0.033401147 0.1153192 4284769380
0.13454156 -0.033130188 0.10818867 4284769380
0.12957428 -0.033045962 0.10185296 4284769380
0.12353719 -0.033151336 0.096527122 4284769380
0.1166352 -0.033442724 0.092391938 4284769380
0.10910259 -0.033910245 0.08958777 4284769380
0.10119504 -0.034538019 0.088209808 4284769380
0.14120282 -0.034549985 0.13162246 4284769380
0.14173025 -0.033800259 0.1236236 4284769380
0.14078139 -0.033192597 0.11565161 4284769380
0.13838847 -0.032747623 0.10797711 4284769380
0.13463269 -0.032480437 0.10086059 4284769380
0.12964155 -0.032400113 0.094543613 4284769380
0.12358446 -0.032509375 0.089240603 4284769380
0.11666702 -0.032804515 0.085131563 4284769380
0.10912406 -0.033275511 0.082355976 4284769380
0.10121159 -0.033906382 0.081008047 4284769380
0.093198188 -0.034675714 0.081133537 4284769380
0.1405587 -0.0332749 0.11635145 4284769380
0.13957961 -0.032670397 0.10838287 4284769380
0.13715762 -0.032228954 0.10071729 4284769380
0.13337496 -0.031965546 0.093614876 4284769380
0.12836002 -0.031889122 0.087316729 4284769380
0.12228303 -0.03200227 0.082036629 4284769380
0.11535026 -0.032301154 0.077953793 4284769380
0.10779704 -0.032775626 0.075206816 4284769380
0.099879757 -0.033409581 0.073888943 4284769380
0.091867141 -0.034181502 0.074044906 4284769380
0.084031187 -0.035065185 0.075669408 4284769380
0.13707013 -0.03230112 0.10144754 4284769380
0.13461913 -0.031863209 0.093790971 4284769380
0.13080965 -0.031603586 0.086702779 4284769380
0.12577097 -0.031531062 0.080423549 4284769380
0.11967417 -0.031648096 0.075166427 4284769380
0.11272616 -0.03195072 0.071109861 4284769380
0.1051628 -0.032428659 0.068391539 4284769380
0.097240806 -0.033065692 0.067103744 4284769380
0.089229099 -0.033840191 0.067290172 4284769380
0.081399612 -0.034725875 0.068944514 4284769380
0.074018113 -0.035692673 0.072010599 4284769380
0.13086045 -0.031663071 0.08743763 4284769380
0.12702419 -0.031407233 0.08036375 4284769380
0.12196187 -0.03133861 0.074103527 4284769380
0.11584532 -0.031459529 0.068869464 4284769380
0.10888218 -0.031765886 0.064839222 4284769380
0.10130879 -0.032247286 0.062149595 4284769380
0.09338221 -0.032887384 0.060891889 4284769380
0.085371517 -0.033664457 0.061108794 4284769380
0.077548608 -0.034552123 0.062792942 4284769380
0.070179038 -0.035520256 0.065887176 4284769380
0.063512951 -0.036535989 0.070286453 4284769380
0.12214916 -0.031383306 0.074817002 4284769380
0.11706327 -0.031318583 0.068575881 4284769380
0.11092708 -0.031443384 0.063364953 4284769380
0.1039489 -0.031753477 0.059361089 4284769380
0.096365578 -0.032238327 0.0567002 4284769380
0.088434532 -0.032881483 0.055472605 4284769380
0.080424972 -0.033661112 0.055719975 4284769380
0.072608761 -0.034550752 0.057433911 4284769380
0.065251224 -0.035520203 0.06055624 4284769380
0.058602098 -0.036536559 0.064980969 4284769380
0.052887078 -0.037565321 0.070557922 4284769380
0.11124425 -0.031471714 0.064031832 4284769380
0.10508852 -0.031600397 0.058844108 4284769380
0.098095395 -0.031914216 0.054866683 4284769380
0.090502262 -0.032402512 0.052234564 4284769380
0.082566857 -0.033048715 0.051037099 4284769380
0.074558541 -0.033830892 0.051314931 4284769380
0.066749148 -0.034722492 0.053058632 4284769380
0.059403747 -0.035693247 0.056209013 4284769380
0.05277168 -0.03671021 0.060659137 4284769380
0.047078062 -0.03773886 0.066257946 4284769380
0.042516153 -0.038744282 0.072815403 4284769380
0.098531231 -0.031925175 0.055463385 4284769380
0.091523275 -0.032242712 0.051512457 4284769380
0.083920434 -0.03273445 0.04890915 4284769380
0.07598079 -0.033383694 0.04774183 4284769380
0.067973837 -0.034168407 0.048050124 4284769380
0.060171362 -0.035061952 0.04982356 4284769380
0.05283821 -0.036033999 0.053001948 4284769380
0.046223298 -0.037051555 0.057477396 4284769380
0.04055116 -0.038080074 0.063097991 4284769380
0.03601433 -0.039084654 0.069672957 4284769380
0.032766804 -0.040031187 0.076979101 4284769380
0.084459528 -0.032727651 0.049414586 4284769380
0.076847091 -0.033222821 0.046840128 4284769380
0.06890332 -0.033875093 0.045702972 4284769380
0.060897846 -0.034662332 0.046041716 4284769380
0.053102404 -0.03555781 0.047844864 4284769380
0.045781605 -0.036531135 0.051051214 4284769380
0.039183941 -0.037549268 0.055551924 4284769380
0.033533368 -0.03857765 0.061194226 4284769380
0.02902168 -0.03958137 0.067786597 4284769380
0.025802027 -0.040526364 0.075105265 4284769380
0.023983693 -0.041380551 0.082901813 4284769380
0.13593248 -0.036853764 0.15225394 4284769380
0.13942008 -0.035894413 0.145061 4284769380
0.14152446 -0.035019681 0.13733906 4284769380
0.1421742 -0.03425926 0.1293502 4284769380
0.14134721 -0.033638962 0.12136562 4284769380
0.13907161 -0.033179842 0.11365634 4284769380
0.13542461 -0.032897484 0.10648405 4284769380
0.13053001 -0.032801468 0.10009219 4284769380
0.12455396 -0.032895062 0.094697736 4284769380
0.1176993 -0.033175085 0.090483792 4284769380
0.11019871 -0.033632029 0.087593392 4284769380
0.14105512 -0.035113361 0.13790214 4284769380
0.14313009 -0.034240697 0.130172 4284769380
0.14374946 -0.033482917 0.12218048 4284769380
0.1428922 -0.032865744 0.11419886 4284769380
0.14058739 -0.032410126 0.10649805 4284769380
0.1369133 -0.03213153 0.099339448 4284769380
0.13199462 -0.032039411 0.09296605 4284769380
0.1259983 -0.032136898 0.087594189 4284769380
0.11912791 -0.03242068 0.08340621 4284769380
0.11161662 -0.032881126 0.080544263 4284769380
0.10371941 -0.033502605 0.079105496 4284769380
0.14339447 -0.03357267 0.1228224 4284769380
0.14398347 -0.032817543 0.11482833 4284769380
0.14309593 -0.032203503 0.10684977 4284769380
0.14076197 -0.031751394 0.099157549 4284769380
0.13706082 -0.031476565 0.092012748 4284769380
0.13211812 -0.031388342 0.085657902 4284769380
0.12610164 -0.031489722 0.080308713 4284769380
0.1192156 -0.031777259 0.076146759 4284769380
0.11169374 -0.032241199 0.073313311 4284769380
0.10379137 -0.032865793 0.07190454 4284769380
0.095776744 -0.033629835 0.071968265 4284769380
0.14286783 -0.03228616 0.10754783 4284769380
0.14195003 -0.031675261 0.099572457 4284769380
0.13958696 -0.03122667 0.091888919 4284769380
0.13585882 -0.030955613 0.084758021 4284769380
0.13089217 -0.030871287 0.078421816 4284769380
0.12485561 -0.030976556 0.073095381 4284769380
0.11795403 -0.031267848 0.068959504 4284769380
0.11042169 -0.031735275 0.066154592 4284769380
0.10251428 -0.032362968 0.064775832 4284769380
0.094500199 -0.033129625 0.064870045 4284769380
0.086651474 -0.034009222 0.066434018 4284769380
0.13949384 -0.031299308 0.092618421 4284769380
0.13710167 -0.030854238 0.084943689 4284769380
0.1333466 -0.030586954 0.077826798 4284769380
0.12835608 -0.030506525 0.071509324 4284769380
0.12229953 -0.030615686 0.066205718 4284769380
0.1153825 -0.030910725 0.062095989 4284769380
0.1078398 -0.031381633 0.059319645 4284769380
0.099927463 -0.032012422 0.057970926 4284769380
0.091914043 -0.032781683 0.058095612 4284769380
0.084071562 -0.033663303 0.059689466 4284769380
0.076666221 -0.034627356 0.062698394 4284769380
0.13339175 -0.030647 0.078561969 4284769380
0.12960979 -0.030383494 0.071459189 4284769380
0.12459548 -0.030306967 0.065160543 4284769380
0.11851901 -0.030420013 0.059879836 4284769380
0.11158665 -0.030718798 0.055796314 4284769380
0.10403369 -0.031193178 0.053048585 4284769380
0.096116528 -0.031827055 0.051729921 4284769380
0.088103898 -0.032598905 0.05188508 4284769380
0.080267772 -0.033482537 0.053508796 4284769380
0.072874144 -0.034447953 0.056545954 4284769380
0.066173971 -0.035462383 0.060893465 4284769380
0.12477729 -0.030352302 0.065875396 4284769380
0.11973925 -0.030279674 0.059595667 4284769380
0.11364296 -0.030396607 0.054337941 4284769380
0.10669535 -0.030699132 0.050280679 4284769380
0.099132255 -0.031176981 0.047561608 4284769380
0.091210395 -0.031813931 0.046273015 4284769380
0.083198652 -0.032588366 0.046458647 4284769380
0.075368993 -0.033473995 0.048112202 4284769380
0.067987181 -0.034440756 0.051177546 4284769380
0.061303783 -0.035455838 0.055550639 4284769380
0.055545658 -0.036484782 0.061083034 4284769380
0.11395501 -0.030425629 0.055007201 4284769380
0.10783899 -0.030546445 0.049772527 4284769380
0.10087624 -0.030852707 0.045741588 4284769380
0.093303107 -0.031334016 0.043051209 4284769380
0.08537665 -0.031974033 0.041792713 4284769380
0.077365927 -0.032751035 0.042008813 4284769380
0.069542855 -0.033638652 0.043692179 4284769380
0.062172964 -0.034606747 0.046785668 4284769380
0.055506431 -0.035622466 0.051184278 4284769380
0.049769536 -0.036651328 0.056738701 4284769380
0.045157012 -0.037658408 0.063260399 4284769380
0.1013075 -0.030864388 0.046341594 4284769380
0.094329707 -0.03117438 0.042337038 4284769380
0.086746648 -0.031659141 0.039675388 4284769380
0.078815721 -0.032302219 0.038447004 4284769380
0.070806123 -0.033081781 0.03869357 4284769380
0.062989742 -0.033971366 0.040406726 4284769380
0.055631883 -0.034940783 0.043528315 4284769380
0.048982311 -0.035957124 0.047952376 4284769380
0.043266729 -0.036985885 0.053528748 4284769380
0.038679149 -0.037992157 0.060068142 4284769380
0.035375293 -0.038941775 0.067348592 4284769380
0.087281868 -0.031653069 0.04018493 4284769380
0.079688989 -0.032141279 0.037552055 4284769380
0.071753703 -0.032787401 0.036353797 4284769380
0.06374535 -0.033569511 0.036630828 4284769380
0.055935774 -0.034461059 0.038373746 4284769380
0.048590053 -0.03543178 0.04152339 4284769380
0.041957535 -0.036448728 0.045972843 4284769380
0.03626335 -0.037477382 0.051571082 4284769380
0.031700782 -0.038482822 0.058128078 4284769380
0.028424704 -0.039430924 0.065421261 4284769380
0.026546312 -0.040289506 0.073203072 4284769380
0.072373956 -0.032763794 0.036754861 4284769380
0.064434424 -0.033412956 0.035586748 4284769380
0.05642743 -0.034197602 0.035894237 4284769380
0.048624773 -0.035091095 0.037666894 4284769380
0.041291296 -0.036063109 0.040844545 4284769380
0.03467593 -0.037080649 0.045319326 4284769380
0.029003225 -0.038109176 0.050939351 4284769380
0.024465736 -0.039113775 0.057513855 4284769380
0.021217478 -0.040060353 0.064819671 4284769380
0.019368712 -0.040916771 0.072608814 4284769380
0.018982193 -0.041653965 0.080616891 4284769380
0.14139454 -0.034286786 0.12882149 4284769380
0.14352907 -0.033409949 0.12110806 4284769380
0.14420995 -0.032646827 0.11312205 4284769380
0.14341408 -0.032023333 0.10513457 4284769380
0.14116846 -0.031560622 0.097416714 4284769380
0.13754933 -0.031274408 0.090230472 4284769380
0.13267952 -0.031174399 0.083819769 4284769380
0.12672435 -0.031263996 0.078402206 4284769380
0.11988594 -0.031540152 0.074161671 4284769380
0.11239643 -0.031993493 0.071242116 4284769380
0.10451003 -0.032608639 0.069742635 4284769380
0.14385001 -0.032736808 0.11376117 4284769380
0.14450054 -0.031976316 0.1057724 4284769380
0.14367436 -0.031355936 0.097787745 4284769380
0.14139952 -0.030896725 0.090078242 4284769380
0.13775323 -0.030614266 0.082905591 4284769380
0.13285927 -0.030518152 0.076513253 4284769380
0.12688376 -0.030611642 0.071118198 4284769380
0.12002951 -0.030891564 0.066903576 4284769380
0.1125292 -0.031348415 0.064012431 4284769380
0.10463741 -0.03196669 0.0625429 4284769380
0.096622013 -0.032725401 0.062544867 4284769380
0.1434409 -0.031438943 0.098483972 4284769380
0.14258443 -0.030821687 0.090502262 4284769380
0.1402804 -0.030365977 0.08280123 4284769380
0.13660702 -0.030087283 0.075642273 4284769380
0.13168897 -0.029995061 0.069268391 4284769380
