# .PCD v0.7 - Point Cloud Data file format
VERSION 0.7
FIELDS x y z rgb
SIZE 4 4 4 4
TYPE F F F U
COUNT 1 1 1 1
WIDTH 1075
HEIGHT 1
VIEWPOINT 0 0 0 1 0 0 0
POINTS 1075
DATA ascii
0.13148254 0.073699892 nan 4294574080
0.13148254 0.073699892 nan 4294574080
0.13148254 0.07449989 nan 4294574080
0.13148254 0.07449989 nan 4294574080
0.13148254 0.075299889 0.050102193 4294574080
0.13148254 0.075299889 0.04638413 4294574080
0.13148254 0.076099887 0.051533874 4294574080
0.13148254 0.076099887 0.044952448 4294574080
0.13148254 0.076899894 0.052287713 4294574080
0.13148254 0.076899894 0.04419861 4294574080
0.13148254 0.077699892 0.052720305 4294574080
0.13148254 0.077699892 0.043766018 4294574080
0.13148254 0.078499891 0.052921623 4294574080
0.13148254 0.078499891 0.0435647 4294574080
0.13148254 0.07929989 0.052921623 4294574080
0.13148254 0.07929989 0.0435647 4294574080
0.13148254 0.080099888 0.052720305 4294574080
0.13148254 0.080099888 0.043766018 4294574080
0.13148254 0.080899887 0.052287713 4294574080
0.13148254 0.080899887 0.04419861 4294574080
0.13148254 0.081699893 0.051533874 4294574080
0.13148254 0.081699893 0.044952448 4294574080
0.13148254 0.082499892 0.050102193 4294574080
0.13148254 0.082499892 0.04638413 4294574080
0.13148254 0.08329989 nan 4294574080
0.13148254 0.08329989 nan 4294574080
0.13148254 0.084099889 nan 4294574080
0.13148254 0.084099889 nan 4294574080
0.13148254 0.084899887 nan 4294574080
0.13148254 0.084899887 nan 4294574080
0.13148254 0.085699894 nan 4294574080
0.13148254 0.085699894 nan 4294574080
0.13148254 0.086499892 nan 4294574080
0.13148254 0.086499892 nan 4294574080
0.13148254 0.087299891 nan 4294574080
0.13148254 0.087299891 nan 4294574080
0.13148254 0.088099889 nan 4294574080
0.13148254 0.088099889 nan 4294574080
0.083482541 0.068899892 nan 4294574080
0.083482541 0.068899892 nan 4294574080
0.083482541 0.069699891 nan 4294574080
0.083482541 0.069699891 nan 4294574080
0.083482541 0.07049989 nan 4294574080
0.083482541 0.07049989 nan 4294574080
0.083482541 0.071299888 nan 4294574080
0.083482541 0.071299888 nan 4294574080
0.083482541 0.072099887 nan 4294574080
0.083482541 0.072099887 nan 4294574080
0.083482541 0.072899893 nan 4294574080
0.083482541 0.072899893 nan 4294574080
0.083482541 0.073699892 nan 4294574080
0.083482541 0.073699892 nan 4294574080
0.083482541 0.07449989 nan 4294574080
0.083482541 0.07449989 nan 4294574080
0.083482541 0.075299889 nan 4294574080
0.083482541 0.075299889 nan 4294574080
0.083482541 0.076099887 nan 4294574080
0.083482541 0.076099887 nan 4294574080
0.083482541 0.076899894 nan 4294574080
0.083482541 0.076899894 nan 4294574080
0.083482541 0.077699892 nan 4294574080
0.083482541 0.077699892 nan 4294574080
0.083482541 0.078499891 nan 4294574080
0.083482541 0.078499891 nan 4294574080
0.083482541 0.07929989 nan 4294574080
0.083482541 0.07929989 nan 4294574080
0.083482541 0.080099888 nan 4294574080
0.083482541 0.080099888 nan 4294574080
0.083482541 0.080899887 nan 4294574080
0.083482541 0.080899887 nan 4294574080
0.083482541 0.081699893 nan 4294574080
0.083482541 0.081699893 nan 4294574080
0.083482541 0.082499892 nan 4294574080
0.083482541 0.082499892 nan 4294574080
0.083482541 0.08329989 nan 4294574080
0.083482541 0.08329989 nan 4294574080
0.083482541 0.084099889 nan 4294574080
0.083482541 0.084099889 nan 4294574080
0.083482541 0.084899887 nan 4294574080
0.083482541 0.084899887 nan 4294574080
0.083482541 0.085699894 nan 4294574080
0.083482541 0.085699894 nan 4294574080
0.083482541 0.086499892 nan 4294574080
0.083482541 0.086499892 nan 4294574080
0.083482541 0.087299891 nan 4294574080
0.083482541 0.087299891 nan 4294574080
0.083482541 0.088099889 nan 4294574080
0.083482541 0.088099889 nan 4294574080
0.085482538 0.068899892 nan 4294574080
0.085482538 0.068899892 nan 4294574080
0.085482538 0.069699891 nan 4294574080
0.085482538 0.069699891 nan 4294574080
0.085482538 0.07049989 nan 4294574080
0.085482538 0.07049989 nan 4294574080
0.085482538 0.071299888 nan 4294574080
0.085482538 0.071299888 nan 4294574080
0.085482538 0.072099887 nan 4294574080
0.085482538 0.072099887 nan 4294574080
0.085482538 0.072899893 nan 4294574080
0.085482538 0.072899893 nan 4294574080
0.085482538 0.073699892 nan 4294574080
0.085482538 0.073699892 nan 4294574080
0.085482538 0.07449989 nan 4294574080
0.085482538 0.07449989 nan 4294574080
0.085482538 0.075299889 0.050257113 4294574080
0.085482538 0.075299889 0.04622921 4294574080
0.085482538 0.076099887 0.0518081 4294574080
0.085482538 0.076099887 0.044678222 4294574080
0.085482538 0.076899894 0.052624758 4294574080
0.085482538 0.076899894 0.043861564 4294574080
0.085482538 0.077699892 0.0530934 4294574080
0.085482538 0.077699892 0.043392923 4294574080
0.085482538 0.078499891 0.053311493 4294574080
0.085482538 0.078499891 0.043174829 4294574080
0.085482538 0.07929989 0.053311493 4294574080
0.085482538 0.07929989 0.043174829 4294574080
0.085482538 0.080099888 0.0530934 4294574080
0.085482538 0.080099888 0.043392923 4294574080
0.085482538 0.080899887 0.052624758 4294574080
0.085482538 0.080899887 0.043861564 4294574080
0.085482538 0.081699893 0.0518081 4294574080
0.085482538 0.081699893 0.044678222 4294574080
0.085482538 0.082499892 0.050257113 4294574080
0.085482538 0.082499892 0.04622921 4294574080
0.085482538 0.08329989 nan 4294574080
0.085482538 0.08329989 nan 4294574080
0.085482538 0.084099889 nan 4294574080
0.085482538 0.084099889 nan 4294574080
0.085482538 0.084899887 nan 4294574080
0.085482538 0.084899887 nan 4294574080
0.085482538 0.085699894 nan 4294574080
0.085482538 0.085699894 nan 4294574080
0.085482538 0.086499892 nan 4294574080
0.085482538 0.086499892 nan 4294574080
0.085482538 0.087299891 nan 4294574080
0.085482538 0.087299891 nan 4294574080
0.085482538 0.088099889 nan 4294574080
0.085482538 0.088099889 nan 4294574080
0.087482542 0.068899892 nan 4294574080
0.087482542 0.068899892 nan 4294574080
0.087482542 0.069699891 nan 4294574080
0.087482542 0.069699891 nan 4294574080
0.087482542 0.07049989 nan 4294574080
0.087482542 0.07049989 nan 4294574080
0.087482542 0.071299888 nan 4294574080
0.087482542 0.071299888 nan 4294574080
0.087482542 0.072099887 nan 4294574080
0.087482542 0.072099887 nan 4294574080
0.087482542 0.072899893 nan 4294574080
0.087482542 0.072899893 nan 4294574080
0.087482542 0.073699892 0.050257113 4294574080
0.087482542 0.073699892 0.04622921 4294574080
0.087482542 0.07449989 0.052370533 4294574080
0.087482542 0.07449989 0.044115789 4294574080
0.087482542 0.075299889 0.053520586 4294574080
0.087482542 0.075299889 0.042965736 4294574080
0.087482542 0.076099887 0.054285016 4294574080
0.087482542 0.076099887 0.042201307 4294574080
0.087482542 0.076899894 0.054800112 4294574080
0.087482542 0.076899894 0.041686211 4294574080
0.087482542 0.077699892 0.055122115 4294574080
0.087482542 0.077699892 0.041364208 4294574080
0.087482542 0.078499891 0.05527759 4294574080
0.087482542 0.078499891 0.041208733 4294574080
0.087482542 0.07929989 0.05527759 4294574080
0.087482542 0.07929989 0.041208733 4294574080
0.087482542 0.080099888 0.055122115 4294574080
0.087482542 0.080099888 0.041364208 4294574080
0.087482542 0.080899887 0.054800112 4294574080
0.087482542 0.080899887 0.041686211 4294574080
0.087482542 0.081699893 0.054285016 4294574080
0.087482542 0.081699893 0.042201307 4294574080
0.087482542 0.082499892 0.053520586 4294574080
0.087482542 0.082499892 0.042965736 4294574080
0.087482542 0.08329989 0.052370533 4294574080
0.087482542 0.08329989 0.044115789 4294574080
0.087482542 0.084099889 0.050257113 4294574080
0.087482542 0.084099889 0.04622921 4294574080
0.087482542 0.084899887 nan 4294574080
0.087482542 0.084899887 nan 4294574080
0.087482542 0.085699894 nan 4294574080
0.087482542 0.085699894 nan 4294574080
0.087482542 0.086499892 nan 4294574080
0.087482542 0.086499892 nan 4294574080
0.087482542 0.087299891 nan 4294574080
0.087482542 0.087299891 nan 4294574080
0.087482542 0.088099889 nan 4294574080
0.087482542 0.088099889 nan 4294574080
0.089482538 0.068899892 nan 4294574080
0.089482538 0.068899892 nan 4294574080
0.089482538 0.069699891 nan 4294574080
0.089482538 0.069699891 nan 4294574080
0.089482538 0.07049989 nan 4294574080
0.089482538 0.07049989 nan 4294574080
0.089482538 0.071299888 nan 4294574080
0.089482538 0.071299888 nan 4294574080
0.089482538 0.072099887 nan 4294574080
0.089482538 0.072099887 nan 4294574080
0.089482538 0.072899893 0.05149056 4294574080
0.089482538 0.072899893 0.044995762 4294574080
0.089482538 0.073699892 0.053311493 4294574080
0.089482538 0.073699892 0.043174829 4294574080
0.089482538 0.07449989 0.054461457 4294574080
0.089482538 0.07449989 0.042024866 4294574080
0.089482538 0.075299889 0.05527759 4294574080
0.089482538 0.075299889 0.041208733 4294574080
0.089482538 0.076099887 0.055867858 4294574080
0.089482538 0.076099887 0.040618464 4294574080
0.089482538 0.076899894 0.056282166 4294574080
0.089482538 0.076899894 0.040204156 4294574080
0.089482538 0.077699892 0.056546897 4294574080
0.089482538 0.077699892 0.039939426 4294574080
0.089482538 0.078499891 0.056676146 4294574080
0.089482538 0.078499891 0.039810177 4294574080
0.089482538 0.07929989 0.056676146 4294574080
0.089482538 0.07929989 0.039810177 4294574080
0.089482538 0.080099888 0.056546897 4294574080
0.089482538 0.080099888 0.039939426 4294574080
0.089482538 0.080899887 0.056282166 4294574080
0.089482538 0.080899887 0.040204156 4294574080
0.089482538 0.081699893 0.055867858 4294574080
0.089482538 0.081699893 0.040618464 4294574080
0.089482538 0.082499892 0.05527759 4294574080
0.089482538 0.082499892 0.041208733 4294574080
0.089482538 0.08329989 0.054461457 4294574080
0.089482538 0.08329989 0.042024866 4294574080
0.089482538 0.084099889 0.053311493 4294574080
0.089482538 0.084099889 0.043174829 4294574080
0.089482538 0.084899887 0.05149056 4294574080
0.089482538 0.084899887 0.044995762 4294574080
0.089482538 0.085699894 nan 4294574080
0.089482538 0.085699894 nan 4294574080
0.089482538 0.086499892 nan 4294574080
0.089482538 0.086499892 nan 4294574080
0.089482538 0.087299891 nan 4294574080
0.089482538 0.087299891 nan 4294574080
0.089482538 0.088099889 nan 4294574080
0.089482538 0.088099889 nan 4294574080
0.091482542 0.068899892 nan 4294574080
0.091482542 0.068899892 nan 4294574080
0.091482542 0.069699891 nan 4294574080
0.091482542 0.069699891 nan 4294574080
0.091482542 0.07049989 nan 4294574080
0.091482542 0.07049989 nan 4294574080
0.091482542 0.071299888 nan 4294574080
0.091482542 0.071299888 nan 4294574080
0.091482542 0.072099887 0.0518081 4294574080
0.091482542 0.072099887 0.044678222 4294574080
0.091482542 0.072899893 0.0537217 4294574080
0.091482542 0.072899893 0.042764623 4294574080
0.091482542 0.073699892 0.054963041 4294574080
0.091482542 0.073699892 0.041523281 4294574080
0.091482542 0.07449989 0.055867858 4294574080
0.091482542 0.07449989 0.040618464 4294574080
0.091482542 0.075299889 0.056546897 4294574080
0.091482542 0.075299889 0.039939426 4294574080
0.091482542 0.076099887 0.057052519 4294574080
0.091482542 0.076099887 0.039433803 4294574080
0.091482542 0.076899894 0.057413463 4294574080
0.091482542 0.076899894 0.03907286 4294574080
0.091482542 0.077699892 0.057646394 4294574080
0.091482542 0.077699892 0.038839929 4294574080
0.091482542 0.078499891 0.057760723 4294574080
0.091482542 0.078499891 0.0387256 4294574080
0.091482542 0.07929989 0.057760723 4294574080
0.091482542 0.07929989 0.0387256 4294574080
0.091482542 0.080099888 0.057646394 4294574080
0.091482542 0.080099888 0.038839929 4294574080
0.091482542 0.080899887 0.057413463 4294574080
0.091482542 0.080899887 0.03907286 4294574080
0.091482542 0.081699893 0.057052519 4294574080
0.091482542 0.081699893 0.039433803 4294574080
0.091482542 0.082499892 0.056546897 4294574080
0.091482542 0.082499892 0.039939426 4294574080
0.091482542 0.08329989 0.055867858 4294574080
0.091482542 0.08329989 0.040618464 4294574080
0.091482542 0.084099889 0.054963041 4294574080
0.091482542 0.084099889 0.041523281 4294574080
0.091482542 0.084899887 0.0537217 4294574080
0.091482542 0.084899887 0.042764623 4294574080
0.091482542 0.085699894 0.0518081 4294574080
0.091482542 0.085699894 0.044678222 4294574080
0.091482542 0.086499892 nan 4294574080
0.091482542 0.086499892 nan 4294574080
0.091482542 0.087299891 nan 4294574080
0.091482542 0.087299891 nan 4294574080
0.091482542 0.088099889 nan 4294574080
0.091482542 0.088099889 nan 4294574080
0.093482539 0.068899892 nan 4294574080
0.093482539 0.068899892 nan 4294574080
0.093482539 0.069699891 nan 4294574080
0.093482539 0.069699891 nan 4294574080
0.093482539 0.07049989 nan 4294574080
0.093482539 0.07049989 nan 4294574080
0.093482539 0.071299888 0.05149056 4294574080
0.093482539 0.071299888 0.044995762 4294574080
0.093482539 0.072099887 0.0537217 4294574080
0.093482539 0.072099887 0.042764623 4294574080
0.093482539 0.072899893 0.055122115 4294574080
0.093482539 0.072899893 0.041364208 4294574080
0.093482539 0.073699892 0.056146476 4294574080
0.093482539 0.073699892 0.040339846 4294574080
0.093482539 0.07449989 0.056928873 4294574080
0.093482539 0.07449989 0.03955745 4294574080
0.093482539 0.075299889 0.057530656 4294574080
0.093482539 0.075299889 0.038955666 4294574080
0.093482539 0.076099887 0.057985358 4294574080
0.093482539 0.076099887 0.038500965 4294574080
0.093482539 0.076899894 0.058312919 4294574080
0.093482539 0.076899894 0.038173404 4294574080
0.093482539 0.077699892 0.058525495 4294574080
0.093482539 0.077699892 0.037960827 4294574080
0.093482539 0.078499891 0.058630154 4294574080
0.093482539 0.078499891 0.037856169 4294574080
0.093482539 0.07929989 0.058630154 4294574080
0.093482539 0.07929989 0.037856169 4294574080
0.093482539 0.080099888 0.058525495 4294574080
0.093482539 0.080099888 0.037960827 4294574080
0.093482539 0.080899887 0.058312919 4294574080
0.093482539 0.080899887 0.038173404 4294574080
0.093482539 0.081699893 0.057985358 4294574080
0.093482539 0.081699893 0.038500965 4294574080
0.093482539 0.082499892 0.057530656 4294574080
0.093482539 0.082499892 0.038955666 4294574080
0.093482539 0.08329989 0.056928873 4294574080
0.093482539 0.08329989 0.03955745 4294574080
0.093482539 0.084099889 0.056146476 4294574080
0.093482539 0.084099889 0.040339846 4294574080
0.093482539 0.084899887 0.055122115 4294574080
0.093482539 0.084899887 0.041364208 4294574080
0.093482539 0.085699894 0.0537217 4294574080
0.093482539 0.085699894 0.042764623 4294574080
0.093482539 0.086499892 0.05149056 4294574080
0.093482539 0.086499892 0.044995762 4294574080
0.093482539 0.087299891 nan 4294574080
0.093482539 0.087299891 nan 4294574080
0.093482539 0.088099889 nan 4294574080
0.093482539 0.088099889 nan 4294574080
0.095482543 0.068899892 nan 4294574080
0.095482543 0.068899892 nan 4294574080
0.095482543 0.069699891 nan 4294574080
0.095482543 0.069699891 nan 4294574080
0.095482543 0.07049989 0.050257113 4294574080
0.095482543 0.07049989 0.04622921 4294574080
0.095482543 0.071299888 0.053311493 4294574080
0.095482543 0.071299888 0.043174829 4294574080
0.095482543 0.072099887 0.054963041 4294574080
0.095482543 0.072099887 0.041523281 4294574080
0.095482543 0.072899893 0.056146476 4294574080
0.095482543 0.072899893 0.040339846 4294574080
0.095482543 0.073699892 0.057052519 4294574080
0.095482543 0.073699892 0.039433803 4294574080
0.095482543 0.07449989 0.057760723 4294574080
0.095482543 0.07449989 0.0387256 4294574080
0.095482543 0.075299889 0.058312919 4294574080
0.095482543 0.075299889 0.038173404 4294574080
0.095482543 0.076099887 0.058733765 4294574080
0.095482543 0.076099887 0.037752558 4294574080
0.095482543 0.076899894 0.059038643 4294574080
0.095482543 0.076899894 0.03744768 4294574080
0.095482543 0.077699892 0.059237197 4294574080
0.095482543 0.077699892 0.037249126 4294574080
0.095482543 0.078499891 0.059335139 4294574080
0.095482543 0.078499891 0.037151184 4294574080
0.095482543 0.07929989 0.059335139 4294574080
0.095482543 0.07929989 0.037151184 4294574080
0.095482543 0.080099888 0.059237197 4294574080
0.095482543 0.080099888 0.037249126 4294574080
0.095482543 0.080899887 0.059038643 4294574080
0.095482543 0.080899887 0.03744768 4294574080
0.095482543 0.081699893 0.058733765 4294574080
0.095482543 0.081699893 0.037752558 4294574080
0.095482543 0.082499892 0.058312919 4294574080
0.095482543 0.082499892 0.038173404 4294574080
0.095482543 0.08329989 0.057760723 4294574080
0.095482543 0.08329989 0.0387256 4294574080
0.095482543 0.084099889 0.057052519 4294574080
0.095482543 0.084099889 0.039433803 4294574080
0.095482543 0.084899887 0.056146476 4294574080
0.095482543 0.084899887 0.040339846 4294574080
0.095482543 0.085699894 0.054963041 4294574080
0.095482543 0.085699894 0.041523281 4294574080
0.095482543 0.086499892 0.053311493 4294574080
0.095482543 0.086499892 0.043174829 4294574080
0.095482543 0.087299891 0.050257113 4294574080
0.095482543 0.087299891 0.04622921 4294574080
0.095482543 0.088099889 nan 4294574080
0.095482543 0.088099889 nan 4294574080
0.09748254 0.068899892 nan 4294574080
0.09748254 0.068899892 nan 4294574080
0.09748254 0.069699891 nan 4294574080
0.09748254 0.069699891 nan 4294574080
0.09748254 0.07049989 0.052370533 4294574080
0.09748254 0.07049989 0.044115789 4294574080
0.09748254 0.071299888 0.054461457 4294574080
0.09748254 0.071299888 0.042024866 4294574080
0.09748254 0.072099887 0.055867858 4294574080
0.09748254 0.072099887 0.040618464 4294574080
0.09748254 0.072899893 0.056928873 4294574080
0.09748254 0.072899893 0.03955745 4294574080
0.09748254 0.073699892 0.057760723 4294574080
0.09748254 0.073699892 0.0387256 4294574080
0.09748254 0.07449989 0.05841976 4294574080
0.09748254 0.07449989 0.038066562 4294574080
0.09748254 0.075299889 0.058937982 4294574080
0.09748254 0.075299889 0.037548341 4294574080
0.09748254 0.076099887 0.059335139 4294574080
0.09748254 0.076099887 0.037151184 4294574080
0.09748254 0.076899894 0.059623916 4294574080
0.09748254 0.076899894 0.036862407 4294574080
0.09748254 0.077699892 0.05981243 4294574080
0.09748254 0.077699892 0.036673892 4294574080
0.09748254 0.078499891 0.059905544 4294574080
0.09748254 0.078499891 0.036580779 4294574080
0.09748254 0.07929989 0.059905544 4294574080
0.09748254 0.07929989 0.036580779 4294574080
0.09748254 0.080099888 0.05981243 4294574080
0.09748254 0.080099888 0.036673892 4294574080
0.09748254 0.080899887 0.059623916 4294574080
0.09748254 0.080899887 0.036862407 4294574080
0.09748254 0.081699893 0.059335139 4294574080
0.09748254 0.081699893 0.037151184 4294574080
0.09748254 0.082499892 0.058937982 4294574080
0.09748254 0.082499892 0.037548341 4294574080
0.09748254 0.08329989 0.05841976 4294574080
0.09748254 0.08329989 0.038066562 4294574080
0.09748254 0.084099889 0.057760723 4294574080
0.09748254 0.084099889 0.0387256 4294574080
0.09748254 0.084899887 0.056928873 4294574080
0.09748254 0.084899887 0.03955745 4294574080
0.09748254 0.085699894 0.055867858 4294574080
0.09748254 0.085699894 0.040618464 4294574080
0.09748254 0.086499892 0.054461457 4294574080
0.09748254 0.086499892 0.042024866 4294574080
0.09748254 0.087299891 0.052370533 4294574080
0.09748254 0.087299891 0.044115789 4294574080
0.09748254 0.088099889 nan 4294574080
0.09748254 0.088099889 nan 4294574080
0.099482536 0.068899892 nan 4294574080
0.099482536 0.068899892 nan 4294574080
0.099482536 0.069699891 0.050257113 4294574080
0.099482536 0.069699891 0.04622921 4294574080
0.099482536 0.07049989 0.053520586 4294574080
0.099482536 0.07049989 0.042965736 4294574080
0.099482536 0.071299888 0.05527759 4294574080
0.099482536 0.071299888 0.041208733 4294574080
0.099482536 0.072099887 0.056546897 4294574080
0.099482536 0.072099887 0.039939426 4294574080
0.099482536 0.072899893 0.057530656 4294574080
0.099482536 0.072899893 0.038955666 4294574080
0.099482536 0.073699892 0.058312919 4294574080
0.099482536 0.073699892 0.038173404 4294574080
0.099482536 0.07449989 0.058937982 4294574080
0.099482536 0.07449989 0.037548341 4294574080
0.099482536 0.075299889 0.059432227 4294574080
0.099482536 0.075299889 0.037054095 4294574080
0.099482536 0.076099887 0.05981243 4294574080
0.099482536 0.076099887 0.036673892 4294574080
0.099482536 0.076899894 0.060089577 4294574080
0.099482536 0.076899894 0.036396746 4294574080
0.099482536 0.077699892 0.060270797 4294574080
0.099482536 0.077699892 0.036215525 4294574080
0.099482536 0.078499891 0.060360387 4294574080
0.099482536 0.078499891 0.036125936 4294574080
0.099482536 0.07929989 0.060360387 4294574080
0.099482536 0.07929989 0.036125936 4294574080
0.099482536 0.080099888 0.060270797 4294574080
0.099482536 0.080099888 0.036215525 4294574080
0.099482536 0.080899887 0.060089577 4294574080
0.099482536 0.080899887 0.036396746 4294574080
0.099482536 0.081699893 0.05981243 4294574080
0.099482536 0.081699893 0.036673892 4294574080
0.099482536 0.082499892 0.059432227 4294574080
0.099482536 0.082499892 0.037054095 4294574080
0.099482536 0.08329989 0.058937982 4294574080
0.099482536 0.08329989 0.037548341 4294574080
0.099482536 0.084099889 0.058312919 4294574080
0.099482536 0.084099889 0.038173404 4294574080
0.099482536 0.084899887 0.057530656 4294574080
0.099482536 0.084899887 0.038955666 4294574080
0.099482536 0.085699894 0.056546897 4294574080
0.099482536 0.085699894 0.039939426 4294574080
0.099482536 0.086499892 0.05527759 4294574080
0.099482536 0.086499892 0.041208733 4294574080
0.099482536 0.087299891 0.053520586 4294574080
0.099482536 0.087299891 0.042965736 4294574080
0.099482536 0.088099889 0.050257113 4294574080
0.099482536 0.088099889 0.04622921 4294574080
0.10148254 0.068899892 nan 4294574080
0.10148254 0.068899892 nan 4294574080
0.10148254 0.069699891 0.0518081 4294574080
0.10148254 0.069699891 0.044678222 4294574080
0.10148254 0.07049989 0.054285016 4294574080
0.10148254 0.07049989 0.042201307 4294574080
0.10148254 0.071299888 0.055867858 4294574080
0.10148254 0.071299888 0.040618464 4294574080
0.10148254 0.072099887 0.057052519 4294574080
0.10148254 0.072099887 0.039433803 4294574080
0.10148254 0.072899893 0.057985358 4294574080
0.10148254 0.072899893 0.038500965 4294574080
0.10148254 0.073699892 0.058733765 4294574080
0.10148254 0.073699892 0.037752558 4294574080
0.10148254 0.07449989 0.059335139 4294574080
0.10148254 0.07449989 0.037151184 4294574080
0.10148254 0.075299889 0.05981243 4294574080
0.10148254 0.075299889 0.036673892 4294574080
0.10148254 0.076099887 0.06018053 4294574080
0.10148254 0.076099887 0.036305793 4294574080
0.10148254 0.076899894 0.060449325 4294574080
0.10148254 0.076899894 0.036036998 4294574080
0.10148254 0.077699892 0.060625277 4294574080
0.10148254 0.077699892 0.035861045 4294574080
0.10148254 0.078499891 0.060712323 4294574080
0.10148254 0.078499891 0.035774 4294574080
0.10148254 0.07929989 0.060712323 4294574080
0.10148254 0.07929989 0.035774 4294574080
0.10148254 0.080099888 0.060625277 4294574080
0.10148254 0.080099888 0.035861045 4294574080
0.10148254 0.080899887 0.060449325 4294574080
0.10148254 0.080899887 0.036036998 4294574080
0.10148254 0.081699893 0.06018053 4294574080
0.10148254 0.081699893 0.036305793 4294574080
0.10148254 0.082499892 0.05981243 4294574080
0.10148254 0.082499892 0.036673892 4294574080
0.10148254 0.08329989 0.059335139 4294574080
0.10148254 0.08329989 0.037151184 4294574080
0.10148254 0.084099889 0.058733765 4294574080
0.10148254 0.084099889 0.037752558 4294574080
0.10148254 0.084899887 0.057985358 4294574080
0.10148254 0.084899887 0.038500965 4294574080
0.10148254 0.085699894 0.057052519 4294574080
0.10148254 0.085699894 0.039433803 4294574080
0.10148254 0.086499892 0.055867858 4294574080
0.10148254 0.086499892 0.040618464 4294574080
0.10148254 0.087299891 0.054285016 4294574080
0.10148254 0.087299891 0.042201307 4294574080
0.10148254 0.088099889 0.0518081 4294574080
0.10148254 0.088099889 0.044678222 4294574080
0.10348254 0.068899892 nan 4294574080
0.10348254 0.068899892 nan 4294574080
0.10348254 0.069699891 0.052624758 4294574080
0.10348254 0.069699891 0.043861564 4294574080
0.10348254 0.07049989 0.054800112 4294574080
0.10348254 0.07049989 0.041686211 4294574080
0.10348254 0.071299888 0.056282166 4294574080
0.10348254 0.071299888 0.040204156 4294574080
0.10348254 0.072099887 0.057413463 4294574080
0.10348254 0.072099887 0.03907286 4294574080
0.10348254 0.072899893 0.058312919 4294574080
0.10348254 0.072899893 0.038173404 4294574080
0.10348254 0.073699892 0.059038643 4294574080
0.10348254 0.073699892 0.03744768 4294574080
0.10348254 0.07449989 0.059623916 4294574080
0.10348254 0.07449989 0.036862407 4294574080
0.10348254 0.075299889 0.060089577 4294574080
0.10348254 0.075299889 0.036396746 4294574080
0.10348254 0.076099887 0.060449325 4294574080
0.10348254 0.076099887 0.036036998 4294574080
0.10348254 0.076899894 0.060712323 4294574080
0.10348254 0.076899894 0.035774 4294574080
0.10348254 0.077699892 0.060884617 4294574080
0.10348254 0.077699892 0.035601705 4294574080
0.10348254 0.078499891 0.060969889 4294574080
0.10348254 0.078499891 0.035516433 4294574080
0.10348254 0.07929989 0.060969889 4294574080
0.10348254 0.07929989 0.035516433 4294574080
0.10348254 0.080099888 0.060884617 4294574080
0.10348254 0.080099888 0.035601705 4294574080
0.10348254 0.080899887 0.060712323 4294574080
0.10348254 0.080899887 0.035774 4294574080
0.10348254 0.081699893 0.060449325 4294574080
0.10348254 0.081699893 0.036036998 4294574080
0.10348254 0.082499892 0.060089577 4294574080
0.10348254 0.082499892 0.036396746 4294574080
0.10348254 0.08329989 0.059623916 4294574080
0.10348254 0.08329989 0.036862407 4294574080
0.10348254 0.084099889 0.059038643 4294574080
0.10348254 0.084099889 0.03744768 4294574080
0.10348254 0.084899887 0.058312919 4294574080
0.10348254 0.084899887 0.038173404 4294574080
0.10348254 0.085699894 0.057413463 4294574080
0.10348254 0.085699894 0.03907286 4294574080
0.10348254 0.086499892 0.056282166 4294574080
0.10348254 0.086499892 0.040204156 4294574080
0.10348254 0.087299891 0.054800112 4294574080
0.10348254 0.087299891 0.041686211 4294574080
0.10348254 0.088099889 0.052624758 4294574080
0.10348254 0.088099889 0.043861564 4294574080
0.10548254 0.068899892 nan 4294574080
0.10548254 0.068899892 nan 4294574080
0.10548254 0.069699891 0.0530934 4294574080
0.10548254 0.069699891 0.043392923 4294574080
0.10548254 0.07049989 0.055122115 4294574080
0.10548254 0.07049989 0.041364208 4294574080
0.10548254 0.071299888 0.056546897 4294574080
0.10548254 0.071299888 0.039939426 4294574080
0.10548254 0.072099887 0.057646394 4294574080
0.10548254 0.072099887 0.038839929 4294574080
0.10548254 0.072899893 0.058525495 4294574080
0.10548254 0.072899893 0.037960827 4294574080
0.10548254 0.073699892 0.059237197 4294574080
0.10548254 0.073699892 0.037249126 4294574080
0.10548254 0.07449989 0.05981243 4294574080
0.10548254 0.07449989 0.036673892 4294574080
0.10548254 0.075299889 0.060270797 4294574080
0.10548254 0.075299889 0.036215525 4294574080
0.10548254 0.076099887 0.060625277 4294574080
0.10548254 0.076099887 0.035861045 4294574080
0.10548254 0.076899894 0.060884617 4294574080
0.10548254 0.076899894 0.035601705 4294574080
0.10548254 0.077699892 0.061054595 4294574080
0.10548254 0.077699892 0.035431728 4294574080
0.10548254 0.078499891 0.061138742 4294574080
0.10548254 0.078499891 0.035347581 4294574080
0.10548254 0.07929989 0.061138742 4294574080
0.10548254 0.07929989 0.035347581 4294574080
0.10548254 0.080099888 0.061054595 4294574080
0.10548254 0.080099888 0.035431728 4294574080
0.10548254 0.080899887 0.060884617 4294574080
0.10548254 0.080899887 0.035601705 4294574080
0.10548254 0.081699893 0.060625277 4294574080
0.10548254 0.081699893 0.035861045 4294574080
0.10548254 0.082499892 0.060270797 4294574080
0.10548254 0.082499892 0.036215525 4294574080
0.10548254 0.08329989 0.05981243 4294574080
0.10548254 0.08329989 0.036673892 4294574080
0.10548254 0.084099889 0.059237197 4294574080
0.10548254 0.084099889 0.037249126 4294574080
0.10548254 0.084899887 0.058525495 4294574080
0.10548254 0.084899887 0.037960827 4294574080
0.10548254 0.085699894 0.057646394 4294574080
0.10548254 0.085699894 0.038839929 4294574080
0.10548254 0.086499892 0.056546897 4294574080
0.10548254 0.086499892 0.039939426 4294574080
0.10548254 0.087299891 0.055122115 4294574080
0.10548254 0.087299891 0.041364208 4294574080
0.10548254 0.088099889 0.0530934 4294574080
0.10548254 0.088099889 0.043392923 4294574080
0.10748254 0.068899892 nan 4294574080
0.10748254 0.068899892 nan 4294574080
0.10748254 0.069699891 0.053311493 4294574080
0.10748254 0.069699891 0.043174829 4294574080
0.10748254 0.07049989 0.05527759 4294574080
0.10748254 0.07049989 0.041208733 4294574080
0.10748254 0.071299888 0.056676146 4294574080
0.10748254 0.071299888 0.039810177 4294574080
0.10748254 0.072099887 0.057760723 4294574080
0.10748254 0.072099887 0.0387256 4294574080
0.10748254 0.072899893 0.058630154 4294574080
0.10748254 0.072899893 0.037856169 4294574080
0.10748254 0.073699892 0.059335139 4294574080
0.10748254 0.073699892 0.037151184 4294574080
0.10748254 0.07449989 0.059905544 4294574080
0.10748254 0.07449989 0.036580779 4294574080
0.10748254 0.075299889 0.060360387 4294574080
0.10748254 0.075299889 0.036125936 4294574080
0.10748254 0.076099887 0.060712323 4294574080
0.10748254 0.076099887 0.035774 4294574080
0.10748254 0.076899894 0.060969889 4294574080
0.10748254 0.076899894 0.035516433 4294574080
0.10748254 0.077699892 0.061138742 4294574080
0.10748254 0.077699892 0.035347581 4294574080
0.10748254 0.078499891 0.061222345 4294574080
0.10748254 0.078499891 0.035263978 4294574080
0.10748254 0.07929989 0.061222345 4294574080
0.10748254 0.07929989 0.035263978 4294574080
0.10748254 0.080099888 0.061138742 4294574080
0.10748254 0.080099888 0.035347581 4294574080
0.10748254 0.080899887 0.060969889 4294574080
0.10748254 0.080899887 0.035516433 4294574080
0.10748254 0.081699893 0.060712323 4294574080
0.10748254 0.081699893 0.035774 4294574080
0.10748254 0.082499892 0.060360387 4294574080
0.10748254 0.082499892 0.036125936 4294574080
0.10748254 0.08329989 0.059905544 4294574080
0.10748254 0.08329989 0.036580779 4294574080
0.10748254 0.084099889 0.059335139 4294574080
0.10748254 0.084099889 0.037151184 4294574080
0.10748254 0.084899887 0.058630154 4294574080
0.10748254 0.084899887 0.037856169 4294574080
0.10748254 0.085699894 0.057760723 4294574080
0.10748254 0.085699894 0.0387256 4294574080
0.10748254 0.086499892 0.056676146 4294574080
0.10748254 0.086499892 0.039810177 4294574080
0.10748254 0.087299891 0.05527759 4294574080
0.10748254 0.087299891 0.041208733 4294574080
0.10748254 0.088099889 0.053311493 4294574080
0.10748254 0.088099889 0.043174829 4294574080
0.10948254 0.068899892 nan 4294574080
0.10948254 0.068899892 nan 4294574080
0.10948254 0.069699891 0.053311493 4294574080
0.10948254 0.069699891 0.043174829 4294574080
0.10948254 0.07049989 0.05527759 4294574080
0.10948254 0.07049989 0.041208733 4294574080
0.10948254 0.071299888 0.056676146 4294574080
0.10948254 0.071299888 0.039810177 4294574080
0.10948254 0.072099887 0.057760723 4294574080
0.10948254 0.072099887 0.0387256 4294574080
0.10948254 0.072899893 0.058630154 4294574080
0.10948254 0.072899893 0.037856169 4294574080
0.10948254 0.073699892 0.059335139 4294574080
0.10948254 0.073699892 0.037151184 4294574080
0.10948254 0.07449989 0.059905544 4294574080
0.10948254 0.07449989 0.036580779 4294574080
0.10948254 0.075299889 0.060360387 4294574080
0.10948254 0.075299889 0.036125936 4294574080
0.10948254 0.076099887 0.060712323 4294574080
0.10948254 0.076099887 0.035774 4294574080
0.10948254 0.076899894 0.060969889 4294574080
0.10948254 0.076899894 0.035516433 4294574080
0.10948254 0.077699892 0.061138742 4294574080
0.10948254 0.077699892 0.035347581 4294574080
0.10948254 0.078499891 0.061222345 4294574080
0.10948254 0.078499891 0.035263978 4294574080
0.10948254 0.07929989 0.061222345 4294574080
0.10948254 0.07929989 0.035263978 4294574080
0.10948254 0.080099888 0.061138742 4294574080
0.10948254 0.080099888 0.035347581 4294574080
0.10948254 0.080899887 0.060969889 4294574080
0.10948254 0.080899887 0.035516433 4294574080
0.10948254 0.081699893 0.060712323 4294574080
0.10948254 0.081699893 0.035774 4294574080
0.10948254 0.082499892 0.060360387 4294574080
0.10948254 0.082499892 0.036125936 4294574080
0.10948254 0.08329989 0.059905544 4294574080
0.10948254 0.08329989 0.036580779 4294574080
0.10948254 0.084099889 0.059335139 4294574080
0.10948254 0.084099889 0.037151184 4294574080
0.10948254 0.084899887 0.058630154 4294574080
0.10948254 0.084899887 0.037856169 4294574080
0.10948254 0.085699894 0.057760723 4294574080
0.10948254 0.085699894 0.0387256 4294574080
0.10948254 0.086499892 0.056676146 4294574080
0.10948254 0.086499892 0.039810177 4294574080
0.10948254 0.087299891 0.05527759 4294574080
0.10948254 0.087299891 0.041208733 4294574080
0.10948254 0.088099889 0.053311493 4294574080
0.10948254 0.088099889 0.043174829 4294574080
0.11148254 0.068899892 nan 4294574080
0.11148254 0.068899892 nan 4294574080
0.11148254 0.069699891 0.0530934 4294574080
0.11148254 0.069699891 0.043392923 4294574080
0.11148254 0.07049989 0.055122115 4294574080
0.11148254 0.07049989 0.041364208 4294574080
0.11148254 0.071299888 0.056546897 4294574080
0.11148254 0.071299888 0.039939426 4294574080
0.11148254 0.072099887 0.057646394 4294574080
0.11148254 0.072099887 0.038839929 4294574080
0.11148254 0.072899893 0.058525495 4294574080
0.11148254 0.072899893 0.037960827 4294574080
0.11148254 0.073699892 0.059237197 4294574080
0.11148254 0.073699892 0.037249126 4294574080
0.11148254 0.07449989 0.05981243 4294574080
0.11148254 0.07449989 0.036673892 4294574080
0.11148254 0.075299889 0.060270797 4294574080
0.11148254 0.075299889 0.036215525 4294574080
0.11148254 0.076099887 0.060625277 4294574080
0.11148254 0.076099887 0.035861045 4294574080
0.11148254 0.076899894 0.060884617 4294574080
0.11148254 0.076899894 0.035601705 4294574080
0.11148254 0.077699892 0.061054595 4294574080
0.11148254 0.077699892 0.035431728 4294574080
0.11148254 0.078499891 0.061138742 4294574080
0.11148254 0.078499891 0.035347581 4294574080
0.11148254 0.07929989 0.061138742 4294574080
0.11148254 0.07929989 0.035347581 4294574080
0.11148254 0.080099888 0.061054595 4294574080
0.11148254 0.080099888 0.035431728 4294574080
0.11148254 0.080899887 0.060884617 4294574080
0.11148254 0.080899887 0.035601705 4294574080
0.11148254 0.081699893 0.060625277 4294574080
0.11148254 0.081699893 0.035861045 4294574080
0.11148254 0.082499892 0.060270797 4294574080
0.11148254 0.082499892 0.036215525 4294574080
0.11148254 0.08329989 0.05981243 4294574080
0.11148254 0.08329989 0.036673892 4294574080
0.11148254 0.084099889 0.059237197 4294574080
0.11148254 0.084099889 0.037249126 4294574080
0.11148254 0.084899887 0.058525495 4294574080
0.11148254 0.084899887 0.037960827 4294574080
0.11148254 0.085699894 0.057646394 4294574080
0.11148254 0.085699894 0.038839929 4294574080
0.11148254 0.086499892 0.056546897 4294574080
0.11148254 0.086499892 0.039939426 4294574080
0.11148254 0.087299891 0.055122115 4294574080
0.11148254 0.087299891 0.041364208 4294574080
0.11148254 0.088099889 0.0530934 4294574080
0.11148254 0.088099889 0.043392923 4294574080
0.11348254 0.068899892 nan 4294574080
0.11348254 0.068899892 nan 4294574080
0.11348254 0.069699891 0.052624758 4294574080
0.11348254 0.069699891 0.043861564 4294574080
0.11348254 0.07049989 0.054800112 4294574080
0.11348254 0.07049989 0.041686211 4294574080
0.11348254 0.071299888 0.056282166 4294574080
0.11348254 0.071299888 0.040204156 4294574080
0.11348254 0.072099887 0.057413463 4294574080
0.11348254 0.072099887 0.03907286 4294574080
0.11348254 0.072899893 0.058312919 4294574080
0.11348254 0.072899893 0.038173404 4294574080
0.11348254 0.073699892 0.059038643 4294574080
0.11348254 0.073699892 0.03744768 4294574080
0.11348254 0.07449989 0.059623916 4294574080
0.11348254 0.07449989 0.036862407 4294574080
0.11348254 0.075299889 0.060089577 4294574080
0.11348254 0.075299889 0.036396746 4294574080
0.11348254 0.076099887 0.060449325 4294574080
0.11348254 0.076099887 0.036036998 4294574080
0.11348254 0.076899894 0.060712323 4294574080
0.11348254 0.076899894 0.035774 4294574080
0.11348254 0.077699892 0.060884617 4294574080
0.11348254 0.077699892 0.035601705 4294574080
0.11348254 0.078499891 0.060969889 4294574080
0.11348254 0.078499891 0.035516433 4294574080
0.11348254 0.07929989 0.060969889 4294574080
0.11348254 0.07929989 0.035516433 4294574080
0.11348254 0.080099888 0.060884617 4294574080
0.11348254 0.080099888 0.035601705 4294574080
0.11348254 0.080899887 0.060712323 4294574080
0.11348254 0.080899887 0.035774 4294574080
0.11348254 0.081699893 0.060449325 4294574080
0.11348254 0.081699893 0.036036998 4294574080
0.11348254 0.082499892 0.060089577 4294574080
0.11348254 0.082499892 0.036396746 4294574080
0.11348254 0.08329989 0.059623916 4294574080
0.11348254 0.08329989 0.036862407 4294574080
0.11348254 0.084099889 0.059038643 4294574080
0.11348254 0.084099889 0.03744768 4294574080
0.11348254 0.084899887 0.058312919 4294574080
0.11348254 0.084899887 0.038173404 4294574080
0.11348254 0.085699894 0.057413463 4294574080
0.11348254 0.085699894 0.03907286 4294574080
0.11348254 0.086499892 0.056282166 4294574080
0.11348254 0.086499892 0.040204156 4294574080
0.11348254 0.087299891 0.054800112 4294574080
0.11348254 0.087299891 0.041686211 4294574080
0.11348254 0.088099889 0.052624758 4294574080
0.11348254 0.088099889 0.043861564 4294574080
0.11548254 0.068899892 nan 4294574080
0.11548254 0.068899892 nan 4294574080
0.11548254 0.069699891 0.0518081 4294574080
0.11548254 0.069699891 0.044678222 4294574080
0.11548254 0.07049989 0.054285016 4294574080
0.11548254 0.07049989 0.042201307 4294574080
0.11548254 0.071299888 0.055867858 4294574080
0.11548254 0.071299888 0.040618464 4294574080
0.11548254 0.072099887 0.057052519 4294574080
0.11548254 0.072099887 0.039433803 4294574080
0.11548254 0.072899893 0.057985358 4294574080
0.11548254 0.072899893 0.038500965 4294574080
0.11548254 0.073699892 0.058733765 4294574080
0.11548254 0.073699892 0.037752558 4294574080
0.11548254 0.07449989 0.059335139 4294574080
0.11548254 0.07449989 0.037151184 4294574080
0.11548254 0.075299889 0.05981243 4294574080
0.11548254 0.075299889 0.036673892 4294574080
0.11548254 0.076099887 0.06018053 4294574080
0.11548254 0.076099887 0.036305793 4294574080
0.11548254 0.076899894 0.060449325 4294574080
0.11548254 0.076899894 0.036036998 4294574080
0.11548254 0.077699892 0.060625277 4294574080
0.11548254 0.077699892 0.035861045 4294574080
0.11548254 0.078499891 0.060712323 4294574080
0.11548254 0.078499891 0.035774 4294574080
0.11548254 0.07929989 0.060712323 4294574080
0.11548254 0.07929989 0.035774 4294574080
0.11548254 0.080099888 0.060625277 4294574080
0.11548254 0.080099888 0.035861045 4294574080
0.11548254 0.080899887 0.060449325 4294574080
0.11548254 0.080899887 0.036036998 4294574080
0.11548254 0.081699893 0.06018053 4294574080
0.11548254 0.081699893 0.036305793 4294574080
0.11548254 0.082499892 0.05981243 4294574080
0.11548254 0.082499892 0.036673892 4294574080
0.11548254 0.08329989 0.059335139 4294574080
0.11548254 0.08329989 0.037151184 4294574080
0.11548254 0.084099889 0.058733765 4294574080
0.11548254 0.084099889 0.037752558 4294574080
0.11548254 0.084899887 0.057985358 4294574080
0.11548254 0.084899887 0.038500965 4294574080
0.11548254 0.085699894 0.057052519 4294574080
0.11548254 0.085699894 0.039433803 4294574080
0.11548254 0.086499892 0.055867858 4294574080
0.11548254 0.086499892 0.040618464 4294574080
0.11548254 0.087299891 0.054285016 4294574080
0.11548254 0.087299891 0.042201307 4294574080
0.11548254 0.088099889 0.0518081 4294574080
0.11548254 0.088099889 0.044678222 4294574080
0.11748254 0.068899892 nan 4294574080
0.11748254 0.068899892 nan 4294574080
0.11748254 0.069699891 0.050257113 4294574080
0.11748254 0.069699891 0.04622921 4294574080
0.11748254 0.07049989 0.053520586 4294574080
0.11748254 0.07049989 0.042965736 4294574080
0.11748254 0.071299888 0.05527759 4294574080
0.11748254 0.071299888 0.041208733 4294574080
0.11748254 0.072099887 0.056546897 4294574080
0.11748254 0.072099887 0.039939426 4294574080
0.11748254 0.072899893 0.057530656 4294574080
0.11748254 0.072899893 0.038955666 4294574080
0.11748254 0.073699892 0.058312919 4294574080
0.11748254 0.073699892 0.038173404 4294574080
0.11748254 0.07449989 0.058937982 4294574080
0.11748254 0.07449989 0.037548341 4294574080
0.11748254 0.075299889 0.059432227 4294574080
0.11748254 0.075299889 0.037054095 4294574080
0.11748254 0.076099887 0.05981243 4294574080
0.11748254 0.076099887 0.036673892 4294574080
0.11748254 0.076899894 0.060089577 4294574080
0.11748254 0.076899894 0.036396746 4294574080
0.11748254 0.077699892 0.060270797 4294574080
0.11748254 0.077699892 0.036215525 4294574080
0.11748254 0.078499891 0.060360387 4294574080
0.11748254 0.078499891 0.036125936 4294574080
0.11748254 0.07929989 0.060360387 4294574080
0.11748254 0.07929989 0.036125936 4294574080
0.11748254 0.080099888 0.060270797 4294574080
0.11748254 0.080099888 0.036215525 4294574080
0.11748254 0.080899887 0.060089577 4294574080
0.11748254 0.080899887 0.036396746 4294574080
0.11748254 0.081699893 0.05981243 4294574080
0.11748254 0.081699893 0.036673892 4294574080
0.11748254 0.082499892 0.059432227 4294574080
0.11748254 0.082499892 0.037054095 4294574080
0.11748254 0.08329989 0.058937982 4294574080
0.11748254 0.08329989 0.037548341 4294574080
0.11748254 0.084099889 0.058312919 4294574080
0.11748254 0.084099889 0.038173404 4294574080
0.11748254 0.084899887 0.057530656 4294574080
0.11748254 0.084899887 0.038955666 4294574080
0.11748254 0.085699894 0.056546897 4294574080
0.11748254 0.085699894 0.039939426 4294574080
0.11748254 0.086499892 0.05527759 4294574080
0.11748254 0.086499892 0.041208733 4294574080
0.11748254 0.087299891 0.053520586 4294574080
0.11748254 0.087299891 0.042965736 4294574080
0.11748254 0.088099889 0.050257113 4294574080
0.11748254 0.088099889 0.04622921 4294574080
0.11948254 0.068899892 nan 4294574080
0.11948254 0.068899892 nan 4294574080
0.11948254 0.069699891 nan 4294574080
0.11948254 0.069699891 nan 4294574080
0.11948254 0.07049989 0.052370533 4294574080
0.11948254 0.07049989 0.044115789 4294574080
0.11948254 0.071299888 0.054461457 4294574080
0.11948254 0.071299888 0.042024866 4294574080
0.11948254 0.072099887 0.055867858 4294574080
0.11948254 0.072099887 0.040618464 4294574080
0.11948254 0.072899893 0.056928873 4294574080
0.11948254 0.072899893 0.03955745 4294574080
0.11948254 0.073699892 0.057760723 4294574080
0.11948254 0.073699892 0.0387256 4294574080
0.11948254 0.07449989 0.05841976 4294574080
0.11948254 0.07449989 0.038066562 4294574080
0.11948254 0.075299889 0.058937982 4294574080
0.11948254 0.075299889 0.037548341 4294574080
0.11948254 0.076099887 0.059335139 4294574080
0.11948254 0.076099887 0.037151184 4294574080
0.11948254 0.076899894 0.059623916 4294574080
0.11948254 0.076899894 0.036862407 4294574080
0.11948254 0.077699892 0.05981243 4294574080
0.11948254 0.077699892 0.036673892 4294574080
0.11948254 0.078499891 0.059905544 4294574080
0.11948254 0.078499891 0.036580779 4294574080
0.11948254 0.07929989 0.059905544 4294574080
0.11948254 0.07929989 0.036580779 4294574080
0.11948254 0.080099888 0.05981243 4294574080
0.11948254 0.080099888 0.036673892 4294574080
0.11948254 0.080899887 0.059623916 4294574080
0.11948254 0.080899887 0.036862407 4294574080
0.11948254 0.081699893 0.059335139 4294574080
0.11948254 0.081699893 0.037151184 4294574080
0.11948254 0.082499892 0.058937982 4294574080
0.11948254 0.082499892 0.037548341 4294574080
0.11948254 0.08329989 0.05841976 4294574080
0.11948254 0.08329989 0.038066562 4294574080
0.11948254 0.084099889 0.057760723 4294574080
0.11948254 0.084099889 0.0387256 4294574080
0.11948254 0.084899887 0.056928873 4294574080
0.11948254 0.084899887 0.03955745 4294574080
0.11948254 0.085699894 0.055867858 4294574080
0.11948254 0.085699894 0.040618464 4294574080
0.11948254 0.086499892 0.054461457 4294574080
0.11948254 0.086499892 0.042024866 4294574080
0.11948254 0.087299891 0.052370533 4294574080
0.11948254 0.087299891 0.044115789 4294574080
0.11948254 0.088099889 nan 4294574080
0.11948254 0.088099889 nan 4294574080
0.12148254 0.068899892 nan 4294574080
0.12148254 0.068899892 nan 4294574080
0.12148254 0.069699891 nan 4294574080
0.12148254 0.069699891 nan 4294574080
0.12148254 0.07049989 0.050257113 4294574080
0.12148254 0.07049989 0.04622921 4294574080
0.12148254 0.071299888 0.053311493 4294574080
0.12148254 0.071299888 0.043174829 4294574080
0.12148254 0.072099887 0.054963041 4294574080
0.12148254 0.072099887 0.041523281 4294574080
0.12148254 0.072899893 0.056146476 4294574080
0.12148254 0.072899893 0.040339846 4294574080
0.12148254 0.073699892 0.057052519 4294574080
0.12148254 0.073699892 0.039433803 4294574080
0.12148254 0.07449989 0.057760723 4294574080
0.12148254 0.07449989 0.0387256 4294574080
0.12148254 0.075299889 0.058312919 4294574080
0.12148254 0.075299889 0.038173404 4294574080
0.12148254 0.076099887 0.058733765 4294574080
0.12148254 0.076099887 0.037752558 4294574080
0.12148254 0.076899894 0.059038643 4294574080
0.12148254 0.076899894 0.03744768 4294574080
0.12148254 0.077699892 0.059237197 4294574080
0.12148254 0.077699892 0.037249126 4294574080
0.12148254 0.078499891 0.059335139 4294574080
0.12148254 0.078499891 0.037151184 4294574080
0.12148254 0.07929989 0.059335139 4294574080
0.12148254 0.07929989 0.037151184 4294574080
0.12148254 0.080099888 0.059237197 4294574080
0.12148254 0.080099888 0.037249126 4294574080
0.12148254 0.080899887 0.059038643 4294574080
0.12148254 0.080899887 0.03744768 4294574080
0.12148254 0.081699893 0.058733765 4294574080
0.12148254 0.081699893 0.037752558 4294574080
0.12148254 0.082499892 0.058312919 4294574080
0.12148254 0.082499892 0.038173404 4294574080
0.12148254 0.08329989 0.057760723 4294574080
0.12148254 0.08329989 0.0387256 4294574080
0.12148254 0.084099889 0.057052519 4294574080
0.12148254 0.084099889 0.039433803 4294574080
0.12148254 0.084899887 0.056146476 4294574080
0.12148254 0.084899887 0.040339846 4294574080
0.12148254 0.085699894 0.054963041 4294574080
0.12148254 0.085699894 0.041523281 4294574080
0.12148254 0.086499892 0.053311493 4294574080
0.12148254 0.086499892 0.043174829 4294574080
0.12148254 0.087299891 0.050257113 4294574080
0.12148254 0.087299891 0.04622921 4294574080
0.12148254 0.088099889 nan 4294574080
0.12148254 0.088099889 nan 4294574080
0.12348254 0.068899892 nan 4294574080
0.12348254 0.068899892 nan 4294574080
0.12348254 0.069699891 nan 4294574080
0.12348254 0.069699891 nan 4294574080
0.12348254 0.07049989 nan 4294574080
0.12348254 0.07049989 nan 4294574080
0.12348254 0.071299888 0.05149056 4294574080
0.12348254 0.071299888 0.044995762 4294574080
0.12348254 0.072099887 0.0537217 4294574080
0.12348254 0.072099887 0.042764623 4294574080
0.12348254 0.072899893 0.055122115 4294574080
0.12348254 0.072899893 0.041364208 4294574080
0.12348254 0.073699892 0.056146476 4294574080
0.12348254 0.073699892 0.040339846 4294574080
0.12348254 0.07449989 0.056928873 4294574080
0.12348254 0.07449989 0.03955745 4294574080
0.12348254 0.075299889 0.057530656 4294574080
0.12348254 0.075299889 0.038955666 4294574080
0.12348254 0.076099887 0.057985358 4294574080
0.12348254 0.076099887 0.038500965 4294574080
0.12348254 0.076899894 0.058312919 4294574080
0.12348254 0.076899894 0.038173404 4294574080
0.12348254 0.077699892 0.058525495 4294574080
0.12348254 0.077699892 0.037960827 4294574080
0.12348254 0.078499891 0.058630154 4294574080
0.12348254 0.078499891 0.037856169 4294574080
0.12348254 0.07929989 0.058630154 4294574080
0.12348254 0.07929989 0.037856169 4294574080
0.12348254 0.080099888 0.058525495 4294574080
0.12348254 0.080099888 0.037960827 4294574080
0.12348254 0.080899887 0.058312919 4294574080
0.12348254 0.080899887 0.038173404 4294574080
0.12348254 0.081699893 0.057985358 4294574080
0.12348254 0.081699893 0.038500965 4294574080
0.12348254 0.082499892 0.057530656 4294574080
0.12348254 0.082499892 0.038955666 4294574080
0.12348254 0.08329989 0.056928873 4294574080
