# .PCD v0.7 - Point Cloud Data file format
VERSION 0.7
FIELDS x y z rgb
SIZE 4 4 4 4
TYPE F F F F
COUNT 1 1 1 1
WIDTH 256
HEIGHT 1
VIEWPOINT 0 0 0 1 0 0 0
POINTS 256
DATA ascii
-0.0041 0.1824259 0.0072350041 2.3418052e-38
-0.0041 0.1824259 0.0072350041 2.3418052e-38
0.084652089 0.12556826 0.075925261 2.3418052e-38
0.085079081 0.12522773 0.075936764 2.3418052e-38
0.08348272 0.1275595 0.075695686 2.3418052e-38
0.08110635 0.13005206 0.075847872 2.3418052e-38
0.080451205 0.13065442 0.076096334 2.3418052e-38
0.079356968 0.13143277 0.076653756 2.3418052e-38
0.077597253 0.13199314 0.07795129 2.3418052e-38
0.077026658 0.1318305 0.078585945 2.3418052e-38
0.075994037 0.13108882 0.080532856 2.3418052e-38
0.074630678 0.12946516 0.083491124 2.3418052e-38
0.074098431 0.12872456 0.084625371 2.3418052e-38
0.072935469 0.12673783 0.08712665 2.3418052e-38
0.071129002 0.12297461 0.091769584 2.3418052e-38
0.070436522 0.12159571 0.093338437 2.3418052e-38
0.068726011 0.11819118 0.09679684 2.3418052e-38
0.066792592 0.11476796 0.099911228 2.3418052e-38
0.067243285 0.1167227 0.098548763 2.3418052e-38
0.068003505 0.11999691 0.096010558 2.3418052e-38
0.068539016 0.12238812 0.093886346 2.3418052e-38
0.069011182 0.12437825 0.091760367 2.3418052e-38
0.069204226 0.12487867 0.09131512 2.3418052e-38
0.069520056 0.12550509 0.090648547 2.3418052e-38
0.069712073 0.12547812 0.090342432 2.3418052e-38
0.069722503 0.12509179 0.090409175 2.3418052e-38
0.06982214 0.12414135 0.091280885 2.3418052e-38
0.069782272 0.12234437 0.092729919 2.3418052e-38
0.069692165 0.12130951 0.09349639 2.3418052e-38
0.069322385 0.11882564 0.095159091 2.3418052e-38
0.068889238 0.11546452 0.097817034 2.3418052e-38
0.068516791 0.1132587 0.099402331 2.3418052e-38
0.067668028 0.10912847 0.10207904 2.3418052e-38
0.067581065 0.10621275 0.10333433 2.3418052e-38
0.068734191 0.10768869 0.10202207 2.3418052e-38
0.070789039 0.11024116 0.099438444 2.3418052e-38
0.073150136 0.11286372 0.096112706 2.3418052e-38
0.073992506 0.11364994 0.094821468 2.3418052e-38
0.076810047 0.11507785 0.092164494 2.3418052e-38
0.076926753 0.11510158 0.092060328 2.3418052e-38
0.077701375 0.11498696 0.091435723 2.3418052e-38
0.078478537 0.11419354 0.09096922 2.3418052e-38
0.079581015 0.11249373 0.091345862 2.3418052e-38
0.080089949 0.11128825 0.091709822 2.3418052e-38
0.080689877 0.10930716 0.092325658 2.3418052e-38
0.081179447 0.10577778 0.093554787 2.3418052e-38
0.081497803 0.10360517 0.094579667 2.3418052e-38
0.081723966 0.10044723 0.095950723 2.3418052e-38
0.081788197 0.096624941 0.097442679 2.3418052e-38
0.0823467 0.092641994 0.098189808 2.3418052e-38
0.083978184 0.094370164 0.096389771 2.3418052e-38
0.086354002 0.096882857 0.093405552 2.3418052e-38
0.089824915 0.10045648 0.088227168 2.3418052e-38
0.090133943 0.10072085 0.087701038 2.3418052e-38
0.091899075 0.10152365 0.085673787 2.3418052e-38
0.093853906 0.10168866 0.083476529 2.3418052e-38
0.094466336 0.10159197 0.082775727 2.3418052e-38
0.095554613 0.10069526 0.081553049 2.3418052e-38
0.097302534 0.098435573 0.080940433 2.3418052e-38
0.097718775 0.097651519 0.080852747 2.3418052e-38
0.098715194 0.095286511 0.080690295 2.3418052e-38
0.099745341 0.091221154 0.080859214 2.3418052e-38
0.10028071 0.089202918 0.081182666 2.3418052e-38
0.10084435 0.085736975 0.081737094 2.3418052e-38
0.10135399 0.080331013 0.082449801 2.3418052e-38
0.10138676 0.076591402 0.08285214 2.3418052e-38
0.10078146 0.080647603 0.083671473 2.3418052e-38
0.099574834 0.085511163 0.084531419 2.3418052e-38
0.099114582 0.087078363 0.08474566 2.3418052e-38
0.097941622 0.089727968 0.085200191 2.3418052e-38
0.096759878 0.091967911 0.086469792 2.3418052e-38
0.096176311 0.092545703 0.087081566 2.3418052e-38
0.095161147 0.093213931 0.088078931 2.3418052e-38
0.093483686 0.09303844 0.0899413 2.3418052e-38
0.092841469 0.092771344 0.091008306 2.3418052e-38
0.09153793 0.091825768 0.092887647 2.3418052e-38
0.089522555 0.09015502 0.095371917 2.3418052e-38
0.088410623 0.089122601 0.096551903 2.3418052e-38
0.086419083 0.086849727 0.099314839 2.3418052e-38
0.082491249 0.082421303 0.10363691 2.3418052e-38
0.0817331 0.08162076 0.10435632 2.3418052e-38
0.079156891 0.078829758 0.10641474 2.3418052e-38
0.080694027 0.081476748 0.10518272 2.3418052e-38
0.083229393 0.085516661 0.10261038 2.3418052e-38
0.084130853 0.086943619 0.10156349 2.3418052e-38
0.085086651 0.088439949 0.10017725 2.3418052e-38
0.086071 0.089544512 0.099383235 2.3418052e-38
0.086925581 0.09011475 0.098690413 2.3418052e-38
0.087144278 0.090200976 0.098500647 2.3418052e-38
0.087210588 0.089762874 0.098332763 2.3418052e-38
0.087052971 0.088209167 0.099392578 2.3418052e-38
0.086859651 0.087484054 0.099842511 2.3418052e-38
0.086414322 0.086099543 0.10065603 2.3418052e-38
0.085416004 0.083824478 0.10179922 2.3418052e-38
0.083524786 0.079485245 0.10467067 2.3418052e-38
0.082918666 0.078266494 0.10538305 2.3418052e-38
0.081306443 0.075231552 0.10702519 2.3418052e-38
0.080695525 0.072472081 0.10776329 2.3418052e-38
0.082075536 0.073412314 0.10692485 2.3418052e-38
0.085306756 0.07545124 0.10459109 2.3418052e-38
0.089214519 0.077709831 0.10122378 2.3418052e-38
0.08961837 0.077906653 0.1008213 2.3418052e-38
0.091841109 0.078476578 0.099395879 2.3418052e-38
0.09307424 0.07832747 0.098550469 2.3418052e-38
0.094591483 0.077553615 0.097382888 2.3418052e-38
0.094933189 0.077102534 0.097063184 2.3418052e-38
0.095658809 0.07561627 0.097274713 2.3418052e-38
0.095877618 0.072859652 0.097800568 2.3418052e-38
0.095905371 0.071842961 0.097985588 2.3418052e-38
0.095497757 0.06932576 0.098466739 2.3418052e-38
0.095072322 0.066313729 0.099642634 2.3418052e-38
0.093719311 0.061353873 0.10128728 2.3418052e-38
0.09292914 0.058846995 0.10201721 2.3418052e-38
0.091469273 0.05528212 0.10287976 2.3418052e-38
0.097380504 0.058341369 0.098723941 2.3418052e-38
0.098675869 0.059004113 0.097640641 2.3418052e-38
0.10152326 0.060458124 0.095033824 2.3418052e-38
0.10481866 0.061566822 0.091596872 2.3418052e-38
0.10606518 0.061726779 0.090562254 2.3418052e-38
0.1072607 0.061444875 0.089395829 2.3418052e-38
0.1087143 0.060919672 0.087851249 2.3418052e-38
0.10988586 0.059218165 0.086453632 2.3418052e-38
0.11042229 0.058243919 0.086161204 2.3418052e-38
0.11087766 0.056135003 0.085831307 2.3418052e-38
0.11110967 0.054083254 0.085559875 2.3418052e-38
0.11083106 0.049057659 0.085550152 2.3418052e-38
0.11076687 0.047709674 0.085687302 2.3418052e-38
0.11010101 0.043939061 0.086068861 2.3418052e-38
0.10838868 0.037524227 0.086494692 2.3418052e-38
0.10779803 0.035826508 0.08655902 2.3418052e-38
0.10841248 0.039122172 0.087591872 2.3418052e-38
0.10880058 0.042828865 0.08852151 2.3418052e-38
0.10888328 0.047629476 0.089509584 2.3418052e-38
0.1087342 0.048967756 0.089770168 2.3418052e-38
0.10851675 0.051053744 0.090959735 2.3418052e-38
0.10732096 0.053176068 0.092785418 2.3418052e-38
0.10724434 0.053289391 0.092885204 2.3418052e-38
0.10595414 0.053936683 0.094028652 2.3418052e-38
0.10414787 0.053904876 0.096411496 2.3418052e-38
0.10329734 0.053685576 0.097311884 2.3418052e-38
0.10108209 0.053035542 0.099378526 2.3418052e-38
0.097741291 0.051526673 0.10214481 2.3418052e-38
0.096252866 0.050747816 0.10355595 2.3418052e-38
0.093543112 0.049245298 0.10560917 2.3418052e-38
0.090327039 0.047583554 0.10774963 2.3418052e-38
0.08806207 0.046898261 0.10909744 2.3418052e-38
0.089613363 0.048183959 0.1084308 2.3418052e-38
0.092178375 0.050286837 0.10699501 2.3418052e-38
0.094287753 0.052011471 0.1056411 2.3418052e-38
0.096834779 0.0539186 0.10377259 2.3418052e-38
0.097533017 0.054316051 0.10346982 2.3418052e-38
0.09833248 0.054595135 0.10302414 2.3418052e-38
0.098866582 0.054567263 0.10258488 2.3418052e-38
0.098842211 0.054390669 0.10248651 2.3418052e-38
0.098667912 0.0537077 0.10307448 2.3418052e-38
0.097376965 0.051795829 0.10433993 2.3418052e-38
0.096894741 0.051160704 0.10473648 2.3418052e-38
0.095577605 0.049734294 0.10549571 2.3418052e-38
0.092766605 0.046571646 0.10788587 2.3418052e-38
0.091333129 0.045150701 0.10882871 2.3418052e-38
0.08934214 0.043279387 0.10997742 2.3418052e-38
0.087376893 0.040631473 0.11087319 2.3418052e-38
0.089869849 0.041356683 0.10978226 2.3418052e-38
0.09304864 0.042173233 0.10805275 2.3418052e-38
0.097287558 0.043150026 0.10531291 2.3418052e-38
0.098715685 0.043365844 0.10416885 2.3418052e-38
0.10074429 0.043250918 0.10314203 2.3418052e-38
0.10253708 0.042457633 0.10193095 2.3418052e-38
0.10308974 0.042141616 0.10151842 2.3418052e-38
0.1037635 0.041138362 0.10075069 2.3418052e-38
0.10404901 0.039671835 0.10091474 2.3418052e-38
0.10350028 0.036895491 0.10136551 2.3418052e-38
0.10322866 0.035937816 0.10151717 2.3418052e-38
0.10208291 0.033717249 0.10188872 2.3418052e-38
0.10089307 0.031297941 0.10286395 2.3418052e-38
0.097330615 0.025924403 0.10469133 2.3418052e-38
0.09667439 0.025020057 0.10495945 2.3418052e-38
0.09421736 0.022160599 0.10566827 2.3418052e-38
0.098392643 0.022575099 0.10340241 2.3418052e-38
0.10453784 0.023479005 0.099163681 2.3418052e-38
0.10552602 0.023640452 0.09840253 2.3418052e-38
0.10791789 0.023779787 0.096077912 2.3418052e-38
0.11091355 0.023090648 0.093649447 2.3418052e-38
0.11177608 0.022624254 0.092777126 2.3418052e-38
0.1128201 0.021870524 0.091565646 2.3418052e-38
0.11337869 0.020531243 0.090237208 2.3418052e-38
0.11363366 0.017827444 0.08963982 2.3418052e-38
0.11351259 0.016739935 0.089461535 2.3418052e-38
0.11300886 0.014311182 0.089094423 2.3418052e-38
0.11115298 0.0095522245 0.089095399 2.3418052e-38
0.11080031 0.0086218575 0.089177243 2.3418052e-38
0.10902051 0.0053133257 0.089457154 2.3418052e-38
0.10562759 0.00017306031 0.089690968 2.3418052e-38
0.10427921 -0.0015808272 0.089705974 2.3418052e-38
0.10636602 0.0020801653 0.090937845 2.3418052e-38
0.10843897 0.007055846 0.092322767 2.3418052e-38
0.10880631 0.0080046086 0.092531919 2.3418052e-38
0.109441 0.010915391 0.093189321 2.3418052e-38
0.1097305 0.013605758 0.094898753 2.3418052e-38
0.10963582 0.014202557 0.095339127 2.3418052e-38
0.10921912 0.015669998 0.096455075 2.3418052e-38
0.10763641 0.016848976 0.098349705 2.3418052e-38
0.10689256 0.017087301 0.099369265 2.3418052e-38
0.10530825 0.017206337 0.10090402 2.3418052e-38
0.10255325 0.017369589 0.1032005 2.3418052e-38
0.10075049 0.017305318 0.10432659 2.3418052e-38
0.098550551 0.016924726 0.10613034 2.3418052e-38
0.094515398 0.016210033 0.10874689 2.3418052e-38
0.088728443 0.015305013 0.11165066 2.3418052e-38
0.08701098 0.015052741 0.11234276 2.3418052e-38
0.090099007 0.016350295 0.11148354 2.3418052e-38
0.093067281 0.017494036 0.11030992 2.3418052e-38
0.097362265 0.019134171 0.10810565 2.3418052e-38
0.098380454 0.019518258 0.10742013 2.3418052e-38
0.1000079 0.019885687 0.10683192 2.3418052e-38
0.10124198 0.019905504 0.10622993 2.3418052e-38
0.10142436 0.019891059 0.1061257 2.3418052e-38
0.10135556 0.019583303 0.10588075 2.3418052e-38
0.10098684 0.01897086 0.106424 2.3418052e-38
0.098982885 0.017470516 0.10768386 2.3418052e-38
0.098722614 0.017292392 0.10782989 2.3418052e-38
0.096845642 0.016256545 0.10858183 2.3418052e-38
0.094368175 0.014793391 0.11016994 2.3418052e-38
0.089175567 0.012257484 0.11257727 2.3418052e-38
0.088223472 0.011824188 0.11296156 2.3418052e-38
0.084919706 0.010469077 0.11398331 2.3418052e-38
0.09168309 0.0100382 0.11123394 2.3418052e-38
0.093173943 0.0099518793 0.11048812 2.3418052e-38
0.096106261 0.0097492738 0.10885512 2.3418052e-38
0.098534875 0.0093540214 0.10705759 2.3418052e-38
0.10131929 0.0079681985 0.10550089 2.3418052e-38
0.10166337 0.0076915547 0.10524821 2.3418052e-38
0.10261224 0.0066839461 0.104408 2.3418052e-38
0.10259616 0.0045063649 0.10396262 2.3418052e-38
0.10256021 0.0042113154 0.10399643 2.3418052e-38
0.10157631 0.0024426717 0.10430318 2.3418052e-38
0.099409759 -0.00027322484 0.10477128 2.3418052e-38
0.098871827 -0.00080456759 0.10485969 2.3418052e-38
0.096601792 -0.0031155092 0.10597286 2.3418052e-38
0.091991119 -0.0066822213 0.1074491 2.3418052e-38
0.091092512 -0.0073338216 0.107688 2.3418052e-38
0.087510839 -0.0095052151 0.10835319 2.3418052e-38
0.092041984 -0.010191457 0.10617991 2.3418052e-38
0.098613448 -0.011287003 0.10192595 2.3418052e-38
0.099624075 -0.01143771 0.10119668 2.3418052e-38
0.10152592 -0.011925536 0.099406622 2.3418052e-38
0.10486243 -0.013877281 0.096359693 2.3418052e-38
0.10509966 -0.01411433 0.096075602 2.3418052e-38
0.10600668 -0.015265747 0.094769515 2.3418052e-38
0.10617159 -0.016721658 0.093446769 2.3418052e-38
0.10533723 -0.020162173 0.092688732 2.3418052e-38
0.10514639 -0.020553639 0.092617512 2.3418052e-38
0.10421596 -0.022275403 0.092299163 2.3418052e-38
0.10245965 -0.024355263 0.09197145 2.3418052e-38
0.098203577 -0.029111808 0.092430726 2.3418052e-38
0.097643644 -0.029644378 0.092466079 2.3418052e-38
