# .PCD v0.7 - Point Cloud Data file format
VERSION 0.7
FIELDS x y z
SIZE 4 4 4
TYPE F F F
COUNT 1 1 1
WIDTH 1321
HEIGHT 1
VIEWPOINT 0 0 0 1 0 0 0
POINTS 1321
DATA ascii
0.1647792 -0.013106947 0.44700003
0.16594455 -0.013106947 0.44700003
0.16710992 -0.013106947 0.44700003
0.16827527 -0.013106947 0.44700003
0.16944063 -0.013106947 0.44700003
0.17060597 -0.013106947 0.44700003
0.17177135 -0.013106947 0.44700003
0.17293669 -0.013106947 0.44700003
0.17449154 -0.013136269 0.44800001
0.17565949 -0.013136269 0.44800001
0.17682748 -0.013136269 0.44800001
0.17799544 -0.013136269 0.44800001
0.1791634 -0.013136269 0.44800001
0.18033136 -0.013136269 0.44800001
0.18149933 -0.013136269 0.44800001
0.1826673 -0.013136269 0.44800001
0.18383525 -0.013136269 0.44800001
0.18500322 -0.013136269 0.44800001
0.18617119 -0.013136269 0.44800001
0.18733916 -0.013136269 0.44800001
0.18850711 -0.013136269 0.44800001
0.18967508 -0.013136269 0.44800001
0.19084305 -0.013136269 0.44800001
0.19201101 -0.013136269 0.44800001
0.19317898 -0.013136269 0.44800001
0.19434693 -0.013136269 0.44800001
0.1955149 -0.013136269 0.44800001
0.19668287 -0.013136269 0.44800001
0.19785084 -0.013136269 0.44800001
0.19901879 -0.013136269 0.44800001
0.20018676 -0.013136269 0.44800001
0.20180418 -0.01316559 0.44900003
0.2025227 -0.013136269 0.44800001
0.20369065 -0.013136269 0.44800001
0.2053159 -0.01316559 0.44900003
0.20602658 -0.013136269 0.44800001
0.20719455 -0.013136269 0.44800001
0.20836252 -0.013136269 0.44800001
0.20953047 -0.013136269 0.44800001
-0.24225427 -0.01146072 0.42900002
-0.24113585 -0.01146072 0.42900002
-0.24001743 -0.01146072 0.42900002
-0.23889898 -0.01146072 0.42900002
-0.23778056 -0.01146072 0.42900002
-0.23666212 -0.01146072 0.42900002
-0.23554368 -0.01146072 0.42900002
-0.23442525 -0.01146072 0.42900002
-0.23330683 -0.01146072 0.42900002
-0.2321884 -0.01146072 0.42900002
-0.23106995 -0.01146072 0.42900002
-0.22995153 -0.01146072 0.42900002
-0.22883311 -0.01146072 0.42900002
-0.22771469 -0.01146072 0.42900002
-0.22659624 -0.01146072 0.42900002
-0.22547781 -0.01146072 0.42900002
-0.22488236 -0.011487435 0.43000001
-0.22376134 -0.011487435 0.43000001
-0.22264028 -0.011487435 0.43000001
-0.22151925 -0.011487435 0.43000001
-0.22039822 -0.011487435 0.43000001
-0.21927716 -0.011487435 0.43000001
-0.21815613 -0.011487435 0.43000001
-0.2170351 -0.011487435 0.43000001
-0.21591407 -0.011487435 0.43000001
-0.21479303 -0.011487435 0.43000001
-0.21367198 -0.011487435 0.43000001
-0.21255095 -0.011487435 0.43000001
-0.21142991 -0.011487435 0.43000001
-0.21030888 -0.011487435 0.43000001
-0.20918784 -0.011487435 0.43000001
-0.20758292 -0.01146072 0.42900002
-0.2064645 -0.01146072 0.42900002
-0.20534606 -0.01146072 0.42900002
-0.20422764 -0.01146072 0.42900002
-0.20358264 -0.011487435 0.43000001
-0.20246162 -0.011487435 0.43000001
-0.20134057 -0.011487435 0.43000001
-0.20021954 -0.011487435 0.43000001
-0.1990985 -0.011487435 0.43000001
-0.19797747 -0.011487435 0.43000001
-0.19685642 -0.011487435 0.43000001
-0.1961906 -0.01151415 0.43100002
-0.19506694 -0.01151415 0.43100002
-0.19394331 -0.01151415 0.43100002
-0.19281967 -0.01151415 0.43100002
-0.19214077 -0.011540865 0.43200001
-0.19101453 -0.011540865 0.43200001
-0.18988827 -0.011540865 0.43200001
-0.18919899 -0.011567581 0.43300003
-0.18807012 -0.011567581 0.43300003
-0.18694127 -0.011567581 0.43300003
-0.18581241 -0.011567581 0.43300003
-0.18468356 -0.011567581 0.43300003
-0.1839786 -0.011594295 0.43400002
-0.18284714 -0.011594295 0.43400002
-0.18171567 -0.011594295 0.43400002
-0.18058419 -0.011594295 0.43400002
-0.17945273 -0.011594295 0.43400002
-0.17832127 -0.011594295 0.43400002
-0.17718981 -0.011594295 0.43400002
-0.17605834 -0.011594295 0.43400002
-0.17492688 -0.011594295 0.43400002
-0.1737954 -0.011594295 0.43400002
-0.17266394 -0.011594295 0.43400002
-0.17153248 -0.011594295 0.43400002
-0.17040102 -0.011594295 0.43400002
-0.16926955 -0.011594295 0.43400002
-0.16813809 -0.011594295 0.43400002
-0.16700661 -0.011594295 0.43400002
-0.16587514 -0.011594295 0.43400002
-0.16474369 -0.011594295 0.43400002
-0.16361222 -0.011594295 0.43400002
-0.16248076 -0.011594295 0.43400002
-0.16134928 -0.011594295 0.43400002
-0.16021782 -0.011594295 0.43400002
-0.15908635 -0.011594295 0.43400002
-0.15795489 -0.011594295 0.43400002
-0.15682343 -0.011594295 0.43400002
-0.15569197 -0.011594295 0.43400002
-0.15456049 -0.011594295 0.43400002
-0.15342903 -0.011594295 0.43400002
-0.15229756 -0.011594295 0.43400002
-0.1511661 -0.011594295 0.43400002
-0.15003464 -0.011594295 0.43400002
-0.14890316 -0.011594295 0.43400002
-0.1477717 -0.011594295 0.43400002
-0.14664023 -0.011594295 0.43400002
-0.14550877 -0.011594295 0.43400002
-0.14437731 -0.011594295 0.43400002
-0.14324585 -0.011594295 0.43400002
-0.14211437 -0.011594295 0.43400002
-0.14098291 -0.011594295 0.43400002
-0.13985144 -0.011594295 0.43400002
-0.13871998 -0.011594295 0.43400002
-0.1375885 -0.011594295 0.43400002
-0.13645704 -0.011594295 0.43400002
-0.13563739 -0.01162101 0.43500003
-0.13450332 -0.01162101 0.43500003
-0.13336925 -0.01162101 0.43500003
-0.13223517 -0.01162101 0.43500003
-0.13140248 -0.011647725 0.43600002
-0.1302658 -0.011647725 0.43600002
-0.12912913 -0.011647725 0.43600002
-0.12799244 -0.011647725 0.43600002
-0.12685576 -0.011647725 0.43600002
-0.12543073 -0.01162101 0.43500003
-0.12429667 -0.01162101 0.43500003
-0.12316259 -0.01162101 0.43500003
-0.12202851 -0.01162101 0.43500003
-0.12089445 -0.01162101 0.43500003
-0.11976037 -0.01162101 0.43500003
-0.118899 -0.011647725 0.43600002
-0.11776232 -0.011647725 0.43600002
-0.11662564 -0.011647725 0.43600002
-0.11548896 -0.011647725 0.43600002
-0.11435229 -0.011647725 0.43600002
-0.1132156 -0.011647725 0.43600002
-0.11207893 -0.011647725 0.43600002
-0.11094224 -0.011647725 0.43600002
-0.10980557 -0.011647725 0.43600002
-0.10866889 -0.011647725 0.43600002
-0.1075322 -0.011647725 0.43600002
-0.10639553 -0.011647725 0.43600002
-0.10525884 -0.011647725 0.43600002
-0.10412217 -0.011647725 0.43600002
-0.10298549 -0.011647725 0.43600002
-0.10184881 -0.011647725 0.43600002
-0.10071212 -0.011647725 0.43600002
-0.09980382 -0.01167444 0.43700001
-0.098664537 -0.01167444 0.43700001
-0.097525254 -0.01167444 0.43700001
-0.096165404 -0.011647725 0.43600002
-0.095028728 -0.011647725 0.43600002
-0.093892045 -0.011647725 0.43600002
-0.09275537 -0.011647725 0.43600002
-0.091618687 -0.011647725 0.43600002
-0.090482011 -0.011647725 0.43600002
-0.089345329 -0.011647725 0.43600002
-0.088208653 -0.011647725 0.43600002
-0.08707197 -0.011647725 0.43600002
-0.085935287 -0.011647725 0.43600002
-0.084798604 -0.011647725 0.43600002
-0.083853811 -0.01167444 0.43700001
-0.08271452 -0.01167444 0.43700001
-0.081575237 -0.01167444 0.43700001
-0.080435947 -0.01167444 0.43700001
-0.079296663 -0.01167444 0.43700001
-0.07815738 -0.01167444 0.43700001
-0.07701809 -0.01167444 0.43700001
-0.075878806 -0.01167444 0.43700001
-0.074739516 -0.01167444 0.43700001
-0.073600233 -0.01167444 0.43700001
-0.072460949 -0.01167444 0.43700001
-0.071321651 -0.01167444 0.43700001
-0.070342973 -0.011701155 0.43800002
-0.069201075 -0.011701155 0.43800002
-0.068059184 -0.011701155 0.43800002
-0.066764511 -0.01167444 0.43700001
-0.065625221 -0.01167444 0.43700001
-0.064485937 -0.01167444 0.43700001
-0.063491613 -0.011701155 0.43800002
-0.062349714 -0.011701155 0.43800002
-0.061207823 -0.011701155 0.43800002
-0.060065929 -0.011701155 0.43800002
-0.058789503 -0.01167444 0.43700001
-0.057782143 -0.011701155 0.43800002
-0.056640241 -0.011701155 0.43800002
-0.05549835 -0.011701155 0.43800002
-0.05435646 -0.011701155 0.43800002
-0.053214565 -0.011701155 0.43800002
-0.051953778 -0.01167444 0.43700001
-0.050814494 -0.01167444 0.43700001
-0.049675208 -0.01167444 0.43700001
-0.048424855 -0.011647725 0.43600002
-0.047179718 -0.01162101 0.43500003
-0.046045646 -0.01162101 0.43500003
-0.044808324 -0.011594295 0.43400002
-0.043676861 -0.011594295 0.43400002
-0.042447366 -0.011567581 0.43300003
-0.041223079 -0.011540865 0.43200001
-0.040004015 -0.01151415 0.43100002
-0.038790159 -0.011487435 0.43000001
-0.037493918 -0.011434006 0.42800003
-0.036293097 -0.01140729 0.42700002
-0.032567579 -0.011273716 0.42200002
-0.031318262 -0.011220286 0.42000002
-0.030151337 -0.011193571 0.41900003
-0.028989621 -0.011166855 0.41800001
-0.027833123 -0.011140141 0.41700003
-0.026681837 -0.011113425 0.41600001
-0.025535768 -0.011086711 0.41500002
-0.024453837 -0.011086711 0.41500002
-0.023315588 -0.011059996 0.41400003
-0.022236263 -0.011059996 0.41400003
-0.021105835 -0.011033281 0.41300002
-0.020029116 -0.011033281 0.41300002
-0.018906511 -0.011006566 0.41200003
-0.0178324 -0.011006566 0.41200003
-0.016758289 -0.011006566 0.41200003
-0.015722249 -0.011033281 0.41300002
-0.014645531 -0.011033281 0.41300002
-0.013601669 -0.011059996 0.41400003
-0.01255259 -0.011086711 0.41500002
-0.0094189262 -0.011220286 0.42000002
-0.0083635971 -0.011273716 0.42200002
-0.0072806282 -0.01130043 0.42300001
-0.0061778403 -0.01130043 0.42300001
-0.0050750524 -0.01130043 0.42300001
-0.0039722645 -0.01130043 0.42300001
-0.002862693 -0.011273716 0.42200002
-0.0017541589 -0.011220286 0.42000002
-0.00065919216 -0.011220286 0.42000002
0.00043369949 -0.011166855 0.41800001
0.0015198075 -0.011140141 0.41700003
0.0026007013 -0.011113425 0.41600001
0.0036763812 -0.011086711 0.41500002
0.0047353809 -0.011033281 0.41300002
0.0057839523 -0.010979851 0.41100001
0.0068554557 -0.010979851 0.41100001
0.0079076719 -0.010953136 0.41000003
0.0089765685 -0.010953136 0.41000003
0.010020963 -0.010926421 0.40900001
0.011087252 -0.010926421 0.40900001
0.012123826 -0.010899706 0.40800002
0.013187508 -0.010899706 0.40800002
0.014251189 -0.010899706 0.40800002
0.015314872 -0.010899706 0.40800002
0.016378554 -0.010899706 0.40800002
0.017442236 -0.010899706 0.40800002
0.018505918 -0.010899706 0.40800002
0.019617565 -0.010926421 0.40900001
0.020734426 -0.010953136 0.41000003
0.021803323 -0.010953136 0.41000003
0.022928003 -0.010979851 0.41100001
0.024057901 -0.011006566 0.41200003
0.025132012 -0.011006566 0.41200003
0.026269726 -0.011033281 0.41300002
0.02741266 -0.011059996 0.41400003
0.028560806 -0.011086711 0.41500002
0.029785594 -0.011140141 0.41700003
0.031020809 -0.011193571 0.41900003
0.032266453 -0.011247001 0.42100003
0.033601776 -0.011327146 0.42400002
0.034952741 -0.01140729 0.42700002
0.039099488 -0.011647725 0.43600002
0.040420737 -0.011701155 0.43800002
0.041752417 -0.011754584 0.44000003
0.04309452 -0.011808014 0.44200003
0.044346951 -0.011834729 0.44300002
0.04550188 -0.011834729 0.44300002
0.046762131 -0.011861444 0.44400004
0.047919665 -0.011861444 0.44400004
0.049077202 -0.011861444 0.44400004
0.050234739 -0.011861444 0.44400004
0.051392276 -0.011861444 0.44400004
0.052549813 -0.011861444 0.44400004
0.053707346 -0.011861444 0.44400004
0.054864883 -0.011861444 0.44400004
0.056022421 -0.011861444 0.44400004
0.057179954 -0.011861444 0.44400004
0.058337491 -0.011861444 0.44400004
0.059495028 -0.011861444 0.44400004
0.060652561 -0.011861444 0.44400004
0.061949309 -0.011888159 0.44500002
0.063109457 -0.011888159 0.44500002
0.064269602 -0.011888159 0.44500002
0.065429747 -0.011888159 0.44500002
0.066589884 -0.011888159 0.44500002
0.067597784 -0.011861444 0.44400004
0.068755321 -0.011861444 0.44400004
0.069912858 -0.011861444 0.44400004
0.071070395 -0.011861444 0.44400004
0.072390601 -0.011888159 0.44500002
0.073550746 -0.011888159 0.44500002
0.074710883 -0.011888159 0.44500002
0.075871028 -0.011888159 0.44500002
0.077031173 -0.011888159 0.44500002
0.078191325 -0.011888159 0.44500002
0.079351462 -0.011888159 0.44500002
0.080511607 -0.011888159 0.44500002
0.081671752 -0.011888159 0.44500002
0.082831897 -0.011888159 0.44500002
0.083803296 -0.011861444 0.44400004
0.084960826 -0.011861444 0.44400004
0.086312324 -0.011888159 0.44500002
0.0872759 -0.011861444 0.44400004
0.088433437 -0.011861444 0.44400004
0.089590974 -0.011861444 0.44400004
0.090748511 -0.011861444 0.44400004
0.091906041 -0.011861444 0.44400004
0.093273185 -0.011888159 0.44500002
0.09443333 -0.011888159 0.44500002
0.095593475 -0.011888159 0.44500002
0.096753612 -0.011888159 0.44500002
0.097913757 -0.011888159 0.44500002
0.099073902 -0.011888159 0.44500002
0.10023405 -0.011888159 0.44500002
0.10139418 -0.011888159 0.44500002
0.10255433 -0.011888159 0.44500002
0.10371447 -0.011888159 0.44500002
0.10487461 -0.011888159 0.44500002
0.10603476 -0.011888159 0.44500002
0.1071949 -0.011888159 0.44500002
0.10835505 -0.011888159 0.44500002
0.10951519 -0.011888159 0.44500002
0.11067533 -0.011888159 0.44500002
0.11208678 -0.011914874 0.44600001
0.11324954 -0.011914874 0.44600001
0.11441229 -0.011914874 0.44600001
0.11557504 -0.011914874 0.44600001
0.11647606 -0.011888159 0.44500002
0.11763619 -0.011888159 0.44500002
0.11879634 -0.011888159 0.44500002
0.11995648 -0.011888159 0.44500002
0.12111663 -0.011888159 0.44500002
0.12227676 -0.011888159 0.44500002
0.12343691 -0.011888159 0.44500002
0.12459705 -0.011888159 0.44500002
0.1257572 -0.011888159 0.44500002
0.12691733 -0.011888159 0.44500002
0.12807748 -0.011888159 0.44500002
0.12923762 -0.011888159 0.44500002
0.13039777 -0.011888159 0.44500002
0.13155793 -0.011888159 0.44500002
0.13271806 -0.011888159 0.44500002
0.1338782 -0.011888159 0.44500002
0.13534179 -0.011914874 0.44600001
0.13650455 -0.011914874 0.44600001
0.1376673 -0.011914874 0.44600001
0.13883005 -0.011914874 0.44600001
0.13999279 -0.011914874 0.44600001
0.14115556 -0.011914874 0.44600001
0.14231829 -0.011914874 0.44600001
0.14348105 -0.011914874 0.44600001
0.1446438 -0.011914874 0.44600001
0.14580655 -0.011914874 0.44600001
0.1469693 -0.011914874 0.44600001
0.14813206 -0.011914874 0.44600001
0.14962955 -0.011941589 0.44700003
0.15079491 -0.011941589 0.44700003
0.15196027 -0.011941589 0.44700003
0.15312561 -0.011941589 0.44700003
0.15429099 -0.011941589 0.44700003
0.15545633 -0.011941589 0.44700003
0.15662169 -0.011941589 0.44700003
0.15778704 -0.011941589 0.44700003
0.15895241 -0.011941589 0.44700003
0.16011776 -0.011941589 0.44700003
0.16128312 -0.011941589 0.44700003
0.16244848 -0.011941589 0.44700003
0.16361384 -0.011941589 0.44700003
0.1647792 -0.011941589 0.44700003
0.16594455 -0.011941589 0.44700003
0.16710992 -0.011941589 0.44700003
0.16827527 -0.011941589 0.44700003
0.16944063 -0.011941589 0.44700003
0.17060597 -0.011941589 0.44700003
0.17177135 -0.011941589 0.44700003
0.17293669 -0.011941589 0.44700003
0.17449154 -0.011968304 0.44800001
0.17565949 -0.011968304 0.44800001
0.17682748 -0.011968304 0.44800001
0.17799544 -0.011968304 0.44800001
0.1791634 -0.011968304 0.44800001
0.18033136 -0.011968304 0.44800001
0.18149933 -0.011968304 0.44800001
0.1826673 -0.011968304 0.44800001
0.18383525 -0.011968304 0.44800001
0.18500322 -0.011968304 0.44800001
0.18617119 -0.011968304 0.44800001
0.18733916 -0.011968304 0.44800001
0.18850711 -0.011968304 0.44800001
0.18967508 -0.011968304 0.44800001
0.19084305 -0.011968304 0.44800001
0.19201101 -0.011968304 0.44800001
0.19317898 -0.011968304 0.44800001
0.19434693 -0.011968304 0.44800001
0.1955149 -0.011968304 0.44800001
0.19668287 -0.011968304 0.44800001
0.19785084 -0.011968304 0.44800001
0.19901879 -0.011968304 0.44800001
0.20018676 -0.011968304 0.44800001
0.20135473 -0.011968304 0.44800001
0.2025227 -0.011968304 0.44800001
0.20369065 -0.011968304 0.44800001
0.20485862 -0.011968304 0.44800001
0.20602658 -0.011968304 0.44800001
0.20719455 -0.011968304 0.44800001
0.20836252 -0.011968304 0.44800001
0.20953047 -0.011968304 0.44800001
-0.24225427 -0.01034229 0.42900002
-0.24113585 -0.01034229 0.42900002
-0.24001743 -0.01034229 0.42900002
-0.23889898 -0.01034229 0.42900002
-0.23778056 -0.01034229 0.42900002
-0.23666212 -0.01034229 0.42900002
-0.23554368 -0.01034229 0.42900002
-0.23442525 -0.01034229 0.42900002
-0.23330683 -0.01034229 0.42900002
-0.2321884 -0.01034229 0.42900002
-0.23106995 -0.01034229 0.42900002
-0.22995153 -0.01034229 0.42900002
-0.22883311 -0.01034229 0.42900002
-0.22771469 -0.01034229 0.42900002
-0.22659624 -0.01034229 0.42900002
-0.22600339 -0.010366397 0.43000001
-0.22488236 -0.010366397 0.43000001
-0.22376134 -0.010366397 0.43000001
-0.22264028 -0.010366397 0.43000001
-0.22151925 -0.010366397 0.43000001
-0.22039822 -0.010366397 0.43000001
-0.21927716 -0.010366397 0.43000001
-0.21866348 -0.010390505 0.43100002
-0.2170351 -0.010366397 0.43000001
-0.21591407 -0.010366397 0.43000001
-0.21479303 -0.010366397 0.43000001
-0.21367198 -0.010366397 0.43000001
-0.21255095 -0.010366397 0.43000001
-0.21142991 -0.010366397 0.43000001
-0.21030888 -0.010366397 0.43000001
-0.20918784 -0.010366397 0.43000001
-0.20758292 -0.01034229 0.42900002
-0.20694576 -0.010366397 0.43000001
-0.20582472 -0.010366397 0.43000001
-0.20470369 -0.010366397 0.43000001
-0.20358264 -0.010366397 0.43000001
-0.20246162 -0.010366397 0.43000001
-0.20134057 -0.010366397 0.43000001
-0.20021954 -0.010366397 0.43000001
-0.1990985 -0.010366397 0.43000001
-0.19797747 -0.010366397 0.43000001
-0.19731423 -0.010390505 0.43100002
-0.1961906 -0.010390505 0.43100002
-0.19506694 -0.010390505 0.43100002
-0.19394331 -0.010390505 0.43100002
-0.19281967 -0.010390505 0.43100002
-0.19214077 -0.010414612 0.43200001
-0.19101453 -0.010414612 0.43200001
-0.18988827 -0.010414612 0.43200001
-0.18876202 -0.010414612 0.43200001
-0.18807012 -0.010438722 0.43300003
-0.18694127 -0.010438722 0.43300003
-0.18581241 -0.010438722 0.43300003
-0.18468356 -0.010438722 0.43300003
-0.1839786 -0.010462829 0.43400002
-0.18284714 -0.010462829 0.43400002
-0.18171567 -0.010462829 0.43400002
-0.18058419 -0.010462829 0.43400002
-0.17945273 -0.010462829 0.43400002
-0.17832127 -0.010462829 0.43400002
-0.17718981 -0.010462829 0.43400002
-0.17605834 -0.010462829 0.43400002
-0.17492688 -0.010462829 0.43400002
-0.1737954 -0.010462829 0.43400002
-0.17266394 -0.010462829 0.43400002
-0.17153248 -0.010462829 0.43400002
-0.17040102 -0.010462829 0.43400002
-0.16926955 -0.010462829 0.43400002
-0.16813809 -0.010462829 0.43400002
-0.16700661 -0.010462829 0.43400002
-0.16587514 -0.010462829 0.43400002
-0.16474369 -0.010462829 0.43400002
-0.16361222 -0.010462829 0.43400002
-0.16248076 -0.010462829 0.43400002
-0.16134928 -0.010462829 0.43400002
-0.16021782 -0.010462829 0.43400002
-0.15908635 -0.010462829 0.43400002
-0.15795489 -0.010462829 0.43400002
-0.15682343 -0.010462829 0.43400002
-0.15569197 -0.010462829 0.43400002
-0.15456049 -0.010462829 0.43400002
-0.15342903 -0.010462829 0.43400002
-0.15229756 -0.010462829 0.43400002
-0.1511661 -0.010462829 0.43400002
-0.15003464 -0.010462829 0.43400002
-0.14890316 -0.010462829 0.43400002
-0.1477717 -0.010462829 0.43400002
-0.14664023 -0.010462829 0.43400002
-0.14550877 -0.010462829 0.43400002
-0.14437731 -0.010462829 0.43400002
-0.14324585 -0.010462829 0.43400002
-0.14211437 -0.010462829 0.43400002
-0.14098291 -0.010462829 0.43400002
-0.13985144 -0.010462829 0.43400002
-0.13871998 -0.010462829 0.43400002
-0.1375885 -0.010462829 0.43400002
-0.13645704 -0.010462829 0.43400002
-0.13563739 -0.010486937 0.43500003
-0.13450332 -0.010486937 0.43500003
-0.13336925 -0.010486937 0.43500003
-0.13223517 -0.010486937 0.43500003
-0.13140248 -0.010511044 0.43600002
-0.1302658 -0.010511044 0.43600002
-0.12912913 -0.010511044 0.43600002
-0.12799244 -0.010511044 0.43600002
-0.12685576 -0.010511044 0.43600002
-0.12543073 -0.010486937 0.43500003
-0.12429667 -0.010486937 0.43500003
-0.12316259 -0.010486937 0.43500003
-0.12202851 -0.010486937 0.43500003
-0.12089445 -0.010486937 0.43500003
-0.11976037 -0.010486937 0.43500003
-0.1186263 -0.010486937 0.43500003
-0.11776232 -0.010511044 0.43600002
-0.11662564 -0.010511044 0.43600002
-0.11548896 -0.010511044 0.43600002
-0.11435229 -0.010511044 0.43600002
-0.1132156 -0.010511044 0.43600002
-0.11207893 -0.010511044 0.43600002
-0.11094224 -0.010511044 0.43600002
-0.10980557 -0.010511044 0.43600002
-0.10866889 -0.010511044 0.43600002
-0.1075322 -0.010511044 0.43600002
-0.10639553 -0.010511044 0.43600002
-0.10525884 -0.010511044 0.43600002
-0.10412217 -0.010511044 0.43600002
-0.10298549 -0.010511044 0.43600002
-0.1020824 -0.010535153 0.43700001
-0.10094311 -0.010535153 0.43700001
-0.09980382 -0.010535153 0.43700001
-0.098664537 -0.010535153 0.43700001
-0.097525254 -0.010535153 0.43700001
-0.096385963 -0.010535153 0.43700001
-0.095028728 -0.010511044 0.43600002
-0.093892045 -0.010511044 0.43600002
-0.09275537 -0.010511044 0.43600002
-0.091618687 -0.010511044 0.43600002
-0.090482011 -0.010511044 0.43600002
-0.089345329 -0.010511044 0.43600002
-0.088208653 -0.010511044 0.43600002
-0.08707197 -0.010511044 0.43600002
-0.085935287 -0.010511044 0.43600002
-0.084798604 -0.010511044 0.43600002
-0.083853811 -0.010535153 0.43700001
-0.08271452 -0.010535153 0.43700001
-0.081575237 -0.010535153 0.43700001
-0.080435947 -0.010535153 0.43700001
-0.079296663 -0.010535153 0.43700001
-0.07815738 -0.010535153 0.43700001
-0.07701809 -0.010535153 0.43700001
-0.075878806 -0.010535153 0.43700001
-0.074739516 -0.010535153 0.43700001
-0.073600233 -0.010535153 0.43700001
-0.072460949 -0.010535153 0.43700001
-0.071321651 -0.010535153 0.43700001
-0.070342973 -0.010559261 0.43800002
-0.069201075 -0.010559261 0.43800002
-0.068059184 -0.010559261 0.43800002
-0.066764511 -0.010535153 0.43700001
-0.065625221 -0.010535153 0.43700001
-0.064485937 -0.010535153 0.43700001
-0.063346647 -0.010535153 0.43700001
-0.062207364 -0.010535153 0.43700001
-0.061068077 -0.010535153 0.43700001
-0.05992879 -0.010535153 0.43700001
-0.058789503 -0.010535153 0.43700001
-0.057650216 -0.010535153 0.43700001
-0.056640241 -0.010559261 0.43800002
-0.05549835 -0.010559261 0.43800002
-0.05435646 -0.010559261 0.43800002
-0.053093068 -0.010535153 0.43700001
-0.051953778 -0.010535153 0.43700001
-0.050814494 -0.010535153 0.43700001
-0.049561534 -0.010511044 0.43600002
-0.048313789 -0.010486937 0.43500003
-0.047071256 -0.010462829 0.43400002
-0.045939792 -0.010462829 0.43400002
-0.044705082 -0.010438722 0.43300003
-0.043475583 -0.010414612 0.43200001
-0.042251304 -0.010390505 0.43100002
-0.041032232 -0.010366397 0.43000001
-0.039725564 -0.010318181 0.42800003
-0.038519531 -0.010294073 0.42700002
-0.03723111 -0.010245858 0.42500001
-0.034767937 -0.010173534 0.42200002
-0.033587977 -0.010149427 0.42100003
-0.032336056 -0.01010121 0.41900003
-0.031169128 -0.010077102 0.41800001
-0.030007416 -0.010052995 0.41700003
-0.028850913 -0.010028887 0.41600001
-0.027699631 -0.010004778 0.41500002
-0.026617698 -0.010004778 0.41500002
-0.025474237 -0.0099806711 0.41400003
-0.024335988 -0.0099565629 0.41300002
-0.023259269 -0.0099565629 0.41300002
-0.022182552 -0.0099565629 0.41300002
-0.021054732 -0.0099324556 0.41200003
-0.019980621 -0.0099324556 0.41200003
-0.018906511 -0.0099324556 0.41200003
-0.0178324 -0.0099324556 0.41200003
-0.016758289 -0.0099324556 0.41200003
-0.01568418 -0.0099324556 0.41200003
-0.01461007 -0.0099324556 0.41200003
-0.013568814 -0.0099565629 0.41300002
-0.0093740746 -0.010077102 0.41800001
-0.0083239591 -0.010125319 0.42000002
-0.0072462047 -0.010149427 0.42100003
-0.0061632353 -0.010173534 0.42200002
-0.0050630546 -0.010173534 0.42200002
-0.0039534834 -0.010149427 0.42100003
-0.0017499824 -0.01010121 0.41900003
-0.00065605313 -0.010077102 0.41800001
0.00043162436 -0.010028887 0.41600001
0.0015125183 -0.010004778 0.41500002
0.0025881981 -0.0099806711 0.41400003
0.0036586637 -0.0099565629 0.41300002
0.0047124494 -0.0099083474 0.41100001
0.0057698796 -0.0098842392 0.41000003
0.0068387762 -0.0098842392 0.41000003
0.0079076719 -0.0098842392 0.41000003
0.008954674 -0.009860131 0.40900001
0.010020963 -0.009860131 0.40900001
0.011087252 -0.009860131 0.40900001
0.012153541 -0.009860131 0.40900001
0.01321983 -0.009860131 0.40900001
0.014251189 -0.0098360237 0.40800002
0.015352408 -0.009860131 0.40900001
0.016418697 -0.009860131 0.40900001
0.017484985 -0.009860131 0.40900001
0.018596634 -0.0098842392 0.41000003
0.01966553 -0.0098842392 0.41000003
0.020784996 -0.0099083474 0.41100001
0.02190968 -0.0099324556 0.41200003
0.023039576 -0.0099565629 0.41300002
0.024116293 -0.0099565629 0.41300002
0.025254011 -0.0099806711 0.41400003
0.02639694 -0.010004778 0.41500002
0.027545087 -0.010028887 0.41600001
0.028767269 -0.010077102 0.41800001
0.029999878 -0.010125319 0.42000002
0.031242914 -0.010173534 0.42200002
0.032573022 -0.010245858 0.42500001
0.036657203 -0.010462829 0.43400002
0.038049877 -0.010535153 0.43700001
0.039368521 -0.010583368 0.43900001
0.040605307 -0.010607476 0.44000003
0.041942198 -0.010655693 0.44200003
0.043192018 -0.0106798 0.44300002
0.044447057 -0.010703908 0.44400004
0.045604594 -0.010703908 0.44400004
0.046762131 -0.010703908 0.44400004
0.047919665 -0.010703908 0.44400004
0.049077202 -0.010703908 0.44400004
0.050234739 -0.010703908 0.44400004
0.051392276 -0.010703908 0.44400004
0.052549813 -0.010703908 0.44400004
0.053707346 -0.010703908 0.44400004
0.054864883 -0.010703908 0.44400004
0.056022421 -0.010703908 0.44400004
0.057179954 -0.010703908 0.44400004
0.058337491 -0.010703908 0.44400004
0.059495028 -0.010703908 0.44400004
0.060652561 -0.010703908 0.44400004
0.061810099 -0.010703908 0.44400004
0.063109457 -0.010728016 0.44500002
0.064269602 -0.010728016 0.44500002
0.065429747 -0.010728016 0.44500002
0.066589884 -0.010728016 0.44500002
0.067597784 -0.010703908 0.44400004
0.068910174 -0.010728016 0.44500002
0.069912858 -0.010703908 0.44400004
0.071230456 -0.010728016 0.44500002
0.072390601 -0.010728016 0.44500002
0.073550746 -0.010728016 0.44500002
0.074710883 -0.010728016 0.44500002
0.075871028 -0.010728016 0.44500002
0.077031173 -0.010728016 0.44500002
0.078191325 -0.010728016 0.44500002
0.079351462 -0.010728016 0.44500002
0.080511607 -0.010728016 0.44500002
0.081671752 -0.010728016 0.44500002
0.082831897 -0.010728016 0.44500002
0.083992034 -0.010728016 0.44500002
0.085152179 -0.010728016 0.44500002
0.086312324 -0.010728016 0.44500002
0.087472461 -0.010728016 0.44500002
0.088632606 -0.010728016 0.44500002
0.089792751 -0.010728016 0.44500002
0.090952896 -0.010728016 0.44500002
0.092113033 -0.010728016 0.44500002
0.093273185 -0.010728016 0.44500002
0.09443333 -0.010728016 0.44500002
0.095593475 -0.010728016 0.44500002
0.096753612 -0.010728016 0.44500002
0.097913757 -0.010728016 0.44500002
0.099073902 -0.010728016 0.44500002
0.10023405 -0.010728016 0.44500002
0.10139418 -0.010728016 0.44500002
0.10255433 -0.010728016 0.44500002
0.10371447 -0.010728016 0.44500002
0.10487461 -0.010728016 0.44500002
0.10603476 -0.010728016 0.44500002
0.1071949 -0.010728016 0.44500002
0.10835505 -0.010728016 0.44500002
0.10951519 -0.010728016 0.44500002
0.11092404 -0.010752124 0.44600001
0.11208678 -0.010752124 0.44600001
0.11324954 -0.010752124 0.44600001
0.11441229 -0.010752124 0.44600001
0.11531591 -0.010728016 0.44500002
0.11647606 -0.010728016 0.44500002
0.11763619 -0.010728016 0.44500002
0.11879634 -0.010728016 0.44500002
0.11995648 -0.010728016 0.44500002
0.12111663 -0.010728016 0.44500002
0.12227676 -0.010728016 0.44500002
0.12343691 -0.010728016 0.44500002
0.12459705 -0.010728016 0.44500002
0.1257572 -0.010728016 0.44500002
0.12691733 -0.010728016 0.44500002
0.12807748 -0.010728016 0.44500002
0.12923762 -0.010728016 0.44500002
0.13039777 -0.010728016 0.44500002
0.13155793 -0.010728016 0.44500002
0.13271806 -0.010728016 0.44500002
0.1338782 -0.010728016 0.44500002
0.13503835 -0.010728016 0.44500002
0.13650455 -0.010752124 0.44600001
0.1376673 -0.010752124 0.44600001
0.13883005 -0.010752124 0.44600001
0.13999279 -0.010752124 0.44600001
0.14115556 -0.010752124 0.44600001
0.14231829 -0.010752124 0.44600001
0.14348105 -0.010752124 0.44600001
0.1446438 -0.010752124 0.44600001
0.14580655 -0.010752124 0.44600001
0.1469693 -0.010752124 0.44600001
0.14813206 -0.010752124 0.44600001
0.14962955 -0.010776232 0.44700003
0.15079491 -0.010776232 0.44700003
0.15196027 -0.010776232 0.44700003
0.15312561 -0.010776232 0.44700003
0.15429099 -0.010776232 0.44700003
0.15545633 -0.010776232 0.44700003
0.15662169 -0.010776232 0.44700003
0.15778704 -0.010776232 0.44700003
0.15895241 -0.010776232 0.44700003
0.16011776 -0.010776232 0.44700003
0.16128312 -0.010776232 0.44700003
0.16244848 -0.010776232 0.44700003
0.16361384 -0.010776232 0.44700003
0.1647792 -0.010776232 0.44700003
0.16594455 -0.010776232 0.44700003
0.16710992 -0.010776232 0.44700003
0.16827527 -0.010776232 0.44700003
0.16944063 -0.010776232 0.44700003
0.17060597 -0.010776232 0.44700003
0.17177135 -0.010776232 0.44700003
0.17332357 -0.010800339 0.44800001
0.17449154 -0.010800339 0.44800001
0.17565949 -0.010800339 0.44800001
0.17682748 -0.010800339 0.44800001
0.17799544 -0.010800339 0.44800001
0.1791634 -0.010800339 0.44800001
0.18033136 -0.010800339 0.44800001
0.18149933 -0.010800339 0.44800001
0.1826673 -0.010800339 0.44800001
0.18383525 -0.010800339 0.44800001
0.18500322 -0.010800339 0.44800001
0.18617119 -0.010800339 0.44800001
0.18733916 -0.010800339 0.44800001
0.18850711 -0.010800339 0.44800001
0.18967508 -0.010800339 0.44800001
0.19084305 -0.010800339 0.44800001
0.19201101 -0.010800339 0.44800001
0.19317898 -0.010800339 0.44800001
0.19434693 -0.010800339 0.44800001
0.1955149 -0.010800339 0.44800001
0.19668287 -0.010800339 0.44800001
0.19785084 -0.010800339 0.44800001
0.19901879 -0.010800339 0.44800001
0.20018676 -0.010800339 0.44800001
0.20135473 -0.010800339 0.44800001
0.2025227 -0.010800339 0.44800001
0.20369065 -0.010800339 0.44800001
0.20485862 -0.010800339 0.44800001
0.20602658 -0.010800339 0.44800001
0.20719455 -0.010800339 0.44800001
0.20836252 -0.010800339 0.44800001
0.20953047 -0.010800339 0.44800001
-0.24225427 -0.0092238588 0.42900002
-0.24113585 -0.0092238588 0.42900002
-0.24001743 -0.0092238588 0.42900002
-0.23889898 -0.0092238588 0.42900002
-0.23778056 -0.0092238588 0.42900002
-0.23666212 -0.0092238588 0.42900002
-0.23554368 -0.0092238588 0.42900002
-0.23442525 -0.0092238588 0.42900002
-0.23330683 -0.0092238588 0.42900002
-0.2321884 -0.0092238588 0.42900002
-0.23106995 -0.0092238588 0.42900002
-0.22995153 -0.0092238588 0.42900002
-0.22883311 -0.0092238588 0.42900002
-0.22824548 -0.0092453593 0.43000001
-0.22712442 -0.0092453593 0.43000001
-0.22600339 -0.0092453593 0.43000001
-0.22488236 -0.0092453593 0.43000001
-0.22376134 -0.0092453593 0.43000001
-0.22264028 -0.0092453593 0.43000001
-0.22151925 -0.0092453593 0.43000001
-0.22039822 -0.0092453593 0.43000001
-0.21927716 -0.0092453593 0.43000001
-0.21866348 -0.0092668608 0.43100002
-0.21753985 -0.0092668608 0.43100002
-0.21641621 -0.0092668608 0.43100002
-0.21479303 -0.0092453593 0.43000001
-0.21367198 -0.0092453593 0.43000001
-0.21255095 -0.0092453593 0.43000001
-0.21142991 -0.0092453593 0.43000001
-0.21030888 -0.0092453593 0.43000001
-0.20918784 -0.0092453593 0.43000001
-0.20806679 -0.0092453593 0.43000001
-0.20694576 -0.0092453593 0.43000001
-0.20582472 -0.0092453593 0.43000001
-0.20470369 -0.0092453593 0.43000001
-0.20358264 -0.0092453593 0.43000001
-0.20246162 -0.0092453593 0.43000001
-0.20134057 -0.0092453593 0.43000001
-0.20021954 -0.0092453593 0.43000001
-0.1990985 -0.0092453593 0.43000001
-0.19843788 -0.0092668608 0.43100002
-0.19731423 -0.0092668608 0.43100002
-0.1961906 -0.0092668608 0.43100002
-0.19506694 -0.0092668608 0.43100002
-0.19394331 -0.0092668608 0.43100002
-0.19326703 -0.0092883613 0.43200001
-0.19214077 -0.0092883613 0.43200001
-0.19101453 -0.0092883613 0.43200001
-0.18988827 -0.0092883613 0.43200001
-0.18876202 -0.0092883613 0.43200001
-0.18807012 -0.0093098618 0.43300003
-0.18694127 -0.0093098618 0.43300003
-0.18581241 -0.0093098618 0.43300003
-0.18468356 -0.0093098618 0.43300003
-0.1839786 -0.0093313633 0.43400002
-0.18284714 -0.0093313633 0.43400002
-0.18171567 -0.0093313633 0.43400002
-0.18058419 -0.0093313633 0.43400002
-0.17945273 -0.0093313633 0.43400002
-0.17832127 -0.0093313633 0.43400002
-0.17718981 -0.0093313633 0.43400002
-0.17605834 -0.0093313633 0.43400002
-0.17492688 -0.0093313633 0.43400002
-0.1737954 -0.0093313633 0.43400002
-0.17266394 -0.0093313633 0.43400002
-0.17153248 -0.0093313633 0.43400002
-0.17040102 -0.0093313633 0.43400002
-0.16926955 -0.0093313633 0.43400002
-0.16813809 -0.0093313633 0.43400002
-0.16700661 -0.0093313633 0.43400002
-0.16587514 -0.0093313633 0.43400002
-0.16474369 -0.0093313633 0.43400002
-0.16361222 -0.0093313633 0.43400002
-0.16248076 -0.0093313633 0.43400002
-0.16134928 -0.0093313633 0.43400002
-0.16021782 -0.0093313633 0.43400002
-0.15908635 -0.0093313633 0.43400002
-0.15795489 -0.0093313633 0.43400002
-0.15682343 -0.0093313633 0.43400002
-0.15569197 -0.0093313633 0.43400002
-0.15456049 -0.0093313633 0.43400002
-0.15342903 -0.0093313633 0.43400002
-0.15229756 -0.0093313633 0.43400002
-0.1511661 -0.0093313633 0.43400002
-0.15003464 -0.0093313633 0.43400002
-0.14890316 -0.0093313633 0.43400002
-0.1477717 -0.0093313633 0.43400002
-0.14664023 -0.0093313633 0.43400002
-0.14550877 -0.0093313633 0.43400002
-0.14437731 -0.0093313633 0.43400002
-0.14324585 -0.0093313633 0.43400002
-0.14211437 -0.0093313633 0.43400002
-0.14098291 -0.0093313633 0.43400002
-0.13985144 -0.0093313633 0.43400002
-0.13871998 -0.0093313633 0.43400002
-0.1375885 -0.0093313633 0.43400002
-0.13645704 -0.0093313633 0.43400002
-0.13563739 -0.0093528638 0.43500003
-0.13450332 -0.0093528638 0.43500003
-0.13336925 -0.0093528638 0.43500003
-0.13253915 -0.0093743643 0.43600002
-0.13140248 -0.0093743643 0.43600002
-0.1302658 -0.0093743643 0.43600002
-0.12912913 -0.0093743643 0.43600002
-0.12799244 -0.0093743643 0.43600002
-0.12685576 -0.0093743643 0.43600002
-0.12543073 -0.0093528638 0.43500003
-0.12429667 -0.0093528638 0.43500003
-0.12316259 -0.0093528638 0.43500003
-0.12202851 -0.0093528638 0.43500003
-0.12089445 -0.0093528638 0.43500003
-0.11976037 -0.0093528638 0.43500003
-0.1186263 -0.0093528638 0.43500003
-0.11749222 -0.0093528638 0.43500003
-0.11662564 -0.0093743643 0.43600002
-0.11548896 -0.0093743643 0.43600002
-0.11435229 -0.0093743643 0.43600002
-0.1132156 -0.0093743643 0.43600002
-0.11207893 -0.0093743643 0.43600002
-0.11094224 -0.0093743643 0.43600002
-0.10980557 -0.0093743643 0.43600002
-0.10866889 -0.0093743643 0.43600002
-0.1075322 -0.0093743643 0.43600002
-0.10639553 -0.0093743643 0.43600002
-0.10525884 -0.0093743643 0.43600002
-0.10412217 -0.0093743643 0.43600002
-0.10298549 -0.0093743643 0.43600002
-0.1020824 -0.0093958648 0.43700001
-0.10094311 -0.0093958648 0.43700001
-0.09980382 -0.0093958648 0.43700001
-0.098664537 -0.0093958648 0.43700001
-0.097525254 -0.0093958648 0.43700001
-0.096385963 -0.0093958648 0.43700001
-0.09524668 -0.0093958648 0.43700001
-0.093892045 -0.0093743643 0.43600002
-0.09275537 -0.0093743643 0.43600002
-0.091618687 -0.0093743643 0.43600002
-0.090482011 -0.0093743643 0.43600002
-0.089345329 -0.0093743643 0.43600002
-0.088208653 -0.0093743643 0.43600002
-0.08707197 -0.0093743643 0.43600002
-0.085935287 -0.0093743643 0.43600002
-0.084798604 -0.0093743643 0.43600002
-0.083661929 -0.0093743643 0.43600002
-0.08271452 -0.0093958648 0.43700001
-0.081575237 -0.0093958648 0.43700001
-0.080435947 -0.0093958648 0.43700001
-0.079296663 -0.0093958648 0.43700001
-0.07815738 -0.0093958648 0.43700001
-0.07701809 -0.0093958648 0.43700001
-0.075878806 -0.0093958648 0.43700001
-0.074739516 -0.0093958648 0.43700001
-0.073600233 -0.0093958648 0.43700001
-0.072460949 -0.0093958648 0.43700001
-0.071321651 -0.0093958648 0.43700001
-0.070182368 -0.0093958648 0.43700001
-0.069201075 -0.0094173662 0.43800002
-0.068059184 -0.0094173662 0.43800002
-0.066764511 -0.0093958648 0.43700001
-0.065625221 -0.0093958648 0.43700001
-0.064485937 -0.0093958648 0.43700001
-0.063346647 -0.0093958648 0.43700001
-0.062207364 -0.0093958648 0.43700001
-0.061068077 -0.0093958648 0.43700001
-0.05992879 -0.0093958648 0.43700001
-0.058789503 -0.0093958648 0.43700001
-0.057650216 -0.0093958648 0.43700001
-0.056510925 -0.0093958648 0.43700001
-0.05549835 -0.0094173662 0.43800002
-0.054232355 -0.0093958648 0.43700001
-0.053093068 -0.0093958648 0.43700001
-0.051834892 -0.0093743643 0.43600002
-0.050698213 -0.0093743643 0.43600002
-0.049447864 -0.0093528638 0.43500003
-0.048202723 -0.0093313633 0.43400002
-0.046962801 -0.0093098618 0.43300003
-0.045728087 -0.0092883613 0.43200001
-0.044498589 -0.0092668608 0.43100002
-0.043274306 -0.0092453593 0.43000001
-0.041957211 -0.0092023583 0.42800003
-0.040745962 -0.0091808569 0.42700002
-0.039539929 -0.0091593564 0.42600003
-0.038248904 -0.0091163544 0.42400002
-0.037055902 -0.0090948539 0.42300001
-0.035783123 -0.0090518519 0.42100003
-0.03460316 -0.0090303514 0.42000002
-0.033348631 -0.0089873495 0.41800001
-0.032181706 -0.0089658489 0.41700003
-0.031019993 -0.0089443475 0.41600001
-0.029863495 -0.008922847 0.41500002
-0.028712209 -0.0089013465 0.41400003
-0.027632885 -0.0089013465 0.41400003
-0.026489422 -0.008879845 0.41300002
-0.025412705 -0.008879845 0.41300002
-0.024335988 -0.008879845 0.41300002
-0.023202952 -0.0088583445 0.41200003
-0.022128843 -0.0088583445 0.41200003
-0.021003628 -0.008836844 0.41100001
-0.019932123 -0.008836844 0.41100001
-0.018860621 -0.008836844 0.41100001
-0.017789118 -0.008836844 0.41100001
-0.016717613 -0.008836844 0.41100001
-0.015646111 -0.008836844 0.41100001
-0.01461007 -0.0088583445 0.41200003
-0.013568814 -0.008879845 0.41300002
-0.012492096 -0.008879845 0.41300002
-0.01147066 -0.008922847 0.41500002
-0.01041376 -0.0089443475 0.41600001
-0.0093516484 -0.0089658489 0.41700003
-0.008284322 -0.0089873495 0.41800001
-0.0072117806 -0.0090088509 0.41900003
-0.0061194212 -0.0090088509 0.41900003
-0.0050390591 -0.0090303514 0.42000002
-0.0017416292 -0.0089658489 0.41700003
-0.00065291411 -0.0089443475 0.41600001
0.00043058681 -0.008922847 0.41500002
0.0015088737 -0.0089013465 0.41400003
0.0025819463 -0.008879845 0.41300002
0.0036498052 -0.0088583445 0.41200003
0.0047124494 -0.008836844 0.41100001
0.0057698796 -0.0088153426 0.41000003
0.0068387762 -0.0088153426 0.41000003
0.0079076719 -0.0088153426 0.41000003
0.0089765685 -0.0088153426 0.41000003
0.010020963 -0.008793842 0.40900001
0.011087252 -0.008793842 0.40900001
0.012153541 -0.008793842 0.40900001
0.01321983 -0.008793842 0.40900001
0.014286119 -0.008793842 0.40900001
0.015389945 -0.0088153426 0.41000003
0.016458841 -0.0088153426 0.41000003
0.017527737 -0.0088153426 0.41000003
0.018641992 -0.008836844 0.41100001
0.01976146 -0.0088583445 0.41200003
0.020835569 -0.0088583445 0.41200003
0.021962859 -0.008879845 0.41300002
0.023095362 -0.0089013465 0.41400003
0.024233079 -0.008922847 0.41500002
0.025376011 -0.0089443475 0.41600001
0.02658776 -0.0089873495 0.41800001
0.027743731 -0.0090088509 0.41900003
0.028973734 -0.0090518519 0.42100003
0.030214161 -0.0090948539 0.42300001
0.035607595 -0.0093528638 0.43500003
0.036995057 -0.0094173662 0.43800002
0.038224019 -0.0094388667 0.43900001
0.039547876 -0.0094818687 0.44100001
0.04069759 -0.0094818687 0.44100001
0.042037088 -0.0095248707 0.44300002
0.04328952 -0.0095463712 0.44400004
0.044346951 -0.0095248707 0.44300002
0.045604594 -0.0095463712 0.44400004
0.046762131 -0.0095463712 0.44400004
0.047919665 -0.0095463712 0.44400004
0.049077202 -0.0095463712 0.44400004
0.050234739 -0.0095463712 0.44400004
0.051392276 -0.0095463712 0.44400004
0.052549813 -0.0095463712 0.44400004
0.053707346 -0.0095463712 0.44400004
0.054864883 -0.0095463712 0.44400004
0.056022421 -0.0095463712 0.44400004
0.057179954 -0.0095463712 0.44400004
0.058337491 -0.0095463712 0.44400004
0.059495028 -0.0095463712 0.44400004
0.060652561 -0.0095463712 0.44400004
0.061810099 -0.0095463712 0.44400004
0.063109457 -0.0095678717 0.44500002
0.064269602 -0.0095678717 0.44500002
0.065429747 -0.0095678717 0.44500002
0.066589884 -0.0095678717 0.44500002
0.067750029 -0.0095678717 0.44500002
0.068755321 -0.0095463712 0.44400004
0.070070319 -0.0095678717 0.44500002
0.071230456 -0.0095678717 0.44500002
0.072390601 -0.0095678717 0.44500002
0.073550746 -0.0095678717 0.44500002
0.074710883 -0.0095678717 0.44500002
0.075871028 -0.0095678717 0.44500002
0.077031173 -0.0095678717 0.44500002
0.078191325 -0.0095678717 0.44500002
0.079351462 -0.0095678717 0.44500002
0.080511607 -0.0095678717 0.44500002
0.081671752 -0.0095678717 0.44500002
0.082831897 -0.0095678717 0.44500002
0.083992034 -0.0095678717 0.44500002
0.085152179 -0.0095678717 0.44500002
0.086312324 -0.0095678717 0.44500002
0.087472461 -0.0095678717 0.44500002
0.088632606 -0.0095678717 0.44500002
0.089792751 -0.0095678717 0.44500002
0.090748511 -0.0095463712 0.44400004
0.092113033 -0.0095678717 0.44500002
0.093273185 -0.0095678717 0.44500002
0.09443333 -0.0095678717 0.44500002
0.095593475 -0.0095678717 0.44500002
0.096753612 -0.0095678717 0.44500002
0.097913757 -0.0095678717 0.44500002
0.099073902 -0.0095678717 0.44500002
0.10023405 -0.0095678717 0.44500002
0.10139418 -0.0095678717 0.44500002
0.10255433 -0.0095678717 0.44500002
0.10371447 -0.0095678717 0.44500002
0.10487461 -0.0095678717 0.44500002
0.10603476 -0.0095678717 0.44500002
0.1071949 -0.0095678717 0.44500002
0.10835505 -0.0095678717 0.44500002
0.10951519 -0.0095678717 0.44500002
0.11092404 -0.0095893731 0.44600001
0.11208678 -0.0095893731 0.44600001
0.11324954 -0.0095893731 0.44600001
0.11441229 -0.0095893731 0.44600001
0.11531591 -0.0095678717 0.44500002
0.11647606 -0.0095678717 0.44500002
0.11763619 -0.0095678717 0.44500002
0.11879634 -0.0095678717 0.44500002
0.11995648 -0.0095678717 0.44500002
0.12111663 -0.0095678717 0.44500002
0.12200199 -0.0095463712 0.44400004
0.12343691 -0.0095678717 0.44500002
0.12459705 -0.0095678717 0.44500002
0.1257572 -0.0095678717 0.44500002
0.12691733 -0.0095678717 0.44500002
0.12807748 -0.0095678717 0.44500002
0.12923762 -0.0095678717 0.44500002
0.13039777 -0.0095678717 0.44500002
0.13155793 -0.0095678717 0.44500002
0.13271806 -0.0095678717 0.44500002
0.1338782 -0.0095678717 0.44500002
0.13534179 -0.0095893731 0.44600001
0.13650455 -0.0095893731 0.44600001
0.1376673 -0.0095893731 0.44600001
0.13883005 -0.0095893731 0.44600001
0.13999279 -0.0095893731 0.44600001
0.14115556 -0.0095893731 0.44600001
0.14231829 -0.0095893731 0.44600001
0.14348105 -0.0095893731 0.44600001
0.1446438 -0.0095893731 0.44600001
0.14580655 -0.0095893731 0.44600001
0.1469693 -0.0095893731 0.44600001
0.14813206 -0.0095893731 0.44600001
0.14962955 -0.0096108736 0.44700003
0.15079491 -0.0096108736 0.44700003
0.15196027 -0.0096108736 0.44700003
0.15312561 -0.0096108736 0.44700003
0.15429099 -0.0096108736 0.44700003
0.15545633 -0.0096108736 0.44700003
0.15662169 -0.0096108736 0.44700003
0.15778704 -0.0096108736 0.44700003
0.15895241 -0.0096108736 0.44700003
0.16011776 -0.0096108736 0.44700003
0.16128312 -0.0096108736 0.44700003
0.16244848 -0.0096108736 0.44700003
0.16361384 -0.0096108736 0.44700003
0.1647792 -0.0096108736 0.44700003
0.16594455 -0.0096108736 0.44700003
0.16710992 -0.0096108736 0.44700003
0.16827527 -0.0096108736 0.44700003
0.16944063 -0.0096108736 0.44700003
0.17060597 -0.0096108736 0.44700003
0.17215562 -0.0096323742 0.44800001
0.17332357 -0.0096323742 0.44800001
0.17449154 -0.0096323742 0.44800001
0.17565949 -0.0096323742 0.44800001
0.17682748 -0.0096323742 0.44800001
0.17799544 -0.0096323742 0.44800001
0.1791634 -0.0096323742 0.44800001
0.18033136 -0.0096323742 0.44800001
0.18149933 -0.0096323742 0.44800001
0.1826673 -0.0096323742 0.44800001
0.18383525 -0.0096323742 0.44800001
0.18500322 -0.0096323742 0.44800001
0.18617119 -0.0096323742 0.44800001
0.18733916 -0.0096323742 0.44800001
0.18850711 -0.0096323742 0.44800001
0.18967508 -0.0096323742 0.44800001
0.19084305 -0.0096323742 0.44800001
0.19201101 -0.0096323742 0.44800001
0.19317898 -0.0096323742 0.44800001
0.19434693 -0.0096323742 0.44800001
0.1955149 -0.0096323742 0.44800001
0.19668287 -0.0096323742 0.44800001
0.19785084 -0.0096323742 0.44800001
0.19901879 -0.0096323742 0.44800001
0.20018676 -0.0096323742 0.44800001
0.20135473 -0.0096323742 0.44800001
0.2025227 -0.0096323742 0.44800001
0.20369065 -0.0096323742 0.44800001
0.20485862 -0.0096323742 0.44800001
0.20602658 -0.0096323742 0.44800001
0.20719455 -0.0096323742 0.44800001
0.20836252 -0.0096323742 0.44800001
0.20953047 -0.0096323742 0.44800001
0.21069844 -0.0096323742 0.44800001
-0.24225427 -0.0081054289 0.42900002
-0.24113585 -0.0081054289 0.42900002
-0.24001743 -0.0081054289 0.42900002
-0.23889898 -0.0081054289 0.42900002
-0.23778056 -0.0081054289 0.42900002
-0.23666212 -0.0081054289 0.42900002
-0.23554368 -0.0081054289 0.42900002
-0.23442525 -0.0081054289 0.42900002
-0.23330683 -0.0081054289 0.42900002
-0.2321884 -0.0081054289 0.42900002
-0.23106995 -0.0081054289 0.42900002
-0.22995153 -0.0081054289 0.42900002
-0.22936651 -0.0081243226 0.43000001
-0.22824548 -0.0081243226 0.43000001
-0.22712442 -0.0081243226 0.43000001
-0.22600339 -0.0081243226 0.43000001
-0.22488236 -0.0081243226 0.43000001
-0.22376134 -0.0081243226 0.43000001
-0.22264028 -0.0081243226 0.43000001
-0.22151925 -0.0081243226 0.43000001
-0.22091079 -0.0081432164 0.43100002
-0.21978712 -0.0081432164 0.43100002
-0.21866348 -0.0081432164 0.43100002
-0.21753985 -0.0081432164 0.43100002
-0.21641621 -0.0081432164 0.43100002
-0.21479303 -0.0081243226 0.43000001
-0.21367198 -0.0081243226 0.43000001
-0.21255095 -0.0081243226 0.43000001
-0.21142991 -0.0081243226 0.43000001
-0.21030888 -0.0081243226 0.43000001
-0.20918784 -0.0081243226 0.43000001
-0.20806679 -0.0081243226 0.43000001
-0.20694576 -0.0081243226 0.43000001
-0.20582472 -0.0081243226 0.43000001
-0.20470369 -0.0081243226 0.43000001
-0.20358264 -0.0081243226 0.43000001
-0.20246162 -0.0081243226 0.43000001
-0.20134057 -0.0081243226 0.43000001
-0.20021954 -0.0081243226 0.43000001
-0.19956152 -0.0081432164 0.43100002
-0.19843788 -0.0081432164 0.43100002
-0.19731423 -0.0081432164 0.43100002
-0.1961906 -0.0081432164 0.43100002
-0.19506694 -0.0081432164 0.43100002
-0.19439328 -0.0081621101 0.43200001
-0.19326703 -0.0081621101 0.43200001
-0.19214077 -0.0081621101 0.43200001
-0.19101453 -0.0081621101 0.43200001
-0.18988827 -0.0081621101 0.43200001
-0.18919899 -0.0081810039 0.43300003
-0.18807012 -0.0081810039 0.43300003
-0.18694127 -0.0081810039 0.43300003
-0.18581241 -0.0081810039 0.43300003
-0.18468356 -0.0081810039 0.43300003
-0.1839786 -0.0081998976 0.43400002
-0.18284714 -0.0081998976 0.43400002
-0.18171567 -0.0081998976 0.43400002
-0.18058419 -0.0081998976 0.43400002
-0.17945273 -0.0081998976 0.43400002
-0.17832127 -0.0081998976 0.43400002
-0.17718981 -0.0081998976 0.43400002
-0.17605834 -0.0081998976 0.43400002
-0.17492688 -0.0081998976 0.43400002
-0.1737954 -0.0081998976 0.43400002
-0.17266394 -0.0081998976 0.43400002
-0.17153248 -0.0081998976 0.43400002
-0.17040102 -0.0081998976 0.43400002
-0.16926955 -0.0081998976 0.43400002
-0.16813809 -0.0081998976 0.43400002
-0.16700661 -0.0081998976 0.43400002
-0.16587514 -0.0081998976 0.43400002
-0.16474369 -0.0081998976 0.43400002
-0.16361222 -0.0081998976 0.43400002
-0.16248076 -0.0081998976 0.43400002
-0.16134928 -0.0081998976 0.43400002
-0.16021782 -0.0081998976 0.43400002
-0.15908635 -0.0081998976 0.43400002
-0.15795489 -0.0081998976 0.43400002
-0.15682343 -0.0081998976 0.43400002
-0.15569197 -0.0081998976 0.43400002
-0.15456049 -0.0081998976 0.43400002
-0.15342903 -0.0081998976 0.43400002
-0.15229756 -0.0081998976 0.43400002
-0.1511661 -0.0081998976 0.43400002
-0.15003464 -0.0081998976 0.43400002
-0.14890316 -0.0081998976 0.43400002
-0.1477717 -0.0081998976 0.43400002
-0.14664023 -0.0081998976 0.43400002
-0.14550877 -0.0081998976 0.43400002
-0.14437731 -0.0081998976 0.43400002
-0.14324585 -0.0081998976 0.43400002
-0.14211437 -0.0081998976 0.43400002
-0.14098291 -0.0081998976 0.43400002
-0.13985144 -0.0081998976 0.43400002
-0.13871998 -0.0081998976 0.43400002
-0.13790554 -0.0082187913 0.43500003
-0.13677146 -0.0082187913 0.43500003
-0.13563739 -0.0082187913 0.43500003
-0.13450332 -0.0082187913 0.43500003
-0.13336925 -0.0082187913 0.43500003
-0.13253915 -0.0082376851 0.43600002
-0.13140248 -0.0082376851 0.43600002
-0.1302658 -0.0082376851 0.43600002
-0.12912913 -0.0082376851 0.43600002
-0.12799244 -0.0082376851 0.43600002
-0.12685576 -0.0082376851 0.43600002
-0.12543073 -0.0082187913 0.43500003
-0.12429667 -0.0082187913 0.43500003
