# .PCD v0.7 - Point Cloud Data file format
VERSION 0.7
FIELDS x y z
SIZE 4 4 4
TYPE F F F
COUNT 1 1 1
WIDTH 1361
HEIGHT 1
VIEWPOINT 0 0 0 1 0 0 0
POINTS 1361
DATA ascii
-0.11540139 -0.1127001 0.44000003
-0.11425428 -0.1127001 0.44000003
-0.11285011 -0.11244395 0.43900001
-0.1117056 -0.11244395 0.43900001
-0.11056111 -0.11244395 0.43900001
-0.10916737 -0.11218783 0.43800002
-0.10802547 -0.11218783 0.43800002
-0.10688358 -0.11218783 0.43800002
-0.10550026 -0.11193168 0.43700001
-0.10436098 -0.11193168 0.43700001
-0.10322169 -0.11193168 0.43700001
-0.1020824 -0.11193168 0.43700001
-0.10071212 -0.11167555 0.43600002
-0.099575445 -0.11167555 0.43600002
-0.098212987 -0.11141942 0.43500003
-0.097078919 -0.11141942 0.43500003
-0.095944844 -0.11141942 0.43500003
-0.09459281 -0.11116327 0.43400002
-0.09346135 -0.11116327 0.43400002
-0.092329882 -0.11116327 0.43400002
-0.090988286 -0.11090714 0.43300003
-0.089859426 -0.11090714 0.43300003
-0.088525645 -0.110651 0.43200001
-0.087399393 -0.110651 0.43200001
-0.086073443 -0.11039487 0.43100002
-0.084949791 -0.11039487 0.43100002
-0.083826147 -0.11039487 0.43100002
-0.082510613 -0.11013872 0.43000001
-0.081389576 -0.11013872 0.43000001
-0.080268539 -0.11013872 0.43000001
-0.079147503 -0.11013872 0.43000001
-0.078026466 -0.11013872 0.43000001
-0.076726578 -0.10988259 0.42900002
-0.075608149 -0.10988259 0.42900002
-0.074316084 -0.10962646 0.42800003
-0.073200263 -0.10962646 0.42800003
-0.072084442 -0.10962646 0.42800003
-0.0708028 -0.10937032 0.42700002
-0.069689579 -0.10937032 0.42700002
-0.068576366 -0.10937032 0.42700002
-0.067305155 -0.10911418 0.42600003
-0.066194549 -0.10911418 0.42600003
-0.065083943 -0.10911418 0.42600003
-0.063823156 -0.10885804 0.42500001
-0.062715158 -0.10885804 0.42500001
-0.061607152 -0.10885804 0.42500001
-0.06049915 -0.10885804 0.42500001
-0.059391152 -0.10885804 0.42500001
-0.058146015 -0.10860191 0.42400002
-0.057040621 -0.10860191 0.42400002
-0.055803299 -0.10834577 0.42300001
-0.054700505 -0.10834577 0.42300001
-0.05347101 -0.10808963 0.42200002
-0.052370835 -0.10808963 0.42200002
-0.051270653 -0.10808963 0.42200002
-0.05017047 -0.10808963 0.42200002
-0.04895401 -0.1078335 0.42100003
-0.047856439 -0.1078335 0.42100003
-0.046758864 -0.1078335 0.42100003
-0.045552831 -0.10757736 0.42000002
-0.044457864 -0.10757736 0.42000002
-0.043362893 -0.10757736 0.42000002
-0.04226793 -0.10757736 0.42000002
-0.041172963 -0.10757736 0.42000002
-0.039982572 -0.10732123 0.41900003
-0.038890213 -0.10732123 0.41900003
-0.037797853 -0.10732123 0.41900003
-0.03661789 -0.10706509 0.41800001
-0.035528135 -0.10706509 0.41800001
-0.034438383 -0.10706509 0.41800001
-0.033348631 -0.10706509 0.41800001
-0.032181706 -0.10680895 0.41700003
-0.03109456 -0.10680895 0.41700003
-0.030007416 -0.10680895 0.41700003
-0.028920269 -0.10680895 0.41700003
-0.027766375 -0.10655282 0.41600001
-0.026681837 -0.10655282 0.41600001
-0.025597299 -0.10655282 0.41600001
-0.024453837 -0.10629668 0.41500002
-0.023371905 -0.10629668 0.41500002
-0.022289975 -0.10629668 0.41500002
-0.021156941 -0.10604054 0.41400003
-0.020077614 -0.10604054 0.41400003
-0.018952399 -0.10578441 0.41300002
-0.017875683 -0.10578441 0.41300002
-0.016798964 -0.10578441 0.41300002
-0.01568418 -0.10552827 0.41200003
-0.01461007 -0.10552827 0.41200003
-0.013503105 -0.10527213 0.41100001
-0.012431601 -0.10527213 0.41100001
-0.011360099 -0.10527213 0.41100001
-0.010288595 -0.10527213 0.41100001
-0.0091946665 -0.105016 0.41000003
-0.0081257699 -0.105016 0.41000003
-0.0070568738 -0.105016 0.41000003
-0.0059879776 -0.105016 0.41000003
-0.0049190815 -0.105016 0.41000003
-0.0038407948 -0.10475986 0.40900001
-0.0027745059 -0.10475986 0.40900001
-0.0017082166 -0.10475986 0.40900001
-0.00064035814 -0.10450373 0.40800002
0.00042332392 -0.10450373 0.40800002
0.001487006 -0.10450373 0.40800002
0.0025444361 -0.10424758 0.40700001
0.003605511 -0.10424758 0.40700001
0.0046665859 -0.10424758 0.40700001
0.0057135881 -0.10399145 0.40600002
0.0067720562 -0.10399145 0.40600002
0.0078112371 -0.10373532 0.40500003
0.008867098 -0.10373532 0.40500003
0.0099229589 -0.10373532 0.40500003
0.010951711 -0.10347918 0.40400001
0.012004965 -0.10347918 0.40400001
0.013058218 -0.10347918 0.40400001
0.014076542 -0.10322304 0.40300003
0.01512719 -0.10322304 0.40300003
0.016177837 -0.10322304 0.40300003
0.017228482 -0.10322304 0.40300003
0.01827913 -0.10322304 0.40300003
0.019281812 -0.1029669 0.40200001
0.02032985 -0.1029669 0.40200001
0.021377891 -0.1029669 0.40200001
0.022425931 -0.1029669 0.40200001
0.023473969 -0.1029669 0.40200001
0.02446101 -0.10271077 0.40100002
0.025506441 -0.10271077 0.40100002
0.026551876 -0.10271077 0.40100002
0.027597308 -0.10271077 0.40100002
0.028571311 -0.10245463 0.40000001
0.029614136 -0.10245463 0.40000001
0.030656962 -0.10245463 0.40000001
0.031699788 -0.10245463 0.40000001
0.03266076 -0.1021985 0.39900002
0.033700977 -0.1021985 0.39900002
0.034741193 -0.1021985 0.39900002
0.035691734 -0.10194236 0.39800003
0.036729347 -0.10194236 0.39800003
0.03776696 -0.10194236 0.39800003
0.038804568 -0.10194236 0.39800003
0.039842181 -0.10194236 0.39800003
0.04077708 -0.10168622 0.39700001
0.041812081 -0.10168622 0.39700001
0.04273916 -0.10143009 0.39600003
0.043771558 -0.10143009 0.39600003
0.044803955 -0.10143009 0.39600003
0.045836356 -0.10143009 0.39600003
0.046750393 -0.10117394 0.39500001
0.047780182 -0.10117394 0.39500001
0.048809972 -0.10117394 0.39500001
0.049713589 -0.10091782 0.39400002
0.050740771 -0.10091782 0.39400002
0.051767953 -0.10091782 0.39400002
0.052795134 -0.10091782 0.39400002
0.05368571 -0.10066167 0.39300001
0.054710288 -0.10066167 0.39300001
0.055593051 -0.10040554 0.39200002
0.056615021 -0.10040554 0.39200002
0.057636987 -0.10040554 0.39200002
0.05850932 -0.10014941 0.39100003
0.059528679 -0.10014941 0.39100003
0.060548041 -0.10014941 0.39100003
0.061409939 -0.099893264 0.39000002
0.062426694 -0.099893264 0.39000002
0.063443445 -0.099893264 0.39000002
0.064294919 -0.099637128 0.38900003
0.06530907 -0.099637128 0.38900003
0.066323213 -0.099637128 0.38900003
0.067337364 -0.099637128 0.38900003
0.0681758 -0.099380992 0.38800001
0.069187343 -0.099380992 0.38800001
0.070198886 -0.099380992 0.38800001
0.071210422 -0.099380992 0.38800001
0.072221965 -0.099380992 0.38800001
0.073233508 -0.099380992 0.38800001
0.074053697 -0.099124856 0.38700002
0.075062625 -0.099124856 0.38700002
0.07607156 -0.099124856 0.38700002
0.077080496 -0.099124856 0.38700002
0.077887639 -0.09886872 0.38600001
0.078893967 -0.09886872 0.38600001
0.079900295 -0.09886872 0.38600001
0.08090663 -0.09886872 0.38600001
0.081700742 -0.098612584 0.38500002
0.082704462 -0.098612584 0.38500002
0.083708182 -0.098612584 0.38500002
0.084711902 -0.098612584 0.38500002
0.085492983 -0.098356441 0.384
0.086494088 -0.098356441 0.384
0.0874952 -0.098356441 0.384
0.088265859 -0.098100312 0.38300002
0.089264363 -0.098100312 0.38300002
0.090262868 -0.098100312 0.38300002
0.091261372 -0.098100312 0.38300002
0.092018992 -0.097844176 0.38200003
0.093014896 -0.097844176 0.38200003
0.0940108 -0.097844176 0.38200003
0.095006697 -0.097844176 0.38200003
0.095751271 -0.097588032 0.38100001
0.096744567 -0.097588032 0.38100001
0.097737849 -0.097588032 0.38100001
0.098731145 -0.097588032 0.38100001
0.099462703 -0.097331904 0.38000003
0.10045338 -0.097331904 0.38000003
0.10144407 -0.097331904 0.38000003
0.10243475 -0.097331904 0.38000003
0.10315326 -0.09707576 0.37900001
0.10414133 -0.09707576 0.37900001
0.10512941 -0.09707576 0.37900001
0.10583749 -0.096819624 0.37800002
0.10682297 -0.096819624 0.37800002
0.10780843 -0.096819624 0.37800002
0.10879391 -0.096819624 0.37800002
0.10948895 -0.096563488 0.377
0.11047181 -0.096563488 0.377
0.11145468 -0.096563488 0.377
0.11243754 -0.096563488 0.377
0.1134204 -0.096563488 0.377
0.11409981 -0.096307352 0.37600002
0.11508007 -0.096307352 0.37600002
0.11606032 -0.096307352 0.37600002
0.11704058 -0.096307352 0.37600002
0.11770695 -0.096051224 0.37500003
0.1186846 -0.096051224 0.37500003
0.11966225 -0.096051224 0.37500003
0.12031819 -0.09579508 0.37400001
0.12129322 -0.09579508 0.37400001
0.12226827 -0.09579508 0.37400001
0.1229138 -0.095538944 0.37300003
0.12388623 -0.095538944 0.37300003
0.12452392 -0.095282808 0.37200001
0.12549374 -0.095282808 0.37200001
0.12646358 -0.095282808 0.37200001
0.12743339 -0.095282808 0.37200001
0.12840323 -0.095282808 0.37200001
0.12902528 -0.095026672 0.37100002
0.1299925 -0.095026672 0.37100002
0.13095972 -0.095026672 0.37100002
0.13192694 -0.095026672 0.37100002
0.13289416 -0.095026672 0.37100002
0.13386138 -0.095026672 0.37100002
0.13482861 -0.095026672 0.37100002
0.13579583 -0.095026672 0.37100002
0.13676305 -0.095026672 0.37100002
0.13735902 -0.094770528 0.37
0.13832363 -0.094770528 0.37
0.13928825 -0.094770528 0.37
0.1398738 -0.0945144 0.36900002
0.14083581 -0.0945144 0.36900002
0.14179783 -0.0945144 0.36900002
0.14275981 -0.0945144 0.36900002
0.14372183 -0.0945144 0.36900002
0.14429174 -0.094258264 0.36800003
0.14525114 -0.094258264 0.36800003
0.14621055 -0.094258264 0.36800003
0.14716995 -0.094258264 0.36800003
0.14812934 -0.094258264 0.36800003
0.14868361 -0.09400212 0.36700001
0.1496404 -0.09400212 0.36700001
0.15059718 -0.09400212 0.36700001
0.15114103 -0.093745992 0.36600003
0.15209521 -0.093745992 0.36600003
0.15304941 -0.093745992 0.36600003
0.15400359 -0.093745992 0.36600003
0.15495777 -0.093745992 0.36600003
0.15548596 -0.093489848 0.36500001
0.15643755 -0.093489848 0.36500001
0.15738912 -0.093489848 0.36500001
0.15834069 -0.093489848 0.36500001
0.15885587 -0.093233719 0.36400002
0.15980484 -0.093233719 0.36400002
0.16075382 -0.093233719 0.36400002
0.16125853 -0.092977576 0.36300001
0.16220489 -0.092977576 0.36300001
0.16315125 -0.092977576 0.36300001
0.16364557 -0.09272144 0.36200002
0.16458932 -0.09272144 0.36200002
0.16553308 -0.09272144 0.36200002
0.16647683 -0.09272144 0.36200002
-0.17536119 -0.084171794 0.33200002
-0.17449565 -0.084171794 0.33200002
-0.17363012 -0.084171794 0.33200002
-0.17276457 -0.084171794 0.33200002
-0.17189901 -0.084171794 0.33200002
-0.17103347 -0.084171794 0.33200002
-0.16633971 -0.084425323 0.333
-0.16547155 -0.084425323 0.333
-0.16509773 -0.084678851 0.33400002
-0.16384529 -0.084932379 0.33500001
-0.16258244 -0.085185915 0.33600003
-0.16218773 -0.085439444 0.33700001
-0.16130914 -0.085439444 0.33700001
-0.16043057 -0.085439444 0.33700001
-0.16002545 -0.085692972 0.33800003
-0.15914425 -0.085692972 0.33800003
-0.15696371 -0.0859465 0.33900002
-0.19619961 -0.11662357 0.46000001
-0.19500035 -0.11662357 0.46000001
-0.19380112 -0.11662357 0.46000001
-0.19218317 -0.11637004 0.45900002
-0.19098651 -0.11637004 0.45900002
-0.1893764 -0.11611652 0.45800003
-0.18818235 -0.11611652 0.45800003
-0.18698832 -0.11611652 0.45800003
-0.18579429 -0.11611652 0.45800003
-0.18460026 -0.11611652 0.45800003
-0.18340622 -0.11611652 0.45800003
-0.18221219 -0.11611652 0.45800003
-0.18101814 -0.11611652 0.45800003
-0.17943148 -0.11586298 0.45700002
-0.17824005 -0.11586298 0.45700002
-0.17704862 -0.11586298 0.45700002
-0.1758572 -0.11586298 0.45700002
-0.17428356 -0.11560945 0.45600003
-0.17309475 -0.11560945 0.45600003
-0.17190592 -0.11560945 0.45600003
-0.17034273 -0.11535592 0.45500001
-0.16915651 -0.11535592 0.45500001
-0.16760114 -0.1151024 0.45400003
-0.16641752 -0.1151024 0.45400003
-0.16486996 -0.11484886 0.45300001
-0.16368896 -0.11484886 0.45300001
-0.16214924 -0.11459533 0.45200002
-0.16097084 -0.11459533 0.45200002
-0.15979245 -0.11459533 0.45200002
-0.15826315 -0.11434181 0.45100003
-0.15673904 -0.11408827 0.45000002
-0.15556586 -0.11408827 0.45000002
-0.15404959 -0.11383475 0.44900003
-0.15253852 -0.11358122 0.44800001
-0.15137056 -0.11358122 0.44800001
-0.1502026 -0.11358122 0.44800001
-0.14870197 -0.11332769 0.44700003
-0.14753662 -0.11332769 0.44700003
-0.14637126 -0.11332769 0.44700003
-0.1452059 -0.11332769 0.44700003
-0.1437183 -0.11307415 0.44600001
-0.14255555 -0.11307415 0.44600001
-0.1413928 -0.11307415 0.44600001
-0.14023004 -0.11307415 0.44600001
-0.13906729 -0.11307415 0.44600001
-0.13759534 -0.11282063 0.44500002
-0.13643521 -0.11282063 0.44500002
-0.13527505 -0.11282063 0.44500002
-0.13381355 -0.1125671 0.44400004
-0.13265599 -0.1125671 0.44400004
-0.13149847 -0.1125671 0.44400004
-0.13034093 -0.1125671 0.44400004
-0.12889244 -0.11231357 0.44300002
-0.12773751 -0.11231357 0.44300002
-0.12658258 -0.11231357 0.44300002
-0.12542765 -0.11231357 0.44300002
-0.12427271 -0.11231357 0.44300002
-0.12283988 -0.11206004 0.44200003
-0.12168755 -0.11206004 0.44200003
-0.12053523 -0.11206004 0.44200003
-0.1193829 -0.11206004 0.44200003
-0.11796309 -0.11180651 0.44100001
-0.11681337 -0.11180651 0.44100001
-0.11566366 -0.11180651 0.44100001
-0.11425428 -0.11155298 0.44000003
-0.11310717 -0.11155298 0.44000003
-0.1117056 -0.11129945 0.43900001
-0.11056111 -0.11129945 0.43900001
-0.1094166 -0.11129945 0.43900001
-0.10802547 -0.11104592 0.43800002
-0.10688358 -0.11104592 0.43800002
-0.10574169 -0.11104592 0.43800002
-0.10436098 -0.11079239 0.43700001
-0.10322169 -0.11079239 0.43700001
-0.1020824 -0.11079239 0.43700001
-0.10094311 -0.11079239 0.43700001
-0.099575445 -0.11053886 0.43600002
-0.098438762 -0.11053886 0.43600002
-0.097078919 -0.11028533 0.43500003
-0.095944844 -0.11028533 0.43500003
-0.09459281 -0.1100318 0.43400002
-0.09346135 -0.1100318 0.43400002
-0.092329882 -0.1100318 0.43400002
-0.090988286 -0.10977828 0.43300003
-0.089859426 -0.10977828 0.43300003
-0.088525645 -0.10952474 0.43200001
-0.087399393 -0.10952474 0.43200001
-0.086273141 -0.10952474 0.43200001
-0.084949791 -0.10927121 0.43100002
-0.083826147 -0.10927121 0.43100002
-0.082702503 -0.10927121 0.43100002
-0.081389576 -0.10901769 0.43000001
-0.080268539 -0.10901769 0.43000001
-0.079147503 -0.10901769 0.43000001
-0.078026466 -0.10901769 0.43000001
-0.076726578 -0.10876416 0.42900002
-0.075608149 -0.10876416 0.42900002
-0.07448972 -0.10876416 0.42900002
-0.073200263 -0.10851063 0.42800003
-0.072084442 -0.10851063 0.42800003
-0.0708028 -0.10825709 0.42700002
-0.069689579 -0.10825709 0.42700002
-0.068576366 -0.10825709 0.42700002
-0.067305155 -0.10800357 0.42600003
-0.066194549 -0.10800357 0.42600003
-0.065083943 -0.10800357 0.42600003
-0.06397333 -0.10800357 0.42600003
-0.062715158 -0.10775004 0.42500001
-0.061607152 -0.10775004 0.42500001
-0.06049915 -0.10775004 0.42500001
-0.059391152 -0.10775004 0.42500001
-0.058146015 -0.10749651 0.42400002
-0.057040621 -0.10749651 0.42400002
-0.055935226 -0.10749651 0.42400002
-0.054700505 -0.10724298 0.42300001
-0.053597718 -0.10724298 0.42300001
-0.052370835 -0.10698945 0.42200002
-0.051270653 -0.10698945 0.42200002
-0.05017047 -0.10698945 0.42200002
-0.049070291 -0.10698945 0.42200002
-0.047856439 -0.10673592 0.42100003
-0.046758864 -0.10673592 0.42100003
-0.045661289 -0.10673592 0.42100003
-0.044563718 -0.10673592 0.42100003
-0.043362893 -0.10648239 0.42000002
-0.04226793 -0.10648239 0.42000002
-0.041172963 -0.10648239 0.42000002
-0.040077996 -0.10648239 0.42000002
-0.038890213 -0.10622887 0.41900003
-0.037797853 -0.10622887 0.41900003
-0.036705494 -0.10622887 0.41900003
-0.035528135 -0.10597533 0.41800001
-0.034438383 -0.10597533 0.41800001
-0.033348631 -0.10597533 0.41800001
-0.032258879 -0.10597533 0.41800001
-0.03109456 -0.1057218 0.41700003
-0.030007416 -0.1057218 0.41700003
-0.028920269 -0.1057218 0.41700003
-0.027766375 -0.10546827 0.41600001
-0.026681837 -0.10546827 0.41600001
-0.025597299 -0.10546827 0.41600001
-0.024512762 -0.10546827 0.41600001
-0.023371905 -0.10521474 0.41500002
-0.022289975 -0.10521474 0.41500002
-0.021208042 -0.10521474 0.41500002
-0.020077614 -0.10496122 0.41400003
-0.018952399 -0.10470768 0.41300002
-0.017875683 -0.10470768 0.41300002
-0.016798964 -0.10470768 0.41300002
-0.01568418 -0.10445416 0.41200003
-0.01461007 -0.10445416 0.41200003
-0.013535961 -0.10445416 0.41200003
-0.012431601 -0.10420062 0.41100001
-0.011360099 -0.10420062 0.41100001
-0.010288595 -0.10420062 0.41100001
-0.0092170928 -0.10420062 0.41100001
-0.0081455885 -0.10420062 0.41100001
-0.0070568738 -0.1039471 0.41000003
-0.0059879776 -0.1039471 0.41000003
-0.0049190815 -0.1039471 0.41000003
-0.0038501855 -0.1039471 0.41000003
-0.0027745059 -0.10369356 0.40900001
-0.0017082166 -0.10369356 0.40900001
-0.00064192759 -0.10369356 0.40900001
0.00042332392 -0.10344004 0.40800002
0.001487006 -0.10344004 0.40800002
0.0025506879 -0.10344004 0.40800002
0.003605511 -0.1031865 0.40700001
0.0046665859 -0.1031865 0.40700001
0.0057135881 -0.10293297 0.40600002
0.0067720562 -0.10293297 0.40600002
0.0078112371 -0.10267945 0.40500003
0.008867098 -0.10267945 0.40500003
0.0099229589 -0.10267945 0.40500003
0.010951711 -0.10242592 0.40400001
0.012004965 -0.10242592 0.40400001
0.013058218 -0.10242592 0.40400001
0.014111471 -0.10242592 0.40400001
0.01512719 -0.10217239 0.40300003
0.016177837 -0.10217239 0.40300003
0.017228482 -0.10217239 0.40300003
0.01827913 -0.10217239 0.40300003
0.019329777 -0.10217239 0.40300003
0.020380422 -0.10217239 0.40300003
0.021377891 -0.10191885 0.40200001
0.022425931 -0.10191885 0.40200001
0.023473969 -0.10191885 0.40200001
0.02452201 -0.10191885 0.40200001
0.025506441 -0.10166533 0.40100002
0.026551876 -0.10166533 0.40100002
0.027597308 -0.10166533 0.40100002
0.02864274 -0.10166533 0.40100002
0.029614136 -0.1014118 0.40000001
0.030656962 -0.1014118 0.40000001
0.031699788 -0.1014118 0.40000001
0.03266076 -0.10115827 0.39900002
0.033700977 -0.10115827 0.39900002
0.034741193 -0.10115827 0.39900002
0.035781413 -0.10115827 0.39900002
0.036729347 -0.10090475 0.39800003
0.03776696 -0.10090475 0.39800003
0.038804568 -0.10090475 0.39800003
0.039842181 -0.10090475 0.39800003
0.04077708 -0.10065121 0.39700001
0.041812081 -0.10065121 0.39700001
0.042847086 -0.10065121 0.39700001
0.043771558 -0.10039768 0.39600003
0.044803955 -0.10039768 0.39600003
0.045836356 -0.10039768 0.39600003
0.046750393 -0.10014415 0.39500001
0.047780182 -0.10014415 0.39500001
0.048809972 -0.10014415 0.39500001
0.049839761 -0.10014415 0.39500001
0.050740771 -0.099890627 0.39400002
0.051767953 -0.099890627 0.39400002
0.052795134 -0.099890627 0.39400002
0.05368571 -0.099637091 0.39300001
0.054710288 -0.099637091 0.39300001
0.055734869 -0.099637091 0.39300001
0.056615021 -0.099383563 0.39200002
0.057636987 -0.099383563 0.39200002
0.05850932 -0.099130042 0.39100003
0.059528679 -0.099130042 0.39100003
0.060548041 -0.099130042 0.39100003
0.061409939 -0.098876506 0.39000002
0.062426694 -0.098876506 0.39000002
0.063443445 -0.098876506 0.39000002
0.064294919 -0.098622978 0.38900003
0.06530907 -0.098622978 0.38900003
0.066323213 -0.098622978 0.38900003
0.067337364 -0.098622978 0.38900003
0.068351515 -0.098622978 0.38900003
0.069187343 -0.098369442 0.38800001
0.070198886 -0.098369442 0.38800001
0.071210422 -0.098369442 0.38800001
0.072221965 -0.098369442 0.38800001
0.073233508 -0.098369442 0.38800001
0.074245043 -0.098369442 0.38800001
0.075062625 -0.098115921 0.38700002
0.07607156 -0.098115921 0.38700002
0.077080496 -0.098115921 0.38700002
0.078089423 -0.098115921 0.38700002
0.078893967 -0.097862385 0.38600001
0.079900295 -0.097862385 0.38600001
0.08090663 -0.097862385 0.38600001
0.08191295 -0.097862385 0.38600001
0.082919277 -0.097862385 0.38600001
0.083708182 -0.097608857 0.38500002
0.084711902 -0.097608857 0.38500002
0.085715622 -0.097608857 0.38500002
0.086494088 -0.097355321 0.384
0.0874952 -0.097355321 0.384
0.088496312 -0.097355321 0.384
0.089264363 -0.0971018 0.38300002
0.090262868 -0.0971018 0.38300002
0.091261372 -0.0971018 0.38300002
0.092018992 -0.096848272 0.38200003
0.093014896 -0.096848272 0.38200003
0.0940108 -0.096848272 0.38200003
0.095006697 -0.096848272 0.38200003
0.096002586 -0.096848272 0.38200003
0.096744567 -0.096594736 0.38100001
0.097737849 -0.096594736 0.38100001
0.098731145 -0.096594736 0.38100001
0.099724442 -0.096594736 0.38100001
0.10045338 -0.096341215 0.38000003
0.10144407 -0.096341215 0.38000003
0.10243475 -0.096341215 0.38000003
0.10342544 -0.096341215 0.38000003
0.10414133 -0.096087679 0.37900001
0.10512941 -0.096087679 0.37900001
0.10583749 -0.095834151 0.37800002
0.10682297 -0.095834151 0.37800002
0.10780843 -0.095834151 0.37800002
0.10879391 -0.095834151 0.37800002
0.10948895 -0.095580615 0.377
0.11047181 -0.095580615 0.377
0.11145468 -0.095580615 0.377
0.11243754 -0.095580615 0.377
0.11311956 -0.095327094 0.37600002
0.11409981 -0.095327094 0.37600002
0.11508007 -0.095327094 0.37600002
0.11606032 -0.095327094 0.37600002
0.11704058 -0.095327094 0.37600002
0.11770695 -0.095073566 0.37500003
0.1186846 -0.095073566 0.37500003
0.11966225 -0.095073566 0.37500003
0.12063991 -0.095073566 0.37500003
0.12129322 -0.09482003 0.37400001
0.12226827 -0.09482003 0.37400001
0.1229138 -0.094566509 0.37300003
0.12388623 -0.094566509 0.37300003
0.12485867 -0.094566509 0.37300003
0.12549374 -0.094312973 0.37200001
0.12646358 -0.094312973 0.37200001
0.12743339 -0.094312973 0.37200001
0.12840323 -0.094312973 0.37200001
0.12902528 -0.094059445 0.37100002
0.1299925 -0.094059445 0.37100002
0.13095972 -0.094059445 0.37100002
0.13192694 -0.094059445 0.37100002
0.13289416 -0.094059445 0.37100002
0.13386138 -0.094059445 0.37100002
0.13482861 -0.094059445 0.37100002
0.13579583 -0.094059445 0.37100002
0.13676305 -0.094059445 0.37100002
0.13773027 -0.094059445 0.37100002
0.13832363 -0.093805909 0.37
0.13928825 -0.093805909 0.37
0.14025286 -0.093805909 0.37
0.14083581 -0.093552388 0.36900002
0.14179783 -0.093552388 0.36900002
0.14275981 -0.093552388 0.36900002
0.14372183 -0.093552388 0.36900002
0.14468384 -0.093552388 0.36900002
0.14525114 -0.09329886 0.36800003
0.14621055 -0.09329886 0.36800003
0.14716995 -0.09329886 0.36800003
0.14812934 -0.09329886 0.36800003
0.14868361 -0.093045324 0.36700001
0.1496404 -0.093045324 0.36700001
0.15059718 -0.093045324 0.36700001
0.15155399 -0.093045324 0.36700001
0.15209521 -0.092791803 0.36600003
0.15304941 -0.092791803 0.36600003
0.15400359 -0.092791803 0.36600003
0.15495777 -0.092791803 0.36600003
0.15548596 -0.092538267 0.36500001
0.15643755 -0.092538267 0.36500001
0.15738912 -0.092538267 0.36500001
0.15834069 -0.092538267 0.36500001
0.15929228 -0.092538267 0.36500001
0.15980484 -0.092284739 0.36400002
0.16075382 -0.092284739 0.36400002
0.16125853 -0.092031203 0.36300001
0.16220489 -0.092031203 0.36300001
0.16315125 -0.092031203 0.36300001
0.16364557 -0.091777682 0.36200002
0.16458932 -0.091777682 0.36200002
0.16553308 -0.091777682 0.36200002
0.16647683 -0.091777682 0.36200002
-0.17622675 -0.083306253 0.33200002
-0.17536119 -0.083306253 0.33200002
-0.17449565 -0.083306253 0.33200002
-0.17363012 -0.083306253 0.33200002
-0.17276457 -0.083306253 0.33200002
-0.17189901 -0.083306253 0.33200002
-0.17103347 -0.083306253 0.33200002
-0.17016794 -0.083306253 0.33200002
-0.16930237 -0.083306253 0.33200002
-0.16843684 -0.083306253 0.33200002
-0.16757129 -0.083306253 0.33200002
-0.16720787 -0.083557174 0.333
-0.16633971 -0.083557174 0.333
-0.16509773 -0.083808102 0.33400002
-0.16422696 -0.083808102 0.33400002
-0.16384529 -0.084059022 0.33500001
-0.16209856 -0.084059022 0.33500001
-0.16170646 -0.084309943 0.33600003
-0.16083048 -0.084309943 0.33600003
-0.15955198 -0.084560864 0.33700001
-0.15914425 -0.084811792 0.33800003
-0.15826307 -0.084811792 0.33800003
-0.15738188 -0.084811792 0.33800003
-0.15696371 -0.085062712 0.33900002
-0.15654032 -0.085313633 0.34
-0.15614408 -0.086568251 0.34500003
-0.1561446 -0.087070085 0.347
-0.15564148 -0.088324703 0.35200003
-0.19380112 -0.11542433 0.46000001
-0.19218317 -0.11517341 0.45900002
-0.19098651 -0.11517341 0.45900002
-0.18978988 -0.11517341 0.45900002
-0.18818235 -0.11492249 0.45800003
-0.18698832 -0.11492249 0.45800003
-0.18579429 -0.11492249 0.45800003
-0.18460026 -0.11492249 0.45800003
-0.18340622 -0.11492249 0.45800003
-0.18181434 -0.11467156 0.45700002
-0.18101814 -0.11492249 0.45800003
-0.17943148 -0.11467156 0.45700002
-0.17824005 -0.11467156 0.45700002
-0.17704862 -0.11467156 0.45700002
-0.17547239 -0.11442064 0.45600003
-0.17428356 -0.11442064 0.45600003
-0.17309475 -0.11442064 0.45600003
-0.17190592 -0.11442064 0.45600003
-0.17071711 -0.11442064 0.45600003
-0.16915651 -0.11416972 0.45500001
-0.1679703 -0.11416972 0.45500001
-0.16641752 -0.1139188 0.45400003
-0.16523392 -0.1139188 0.45400003
-0.16368896 -0.11366787 0.45300001
-0.16250797 -0.11366787 0.45300001
-0.16097084 -0.11341695 0.45200002
-0.15943894 -0.11316603 0.45100003
-0.15673904 -0.11291511 0.45000002
-0.15522017 -0.11266419 0.44900003
-0.15404959 -0.11266419 0.44900003
-0.15253852 -0.11241326 0.44800001
-0.15137056 -0.11241326 0.44800001
-0.14986733 -0.11216234 0.44700003
-0.14870197 -0.11216234 0.44700003
-0.14753662 -0.11216234 0.44700003
-0.14637126 -0.11216234 0.44700003
-0.14488105 -0.11191141 0.44600001
-0.1437183 -0.11191141 0.44600001
-0.14255555 -0.11191141 0.44600001
-0.1413928 -0.11191141 0.44600001
-0.14023004 -0.11191141 0.44600001
-0.13875549 -0.1116605 0.44500002
-0.13759534 -0.1116605 0.44500002
-0.13643521 -0.1116605 0.44500002
-0.13527505 -0.1116605 0.44500002
-0.13381355 -0.11140957 0.44400004
-0.13265599 -0.11140957 0.44400004
-0.13149847 -0.11140957 0.44400004
-0.13034093 -0.11140957 0.44400004
-0.1291834 -0.11140957 0.44400004
-0.12802586 -0.11140957 0.44400004
-0.12658258 -0.11115865 0.44300002
-0.12542765 -0.11115865 0.44300002
-0.12427271 -0.11115865 0.44300002
-0.12311779 -0.11115865 0.44300002
-0.12196285 -0.11115865 0.44300002
-0.12053523 -0.11090773 0.44200003
-0.1193829 -0.11090773 0.44200003
-0.11823059 -0.11090773 0.44200003
-0.11681337 -0.1106568 0.44100001
-0.11566366 -0.1106568 0.44100001
-0.11451394 -0.1106568 0.44100001
-0.11310717 -0.11040588 0.44000003
-0.11196006 -0.11040588 0.44000003
-0.11056111 -0.11015496 0.43900001
-0.1094166 -0.11015496 0.43900001
-0.10827211 -0.11015496 0.43900001
-0.10688358 -0.10990404 0.43800002
-0.10574169 -0.10990404 0.43800002
-0.10459979 -0.10990404 0.43800002
-0.1034579 -0.10990404 0.43800002
-0.1020824 -0.10965311 0.43700001
-0.10094311 -0.10965311 0.43700001
-0.09980382 -0.10965311 0.43700001
-0.098438762 -0.10940219 0.43600002
-0.097302087 -0.10940219 0.43600002
-0.095944844 -0.10915127 0.43500003
-0.094810769 -0.10915127 0.43500003
-0.09346135 -0.10890035 0.43400002
-0.092329882 -0.10890035 0.43400002
-0.091198415 -0.10890035 0.43400002
-0.089859426 -0.10864943 0.43300003
-0.088730566 -0.10864943 0.43300003
-0.087399393 -0.1083985 0.43200001
-0.086273141 -0.1083985 0.43200001
-0.085146889 -0.1083985 0.43200001
-0.083826147 -0.10814758 0.43100002
-0.082702503 -0.10814758 0.43100002
-0.081578858 -0.10814758 0.43100002
-0.080268539 -0.10789665 0.43000001
-0.079147503 -0.10789665 0.43000001
-0.078026466 -0.10789665 0.43000001
-0.076905429 -0.10789665 0.43000001
-0.075608149 -0.10764574 0.42900002
-0.07448972 -0.10764574 0.42900002
-0.073200263 -0.10739481 0.42800003
-0.072084442 -0.10739481 0.42800003
-0.0708028 -0.10714389 0.42700002
-0.069689579 -0.10714389 0.42700002
-0.068576366 -0.10714389 0.42700002
-0.067463152 -0.10714389 0.42700002
-0.066194549 -0.10689297 0.42600003
-0.065083943 -0.10689297 0.42600003
-0.06397333 -0.10689297 0.42600003
-0.062862724 -0.10689297 0.42600003
-0.061607152 -0.10664204 0.42500001
-0.06049915 -0.10664204 0.42500001
-0.059391152 -0.10664204 0.42500001
-0.05828315 -0.10664204 0.42500001
-0.057040621 -0.10639112 0.42400002
-0.055935226 -0.10639112 0.42400002
-0.054700505 -0.1061402 0.42300001
-0.053597718 -0.1061402 0.42300001
-0.052494936 -0.1061402 0.42300001
-0.051270653 -0.10588928 0.42200002
-0.05017047 -0.10588928 0.42200002
-0.049070291 -0.10588928 0.42200002
-0.047970109 -0.10588928 0.42200002
-0.04686993 -0.10588928 0.42200002
-0.045661289 -0.10563836 0.42100003
-0.044563718 -0.10563836 0.42100003
-0.04346614 -0.10563836 0.42100003
-0.04226793 -0.10538743 0.42000002
-0.041172963 -0.10538743 0.42000002
-0.040077996 -0.10538743 0.42000002
-0.038983028 -0.10538743 0.42000002
-0.037797853 -0.10513651 0.41900003
-0.036705494 -0.10513651 0.41900003
-0.035613135 -0.10513651 0.41900003
-0.034438383 -0.10488559 0.41800001
-0.033348631 -0.10488559 0.41800001
-0.032258879 -0.10488559 0.41800001
-0.03109456 -0.10463466 0.41700003
-0.030007416 -0.10463466 0.41700003
-0.028920269 -0.10463466 0.41700003
-0.027833123 -0.10463466 0.41700003
-0.026681837 -0.10438374 0.41600001
-0.025597299 -0.10438374 0.41600001
-0.024512762 -0.10438374 0.41600001
-0.023371905 -0.10413282 0.41500002
-0.022289975 -0.10413282 0.41500002
-0.021208042 -0.10413282 0.41500002
-0.020077614 -0.1038819 0.41400003
-0.018998289 -0.1038819 0.41400003
-0.017875683 -0.10363097 0.41300002
-0.016798964 -0.10363097 0.41300002
-0.015722249 -0.10363097 0.41300002
-0.01461007 -0.10338005 0.41200003
-0.013535961 -0.10338005 0.41200003
-0.012461849 -0.10338005 0.41200003
-0.011360099 -0.10312913 0.41100001
-0.010288595 -0.10312913 0.41100001
-0.0092170928 -0.10312913 0.41100001
-0.0081455885 -0.10312913 0.41100001
-0.0070740855 -0.10312913 0.41100001
-0.0059879776 -0.10287821 0.41000003
-0.0049190815 -0.10287821 0.41000003
-0.0038501855 -0.10287821 0.41000003
-0.0027812896 -0.10287821 0.41000003
-0.0017082166 -0.10262728 0.40900001
-0.00064192759 -0.10262728 0.40900001
0.00042332392 -0.10237636 0.40800002
0.001487006 -0.10237636 0.40800002
0.0025506879 -0.10237636 0.40800002
0.00361437 -0.10237636 0.40800002
0.0046665859 -0.10212544 0.40700001
0.0057276608 -0.10212544 0.40700001
0.0067720562 -0.10187452 0.40600002
0.0078305239 -0.10187452 0.40600002
0.008867098 -0.10162359 0.40500003
0.0099229589 -0.10162359 0.40500003
0.010951711 -0.10137267 0.40400001
0.012004965 -0.10137267 0.40400001
0.013058218 -0.10137267 0.40400001
0.014111471 -0.10137267 0.40400001
0.01512719 -0.10112175 0.40300003
0.016177837 -0.10112175 0.40300003
0.017228482 -0.10112175 0.40300003
0.01827913 -0.10112175 0.40300003
0.019329777 -0.10112175 0.40300003
0.020380422 -0.10112175 0.40300003
0.02143107 -0.10112175 0.40300003
0.022425931 -0.10087083 0.40200001
0.023473969 -0.10087083 0.40200001
0.02452201 -0.10087083 0.40200001
0.025570048 -0.10087083 0.40200001
0.026551876 -0.1006199 0.40100002
0.027597308 -0.1006199 0.40100002
0.02864274 -0.1006199 0.40100002
0.029614136 -0.10036898 0.40000001
0.030656962 -0.10036898 0.40000001
0.031699788 -0.10036898 0.40000001
0.032742616 -0.10036898 0.40000001
0.033700977 -0.10011806 0.39900002
0.034741193 -0.10011806 0.39900002
0.035781413 -0.10011806 0.39900002
0.03682163 -0.10011806 0.39900002
0.03776696 -0.099867143 0.39800003
0.038804568 -0.099867143 0.39800003
0.039842181 -0.099867143 0.39800003
0.040879793 -0.099867143 0.39800003
0.041812081 -0.099616215 0.39700001
0.042847086 -0.099616215 0.39700001
0.043771558 -0.099365294 0.39600003
0.044803955 -0.099365294 0.39600003
0.045836356 -0.099365294 0.39600003
0.046750393 -0.099114366 0.39500001
0.047780182 -0.099114366 0.39500001
0.048809972 -0.099114366 0.39500001
0.049839761 -0.099114366 0.39500001
0.050740771 -0.098863445 0.39400002
0.051767953 -0.098863445 0.39400002
0.052795134 -0.098863445 0.39400002
0.05382232 -0.098863445 0.39400002
0.054710288 -0.098612525 0.39300001
0.055734869 -0.098612525 0.39300001
0.056615021 -0.098361604 0.39200002
0.057636987 -0.098361604 0.39200002
0.058658957 -0.098361604 0.39200002
0.059528679 -0.098110683 0.39100003
0.060548041 -0.098110683 0.39100003
0.061567403 -0.098110683 0.39100003
0.062426694 -0.097859755 0.39000002
0.063443445 -0.097859755 0.39000002
0.064460203 -0.097859755 0.39000002
0.065476954 -0.097859755 0.39000002
0.066323213 -0.097608835 0.38900003
0.067337364 -0.097608835 0.38900003
0.068351515 -0.097608835 0.38900003
0.069365665 -0.097608835 0.38900003
0.070379809 -0.097608835 0.38900003
0.071210422 -0.097357914 0.38800001
0.072221965 -0.097357914 0.38800001
0.073233508 -0.097357914 0.38800001
0.074245043 -0.097357914 0.38800001
0.075256586 -0.097357914 0.38800001
0.076268122 -0.097357914 0.38800001
0.077080496 -0.097106993 0.38700002
0.078089423 -0.097106993 0.38700002
0.079098359 -0.097106993 0.38700002
0.079900295 -0.096856065 0.38600001
0.08090663 -0.096856065 0.38600001
0.08191295 -0.096856065 0.38600001
0.082919277 -0.096856065 0.38600001
0.083925605 -0.096856065 0.38600001
0.084711902 -0.096605144 0.38500002
0.085715622 -0.096605144 0.38500002
0.086719342 -0.096605144 0.38500002
0.0874952 -0.096354216 0.384
0.088496312 -0.096354216 0.384
0.089264363 -0.096103296 0.38300002
0.090262868 -0.096103296 0.38300002
0.091261372 -0.096103296 0.38300002
0.092018992 -0.095852382 0.38200003
0.093014896 -0.095852382 0.38200003
0.0940108 -0.095852382 0.38200003
0.095006697 -0.095852382 0.38200003
0.096002586 -0.095852382 0.38200003
0.09699849 -0.095852382 0.38200003
0.097737849 -0.095601454 0.38100001
0.098731145 -0.095601454 0.38100001
0.099724442 -0.095601454 0.38100001
0.10071772 -0.095601454 0.38100001
0.10144407 -0.095350534 0.38000003
0.10243475 -0.095350534 0.38000003
0.10342544 -0.095350534 0.38000003
0.10441612 -0.095350534 0.38000003
0.10512941 -0.095099606 0.37900001
0.10611749 -0.095099606 0.37900001
0.10682297 -0.094848685 0.37800002
0.10780843 -0.094848685 0.37800002
0.10879391 -0.094848685 0.37800002
0.10977937 -0.094848685 0.37800002
0.11047181 -0.094597764 0.377
0.11145468 -0.094597764 0.377
0.11243754 -0.094597764 0.377
0.1134204 -0.094597764 0.377
0.11440326 -0.094597764 0.377
0.11508007 -0.094346844 0.37600002
0.11606032 -0.094346844 0.37600002
0.11704058 -0.094346844 0.37600002
0.11802083 -0.094346844 0.37600002
0.1190011 -0.094346844 0.37600002
0.11966225 -0.094095923 0.37500003
0.12063991 -0.094095923 0.37500003
0.12129322 -0.093844995 0.37400001
0.12226827 -0.093844995 0.37400001
0.1229138 -0.093594074 0.37300003
0.12388623 -0.093594074 0.37300003
0.12485867 -0.093594074 0.37300003
0.1258311 -0.093594074 0.37300003
0.12646358 -0.093343154 0.37200001
0.12743339 -0.093343154 0.37200001
0.12840323 -0.093343154 0.37200001
0.12937304 -0.093343154 0.37200001
0.13034289 -0.093343154 0.37200001
0.1313127 -0.093343154 0.37200001
0.13228254 -0.093343154 0.37200001
0.13325235 -0.093343154 0.37200001
0.13386138 -0.093092233 0.37100002
0.13482861 -0.093092233 0.37100002
0.13579583 -0.093092233 0.37100002
0.13676305 -0.093092233 0.37100002
0.13773027 -0.093092233 0.37100002
0.13832363 -0.092841305 0.37
0.13928825 -0.092841305 0.37
0.14025286 -0.092841305 0.37
0.14083581 -0.092590384 0.36900002
0.14179783 -0.092590384 0.36900002
0.14275981 -0.092590384 0.36900002
0.14372183 -0.092590384 0.36900002
0.14468384 -0.092590384 0.36900002
0.14564584 -0.092590384 0.36900002
0.14621055 -0.092339464 0.36800003
0.14716995 -0.092339464 0.36800003
0.14812934 -0.092339464 0.36800003
0.14908874 -0.092339464 0.36800003
0.1496404 -0.092088543 0.36700001
0.15059718 -0.092088543 0.36700001
0.15155399 -0.092088543 0.36700001
0.15251076 -0.092088543 0.36700001
0.15304941 -0.091837622 0.36600003
0.15400359 -0.091837622 0.36600003
0.15495777 -0.091837622 0.36600003
0.15591195 -0.091837622 0.36600003
0.15643755 -0.091586694 0.36500001
0.15738912 -0.091586694 0.36500001
0.15834069 -0.091586694 0.36500001
0.15929228 -0.091586694 0.36500001
0.15980484 -0.091335773 0.36400002
0.16075382 -0.091335773 0.36400002
0.16125853 -0.091084845 0.36300001
0.16220489 -0.091084845 0.36300001
0.16315125 -0.091084845 0.36300001
0.16409762 -0.091084845 0.36300001
0.16458932 -0.090833925 0.36200002
0.16553308 -0.090833925 0.36200002
0.16647683 -0.090833925 0.36200002
-0.1770923 -0.082440704 0.33200002
-0.17622675 -0.082440704 0.33200002
-0.17536119 -0.082440704 0.33200002
-0.17449565 -0.082440704 0.33200002
-0.17363012 -0.082440704 0.33200002
-0.17276457 -0.082440704 0.33200002
-0.17189901 -0.082440704 0.33200002
-0.17103347 -0.082440704 0.33200002
-0.17016794 -0.082440704 0.33200002
-0.16930237 -0.082440704 0.33200002
-0.16843684 -0.082440704 0.33200002
-0.16757129 -0.082440704 0.33200002
-0.16670576 -0.082440704 0.33200002
-0.16584021 -0.082440704 0.33200002
-0.16547155 -0.082689017 0.333
-0.16460341 -0.082689017 0.333
-0.16422696 -0.082937337 0.33400002
-0.16335621 -0.082937337 0.33400002
-0.16297193 -0.08318565 0.33500001
-0.16209856 -0.08318565 0.33500001
-0.16122518 -0.08318565 0.33500001
-0.16083048 -0.083433971 0.33600003
-0.15995452 -0.083433971 0.33600003
-0.15955198 -0.083682284 0.33700001
-0.15867341 -0.083682284 0.33700001
-0.15779482 -0.083682284 0.33700001
-0.15738188 -0.083930597 0.33800003
-0.1565007 -0.083930597 0.33800003
-0.15654032 -0.084427223 0.34
-0.15569149 -0.085420489 0.34400001
-0.15524465 -0.08566881 0.34500003
-0.15523995 -0.086165436 0.347
-0.15478007 -0.086413749 0.34800002
-0.15475716 -0.086910382 0.35000002
-0.15472379 -0.087407015 0.35200003
-0.15424305 -0.087655328 0.35300002
-0.15419143 -0.088151962 0.35500002
-0.15369767 -0.088400275 0.35600001
-0.15319867 -0.088648587 0.35700002
-0.15176114 -0.0888969 0.35800001
-0.18579429 -0.11372845 0.45800003
-0.18340622 -0.11372845 0.45800003
-0.18221219 -0.11372845 0.45800003
-0.17943148 -0.11348013 0.45700002
-0.17824005 -0.11348013 0.45700002
-0.17704862 -0.11348013 0.45700002
-0.1758572 -0.11348013 0.45700002
-0.17466576 -0.11348013 0.45700002
-0.17309475 -0.11323182 0.45600003
-0.17190592 -0.11323182 0.45600003
-0.17071711 -0.11323182 0.45600003
-0.16915651 -0.11298349 0.45500001
-0.16097084 -0.11223855 0.45200002
-0.15943894 -0.11199024 0.45100003
-0.15522017 -0.11149361 0.44900003
-0.15404959 -0.11149361 0.44900003
-0.15253852 -0.11124529 0.44800001
-0.15137056 -0.11124529 0.44800001
-0.14986733 -0.11099698 0.44700003
-0.14870197 -0.11099698 0.44700003
-0.14753662 -0.11099698 0.44700003
-0.14604379 -0.11074866 0.44600001
-0.14488105 -0.11074866 0.44600001
-0.1437183 -0.11074866 0.44600001
-0.14255555 -0.11074866 0.44600001
-0.14107578 -0.11050034 0.44500002
-0.13991563 -0.11050034 0.44500002
-0.13875549 -0.11050034 0.44500002
-0.13759534 -0.11050034 0.44500002
-0.13643521 -0.11050034 0.44500002
-0.13527505 -0.11050034 0.44500002
-0.13411492 -0.11050034 0.44500002
-0.13265599 -0.11025203 0.44400004
-0.13149847 -0.11025203 0.44400004
-0.13034093 -0.11025203 0.44400004
-0.1291834 -0.11025203 0.44400004
-0.12802586 -0.11025203 0.44400004
-0.12686832 -0.11025203 0.44400004
-0.12571079 -0.11025203 0.44400004
-0.12427271 -0.11000371 0.44300002
-0.12311779 -0.11000371 0.44300002
-0.12196285 -0.11000371 0.44300002
-0.12080793 -0.11000371 0.44300002
-0.1193829 -0.1097554 0.44200003
-0.11823059 -0.1097554 0.44200003
-0.11707826 -0.1097554 0.44200003
-0.11566366 -0.10950708 0.44100001
-0.11451394 -0.10950708 0.44100001
-0.11310717 -0.10925876 0.44000003
-0.11196006 -0.10925876 0.44000003
-0.11081296 -0.10925876 0.44000003
-0.1094166 -0.10901045 0.43900001
-0.10827211 -0.10901045 0.43900001
-0.10688358 -0.10876214 0.43800002
-0.10574169 -0.10876214 0.43800002
-0.10459979 -0.10876214 0.43800002
-0.1034579 -0.10876214 0.43800002
-0.10231601 -0.10876214 0.43800002
-0.10094311 -0.10851382 0.43700001
-0.09980382 -0.10851382 0.43700001
-0.098438762 -0.1082655 0.43600002
-0.097302087 -0.1082655 0.43600002
-0.096165404 -0.1082655 0.43600002
-0.094810769 -0.10801719 0.43500003
-0.093676701 -0.10801719 0.43500003
-0.092329882 -0.10776887 0.43400002
-0.091198415 -0.10776887 0.43400002
-0.089859426 -0.10752056 0.43300003
-0.088730566 -0.10752056 0.43300003
-0.087601714 -0.10752056 0.43300003
-0.086273141 -0.10727224 0.43200001
-0.085146889 -0.10727224 0.43200001
-0.084020637 -0.10727224 0.43200001
-0.082702503 -0.10702392 0.43100002
-0.081578858 -0.10702392 0.43100002
-0.080455214 -0.10702392 0.43100002
-0.079147503 -0.10677561 0.43000001
-0.078026466 -0.10677561 0.43000001
-0.076905429 -0.10677561 0.43000001
-0.075608149 -0.1065273 0.42900002
-0.07448972 -0.1065273 0.42900002
-0.073200263 -0.10627899 0.42800003
-0.072084442 -0.10627899 0.42800003
-0.07096862 -0.10627899 0.42800003
-0.069689579 -0.10603067 0.42700002
-0.068576366 -0.10603067 0.42700002
-0.067463152 -0.10603067 0.42700002
-0.066349931 -0.10603067 0.42700002
-0.065083943 -0.10578235 0.42600003
-0.06397333 -0.10578235 0.42600003
-0.062862724 -0.10578235 0.42600003
-0.061752114 -0.10578235 0.42600003
-0.06049915 -0.10553403 0.42500001
-0.059391152 -0.10553403 0.42500001
-0.05828315 -0.10553403 0.42500001
-0.057040621 -0.10528572 0.42400002
-0.055935226 -0.10528572 0.42400002
-0.054700505 -0.1050374 0.42300001
-0.053597718 -0.1050374 0.42300001
-0.052494936 -0.1050374 0.42300001
-0.051392145 -0.1050374 0.42300001
-0.05017047 -0.10478909 0.42200002
-0.049070291 -0.10478909 0.42200002
-0.047970109 -0.10478909 0.42200002
-0.04686993 -0.10478909 0.42200002
-0.045661289 -0.10454078 0.42100003
-0.044563718 -0.10454078 0.42100003
-0.04346614 -0.10454078 0.42100003
-0.042368568 -0.10454078 0.42100003
-0.041172963 -0.10429246 0.42000002
-0.040077996 -0.10429246 0.42000002
-0.038983028 -0.10429246 0.42000002
-0.037888061 -0.10429246 0.42000002
-0.036705494 -0.10404415 0.41900003
-0.035613135 -0.10404415 0.41900003
-0.034438383 -0.10379583 0.41800001
-0.033348631 -0.10379583 0.41800001
-0.032258879 -0.10379583 0.41800001
-0.031169128 -0.10379583 0.41800001
-0.030007416 -0.10354751 0.41700003
-0.028920269 -0.10354751 0.41700003
-0.027833123 -0.10354751 0.41700003
-0.026681837 -0.10329919 0.41600001
-0.025597299 -0.10329919 0.41600001
-0.024512762 -0.10329919 0.41600001
-0.023371905 -0.10305088 0.41500002
-0.022289975 -0.10305088 0.41500002
-0.021208042 -0.10305088 0.41500002
-0.020077614 -0.10280257 0.41400003
-0.018998289 -0.10280257 0.41400003
-0.017918967 -0.10280257 0.41400003
-0.016798964 -0.10255425 0.41300002
-0.015722249 -0.10255425 0.41300002
-0.014645531 -0.10255425 0.41300002
-0.013535961 -0.10230593 0.41200003
-0.012461849 -0.10230593 0.41200003
-0.011387739 -0.10230593 0.41200003
-0.010288595 -0.10205762 0.41100001
-0.0092170928 -0.10205762 0.41100001
-0.0081455885 -0.10205762 0.41100001
-0.0070740855 -0.10205762 0.41100001
-0.0059879776 -0.10180931 0.41000003
-0.0049190815 -0.10180931 0.41000003
-0.0038501855 -0.10180931 0.41000003
-0.0027812896 -0.10180931 0.41000003
-0.0017082166 -0.10156099 0.40900001
-0.00064192759 -0.10156099 0.40900001
0.00042436144 -0.10156099 0.40900001
0.001487006 -0.10131267 0.40800002
0.0025506879 -0.10131267 0.40800002
0.00361437 -0.10131267 0.40800002
0.0046665859 -0.10106435 0.40700001
0.0057276608 -0.10106435 0.40700001
0.0067720562 -0.10081604 0.40600002
0.0078305239 -0.10081604 0.40600002
0.008867098 -0.10056773 0.40500003
0.0099229589 -0.10056773 0.40500003
0.01097882 -0.10056773 0.40500003
0.012004965 -0.10031941 0.40400001
0.013058218 -0.10031941 0.40400001
0.014111471 -0.10031941 0.40400001
0.015164726 -0.10031941 0.40400001
0.016177837 -0.10007109 0.40300003
0.017228482 -0.10007109 0.40300003
0.01827913 -0.10007109 0.40300003
0.019329777 -0.10007109 0.40300003
0.020380422 -0.10007109 0.40300003
0.02143107 -0.10007109 0.40300003
0.022425931 -0.099822782 0.40200001
0.023473969 -0.099822782 0.40200001
0.02452201 -0.099822782 0.40200001
0.025570048 -0.099822782 0.40200001
0.026551876 -0.099574469 0.40100002
0.027597308 -0.099574469 0.40100002
0.02864274 -0.099574469 0.40100002
0.029688172 -0.099574469 0.40100002
0.030656962 -0.099326149 0.40000001
0.031699788 -0.099326149 0.40000001
0.032742616 -0.099326149 0.40000001
0.03378544 -0.099326149 0.40000001
0.034741193 -0.099077836 0.39900002
0.035781413 -0.099077836 0.39900002
0.03682163 -0.099077836 0.39900002
0.03786185 -0.099077836 0.39900002
0.038804568 -0.098829523 0.39800003
0.039842181 -0.098829523 0.39800003
0.040879793 -0.098829523 0.39800003
0.041812081 -0.098581202 0.39700001
0.042847086 -0.098581202 0.39700001
0.043882091 -0.098581202 0.39700001
0.044803955 -0.098332889 0.39600003
0.045836356 -0.098332889 0.39600003
0.046868753 -0.098332889 0.39600003
0.047780182 -0.098084569 0.39500001
0.048809972 -0.098084569 0.39500001
0.049839761 -0.098084569 0.39500001
0.050869551 -0.098084569 0.39500001
0.051767953 -0.097836256 0.39400002
0.052795134 -0.097836256 0.39400002
0.05382232 -0.097836256 0.39400002
0.054710288 -0.097587943 0.39300001
0.055734869 -0.097587943 0.39300001
0.056759443 -0.097587943 0.39300001
0.057636987 -0.09733963 0.39200002
0.058658957 -0.09733963 0.39200002
0.059680924 -0.09733963 0.39200002
0.060548041 -0.097091317 0.39100003
0.061567403 -0.097091317 0.39100003
0.062586762 -0.097091317 0.39100003
0.063443445 -0.096842997 0.39000002
0.064460203 -0.096842997 0.39000002
0.065476954 -0.096842997 0.39000002
0.066493712 -0.096842997 0.39000002
0.067337364 -0.096594684 0.38900003
0.068351515 -0.096594684 0.38900003
0.069365665 -0.096594684 0.38900003
0.070379809 -0.096594684 0.38900003
0.071393959 -0.096594684 0.38900003
0.072221965 -0.096346363 0.38800001
0.073233508 -0.096346363 0.38800001
0.074245043 -0.096346363 0.38800001
0.075256586 -0.096346363 0.38800001
0.076268122 -0.096346363 0.38800001
0.077279665 -0.096346363 0.38800001
0.078089423 -0.09609805 0.38700002
0.079098359 -0.09609805 0.38700002
0.080107294 -0.09609805 0.38700002
0.081116229 -0.09609805 0.38700002
0.08191295 -0.09584973 0.38600001
0.082919277 -0.09584973 0.38600001
0.083925605 -0.09584973 0.38600001
0.084931932 -0.09584973 0.38600001
0.085715622 -0.095601417 0.38500002
0.086719342 -0.095601417 0.38500002
0.087723061 -0.095601417 0.38500002
0.088496312 -0.095353104 0.384
0.089497425 -0.095353104 0.384
0.090262868 -0.095104791 0.38300002
0.091261372 -0.095104791 0.38300002
0.092259876 -0.095104791 0.38300002
0.093014896 -0.094856478 0.38200003
0.0940108 -0.094856478 0.38200003
0.095006697 -0.094856478 0.38200003
0.096002586 -0.094856478 0.38200003
0.09699849 -0.094856478 0.38200003
0.09799438 -0.094856478 0.38200003
0.098990284 -0.094856478 0.38200003
0.099724442 -0.094608158 0.38100001
0.10071772 -0.094608158 0.38100001
0.10171102 -0.094608158 0.38100001
0.10270431 -0.094608158 0.38100001
0.10342544 -0.094359845 0.38000003
0.10441612 -0.094359845 0.38000003
0.10540681 -0.094359845 0.38000003
0.10611749 -0.094111525 0.37900001
0.10682297 -0.093863212 0.37800002
0.10780843 -0.093863212 0.37800002
0.10879391 -0.093863212 0.37800002
0.10977937 -0.093863212 0.37800002
0.11047181 -0.093614891 0.377
0.11145468 -0.093614891 0.377
0.11243754 -0.093614891 0.377
0.1134204 -0.093614891 0.377
0.11440326 -0.093614891 0.377
0.11508007 -0.093366578 0.37600002
0.11606032 -0.093366578 0.37600002
0.11704058 -0.093366578 0.37600002
0.11802083 -0.093366578 0.37600002
0.1190011 -0.093366578 0.37600002
0.11966225 -0.093118265 0.37500003
0.12063991 -0.093118265 0.37500003
0.12161755 -0.093118265 0.37500003
0.12226827 -0.092869952 0.37400001
0.12324332 -0.092869952 0.37400001
0.12388623 -0.092621639 0.37300003
0.12485867 -0.092621639 0.37300003
0.1258311 -0.092621639 0.37300003
0.12680353 -0.092621639 0.37300003
0.12743339 -0.092373319 0.37200001
0.12840323 -0.092373319 0.37200001
0.12937304 -0.092373319 0.37200001
0.13034289 -0.092373319 0.37200001
0.1313127 -0.092373319 0.37200001
0.13228254 -0.092373319 0.37200001
0.13325235 -0.092373319 0.37200001
0.13422219 -0.092373319 0.37200001
0.13482861 -0.092125006 0.37100002
0.13579583 -0.092125006 0.37100002
0.13676305 -0.092125006 0.37100002
0.13773027 -0.092125006 0.37100002
0.13832363 -0.091876686 0.37
0.13928825 -0.091876686 0.37
0.14025286 -0.091876686 0.37
0.14121747 -0.091876686 0.37
0.14179783 -0.091628373 0.36900002
0.14275981 -0.091628373 0.36900002
0.14372183 -0.091628373 0.36900002
0.14468384 -0.091628373 0.36900002
0.14564584 -0.091628373 0.36900002
0.14660786 -0.091628373 0.36900002
0.14756985 -0.091628373 0.36900002
0.14812934 -0.09138006 0.36800003
0.14908874 -0.09138006 0.36800003
0.1496404 -0.091131739 0.36700001
0.15059718 -0.091131739 0.36700001
0.15155399 -0.091131739 0.36700001
0.15251076 -0.091131739 0.36700001
0.15346757 -0.091131739 0.36700001
0.15400359 -0.090883426 0.36600003
0.15495777 -0.090883426 0.36600003
0.15591195 -0.090883426 0.36600003
0.15686615 -0.090883426 0.36600003
0.15738912 -0.090635113 0.36500001
0.15834069 -0.090635113 0.36500001
0.15929228 -0.090635113 0.36500001
0.15980484 -0.0903868 0.36400002
0.16075382 -0.0903868 0.36400002
0.16125853 -0.09013848 0.36300001
0.16220489 -0.09013848 0.36300001
