# .PCD v0.7 - Point Cloud Data file format
VERSION 0.7
FIELDS x y z
SIZE 4 4 4
TYPE F F F
COUNT 1 1 1
WIDTH 1340
HEIGHT 1
VIEWPOINT 0 0 0 1 0 0 0
POINTS 1340
DATA ascii
-0.065369628 -0.042619858 0.31900001
-0.06453798 -0.042619858 0.31900001
-0.063706324 -0.042619858 0.31900001
-0.062874667 -0.042619858 0.31900001
-0.062043015 -0.042619858 0.31900001
-0.06101948 -0.042486258 0.31800002
-0.060190432 -0.042486258 0.31800002
-0.059548058 -0.042619858 0.31900001
-0.058716401 -0.042619858 0.31900001
-0.057884749 -0.042619858 0.31900001
-0.057053097 -0.042619858 0.31900001
-0.056397691 -0.042753465 0.32000002
-0.055563431 -0.042753465 0.32000002
-0.054900195 -0.042887069 0.32100001
-0.054231755 -0.043020677 0.32200003
-0.05339228 -0.043020677 0.32200003
-0.052716006 -0.043154277 0.32300001
-0.051873926 -0.043154277 0.32300001
-0.051189836 -0.043287881 0.324
-0.050500534 -0.043421488 0.32500002
-0.04965324 -0.043421488 0.32500002
-0.048805945 -0.043421488 0.32500002
-0.048106212 -0.043555092 0.32600001
-0.047401272 -0.043688696 0.32700002
-0.044056036 -0.047429625 0.35500002
-0.043373518 -0.047696836 0.35700002
-0.041744631 -0.047964044 0.35900003
-0.04092237 -0.048097648 0.36000001
-0.040317021 -0.048498459 0.36300001
-0.03958758 -0.048765671 0.36500001
-0.038847703 -0.049032878 0.36700001
-0.0380974 -0.049300089 0.36900002
-0.03733667 -0.049567297 0.37100002
-0.036565512 -0.049834508 0.37300003
-0.035783928 -0.05010172 0.37500003
-0.035084728 -0.050502531 0.37800002
-0.034189466 -0.050636135 0.37900001
-0.033464197 -0.05103695 0.38200003
-0.032638285 -0.051304154 0.384
-0.031801954 -0.051571365 0.38600001
-0.03095519 -0.051838577 0.38800001
-0.030097999 -0.052105784 0.39000002
-0.029304944 -0.052506596 0.39300001
-0.028496251 -0.052907415 0.39600003
-0.027671911 -0.053308226 0.39900002
-0.026765184 -0.053575438 0.40100002
-0.025912169 -0.053976249 0.40400001
-0.025043512 -0.05437706 0.40700001
-0.024159214 -0.054777879 0.41000003
-0.023259269 -0.055178691 0.41300002
-0.022289975 -0.055445898 0.41500002
-0.021310251 -0.05571311 0.41700003
-0.020368593 -0.056113921 0.42000002
-0.019365406 -0.056381132 0.42200002
-0.018395074 -0.056781944 0.42500001
-0.017368421 -0.057049155 0.42700002
-0.01636941 -0.057449967 0.43000001
-0.015319296 -0.057717178 0.43200001
-0.014258754 -0.057984386 0.43400002
-0.013218028 -0.058385197 0.43700001
-0.012106382 -0.058518805 0.43800002
-0.011014555 -0.058786016 0.44000003
-0.0098898727 -0.058919616 0.44100001
-0.0087599764 -0.059053224 0.44200003
-0.0076076542 -0.059053224 0.44200003
-0.0064699366 -0.059186827 0.44300002
-0.0053030099 -0.059053224 0.44200003
-0.0041506877 -0.059053224 0.44200003
-0.0029983658 -0.059053224 0.44200003
-0.0018460435 -0.059053224 0.44200003
-0.00069215178 -0.058919616 0.44100001
0.00045756332 -0.058919616 0.44100001
0.0016072785 -0.058919616 0.44100001
0.0027569935 -0.058919616 0.44100001
0.0039067087 -0.058919616 0.44100001
0.0050449581 -0.058786016 0.44000003
0.0061920662 -0.058786016 0.44000003
0.0073391744 -0.058786016 0.44000003
0.0084862821 -0.058786016 0.44000003
0.0096114958 -0.058652408 0.43900001
0.010755997 -0.058652408 0.43900001
0.011900498 -0.058652408 0.43900001
0.013015284 -0.058518805 0.43800002
0.014157177 -0.058518805 0.43800002
0.015299071 -0.058518805 0.43800002
0.016440965 -0.058518805 0.43800002
0.017542714 -0.058385197 0.43700001
0.018682001 -0.058385197 0.43700001
0.01982129 -0.058385197 0.43700001
0.020960575 -0.058385197 0.43700001
0.022049291 -0.058251597 0.43600002
0.023185972 -0.058251597 0.43600002
0.024266865 -0.058117993 0.43500003
0.025400938 -0.058117993 0.43500003
0.026535012 -0.058117993 0.43500003
0.027605474 -0.057984386 0.43400002
0.028736943 -0.057984386 0.43400002
0.029868407 -0.057984386 0.43400002
0.030928446 -0.057850782 0.43300003
0.032057304 -0.057850782 0.43300003
0.03310952 -0.057717178 0.43200001
0.034235768 -0.057717178 0.43200001
0.035362024 -0.057717178 0.43200001
0.036403812 -0.057583574 0.43100002
0.037527457 -0.057583574 0.43100002
0.038561422 -0.057449967 0.43000001
0.039682459 -0.057449967 0.43000001
0.040803496 -0.057449967 0.43000001
0.041924533 -0.057449967 0.43000001
0.042945467 -0.057316363 0.42900002
0.044063896 -0.057316363 0.42900002
0.045182325 -0.057316363 0.42900002
0.046192832 -0.057182759 0.42800003
0.047308654 -0.057182759 0.42800003
0.048424475 -0.057182759 0.42800003
0.049540304 -0.057182759 0.42800003
0.050656125 -0.057182759 0.42800003
0.051650982 -0.057049155 0.42700002
0.0527642 -0.057049155 0.42700002
0.053877413 -0.057049155 0.42700002
0.054990631 -0.057049155 0.42700002
0.056103848 -0.057049155 0.42700002
0.057217062 -0.057049155 0.42700002
0.058330279 -0.057049155 0.42700002
0.059443492 -0.057049155 0.42700002
0.060414899 -0.056915551 0.42600003
0.061525505 -0.056915551 0.42600003
0.062489081 -0.056781944 0.42500001
0.063597083 -0.056781944 0.42500001
0.064705081 -0.056781944 0.42500001
0.065658234 -0.05664834 0.42400002
0.066763625 -0.05664834 0.42400002
0.067869022 -0.05664834 0.42400002
0.068811737 -0.056514736 0.42300001
0.069914527 -0.056514736 0.42300001
0.07101731 -0.056514736 0.42300001
0.0721201 -0.056514736 0.42300001
0.073049784 -0.056381132 0.42200002
0.074149974 -0.056381132 0.42200002
0.075250156 -0.056381132 0.42200002
0.076169409 -0.056247529 0.42100003
0.077266984 -0.056247529 0.42100003
0.078364559 -0.056247529 0.42100003
0.07927338 -0.056113921 0.42000002
0.080368347 -0.056113921 0.42000002
0.081463315 -0.056113921 0.42000002
0.082361713 -0.055980321 0.41900003
0.083454072 -0.055980321 0.41900003
0.084344648 -0.055846713 0.41800001
0.0854344 -0.055846713 0.41800001
0.086524151 -0.055846713 0.41800001
0.08761391 -0.055846713 0.41800001
0.088703662 -0.055846713 0.41800001
0.089793414 -0.055846713 0.41800001
0.09066575 -0.05571311 0.41700003
0.091752894 -0.05571311 0.41700003
0.092840038 -0.05571311 0.41700003
0.093927182 -0.05571311 0.41700003
0.095014326 -0.05571311 0.41700003
0.09610147 -0.05571311 0.41700003
0.096955545 -0.055579502 0.41600001
0.098040089 -0.055579502 0.41600001
0.099124625 -0.055579502 0.41600001
0.099968277 -0.055445898 0.41500002
0.10105021 -0.055445898 0.41500002
0.10213215 -0.055445898 0.41500002
0.10296537 -0.055312298 0.41400003
0.10404469 -0.055312298 0.41400003
0.1048701 -0.055178691 0.41300002
0.1059468 -0.055178691 0.41300002
0.10702352 -0.055178691 0.41300002
0.10810025 -0.055178691 0.41300002
0.10891261 -0.055045087 0.41200003
0.10998673 -0.055045087 0.41200003
0.11079126 -0.054911479 0.41100001
0.11186277 -0.054911479 0.41100001
0.11293427 -0.054911479 0.41100001
0.1137284 -0.054777879 0.41000003
0.11479729 -0.054777879 0.41000003
0.11586618 -0.054777879 0.41000003
0.11664986 -0.054644272 0.40900001
0.11771616 -0.054644272 0.40900001
0.11849202 -0.054510668 0.40800002
0.11955571 -0.054510668 0.40800002
0.12061939 -0.054510668 0.40800002
0.12138482 -0.05437706 0.40700001
0.1224459 -0.05437706 0.40700001
0.12350697 -0.05437706 0.40700001
0.12456805 -0.05437706 0.40700001
0.12532045 -0.054243457 0.40600002
0.12637892 -0.054243457 0.40600002
0.12743738 -0.054243457 0.40600002
0.12817937 -0.054109856 0.40500003
0.12923522 -0.054109856 0.40500003
0.13029109 -0.054109856 0.40500003
0.13134696 -0.054109856 0.40500003
0.13240282 -0.054109856 0.40500003
0.13312915 -0.053976249 0.40400001
0.13418239 -0.053976249 0.40400001
0.13523565 -0.053976249 0.40400001
0.1362889 -0.053976249 0.40400001
0.13734217 -0.053976249 0.40400001
0.13839541 -0.053976249 0.40400001
0.1391035 -0.053842645 0.40300003
0.14015414 -0.053842645 0.40300003
0.14120479 -0.053842645 0.40300003
0.14225544 -0.053842645 0.40300003
0.14295049 -0.053709038 0.40200001
0.14399852 -0.053709038 0.40200001
0.14504656 -0.053709038 0.40200001
0.1457312 -0.053575438 0.40100002
0.14677662 -0.053575438 0.40100002
0.14782205 -0.053575438 0.40100002
0.14886749 -0.053575438 0.40100002
0.14953907 -0.05344183 0.40000001
0.15058188 -0.05344183 0.40000001
0.15162472 -0.05344183 0.40000001
0.15266754 -0.05344183 0.40000001
0.15371037 -0.05344183 0.40000001
0.15475319 -0.05344183 0.40000001
0.15579602 -0.05344183 0.40000001
0.15683883 -0.05344183 0.40000001
0.15748698 -0.053308226 0.39900002
0.1585272 -0.053308226 0.39900002
0.1591675 -0.053174622 0.39800003
0.16020511 -0.053174622 0.39800003
0.16124271 -0.053174622 0.39800003
0.16187258 -0.053041019 0.39700001
0.16290759 -0.053041019 0.39700001
0.16352965 -0.052907415 0.39600003
0.16456203 -0.052907415 0.39600003
0.16559444 -0.052907415 0.39600003
0.16662683 -0.052907415 0.39600003
0.16723584 -0.052773807 0.39500001
0.16826563 -0.052773807 0.39500001
0.16929542 -0.052773807 0.39500001
0.17032522 -0.052773807 0.39500001
0.17135499 -0.052773807 0.39500001
0.1723848 -0.052773807 0.39500001
0.17297556 -0.052640203 0.39400002
0.17400275 -0.052640203 0.39400002
0.17502993 -0.052640203 0.39400002
0.17605712 -0.052640203 0.39400002
0.1770843 -0.052640203 0.39400002
0.17811148 -0.052640203 0.39400002
0.17868398 -0.052506596 0.39300001
0.17970857 -0.052506596 0.39300001
0.18073313 -0.052506596 0.39300001
0.18175772 -0.052506596 0.39300001
-0.29540604 -0.069166683 0.528
-0.29347262 -0.069035687 0.52700001
-0.29154444 -0.06890469 0.52600002
-0.29017314 -0.06890469 0.52600002
-0.28825277 -0.068773694 0.52500004
-0.28688407 -0.068773694 0.52500004
-0.28497154 -0.068642698 0.52400005
-0.28360543 -0.068642698 0.52400005
-0.28170067 -0.068511695 0.523
-0.28033718 -0.068511695 0.523
-0.2784403 -0.068380699 0.52200001
-0.2770794 -0.068380699 0.52200001
-0.27519029 -0.068249702 0.52100003
-0.27383202 -0.068249702 0.52100003
-0.27247375 -0.068249702 0.52100003
-0.27059513 -0.068118706 0.52000004
-0.26923943 -0.068118706 0.52000004
-0.26736861 -0.067987718 0.51900005
-0.26601556 -0.067987718 0.51900005
-0.2641525 -0.067856714 0.51800001
-0.26280203 -0.067856714 0.51800001
-0.2614516 -0.067856714 0.51800001
-0.25959903 -0.067725718 0.51700002
-0.25775164 -0.067594722 0.51600003
-0.2564064 -0.067594722 0.51600003
-0.25456685 -0.067463726 0.51500005
-0.25322422 -0.067463726 0.51500005
-0.25139248 -0.067332722 0.514
-0.25005242 -0.067332722 0.514
-0.24871239 -0.067332722 0.514
-0.24689111 -0.067201726 0.51300001
-0.24555369 -0.067201726 0.51300001
-0.24374022 -0.06707073 0.51200002
-0.24193195 -0.066939734 0.51100004
-0.24059975 -0.066939734 0.51100004
-0.23926753 -0.066939734 0.51100004
-0.2374697 -0.066808738 0.51000005
-0.2361401 -0.066808738 0.51000005
-0.23435007 -0.066677734 0.509
-0.23302306 -0.066677734 0.509
-0.23169608 -0.066677734 0.509
-0.2299165 -0.066546738 0.50800002
-0.2285921 -0.066546738 0.50800002
-0.22682035 -0.066415742 0.50700003
-0.22549856 -0.066415742 0.50700003
-0.22373463 -0.066284746 0.50600004
-0.22241545 -0.066284746 0.50600004
-0.22109628 -0.066284746 0.50600004
-0.21977709 -0.066284746 0.50600004
-0.21802618 -0.066153742 0.505
-0.2167096 -0.066153742 0.505
-0.21496654 -0.066022746 0.50400001
-0.21365257 -0.066022746 0.50400001
-0.21233861 -0.066022746 0.50400001
-0.21102464 -0.066022746 0.50400001
-0.20929459 -0.06589175 0.50300002
-0.20756976 -0.065760754 0.50200003
-0.20626101 -0.065760754 0.50200003
-0.20454401 -0.065629758 0.50100005
-0.20323786 -0.065629758 0.50100005
-0.20152865 -0.065498754 0.5
-0.20022511 -0.065498754 0.5
-0.19852376 -0.065367758 0.49900001
-0.19722281 -0.065367758 0.49900001
-0.1959219 -0.065367758 0.49900001
-0.19462097 -0.065367758 0.49900001
-0.19332005 -0.065367758 0.49900001
-0.1058996 -0.042705189 0.32600001
-0.1050497 -0.042705189 0.32600001
-0.10388017 -0.042574193 0.32500002
-0.10303287 -0.042574193 0.32500002
-0.10187115 -0.042443193 0.324
-0.10102647 -0.042443193 0.324
-0.099872574 -0.042312197 0.32300001
-0.099030495 -0.042312197 0.32300001
-0.098188408 -0.042312197 0.32300001
-0.097346336 -0.042312197 0.32300001
-0.09620548 -0.042181201 0.32200003
-0.095366009 -0.042181201 0.32200003
-0.094526529 -0.042181201 0.32200003
-0.093687057 -0.042181201 0.32200003
-0.092847578 -0.042181201 0.32200003
-0.092008114 -0.042181201 0.32200003
-0.090885498 -0.042050201 0.32100001
-0.090048626 -0.042050201 0.32100001
-0.089211762 -0.042050201 0.32100001
-0.08837489 -0.042050201 0.32100001
-0.087538026 -0.042050201 0.32100001
-0.086431064 -0.041919205 0.32000002
-0.085596807 -0.041919205 0.32000002
-0.084762543 -0.041919205 0.32000002
-0.083928287 -0.041919205 0.32000002
-0.083094023 -0.041919205 0.32000002
-0.082259767 -0.041919205 0.32000002
-0.081425503 -0.041919205 0.32000002
-0.080591246 -0.041919205 0.32000002
-0.079756983 -0.041919205 0.32000002
-0.078922719 -0.041919205 0.32000002
-0.078088462 -0.041919205 0.32000002
-0.077254198 -0.041919205 0.32000002
-0.076419942 -0.041919205 0.32000002
-0.075585678 -0.041919205 0.32000002
-0.074751422 -0.041919205 0.32000002
-0.073917158 -0.041919205 0.32000002
-0.073082894 -0.041919205 0.32000002
-0.072248638 -0.041919205 0.32000002
-0.071414374 -0.041919205 0.32000002
-0.070580117 -0.041919205 0.32000002
-0.069745854 -0.041919205 0.32000002
-0.068911597 -0.041919205 0.32000002
-0.068077333 -0.041919205 0.32000002
-0.067032941 -0.041788206 0.31900001
-0.066201285 -0.041788206 0.31900001
-0.065369628 -0.041788206 0.31900001
-0.06453798 -0.041788206 0.31900001
-0.063706324 -0.041788206 0.31900001
-0.062874667 -0.041788206 0.31900001
-0.061848525 -0.041657209 0.31800002
-0.06101948 -0.041657209 0.31800002
-0.060190432 -0.041657209 0.31800002
-0.059361387 -0.041657209 0.31800002
-0.058716401 -0.041788206 0.31900001
-0.057884749 -0.041788206 0.31900001
-0.057053097 -0.041788206 0.31900001
-0.056397691 -0.041919205 0.32000002
-0.055563431 -0.041919205 0.32000002
-0.054900195 -0.042050201 0.32100001
-0.054063328 -0.042050201 0.32100001
-0.05339228 -0.042181201 0.32200003
-0.052716006 -0.042312197 0.32300001
-0.051873926 -0.042312197 0.32300001
-0.051189836 -0.042443193 0.324
-0.050500534 -0.042574193 0.32500002
-0.04965324 -0.042574193 0.32500002
-0.048805945 -0.042574193 0.32500002
-0.048106212 -0.042705189 0.32600001
-0.047401272 -0.042836189 0.32700002
-0.044056036 -0.046504118 0.35500002
-0.043252021 -0.046635114 0.35600001
-0.042442791 -0.046766113 0.35700002
-0.041744631 -0.047028109 0.35900003
-0.04092237 -0.047159106 0.36000001
-0.040205959 -0.047421101 0.36200002
-0.03958758 -0.047814094 0.36500001
-0.038847703 -0.048076086 0.36700001
-0.0380974 -0.048338082 0.36900002
-0.03733667 -0.048600078 0.37100002
-0.036565512 -0.048862074 0.37300003
-0.035783928 -0.04912407 0.37500003
-0.035084728 -0.049517062 0.37800002
-0.034279678 -0.049779058 0.38000003
-0.033464197 -0.050041053 0.38200003
-0.032638285 -0.050303046 0.384
-0.031801954 -0.050565038 0.38600001
-0.03095519 -0.050827034 0.38800001
-0.030175174 -0.05122003 0.39100003
-0.029379513 -0.051613022 0.39400002
-0.028496251 -0.051875018 0.39600003
-0.027671911 -0.05226801 0.39900002
-0.026765184 -0.052530006 0.40100002
-0.025912169 -0.052922994 0.40400001
-0.025043512 -0.053315986 0.40700001
-0.024159214 -0.053708982 0.41000003
-0.023259269 -0.054101974 0.41300002
-0.022289975 -0.05436397 0.41500002
-0.021361353 -0.054756962 0.41800001
-0.020368593 -0.055018958 0.42000002
-0.019365406 -0.05528095 0.42200002
-0.018395074 -0.055673942 0.42500001
-0.017368421 -0.055935938 0.42700002
-0.01636941 -0.05632893 0.43000001
-0.015354758 -0.056721926 0.43300003
-0.014291609 -0.056983922 0.43500003
-0.013218028 -0.057245914 0.43700001
-0.012134022 -0.057507906 0.43900001
-0.011014555 -0.057638906 0.44000003
-0.0098898727 -0.057769902 0.44100001
-0.0087599764 -0.057900902 0.44200003
-0.007624866 -0.058031898 0.44300002
-0.0064699366 -0.058031898 0.44300002
-0.0053150076 -0.058031898 0.44300002
-0.0041506877 -0.057900902 0.44200003
-0.0029983658 -0.057900902 0.44200003
-0.0018460435 -0.057900902 0.44200003
-0.00069372129 -0.057900902 0.44200003
0.0004586009 -0.057900902 0.44200003
0.0016072785 -0.057769902 0.44100001
0.0027569935 -0.057769902 0.44100001
0.0039067087 -0.057769902 0.44100001
0.0050564236 -0.057769902 0.44100001
0.0062061385 -0.057769902 0.44100001
0.0073391744 -0.057638906 0.44000003
0.0084862821 -0.057638906 0.44000003
0.0096114958 -0.057507906 0.43900001
0.010755997 -0.057507906 0.43900001
0.011900498 -0.057507906 0.43900001
0.013044999 -0.057507906 0.43900001
0.014157177 -0.057376914 0.43800002
0.015299071 -0.057376914 0.43800002
0.016440965 -0.057376914 0.43800002
0.01758286 -0.057376914 0.43800002
0.018682001 -0.057245914 0.43700001
0.01982129 -0.057245914 0.43700001
0.020960575 -0.057245914 0.43700001
0.022049291 -0.057114918 0.43600002
0.023185972 -0.057114918 0.43600002
0.024322651 -0.057114918 0.43600002
0.025400938 -0.056983922 0.43500003
0.026535012 -0.056983922 0.43500003
0.027669083 -0.056983922 0.43500003
0.028736943 -0.056852922 0.43400002
0.029868407 -0.056852922 0.43400002
0.030928446 -0.056721926 0.43300003
0.032057304 -0.056721926 0.43300003
0.033186164 -0.056721926 0.43300003
0.034235768 -0.056590926 0.43200001
0.035362024 -0.056590926 0.43200001
0.036403812 -0.05645993 0.43100002
0.037527457 -0.05645993 0.43100002
0.038651101 -0.05645993 0.43100002
0.039682459 -0.05632893 0.43000001
0.040803496 -0.05632893 0.43000001
0.041924533 -0.05632893 0.43000001
0.043045573 -0.05632893 0.43000001
0.044063896 -0.056197934 0.42900002
0.045182325 -0.056197934 0.42900002
0.046300758 -0.056197934 0.42900002
0.047308654 -0.056066938 0.42800003
0.048424475 -0.056066938 0.42800003
0.049540304 -0.056066938 0.42800003
0.050656125 -0.056066938 0.42800003
0.051771946 -0.056066938 0.42800003
0.052887771 -0.056066938 0.42800003
0.054003593 -0.056066938 0.42800003
0.055119418 -0.056066938 0.42800003
0.056103848 -0.055935938 0.42700002
0.057217062 -0.055935938 0.42700002
0.058330279 -0.055935938 0.42700002
0.059443492 -0.055935938 0.42700002
0.060414899 -0.055804942 0.42600003
0.061525505 -0.055804942 0.42600003
0.062636115 -0.055804942 0.42600003
0.063597083 -0.055673942 0.42500001
0.064705081 -0.055673942 0.42500001
0.065813087 -0.055673942 0.42500001
0.066763625 -0.055542946 0.42400002
0.067869022 -0.055542946 0.42400002
0.068811737 -0.055411946 0.42300001
0.069914527 -0.055411946 0.42300001
0.07101731 -0.055411946 0.42300001
0.0721201 -0.055411946 0.42300001
0.073049784 -0.05528095 0.42200002
0.074149974 -0.05528095 0.42200002
0.075250156 -0.05528095 0.42200002
0.076169409 -0.055149954 0.42100003
0.077266984 -0.055149954 0.42100003
0.078364559 -0.055149954 0.42100003
0.07927338 -0.055018958 0.42000002
0.080368347 -0.055018958 0.42000002
0.081463315 -0.055018958 0.42000002
0.082361713 -0.054887962 0.41900003
0.083454072 -0.054887962 0.41900003
0.084344648 -0.054756962 0.41800001
0.0854344 -0.054756962 0.41800001
0.086524151 -0.054756962 0.41800001
0.08761391 -0.054756962 0.41800001
0.088703662 -0.054756962 0.41800001
0.089793414 -0.054756962 0.41800001
0.090883166 -0.054756962 0.41800001
0.091972917 -0.054756962 0.41800001
0.092840038 -0.054625966 0.41700003
0.093927182 -0.054625966 0.41700003
0.095014326 -0.054625966 0.41700003
0.09610147 -0.054625966 0.41700003
0.097188622 -0.054625966 0.41700003
0.098040089 -0.054494966 0.41600001
0.099124625 -0.054494966 0.41600001
0.10020916 -0.054494966 0.41600001
0.10105021 -0.05436397 0.41500002
0.10213215 -0.05436397 0.41500002
0.10321408 -0.05436397 0.41500002
0.10404469 -0.054232974 0.41400003
0.10512402 -0.054232974 0.41400003
0.10620334 -0.054232974 0.41400003
0.10702352 -0.054101974 0.41300002
0.10810025 -0.054101974 0.41300002
0.10917696 -0.054101974 0.41300002
0.11025368 -0.054101974 0.41300002
0.11106083 -0.053970978 0.41200003
0.11213495 -0.053970978 0.41200003
0.11293427 -0.053839978 0.41100001
0.11400577 -0.053839978 0.41100001
0.11507727 -0.053839978 0.41100001
0.11586618 -0.053708982 0.41000003
0.11693507 -0.053708982 0.41000003
0.11771616 -0.053577982 0.40900001
0.11878244 -0.053577982 0.40900001
0.11955571 -0.053446986 0.40800002
0.12061939 -0.053446986 0.40800002
0.12168307 -0.053446986 0.40800002
0.1224459 -0.053315986 0.40700001
0.12350697 -0.053315986 0.40700001
0.12456805 -0.053315986 0.40700001
0.12562913 -0.053315986 0.40700001
0.12637892 -0.05318499 0.40600002
0.12743738 -0.05318499 0.40600002
0.12817937 -0.053053994 0.40500003
0.12923522 -0.053053994 0.40500003
0.13029109 -0.053053994 0.40500003
0.13134696 -0.053053994 0.40500003
0.13240282 -0.053053994 0.40500003
0.13345869 -0.053053994 0.40500003
0.13451454 -0.053053994 0.40500003
0.13523565 -0.052922994 0.40400001
0.1362889 -0.052922994 0.40400001
0.13734217 -0.052922994 0.40400001
0.13839541 -0.052922994 0.40400001
0.13944867 -0.052922994 0.40400001
0.14015414 -0.052791998 0.40300003
0.14120479 -0.052791998 0.40300003
0.14225544 -0.052791998 0.40300003
0.14330609 -0.052791998 0.40300003
0.14399852 -0.052661002 0.40200001
0.14504656 -0.052661002 0.40200001
0.14609461 -0.052661002 0.40200001
0.14677662 -0.052530006 0.40100002
0.14782205 -0.052530006 0.40100002
0.14886749 -0.052530006 0.40100002
0.14953907 -0.052399006 0.40000001
0.15058188 -0.052399006 0.40000001
0.15162472 -0.052399006 0.40000001
0.15266754 -0.052399006 0.40000001
0.15371037 -0.052399006 0.40000001
0.15475319 -0.052399006 0.40000001
0.15579602 -0.052399006 0.40000001
0.15683883 -0.052399006 0.40000001
0.15748698 -0.05226801 0.39900002
0.1585272 -0.05226801 0.39900002
0.1595674 -0.05226801 0.39900002
0.16020511 -0.052137014 0.39800003
0.16124271 -0.052137014 0.39800003
0.16187258 -0.052006014 0.39700001
0.16290759 -0.052006014 0.39700001
0.16394259 -0.052006014 0.39700001
0.16456203 -0.051875018 0.39600003
0.16559444 -0.051875018 0.39600003
0.16662683 -0.051875018 0.39600003
0.16765922 -0.051875018 0.39600003
0.16869162 -0.051875018 0.39600003
0.16929542 -0.051744018 0.39500001
0.17032522 -0.051744018 0.39500001
0.17135499 -0.051744018 0.39500001
0.1723848 -0.051744018 0.39500001
0.17341457 -0.051744018 0.39500001
0.17400275 -0.051613022 0.39400002
0.17502993 -0.051613022 0.39400002
0.17605712 -0.051613022 0.39400002
0.1770843 -0.051613022 0.39400002
0.17811148 -0.051613022 0.39400002
0.17868398 -0.051482022 0.39300001
0.17970857 -0.051482022 0.39300001
0.18073313 -0.051482022 0.39300001
0.18175772 -0.051482022 0.39300001
0.18278229 -0.051482022 0.39300001
-0.29540604 -0.067790158 0.528
-0.29347262 -0.06766177 0.52700001
-0.2920987 -0.06766177 0.52700001
-0.29017314 -0.067533381 0.52600002
-0.28825277 -0.067404985 0.52500004
-0.28688407 -0.067404985 0.52500004
-0.28551537 -0.067404985 0.52500004
-0.28360543 -0.067276597 0.52400005
-0.28170067 -0.067148201 0.523
-0.28033718 -0.067148201 0.523
-0.2784403 -0.067019813 0.52200001
-0.2770794 -0.067019813 0.52200001
-0.27519029 -0.066891424 0.52100003
-0.27383202 -0.066891424 0.52100003
-0.27247375 -0.066891424 0.52100003
-0.27059513 -0.066763036 0.52000004
-0.26923943 -0.066763036 0.52000004
-0.26736861 -0.066634648 0.51900005
-0.26601556 -0.066634648 0.51900005
-0.26466244 -0.066634648 0.51900005
-0.26280203 -0.066506252 0.51800001
-0.2614516 -0.066506252 0.51800001
-0.26010114 -0.066506252 0.51800001
-0.25825116 -0.066377863 0.51700002
-0.2564064 -0.066249475 0.51600003
-0.25506115 -0.066249475 0.51600003
-0.25322422 -0.066121086 0.51500005
-0.2518816 -0.066121086 0.51500005
-0.25005242 -0.065992691 0.514
-0.24871239 -0.065992691 0.514
-0.24689111 -0.065864302 0.51300001
-0.24555369 -0.065864302 0.51300001
-0.24374022 -0.065735914 0.51200002
-0.24240538 -0.065735914 0.51200002
-0.24059975 -0.065607525 0.51100004
-0.23926753 -0.065607525 0.51100004
-0.23793533 -0.065607525 0.51100004
-0.2361401 -0.065479137 0.51000005
-0.2348105 -0.065479137 0.51000005
-0.23302306 -0.065350741 0.509
-0.23169608 -0.065350741 0.509
-0.23036908 -0.065350741 0.509
-0.2285921 -0.065222345 0.50800002
-0.22682035 -0.065093957 0.50700003
-0.22549856 -0.065093957 0.50700003
-0.22417678 -0.065093957 0.50700003
-0.22241545 -0.064965568 0.50600004
-0.22109628 -0.064965568 0.50600004
-0.21977709 -0.064965568 0.50600004
-0.21845794 -0.064965568 0.50600004
-0.2167096 -0.064837173 0.505
-0.21539305 -0.064837173 0.505
-0.21365257 -0.064708784 0.50400001
-0.21233861 -0.064708784 0.50400001
-0.21102464 -0.064708784 0.50400001
-0.20929459 -0.064580396 0.50300002
-0.20798324 -0.064580396 0.50300002
-0.20626101 -0.064452007 0.50200003
-0.20495227 -0.064452007 0.50200003
-0.20323786 -0.064323619 0.50100005
-0.20193173 -0.064323619 0.50100005
-0.20022511 -0.064195223 0.5
-0.19852376 -0.064066835 0.49900001
-0.19761805 -0.064195223 0.5
-0.1959219 -0.064066835 0.49900001
-0.19462097 -0.064066835 0.49900001
-0.19332005 -0.064066835 0.49900001
-0.1058996 -0.041855287 0.32600001
-0.1050497 -0.041855287 0.32600001
-0.1041998 -0.041855287 0.32600001
-0.10303287 -0.041726898 0.32500002
-0.10187115 -0.041598506 0.324
-0.10102647 -0.041598506 0.324
-0.099872574 -0.041470114 0.32300001
-0.099030495 -0.041470114 0.32300001
-0.098188408 -0.041470114 0.32300001
-0.097346336 -0.041470114 0.32300001
-0.09620548 -0.041341726 0.32200003
-0.095366009 -0.041341726 0.32200003
-0.094526529 -0.041341726 0.32200003
-0.093687057 -0.041341726 0.32200003
-0.092847578 -0.041341726 0.32200003
-0.092008114 -0.041341726 0.32200003
-0.090885498 -0.041213334 0.32100001
-0.090048626 -0.041213334 0.32100001
-0.089211762 -0.041213334 0.32100001
-0.08837489 -0.041213334 0.32100001
-0.087538026 -0.041213334 0.32100001
-0.086701155 -0.041213334 0.32100001
-0.085596807 -0.041084945 0.32000002
-0.084762543 -0.041084945 0.32000002
-0.083928287 -0.041084945 0.32000002
-0.083094023 -0.041084945 0.32000002
-0.082259767 -0.041084945 0.32000002
-0.081425503 -0.041084945 0.32000002
-0.080591246 -0.041084945 0.32000002
-0.079756983 -0.041084945 0.32000002
-0.078922719 -0.041084945 0.32000002
-0.078088462 -0.041084945 0.32000002
-0.077254198 -0.041084945 0.32000002
-0.076419942 -0.041084945 0.32000002
-0.075585678 -0.041084945 0.32000002
-0.074751422 -0.041084945 0.32000002
-0.073917158 -0.041084945 0.32000002
-0.073082894 -0.041084945 0.32000002
-0.072248638 -0.041084945 0.32000002
-0.071414374 -0.041084945 0.32000002
-0.070580117 -0.041084945 0.32000002
-0.069745854 -0.041084945 0.32000002
-0.068911597 -0.041084945 0.32000002
-0.068077333 -0.041084945 0.32000002
-0.067032941 -0.040956553 0.31900001
-0.066201285 -0.040956553 0.31900001
-0.065369628 -0.040956553 0.31900001
-0.06453798 -0.040956553 0.31900001
-0.063706324 -0.040956553 0.31900001
-0.06267757 -0.040828165 0.31800002
-0.061848525 -0.040828165 0.31800002
-0.06101948 -0.040828165 0.31800002
-0.060190432 -0.040828165 0.31800002
-0.059361387 -0.040828165 0.31800002
-0.058532342 -0.040828165 0.31800002
-0.057884749 -0.040956553 0.31900001
-0.057053097 -0.040956553 0.31900001
-0.056397691 -0.041084945 0.32000002
-0.055563431 -0.041084945 0.32000002
-0.054900195 -0.041213334 0.32100001
-0.054063328 -0.041213334 0.32100001
-0.05339228 -0.041341726 0.32200003
-0.052716006 -0.041470114 0.32300001
-0.051873926 -0.041470114 0.32300001
-0.051189836 -0.041598506 0.324
-0.050500534 -0.041726898 0.32500002
-0.04965324 -0.041726898 0.32500002
-0.048956115 -0.041855287 0.32600001
-0.048106212 -0.041855287 0.32600001
-0.047401272 -0.041983679 0.32700002
-0.046548761 -0.041983679 0.32700002
-0.045835994 -0.042112067 0.32800001
-0.044056036 -0.04557861 0.35500002
-0.043252021 -0.045706999 0.35600001
-0.042442791 -0.045835391 0.35700002
-0.04162835 -0.045963783 0.35800001
-0.04092237 -0.046220563 0.36000001
-0.040205959 -0.046477344 0.36200002
-0.039479122 -0.046734124 0.36400002
-0.038847703 -0.047119297 0.36700001
-0.0380974 -0.047376078 0.36900002
-0.03733667 -0.047632858 0.37100002
-0.036565512 -0.047889639 0.37300003
-0.035783928 -0.048146423 0.37500003
-0.035084728 -0.048531592 0.37800002
-0.034279678 -0.048788372 0.38000003
-0.033464197 -0.049045153 0.38200003
-0.032638285 -0.049301933 0.384
-0.031801954 -0.049558714 0.38600001
-0.031034973 -0.049943887 0.38900003
-0.030175174 -0.050200667 0.39100003
-0.029379513 -0.05058584 0.39400002
-0.02856821 -0.050971009 0.39700001
-0.027671911 -0.051227789 0.39900002
-0.026831931 -0.051612962 0.40200001
-0.02597631 -0.051998135 0.40500003
-0.025043512 -0.052254912 0.40700001
-0.024159214 -0.052640088 0.41000003
-0.023259269 -0.053025257 0.41300002
-0.022343684 -0.053410426 0.41600001
-0.021361353 -0.053667206 0.41800001
-0.020417091 -0.054052383 0.42100003
-0.019411296 -0.05430916 0.42300001
-0.018395074 -0.05456594 0.42500001
-0.017409097 -0.054951116 0.42800003
-0.016407479 -0.055336285 0.43100002
-0.015354758 -0.055593066 0.43300003
-0.014291609 -0.055849846 0.43500003
-0.013248276 -0.056235019 0.43800002
-0.012134022 -0.056363408 0.43900001
-0.011039588 -0.056620188 0.44100001
-0.009912299 -0.05674858 0.44200003
-0.0087599764 -0.05674858 0.44200003
-0.007624866 -0.056876969 0.44300002
-0.0064699366 -0.056876969 0.44300002
-0.0053150076 -0.056876969 0.44300002
-0.0041600787 -0.056876969 0.44300002
-0.0030051493 -0.056876969 0.44300002
-0.0018460435 -0.05674858 0.44200003
-0.00069372129 -0.05674858 0.44200003
0.0004586009 -0.05674858 0.44200003
0.0016109231 -0.05674858 0.44200003
0.0027569935 -0.056620188 0.44100001
0.0039067087 -0.056620188 0.44100001
0.0050564236 -0.056620188 0.44100001
0.0062061385 -0.056620188 0.44100001
0.0073391744 -0.0564918 0.44000003
0.0084862821 -0.0564918 0.44000003
0.0096333902 -0.0564918 0.44000003
0.010755997 -0.056363408 0.43900001
0.011900498 -0.056363408 0.43900001
0.013044999 -0.056363408 0.43900001
0.014157177 -0.056235019 0.43800002
0.015299071 -0.056235019 0.43800002
0.016440965 -0.056235019 0.43800002
0.01758286 -0.056235019 0.43800002
0.018682001 -0.056106627 0.43700001
0.01982129 -0.056106627 0.43700001
0.020960575 -0.056106627 0.43700001
0.022049291 -0.055978239 0.43600002
0.023185972 -0.055978239 0.43600002
0.024322651 -0.055978239 0.43600002
0.025459331 -0.055978239 0.43600002
0.026535012 -0.055849846 0.43500003
0.027669083 -0.055849846 0.43500003
0.028736943 -0.055721454 0.43400002
0.029868407 -0.055721454 0.43400002
0.030999873 -0.055721454 0.43400002
0.032057304 -0.055593066 0.43300003
0.033186164 -0.055593066 0.43300003
0.034235768 -0.055464674 0.43200001
0.035362024 -0.055464674 0.43200001
0.036403812 -0.055336285 0.43100002
0.037527457 -0.055336285 0.43100002
0.038651101 -0.055336285 0.43100002
0.039682459 -0.055207893 0.43000001
0.040803496 -0.055207893 0.43000001
0.041924533 -0.055207893 0.43000001
0.043045573 -0.055207893 0.43000001
0.044063896 -0.055079505 0.42900002
0.045182325 -0.055079505 0.42900002
0.046300758 -0.055079505 0.42900002
0.047419187 -0.055079505 0.42900002
0.048424475 -0.054951116 0.42800003
0.049540304 -0.054951116 0.42800003
0.050656125 -0.054951116 0.42800003
0.051771946 -0.054951116 0.42800003
0.052887771 -0.054951116 0.42800003
0.054003593 -0.054951116 0.42800003
0.055119418 -0.054951116 0.42800003
0.056103848 -0.054822724 0.42700002
0.057217062 -0.054822724 0.42700002
0.058330279 -0.054822724 0.42700002
0.059443492 -0.054822724 0.42700002
0.060556717 -0.054822724 0.42700002
0.061525505 -0.054694332 0.42600003
0.062636115 -0.054694332 0.42600003
0.063597083 -0.05456594 0.42500001
0.064705081 -0.05456594 0.42500001
0.065813087 -0.05456594 0.42500001
0.066763625 -0.054437552 0.42400002
0.067869022 -0.054437552 0.42400002
0.068974413 -0.054437552 0.42400002
0.069914527 -0.05430916 0.42300001
0.07101731 -0.05430916 0.42300001
0.0721201 -0.05430916 0.42300001
0.073049784 -0.054180771 0.42200002
0.074149974 -0.054180771 0.42200002
0.075250156 -0.054180771 0.42200002
0.076350331 -0.054180771 0.42200002
0.077266984 -0.054052383 0.42100003
0.078364559 -0.054052383 0.42100003
0.07927338 -0.053923991 0.42000002
0.080368347 -0.053923991 0.42000002
0.081463315 -0.053923991 0.42000002
0.082361713 -0.053795602 0.41900003
0.083454072 -0.053795602 0.41900003
0.084344648 -0.053667206 0.41800001
0.0854344 -0.053667206 0.41800001
0.086524151 -0.053667206 0.41800001
0.08761391 -0.053667206 0.41800001
0.088703662 -0.053667206 0.41800001
0.089793414 -0.053667206 0.41800001
0.090883166 -0.053667206 0.41800001
0.091972917 -0.053667206 0.41800001
0.093062669 -0.053667206 0.41800001
0.094152428 -0.053667206 0.41800001
0.09524218 -0.053667206 0.41800001
0.09610147 -0.053538818 0.41700003
0.097188622 -0.053538818 0.41700003
0.098275766 -0.053538818 0.41700003
0.099124625 -0.053410426 0.41600001
0.10020916 -0.053410426 0.41600001
0.10129371 -0.053410426 0.41600001
0.10213215 -0.053282037 0.41500002
0.10321408 -0.053282037 0.41500002
0.104296 -0.053282037 0.41500002
0.10512402 -0.053153649 0.41400003
0.10620334 -0.053153649 0.41400003
0.10702352 -0.053025257 0.41300002
0.10810025 -0.053025257 0.41300002
0.10917696 -0.053025257 0.41300002
0.11025368 -0.053025257 0.41300002
0.11106083 -0.052896868 0.41200003
0.11213495 -0.052896868 0.41200003
0.11320905 -0.052896868 0.41200003
0.11400577 -0.052768476 0.41100001
0.11507727 -0.052768476 0.41100001
0.11614878 -0.052768476 0.41100001
0.11693507 -0.052640088 0.41000003
0.11800398 -0.052640088 0.41000003
0.11878244 -0.052511692 0.40900001
0.11984874 -0.052511692 0.40900001
0.12061939 -0.052383304 0.40800002
0.12168307 -0.052383304 0.40800002
0.12274676 -0.052383304 0.40800002
0.12350697 -0.052254912 0.40700001
0.12456805 -0.052254912 0.40700001
0.12562913 -0.052254912 0.40700001
0.12637892 -0.052126523 0.40600002
0.12743738 -0.052126523 0.40600002
0.12849586 -0.052126523 0.40600002
0.12955433 -0.052126523 0.40600002
0.13029109 -0.051998135 0.40500003
0.13134696 -0.051998135 0.40500003
0.13240282 -0.051998135 0.40500003
0.13345869 -0.051998135 0.40500003
0.13451454 -0.051998135 0.40500003
0.13557041 -0.051998135 0.40500003
0.13662626 -0.051998135 0.40500003
0.13768212 -0.051998135 0.40500003
0.13839541 -0.051869743 0.40400001
0.13944867 -0.051869743 0.40400001
0.14050192 -0.051869743 0.40400001
0.14155518 -0.051869743 0.40400001
0.14225544 -0.051741354 0.40300003
0.14330609 -0.051741354 0.40300003
0.14435673 -0.051741354 0.40300003
0.14504656 -0.051612962 0.40200001
0.14609461 -0.051612962 0.40200001
0.14677662 -0.051484574 0.40100002
0.14782205 -0.051484574 0.40100002
0.14886749 -0.051484574 0.40100002
0.14991292 -0.051484574 0.40100002
0.15058188 -0.051356178 0.40000001
0.15162472 -0.051356178 0.40000001
0.15266754 -0.051356178 0.40000001
0.15371037 -0.051356178 0.40000001
0.15475319 -0.051356178 0.40000001
0.15579602 -0.051356178 0.40000001
0.15683883 -0.051356178 0.40000001
0.15788166 -0.051356178 0.40000001
0.1585272 -0.051227789 0.39900002
0.1595674 -0.051227789 0.39900002
0.16060762 -0.051227789 0.39900002
0.16124271 -0.051099401 0.39800003
0.16228034 -0.051099401 0.39800003
0.16290759 -0.050971009 0.39700001
0.16394259 -0.050971009 0.39700001
0.1649776 -0.050971009 0.39700001
0.16559444 -0.05084262 0.39600003
0.16662683 -0.05084262 0.39600003
0.16765922 -0.05084262 0.39600003
0.16869162 -0.05084262 0.39600003
0.16972402 -0.05084262 0.39600003
0.17075643 -0.05084262 0.39600003
0.17135499 -0.050714228 0.39500001
0.1723848 -0.050714228 0.39500001
0.17341457 -0.050714228 0.39500001
0.17444438 -0.050714228 0.39500001
0.17547415 -0.050714228 0.39500001
0.17605712 -0.05058584 0.39400002
0.1770843 -0.05058584 0.39400002
0.17811148 -0.05058584 0.39400002
0.17913866 -0.05058584 0.39400002
0.18016584 -0.05058584 0.39400002
0.18119302 -0.05058584 0.39400002
0.18175772 -0.050457448 0.39300001
0.18278229 -0.050457448 0.39300001
-0.29540604 -0.066413626 0.528
-0.2940295 -0.066413626 0.528
-0.2920987 -0.066287845 0.52700001
-0.29017314 -0.066162065 0.52600002
-0.28880179 -0.066162065 0.52600002
-0.28688407 -0.066036284 0.52500004
-0.28551537 -0.066036284 0.52500004
-0.28360543 -0.065910496 0.52400005
-0.28223932 -0.065910496 0.52400005
-0.28033718 -0.065784708 0.523
-0.2789737 -0.065784708 0.523
-0.2770794 -0.065658927 0.52200001
-0.27519029 -0.065533146 0.52100003
-0.27383202 -0.065533146 0.52100003
-0.27247375 -0.065533146 0.52100003
-0.27059513 -0.065407366 0.52000004
-0.26923943 -0.065407366 0.52000004
-0.26788375 -0.065407366 0.52000004
-0.26601556 -0.065281585 0.51900005
-0.26466244 -0.065281585 0.51900005
-0.26280203 -0.065155797 0.51800001
-0.2614516 -0.065155797 0.51800001
-0.26010114 -0.065155797 0.51800001
-0.25825116 -0.065030009 0.51700002
-0.25690329 -0.065030009 0.51700002
-0.25506115 -0.064904228 0.51600003
-0.2537159 -0.064904228 0.51600003
-0.2518816 -0.064778447 0.51500005
-0.25053895 -0.064778447 0.51500005
-0.24871239 -0.064652659 0.514
-0.24737237 -0.064652659 0.514
-0.24555369 -0.064526878 0.51300001
-0.24421626 -0.064526878 0.51300001
-0.24240538 -0.064401098 0.51200002
-0.24107058 -0.064401098 0.51200002
-0.23926753 -0.064275317 0.51100004
-0.23793533 -0.064275317 0.51100004
-0.2361401 -0.064149529 0.51000005
-0.2348105 -0.064149529 0.51000005
-0.23302306 -0.064023741 0.509
-0.23169608 -0.064023741 0.509
-0.23036908 -0.064023741 0.509
-0.22904208 -0.064023741 0.509
-0.22726771 -0.06389796 0.50800002
-0.22549856 -0.063772179 0.50700003
-0.22417678 -0.063772179 0.50700003
-0.222855 -0.063772179 0.50700003
-0.22109628 -0.063646398 0.50600004
-0.21977709 -0.063646398 0.50600004
-0.21845794 -0.063646398 0.50600004
-0.21713875 -0.063646398 0.50600004
-0.21539305 -0.06352061 0.505
-0.21407647 -0.06352061 0.505
-0.21233861 -0.06339483 0.50400001
-0.21102464 -0.06339483 0.50400001
-0.20971067 -0.06339483 0.50400001
-0.20798324 -0.063269041 0.50300002
-0.20626101 -0.063143261 0.50200003
-0.20495227 -0.063143261 0.50200003
-0.20323786 -0.06301748 0.50100005
-0.20193173 -0.06301748 0.50100005
-0.20022511 -0.062891692 0.5
-0.19892159 -0.062891692 0.5
-0.19722281 -0.062765911 0.49900001
-0.1959219 -0.062765911 0.49900001
-0.19462097 -0.062765911 0.49900001
-0.10707696 -0.041131169 0.32700002
-0.10622445 -0.041131169 0.32700002
-0.10537194 -0.041131169 0.32700002
-0.1041998 -0.041005384 0.32600001
-0.10334989 -0.041005384 0.32600001
-0.10218557 -0.040879603 0.32500002
-0.10102647 -0.040753815 0.324
-0.099872574 -0.040628035 0.32300001
-0.099030495 -0.040628035 0.32300001
-0.098188408 -0.040628035 0.32300001
-0.09704496 -0.040502254 0.32200003
-0.09620548 -0.040502254 0.32200003
-0.095366009 -0.040502254 0.32200003
-0.094526529 -0.040502254 0.32200003
-0.093687057 -0.040502254 0.32200003
-0.092847578 -0.040502254 0.32200003
-0.092008114 -0.040502254 0.32200003
-0.091168635 -0.040502254 0.32200003
-0.090048626 -0.040376466 0.32100001
-0.089211762 -0.040376466 0.32100001
-0.08837489 -0.040376466 0.32100001
-0.087538026 -0.040376466 0.32100001
-0.086701155 -0.040376466 0.32100001
-0.085596807 -0.040250685 0.32000002
-0.084762543 -0.040250685 0.32000002
-0.083928287 -0.040250685 0.32000002
-0.083094023 -0.040250685 0.32000002
-0.082259767 -0.040250685 0.32000002
-0.081425503 -0.040250685 0.32000002
-0.080591246 -0.040250685 0.32000002
-0.079756983 -0.040250685 0.32000002
-0.078922719 -0.040250685 0.32000002
-0.078088462 -0.040250685 0.32000002
-0.077254198 -0.040250685 0.32000002
-0.076419942 -0.040250685 0.32000002
-0.075585678 -0.040250685 0.32000002
-0.074751422 -0.040250685 0.32000002
-0.073917158 -0.040250685 0.32000002
-0.073082894 -0.040250685 0.32000002
-0.072248638 -0.040250685 0.32000002
-0.071414374 -0.040250685 0.32000002
-0.070580117 -0.040250685 0.32000002
-0.069745854 -0.040250685 0.32000002
-0.068696246 -0.040124901 0.31900001
-0.067864589 -0.040124901 0.31900001
-0.067032941 -0.040124901 0.31900001
-0.066201285 -0.040124901 0.31900001
-0.065369628 -0.040124901 0.31900001
-0.06453798 -0.040124901 0.31900001
-0.063506618 -0.03999912 0.31800002
-0.06267757 -0.03999912 0.31800002
-0.061848525 -0.03999912 0.31800002
-0.06101948 -0.03999912 0.31800002
-0.060190432 -0.03999912 0.31800002
-0.059361387 -0.03999912 0.31800002
-0.058716401 -0.040124901 0.31900001
-0.057884749 -0.040124901 0.31900001
-0.057053097 -0.040124901 0.31900001
-0.056397691 -0.040250685 0.32000002
-0.055563431 -0.040250685 0.32000002
-0.054900195 -0.040376466 0.32100001
-0.054063328 -0.040376466 0.32100001
-0.05339228 -0.040502254 0.32200003
-0.052552801 -0.040502254 0.32200003
-0.051873926 -0.040628035 0.32300001
-0.051189836 -0.040753815 0.324
-0.050500534 -0.040879603 0.32500002
-0.04965324 -0.040879603 0.32500002
-0.048956115 -0.041005384 0.32600001
-0.048106212 -0.041005384 0.32600001
-0.047401272 -0.041131169 0.32700002
-0.046548761 -0.041131169 0.32700002
-0.045118015 -0.041382737 0.32900003
-0.044056036 -0.044653103 0.35500002
-0.043252021 -0.044778887 0.35600001
-0.042442791 -0.044904672 0.35700002
-0.04162835 -0.045030452 0.35800001
-0.040808696 -0.045156237 0.35900003
-0.040205959 -0.045533586 0.36200002
-0.039479122 -0.045785155 0.36400002
-0.038847703 -0.046162505 0.36700001
-0.0380974 -0.04641407 0.36900002
-0.03733667 -0.046665639 0.37100002
-0.036565512 -0.046917204 0.37300003
-0.035879347 -0.047294553 0.37600002
-0.035084728 -0.047546122 0.37800002
-0.034279678 -0.047797687 0.38000003
-0.033464197 -0.048049256 0.38200003
-0.032638285 -0.048300821 0.384
-0.031884342 -0.048678171 0.38700002
-0.031034973 -0.04892974 0.38900003
-0.030252347 -0.049307089 0.39200002
-0.02945408 -0.049684439 0.39500001
-0.02856821 -0.049936004 0.39700001
-0.027741263 -0.050313354 0.40000001
-0.026831931 -0.050564922 0.40200001
-0.02597631 -0.050942276 0.40500003
-0.025105044 -0.051319625 0.40800002
-0.024159214 -0.05157119 0.41000003
-0.023259269 -0.05194854 0.41300002
-0.022343684 -0.052325889 0.41600001
-0.021361353 -0.052577455 0.41800001
-0.020417091 -0.052954808 0.42100003
-0.019411296 -0.053206373 0.42300001
-0.018438356 -0.053583726 0.42600003
-0.017449772 -0.053961076 0.42900002
-0.016407479 -0.054212641 0.43100002
-0.015390219 -0.054589991 0.43400002
-0.014324462 -0.054841559 0.43600002
-0.013248276 -0.055093125 0.43800002
-0.012134022 -0.055218905 0.43900001
-0.011039588 -0.055470474 0.44100001
-0.009912299 -0.055596258 0.44200003
-0.0087797958 -0.055722043 0.44300002
-0.007624866 -0.055722043 0.44300002
-0.006484542 -0.055847827 0.44400004
-0.0053150076 -0.055722043 0.44300002
-0.0041600787 -0.055722043 0.44300002
-0.0030051493 -0.055722043 0.44300002
-0.00185022 -0.055722043 0.44300002
-0.0006952908 -0.055722043 0.44300002
0.0004586009 -0.055596258 0.44200003
0.0016109231 -0.055596258 0.44200003
0.0027632453 -0.055596258 0.44200003
0.0039155674 -0.055596258 0.44200003
0.0050564236 -0.055470474 0.44100001
0.0062061385 -0.055470474 0.44100001
0.0073558539 -0.055470474 0.44100001
0.0084862821 -0.055344693 0.44000003
0.0096333902 -0.055344693 0.44000003
0.010755997 -0.055218905 0.43900001
0.011900498 -0.055218905 0.43900001
0.013044999 -0.055218905 0.43900001
0.014189499 -0.055218905 0.43900001
0.015299071 -0.055093125 0.43800002
0.016440965 -0.055093125 0.43800002
0.01758286 -0.055093125 0.43800002
0.018682001 -0.05496734 0.43700001
0.01982129 -0.05496734 0.43700001
0.020960575 -0.05496734 0.43700001
0.022099862 -0.05496734 0.43700001
0.023185972 -0.054841559 0.43600002
0.024322651 -0.054841559 0.43600002
0.025459331 -0.054841559 0.43600002
0.026535012 -0.054715775 0.43500003
0.027669083 -0.054715775 0.43500003
0.028736943 -0.054589991 0.43400002
0.029868407 -0.054589991 0.43400002
0.030999873 -0.054589991 0.43400002
0.032131337 -0.054589991 0.43400002
0.033186164 -0.05446421 0.43300003
0.034235768 -0.054338422 0.43200001
0.035362024 -0.054338422 0.43200001
0.036488276 -0.054338422 0.43200001
0.037527457 -0.054212641 0.43100002
0.038651101 -0.054212641 0.43100002
0.039774746 -0.054212641 0.43100002
0.040803496 -0.054086857 0.43000001
0.041924533 -0.054086857 0.43000001
0.043045573 -0.054086857 0.43000001
0.04416661 -0.054086857 0.43000001
0.045182325 -0.053961076 0.42900002
0.046300758 -0.053961076 0.42900002
0.047419187 -0.053961076 0.42900002
0.048424475 -0.053835291 0.42800003
0.049540304 -0.053835291 0.42800003
0.050656125 -0.053835291 0.42800003
0.051771946 -0.053835291 0.42800003
0.052887771 -0.053835291 0.42800003
0.054003593 -0.053835291 0.42800003
0.055119418 -0.053835291 0.42800003
0.056235239 -0.053835291 0.42800003
0.057217062 -0.053709507 0.42700002
0.058330279 -0.053709507 0.42700002
0.059443492 -0.053709507 0.42700002
0.060556717 -0.053709507 0.42700002
0.061669931 -0.053709507 0.42700002
0.062636115 -0.053583726 0.42600003
0.063746721 -0.053583726 0.42600003
0.064705081 -0.053457938 0.42500001
0.065813087 -0.053457938 0.42500001
0.066921085 -0.053457938 0.42500001
0.067869022 -0.053332157 0.42400002
0.068974413 -0.053332157 0.42400002
0.070079811 -0.053332157 0.42400002
0.07101731 -0.053206373 0.42300001
0.0721201 -0.053206373 0.42300001
0.07322289 -0.053206373 0.42300001
0.074149974 -0.053080592 0.42200002
0.075250156 -0.053080592 0.42200002
0.076350331 -0.053080592 0.42200002
0.077266984 -0.052954808 0.42100003
0.078364559 -0.052954808 0.42100003
0.07927338 -0.052829023 0.42000002
0.080368347 -0.052829023 0.42000002
0.081463315 -0.052829023 0.42000002
0.082361713 -0.052703243 0.41900003
0.083454072 -0.052703243 0.41900003
0.084546432 -0.052703243 0.41900003
0.0854344 -0.052577455 0.41800001
0.086524151 -0.052577455 0.41800001
0.08761391 -0.052577455 0.41800001
0.088703662 -0.052577455 0.41800001
0.089793414 -0.052577455 0.41800001
0.090883166 -0.052577455 0.41800001
0.091972917 -0.052577455 0.41800001
0.093062669 -0.052577455 0.41800001
0.094152428 -0.052577455 0.41800001
0.09524218 -0.052577455 0.41800001
0.09610147 -0.052451674 0.41700003
0.097188622 -0.052451674 0.41700003
0.098275766 -0.052451674 0.41700003
0.09936291 -0.052451674 0.41700003
0.10020916 -0.052325889 0.41600001
0.10129371 -0.052325889 0.41600001
0.10213215 -0.052200109 0.41500002
0.10321408 -0.052200109 0.41500002
0.104296 -0.052200109 0.41500002
0.10537794 -0.052200109 0.41500002
0.10620334 -0.052074324 0.41400003
0.10728267 -0.052074324 0.41400003
0.10810025 -0.05194854 0.41300002
0.10917696 -0.05194854 0.41300002
0.11025368 -0.05194854 0.41300002
0.11133039 -0.05194854 0.41300002
0.11213495 -0.051822759 0.41200003
0.11320905 -0.051822759 0.41200003
0.11428317 -0.051822759 0.41200003
0.11507727 -0.051696971 0.41100001
0.11614878 -0.051696971 0.41100001
0.11722028 -0.051696971 0.41100001
0.11800398 -0.05157119 0.41000003
0.11907287 -0.05157119 0.41000003
0.11984874 -0.051445406 0.40900001
0.12091503 -0.051445406 0.40900001
0.12168307 -0.051319625 0.40800002
0.12274676 -0.051319625 0.40800002
0.12381043 -0.051319625 0.40800002
0.12456805 -0.051193837 0.40700001
0.12562913 -0.051193837 0.40700001
0.12669021 -0.051193837 0.40700001
0.12743738 -0.051068056 0.40600002
0.12849586 -0.051068056 0.40600002
0.12955433 -0.051068056 0.40600002
0.13061279 -0.051068056 0.40600002
0.13167126 -0.051068056 0.40600002
0.13240282 -0.050942276 0.40500003
0.13345869 -0.050942276 0.40500003
0.13451454 -0.050942276 0.40500003
0.13557041 -0.050942276 0.40500003
0.13662626 -0.050942276 0.40500003
0.13768212 -0.050942276 0.40500003
0.13873798 -0.050942276 0.40500003
0.13944867 -0.050816488 0.40400001
0.14050192 -0.050816488 0.40400001
0.14155518 -0.050816488 0.40400001
0.14225544 -0.050690707 0.40300003
0.14330609 -0.050690707 0.40300003
0.14435673 -0.050690707 0.40300003
0.14504656 -0.050564922 0.40200001
0.14609461 -0.050564922 0.40200001
0.14677662 -0.050439138 0.40100002
0.14782205 -0.050439138 0.40100002
0.14886749 -0.050439138 0.40100002
0.14991292 -0.050439138 0.40100002
0.15095834 -0.050439138 0.40100002
0.15162472 -0.050313354 0.40000001
0.15266754 -0.050313354 0.40000001
0.15371037 -0.050313354 0.40000001
0.15475319 -0.050313354 0.40000001
0.15579602 -0.050313354 0.40000001
0.15683883 -0.050313354 0.40000001
0.15788166 -0.050313354 0.40000001
0.1585272 -0.050187573 0.39900002
0.1595674 -0.050187573 0.39900002
0.16060762 -0.050187573 0.39900002
0.16124271 -0.050061792 0.39800003
0.16228034 -0.050061792 0.39800003
0.16290759 -0.049936004 0.39700001
0.16394259 -0.049936004 0.39700001
0.1649776 -0.049936004 0.39700001
0.1660126 -0.049936004 0.39700001
0.16662683 -0.049810223 0.39600003
0.16765922 -0.049810223 0.39600003
0.16869162 -0.049810223 0.39600003
0.16972402 -0.049810223 0.39600003
0.17075643 -0.049810223 0.39600003
0.17135499 -0.049684439 0.39500001
0.1723848 -0.049684439 0.39500001
0.17341457 -0.049684439 0.39500001
0.17444438 -0.049684439 0.39500001
0.17547415 -0.049684439 0.39500001
0.17605712 -0.049558654 0.39400002
0.1770843 -0.049558654 0.39400002
0.17811148 -0.049558654 0.39400002
