# .PCD v0.7 - Point Cloud Data file format
VERSION 0.7
FIELDS x y z
SIZE 4 4 4
TYPE F F F
COUNT 1 1 1
WIDTH 1348
HEIGHT 1
VIEWPOINT 0 0 0 1 0 0 0
POINTS 1348
DATA ascii
0.10070371 -0.065832123 0.37
0.10139354 -0.065654196 0.36900002
0.10207817 -0.065476276 0.36800003
0.10303757 -0.065476276 0.36800003
0.099407278 -0.054978717 0.30900002
0.099888548 -0.054800797 0.30800003
0.10069153 -0.054800797 0.30800003
0.10116497 -0.05462287 0.30700001
0.10196534 -0.05462287 0.30700001
0.10243097 -0.054444946 0.30600002
0.10322873 -0.054444946 0.30600002
0.10368653 -0.054267019 0.30500001
0.10448168 -0.054267019 0.30500001
0.10493167 -0.054089095 0.30400002
-0.27806213 -0.087132841 0.49700001
-0.27676639 -0.087132841 0.49700001
-0.2754707 -0.087132841 0.49700001
-0.27417499 -0.087132841 0.49700001
-0.27287927 -0.087132841 0.49700001
-0.27158356 -0.087132841 0.49700001
-0.27028787 -0.087132841 0.49700001
-0.26899216 -0.087132841 0.49700001
-0.26769641 -0.087132841 0.49700001
-0.26640072 -0.087132841 0.49700001
-0.26510501 -0.087132841 0.49700001
-0.26380932 -0.087132841 0.49700001
-0.26251358 -0.087132841 0.49700001
-0.26121789 -0.087132841 0.49700001
-0.25992218 -0.087132841 0.49700001
-0.25862646 -0.087132841 0.49700001
-0.25733075 -0.087132841 0.49700001
-0.25603503 -0.087132841 0.49700001
-0.25473934 -0.087132841 0.49700001
-0.2534436 -0.087132841 0.49700001
-0.25214791 -0.087132841 0.49700001
-0.2508522 -0.087132841 0.49700001
-0.2495565 -0.087132841 0.49700001
-0.24826078 -0.087132841 0.49700001
-0.24696507 -0.087132841 0.49700001
-0.24566936 -0.087132841 0.49700001
-0.24437365 -0.087132841 0.49700001
-0.24307793 -0.087132841 0.49700001
-0.24178222 -0.087132841 0.49700001
-0.2404865 -0.087132841 0.49700001
-0.2391908 -0.087132841 0.49700001
-0.23789509 -0.087132841 0.49700001
-0.23612334 -0.086957529 0.49600002
-0.23483022 -0.086957529 0.49600002
-0.23353712 -0.086957529 0.49600002
-0.23224401 -0.086957529 0.49600002
-0.23095092 -0.086957529 0.49600002
-0.22965781 -0.086957529 0.49600002
-0.22836472 -0.086957529 0.49600002
-0.2270716 -0.086957529 0.49600002
-0.22577851 -0.086957529 0.49600002
-0.2244854 -0.086957529 0.49600002
-0.22319229 -0.086957529 0.49600002
-0.2218992 -0.086957529 0.49600002
-0.22105084 -0.087132841 0.49700001
-0.21975514 -0.087132841 0.49700001
-0.21845943 -0.087132841 0.49700001
-0.21716373 -0.087132841 0.49700001
-0.21586801 -0.087132841 0.49700001
-0.21457231 -0.087132841 0.49700001
-0.21327658 -0.087132841 0.49700001
-0.21155436 -0.086957529 0.49600002
-0.21026126 -0.086957529 0.49600002
-0.20896816 -0.086957529 0.49600002
-0.20767505 -0.086957529 0.49600002
-0.20638195 -0.086957529 0.49600002
-0.20508884 -0.086957529 0.49600002
-0.20379573 -0.086957529 0.49600002
-0.20250264 -0.086957529 0.49600002
-0.20120953 -0.086957529 0.49600002
-0.19991644 -0.086957529 0.49600002
-0.19862333 -0.086957529 0.49600002
-0.19733022 -0.086957529 0.49600002
-0.19643235 -0.087132841 0.49700001
-0.19513665 -0.087132841 0.49700001
-0.19384092 -0.087132841 0.49700001
-0.19254522 -0.087132841 0.49700001
-0.1912495 -0.087132841 0.49700001
-0.18995379 -0.087132841 0.49700001
-0.18865809 -0.087132841 0.49700001
-0.18773936 -0.087308161 0.49800003
-0.18644105 -0.087308161 0.49800003
-0.18477096 -0.087132841 0.49700001
-0.18347524 -0.087132841 0.49700001
-0.18217953 -0.087132841 0.49700001
-0.18088382 -0.087132841 0.49700001
-0.17958811 -0.087132841 0.49700001
-0.17829241 -0.087132841 0.49700001
-0.17699669 -0.087132841 0.49700001
-0.17570099 -0.087132841 0.49700001
-0.17440526 -0.087132841 0.49700001
-0.17310955 -0.087132841 0.49700001
-0.17181385 -0.087132841 0.49700001
-0.17051813 -0.087132841 0.49700001
-0.16922243 -0.087132841 0.49700001
-0.16792671 -0.087132841 0.49700001
-0.16663101 -0.087132841 0.49700001
-0.1653353 -0.087132841 0.49700001
-0.16403958 -0.087132841 0.49700001
-0.16274387 -0.087132841 0.49700001
-0.16144817 -0.087132841 0.49700001
-0.16015245 -0.087132841 0.49700001
-0.15885675 -0.087132841 0.49700001
-0.15756103 -0.087132841 0.49700001
-0.1559509 -0.086957529 0.49600002
-0.15496962 -0.087132841 0.49700001
-0.15367389 -0.087132841 0.49700001
-0.15237819 -0.087132841 0.49700001
-0.15108247 -0.087132841 0.49700001
-0.14978677 -0.087132841 0.49700001
-0.14849105 -0.087132841 0.49700001
-0.14749153 -0.087308161 0.49800003
-0.14619319 -0.087308161 0.49800003
-0.14489488 -0.087308161 0.49800003
-0.14359656 -0.087308161 0.49800003
-0.142584 -0.087483481 0.49900001
-0.14128307 -0.087483481 0.49900001
-0.13998213 -0.087483481 0.49900001
-0.1386812 -0.087483481 0.49900001
-0.13738027 -0.087483481 0.49900001
-0.13607936 -0.087483481 0.49900001
-0.13477843 -0.087483481 0.49900001
-0.13347751 -0.087483481 0.49900001
-0.13217658 -0.087483481 0.49900001
-0.13087566 -0.087483481 0.49900001
-0.12957473 -0.087483481 0.49900001
-0.12827381 -0.087483481 0.49900001
-0.12697288 -0.087483481 0.49900001
-0.12567197 -0.087483481 0.49900001
-0.12437104 -0.087483481 0.49900001
-0.12307011 -0.087483481 0.49900001
-0.12176919 -0.087483481 0.49900001
-0.12046827 -0.087483481 0.49900001
-0.11916734 -0.087483481 0.49900001
-0.11786641 -0.087483481 0.49900001
-0.11656549 -0.087483481 0.49900001
-0.11549555 -0.087658793 0.5
-0.11419202 -0.087658793 0.5
-0.11288849 -0.087658793 0.5
-0.11158495 -0.087658793 0.5
-0.110502 -0.08783412 0.50100005
-0.10919586 -0.08783412 0.50100005
-0.10788972 -0.08783412 0.50100005
-0.10658358 -0.08783412 0.50100005
-0.10527744 -0.08783412 0.50100005
-0.10417883 -0.088009432 0.50200003
-0.10287008 -0.088009432 0.50200003
-0.10156134 -0.088009432 0.50200003
-0.10025259 -0.088009432 0.50200003
-0.098943837 -0.088009432 0.50200003
-0.09763509 -0.088009432 0.50200003
-0.096326351 -0.088009432 0.50200003
-0.095017605 -0.088009432 0.50200003
-0.093522191 -0.08783412 0.50100005
-0.092216052 -0.08783412 0.50100005
-0.090909913 -0.08783412 0.50100005
-0.089603774 -0.08783412 0.50100005
-0.088297635 -0.08783412 0.50100005
-0.086991496 -0.08783412 0.50100005
-0.085685357 -0.08783412 0.50100005
-0.084379219 -0.08783412 0.50100005
-0.08307308 -0.08783412 0.50100005
-0.081766933 -0.08783412 0.50100005
-0.080460794 -0.08783412 0.50100005
-0.079154655 -0.08783412 0.50100005
-0.077848524 -0.08783412 0.50100005
-0.076542385 -0.08783412 0.50100005
-0.075386412 -0.088009432 0.50200003
-0.073930107 -0.08783412 0.50100005
-0.072623968 -0.08783412 0.50100005
-0.071317829 -0.08783412 0.50100005
-0.07001169 -0.08783412 0.50100005
-0.068705551 -0.08783412 0.50100005
-0.067399412 -0.08783412 0.50100005
-0.066093273 -0.08783412 0.50100005
-0.064787127 -0.08783412 0.50100005
-0.063480988 -0.08783412 0.50100005
-0.062174857 -0.08783412 0.50100005
-0.060868718 -0.08783412 0.50100005
-0.059562575 -0.08783412 0.50100005
-0.058256436 -0.08783412 0.50100005
-0.056950297 -0.08783412 0.50100005
-0.055644158 -0.08783412 0.50100005
-0.054338023 -0.08783412 0.50100005
-0.053031884 -0.08783412 0.50100005
-0.051828984 -0.088009432 0.50200003
-0.050520238 -0.088009432 0.50200003
-0.049211495 -0.088009432 0.50200003
-0.047902748 -0.088009432 0.50200003
-0.046594001 -0.088009432 0.50200003
-0.045285258 -0.088009432 0.50200003
-0.044064112 -0.088184752 0.50300002
-0.042752758 -0.088184752 0.50300002
-0.041359019 -0.088009432 0.50200003
-0.040050272 -0.088009432 0.50200003
-0.038741525 -0.088009432 0.50200003
-0.037432782 -0.088009432 0.50200003
-0.036124036 -0.088009432 0.50200003
-0.034815285 -0.088009432 0.50200003
-0.033506542 -0.088009432 0.50200003
-0.032133657 -0.08783412 0.50100005
-0.030827519 -0.08783412 0.50100005
-0.029521381 -0.08783412 0.50100005
-0.028215241 -0.08783412 0.50100005
-0.026909102 -0.08783412 0.50100005
-0.025602963 -0.08783412 0.50100005
-0.024296824 -0.08783412 0.50100005
-0.022990685 -0.08783412 0.50100005
-0.021684546 -0.08783412 0.50100005
-0.020378405 -0.08783412 0.50100005
-0.019072268 -0.08783412 0.50100005
-0.01780159 -0.088009432 0.50200003
-0.016492845 -0.088009432 0.50200003
-0.015184097 -0.088009432 0.50200003
-0.013875352 -0.088009432 0.50200003
-0.012566606 -0.088009432 0.50200003
-0.011280286 -0.088184752 0.50300002
-0.0099491142 -0.088009432 0.50200003
-0.0086403675 -0.088009432 0.50200003
-0.0073316214 -0.088009432 0.50200003
-0.0060228757 -0.088009432 0.50200003
-0.0047141295 -0.088009432 0.50200003
-0.0034053838 -0.088009432 0.50200003
-0.0020966376 -0.088009432 0.50200003
-0.00078789162 -0.088009432 0.50200003
0.00052085443 -0.088009432 0.50200003
0.0018296004 -0.088009432 0.50200003
0.0031320949 -0.08783412 0.50100005
0.004438234 -0.08783412 0.50100005
0.0057558385 -0.088009432 0.50200003
0.0070645846 -0.088009432 0.50200003
0.0083733313 -0.088009432 0.50200003
0.0096820761 -0.088009432 0.50200003
0.010990823 -0.088009432 0.50200003
0.012299569 -0.088009432 0.50200003
0.013608314 -0.088009432 0.50200003
0.014917061 -0.088009432 0.50200003
0.016225806 -0.088009432 0.50200003
0.017534552 -0.088009432 0.50200003
0.018843299 -0.088009432 0.50200003
0.020192187 -0.088184752 0.50300002
0.02150354 -0.088184752 0.50300002
0.022814894 -0.088184752 0.50300002
0.024126247 -0.088184752 0.50300002
0.02548817 -0.088360064 0.50400001
0.026802132 -0.088360064 0.50400001
0.028116092 -0.088360064 0.50400001
0.02943005 -0.088360064 0.50400001
0.030744012 -0.088360064 0.50400001
0.032121576 -0.088535383 0.505
0.033438146 -0.088535383 0.505
0.034754712 -0.088535383 0.505
0.036071278 -0.088535383 0.505
0.037387844 -0.088535383 0.505
0.038704414 -0.088535383 0.505
0.04002098 -0.088535383 0.505
0.04133755 -0.088535383 0.505
0.042569652 -0.088360064 0.50400001
0.043883614 -0.088360064 0.50400001
0.045197573 -0.088360064 0.50400001
0.046511531 -0.088360064 0.50400001
0.047825493 -0.088360064 0.50400001
0.049041953 -0.088184752 0.50300002
0.050453413 -0.088360064 0.50400001
0.051767375 -0.088360064 0.50400001
0.053081334 -0.088360064 0.50400001
0.054395292 -0.088360064 0.50400001
0.05570925 -0.088360064 0.50400001
0.057023212 -0.088360064 0.50400001
0.058337174 -0.088360064 0.50400001
0.059651133 -0.088360064 0.50400001
0.060965095 -0.088360064 0.50400001
0.062155485 -0.088184752 0.50300002
0.063466839 -0.088184752 0.50300002
0.064778194 -0.088184752 0.50300002
0.065958157 -0.088009432 0.50200003
0.067132905 -0.08783412 0.50100005
0.06830243 -0.087658793 0.5
0.069466755 -0.087483481 0.49900001
0.070767686 -0.087483481 0.49900001
0.072068609 -0.087483481 0.49900001
0.073369533 -0.087483481 0.49900001
0.074520819 -0.087308161 0.49800003
0.075819135 -0.087308161 0.49800003
0.07913579 -0.071529582 0.40800002
0.080002904 -0.071354255 0.40700001
0.080864802 -0.071178943 0.40600002
0.081721492 -0.071003631 0.40500003
0.082572959 -0.070828304 0.40400001
0.083419226 -0.070652992 0.40300003
0.08426027 -0.070477672 0.40200001
0.085096098 -0.070302352 0.40100002
0.085926712 -0.070127033 0.40000001
0.086752117 -0.069951721 0.39900002
0.087572306 -0.069776401 0.39800003
0.088609919 -0.069776401 0.39800003
0.08919704 -0.069425769 0.39600003
0.090001576 -0.06925045 0.39500001
0.090800911 -0.06907513 0.39400002
0.091361962 -0.068724498 0.39200002
0.092148259 -0.068549179 0.39100003
0.092929333 -0.068373859 0.39000002
0.093705207 -0.068198547 0.38900003
0.094475858 -0.068023227 0.38800001
0.094995201 -0.067672588 0.38600001
0.095504105 -0.067321956 0.384
0.096002586 -0.066971324 0.38200003
0.096490644 -0.066620685 0.38000003
0.096968263 -0.066270053 0.37800002
0.097435459 -0.065919414 0.37600002
0.097892232 -0.065568782 0.37400001
0.098338567 -0.065218143 0.37200001
0.099041447 -0.065042831 0.37100002
0.099469528 -0.064692192 0.36900002
0.10043154 -0.064692192 0.36900002
0.10111877 -0.06451688 0.36800003
0.10180078 -0.064341553 0.36700001
0.098601691 -0.054173138 0.30900002
0.099407278 -0.054173138 0.30900002
0.099888548 -0.053997822 0.30800003
0.10069153 -0.053997822 0.30800003
0.10149451 -0.053997822 0.30800003
0.10196534 -0.053822502 0.30700001
0.10276571 -0.053822502 0.30700001
0.10322873 -0.053647187 0.30600002
0.10368653 -0.053471863 0.30500001
0.10413913 -0.053296551 0.30400002
0.10493167 -0.053296551 0.30400002
0.10537644 -0.053121228 0.303
-0.27806213 -0.085837133 0.49700001
-0.27676639 -0.085837133 0.49700001
-0.2754707 -0.085837133 0.49700001
-0.27417499 -0.085837133 0.49700001
-0.27287927 -0.085837133 0.49700001
-0.27158356 -0.085837133 0.49700001
-0.27028787 -0.085837133 0.49700001
-0.26899216 -0.085837133 0.49700001
-0.26769641 -0.085837133 0.49700001
-0.26640072 -0.085837133 0.49700001
-0.26510501 -0.085837133 0.49700001
-0.26327851 -0.085664421 0.49600002
-0.26198539 -0.085664421 0.49600002
-0.2606923 -0.085664421 0.49600002
-0.25939921 -0.085664421 0.49600002
-0.25810611 -0.085664421 0.49600002
-0.25681299 -0.085664421 0.49600002
-0.2555199 -0.085664421 0.49600002
-0.25473934 -0.085837133 0.49700001
-0.2534436 -0.085837133 0.49700001
-0.25214791 -0.085837133 0.49700001
-0.2508522 -0.085837133 0.49700001
-0.2495565 -0.085837133 0.49700001
-0.24876031 -0.086009845 0.49800003
-0.24746199 -0.086009845 0.49800003
-0.24616367 -0.086009845 0.49800003
-0.24486534 -0.086009845 0.49800003
-0.24307793 -0.085837133 0.49700001
-0.24178222 -0.085837133 0.49700001
-0.2404865 -0.085837133 0.49700001
-0.2391908 -0.085837133 0.49700001
-0.23789509 -0.085837133 0.49700001
-0.23659939 -0.085837133 0.49700001
-0.23483022 -0.085664421 0.49600002
-0.23353712 -0.085664421 0.49600002
-0.23224401 -0.085664421 0.49600002
-0.23095092 -0.085664421 0.49600002
-0.22965781 -0.085664421 0.49600002
-0.22836472 -0.085664421 0.49600002
-0.2270716 -0.085664421 0.49600002
-0.22577851 -0.085664421 0.49600002
-0.2244854 -0.085664421 0.49600002
-0.22319229 -0.085664421 0.49600002
-0.22234656 -0.085837133 0.49700001
-0.22105084 -0.085837133 0.49700001
-0.21975514 -0.085837133 0.49700001
-0.21845943 -0.085837133 0.49700001
-0.21716373 -0.085837133 0.49700001
-0.21586801 -0.085837133 0.49700001
-0.21457231 -0.085837133 0.49700001
-0.21327658 -0.085837133 0.49700001
-0.21155436 -0.085664421 0.49600002
-0.21026126 -0.085664421 0.49600002
-0.20896816 -0.085664421 0.49600002
-0.20767505 -0.085664421 0.49600002
-0.20638195 -0.085664421 0.49600002
-0.20508884 -0.085664421 0.49600002
-0.20379573 -0.085664421 0.49600002
-0.20250264 -0.085664421 0.49600002
-0.20120953 -0.085664421 0.49600002
-0.19991644 -0.085664421 0.49600002
-0.19862333 -0.085664421 0.49600002
-0.19772807 -0.085837133 0.49700001
-0.19643235 -0.085837133 0.49700001
-0.19513665 -0.085837133 0.49700001
-0.19384092 -0.085837133 0.49700001
-0.19254522 -0.085837133 0.49700001
-0.1912495 -0.085837133 0.49700001
-0.190336 -0.086009845 0.49800003
-0.18903768 -0.086009845 0.49800003
-0.18773936 -0.086009845 0.49800003
-0.18644105 -0.086009845 0.49800003
-0.18514273 -0.086009845 0.49800003
-0.18384442 -0.086009845 0.49800003
-0.18254609 -0.086009845 0.49800003
-0.18124779 -0.086009845 0.49800003
-0.17958811 -0.085837133 0.49700001
-0.17829241 -0.085837133 0.49700001
-0.17699669 -0.085837133 0.49700001
-0.17570099 -0.085837133 0.49700001
-0.17440526 -0.085837133 0.49700001
-0.17310955 -0.085837133 0.49700001
-0.17181385 -0.085837133 0.49700001
-0.17051813 -0.085837133 0.49700001
-0.16922243 -0.085837133 0.49700001
-0.16792671 -0.085837133 0.49700001
-0.16663101 -0.085837133 0.49700001
-0.1653353 -0.085837133 0.49700001
-0.16403958 -0.085837133 0.49700001
-0.16274387 -0.085837133 0.49700001
-0.16144817 -0.085837133 0.49700001
-0.15983021 -0.085664421 0.49600002
-0.15853712 -0.085664421 0.49600002
-0.15724401 -0.085664421 0.49600002
-0.1559509 -0.085664421 0.49600002
-0.15496962 -0.085837133 0.49700001
-0.15367389 -0.085837133 0.49700001
-0.15237819 -0.085837133 0.49700001
-0.15108247 -0.085837133 0.49700001
-0.14978677 -0.085837133 0.49700001
-0.14878984 -0.086009845 0.49800003
-0.14749153 -0.086009845 0.49800003
-0.14648676 -0.08618255 0.49900001
-0.14518584 -0.08618255 0.49900001
-0.14388491 -0.08618255 0.49900001
-0.142584 -0.08618255 0.49900001
-0.14128307 -0.08618255 0.49900001
-0.13998213 -0.08618255 0.49900001
-0.1386812 -0.08618255 0.49900001
-0.13738027 -0.08618255 0.49900001
-0.13607936 -0.08618255 0.49900001
-0.13477843 -0.08618255 0.49900001
-0.13347751 -0.08618255 0.49900001
-0.13217658 -0.08618255 0.49900001
-0.13087566 -0.08618255 0.49900001
-0.12957473 -0.08618255 0.49900001
-0.12827381 -0.08618255 0.49900001
-0.12697288 -0.08618255 0.49900001
-0.12567197 -0.08618255 0.49900001
-0.12437104 -0.08618255 0.49900001
-0.12307011 -0.08618255 0.49900001
-0.12176919 -0.08618255 0.49900001
-0.12046827 -0.08618255 0.49900001
-0.11916734 -0.08618255 0.49900001
-0.11786641 -0.08618255 0.49900001
-0.11679909 -0.086355262 0.5
-0.11549555 -0.086355262 0.5
-0.11419202 -0.086355262 0.5
-0.11288849 -0.086355262 0.5
-0.11158495 -0.086355262 0.5
-0.11028142 -0.086355262 0.5
-0.10919586 -0.086527981 0.50100005
-0.10788972 -0.086527981 0.50100005
-0.10658358 -0.086527981 0.50100005
-0.10527744 -0.086527981 0.50100005
-0.1039713 -0.086527981 0.50100005
-0.10266516 -0.086527981 0.50100005
-0.10135902 -0.086527981 0.50100005
-0.10025259 -0.086700685 0.50200003
-0.098943837 -0.086700685 0.50200003
-0.09763509 -0.086700685 0.50200003
-0.096326351 -0.086700685 0.50200003
-0.095017605 -0.086700685 0.50200003
-0.093708858 -0.086700685 0.50200003
-0.092400111 -0.086700685 0.50200003
-0.090909913 -0.086527981 0.50100005
-0.089603774 -0.086527981 0.50100005
-0.088297635 -0.086527981 0.50100005
-0.086991496 -0.086527981 0.50100005
-0.085685357 -0.086527981 0.50100005
-0.084379219 -0.086527981 0.50100005
-0.08307308 -0.086527981 0.50100005
-0.081766933 -0.086527981 0.50100005
-0.080460794 -0.086527981 0.50100005
-0.079154655 -0.086527981 0.50100005
-0.077848524 -0.086527981 0.50100005
-0.076542385 -0.086527981 0.50100005
-0.075386412 -0.086700685 0.50200003
-0.073930107 -0.086527981 0.50100005
-0.072623968 -0.086527981 0.50100005
-0.071317829 -0.086527981 0.50100005
-0.07001169 -0.086527981 0.50100005
-0.068705551 -0.086527981 0.50100005
-0.067399412 -0.086527981 0.50100005
-0.066093273 -0.086527981 0.50100005
-0.064787127 -0.086527981 0.50100005
-0.063480988 -0.086527981 0.50100005
-0.062174857 -0.086527981 0.50100005
-0.060868718 -0.086527981 0.50100005
-0.059562575 -0.086527981 0.50100005
-0.058256436 -0.086527981 0.50100005
-0.056950297 -0.086527981 0.50100005
-0.055644158 -0.086527981 0.50100005
-0.054338023 -0.086527981 0.50100005
-0.053031884 -0.086527981 0.50100005
-0.051828984 -0.086700685 0.50200003
-0.050520238 -0.086700685 0.50200003
-0.049211495 -0.086700685 0.50200003
-0.047902748 -0.086700685 0.50200003
-0.046686817 -0.086873397 0.50300002
-0.045285258 -0.086700685 0.50200003
-0.044064112 -0.086873397 0.50300002
-0.042752758 -0.086873397 0.50300002
-0.041441403 -0.086873397 0.50300002
-0.040130053 -0.086873397 0.50300002
-0.038741525 -0.086700685 0.50200003
-0.037432782 -0.086700685 0.50200003
-0.036124036 -0.086700685 0.50200003
-0.034815285 -0.086700685 0.50200003
-0.033506542 -0.086700685 0.50200003
-0.032197796 -0.086700685 0.50200003
-0.030827519 -0.086527981 0.50100005
-0.029521381 -0.086527981 0.50100005
-0.028215241 -0.086527981 0.50100005
-0.026909102 -0.086527981 0.50100005
-0.025602963 -0.086527981 0.50100005
-0.024296824 -0.086527981 0.50100005
-0.022990685 -0.086527981 0.50100005
-0.021684546 -0.086527981 0.50100005
-0.020378405 -0.086527981 0.50100005
-0.019072268 -0.086527981 0.50100005
-0.01780159 -0.086700685 0.50200003
-0.016492845 -0.086700685 0.50200003
-0.015184097 -0.086700685 0.50200003
-0.013875352 -0.086700685 0.50200003
-0.012566606 -0.086700685 0.50200003
-0.011280286 -0.086873397 0.50300002
-0.0099689327 -0.086873397 0.50300002
-0.0086575793 -0.086873397 0.50300002
-0.0073462264 -0.086873397 0.50300002
-0.0060228757 -0.086700685 0.50200003
-0.0047141295 -0.086700685 0.50200003
-0.0034053838 -0.086700685 0.50200003
-0.0020966376 -0.086700685 0.50200003
-0.00078789162 -0.086700685 0.50200003
0.00052085443 -0.086700685 0.50200003
0.0018296004 -0.086700685 0.50200003
0.0031320949 -0.086527981 0.50100005
0.004438234 -0.086527981 0.50100005
0.0057558385 -0.086700685 0.50200003
0.0070645846 -0.086700685 0.50200003
0.0083733313 -0.086700685 0.50200003
0.0096820761 -0.086700685 0.50200003
0.010990823 -0.086700685 0.50200003
0.012299569 -0.086700685 0.50200003
0.013608314 -0.086700685 0.50200003
0.014917061 -0.086700685 0.50200003
0.016225806 -0.086700685 0.50200003
0.017534552 -0.086700685 0.50200003
0.018843299 -0.086700685 0.50200003
0.020152044 -0.086700685 0.50200003
0.02150354 -0.086873397 0.50300002
0.022814894 -0.086873397 0.50300002
0.024126247 -0.086873397 0.50300002
0.02548817 -0.087046102 0.50400001
0.026802132 -0.087046102 0.50400001
0.028116092 -0.087046102 0.50400001
0.02943005 -0.087046102 0.50400001
0.030805012 -0.087218814 0.505
0.032121576 -0.087218814 0.505
0.033438146 -0.087218814 0.505
0.034823537 -0.087391533 0.50600004
0.036142711 -0.087391533 0.50600004
0.037461884 -0.087391533 0.50600004
0.038704414 -0.087218814 0.505
0.04002098 -0.087218814 0.505
0.04133755 -0.087218814 0.505
0.042569652 -0.087046102 0.50400001
0.043883614 -0.087046102 0.50400001
0.045197573 -0.087046102 0.50400001
0.046511531 -0.087046102 0.50400001
0.047825493 -0.087046102 0.50400001
0.049041953 -0.086873397 0.50300002
0.050453413 -0.087046102 0.50400001
0.051767375 -0.087046102 0.50400001
0.053081334 -0.087046102 0.50400001
0.054395292 -0.087046102 0.50400001
0.05570925 -0.087046102 0.50400001
0.057023212 -0.087046102 0.50400001
0.058337174 -0.087046102 0.50400001
0.059651133 -0.087046102 0.50400001
0.060844135 -0.086873397 0.50300002
0.062155485 -0.086873397 0.50300002
0.063466839 -0.086873397 0.50300002
0.064649411 -0.086700685 0.50200003
0.065826766 -0.086527981 0.50100005
0.067132905 -0.086527981 0.50100005
0.06830243 -0.086355262 0.5
0.069466755 -0.08618255 0.49900001
0.070767686 -0.08618255 0.49900001
0.07192418 -0.086009845 0.49800003
0.073222503 -0.086009845 0.49800003
0.074520819 -0.086009845 0.49800003
0.075798728 -0.071329452 0.41300002
0.076689303 -0.07115674 0.41200003
0.077574663 -0.070984028 0.41100001
0.080002904 -0.070293181 0.40700001
0.080864802 -0.070120476 0.40600002
0.081721492 -0.069947764 0.40500003
0.082572959 -0.069775052 0.40400001
0.083419226 -0.069602348 0.40300003
0.08426027 -0.069429629 0.40200001
0.085096098 -0.069256924 0.40100002
0.085926712 -0.069084212 0.40000001
0.086752117 -0.0689115 0.39900002
0.087792337 -0.0689115 0.39900002
0.088609919 -0.068738796 0.39800003
0.08919704 -0.068393372 0.39600003
0.090001576 -0.06822066 0.39500001
0.090800911 -0.068047948 0.39400002
0.091595024 -0.067875236 0.39300001
0.092148259 -0.06752982 0.39100003
0.092929333 -0.067357108 0.39000002
0.093705207 -0.067184396 0.38900003
0.094232373 -0.06683898 0.38700002
0.094749101 -0.066493556 0.38500002
0.095255397 -0.066148132 0.38300002
0.096002586 -0.065975428 0.38200003
0.096236721 -0.065457292 0.37900001
0.096711725 -0.065111868 0.377
0.097630493 -0.064421028 0.37300003
0.09807422 -0.064075604 0.37100002
0.098774485 -0.063902892 0.37
0.099469528 -0.063730188 0.36900002
0.099887192 -0.063384764 0.36700001
0.10084398 -0.063384764 0.36700001
0.1015234 -0.063212059 0.36600003
0.098112598 -0.053540263 0.31
0.098601691 -0.053367555 0.30900002
0.099407278 -0.053367555 0.30900002
0.10021286 -0.053367555 0.30900002
0.10069153 -0.053194847 0.30800003
0.10149451 -0.053194847 0.30800003
0.10196534 -0.053022131 0.30700001
0.10276571 -0.053022131 0.30700001
0.10322873 -0.052849423 0.30600002
0.10368653 -0.052676711 0.30500001
0.10413913 -0.052504003 0.30400002
0.10493167 -0.052504003 0.30400002
0.10537644 -0.052331287 0.303
0.105816 -0.052158579 0.30200002
0.10625034 -0.051985871 0.30100003
-0.27806213 -0.084541425 0.49700001
-0.27676639 -0.084541425 0.49700001
-0.2754707 -0.084541425 0.49700001
-0.27417499 -0.084541425 0.49700001
-0.27287927 -0.084541425 0.49700001
-0.27158356 -0.084541425 0.49700001
-0.27028787 -0.084541425 0.49700001
-0.26899216 -0.084541425 0.49700001
-0.26769641 -0.084541425 0.49700001
-0.2658647 -0.084371321 0.49600002
-0.26457161 -0.084371321 0.49600002
-0.26327851 -0.084371321 0.49600002
-0.26198539 -0.084371321 0.49600002
-0.2606923 -0.084371321 0.49600002
-0.25887623 -0.084201217 0.49500003
-0.25810611 -0.084371321 0.49600002
-0.25681299 -0.084371321 0.49600002
-0.2555199 -0.084371321 0.49600002
-0.2542268 -0.084371321 0.49600002
-0.2534436 -0.084541425 0.49700001
-0.25214791 -0.084541425 0.49700001
-0.2508522 -0.084541425 0.49700001
-0.25005862 -0.084711529 0.49800003
-0.24876031 -0.084711529 0.49800003
-0.24746199 -0.084711529 0.49800003
-0.24616367 -0.084711529 0.49800003
-0.24486534 -0.084711529 0.49800003
-0.24356703 -0.084711529 0.49800003
-0.24226871 -0.084711529 0.49800003
-0.2404865 -0.084541425 0.49700001
-0.2391908 -0.084541425 0.49700001
-0.23789509 -0.084541425 0.49700001
-0.23659939 -0.084541425 0.49700001
-0.23530367 -0.084541425 0.49700001
-0.23400795 -0.084541425 0.49700001
-0.23224401 -0.084371321 0.49600002
-0.23095092 -0.084371321 0.49600002
-0.22965781 -0.084371321 0.49600002
-0.22836472 -0.084371321 0.49600002
-0.2270716 -0.084371321 0.49600002
-0.22577851 -0.084371321 0.49600002
-0.2244854 -0.084371321 0.49600002
-0.22319229 -0.084371321 0.49600002
-0.2218992 -0.084371321 0.49600002
-0.22105084 -0.084541425 0.49700001
-0.21975514 -0.084541425 0.49700001
-0.21845943 -0.084541425 0.49700001
-0.21716373 -0.084541425 0.49700001
-0.21586801 -0.084541425 0.49700001
-0.21457231 -0.084541425 0.49700001
-0.21284746 -0.084371321 0.49600002
-0.21155436 -0.084371321 0.49600002
-0.21026126 -0.084371321 0.49600002
-0.20896816 -0.084371321 0.49600002
-0.20767505 -0.084371321 0.49600002
-0.20638195 -0.084371321 0.49600002
-0.20508884 -0.084371321 0.49600002
-0.20379573 -0.084371321 0.49600002
-0.20250264 -0.084371321 0.49600002
-0.20120953 -0.084371321 0.49600002
-0.19991644 -0.084371321 0.49600002
-0.19902377 -0.084541425 0.49700001
-0.19772807 -0.084541425 0.49700001
-0.19643235 -0.084541425 0.49700001
-0.19513665 -0.084541425 0.49700001
-0.19384092 -0.084541425 0.49700001
-0.19293265 -0.084711529 0.49800003
-0.19163433 -0.084711529 0.49800003
-0.190336 -0.084711529 0.49800003
-0.18903768 -0.084711529 0.49800003
-0.18773936 -0.084711529 0.49800003
-0.18644105 -0.084711529 0.49800003
-0.18514273 -0.084711529 0.49800003
-0.18384442 -0.084711529 0.49800003
-0.18254609 -0.084711529 0.49800003
-0.18124779 -0.084711529 0.49800003
-0.17994946 -0.084711529 0.49800003
-0.17829241 -0.084541425 0.49700001
-0.17699669 -0.084541425 0.49700001
-0.17570099 -0.084541425 0.49700001
-0.17440526 -0.084541425 0.49700001
-0.17310955 -0.084541425 0.49700001
-0.17181385 -0.084541425 0.49700001
-0.17051813 -0.084541425 0.49700001
-0.16922243 -0.084541425 0.49700001
-0.16792671 -0.084541425 0.49700001
-0.16663101 -0.084541425 0.49700001
-0.1653353 -0.084541425 0.49700001
-0.16403958 -0.084541425 0.49700001
-0.16274387 -0.084541425 0.49700001
-0.16112332 -0.084371321 0.49600002
-0.15983021 -0.084371321 0.49600002
-0.15853712 -0.084371321 0.49600002
-0.15756103 -0.084541425 0.49700001
-0.1559509 -0.084371321 0.49600002
-0.15465781 -0.084371321 0.49600002
-0.15367389 -0.084541425 0.49700001
-0.15237819 -0.084541425 0.49700001
-0.15108247 -0.084541425 0.49700001
-0.14978677 -0.084541425 0.49700001
-0.14878984 -0.084711529 0.49800003
-0.14749153 -0.084711529 0.49800003
-0.14648676 -0.084881626 0.49900001
-0.14518584 -0.084881626 0.49900001
-0.14388491 -0.084881626 0.49900001
-0.142584 -0.084881626 0.49900001
-0.14128307 -0.084881626 0.49900001
-0.14026265 -0.08505173 0.5
-0.13895912 -0.08505173 0.5
-0.13765559 -0.08505173 0.5
-0.13635206 -0.08505173 0.5
-0.13477843 -0.084881626 0.49900001
-0.13347751 -0.084881626 0.49900001
-0.13217658 -0.084881626 0.49900001
-0.13087566 -0.084881626 0.49900001
-0.12957473 -0.084881626 0.49900001
-0.12827381 -0.084881626 0.49900001
-0.12697288 -0.084881626 0.49900001
-0.12567197 -0.084881626 0.49900001
-0.12437104 -0.084881626 0.49900001
-0.12307011 -0.084881626 0.49900001
-0.12176919 -0.084881626 0.49900001
-0.12046827 -0.084881626 0.49900001
-0.11916734 -0.084881626 0.49900001
-0.11810262 -0.08505173 0.5
-0.11679909 -0.08505173 0.5
-0.11549555 -0.08505173 0.5
-0.11419202 -0.08505173 0.5
-0.11288849 -0.08505173 0.5
-0.11158495 -0.08505173 0.5
-0.110502 -0.085221842 0.50100005
-0.10919586 -0.085221842 0.50100005
-0.10788972 -0.085221842 0.50100005
-0.10658358 -0.085221842 0.50100005
-0.10527744 -0.085221842 0.50100005
-0.1039713 -0.085221842 0.50100005
-0.10266516 -0.085221842 0.50100005
-0.10135902 -0.085221842 0.50100005
-0.10025259 -0.085391946 0.50200003
-0.098943837 -0.085391946 0.50200003
-0.09763509 -0.085391946 0.50200003
-0.096326351 -0.085391946 0.50200003
-0.095017605 -0.085391946 0.50200003
-0.093708858 -0.085391946 0.50200003
-0.092400111 -0.085391946 0.50200003
-0.090909913 -0.085221842 0.50100005
-0.089782618 -0.085391946 0.50200003
-0.088473879 -0.085391946 0.50200003
-0.087165132 -0.085391946 0.50200003
-0.085856386 -0.085391946 0.50200003
-0.084547639 -0.085391946 0.50200003
-0.083238892 -0.085391946 0.50200003
-0.081930138 -0.085391946 0.50200003
-0.080621399 -0.085391946 0.50200003
-0.079312652 -0.085391946 0.50200003
-0.078003906 -0.085391946 0.50200003
-0.076542385 -0.085221842 0.50100005
-0.075236246 -0.085221842 0.50100005
-0.073930107 -0.085221842 0.50100005
-0.072623968 -0.085221842 0.50100005
-0.071317829 -0.085221842 0.50100005
-0.07001169 -0.085221842 0.50100005
-0.068705551 -0.085221842 0.50100005
-0.067399412 -0.085221842 0.50100005
-0.066093273 -0.085221842 0.50100005
-0.064787127 -0.085221842 0.50100005
-0.063480988 -0.085221842 0.50100005
-0.062174857 -0.085221842 0.50100005
-0.060868718 -0.085221842 0.50100005
-0.059562575 -0.085221842 0.50100005
-0.058256436 -0.085221842 0.50100005
-0.056950297 -0.085221842 0.50100005
-0.055644158 -0.085221842 0.50100005
-0.054338023 -0.085221842 0.50100005
-0.053031884 -0.085221842 0.50100005
-0.051828984 -0.085391946 0.50200003
-0.050520238 -0.085391946 0.50200003
-0.049309522 -0.085562043 0.50300002
-0.047998171 -0.085562043 0.50300002
-0.046686817 -0.085562043 0.50300002
-0.045375466 -0.085562043 0.50300002
-0.044064112 -0.085562043 0.50300002
-0.042752758 -0.085562043 0.50300002
-0.041441403 -0.085562043 0.50300002
-0.040130053 -0.085562043 0.50300002
-0.038741525 -0.085391946 0.50200003
-0.037432782 -0.085391946 0.50200003
-0.036124036 -0.085391946 0.50200003
-0.034815285 -0.085391946 0.50200003
-0.033506542 -0.085391946 0.50200003
-0.032133657 -0.085221842 0.50100005
-0.030827519 -0.085221842 0.50100005
-0.029521381 -0.085221842 0.50100005
-0.028215241 -0.085221842 0.50100005
-0.026909102 -0.085221842 0.50100005
-0.025602963 -0.085221842 0.50100005
-0.024296824 -0.085221842 0.50100005
-0.022990685 -0.085221842 0.50100005
-0.021684546 -0.085221842 0.50100005
-0.020378405 -0.085221842 0.50100005
-0.019072268 -0.085221842 0.50100005
-0.01780159 -0.085391946 0.50200003
-0.016492845 -0.085391946 0.50200003
-0.015184097 -0.085391946 0.50200003
-0.013875352 -0.085391946 0.50200003
-0.012591639 -0.085562043 0.50300002
-0.011280286 -0.085562043 0.50300002
-0.0099491142 -0.085391946 0.50200003
-0.0086575793 -0.085562043 0.50300002
-0.0073462264 -0.085562043 0.50300002
-0.0060228757 -0.085391946 0.50200003
-0.0047141295 -0.085391946 0.50200003
-0.0034053838 -0.085391946 0.50200003
-0.0020966376 -0.085391946 0.50200003
-0.00078789162 -0.085391946 0.50200003
0.00052085443 -0.085391946 0.50200003
0.0018296004 -0.085391946 0.50200003
0.0031320949 -0.085221842 0.50100005
0.004438234 -0.085221842 0.50100005
0.0057558385 -0.085391946 0.50200003
0.0070645846 -0.085391946 0.50200003
0.0083733313 -0.085391946 0.50200003
0.0096820761 -0.085391946 0.50200003
0.010990823 -0.085391946 0.50200003
0.012299569 -0.085391946 0.50200003
0.013608314 -0.085391946 0.50200003
0.014917061 -0.085391946 0.50200003
0.016225806 -0.085391946 0.50200003
0.017534552 -0.085391946 0.50200003
0.018843299 -0.085391946 0.50200003
0.020192187 -0.085562043 0.50300002
0.02150354 -0.085562043 0.50300002
0.022814894 -0.085562043 0.50300002
0.024126247 -0.085562043 0.50300002
0.02548817 -0.085732147 0.50400001
0.026802132 -0.085732147 0.50400001
0.028116092 -0.085732147 0.50400001
0.02943005 -0.085732147 0.50400001
0.030805012 -0.085902244 0.505
0.032121576 -0.085902244 0.505
0.033438146 -0.085902244 0.505
0.034823537 -0.086072356 0.50600004
0.036142711 -0.086072356 0.50600004
0.037461884 -0.086072356 0.50600004
0.038704414 -0.085902244 0.505
0.04002098 -0.085902244 0.505
0.04133755 -0.085902244 0.505
0.042654116 -0.085902244 0.505
0.043883614 -0.085732147 0.50400001
0.045197573 -0.085732147 0.50400001
0.046511531 -0.085732147 0.50400001
0.047825493 -0.085732147 0.50400001
0.049139451 -0.085732147 0.50400001
0.050453413 -0.085732147 0.50400001
0.051767375 -0.085732147 0.50400001
0.053081334 -0.085732147 0.50400001
0.054395292 -0.085732147 0.50400001
0.05570925 -0.085732147 0.50400001
0.057023212 -0.085732147 0.50400001
0.058337174 -0.085732147 0.50400001
0.059651133 -0.085732147 0.50400001
0.060844135 -0.085562043 0.50300002
0.062155485 -0.085562043 0.50300002
0.063340664 -0.085391946 0.50200003
0.064649411 -0.085391946 0.50200003
0.065826766 -0.085221842 0.50100005
0.066998899 -0.08505173 0.5
0.068165824 -0.084881626 0.49900001
0.069466755 -0.084881626 0.49900001
0.070625864 -0.084711529 0.49800003
0.071779758 -0.084541425 0.49700001
0.073075466 -0.084541425 0.49700001
0.074221537 -0.084371321 0.49600002
0.075798728 -0.070252731 0.41300002
0.076875441 -0.070252731 0.41300002
0.077574663 -0.069912523 0.41100001
0.078454815 -0.069742426 0.41000003
0.080864802 -0.069062009 0.40600002
0.081721492 -0.068891905 0.40500003
0.082572959 -0.068721801 0.40400001
0.083419226 -0.068551697 0.40300003
0.08426027 -0.068381593 0.40200001
0.085096098 -0.068211488 0.40100002
0.085926712 -0.068041384 0.40000001
0.086752117 -0.067871287 0.39900002
0.087792337 -0.067871287 0.39900002
0.088609919 -0.067701183 0.39800003
0.089422278 -0.067531079 0.39700001
0.090001576 -0.067190871 0.39500001
0.090800911 -0.067020766 0.39400002
0.091595024 -0.066850662 0.39300001
0.092148259 -0.066510461 0.39100003
0.092929333 -0.06634035 0.39000002
0.093705207 -0.066170253 0.38900003
0.094232373 -0.065830044 0.38700002
0.094749101 -0.065489836 0.38500002
0.095255397 -0.065149628 0.38300002
0.095751271 -0.064809419 0.38100001
0.096236721 -0.064469211 0.37900001
0.096711725 -0.064129002 0.377
0.097176328 -0.063788801 0.37500003
0.097368747 -0.063278489 0.37200001
0.09807422 -0.063108385 0.37100002
0.098507531 -0.062768184 0.36900002
0.099199966 -0.062598079 0.36800003
0.099887192 -0.062427972 0.36700001
0.1005692 -0.062257871 0.36600003
0.10124601 -0.062087763 0.36500001
0.10219758 -0.062087763 0.36500001
0.10286656 -0.061917663 0.36400002
0.097304404 -0.052732073 0.31
0.098112598 -0.052732073 0.31
0.098601691 -0.052561972 0.30900002
0.099407278 -0.052561972 0.30900002
0.10021286 -0.052561972 0.30900002
0.10101844 -0.052561972 0.30900002
0.10149451 -0.052391872 0.30800003
0.10229748 -0.052391872 0.30800003
0.10276571 -0.052221764 0.30700001
0.10322873 -0.052051663 0.30600002
0.10368653 -0.051881555 0.30500001
0.10448168 -0.051881555 0.30500001
0.10493167 -0.051711455 0.30400002
0.10537644 -0.051541351 0.303
0.105816 -0.051371247 0.30200002
0.10625034 -0.051201146 0.30100003
-0.27806213 -0.08324571 0.49700001
-0.27676639 -0.08324571 0.49700001
-0.2754707 -0.08324571 0.49700001
-0.27417499 -0.08324571 0.49700001
-0.27287927 -0.08324571 0.49700001
-0.27158356 -0.08324571 0.49700001
-0.27028787 -0.08324571 0.49700001
-0.26899216 -0.08324571 0.49700001
-0.26769641 -0.08324571 0.49700001
-0.2658647 -0.08307822 0.49600002
-0.26457161 -0.08307822 0.49600002
-0.26327851 -0.08307822 0.49600002
-0.26198539 -0.08307822 0.49600002
-0.2606923 -0.08307822 0.49600002
-0.25887623 -0.082910724 0.49500003
-0.25758573 -0.082910724 0.49500003
-0.25681299 -0.08307822 0.49600002
-0.2555199 -0.08307822 0.49600002
-0.2542268 -0.08307822 0.49600002
-0.2534436 -0.08324571 0.49700001
-0.25214791 -0.08324571 0.49700001
-0.2508522 -0.08324571 0.49700001
-0.25005862 -0.083413213 0.49800003
-0.24876031 -0.083413213 0.49800003
-0.24746199 -0.083413213 0.49800003
-0.24616367 -0.083413213 0.49800003
-0.24486534 -0.083413213 0.49800003
-0.24356703 -0.083413213 0.49800003
-0.24226871 -0.083413213 0.49800003
-0.24097039 -0.083413213 0.49800003
-0.23967208 -0.083413213 0.49800003
-0.23789509 -0.08324571 0.49700001
-0.23659939 -0.08324571 0.49700001
-0.23530367 -0.08324571 0.49700001
-0.23400795 -0.08324571 0.49700001
-0.23271224 -0.08324571 0.49700001
-0.23141654 -0.08324571 0.49700001
-0.23012082 -0.08324571 0.49700001
-0.22836472 -0.08307822 0.49600002
-0.2270716 -0.08307822 0.49600002
-0.22577851 -0.08307822 0.49600002
-0.2244854 -0.08307822 0.49600002
-0.22319229 -0.08307822 0.49600002
-0.2218992 -0.08307822 0.49600002
-0.22105084 -0.08324571 0.49700001
-0.21975514 -0.08324571 0.49700001
-0.21845943 -0.08324571 0.49700001
-0.21716373 -0.08324571 0.49700001
-0.21586801 -0.08324571 0.49700001
-0.21457231 -0.08324571 0.49700001
-0.21284746 -0.08307822 0.49600002
-0.21155436 -0.08307822 0.49600002
-0.21026126 -0.08307822 0.49600002
-0.20896816 -0.08307822 0.49600002
-0.20767505 -0.08307822 0.49600002
-0.20638195 -0.08307822 0.49600002
-0.20508884 -0.08307822 0.49600002
-0.20379573 -0.08307822 0.49600002
-0.20250264 -0.08307822 0.49600002
-0.20120953 -0.08307822 0.49600002
-0.20031948 -0.08324571 0.49700001
-0.19902377 -0.08324571 0.49700001
-0.19772807 -0.08324571 0.49700001
-0.19643235 -0.08324571 0.49700001
-0.19552928 -0.083413213 0.49800003
-0.19423096 -0.083413213 0.49800003
-0.19293265 -0.083413213 0.49800003
-0.19163433 -0.083413213 0.49800003
-0.19071819 -0.083580703 0.49900001
-0.18941727 -0.083580703 0.49900001
-0.18811634 -0.083580703 0.49900001
-0.18681543 -0.083580703 0.49900001
-0.18551449 -0.083580703 0.49900001
-0.18421358 -0.083580703 0.49900001
-0.18291265 -0.083580703 0.49900001
-0.18124779 -0.083413213 0.49800003
-0.17994946 -0.083413213 0.49800003
-0.17865115 -0.083413213 0.49800003
-0.17699669 -0.08324571 0.49700001
-0.17570099 -0.08324571 0.49700001
-0.17440526 -0.08324571 0.49700001
-0.17310955 -0.08324571 0.49700001
-0.17181385 -0.08324571 0.49700001
-0.17051813 -0.08324571 0.49700001
-0.16922243 -0.08324571 0.49700001
-0.16792671 -0.08324571 0.49700001
-0.16663101 -0.08324571 0.49700001
-0.1653353 -0.08324571 0.49700001
-0.16403958 -0.08324571 0.49700001
-0.16274387 -0.08324571 0.49700001
-0.16112332 -0.08307822 0.49600002
-0.15983021 -0.08307822 0.49600002
-0.15853712 -0.08307822 0.49600002
-0.15756103 -0.08324571 0.49700001
-0.15626532 -0.08324571 0.49700001
-0.15496962 -0.08324571 0.49700001
-0.15367389 -0.08324571 0.49700001
-0.15237819 -0.08324571 0.49700001
-0.15108247 -0.08324571 0.49700001
-0.15008816 -0.083413213 0.49800003
-0.14878984 -0.083413213 0.49800003
-0.14749153 -0.083413213 0.49800003
-0.14648676 -0.083580703 0.49900001
-0.14518584 -0.083580703 0.49900001
-0.14388491 -0.083580703 0.49900001
-0.14286973 -0.083748199 0.5
-0.14156619 -0.083748199 0.5
-0.14026265 -0.083748199 0.5
-0.13895912 -0.083748199 0.5
-0.13765559 -0.083748199 0.5
-0.13635206 -0.083748199 0.5
-0.13504852 -0.083748199 0.5
-0.133745 -0.083748199 0.5
-0.13244146 -0.083748199 0.5
-0.13113794 -0.083748199 0.5
-0.1298344 -0.083748199 0.5
-0.12853087 -0.083748199 0.5
-0.12722734 -0.083748199 0.5
-0.12592381 -0.083748199 0.5
-0.12462027 -0.083748199 0.5
-0.12331674 -0.083748199 0.5
-0.12201321 -0.083748199 0.5
-0.12070968 -0.083748199 0.5
-0.11940615 -0.083748199 0.5
-0.11810262 -0.083748199 0.5
-0.11679909 -0.083748199 0.5
-0.11549555 -0.083748199 0.5
-0.11419202 -0.083748199 0.5
-0.11288849 -0.083748199 0.5
-0.11158495 -0.083748199 0.5
-0.110502 -0.083915703 0.50100005
-0.10919586 -0.083915703 0.50100005
-0.10788972 -0.083915703 0.50100005
-0.10658358 -0.083915703 0.50100005
-0.10527744 -0.083915703 0.50100005
-0.1039713 -0.083915703 0.50100005
-0.10287008 -0.0840832 0.50200003
-0.10135902 -0.083915703 0.50100005
-0.10025259 -0.0840832 0.50200003
-0.098943837 -0.0840832 0.50200003
-0.09763509 -0.0840832 0.50200003
-0.096326351 -0.0840832 0.50200003
-0.095017605 -0.0840832 0.50200003
-0.093708858 -0.0840832 0.50200003
-0.092400111 -0.0840832 0.50200003
-0.090909913 -0.083915703 0.50100005
-0.089782618 -0.0840832 0.50200003
-0.088473879 -0.0840832 0.50200003
-0.087165132 -0.0840832 0.50200003
-0.085856386 -0.0840832 0.50200003
-0.084547639 -0.0840832 0.50200003
-0.083238892 -0.0840832 0.50200003
-0.081930138 -0.0840832 0.50200003
-0.080621399 -0.0840832 0.50200003
-0.079312652 -0.0840832 0.50200003
-0.078003906 -0.0840832 0.50200003
-0.076695159 -0.0840832 0.50200003
-0.075386412 -0.0840832 0.50200003
-0.074077666 -0.0840832 0.50200003
-0.072623968 -0.083915703 0.50100005
-0.071317829 -0.083915703 0.50100005
-0.07001169 -0.083915703 0.50100005
-0.068705551 -0.083915703 0.50100005
-0.067399412 -0.083915703 0.50100005
-0.066093273 -0.083915703 0.50100005
-0.064787127 -0.083915703 0.50100005
-0.063480988 -0.083915703 0.50100005
-0.062174857 -0.083915703 0.50100005
-0.060868718 -0.083915703 0.50100005
-0.059562575 -0.083915703 0.50100005
-0.058256436 -0.083915703 0.50100005
-0.056950297 -0.083915703 0.50100005
-0.055644158 -0.083915703 0.50100005
-0.054338023 -0.083915703 0.50100005
-0.053137735 -0.0840832 0.50200003
-0.051828984 -0.0840832 0.50200003
-0.050520238 -0.0840832 0.50200003
-0.049309522 -0.084250689 0.50300002
-0.047998171 -0.084250689 0.50300002
-0.046686817 -0.084250689 0.50300002
-0.045375466 -0.084250689 0.50300002
-0.044064112 -0.084250689 0.50300002
-0.042752758 -0.084250689 0.50300002
-0.041441403 -0.084250689 0.50300002
-0.040130053 -0.084250689 0.50300002
-0.038818698 -0.084250689 0.50300002
-0.037432782 -0.0840832 0.50200003
-0.036124036 -0.0840832 0.50200003
-0.034815285 -0.0840832 0.50200003
-0.033506542 -0.0840832 0.50200003
-0.032197796 -0.0840832 0.50200003
-0.030827519 -0.083915703 0.50100005
-0.029521381 -0.083915703 0.50100005
-0.028215241 -0.083915703 0.50100005
-0.026909102 -0.083915703 0.50100005
-0.025602963 -0.083915703 0.50100005
-0.024296824 -0.083915703 0.50100005
-0.022990685 -0.083915703 0.50100005
-0.021684546 -0.083915703 0.50100005
-0.020378405 -0.083915703 0.50100005
-0.019072268 -0.083915703 0.50100005
-0.01780159 -0.0840832 0.50200003
-0.016492845 -0.0840832 0.50200003
-0.015184097 -0.0840832 0.50200003
-0.013875352 -0.0840832 0.50200003
-0.012591639 -0.084250689 0.50300002
-0.011280286 -0.084250689 0.50300002
-0.0099689327 -0.084250689 0.50300002
-0.0086575793 -0.084250689 0.50300002
-0.0073462264 -0.084250689 0.50300002
-0.0060228757 -0.0840832 0.50200003
-0.0047141295 -0.0840832 0.50200003
-0.0034053838 -0.0840832 0.50200003
-0.0020966376 -0.0840832 0.50200003
-0.00078789162 -0.0840832 0.50200003
0.00052085443 -0.0840832 0.50200003
0.0018296004 -0.0840832 0.50200003
0.0031383464 -0.0840832 0.50200003
0.0044470928 -0.0840832 0.50200003
0.0057558385 -0.0840832 0.50200003
0.0070645846 -0.0840832 0.50200003
0.0083733313 -0.0840832 0.50200003
0.0096820761 -0.0840832 0.50200003
0.010990823 -0.0840832 0.50200003
0.012299569 -0.0840832 0.50200003
0.013608314 -0.0840832 0.50200003
0.014917061 -0.0840832 0.50200003
0.016225806 -0.0840832 0.50200003
0.017534552 -0.0840832 0.50200003
0.018843299 -0.0840832 0.50200003
0.020192187 -0.084250689 0.50300002
0.02150354 -0.084250689 0.50300002
0.022814894 -0.084250689 0.50300002
0.024126247 -0.084250689 0.50300002
0.02548817 -0.084418185 0.50400001
0.026802132 -0.084418185 0.50400001
0.028116092 -0.084418185 0.50400001
0.029488442 -0.084585682 0.505
0.030805012 -0.084585682 0.505
0.032121576 -0.084585682 0.505
0.033438146 -0.084585682 0.505
0.034823537 -0.084753186 0.50600004
0.036142711 -0.084753186 0.50600004
0.037461884 -0.084753186 0.50600004
0.038781058 -0.084753186 0.50600004
0.04002098 -0.084585682 0.505
0.04133755 -0.084585682 0.505
0.042654116 -0.084585682 0.505
0.043970682 -0.084585682 0.505
0.045197573 -0.084418185 0.50400001
0.046511531 -0.084418185 0.50400001
0.047825493 -0.084418185 0.50400001
0.049139451 -0.084418185 0.50400001
0.050453413 -0.084418185 0.50400001
0.051767375 -0.084418185 0.50400001
0.053081334 -0.084418185 0.50400001
0.054395292 -0.084418185 0.50400001
0.05570925 -0.084418185 0.50400001
0.057023212 -0.084418185 0.50400001
0.058337174 -0.084418185 0.50400001
0.05953278 -0.084250689 0.50300002
0.060844135 -0.084250689 0.50300002
0.062031917 -0.0840832 0.50200003
0.063340664 -0.0840832 0.50200003
0.064520627 -0.083915703 0.50100005
0.065826766 -0.083915703 0.50100005
0.066998899 -0.083748199 0.5
0.068165824 -0.083580703 0.49900001
0.069327541 -0.083413213 0.49800003
0.070625864 -0.083413213 0.49800003
0.071779758 -0.08324571 0.49700001
0.073075466 -0.08324571 0.49700001
0.074071899 -0.082910724 0.49500003
0.076875441 -0.069176018 0.41300002
0.077763416 -0.069008522 0.41200003
0.078646168 -0.068841025 0.41100001
0.079329751 -0.068506025 0.40900001
0.081721492 -0.067836046 0.40500003
0.082572959 -0.06766855 0.40400001
0.083419226 -0.067501053 0.40300003
0.08426027 -0.067333557 0.40200001
0.085096098 -0.06716606 0.40100002
0.085926712 -0.066998564 0.40000001
0.086752117 -0.066831067 0.39900002
0.087792337 -0.066831067 0.39900002
0.088609919 -0.066663571 0.39800003
0.089422278 -0.066496074 0.39700001
0.090001576 -0.066161081 0.39500001
0.090800911 -0.065993585 0.39400002
0.091595024 -0.065826088 0.39300001
0.092148259 -0.065491095 0.39100003
0.092929333 -0.065323599 0.39000002
0.093705207 -0.065156102 0.38900003
0.094232373 -0.064821109 0.38700002
0.094749101 -0.064486116 0.38500002
0.095255397 -0.064151123 0.38300002
0.095751271 -0.06381613 0.38100001
0.096236721 -0.063481137 0.37900001
0.096455202 -0.062978648 0.37600002
0.09691719 -0.062643655 0.37400001
0.097368747 -0.062308662 0.37200001
0.097809866 -0.061973669 0.37
0.098240577 -0.061638679 0.36800003
0.098930396 -0.061471179 0.36700001
0.099615023 -0.061303686 0.36600003
0.10029442 -0.061136186 0.36500001
0.10096862 -0.060968693 0.36400002
0.10191759 -0.060968693 0.36400002
0.098112598 -0.051923882 0.31
0.098920785 -0.051923882 0.31
0.099728979 -0.051923882 0.31
0.10021286 -0.051756389 0.30900002
0.10101844 -0.051756389 0.30900002
0.10182403 -0.051756389 0.30900002
0.10229748 -0.051588897 0.30800003
0.10276571 -0.051421396 0.30700001
0.10356607 -0.051421396 0.30700001
0.1040265 -0.051253904 0.30600002
0.10448168 -0.051086403 0.30500001
0.10493167 -0.050918907 0.30400002
0.10537644 -0.05075141 0.303
0.105816 -0.050583914 0.30200002
0.10625034 -0.050416421 0.30100003
0.10667947 -0.050248921 0.30000001
-0.27806213 -0.081950001 0.49700001
-0.27676639 -0.081950001 0.49700001
-0.2754707 -0.081950001 0.49700001
-0.27417499 -0.081950001 0.49700001
-0.27287927 -0.081950001 0.49700001
-0.27158356 -0.081950001 0.49700001
-0.27028787 -0.081950001 0.49700001
-0.26845095 -0.081785113 0.49600002
-0.26715779 -0.081785113 0.49600002
-0.2658647 -0.081785113 0.49600002
-0.26457161 -0.081785113 0.49600002
-0.26327851 -0.081785113 0.49600002
-0.26198539 -0.081785113 0.49600002
-0.2601667 -0.081620224 0.49500003
-0.25887623 -0.081620224 0.49500003
-0.25758573 -0.081620224 0.49500003
-0.25629523 -0.081620224 0.49500003
-0.2555199 -0.081785113 0.49600002
-0.2542268 -0.081785113 0.49600002
-0.2534436 -0.081950001 0.49700001
-0.25214791 -0.081950001 0.49700001
-0.2508522 -0.081950001 0.49700001
-0.25005862 -0.08211489 0.49800003
-0.24876031 -0.08211489 0.49800003
-0.24746199 -0.08211489 0.49800003
-0.24616367 -0.08211489 0.49800003
-0.24486534 -0.08211489 0.49800003
-0.24356703 -0.08211489 0.49800003
-0.24226871 -0.08211489 0.49800003
-0.24097039 -0.08211489 0.49800003
-0.23967208 -0.08211489 0.49800003
-0.23837376 -0.08211489 0.49800003
-0.23659939 -0.081950001 0.49700001
-0.23530367 -0.081950001 0.49700001
-0.23400795 -0.081950001 0.49700001
-0.23271224 -0.081950001 0.49700001
-0.23141654 -0.081950001 0.49700001
-0.23012082 -0.081950001 0.49700001
-0.22882512 -0.081950001 0.49700001
-0.2270716 -0.081785113 0.49600002
-0.22577851 -0.081785113 0.49600002
-0.2244854 -0.081785113 0.49600002
-0.22319229 -0.081785113 0.49600002
