# .PCD v0.7 - Point Cloud Data file format
VERSION 0.7
FIELDS x y z
SIZE 4 4 4
TYPE F F F
COUNT 1 1 1
WIDTH 1371
HEIGHT 1
VIEWPOINT 0 0 0 1 0 0 0
POINTS 1371
DATA ascii
-0.22776629 -0.13163464 0.42700002
-0.22665308 -0.13163464 0.42700002
-0.22606805 -0.13194293 0.42800003
-0.22495224 -0.13194293 0.42800003
-0.22383642 -0.13194293 0.42800003
-0.22272059 -0.13194293 0.42800003
-0.22160476 -0.13194293 0.42800003
-0.22048894 -0.13194293 0.42800003
-0.21937312 -0.13194293 0.42800003
-0.21825728 -0.13194293 0.42800003
-0.21714146 -0.13194293 0.42800003
-0.21602565 -0.13194293 0.42800003
-0.21490984 -0.13194293 0.42800003
-0.21379401 -0.13194293 0.42800003
-0.21267818 -0.13194293 0.42800003
-0.21156237 -0.13194293 0.42800003
-0.21044654 -0.13194293 0.42800003
-0.20933071 -0.13194293 0.42800003
-0.20821488 -0.13194293 0.42800003
-0.20758292 -0.1322512 0.42900002
-0.2064645 -0.1322512 0.42900002
-0.20486741 -0.13194293 0.42800003
-0.20375159 -0.13194293 0.42800003
-0.20263577 -0.13194293 0.42800003
-0.20151995 -0.13194293 0.42800003
-0.20040412 -0.13194293 0.42800003
-0.19928829 -0.13194293 0.42800003
-0.19817246 -0.13194293 0.42800003
-0.19659624 -0.13163464 0.42700002
-0.19548301 -0.13163464 0.42700002
-0.19436981 -0.13163464 0.42700002
-0.19325659 -0.13163464 0.42700002
-0.19259335 -0.13194293 0.42800003
-0.19147754 -0.13194293 0.42800003
-0.19036171 -0.13194293 0.42800003
-0.18924589 -0.13194293 0.42800003
-0.18813007 -0.13194293 0.42800003
-0.18701424 -0.13194293 0.42800003
-0.18589841 -0.13194293 0.42800003
-0.18478259 -0.13194293 0.42800003
-0.18366677 -0.13194293 0.42800003
-0.18297747 -0.1322512 0.42900002
-0.18185903 -0.1322512 0.42900002
-0.18074061 -0.1322512 0.42900002
-0.17962217 -0.1322512 0.42900002
-0.17850374 -0.1322512 0.42900002
-0.17738532 -0.1322512 0.42900002
-0.17626688 -0.1322512 0.42900002
-0.17514846 -0.1322512 0.42900002
-0.17403002 -0.1322512 0.42900002
-0.1729116 -0.1322512 0.42900002
-0.17179316 -0.1322512 0.42900002
-0.17067473 -0.1322512 0.42900002
-0.16995153 -0.13255948 0.43000001
-0.1688305 -0.13255948 0.43000001
-0.16770945 -0.13255948 0.43000001
-0.16658843 -0.13255948 0.43000001
-0.16546738 -0.13255948 0.43000001
-0.16434634 -0.13255948 0.43000001
-0.16322531 -0.13255948 0.43000001
-0.16210426 -0.13255948 0.43000001
-0.16098323 -0.13255948 0.43000001
-0.15986219 -0.13255948 0.43000001
-0.15874116 -0.13255948 0.43000001
-0.15762012 -0.13255948 0.43000001
-0.15649909 -0.13255948 0.43000001
-0.15537804 -0.13255948 0.43000001
-0.15425701 -0.13255948 0.43000001
-0.15313597 -0.13255948 0.43000001
-0.15201494 -0.13255948 0.43000001
-0.1508939 -0.13255948 0.43000001
-0.14977285 -0.13255948 0.43000001
-0.14899753 -0.13286775 0.43100002
-0.14787388 -0.13286775 0.43100002
-0.14675024 -0.13286775 0.43100002
-0.14562659 -0.13286775 0.43100002
-0.14450295 -0.13286775 0.43100002
-0.1433793 -0.13286775 0.43100002
-0.14258572 -0.13317603 0.43200001
-0.14145947 -0.13317603 0.43200001
-0.14033322 -0.13317603 0.43200001
-0.13920696 -0.13317603 0.43200001
-0.13808072 -0.13317603 0.43200001
-0.13663743 -0.13286775 0.43100002
-0.13551378 -0.13286775 0.43100002
-0.13439015 -0.13286775 0.43100002
-0.13326649 -0.13286775 0.43100002
-0.13214286 -0.13286775 0.43100002
-0.1310192 -0.13286775 0.43100002
-0.12989557 -0.13286775 0.43100002
-0.12877193 -0.13286775 0.43100002
-0.12764828 -0.13286775 0.43100002
-0.12652464 -0.13286775 0.43100002
-0.12569195 -0.13317603 0.43200001
-0.12456569 -0.13317603 0.43200001
-0.12315371 -0.13286775 0.43100002
-0.12203006 -0.13286775 0.43100002
-0.12090641 -0.13286775 0.43100002
-0.11978278 -0.13286775 0.43100002
-0.11865912 -0.13286775 0.43100002
-0.11753549 -0.13286775 0.43100002
-0.11641183 -0.13286775 0.43100002
-0.1152882 -0.13286775 0.43100002
-0.11416455 -0.13286775 0.43100002
-0.11330318 -0.13317603 0.43200001
-0.11217692 -0.13317603 0.43200001
-0.11130775 -0.13348432 0.43300003
-0.11017888 -0.13348432 0.43300003
-0.10905003 -0.13348432 0.43300003
-0.10792116 -0.13348432 0.43300003
-0.10703894 -0.13379259 0.43400002
-0.10590747 -0.13379259 0.43400002
-0.104776 -0.13379259 0.43400002
-0.10364454 -0.13379259 0.43400002
-0.10251307 -0.13379259 0.43400002
-0.10138161 -0.13379259 0.43400002
-0.10025014 -0.13379259 0.43400002
-0.099118672 -0.13379259 0.43400002
-0.097987212 -0.13379259 0.43400002
-0.096855745 -0.13379259 0.43400002
-0.095724277 -0.13379259 0.43400002
-0.09459281 -0.13379259 0.43400002
-0.09346135 -0.13379259 0.43400002
-0.092329882 -0.13379259 0.43400002
-0.091198415 -0.13379259 0.43400002
-0.090066954 -0.13379259 0.43400002
-0.088935487 -0.13379259 0.43400002
-0.087804019 -0.13379259 0.43400002
-0.086672559 -0.13379259 0.43400002
-0.085541084 -0.13379259 0.43400002
-0.084409617 -0.13379259 0.43400002
-0.083278157 -0.13379259 0.43400002
-0.082146689 -0.13379259 0.43400002
-0.081015222 -0.13379259 0.43400002
-0.079883762 -0.13379259 0.43400002
-0.078752294 -0.13379259 0.43400002
-0.077799685 -0.13410087 0.43500003
-0.07666561 -0.13410087 0.43500003
-0.075531535 -0.13410087 0.43500003
-0.074397467 -0.13410087 0.43500003
-0.073263392 -0.13410087 0.43500003
-0.072295137 -0.13440914 0.43600002
-0.071158446 -0.13440914 0.43600002
-0.070021771 -0.13440914 0.43600002
-0.068885088 -0.13440914 0.43600002
-0.067593023 -0.13410087 0.43500003
-0.066458955 -0.13410087 0.43500003
-0.06532488 -0.13410087 0.43500003
-0.064190812 -0.13410087 0.43500003
-0.063056737 -0.13410087 0.43500003
-0.061922666 -0.13410087 0.43500003
-0.06078859 -0.13410087 0.43500003
-0.059654519 -0.13410087 0.43500003
-0.058520447 -0.13410087 0.43500003
-0.057386376 -0.13410087 0.43500003
-0.056252297 -0.13410087 0.43500003
-0.055118226 -0.13410087 0.43500003
-0.053984154 -0.13410087 0.43500003
-0.052850083 -0.13410087 0.43500003
-0.051716007 -0.13410087 0.43500003
-0.050581936 -0.13410087 0.43500003
-0.049447864 -0.13410087 0.43500003
-0.048424855 -0.13440914 0.43600002
-0.047179718 -0.13410087 0.43500003
-0.046045646 -0.13410087 0.43500003
-0.044911571 -0.13410087 0.43500003
-0.043777499 -0.13410087 0.43500003
-0.042643428 -0.13410087 0.43500003
-0.041509353 -0.13410087 0.43500003
-0.040375281 -0.13410087 0.43500003
-0.03924121 -0.13410087 0.43500003
-0.038107138 -0.13410087 0.43500003
-0.036973063 -0.13410087 0.43500003
-0.035921376 -0.13440914 0.43600002
-0.034784697 -0.13440914 0.43600002
-0.033648018 -0.13440914 0.43600002
-0.032511339 -0.13440914 0.43600002
-0.031374659 -0.13440914 0.43600002
-0.030237976 -0.13440914 0.43600002
-0.029101297 -0.13440914 0.43600002
-0.027964618 -0.13440914 0.43600002
-0.026827939 -0.13440914 0.43600002
-0.02569126 -0.13440914 0.43600002
-0.024554579 -0.13440914 0.43600002
-0.023417899 -0.13440914 0.43600002
-0.02228122 -0.13440914 0.43600002
-0.021193035 -0.13471742 0.43700001
-0.02005375 -0.13471742 0.43700001
-0.018871181 -0.13440914 0.43600002
-0.017775176 -0.13471742 0.43700001
-0.016635889 -0.13471742 0.43700001
-0.015496602 -0.13471742 0.43700001
-0.014357316 -0.13471742 0.43700001
-0.013218028 -0.13471742 0.43700001
-0.012078742 -0.13471742 0.43700001
-0.010939455 -0.13471742 0.43700001
-0.0098001687 -0.13471742 0.43700001
-0.0086807003 -0.13502571 0.43800002
-0.0075388066 -0.13502571 0.43800002
-0.0063969125 -0.13502571 0.43800002
-0.0052550188 -0.13502571 0.43800002
-0.0041131251 -0.13502571 0.43800002
-0.0029712312 -0.13502571 0.43800002
-0.0018293372 -0.13502571 0.43800002
-0.00068587373 -0.13471742 0.43700001
0.00045341309 -0.13471742 0.43700001
0.0015926999 -0.13471742 0.43700001
0.0027319868 -0.13471742 0.43700001
0.0038712737 -0.13471742 0.43700001
0.0050105602 -0.13471742 0.43700001
0.0061498471 -0.13471742 0.43700001
0.0072891344 -0.13471742 0.43700001
0.0084284209 -0.13471742 0.43700001
0.0095677078 -0.13471742 0.43700001
0.010706995 -0.13471742 0.43700001
0.011846281 -0.13471742 0.43700001
0.012985568 -0.13471742 0.43700001
0.014124854 -0.13471742 0.43700001
0.01526414 -0.13471742 0.43700001
0.016440965 -0.13502571 0.43800002
0.01758286 -0.13502571 0.43800002
0.018724753 -0.13502571 0.43800002
0.019866647 -0.13502571 0.43800002
0.021008542 -0.13502571 0.43800002
0.022150435 -0.13502571 0.43800002
0.023292329 -0.13502571 0.43800002
0.024434224 -0.13502571 0.43800002
0.025576117 -0.13502571 0.43800002
0.026718011 -0.13502571 0.43800002
0.027859904 -0.13502571 0.43800002
0.0290018 -0.13502571 0.43800002
0.030143693 -0.13502571 0.43800002
0.031285588 -0.13502571 0.43800002
0.032427479 -0.13502571 0.43800002
0.033569373 -0.13502571 0.43800002
0.034711268 -0.13502571 0.43800002
0.035853162 -0.13502571 0.43800002
0.036995057 -0.13502571 0.43800002
0.038136952 -0.13502571 0.43800002
0.039278843 -0.13502571 0.43800002
0.040420737 -0.13502571 0.43800002
0.041562632 -0.13502571 0.43800002
0.042704523 -0.13502571 0.43800002
0.043846421 -0.13502571 0.43800002
0.044885598 -0.13471742 0.43700001
0.046024885 -0.13471742 0.43700001
0.047164172 -0.13471742 0.43700001
0.048303459 -0.13471742 0.43700001
0.049442746 -0.13471742 0.43700001
0.050582033 -0.13471742 0.43700001
0.052614853 -0.11437108 0.37100002
0.053582072 -0.11437108 0.37100002
0.054549292 -0.11437108 0.37100002
0.055516511 -0.11437108 0.37100002
0.056483734 -0.11437108 0.37100002
0.057450954 -0.11437108 0.37100002
0.058575634 -0.11467936 0.37200001
0.059545461 -0.11467936 0.37200001
0.060515288 -0.11467936 0.37200001
0.061650399 -0.11498764 0.37300003
0.062622838 -0.11498764 0.37300003
0.063595265 -0.11498764 0.37300003
0.064740807 -0.11529592 0.37400001
0.065715849 -0.11529592 0.37400001
0.075807564 -0.12916842 0.41900003
0.076716386 -0.12886015 0.41800001
0.077806138 -0.12886015 0.41800001
0.078707144 -0.12855187 0.41700003
0.079794288 -0.12855187 0.41700003
0.080687471 -0.12824358 0.41600001
0.081575446 -0.12793531 0.41500002
0.082657374 -0.12793531 0.41500002
0.083537526 -0.12762704 0.41400003
0.084616855 -0.12762704 0.41400003
0.085489176 -0.12731875 0.41300002
0.086356297 -0.12701048 0.41200003
0.087218195 -0.1267022 0.41100001
0.088074885 -0.12639393 0.41000003
0.089143783 -0.12639393 0.41000003
0.089772612 -0.12577736 0.40800002
0.090836294 -0.12577736 0.40800002
0.09167473 -0.12546909 0.40700001
0.093191504 -0.12608564 0.40900001
0.094718717 -0.1267022 0.41100001
0.096722484 -0.12793531 0.41500002
0.10126915 -0.13101809 0.42500001
0.1033407 -0.1322512 0.42900002
0.10567661 -0.13379259 0.43400002
0.10803858 -0.13533397 0.43900001
0.1096805 -0.13595054 0.44100001
0.11083021 -0.13595054 0.44100001
0.11197993 -0.13595054 0.44100001
0.11312964 -0.13595054 0.44100001
0.11427936 -0.13595054 0.44100001
0.11569083 -0.13625881 0.44200003
0.11684314 -0.13625881 0.44200003
0.11799547 -0.13625881 0.44200003
0.11914779 -0.13625881 0.44200003
0.12057228 -0.13656709 0.44300002
0.12172721 -0.13656709 0.44300002
0.12288214 -0.13656709 0.44300002
0.12403706 -0.13656709 0.44300002
0.125192 -0.13656709 0.44300002
0.12663212 -0.13687538 0.44400004
0.12778968 -0.13687538 0.44400004
0.1289472 -0.13687538 0.44400004
0.13010475 -0.13687538 0.44400004
0.13126229 -0.13687538 0.44400004
0.13241981 -0.13687538 0.44400004
0.13357736 -0.13687538 0.44400004
0.13473488 -0.13687538 0.44400004
0.13589244 -0.13687538 0.44400004
0.13704996 -0.13687538 0.44400004
0.13820751 -0.13687538 0.44400004
0.13936503 -0.13687538 0.44400004
0.14052257 -0.13687538 0.44400004
0.14168011 -0.13687538 0.44400004
0.14283764 -0.13687538 0.44400004
0.14399518 -0.13687538 0.44400004
0.14515272 -0.13687538 0.44400004
0.14631025 -0.13687538 0.44400004
0.14746779 -0.13687538 0.44400004
0.14862533 -0.13687538 0.44400004
0.14978287 -0.13687538 0.44400004
0.1509404 -0.13687538 0.44400004
0.15209793 -0.13687538 0.44400004
0.15325548 -0.13687538 0.44400004
0.154413 -0.13687538 0.44400004
0.15557055 -0.13687538 0.44400004
0.15672807 -0.13687538 0.44400004
0.15788561 -0.13687538 0.44400004
0.15904315 -0.13687538 0.44400004
0.16020069 -0.13687538 0.44400004
0.16135824 -0.13687538 0.44400004
0.16251576 -0.13687538 0.44400004
0.16367331 -0.13687538 0.44400004
0.16483083 -0.13687538 0.44400004
0.16598837 -0.13687538 0.44400004
0.16714591 -0.13687538 0.44400004
0.16830344 -0.13687538 0.44400004
0.16946098 -0.13687538 0.44400004
0.17061852 -0.13687538 0.44400004
0.17177604 -0.13687538 0.44400004
0.17293359 -0.13687538 0.44400004
0.17409112 -0.13687538 0.44400004
0.17524867 -0.13687538 0.44400004
0.1764062 -0.13687538 0.44400004
0.17756373 -0.13687538 0.44400004
0.17872128 -0.13687538 0.44400004
0.1798788 -0.13687538 0.44400004
0.18103635 -0.13687538 0.44400004
0.18219388 -0.13687538 0.44400004
0.18335141 -0.13687538 0.44400004
0.18450895 -0.13687538 0.44400004
0.18566649 -0.13687538 0.44400004
0.18682402 -0.13687538 0.44400004
0.18798156 -0.13687538 0.44400004
0.1891391 -0.13687538 0.44400004
0.19029664 -0.13687538 0.44400004
0.19145417 -0.13687538 0.44400004
0.19261171 -0.13687538 0.44400004
0.19376925 -0.13687538 0.44400004
0.19492678 -0.13687538 0.44400004
0.19652595 -0.13718365 0.44500002
0.19768608 -0.13718365 0.44500002
0.19884624 -0.13718365 0.44500002
0.20000637 -0.13718365 0.44500002
0.20116651 -0.13718365 0.44500002
0.20232666 -0.13718365 0.44500002
0.2034868 -0.13718365 0.44500002
0.20464694 -0.13718365 0.44500002
0.20580709 -0.13718365 0.44500002
0.20696723 -0.13718365 0.44500002
0.20812738 -0.13718365 0.44500002
-0.24223809 -0.13052142 0.42700002
-0.24056019 -0.13021575 0.42600003
-0.23944959 -0.13021575 0.42600003
-0.23889846 -0.13052142 0.42700002
-0.23778522 -0.13052142 0.42700002
-0.23667201 -0.13052142 0.42700002
-0.23555881 -0.13052142 0.42700002
-0.23444557 -0.13052142 0.42700002
-0.23333237 -0.13052142 0.42700002
-0.23221914 -0.13052142 0.42700002
-0.23110594 -0.13052142 0.42700002
-0.2299927 -0.13052142 0.42700002
-0.2288795 -0.13052142 0.42700002
-0.22776629 -0.13052142 0.42700002
-0.22665308 -0.13052142 0.42700002
-0.22606805 -0.1308271 0.42800003
-0.22495224 -0.1308271 0.42800003
-0.22383642 -0.1308271 0.42800003
-0.22272059 -0.1308271 0.42800003
-0.22160476 -0.1308271 0.42800003
-0.22048894 -0.1308271 0.42800003
-0.21937312 -0.1308271 0.42800003
-0.21825728 -0.1308271 0.42800003
-0.21714146 -0.1308271 0.42800003
-0.21602565 -0.1308271 0.42800003
-0.21490984 -0.1308271 0.42800003
-0.21379401 -0.1308271 0.42800003
-0.21267818 -0.1308271 0.42800003
-0.21156237 -0.1308271 0.42800003
-0.21044654 -0.1308271 0.42800003
-0.20933071 -0.1308271 0.42800003
-0.20821488 -0.1308271 0.42800003
-0.20758292 -0.13113277 0.42900002
-0.2064645 -0.13113277 0.42900002
-0.20486741 -0.1308271 0.42800003
-0.20375159 -0.1308271 0.42800003
-0.20263577 -0.1308271 0.42800003
-0.20151995 -0.1308271 0.42800003
-0.20040412 -0.1308271 0.42800003
-0.19928829 -0.1308271 0.42800003
-0.19817246 -0.1308271 0.42800003
-0.19659624 -0.13052142 0.42700002
-0.19548301 -0.13052142 0.42700002
-0.19436981 -0.13052142 0.42700002
-0.19325659 -0.13052142 0.42700002
-0.19259335 -0.1308271 0.42800003
-0.19147754 -0.1308271 0.42800003
-0.19036171 -0.1308271 0.42800003
-0.18924589 -0.1308271 0.42800003
-0.18813007 -0.1308271 0.42800003
-0.18701424 -0.1308271 0.42800003
-0.18589841 -0.1308271 0.42800003
-0.18478259 -0.1308271 0.42800003
-0.18366677 -0.1308271 0.42800003
-0.18255095 -0.1308271 0.42800003
-0.18185903 -0.13113277 0.42900002
-0.18031931 -0.1308271 0.42800003
-0.17962217 -0.13113277 0.42900002
-0.17850374 -0.13113277 0.42900002
-0.17738532 -0.13113277 0.42900002
-0.17626688 -0.13113277 0.42900002
-0.17514846 -0.13113277 0.42900002
-0.17403002 -0.13113277 0.42900002
-0.1729116 -0.13113277 0.42900002
-0.17179316 -0.13113277 0.42900002
-0.17067473 -0.13113277 0.42900002
-0.16955629 -0.13113277 0.42900002
-0.1688305 -0.13143843 0.43000001
-0.16770945 -0.13143843 0.43000001
-0.16658843 -0.13143843 0.43000001
-0.16546738 -0.13143843 0.43000001
-0.16434634 -0.13143843 0.43000001
-0.16322531 -0.13143843 0.43000001
-0.16210426 -0.13143843 0.43000001
-0.16098323 -0.13143843 0.43000001
-0.15986219 -0.13143843 0.43000001
-0.15874116 -0.13143843 0.43000001
-0.15762012 -0.13143843 0.43000001
-0.15649909 -0.13143843 0.43000001
-0.15537804 -0.13143843 0.43000001
-0.15425701 -0.13143843 0.43000001
-0.15313597 -0.13143843 0.43000001
-0.15201494 -0.13143843 0.43000001
-0.1508939 -0.13143843 0.43000001
-0.14977285 -0.13143843 0.43000001
-0.14899753 -0.1317441 0.43100002
-0.14787388 -0.1317441 0.43100002
-0.14675024 -0.1317441 0.43100002
-0.14562659 -0.1317441 0.43100002
-0.14450295 -0.1317441 0.43100002
-0.1433793 -0.1317441 0.43100002
-0.14258572 -0.13204977 0.43200001
-0.14145947 -0.13204977 0.43200001
-0.14033322 -0.13204977 0.43200001
-0.13920696 -0.13204977 0.43200001
-0.13808072 -0.13204977 0.43200001
-0.13663743 -0.1317441 0.43100002
-0.13551378 -0.1317441 0.43100002
-0.13439015 -0.1317441 0.43100002
-0.13326649 -0.1317441 0.43100002
-0.13214286 -0.1317441 0.43100002
-0.1310192 -0.1317441 0.43100002
-0.12989557 -0.1317441 0.43100002
-0.12877193 -0.1317441 0.43100002
-0.12764828 -0.1317441 0.43100002
-0.12681819 -0.13204977 0.43200001
-0.12569195 -0.13204977 0.43200001
-0.12456569 -0.13204977 0.43200001
-0.12315371 -0.1317441 0.43100002
-0.12203006 -0.1317441 0.43100002
-0.12090641 -0.1317441 0.43100002
-0.11978278 -0.1317441 0.43100002
-0.11865912 -0.1317441 0.43100002
-0.11753549 -0.1317441 0.43100002
-0.11641183 -0.1317441 0.43100002
-0.1152882 -0.1317441 0.43100002
-0.11416455 -0.1317441 0.43100002
-0.11330318 -0.13204977 0.43200001
-0.11217692 -0.13204977 0.43200001
-0.11105068 -0.13204977 0.43200001
-0.11017888 -0.13235545 0.43300003
-0.10905003 -0.13235545 0.43300003
-0.10792116 -0.13235545 0.43300003
-0.10703894 -0.13266112 0.43400002
-0.10590747 -0.13266112 0.43400002
-0.104776 -0.13266112 0.43400002
-0.10364454 -0.13266112 0.43400002
-0.10251307 -0.13266112 0.43400002
-0.10138161 -0.13266112 0.43400002
-0.10025014 -0.13266112 0.43400002
-0.099118672 -0.13266112 0.43400002
-0.097987212 -0.13266112 0.43400002
-0.096855745 -0.13266112 0.43400002
-0.095724277 -0.13266112 0.43400002
-0.09459281 -0.13266112 0.43400002
-0.09346135 -0.13266112 0.43400002
-0.092329882 -0.13266112 0.43400002
-0.091198415 -0.13266112 0.43400002
-0.090066954 -0.13266112 0.43400002
-0.088935487 -0.13266112 0.43400002
-0.087804019 -0.13266112 0.43400002
-0.086672559 -0.13266112 0.43400002
-0.085541084 -0.13266112 0.43400002
-0.084409617 -0.13266112 0.43400002
-0.083278157 -0.13266112 0.43400002
-0.082146689 -0.13266112 0.43400002
-0.081015222 -0.13266112 0.43400002
-0.079883762 -0.13266112 0.43400002
-0.078933753 -0.13296679 0.43500003
-0.077799685 -0.13296679 0.43500003
-0.07666561 -0.13296679 0.43500003
-0.075531535 -0.13296679 0.43500003
-0.074397467 -0.13296679 0.43500003
-0.073263392 -0.13296679 0.43500003
-0.072295137 -0.13327245 0.43600002
-0.071158446 -0.13327245 0.43600002
-0.070021771 -0.13327245 0.43600002
-0.068885088 -0.13327245 0.43600002
-0.067593023 -0.13296679 0.43500003
-0.066458955 -0.13296679 0.43500003
-0.06532488 -0.13296679 0.43500003
-0.064190812 -0.13296679 0.43500003
-0.063056737 -0.13296679 0.43500003
-0.061922666 -0.13296679 0.43500003
-0.06078859 -0.13296679 0.43500003
-0.059654519 -0.13296679 0.43500003
-0.058520447 -0.13296679 0.43500003
-0.057386376 -0.13296679 0.43500003
-0.056252297 -0.13296679 0.43500003
-0.055118226 -0.13296679 0.43500003
-0.053984154 -0.13296679 0.43500003
-0.052850083 -0.13296679 0.43500003
-0.051716007 -0.13296679 0.43500003
-0.050581936 -0.13296679 0.43500003
-0.049447864 -0.13296679 0.43500003
-0.048424855 -0.13327245 0.43600002
-0.047179718 -0.13296679 0.43500003
-0.046045646 -0.13296679 0.43500003
-0.044911571 -0.13296679 0.43500003
-0.043777499 -0.13296679 0.43500003
-0.042643428 -0.13296679 0.43500003
-0.041509353 -0.13296679 0.43500003
-0.040375281 -0.13296679 0.43500003
-0.03924121 -0.13296679 0.43500003
-0.038107138 -0.13296679 0.43500003
-0.036973063 -0.13296679 0.43500003
-0.035838988 -0.13296679 0.43500003
-0.034704916 -0.13296679 0.43500003
-0.033648018 -0.13327245 0.43600002
-0.032511339 -0.13327245 0.43600002
-0.031374659 -0.13327245 0.43600002
-0.030237976 -0.13327245 0.43600002
-0.029101297 -0.13327245 0.43600002
-0.027964618 -0.13327245 0.43600002
-0.026827939 -0.13327245 0.43600002
-0.02569126 -0.13327245 0.43600002
-0.024554579 -0.13327245 0.43600002
-0.023417899 -0.13327245 0.43600002
-0.02228122 -0.13327245 0.43600002
-0.021144539 -0.13327245 0.43600002
-0.02000786 -0.13327245 0.43600002
-0.018871181 -0.13327245 0.43600002
-0.017775176 -0.13357812 0.43700001
-0.016635889 -0.13357812 0.43700001
-0.015496602 -0.13357812 0.43700001
-0.014357316 -0.13357812 0.43700001
-0.013218028 -0.13357812 0.43700001
-0.012078742 -0.13357812 0.43700001
-0.010939455 -0.13357812 0.43700001
-0.0098001687 -0.13357812 0.43700001
-0.0086807003 -0.1338838 0.43800002
-0.0075388066 -0.1338838 0.43800002
-0.0063969125 -0.1338838 0.43800002
-0.0052550188 -0.1338838 0.43800002
-0.0041131251 -0.1338838 0.43800002
-0.0029712312 -0.1338838 0.43800002
-0.0018293372 -0.1338838 0.43800002
-0.00068587373 -0.13357812 0.43700001
0.00045341309 -0.13357812 0.43700001
0.0015926999 -0.13357812 0.43700001
0.0027319868 -0.13357812 0.43700001
0.0038712737 -0.13357812 0.43700001
0.0050105602 -0.13357812 0.43700001
0.0061498471 -0.13357812 0.43700001
0.0072891344 -0.13357812 0.43700001
0.0084284209 -0.13357812 0.43700001
0.0095677078 -0.13357812 0.43700001
0.010731496 -0.1338838 0.43800002
0.01187339 -0.1338838 0.43800002
0.013015284 -0.1338838 0.43800002
0.014124854 -0.13357812 0.43700001
0.015299071 -0.1338838 0.43800002
0.016440965 -0.1338838 0.43800002
0.01758286 -0.1338838 0.43800002
0.018724753 -0.1338838 0.43800002
0.019866647 -0.1338838 0.43800002
0.021008542 -0.1338838 0.43800002
0.022150435 -0.1338838 0.43800002
0.023292329 -0.1338838 0.43800002
0.024434224 -0.1338838 0.43800002
0.025576117 -0.1338838 0.43800002
0.026718011 -0.1338838 0.43800002
0.027859904 -0.1338838 0.43800002
0.0290018 -0.1338838 0.43800002
0.030143693 -0.1338838 0.43800002
0.031285588 -0.1338838 0.43800002
0.032427479 -0.1338838 0.43800002
0.033569373 -0.1338838 0.43800002
0.034711268 -0.1338838 0.43800002
0.035853162 -0.1338838 0.43800002
0.036995057 -0.1338838 0.43800002
0.038136952 -0.1338838 0.43800002
0.039278843 -0.1338838 0.43800002
0.040420737 -0.1338838 0.43800002
0.043846421 -0.1338838 0.43800002
0.044988316 -0.1338838 0.43800002
0.046024885 -0.13357812 0.43700001
0.047164172 -0.13357812 0.43700001
0.048303459 -0.13357812 0.43700001
0.051647626 -0.11340386 0.37100002
0.052614853 -0.11340386 0.37100002
0.053582072 -0.11340386 0.37100002
0.054549292 -0.11340386 0.37100002
0.055516511 -0.11340386 0.37100002
0.056483734 -0.11340386 0.37100002
0.057605807 -0.11370953 0.37200001
0.058575634 -0.11370953 0.37200001
0.059545461 -0.11370953 0.37200001
0.060677964 -0.11401521 0.37300003
0.061650399 -0.11401521 0.37300003
0.062622838 -0.11401521 0.37300003
0.074893519 -0.12838173 0.42000002
0.075807564 -0.12807606 0.41900003
0.076899916 -0.12807606 0.41900003
0.077806138 -0.12777038 0.41800001
0.078895889 -0.12777038 0.41800001
0.079794288 -0.12746471 0.41700003
0.080881432 -0.12746471 0.41700003
0.081772007 -0.12715904 0.41600001
0.082856551 -0.12715904 0.41600001
0.083739311 -0.12685338 0.41500002
0.084821239 -0.12685338 0.41500002
0.085696176 -0.12654771 0.41400003
0.086565897 -0.12624203 0.41300002
0.08743041 -0.12593636 0.41200003
0.0882897 -0.12563069 0.41100001
0.089361198 -0.12563069 0.41100001
0.090212673 -0.12532502 0.41000003
0.091058932 -0.12501934 0.40900001
0.091899976 -0.12471368 0.40800002
0.093191504 -0.12501934 0.40900001
0.094718717 -0.12563069 0.41100001
0.096722484 -0.12685338 0.41500002
0.10079259 -0.12929873 0.42300001
0.10309982 -0.1308271 0.42800003
0.10567661 -0.13266112 0.43400002
0.10803858 -0.13418947 0.43900001
0.1096805 -0.13480081 0.44100001
0.11083021 -0.13480081 0.44100001
0.11197993 -0.13480081 0.44100001
0.11312964 -0.13480081 0.44100001
0.1145385 -0.13510649 0.44200003
0.11569083 -0.13510649 0.44200003
0.11684314 -0.13510649 0.44200003
0.11799547 -0.13510649 0.44200003
0.11914779 -0.13510649 0.44200003
0.12057228 -0.13541216 0.44300002
0.12172721 -0.13541216 0.44300002
0.12288214 -0.13541216 0.44300002
0.12431706 -0.13571784 0.44400004
0.125192 -0.13541216 0.44300002
0.12663212 -0.13571784 0.44400004
0.12778968 -0.13571784 0.44400004
0.1289472 -0.13571784 0.44400004
0.13010475 -0.13571784 0.44400004
0.13126229 -0.13571784 0.44400004
0.13241981 -0.13571784 0.44400004
0.13357736 -0.13571784 0.44400004
0.13473488 -0.13571784 0.44400004
0.13589244 -0.13571784 0.44400004
0.13704996 -0.13571784 0.44400004
0.13820751 -0.13571784 0.44400004
0.13936503 -0.13571784 0.44400004
0.14052257 -0.13571784 0.44400004
0.14168011 -0.13571784 0.44400004
0.14283764 -0.13571784 0.44400004
0.14399518 -0.13571784 0.44400004
0.14515272 -0.13571784 0.44400004
0.14631025 -0.13571784 0.44400004
0.14746779 -0.13571784 0.44400004
0.14862533 -0.13571784 0.44400004
0.14978287 -0.13571784 0.44400004
0.1509404 -0.13571784 0.44400004
0.15209793 -0.13571784 0.44400004
0.15325548 -0.13571784 0.44400004
0.154413 -0.13571784 0.44400004
0.15557055 -0.13571784 0.44400004
0.15672807 -0.13571784 0.44400004
0.15788561 -0.13571784 0.44400004
0.15904315 -0.13571784 0.44400004
0.16020069 -0.13571784 0.44400004
0.16135824 -0.13571784 0.44400004
0.16251576 -0.13571784 0.44400004
0.16367331 -0.13571784 0.44400004
0.16483083 -0.13571784 0.44400004
0.16598837 -0.13571784 0.44400004
0.16714591 -0.13571784 0.44400004
0.16830344 -0.13571784 0.44400004
0.16946098 -0.13571784 0.44400004
0.17061852 -0.13571784 0.44400004
0.17177604 -0.13571784 0.44400004
0.17293359 -0.13571784 0.44400004
0.17409112 -0.13571784 0.44400004
0.17524867 -0.13571784 0.44400004
0.1764062 -0.13571784 0.44400004
0.17756373 -0.13571784 0.44400004
0.17872128 -0.13571784 0.44400004
0.1798788 -0.13571784 0.44400004
0.18103635 -0.13571784 0.44400004
0.18219388 -0.13571784 0.44400004
0.18335141 -0.13571784 0.44400004
0.18450895 -0.13571784 0.44400004
0.18566649 -0.13571784 0.44400004
0.18682402 -0.13571784 0.44400004
0.18798156 -0.13571784 0.44400004
0.1891391 -0.13571784 0.44400004
0.19029664 -0.13571784 0.44400004
0.19145417 -0.13571784 0.44400004
0.19261171 -0.13571784 0.44400004
0.19376925 -0.13571784 0.44400004
0.1953658 -0.13602349 0.44500002
0.19652595 -0.13602349 0.44500002
0.19768608 -0.13602349 0.44500002
0.19884624 -0.13602349 0.44500002
0.20000637 -0.13602349 0.44500002
0.20116651 -0.13602349 0.44500002
0.20232666 -0.13602349 0.44500002
0.2034868 -0.13602349 0.44500002
0.20464694 -0.13602349 0.44500002
0.20580709 -0.13602349 0.44500002
0.20696723 -0.13602349 0.44500002
0.20812738 -0.13602349 0.44500002
-0.24223809 -0.1294082 0.42700002
-0.24112488 -0.1294082 0.42700002
-0.24001166 -0.1294082 0.42700002
-0.23889846 -0.1294082 0.42700002
-0.23778522 -0.1294082 0.42700002
-0.23667201 -0.1294082 0.42700002
-0.23555881 -0.1294082 0.42700002
-0.23444557 -0.1294082 0.42700002
-0.23333237 -0.1294082 0.42700002
-0.23221914 -0.1294082 0.42700002
-0.23110594 -0.1294082 0.42700002
-0.2299927 -0.1294082 0.42700002
-0.2288795 -0.1294082 0.42700002
-0.22776629 -0.1294082 0.42700002
-0.22665308 -0.1294082 0.42700002
-0.22606805 -0.12971127 0.42800003
-0.22495224 -0.12971127 0.42800003
-0.22383642 -0.12971127 0.42800003
-0.22272059 -0.12971127 0.42800003
-0.22160476 -0.12971127 0.42800003
-0.22048894 -0.12971127 0.42800003
-0.21937312 -0.12971127 0.42800003
-0.21825728 -0.12971127 0.42800003
-0.21714146 -0.12971127 0.42800003
-0.21602565 -0.12971127 0.42800003
-0.21490984 -0.12971127 0.42800003
-0.21379401 -0.12971127 0.42800003
-0.21267818 -0.12971127 0.42800003
-0.21156237 -0.12971127 0.42800003
-0.21044654 -0.12971127 0.42800003
-0.20933071 -0.12971127 0.42800003
-0.20821488 -0.12971127 0.42800003
-0.20709905 -0.12971127 0.42800003
-0.20598324 -0.12971127 0.42800003
-0.20486741 -0.12971127 0.42800003
-0.20375159 -0.12971127 0.42800003
-0.20263577 -0.12971127 0.42800003
-0.20151995 -0.12971127 0.42800003
-0.20040412 -0.12971127 0.42800003
-0.19928829 -0.12971127 0.42800003
-0.19817246 -0.12971127 0.42800003
-0.19659624 -0.1294082 0.42700002
-0.19548301 -0.1294082 0.42700002
-0.19436981 -0.1294082 0.42700002
-0.19325659 -0.1294082 0.42700002
-0.19259335 -0.12971127 0.42800003
-0.19147754 -0.12971127 0.42800003
-0.19036171 -0.12971127 0.42800003
-0.18924589 -0.12971127 0.42800003
-0.18813007 -0.12971127 0.42800003
-0.18701424 -0.12971127 0.42800003
-0.18589841 -0.12971127 0.42800003
-0.18478259 -0.12971127 0.42800003
-0.18366677 -0.12971127 0.42800003
-0.18255095 -0.12971127 0.42800003
-0.18143512 -0.12971127 0.42800003
-0.18031931 -0.12971127 0.42800003
-0.17920348 -0.12971127 0.42800003
-0.17850374 -0.13001433 0.42900002
-0.17738532 -0.13001433 0.42900002
-0.17626688 -0.13001433 0.42900002
-0.17514846 -0.13001433 0.42900002
-0.17403002 -0.13001433 0.42900002
-0.1729116 -0.13001433 0.42900002
-0.17179316 -0.13001433 0.42900002
-0.17067473 -0.13001433 0.42900002
-0.16955629 -0.13001433 0.42900002
-0.1688305 -0.13031739 0.43000001
-0.16770945 -0.13031739 0.43000001
-0.16658843 -0.13031739 0.43000001
-0.16546738 -0.13031739 0.43000001
-0.16434634 -0.13031739 0.43000001
-0.16322531 -0.13031739 0.43000001
-0.16210426 -0.13031739 0.43000001
-0.16098323 -0.13031739 0.43000001
-0.15986219 -0.13031739 0.43000001
-0.15874116 -0.13031739 0.43000001
-0.15762012 -0.13031739 0.43000001
-0.15649909 -0.13031739 0.43000001
-0.15537804 -0.13031739 0.43000001
-0.15425701 -0.13031739 0.43000001
-0.15313597 -0.13031739 0.43000001
-0.15201494 -0.13031739 0.43000001
-0.1508939 -0.13031739 0.43000001
-0.14977285 -0.13031739 0.43000001
-0.14899753 -0.13062046 0.43100002
-0.14787388 -0.13062046 0.43100002
-0.14675024 -0.13062046 0.43100002
-0.14562659 -0.13062046 0.43100002
-0.14450295 -0.13062046 0.43100002
-0.1433793 -0.13062046 0.43100002
-0.14258572 -0.13092352 0.43200001
-0.14145947 -0.13092352 0.43200001
-0.14033322 -0.13092352 0.43200001
-0.13920696 -0.13092352 0.43200001
-0.13808072 -0.13092352 0.43200001
-0.13695446 -0.13092352 0.43200001
-0.13551378 -0.13062046 0.43100002
-0.13439015 -0.13062046 0.43100002
-0.13326649 -0.13062046 0.43100002
-0.13214286 -0.13062046 0.43100002
-0.1310192 -0.13062046 0.43100002
-0.12989557 -0.13062046 0.43100002
-0.12877193 -0.13062046 0.43100002
-0.12764828 -0.13062046 0.43100002
-0.12681819 -0.13092352 0.43200001
-0.12540101 -0.13062046 0.43100002
-0.12427735 -0.13062046 0.43100002
-0.12315371 -0.13062046 0.43100002
-0.12203006 -0.13062046 0.43100002
-0.12090641 -0.13062046 0.43100002
-0.11978278 -0.13062046 0.43100002
-0.11865912 -0.13062046 0.43100002
-0.11753549 -0.13062046 0.43100002
-0.11641183 -0.13062046 0.43100002
-0.1152882 -0.13062046 0.43100002
-0.11416455 -0.13062046 0.43100002
-0.11330318 -0.13092352 0.43200001
-0.11217692 -0.13092352 0.43200001
-0.11105068 -0.13092352 0.43200001
-0.11017888 -0.13122658 0.43300003
-0.10905003 -0.13122658 0.43300003
-0.10792116 -0.13122658 0.43300003
-0.10703894 -0.13152964 0.43400002
-0.10590747 -0.13152964 0.43400002
-0.104776 -0.13152964 0.43400002
-0.10364454 -0.13152964 0.43400002
-0.10251307 -0.13152964 0.43400002
-0.10138161 -0.13152964 0.43400002
-0.10025014 -0.13152964 0.43400002
-0.099118672 -0.13152964 0.43400002
-0.097987212 -0.13152964 0.43400002
-0.096855745 -0.13152964 0.43400002
-0.095724277 -0.13152964 0.43400002
-0.09459281 -0.13152964 0.43400002
-0.09346135 -0.13152964 0.43400002
-0.092329882 -0.13152964 0.43400002
-0.091198415 -0.13152964 0.43400002
-0.090066954 -0.13152964 0.43400002
-0.088935487 -0.13152964 0.43400002
-0.087804019 -0.13152964 0.43400002
-0.086672559 -0.13152964 0.43400002
-0.085541084 -0.13152964 0.43400002
-0.084409617 -0.13152964 0.43400002
-0.083278157 -0.13152964 0.43400002
-0.082146689 -0.13152964 0.43400002
-0.081015222 -0.13152964 0.43400002
-0.080067828 -0.13183272 0.43500003
-0.078933753 -0.13183272 0.43500003
-0.077799685 -0.13183272 0.43500003
-0.07666561 -0.13183272 0.43500003
-0.075531535 -0.13183272 0.43500003
-0.074397467 -0.13183272 0.43500003
-0.073263392 -0.13183272 0.43500003
-0.072129324 -0.13183272 0.43500003
-0.070995241 -0.13183272 0.43500003
-0.069861174 -0.13183272 0.43500003
-0.068727098 -0.13183272 0.43500003
-0.067593023 -0.13183272 0.43500003
-0.066458955 -0.13183272 0.43500003
-0.06532488 -0.13183272 0.43500003
-0.064190812 -0.13183272 0.43500003
-0.063056737 -0.13183272 0.43500003
-0.061922666 -0.13183272 0.43500003
-0.06078859 -0.13183272 0.43500003
-0.059654519 -0.13183272 0.43500003
-0.058520447 -0.13183272 0.43500003
-0.057386376 -0.13183272 0.43500003
-0.056252297 -0.13183272 0.43500003
-0.055118226 -0.13183272 0.43500003
-0.053984154 -0.13183272 0.43500003
-0.052850083 -0.13183272 0.43500003
-0.051716007 -0.13183272 0.43500003
-0.050581936 -0.13183272 0.43500003
-0.049447864 -0.13183272 0.43500003
-0.048424855 -0.13213578 0.43600002
-0.047288176 -0.13213578 0.43600002
-0.046045646 -0.13183272 0.43500003
-0.044911571 -0.13183272 0.43500003
-0.043777499 -0.13183272 0.43500003
-0.042643428 -0.13183272 0.43500003
-0.041509353 -0.13183272 0.43500003
-0.040375281 -0.13183272 0.43500003
-0.03924121 -0.13183272 0.43500003
-0.038107138 -0.13183272 0.43500003
-0.036973063 -0.13183272 0.43500003
-0.035838988 -0.13183272 0.43500003
-0.034704916 -0.13183272 0.43500003
-0.033570845 -0.13183272 0.43500003
-0.032511339 -0.13213578 0.43600002
-0.031374659 -0.13213578 0.43600002
-0.030237976 -0.13213578 0.43600002
-0.029101297 -0.13213578 0.43600002
-0.027964618 -0.13213578 0.43600002
-0.026827939 -0.13213578 0.43600002
-0.02569126 -0.13213578 0.43600002
-0.024554579 -0.13213578 0.43600002
-0.023417899 -0.13213578 0.43600002
-0.02228122 -0.13213578 0.43600002
-0.021144539 -0.13213578 0.43600002
-0.02000786 -0.13213578 0.43600002
-0.018871181 -0.13213578 0.43600002
-0.017775176 -0.13243884 0.43700001
-0.016635889 -0.13243884 0.43700001
-0.015496602 -0.13243884 0.43700001
-0.014357316 -0.13243884 0.43700001
-0.013218028 -0.13243884 0.43700001
-0.012078742 -0.13243884 0.43700001
-0.010939455 -0.13243884 0.43700001
-0.0098001687 -0.13243884 0.43700001
-0.0086807003 -0.1327419 0.43800002
-0.0075388066 -0.1327419 0.43800002
-0.0063969125 -0.1327419 0.43800002
-0.0052550188 -0.1327419 0.43800002
-0.0041131251 -0.1327419 0.43800002
-0.0029712312 -0.1327419 0.43800002
-0.0018293372 -0.1327419 0.43800002
-0.00068587373 -0.13243884 0.43700001
0.00045341309 -0.13243884 0.43700001
0.0015926999 -0.13243884 0.43700001
0.0027319868 -0.13243884 0.43700001
0.0038712737 -0.13243884 0.43700001
0.0050105602 -0.13243884 0.43700001
0.0061498471 -0.13243884 0.43700001
0.0072891344 -0.13243884 0.43700001
0.0084284209 -0.13243884 0.43700001
0.0095896022 -0.1327419 0.43800002
0.010731496 -0.1327419 0.43800002
0.01187339 -0.1327419 0.43800002
0.013015284 -0.1327419 0.43800002
0.014157177 -0.1327419 0.43800002
0.015299071 -0.1327419 0.43800002
0.016440965 -0.1327419 0.43800002
0.01758286 -0.1327419 0.43800002
0.018724753 -0.1327419 0.43800002
0.019866647 -0.1327419 0.43800002
0.021008542 -0.1327419 0.43800002
0.022150435 -0.1327419 0.43800002
0.023292329 -0.1327419 0.43800002
0.024434224 -0.1327419 0.43800002
0.025576117 -0.1327419 0.43800002
0.026718011 -0.1327419 0.43800002
0.027859904 -0.1327419 0.43800002
0.0290018 -0.1327419 0.43800002
0.030143693 -0.1327419 0.43800002
0.031285588 -0.1327419 0.43800002
0.032427479 -0.1327419 0.43800002
0.033569373 -0.1327419 0.43800002
0.034711268 -0.1327419 0.43800002
0.035853162 -0.1327419 0.43800002
0.036995057 -0.1327419 0.43800002
0.038136952 -0.1327419 0.43800002
0.039278843 -0.1327419 0.43800002
0.040420737 -0.1327419 0.43800002
0.041562632 -0.1327419 0.43800002
0.042704523 -0.1327419 0.43800002
0.043746315 -0.13243884 0.43700001
0.044885598 -0.13243884 0.43700001
0.046024885 -0.13243884 0.43700001
0.047164172 -0.13243884 0.43700001
0.049713187 -0.11243664 0.37100002
0.050680406 -0.11243664 0.37100002
0.051647626 -0.11243664 0.37100002
0.052614853 -0.11243664 0.37100002
0.053726498 -0.1127397 0.37200001
0.054696325 -0.1127397 0.37200001
0.055666152 -0.1127397 0.37200001
0.05663598 -0.1127397 0.37200001
0.057605807 -0.1127397 0.37200001
0.058575634 -0.1127397 0.37200001
0.059705533 -0.11304276 0.37300003
0.060677964 -0.11304276 0.37300003
0.061650399 -0.11304276 0.37300003
0.073049784 -0.12789288 0.42200002
0.074149974 -0.12789288 0.42200002
0.074893519 -0.12728676 0.42000002
0.075988486 -0.12728676 0.42000002
0.077083446 -0.12728676 0.42000002
0.077992275 -0.1269837 0.41900003
0.078895889 -0.12668063 0.41800001
0.079985641 -0.12668063 0.41800001
0.081075393 -0.12668063 0.41800001
0.081968583 -0.12637757 0.41700003
0.082856551 -0.12607449 0.41600001
0.083941087 -0.12607449 0.41600001
0.084821239 -0.12577143 0.41500002
0.085903168 -0.12577143 0.41500002
0.086775504 -0.12546837 0.41400003
0.087642618 -0.12516531 0.41300002
0.088719331 -0.12516531 0.41300002
0.089578629 -0.12486225 0.41200003
0.090432703 -0.12455918 0.41100001
0.09128157 -0.12425612 0.41000003
0.092125222 -0.12395305 0.40900001
0.093419366 -0.12425612 0.41000003
0.094718717 -0.12455918 0.41100001
0.096489422 -0.12546837 0.41400003
0.098511435 -0.12668063 0.41800001
0.10285892 -0.1294082 0.42700002
0.10543311 -0.13122658 0.43300003
0.10779248 -0.1327419 0.43800002
0.1096805 -0.13365109 0.44100001
0.11083021 -0.13365109 0.44100001
0.11197993 -0.13365109 0.44100001
0.11312964 -0.13365109 0.44100001
0.1145385 -0.13395417 0.44200003
0.11569083 -0.13395417 0.44200003
0.11684314 -0.13395417 0.44200003
0.11799547 -0.13395417 0.44200003
0.11941735 -0.13425723 0.44300002
0.12057228 -0.13425723 0.44300002
0.12172721 -0.13425723 0.44300002
0.12288214 -0.13425723 0.44300002
0.12403706 -0.13425723 0.44300002
0.1254746 -0.13456029 0.44400004
0.12663212 -0.13456029 0.44400004
0.12778968 -0.13456029 0.44400004
0.1289472 -0.13456029 0.44400004
0.13010475 -0.13456029 0.44400004
0.13126229 -0.13456029 0.44400004
0.13241981 -0.13456029 0.44400004
0.13357736 -0.13456029 0.44400004
0.13473488 -0.13456029 0.44400004
0.13589244 -0.13456029 0.44400004
0.13704996 -0.13456029 0.44400004
0.13820751 -0.13456029 0.44400004
0.13936503 -0.13456029 0.44400004
0.14052257 -0.13456029 0.44400004
0.14168011 -0.13456029 0.44400004
0.14283764 -0.13456029 0.44400004
0.14399518 -0.13456029 0.44400004
0.14515272 -0.13456029 0.44400004
0.14631025 -0.13456029 0.44400004
0.14746779 -0.13456029 0.44400004
0.14862533 -0.13456029 0.44400004
0.14978287 -0.13456029 0.44400004
0.1509404 -0.13456029 0.44400004
0.15209793 -0.13456029 0.44400004
0.15325548 -0.13456029 0.44400004
0.154413 -0.13456029 0.44400004
0.15557055 -0.13456029 0.44400004
0.15672807 -0.13456029 0.44400004
0.15788561 -0.13456029 0.44400004
0.15904315 -0.13456029 0.44400004
0.16020069 -0.13456029 0.44400004
0.16135824 -0.13456029 0.44400004
0.16251576 -0.13456029 0.44400004
0.16367331 -0.13456029 0.44400004
0.16483083 -0.13456029 0.44400004
0.16598837 -0.13456029 0.44400004
0.16714591 -0.13456029 0.44400004
0.16830344 -0.13456029 0.44400004
0.16946098 -0.13456029 0.44400004
0.17061852 -0.13456029 0.44400004
0.17177604 -0.13456029 0.44400004
0.17293359 -0.13456029 0.44400004
0.17409112 -0.13456029 0.44400004
0.17524867 -0.13456029 0.44400004
0.1764062 -0.13456029 0.44400004
0.17756373 -0.13456029 0.44400004
0.17872128 -0.13456029 0.44400004
0.1798788 -0.13456029 0.44400004
0.18103635 -0.13456029 0.44400004
0.18219388 -0.13456029 0.44400004
0.18335141 -0.13456029 0.44400004
0.18450895 -0.13456029 0.44400004
0.18566649 -0.13456029 0.44400004
0.18682402 -0.13456029 0.44400004
0.18798156 -0.13456029 0.44400004
0.1891391 -0.13456029 0.44400004
0.19029664 -0.13456029 0.44400004
0.19145417 -0.13456029 0.44400004
0.19261171 -0.13456029 0.44400004
0.19420566 -0.13486335 0.44500002
0.1953658 -0.13486335 0.44500002
0.19652595 -0.13486335 0.44500002
0.19768608 -0.13486335 0.44500002
0.19884624 -0.13486335 0.44500002
0.20000637 -0.13486335 0.44500002
0.20116651 -0.13486335 0.44500002
0.20232666 -0.13486335 0.44500002
0.2034868 -0.13486335 0.44500002
0.20464694 -0.13486335 0.44500002
0.20580709 -0.13486335 0.44500002
0.20696723 -0.13486335 0.44500002
0.20812738 -0.13486335 0.44500002
-0.24223809 -0.12829499 0.42700002
-0.24112488 -0.12829499 0.42700002
-0.24001166 -0.12829499 0.42700002
-0.23889846 -0.12829499 0.42700002
-0.23778522 -0.12829499 0.42700002
-0.23667201 -0.12829499 0.42700002
-0.23555881 -0.12829499 0.42700002
-0.23444557 -0.12829499 0.42700002
-0.23333237 -0.12829499 0.42700002
-0.23221914 -0.12829499 0.42700002
-0.23110594 -0.12829499 0.42700002
-0.2299927 -0.12829499 0.42700002
-0.2288795 -0.12829499 0.42700002
-0.22776629 -0.12829499 0.42700002
-0.22665308 -0.12829499 0.42700002
-0.22606805 -0.12859546 0.42800003
-0.22495224 -0.12859546 0.42800003
-0.22383642 -0.12859546 0.42800003
-0.22272059 -0.12859546 0.42800003
-0.22160476 -0.12859546 0.42800003
-0.22048894 -0.12859546 0.42800003
-0.21937312 -0.12859546 0.42800003
-0.21825728 -0.12859546 0.42800003
-0.21714146 -0.12859546 0.42800003
-0.21602565 -0.12859546 0.42800003
-0.21490984 -0.12859546 0.42800003
-0.21379401 -0.12859546 0.42800003
-0.21267818 -0.12859546 0.42800003
-0.21156237 -0.12859546 0.42800003
-0.21044654 -0.12859546 0.42800003
-0.20933071 -0.12859546 0.42800003
-0.20821488 -0.12859546 0.42800003
-0.20709905 -0.12859546 0.42800003
-0.20598324 -0.12859546 0.42800003
-0.20486741 -0.12859546 0.42800003
-0.20375159 -0.12859546 0.42800003
-0.20263577 -0.12859546 0.42800003
-0.20151995 -0.12859546 0.42800003
-0.20040412 -0.12859546 0.42800003
-0.19928829 -0.12859546 0.42800003
-0.19817246 -0.12859546 0.42800003
-0.19705665 -0.12859546 0.42800003
-0.19548301 -0.12829499 0.42700002
-0.19436981 -0.12829499 0.42700002
-0.19325659 -0.12829499 0.42700002
-0.19259335 -0.12859546 0.42800003
-0.19147754 -0.12859546 0.42800003
-0.19036171 -0.12859546 0.42800003
-0.18924589 -0.12859546 0.42800003
-0.18813007 -0.12859546 0.42800003
-0.18701424 -0.12859546 0.42800003
-0.18589841 -0.12859546 0.42800003
-0.18521433 -0.12889591 0.42900002
-0.18409589 -0.12889591 0.42900002
-0.18255095 -0.12859546 0.42800003
-0.18143512 -0.12859546 0.42800003
-0.18031931 -0.12859546 0.42800003
-0.17920348 -0.12859546 0.42800003
-0.17808765 -0.12859546 0.42800003
-0.17697184 -0.12859546 0.42800003
-0.17585601 -0.12859546 0.42800003
-0.17514846 -0.12889591 0.42900002
-0.17403002 -0.12889591 0.42900002
-0.1729116 -0.12889591 0.42900002
-0.17179316 -0.12889591 0.42900002
-0.17067473 -0.12889591 0.42900002
-0.16955629 -0.12889591 0.42900002
-0.16843787 -0.12889591 0.42900002
-0.16770945 -0.12919636 0.43000001
-0.16658843 -0.12919636 0.43000001
-0.16546738 -0.12919636 0.43000001
-0.16434634 -0.12919636 0.43000001
-0.16322531 -0.12919636 0.43000001
-0.16210426 -0.12919636 0.43000001
-0.16098323 -0.12919636 0.43000001
-0.15986219 -0.12919636 0.43000001
-0.15874116 -0.12919636 0.43000001
-0.15762012 -0.12919636 0.43000001
-0.15649909 -0.12919636 0.43000001
-0.15537804 -0.12919636 0.43000001
-0.15425701 -0.12919636 0.43000001
-0.15313597 -0.12919636 0.43000001
-0.15201494 -0.12919636 0.43000001
-0.1508939 -0.12919636 0.43000001
-0.14977285 -0.12919636 0.43000001
-0.14899753 -0.12949683 0.43100002
-0.14787388 -0.12949683 0.43100002
-0.14675024 -0.12949683 0.43100002
-0.14562659 -0.12949683 0.43100002
-0.14450295 -0.12949683 0.43100002
-0.1433793 -0.12949683 0.43100002
-0.14225566 -0.12949683 0.43100002
-0.14145947 -0.12979728 0.43200001
-0.14033322 -0.12979728 0.43200001
-0.13920696 -0.12979728 0.43200001
-0.13808072 -0.12979728 0.43200001
-0.13695446 -0.12979728 0.43200001
-0.13551378 -0.12949683 0.43100002
-0.13439015 -0.12949683 0.43100002
-0.13326649 -0.12949683 0.43100002
-0.13214286 -0.12949683 0.43100002
-0.1310192 -0.12949683 0.43100002
-0.12989557 -0.12949683 0.43100002
-0.12877193 -0.12949683 0.43100002
-0.12764828 -0.12949683 0.43100002
-0.12652464 -0.12949683 0.43100002
-0.12569195 -0.12979728 0.43200001
-0.12456569 -0.12979728 0.43200001
-0.12343945 -0.12979728 0.43200001
-0.12231319 -0.12979728 0.43200001
-0.12118693 -0.12979728 0.43200001
-0.12006069 -0.12979728 0.43200001
-0.11865912 -0.12949683 0.43100002
-0.11753549 -0.12949683 0.43100002
-0.11641183 -0.12949683 0.43100002
-0.1152882 -0.12949683 0.43100002
-0.11416455 -0.12949683 0.43100002
-0.11330318 -0.12979728 0.43200001
-0.11217692 -0.12979728 0.43200001
-0.11105068 -0.12979728 0.43200001
-0.10992442 -0.12979728 0.43200001
-0.10905003 -0.13009773 0.43300003
-0.10792116 -0.13009773 0.43300003
-0.10679231 -0.13009773 0.43300003
-0.10590747 -0.13039818 0.43400002
-0.104776 -0.13039818 0.43400002
-0.10364454 -0.13039818 0.43400002
-0.10251307 -0.13039818 0.43400002
-0.10138161 -0.13039818 0.43400002
-0.10025014 -0.13039818 0.43400002
-0.099118672 -0.13039818 0.43400002
-0.097987212 -0.13039818 0.43400002
-0.096855745 -0.13039818 0.43400002
-0.095724277 -0.13039818 0.43400002
-0.09459281 -0.13039818 0.43400002
-0.09346135 -0.13039818 0.43400002
-0.092329882 -0.13039818 0.43400002
-0.091198415 -0.13039818 0.43400002
-0.090066954 -0.13039818 0.43400002
-0.088935487 -0.13039818 0.43400002
-0.087804019 -0.13039818 0.43400002
-0.086672559 -0.13039818 0.43400002
-0.085541084 -0.13039818 0.43400002
-0.084409617 -0.13039818 0.43400002
-0.083278157 -0.13039818 0.43400002
-0.082146689 -0.13039818 0.43400002
-0.081015222 -0.13039818 0.43400002
-0.080067828 -0.13069865 0.43500003
-0.078933753 -0.13069865 0.43500003
-0.077799685 -0.13069865 0.43500003
-0.07666561 -0.13069865 0.43500003
-0.075531535 -0.13069865 0.43500003
-0.074397467 -0.13069865 0.43500003
-0.073263392 -0.13069865 0.43500003
-0.072129324 -0.13069865 0.43500003
-0.070995241 -0.13069865 0.43500003
-0.069861174 -0.13069865 0.43500003
-0.068727098 -0.13069865 0.43500003
-0.067593023 -0.13069865 0.43500003
-0.066458955 -0.13069865 0.43500003
-0.06532488 -0.13069865 0.43500003
-0.064190812 -0.13069865 0.43500003
-0.063056737 -0.13069865 0.43500003
-0.061922666 -0.13069865 0.43500003
-0.06078859 -0.13069865 0.43500003
-0.059654519 -0.13069865 0.43500003
-0.058520447 -0.13069865 0.43500003
-0.057386376 -0.13069865 0.43500003
-0.056252297 -0.13069865 0.43500003
-0.055118226 -0.13069865 0.43500003
-0.053984154 -0.13069865 0.43500003
-0.052850083 -0.13069865 0.43500003
-0.051716007 -0.13069865 0.43500003
-0.050581936 -0.13069865 0.43500003
-0.049561534 -0.1309991 0.43600002
-0.048424855 -0.1309991 0.43600002
-0.047288176 -0.1309991 0.43600002
-0.046151496 -0.1309991 0.43600002
-0.044911571 -0.13069865 0.43500003
-0.043777499 -0.13069865 0.43500003
-0.042643428 -0.13069865 0.43500003
-0.041509353 -0.13069865 0.43500003
-0.040375281 -0.13069865 0.43500003
-0.03924121 -0.13069865 0.43500003
-0.038107138 -0.13069865 0.43500003
-0.036973063 -0.13069865 0.43500003
-0.035838988 -0.13069865 0.43500003
-0.034704916 -0.13069865 0.43500003
-0.033570845 -0.13069865 0.43500003
-0.032511339 -0.1309991 0.43600002
-0.031374659 -0.1309991 0.43600002
-0.030237976 -0.1309991 0.43600002
-0.029101297 -0.1309991 0.43600002
-0.027964618 -0.1309991 0.43600002
-0.026827939 -0.1309991 0.43600002
-0.02569126 -0.1309991 0.43600002
-0.024554579 -0.1309991 0.43600002
-0.023417899 -0.1309991 0.43600002
-0.02228122 -0.1309991 0.43600002
-0.021144539 -0.1309991 0.43600002
-0.02000786 -0.1309991 0.43600002
-0.018871181 -0.1309991 0.43600002
-0.017775176 -0.13129956 0.43700001
-0.016635889 -0.13129956 0.43700001
-0.015496602 -0.13129956 0.43700001
-0.014357316 -0.13129956 0.43700001
-0.013218028 -0.13129956 0.43700001
-0.012078742 -0.13129956 0.43700001
-0.010939455 -0.13129956 0.43700001
-0.0098001687 -0.13129956 0.43700001
-0.0086807003 -0.13160002 0.43800002
-0.0075388066 -0.13160002 0.43800002
-0.0063969125 -0.13160002 0.43800002
-0.0052550188 -0.13160002 0.43800002
-0.0041131251 -0.13160002 0.43800002
-0.0029712312 -0.13160002 0.43800002
-0.0018293372 -0.13160002 0.43800002
-0.00068587373 -0.13129956 0.43700001
0.00045341309 -0.13129956 0.43700001
0.0015926999 -0.13129956 0.43700001
0.0027319868 -0.13129956 0.43700001
0.0038712737 -0.13129956 0.43700001
0.0050105602 -0.13129956 0.43700001
0.0061498471 -0.13129956 0.43700001
0.0072891344 -0.13129956 0.43700001
0.0084284209 -0.13129956 0.43700001
0.0095896022 -0.13160002 0.43800002
0.010731496 -0.13160002 0.43800002
0.01187339 -0.13160002 0.43800002
