# .PCD v0.7 - Point Cloud Data file format
VERSION 0.7
FIELDS x y z
SIZE 4 4 4
TYPE F F F
COUNT 1 1 1
WIDTH 1341
HEIGHT 1
VIEWPOINT 0 0 0 1 0 0 0
POINTS 1341
DATA ascii
0.15267411 -0.031184385 0.43900001
0.15381862 -0.031184385 0.43900001
0.15496311 -0.031184385 0.43900001
0.15575202 -0.031113351 0.43800002
0.15689391 -0.031113351 0.43800002
0.15803581 -0.031113351 0.43800002
0.15917771 -0.031113351 0.43800002
0.16068561 -0.031184385 0.43900001
0.16183013 -0.031184385 0.43900001
0.16297463 -0.031184385 0.43900001
0.16411912 -0.031184385 0.43900001
0.16526362 -0.031184385 0.43900001
0.16678719 -0.03125542 0.44000003
0.16755262 -0.031184385 0.43900001
0.16869713 -0.031184385 0.43900001
0.16984162 -0.031184385 0.43900001
0.17098613 -0.031184385 0.43900001
0.17213063 -0.031184385 0.43900001
0.17327513 -0.031184385 0.43900001
0.17441964 -0.031184385 0.43900001
0.17556413 -0.031184385 0.43900001
0.17670864 -0.031184385 0.43900001
0.17785314 -0.031184385 0.43900001
0.17899764 -0.031184385 0.43900001
0.18014213 -0.031184385 0.43900001
0.18128665 -0.031184385 0.43900001
0.18243113 -0.031184385 0.43900001
0.18399382 -0.03125542 0.44000003
0.18514092 -0.03125542 0.44000003
0.18628803 -0.03125542 0.44000003
0.18743514 -0.03125542 0.44000003
0.18858224 -0.03125542 0.44000003
0.18972936 -0.03125542 0.44000003
0.19087647 -0.03125542 0.44000003
0.19202358 -0.03125542 0.44000003
0.19317068 -0.03125542 0.44000003
0.19431779 -0.03125542 0.44000003
0.19546489 -0.03125542 0.44000003
0.196612 -0.03125542 0.44000003
0.19775911 -0.03125542 0.44000003
0.19935827 -0.031326454 0.44100001
0.20050798 -0.031326454 0.44100001
0.2016577 -0.031326454 0.44100001
0.20280741 -0.031326454 0.44100001
0.20441963 -0.031397492 0.44200003
0.20510685 -0.031326454 0.44100001
0.20625657 -0.031326454 0.44100001
-0.24507774 -0.029697744 0.43400002
-0.24394628 -0.029697744 0.43400002
-0.24225534 -0.029629318 0.43300003
-0.24168333 -0.029697744 0.43400002
-0.24055189 -0.029697744 0.43400002
-0.23942043 -0.029697744 0.43400002
-0.23828894 -0.029697744 0.43400002
-0.23715748 -0.029697744 0.43400002
-0.23602602 -0.029697744 0.43400002
-0.23489456 -0.029697744 0.43400002
-0.23376308 -0.029697744 0.43400002
-0.23263162 -0.029697744 0.43400002
-0.23150016 -0.029697744 0.43400002
-0.2303687 -0.029697744 0.43400002
-0.22923721 -0.029697744 0.43400002
-0.22810575 -0.029697744 0.43400002
-0.22697429 -0.029697744 0.43400002
-0.22584285 -0.029697744 0.43400002
-0.22471136 -0.029697744 0.43400002
-0.2235799 -0.029697744 0.43400002
-0.22244844 -0.029697744 0.43400002
-0.22131695 -0.029697744 0.43400002
-0.2201855 -0.029697744 0.43400002
-0.21905404 -0.029697744 0.43400002
-0.21792258 -0.029697744 0.43400002
-0.21679111 -0.029697744 0.43400002
-0.21565963 -0.029697744 0.43400002
-0.21452817 -0.029697744 0.43400002
-0.2133967 -0.029697744 0.43400002
-0.21226525 -0.029697744 0.43400002
-0.21113378 -0.029697744 0.43400002
-0.2100023 -0.029697744 0.43400002
-0.20887084 -0.029697744 0.43400002
-0.20773937 -0.029697744 0.43400002
-0.20660791 -0.029697744 0.43400002
-0.20547645 -0.029697744 0.43400002
-0.20434499 -0.029697744 0.43400002
-0.20368175 -0.029766174 0.43500003
-0.20254768 -0.029766174 0.43500003
-0.20141362 -0.029766174 0.43500003
-0.20027955 -0.029766174 0.43500003
-0.19914547 -0.029766174 0.43500003
-0.1980114 -0.029766174 0.43500003
-0.19687732 -0.029766174 0.43500003
-0.19574325 -0.029766174 0.43500003
-0.19460918 -0.029766174 0.43500003
-0.1934751 -0.029766174 0.43500003
-0.19234103 -0.029766174 0.43500003
-0.19120695 -0.029766174 0.43500003
-0.18963593 -0.029697744 0.43400002
-0.18850446 -0.029697744 0.43400002
-0.187373 -0.029697744 0.43400002
-0.18624152 -0.029697744 0.43400002
-0.18511008 -0.029697744 0.43400002
-0.1839786 -0.029697744 0.43400002
-0.18284714 -0.029697744 0.43400002
-0.18171567 -0.029697744 0.43400002
-0.18058419 -0.029697744 0.43400002
-0.17945273 -0.029697744 0.43400002
-0.17832127 -0.029697744 0.43400002
-0.17718981 -0.029697744 0.43400002
-0.17605834 -0.029697744 0.43400002
-0.17492688 -0.029697744 0.43400002
-0.17419586 -0.029766174 0.43500003
-0.1730618 -0.029766174 0.43500003
-0.17192772 -0.029766174 0.43500003
-0.17079365 -0.029766174 0.43500003
-0.16965957 -0.029766174 0.43500003
-0.16813809 -0.029697744 0.43400002
-0.16700661 -0.029697744 0.43400002
-0.16587514 -0.029697744 0.43400002
-0.16474369 -0.029697744 0.43400002
-0.16361222 -0.029697744 0.43400002
-0.16248076 -0.029697744 0.43400002
-0.16134928 -0.029697744 0.43400002
-0.16021782 -0.029697744 0.43400002
-0.15908635 -0.029697744 0.43400002
-0.15795489 -0.029697744 0.43400002
-0.15682343 -0.029697744 0.43400002
-0.15569197 -0.029697744 0.43400002
-0.15491663 -0.029766174 0.43500003
-0.15378256 -0.029766174 0.43500003
-0.15264848 -0.029766174 0.43500003
-0.15151441 -0.029766174 0.43500003
-0.15038034 -0.029766174 0.43500003
-0.14924626 -0.029766174 0.43500003
-0.14811219 -0.029766174 0.43500003
-0.14697811 -0.029766174 0.43500003
-0.14584406 -0.029766174 0.43500003
-0.14470997 -0.029766174 0.43500003
-0.14357591 -0.029766174 0.43500003
-0.14244182 -0.029766174 0.43500003
-0.14130776 -0.029766174 0.43500003
-0.14017369 -0.029766174 0.43500003
-0.13903962 -0.029766174 0.43500003
-0.13790554 -0.029766174 0.43500003
-0.13677146 -0.029766174 0.43500003
-0.13563739 -0.029766174 0.43500003
-0.13450332 -0.029766174 0.43500003
-0.13336925 -0.029766174 0.43500003
-0.13223517 -0.029766174 0.43500003
-0.1311011 -0.029766174 0.43500003
-0.12996702 -0.029766174 0.43500003
-0.12883297 -0.029766174 0.43500003
-0.12769888 -0.029766174 0.43500003
-0.12656482 -0.029766174 0.43500003
-0.12543073 -0.029766174 0.43500003
-0.12429667 -0.029766174 0.43500003
-0.12316259 -0.029766174 0.43500003
-0.12202851 -0.029766174 0.43500003
-0.12117236 -0.0298346 0.43600002
-0.12003568 -0.0298346 0.43600002
-0.1186263 -0.029766174 0.43500003
-0.11776232 -0.0298346 0.43600002
-0.11662564 -0.0298346 0.43600002
-0.11548896 -0.0298346 0.43600002
-0.11435229 -0.0298346 0.43600002
-0.1132156 -0.0298346 0.43600002
-0.11207893 -0.0298346 0.43600002
-0.11094224 -0.0298346 0.43600002
-0.10980557 -0.0298346 0.43600002
-0.10866889 -0.0298346 0.43600002
-0.1075322 -0.0298346 0.43600002
-0.10639553 -0.0298346 0.43600002
-0.10525884 -0.0298346 0.43600002
-0.10412217 -0.0298346 0.43600002
-0.10298549 -0.0298346 0.43600002
-0.10184881 -0.0298346 0.43600002
-0.10071212 -0.0298346 0.43600002
-0.099575445 -0.0298346 0.43600002
-0.098438762 -0.0298346 0.43600002
-0.097302087 -0.0298346 0.43600002
-0.096165404 -0.0298346 0.43600002
-0.095028728 -0.0298346 0.43600002
-0.093892045 -0.0298346 0.43600002
-0.09275537 -0.0298346 0.43600002
-0.091618687 -0.0298346 0.43600002
-0.090482011 -0.0298346 0.43600002
-0.089345329 -0.0298346 0.43600002
-0.088208653 -0.0298346 0.43600002
-0.08707197 -0.0298346 0.43600002
-0.085935287 -0.0298346 0.43600002
-0.084798604 -0.0298346 0.43600002
-0.083661929 -0.0298346 0.43600002
-0.082525246 -0.0298346 0.43600002
-0.08138857 -0.0298346 0.43600002
-0.080251887 -0.0298346 0.43600002
-0.079115212 -0.0298346 0.43600002
-0.077978529 -0.0298346 0.43600002
-0.076841854 -0.0298346 0.43600002
-0.075705171 -0.0298346 0.43600002
-0.074568495 -0.0298346 0.43600002
-0.073431812 -0.0298346 0.43600002
-0.072295137 -0.0298346 0.43600002
-0.071321651 -0.029903028 0.43700001
-0.070182368 -0.029903028 0.43700001
-0.069043078 -0.029903028 0.43700001
-0.067903794 -0.029903028 0.43700001
-0.066764511 -0.029903028 0.43700001
-0.065625221 -0.029903028 0.43700001
-0.064485937 -0.029903028 0.43700001
-0.063346647 -0.029903028 0.43700001
-0.062207364 -0.029903028 0.43700001
-0.061068077 -0.029903028 0.43700001
-0.05992879 -0.029903028 0.43700001
-0.058789503 -0.029903028 0.43700001
-0.057650216 -0.029903028 0.43700001
-0.056381609 -0.0298346 0.43600002
-0.05524493 -0.0298346 0.43600002
-0.054108255 -0.0298346 0.43600002
-0.052971575 -0.0298346 0.43600002
-0.051834892 -0.0298346 0.43600002
-0.050698213 -0.0298346 0.43600002
-0.049561534 -0.0298346 0.43600002
-0.048424855 -0.0298346 0.43600002
-0.047288176 -0.0298346 0.43600002
-0.046257347 -0.029903028 0.43700001
-0.045118056 -0.029903028 0.43700001
-0.043978773 -0.029903028 0.43700001
-0.042839486 -0.029903028 0.43700001
-0.041700199 -0.029903028 0.43700001
-0.040560912 -0.029903028 0.43700001
-0.039421625 -0.029903028 0.43700001
-0.038282339 -0.029903028 0.43700001
-0.037143052 -0.029903028 0.43700001
-0.036003765 -0.029903028 0.43700001
-0.034864478 -0.029903028 0.43700001
-0.033725191 -0.029903028 0.43700001
-0.032585904 -0.029903028 0.43700001
-0.031446621 -0.029903028 0.43700001
-0.03030733 -0.029903028 0.43700001
-0.029234791 -0.029971456 0.43800002
-0.028092897 -0.029971456 0.43800002
-0.026951004 -0.029971456 0.43800002
-0.025750184 -0.029903028 0.43700001
-0.024610896 -0.029903028 0.43700001
-0.023471611 -0.029903028 0.43700001
-0.022332324 -0.029903028 0.43700001
-0.021193035 -0.029903028 0.43700001
-0.010586174 -0.026207918 0.38300002
-0.0095876688 -0.026207918 0.38300002
-0.0085891644 -0.026207918 0.38300002
-0.0075906585 -0.026207918 0.38300002
-0.0065921526 -0.026207918 0.38300002
-0.0055936472 -0.026207918 0.38300002
-0.0045951419 -0.026207918 0.38300002
-0.0035966367 -0.026207918 0.38300002
-0.0025981313 -0.026207918 0.38300002
-0.0015996259 -0.026207918 0.38300002
-0.00060112047 -0.026207918 0.38300002
0.00039738492 -0.026207918 0.38300002
0.0013922458 -0.02613949 0.38200003
0.0023881441 -0.02613949 0.38200003
0.0033840425 -0.02613949 0.38200003
0.0043684747 -0.02607106 0.38100001
0.0053617661 -0.02607106 0.38100001
0.0063383779 -0.026002634 0.38000003
0.0073097744 -0.025934204 0.37900001
0.0082759578 -0.025865778 0.37800002
0.0092614284 -0.025865778 0.37800002
0.010192681 -0.025728922 0.37600002
0.011143222 -0.025660494 0.37500003
0.012088548 -0.025592064 0.37400001
0.01306359 -0.025592064 0.37400001
0.014001097 -0.025523638 0.37300003
0.014973531 -0.025523638 0.37300003
0.015903214 -0.025455208 0.37200001
0.016873043 -0.025455208 0.37200001
0.01784287 -0.025455208 0.37200001
0.018762127 -0.025386782 0.37100002
0.019729348 -0.025386782 0.37100002
0.02535704 -0.024291934 0.35500002
0.026208511 -0.024223505 0.354
0.02713141 -0.024223505 0.354
0.027975062 -0.024155078 0.35300002
0.028895358 -0.024155078 0.35300002
0.029815651 -0.024155078 0.35300002
0.030735943 -0.024155078 0.35300002
0.031656235 -0.024155078 0.35300002
0.032576531 -0.024155078 0.35300002
0.033496823 -0.024155078 0.35300002
0.034417115 -0.024155078 0.35300002
0.035337411 -0.024155078 0.35300002
0.036257707 -0.024155078 0.35300002
0.037177999 -0.024155078 0.35300002
0.039239652 -0.024291934 0.35500002
0.044756122 -0.025318353 0.37
0.047568582 -0.025797348 0.377
0.048551444 -0.025797348 0.377
0.04953431 -0.025797348 0.377
0.05065117 -0.025865778 0.37800002
0.05163664 -0.025865778 0.37800002
0.05262211 -0.025865778 0.37800002
0.053607587 -0.025865778 0.37800002
0.054593056 -0.025865778 0.37800002
0.055578526 -0.025865778 0.37800002
0.056713633 -0.025934204 0.37900001
0.05785396 -0.026002634 0.38000003
0.058844641 -0.026002634 0.38000003
0.059992786 -0.02607106 0.38100001
0.060986076 -0.02607106 0.38100001
0.061979368 -0.02607106 0.38100001
0.063137941 -0.02613949 0.38200003
0.064133845 -0.02613949 0.38200003
0.076961346 -0.029971456 0.43800002
0.078103237 -0.029971456 0.43800002
0.079426058 -0.030039884 0.43900001
0.080570556 -0.030039884 0.43900001
0.081528917 -0.029971456 0.43800002
0.082670815 -0.029971456 0.43800002
0.083812706 -0.029971456 0.43800002
0.085148558 -0.030039884 0.43900001
0.086293057 -0.030039884 0.43900001
0.087238386 -0.029971456 0.43800002
0.088380277 -0.029971456 0.43800002
0.089522175 -0.029971456 0.43800002
0.090664066 -0.029971456 0.43800002
0.091805965 -0.029971456 0.43800002
0.092947863 -0.029971456 0.43800002
0.094089754 -0.029971456 0.43800002
0.095231645 -0.029971456 0.43800002
0.096373543 -0.029971456 0.43800002
0.097515434 -0.029971456 0.43800002
0.098657325 -0.029971456 0.43800002
0.099799223 -0.029971456 0.43800002
0.10094111 -0.029971456 0.43800002
0.10208301 -0.029971456 0.43800002
0.1032249 -0.029971456 0.43800002
0.10436679 -0.029971456 0.43800002
0.10550869 -0.029971456 0.43800002
0.10665059 -0.029971456 0.43800002
0.10779248 -0.029971456 0.43800002
0.10893437 -0.029971456 0.43800002
0.11007626 -0.029971456 0.43800002
0.11121816 -0.029971456 0.43800002
0.11236005 -0.029971456 0.43800002
0.11350195 -0.029971456 0.43800002
0.11464385 -0.029971456 0.43800002
0.11578573 -0.029971456 0.43800002
0.11692764 -0.029971456 0.43800002
0.11806952 -0.029971456 0.43800002
0.11948359 -0.030039884 0.43900001
0.12062809 -0.030039884 0.43900001
0.12177259 -0.030039884 0.43900001
0.12291709 -0.030039884 0.43900001
0.12406159 -0.030039884 0.43900001
0.12520608 -0.030039884 0.43900001
0.1263506 -0.030039884 0.43900001
0.1274951 -0.030039884 0.43900001
0.12863959 -0.030039884 0.43900001
0.12978411 -0.030039884 0.43900001
0.13092859 -0.030039884 0.43900001
0.1320731 -0.030039884 0.43900001
0.1332176 -0.030039884 0.43900001
0.1343621 -0.030039884 0.43900001
0.1355066 -0.030039884 0.43900001
0.1366511 -0.030039884 0.43900001
0.1377956 -0.030039884 0.43900001
0.1392566 -0.030108312 0.44000003
0.1404037 -0.030108312 0.44000003
0.14155082 -0.030108312 0.44000003
0.14269792 -0.030108312 0.44000003
0.14384504 -0.030108312 0.44000003
0.14499214 -0.030108312 0.44000003
0.14613925 -0.030108312 0.44000003
0.14728636 -0.030108312 0.44000003
0.14843346 -0.030108312 0.44000003
0.14958058 -0.030108312 0.44000003
0.15072767 -0.030108312 0.44000003
0.15152961 -0.030039884 0.43900001
0.15267411 -0.030039884 0.43900001
0.15381862 -0.030039884 0.43900001
0.15496311 -0.030039884 0.43900001
0.15575202 -0.029971456 0.43800002
0.15689391 -0.029971456 0.43800002
0.15803581 -0.029971456 0.43800002
0.15917771 -0.029971456 0.43800002
0.16068561 -0.030039884 0.43900001
0.16183013 -0.030039884 0.43900001
0.16297463 -0.030039884 0.43900001
0.16411912 -0.030039884 0.43900001
0.16564009 -0.030108312 0.44000003
0.16678719 -0.030108312 0.44000003
0.16755262 -0.030039884 0.43900001
0.16869713 -0.030039884 0.43900001
0.16984162 -0.030039884 0.43900001
0.17098613 -0.030039884 0.43900001
0.17213063 -0.030039884 0.43900001
0.17327513 -0.030039884 0.43900001
0.17441964 -0.030039884 0.43900001
0.17556413 -0.030039884 0.43900001
0.17670864 -0.030039884 0.43900001
0.17785314 -0.030039884 0.43900001
0.17899764 -0.030039884 0.43900001
0.18014213 -0.030039884 0.43900001
0.18128665 -0.030039884 0.43900001
0.18284671 -0.030108312 0.44000003
0.18399382 -0.030108312 0.44000003
0.18514092 -0.030108312 0.44000003
0.18628803 -0.030108312 0.44000003
0.18743514 -0.030108312 0.44000003
0.18858224 -0.030108312 0.44000003
0.18972936 -0.030108312 0.44000003
0.19087647 -0.030108312 0.44000003
0.19202358 -0.030108312 0.44000003
0.19317068 -0.030108312 0.44000003
0.19431779 -0.030108312 0.44000003
0.19546489 -0.030108312 0.44000003
0.196612 -0.030108312 0.44000003
0.19820856 -0.03017674 0.44100001
0.19935827 -0.03017674 0.44100001
0.20050798 -0.03017674 0.44100001
0.20211498 -0.03024517 0.44200003
0.20326731 -0.03024517 0.44200003
0.20441963 -0.03024517 0.44200003
0.20557196 -0.03024517 0.44200003
0.20672427 -0.03024517 0.44200003
-0.24507774 -0.028566279 0.43400002
-0.24394628 -0.028566279 0.43400002
-0.24225534 -0.028500458 0.43300003
-0.24168333 -0.028566279 0.43400002
-0.24055189 -0.028566279 0.43400002
-0.23942043 -0.028566279 0.43400002
-0.23828894 -0.028566279 0.43400002
-0.23715748 -0.028566279 0.43400002
-0.23602602 -0.028566279 0.43400002
-0.23489456 -0.028566279 0.43400002
-0.23376308 -0.028566279 0.43400002
-0.23263162 -0.028566279 0.43400002
-0.23150016 -0.028566279 0.43400002
-0.2303687 -0.028566279 0.43400002
-0.22923721 -0.028566279 0.43400002
-0.22810575 -0.028566279 0.43400002
-0.22697429 -0.028566279 0.43400002
-0.22584285 -0.028566279 0.43400002
-0.22471136 -0.028566279 0.43400002
-0.2235799 -0.028566279 0.43400002
-0.22244844 -0.028566279 0.43400002
-0.22131695 -0.028566279 0.43400002
-0.2201855 -0.028566279 0.43400002
-0.21905404 -0.028566279 0.43400002
-0.21792258 -0.028566279 0.43400002
-0.21679111 -0.028566279 0.43400002
-0.21565963 -0.028566279 0.43400002
-0.21452817 -0.028566279 0.43400002
-0.2133967 -0.028566279 0.43400002
-0.21226525 -0.028566279 0.43400002
-0.21113378 -0.028566279 0.43400002
-0.2100023 -0.028566279 0.43400002
-0.20887084 -0.028566279 0.43400002
-0.20773937 -0.028566279 0.43400002
-0.20660791 -0.028566279 0.43400002
-0.20547645 -0.028566279 0.43400002
-0.20434499 -0.028566279 0.43400002
-0.20368175 -0.028632101 0.43500003
-0.20254768 -0.028632101 0.43500003
-0.20141362 -0.028632101 0.43500003
-0.20027955 -0.028632101 0.43500003
-0.19914547 -0.028632101 0.43500003
-0.1980114 -0.028632101 0.43500003
-0.19687732 -0.028632101 0.43500003
-0.19574325 -0.028632101 0.43500003
-0.19460918 -0.028632101 0.43500003
-0.1934751 -0.028632101 0.43500003
-0.19234103 -0.028632101 0.43500003
-0.19120695 -0.028632101 0.43500003
-0.18963593 -0.028566279 0.43400002
-0.18850446 -0.028566279 0.43400002
-0.187373 -0.028566279 0.43400002
-0.18624152 -0.028566279 0.43400002
-0.18511008 -0.028566279 0.43400002
-0.1839786 -0.028566279 0.43400002
-0.18284714 -0.028566279 0.43400002
-0.18171567 -0.028566279 0.43400002
-0.18058419 -0.028566279 0.43400002
-0.17945273 -0.028566279 0.43400002
-0.17832127 -0.028566279 0.43400002
-0.17718981 -0.028566279 0.43400002
-0.17605834 -0.028566279 0.43400002
-0.17492688 -0.028566279 0.43400002
-0.17419586 -0.028632101 0.43500003
-0.1730618 -0.028632101 0.43500003
-0.17192772 -0.028632101 0.43500003
-0.17079365 -0.028632101 0.43500003
-0.16965957 -0.028632101 0.43500003
-0.1685255 -0.028632101 0.43500003
-0.16700661 -0.028566279 0.43400002
-0.16587514 -0.028566279 0.43400002
-0.16474369 -0.028566279 0.43400002
-0.16361222 -0.028566279 0.43400002
-0.16248076 -0.028566279 0.43400002
-0.16134928 -0.028566279 0.43400002
-0.16021782 -0.028566279 0.43400002
-0.15908635 -0.028566279 0.43400002
-0.15795489 -0.028566279 0.43400002
-0.15682343 -0.028566279 0.43400002
-0.15569197 -0.028566279 0.43400002
-0.15456049 -0.028566279 0.43400002
-0.15378256 -0.028632101 0.43500003
-0.15264848 -0.028632101 0.43500003
-0.15151441 -0.028632101 0.43500003
-0.15038034 -0.028632101 0.43500003
-0.14924626 -0.028632101 0.43500003
-0.14811219 -0.028632101 0.43500003
-0.14731599 -0.028697921 0.43600002
-0.14584406 -0.028632101 0.43500003
-0.14470997 -0.028632101 0.43500003
-0.14357591 -0.028632101 0.43500003
-0.14244182 -0.028632101 0.43500003
-0.14130776 -0.028632101 0.43500003
-0.14017369 -0.028632101 0.43500003
-0.13903962 -0.028632101 0.43500003
-0.13790554 -0.028632101 0.43500003
-0.13677146 -0.028632101 0.43500003
-0.13563739 -0.028632101 0.43500003
-0.13450332 -0.028632101 0.43500003
-0.13336925 -0.028632101 0.43500003
-0.13223517 -0.028632101 0.43500003
-0.1311011 -0.028632101 0.43500003
-0.12996702 -0.028632101 0.43500003
-0.12883297 -0.028632101 0.43500003
-0.12799244 -0.028697921 0.43600002
-0.12656482 -0.028632101 0.43500003
-0.12543073 -0.028632101 0.43500003
-0.12429667 -0.028632101 0.43500003
-0.12316259 -0.028632101 0.43500003
-0.12230904 -0.028697921 0.43600002
-0.12117236 -0.028697921 0.43600002
-0.12003568 -0.028697921 0.43600002
-0.118899 -0.028697921 0.43600002
-0.11776232 -0.028697921 0.43600002
-0.11662564 -0.028697921 0.43600002
-0.11548896 -0.028697921 0.43600002
-0.11435229 -0.028697921 0.43600002
-0.1132156 -0.028697921 0.43600002
-0.11207893 -0.028697921 0.43600002
-0.11094224 -0.028697921 0.43600002
-0.10980557 -0.028697921 0.43600002
-0.10866889 -0.028697921 0.43600002
-0.1075322 -0.028697921 0.43600002
-0.10639553 -0.028697921 0.43600002
-0.10525884 -0.028697921 0.43600002
-0.10412217 -0.028697921 0.43600002
-0.10298549 -0.028697921 0.43600002
-0.10184881 -0.028697921 0.43600002
-0.10071212 -0.028697921 0.43600002
-0.099575445 -0.028697921 0.43600002
-0.098438762 -0.028697921 0.43600002
-0.097302087 -0.028697921 0.43600002
-0.096165404 -0.028697921 0.43600002
-0.095028728 -0.028697921 0.43600002
-0.093892045 -0.028697921 0.43600002
-0.09275537 -0.028697921 0.43600002
-0.091618687 -0.028697921 0.43600002
-0.090482011 -0.028697921 0.43600002
-0.089345329 -0.028697921 0.43600002
-0.088208653 -0.028697921 0.43600002
-0.08707197 -0.028697921 0.43600002
-0.085935287 -0.028697921 0.43600002
-0.084798604 -0.028697921 0.43600002
-0.083661929 -0.028697921 0.43600002
-0.082525246 -0.028697921 0.43600002
-0.08138857 -0.028697921 0.43600002
-0.080251887 -0.028697921 0.43600002
-0.079115212 -0.028697921 0.43600002
-0.077978529 -0.028697921 0.43600002
-0.076841854 -0.028697921 0.43600002
-0.075705171 -0.028697921 0.43600002
-0.074568495 -0.028697921 0.43600002
-0.073431812 -0.028697921 0.43600002
-0.072295137 -0.028697921 0.43600002
-0.071321651 -0.028763741 0.43700001
-0.070182368 -0.028763741 0.43700001
-0.069043078 -0.028763741 0.43700001
-0.067903794 -0.028763741 0.43700001
-0.066764511 -0.028763741 0.43700001
-0.065625221 -0.028763741 0.43700001
-0.064485937 -0.028763741 0.43700001
-0.063346647 -0.028763741 0.43700001
-0.062207364 -0.028763741 0.43700001
-0.061068077 -0.028763741 0.43700001
-0.05992879 -0.028763741 0.43700001
-0.058789503 -0.028763741 0.43700001
-0.057518296 -0.028697921 0.43600002
-0.056381609 -0.028697921 0.43600002
-0.05524493 -0.028697921 0.43600002
-0.054108255 -0.028697921 0.43600002
-0.052971575 -0.028697921 0.43600002
-0.051834892 -0.028697921 0.43600002
-0.050698213 -0.028697921 0.43600002
-0.049561534 -0.028697921 0.43600002
-0.048424855 -0.028697921 0.43600002
-0.047288176 -0.028697921 0.43600002
-0.046257347 -0.028763741 0.43700001
-0.045118056 -0.028763741 0.43700001
-0.043978773 -0.028763741 0.43700001
-0.042839486 -0.028763741 0.43700001
-0.041700199 -0.028763741 0.43700001
-0.040560912 -0.028763741 0.43700001
-0.039421625 -0.028763741 0.43700001
-0.038282339 -0.028763741 0.43700001
-0.037143052 -0.028763741 0.43700001
-0.036003765 -0.028763741 0.43700001
-0.034864478 -0.028763741 0.43700001
-0.033802368 -0.028829563 0.43800002
-0.032660473 -0.028829563 0.43800002
-0.031518582 -0.028829563 0.43800002
-0.030376684 -0.028829563 0.43800002
-0.029234791 -0.028829563 0.43800002
-0.028092897 -0.028829563 0.43800002
-0.026951004 -0.028829563 0.43800002
-0.025809111 -0.028829563 0.43800002
-0.024610896 -0.028763741 0.43700001
-0.023471611 -0.028763741 0.43700001
-0.022332324 -0.028763741 0.43700001
-0.021193035 -0.028763741 0.43700001
-0.010613814 -0.025275232 0.384
-0.0095876688 -0.025209412 0.38300002
-0.0085891644 -0.025209412 0.38300002
-0.007610477 -0.025275232 0.384
-0.0065921526 -0.025209412 0.38300002
-0.0055936472 -0.025209412 0.38300002
-0.0046071396 -0.025275232 0.384
-0.0035966367 -0.025209412 0.38300002
-0.0025981313 -0.025209412 0.38300002
-0.0015996259 -0.025209412 0.38300002
-0.00060112047 -0.025209412 0.38300002
0.00039738492 -0.025209412 0.38300002
0.0013958904 -0.025209412 0.38300002
0.0023943956 -0.025209412 0.38300002
0.0033840425 -0.025143592 0.38200003
0.0043799407 -0.025143592 0.38200003
0.0053617661 -0.02507777 0.38100001
0.0063550575 -0.02507777 0.38100001
0.0073097744 -0.024946129 0.37900001
0.0082759578 -0.024880309 0.37800002
0.0092614284 -0.024880309 0.37800002
0.010219789 -0.024814487 0.377
0.011172938 -0.024748666 0.37600002
0.012120872 -0.024682846 0.37500003
0.01306359 -0.024617024 0.37400001
0.014001097 -0.024551203 0.37300003
0.014973531 -0.024551203 0.37300003
0.015903214 -0.024485381 0.37200001
0.016873043 -0.024485381 0.37200001
0.01784287 -0.024485381 0.37200001
0.018812697 -0.024485381 0.37200001
0.019729348 -0.024419561 0.37100002
0.026208511 -0.023300605 0.354
0.02713141 -0.023300605 0.354
0.02805431 -0.023300605 0.354
0.028977213 -0.023300605 0.354
0.029815651 -0.023234785 0.35300002
0.030735943 -0.023234785 0.35300002
0.031656235 -0.023234785 0.35300002
0.032576531 -0.023234785 0.35300002
0.033496823 -0.023234785 0.35300002
0.034417115 -0.023234785 0.35300002
0.035437517 -0.023300605 0.354
0.036360417 -0.023300605 0.354
0.038314145 -0.023366427 0.35500002
0.046709292 -0.024880309 0.37800002
0.047694761 -0.024880309 0.37800002
0.05065117 -0.024880309 0.37800002
0.05163664 -0.024880309 0.37800002
0.05262211 -0.024880309 0.37800002
0.053607587 -0.024880309 0.37800002
0.054593056 -0.024880309 0.37800002
0.055578526 -0.024880309 0.37800002
0.056713633 -0.024946129 0.37900001
0.05785396 -0.025011951 0.38000003
0.058844641 -0.025011951 0.38000003
0.059992786 -0.02507777 0.38100001
0.060986076 -0.02507777 0.38100001
0.061979368 -0.02507777 0.38100001
0.063137941 -0.025143592 0.38200003
0.064133845 -0.025143592 0.38200003
0.077137053 -0.028895384 0.43900001
0.078281559 -0.028895384 0.43900001
0.079426058 -0.028895384 0.43900001
0.080387026 -0.028829563 0.43800002
0.081528917 -0.028829563 0.43800002
0.082859561 -0.028895384 0.43900001
0.084004059 -0.028895384 0.43900001
0.085148558 -0.028895384 0.43900001
0.086293057 -0.028895384 0.43900001
0.087437563 -0.028895384 0.43900001
0.088582061 -0.028895384 0.43900001
0.089522175 -0.028829563 0.43800002
0.090664066 -0.028829563 0.43800002
0.091805965 -0.028829563 0.43800002
0.092947863 -0.028829563 0.43800002
0.094089754 -0.028829563 0.43800002
0.095231645 -0.028829563 0.43800002
0.096373543 -0.028829563 0.43800002
0.097515434 -0.028829563 0.43800002
0.098657325 -0.028829563 0.43800002
0.099799223 -0.028829563 0.43800002
0.10094111 -0.028829563 0.43800002
0.10208301 -0.028829563 0.43800002
0.1032249 -0.028829563 0.43800002
0.10436679 -0.028829563 0.43800002
0.10550869 -0.028829563 0.43800002
0.10665059 -0.028829563 0.43800002
0.10779248 -0.028829563 0.43800002
0.10893437 -0.028829563 0.43800002
0.11007626 -0.028829563 0.43800002
0.11121816 -0.028829563 0.43800002
0.11236005 -0.028829563 0.43800002
0.11350195 -0.028829563 0.43800002
0.11464385 -0.028829563 0.43800002
0.11578573 -0.028829563 0.43800002
0.11719459 -0.028895384 0.43900001
0.11833908 -0.028895384 0.43900001
0.11948359 -0.028895384 0.43900001
0.12062809 -0.028895384 0.43900001
0.12177259 -0.028895384 0.43900001
0.12291709 -0.028895384 0.43900001
0.12406159 -0.028895384 0.43900001
0.12520608 -0.028895384 0.43900001
0.1263506 -0.028895384 0.43900001
0.1274951 -0.028895384 0.43900001
0.12863959 -0.028895384 0.43900001
0.12978411 -0.028895384 0.43900001
0.13092859 -0.028895384 0.43900001
0.1320731 -0.028895384 0.43900001
0.1332176 -0.028895384 0.43900001
0.1343621 -0.028895384 0.43900001
0.1355066 -0.028895384 0.43900001
0.1366511 -0.028895384 0.43900001
0.1377956 -0.028895384 0.43900001
0.1392566 -0.028961206 0.44000003
0.1404037 -0.028961206 0.44000003
0.14155082 -0.028961206 0.44000003
0.14269792 -0.028961206 0.44000003
0.14384504 -0.028961206 0.44000003
0.14499214 -0.028961206 0.44000003
0.14613925 -0.028961206 0.44000003
0.14728636 -0.028961206 0.44000003
0.14843346 -0.028961206 0.44000003
0.14958058 -0.028961206 0.44000003
0.15072767 -0.028961206 0.44000003
0.15152961 -0.028895384 0.43900001
0.15267411 -0.028895384 0.43900001
0.15381862 -0.028895384 0.43900001
0.15496311 -0.028895384 0.43900001
0.15610762 -0.028895384 0.43900001
0.15689391 -0.028829563 0.43800002
0.15839662 -0.028895384 0.43900001
0.15954113 -0.028895384 0.43900001
0.16068561 -0.028895384 0.43900001
0.16183013 -0.028895384 0.43900001
0.16297463 -0.028895384 0.43900001
0.16411912 -0.028895384 0.43900001
0.16564009 -0.028961206 0.44000003
0.16678719 -0.028961206 0.44000003
0.1679343 -0.028961206 0.44000003
0.16908142 -0.028961206 0.44000003
0.16984162 -0.028895384 0.43900001
0.17098613 -0.028895384 0.43900001
0.17213063 -0.028895384 0.43900001
0.17327513 -0.028895384 0.43900001
0.17441964 -0.028895384 0.43900001
0.17556413 -0.028895384 0.43900001
0.17670864 -0.028895384 0.43900001
0.17785314 -0.028895384 0.43900001
0.17899764 -0.028895384 0.43900001
0.18055248 -0.028961206 0.44000003
0.1816996 -0.028961206 0.44000003
0.18284671 -0.028961206 0.44000003
0.18399382 -0.028961206 0.44000003
0.18514092 -0.028961206 0.44000003
0.18628803 -0.028961206 0.44000003
0.18743514 -0.028961206 0.44000003
0.18858224 -0.028961206 0.44000003
0.18972936 -0.028961206 0.44000003
0.19087647 -0.028961206 0.44000003
0.19202358 -0.028961206 0.44000003
0.19317068 -0.028961206 0.44000003
0.19431779 -0.028961206 0.44000003
0.19546489 -0.028961206 0.44000003
0.196612 -0.028961206 0.44000003
0.19820856 -0.029027026 0.44100001
0.19935827 -0.029027026 0.44100001
0.20050798 -0.029027026 0.44100001
0.20211498 -0.029092848 0.44200003
0.20326731 -0.029092848 0.44200003
0.20441963 -0.029092848 0.44200003
0.20557196 -0.029092848 0.44200003
0.20672427 -0.029092848 0.44200003
-0.24507774 -0.027434815 0.43400002
-0.24394628 -0.027434815 0.43400002
-0.24225534 -0.0273716 0.43300003
-0.24112648 -0.0273716 0.43300003
-0.24055189 -0.027434815 0.43400002
-0.23942043 -0.027434815 0.43400002
-0.23828894 -0.027434815 0.43400002
-0.23715748 -0.027434815 0.43400002
-0.23602602 -0.027434815 0.43400002
-0.23489456 -0.027434815 0.43400002
-0.23376308 -0.027434815 0.43400002
-0.23263162 -0.027434815 0.43400002
-0.23150016 -0.027434815 0.43400002
-0.2303687 -0.027434815 0.43400002
-0.22923721 -0.027434815 0.43400002
-0.22810575 -0.027434815 0.43400002
-0.22697429 -0.027434815 0.43400002
-0.22584285 -0.027434815 0.43400002
-0.22471136 -0.027434815 0.43400002
-0.2235799 -0.027434815 0.43400002
-0.22244844 -0.027434815 0.43400002
-0.22131695 -0.027434815 0.43400002
-0.2201855 -0.027434815 0.43400002
-0.21905404 -0.027434815 0.43400002
-0.21792258 -0.027434815 0.43400002
-0.21679111 -0.027434815 0.43400002
-0.21565963 -0.027434815 0.43400002
-0.21452817 -0.027434815 0.43400002
-0.2133967 -0.027434815 0.43400002
-0.21226525 -0.027434815 0.43400002
-0.21113378 -0.027434815 0.43400002
-0.2100023 -0.027434815 0.43400002
-0.20887084 -0.027434815 0.43400002
-0.20773937 -0.027434815 0.43400002
-0.20660791 -0.027434815 0.43400002
-0.20547645 -0.027434815 0.43400002
-0.20434499 -0.027434815 0.43400002
-0.20368175 -0.027498029 0.43500003
-0.20254768 -0.027498029 0.43500003
-0.20141362 -0.027498029 0.43500003
-0.20027955 -0.027498029 0.43500003
-0.19914547 -0.027498029 0.43500003
-0.1980114 -0.027498029 0.43500003
-0.19687732 -0.027498029 0.43500003
-0.19574325 -0.027498029 0.43500003
-0.19460918 -0.027498029 0.43500003
-0.1934751 -0.027498029 0.43500003
-0.19234103 -0.027498029 0.43500003
-0.19120695 -0.027498029 0.43500003
-0.19007289 -0.027498029 0.43500003
-0.18850446 -0.027434815 0.43400002
-0.187373 -0.027434815 0.43400002
-0.18624152 -0.027434815 0.43400002
-0.18511008 -0.027434815 0.43400002
-0.1839786 -0.027434815 0.43400002
-0.18284714 -0.027434815 0.43400002
-0.18171567 -0.027434815 0.43400002
-0.18058419 -0.027434815 0.43400002
-0.17945273 -0.027434815 0.43400002
-0.17832127 -0.027434815 0.43400002
-0.17718981 -0.027434815 0.43400002
-0.17605834 -0.027434815 0.43400002
-0.17492688 -0.027434815 0.43400002
-0.17419586 -0.027498029 0.43500003
-0.1730618 -0.027498029 0.43500003
-0.17192772 -0.027498029 0.43500003
-0.17079365 -0.027498029 0.43500003
-0.16965957 -0.027498029 0.43500003
-0.1685255 -0.027498029 0.43500003
-0.16700661 -0.027434815 0.43400002
-0.16587514 -0.027434815 0.43400002
-0.16474369 -0.027434815 0.43400002
-0.16361222 -0.027434815 0.43400002
-0.16248076 -0.027434815 0.43400002
-0.16134928 -0.027434815 0.43400002
-0.16021782 -0.027434815 0.43400002
-0.15908635 -0.027434815 0.43400002
-0.15795489 -0.027434815 0.43400002
-0.15682343 -0.027434815 0.43400002
-0.15569197 -0.027434815 0.43400002
-0.15491663 -0.027498029 0.43500003
-0.15378256 -0.027498029 0.43500003
-0.15264848 -0.027498029 0.43500003
-0.15151441 -0.027498029 0.43500003
-0.15038034 -0.027498029 0.43500003
-0.14958934 -0.027561242 0.43600002
-0.14845268 -0.027561242 0.43600002
-0.14731599 -0.027561242 0.43600002
-0.14617932 -0.027561242 0.43600002
-0.14504263 -0.027561242 0.43600002
-0.14390597 -0.027561242 0.43600002
-0.14276928 -0.027561242 0.43600002
-0.14130776 -0.027498029 0.43500003
-0.14017369 -0.027498029 0.43500003
-0.13903962 -0.027498029 0.43500003
-0.13790554 -0.027498029 0.43500003
-0.13677146 -0.027498029 0.43500003
-0.13563739 -0.027498029 0.43500003
-0.13450332 -0.027498029 0.43500003
-0.13336925 -0.027498029 0.43500003
-0.13223517 -0.027498029 0.43500003
-0.1311011 -0.027498029 0.43500003
-0.12996702 -0.027498029 0.43500003
-0.12883297 -0.027498029 0.43500003
-0.12799244 -0.027561242 0.43600002
-0.12656482 -0.027498029 0.43500003
-0.12543073 -0.027498029 0.43500003
-0.12458241 -0.027561242 0.43600002
-0.12344572 -0.027561242 0.43600002
-0.12230904 -0.027561242 0.43600002
-0.12117236 -0.027561242 0.43600002
-0.12003568 -0.027561242 0.43600002
-0.118899 -0.027561242 0.43600002
-0.11776232 -0.027561242 0.43600002
-0.11662564 -0.027561242 0.43600002
-0.11548896 -0.027561242 0.43600002
-0.11435229 -0.027561242 0.43600002
-0.1132156 -0.027561242 0.43600002
-0.11207893 -0.027561242 0.43600002
-0.11094224 -0.027561242 0.43600002
-0.10955372 -0.027498029 0.43500003
-0.10866889 -0.027561242 0.43600002
-0.1075322 -0.027561242 0.43600002
-0.10639553 -0.027561242 0.43600002
-0.10525884 -0.027561242 0.43600002
-0.10412217 -0.027561242 0.43600002
-0.10298549 -0.027561242 0.43600002
-0.10184881 -0.027561242 0.43600002
-0.10071212 -0.027561242 0.43600002
-0.099575445 -0.027561242 0.43600002
-0.098438762 -0.027561242 0.43600002
-0.097302087 -0.027561242 0.43600002
-0.096165404 -0.027561242 0.43600002
-0.095028728 -0.027561242 0.43600002
-0.093892045 -0.027561242 0.43600002
-0.09275537 -0.027561242 0.43600002
-0.091618687 -0.027561242 0.43600002
-0.090482011 -0.027561242 0.43600002
-0.089345329 -0.027561242 0.43600002
-0.088208653 -0.027561242 0.43600002
-0.08707197 -0.027561242 0.43600002
-0.085935287 -0.027561242 0.43600002
-0.084798604 -0.027561242 0.43600002
-0.083661929 -0.027561242 0.43600002
-0.082525246 -0.027561242 0.43600002
-0.08138857 -0.027561242 0.43600002
-0.080251887 -0.027561242 0.43600002
-0.079115212 -0.027561242 0.43600002
-0.077978529 -0.027561242 0.43600002
-0.076841854 -0.027561242 0.43600002
-0.075705171 -0.027561242 0.43600002
-0.074568495 -0.027561242 0.43600002
-0.073431812 -0.027561242 0.43600002
-0.072295137 -0.027561242 0.43600002
-0.071321651 -0.027624454 0.43700001
-0.070182368 -0.027624454 0.43700001
-0.069043078 -0.027624454 0.43700001
-0.067903794 -0.027624454 0.43700001
-0.066764511 -0.027624454 0.43700001
-0.065625221 -0.027624454 0.43700001
-0.064485937 -0.027624454 0.43700001
-0.063346647 -0.027624454 0.43700001
-0.062207364 -0.027624454 0.43700001
-0.061068077 -0.027624454 0.43700001
-0.05992879 -0.027624454 0.43700001
-0.058789503 -0.027624454 0.43700001
-0.057518296 -0.027561242 0.43600002
-0.056381609 -0.027561242 0.43600002
-0.05524493 -0.027561242 0.43600002
-0.054108255 -0.027561242 0.43600002
-0.052971575 -0.027561242 0.43600002
-0.051834892 -0.027561242 0.43600002
-0.050698213 -0.027561242 0.43600002
-0.049561534 -0.027561242 0.43600002
-0.048424855 -0.027561242 0.43600002
-0.047288176 -0.027561242 0.43600002
-0.046257347 -0.027624454 0.43700001
-0.045118056 -0.027624454 0.43700001
-0.043978773 -0.027624454 0.43700001
-0.042839486 -0.027624454 0.43700001
-0.041700199 -0.027624454 0.43700001
-0.040560912 -0.027624454 0.43700001
-0.039511837 -0.027687671 0.43800002
-0.038369942 -0.027687671 0.43800002
-0.037143052 -0.027624454 0.43700001
-0.036003765 -0.027624454 0.43700001
-0.034864478 -0.027624454 0.43700001
-0.033725191 -0.027624454 0.43700001
-0.032585904 -0.027624454 0.43700001
-0.031518582 -0.027687671 0.43800002
-0.030376684 -0.027687671 0.43800002
-0.029168043 -0.027624454 0.43700001
-0.028092897 -0.027687671 0.43800002
-0.026951004 -0.027687671 0.43800002
-0.025750184 -0.027624454 0.43700001
-0.024610896 -0.027624454 0.43700001
-0.023471611 -0.027624454 0.43700001
-0.022332324 -0.027624454 0.43700001
-0.021193035 -0.027624454 0.43700001
-0.010613814 -0.02427412 0.384
-0.0096127018 -0.02427412 0.384
-0.0086115897 -0.02427412 0.384
-0.0066093644 -0.02427412 0.384
-0.0056082518 -0.02427412 0.384
-0.0046071396 -0.02427412 0.384
-0.0036060272 -0.02427412 0.384
-0.0026049148 -0.02427412 0.384
-0.0016038024 -0.02427412 0.384
-0.00060268998 -0.02427412 0.384
0.00039738492 -0.024210908 0.38300002
0.0013958904 -0.024210908 0.38300002
0.0023943956 -0.024210908 0.38300002
0.0033929013 -0.024210908 0.38300002
0.0043799407 -0.024147695 0.38200003
0.0053758393 -0.024147695 0.38200003
0.0063550575 -0.024084479 0.38100001
0.0073290616 -0.024021266 0.38000003
0.0082978513 -0.023958052 0.37900001
0.0092614284 -0.023894839 0.37800002
0.010219789 -0.023831623 0.377
0.011202653 -0.023831623 0.377
0.012120872 -0.023705197 0.37500003
0.01309852 -0.023705197 0.37500003
0.014038633 -0.023641983 0.37400001
0.014973531 -0.02357877 0.37300003
0.015945965 -0.02357877 0.37300003
0.0169184 -0.02357877 0.37300003
0.01886327 -0.02357877 0.37300003
0.023969524 -0.022883417 0.36200002
0.024706818 -0.022693776 0.35900003
0.026282547 -0.02244092 0.35500002
0.027208054 -0.02244092 0.35500002
0.02805431 -0.022377705 0.354
0.028977213 -0.022377705 0.354
0.029900113 -0.022377705 0.354
0.030823013 -0.022377705 0.354
0.031745914 -0.022377705 0.354
0.032668814 -0.022377705 0.354
0.033591714 -0.022377705 0.354
0.034514613 -0.022377705 0.354
0.039792325 -0.022756988 0.36000001
0.046709292 -0.023894839 0.37800002
0.05163664 -0.023894839 0.37800002
0.05262211 -0.023894839 0.37800002
0.053607587 -0.023894839 0.37800002
0.054737478 -0.023958052 0.37900001
0.055725556 -0.023958052 0.37900001
0.056713633 -0.023958052 0.37900001
0.05785396 -0.024021266 0.38000003
0.058844641 -0.024021266 0.38000003
0.059992786 -0.024084479 0.38100001
0.060986076 -0.024084479 0.38100001
0.061979368 -0.024084479 0.38100001
0.063137941 -0.024147695 0.38200003
0.077137053 -0.027750883 0.43900001
0.078281559 -0.027750883 0.43900001
0.079426058 -0.027750883 0.43900001
0.080570556 -0.027750883 0.43900001
0.081715055 -0.027750883 0.43900001
0.082859561 -0.027750883 0.43900001
0.084004059 -0.027750883 0.43900001
0.085148558 -0.027750883 0.43900001
0.086293057 -0.027750883 0.43900001
0.087437563 -0.027750883 0.43900001
0.088582061 -0.027750883 0.43900001
0.08972656 -0.027750883 0.43900001
0.090871058 -0.027750883 0.43900001
0.092015564 -0.027750883 0.43900001
0.092947863 -0.027687671 0.43800002
0.094089754 -0.027687671 0.43800002
0.095231645 -0.027687671 0.43800002
0.096373543 -0.027687671 0.43800002
0.097515434 -0.027687671 0.43800002
0.098657325 -0.027687671 0.43800002
0.099799223 -0.027687671 0.43800002
0.10094111 -0.027687671 0.43800002
0.10208301 -0.027687671 0.43800002
0.1032249 -0.027687671 0.43800002
0.10460507 -0.027750883 0.43900001
0.10574957 -0.027750883 0.43900001
0.10689408 -0.027750883 0.43900001
0.10803858 -0.027750883 0.43900001
0.10918308 -0.027750883 0.43900001
0.11032757 -0.027750883 0.43900001
0.11147209 -0.027750883 0.43900001
0.11261658 -0.027750883 0.43900001
0.11376108 -0.027750883 0.43900001
0.11490559 -0.027750883 0.43900001
0.11605009 -0.027750883 0.43900001
0.11719459 -0.027750883 0.43900001
0.11833908 -0.027750883 0.43900001
0.11948359 -0.027750883 0.43900001
0.12062809 -0.027750883 0.43900001
0.12177259 -0.027750883 0.43900001
0.12291709 -0.027750883 0.43900001
0.12406159 -0.027750883 0.43900001
0.12520608 -0.027750883 0.43900001
0.1263506 -0.027750883 0.43900001
0.1274951 -0.027750883 0.43900001
0.12863959 -0.027750883 0.43900001
0.12978411 -0.027750883 0.43900001
0.13092859 -0.027750883 0.43900001
0.1320731 -0.027750883 0.43900001
0.1332176 -0.027750883 0.43900001
0.1343621 -0.027750883 0.43900001
0.1355066 -0.027750883 0.43900001
0.1366511 -0.027750883 0.43900001
0.13810949 -0.027814098 0.44000003
0.1392566 -0.027814098 0.44000003
0.1404037 -0.027814098 0.44000003
0.14155082 -0.027814098 0.44000003
0.14269792 -0.027814098 0.44000003
0.14384504 -0.027814098 0.44000003
0.14499214 -0.027814098 0.44000003
0.14613925 -0.027814098 0.44000003
0.14728636 -0.027814098 0.44000003
0.14843346 -0.027814098 0.44000003
0.14958058 -0.027814098 0.44000003
0.15072767 -0.027814098 0.44000003
0.1518748 -0.027814098 0.44000003
0.15267411 -0.027750883 0.43900001
0.15381862 -0.027750883 0.43900001
0.15496311 -0.027750883 0.43900001
0.15610762 -0.027750883 0.43900001
0.15725212 -0.027750883 0.43900001
0.15839662 -0.027750883 0.43900001
0.15954113 -0.027750883 0.43900001
0.16068561 -0.027750883 0.43900001
0.16183013 -0.027750883 0.43900001
0.16297463 -0.027750883 0.43900001
0.16411912 -0.027750883 0.43900001
0.16564009 -0.027814098 0.44000003
0.16678719 -0.027814098 0.44000003
0.1679343 -0.027814098 0.44000003
0.16908142 -0.027814098 0.44000003
0.17022851 -0.027814098 0.44000003
0.17098613 -0.027750883 0.43900001
0.17213063 -0.027750883 0.43900001
0.17327513 -0.027750883 0.43900001
0.17441964 -0.027750883 0.43900001
0.17556413 -0.027750883 0.43900001
0.17670864 -0.027750883 0.43900001
0.17785314 -0.027750883 0.43900001
0.17940539 -0.027814098 0.44000003
0.18055248 -0.027814098 0.44000003
0.1816996 -0.027814098 0.44000003
0.18284671 -0.027814098 0.44000003
0.18399382 -0.027814098 0.44000003
0.18514092 -0.027814098 0.44000003
0.18628803 -0.027814098 0.44000003
0.18743514 -0.027814098 0.44000003
0.18858224 -0.027814098 0.44000003
0.18972936 -0.027814098 0.44000003
0.19087647 -0.027814098 0.44000003
0.19202358 -0.027814098 0.44000003
0.19317068 -0.027814098 0.44000003
0.19431779 -0.027814098 0.44000003
0.19546489 -0.027814098 0.44000003
0.196612 -0.027814098 0.44000003
0.19820856 -0.02787731 0.44100001
0.19935827 -0.02787731 0.44100001
0.20050798 -0.02787731 0.44100001
0.20211498 -0.027940527 0.44200003
0.20326731 -0.027940527 0.44200003
0.20441963 -0.027940527 0.44200003
0.20557196 -0.027940527 0.44200003
0.20672427 -0.027940527 0.44200003
-0.24507774 -0.026303347 0.43400002
-0.24394628 -0.026303347 0.43400002
-0.24281482 -0.026303347 0.43400002
-0.24112648 -0.02624274 0.43300003
-0.24055189 -0.026303347 0.43400002
-0.23942043 -0.026303347 0.43400002
-0.23828894 -0.026303347 0.43400002
-0.23715748 -0.026303347 0.43400002
-0.23602602 -0.026303347 0.43400002
-0.23489456 -0.026303347 0.43400002
-0.23376308 -0.026303347 0.43400002
-0.23263162 -0.026303347 0.43400002
-0.23150016 -0.026303347 0.43400002
-0.2303687 -0.026303347 0.43400002
-0.22870903 -0.02624274 0.43300003
-0.22758017 -0.02624274 0.43300003
-0.22697429 -0.026303347 0.43400002
-0.22584285 -0.026303347 0.43400002
-0.22471136 -0.026303347 0.43400002
-0.2235799 -0.026303347 0.43400002
-0.22244844 -0.026303347 0.43400002
-0.22131695 -0.026303347 0.43400002
-0.2201855 -0.026303347 0.43400002
-0.21905404 -0.026303347 0.43400002
-0.21792258 -0.026303347 0.43400002
-0.21679111 -0.026303347 0.43400002
-0.21565963 -0.026303347 0.43400002
-0.21452817 -0.026303347 0.43400002
-0.2133967 -0.026303347 0.43400002
-0.21226525 -0.026303347 0.43400002
-0.21113378 -0.026303347 0.43400002
-0.2100023 -0.026303347 0.43400002
-0.20887084 -0.026303347 0.43400002
-0.20773937 -0.026303347 0.43400002
-0.20660791 -0.026303347 0.43400002
-0.20547645 -0.026303347 0.43400002
-0.20434499 -0.026303347 0.43400002
-0.20368175 -0.026363956 0.43500003
-0.20254768 -0.026363956 0.43500003
-0.20141362 -0.026363956 0.43500003
-0.20027955 -0.026363956 0.43500003
-0.19914547 -0.026363956 0.43500003
-0.1980114 -0.026363956 0.43500003
-0.19687732 -0.026363956 0.43500003
-0.19574325 -0.026363956 0.43500003
-0.19460918 -0.026363956 0.43500003
-0.1934751 -0.026363956 0.43500003
-0.19234103 -0.026363956 0.43500003
-0.19120695 -0.026363956 0.43500003
-0.19007289 -0.026363956 0.43500003
-0.18850446 -0.026303347 0.43400002
-0.187373 -0.026303347 0.43400002
-0.18624152 -0.026303347 0.43400002
-0.18511008 -0.026303347 0.43400002
-0.1839786 -0.026303347 0.43400002
-0.18284714 -0.026303347 0.43400002
-0.18171567 -0.026303347 0.43400002
-0.18058419 -0.026303347 0.43400002
-0.17945273 -0.026303347 0.43400002
-0.17832127 -0.026303347 0.43400002
-0.17718981 -0.026303347 0.43400002
-0.17605834 -0.026303347 0.43400002
-0.17492688 -0.026303347 0.43400002
-0.17419586 -0.026363956 0.43500003
-0.1730618 -0.026363956 0.43500003
-0.17192772 -0.026363956 0.43500003
-0.17079365 -0.026363956 0.43500003
-0.16965957 -0.026363956 0.43500003
-0.1685255 -0.026363956 0.43500003
-0.16739143 -0.026363956 0.43500003
-0.16587514 -0.026303347 0.43400002
-0.16474369 -0.026303347 0.43400002
-0.16361222 -0.026303347 0.43400002
-0.16248076 -0.026303347 0.43400002
-0.16134928 -0.026303347 0.43400002
-0.16021782 -0.026303347 0.43400002
-0.15908635 -0.026303347 0.43400002
-0.15795489 -0.026303347 0.43400002
-0.15682343 -0.026303347 0.43400002
-0.15569197 -0.026303347 0.43400002
-0.15491663 -0.026363956 0.43500003
-0.15378256 -0.026363956 0.43500003
-0.15264848 -0.026363956 0.43500003
-0.15151441 -0.026363956 0.43500003
-0.15072604 -0.026424561 0.43600002
-0.14958934 -0.026424561 0.43600002
-0.14845268 -0.026424561 0.43600002
-0.14731599 -0.026424561 0.43600002
-0.14617932 -0.026424561 0.43600002
-0.14504263 -0.026424561 0.43600002
-0.14390597 -0.026424561 0.43600002
-0.14276928 -0.026424561 0.43600002
-0.14130776 -0.026363956 0.43500003
-0.14017369 -0.026363956 0.43500003
-0.13903962 -0.026363956 0.43500003
-0.13790554 -0.026363956 0.43500003
-0.13677146 -0.026363956 0.43500003
-0.13563739 -0.026363956 0.43500003
-0.13450332 -0.026363956 0.43500003
-0.13336925 -0.026363956 0.43500003
-0.13223517 -0.026363956 0.43500003
-0.1311011 -0.026363956 0.43500003
-0.12996702 -0.026363956 0.43500003
-0.12883297 -0.026363956 0.43500003
-0.12799244 -0.026424561 0.43600002
-0.12656482 -0.026363956 0.43500003
-0.12571909 -0.026424561 0.43600002
-0.12458241 -0.026424561 0.43600002
-0.12344572 -0.026424561 0.43600002
-0.12230904 -0.026424561 0.43600002
-0.12117236 -0.026424561 0.43600002
-0.12003568 -0.026424561 0.43600002
-0.118899 -0.026424561 0.43600002
-0.11776232 -0.026424561 0.43600002
-0.11662564 -0.026424561 0.43600002
-0.11548896 -0.026424561 0.43600002
-0.11435229 -0.026424561 0.43600002
-0.1132156 -0.026424561 0.43600002
-0.11207893 -0.026424561 0.43600002
-0.11068779 -0.026363956 0.43500003
-0.10955372 -0.026363956 0.43500003
-0.10841965 -0.026363956 0.43500003
-0.1075322 -0.026424561 0.43600002
-0.10639553 -0.026424561 0.43600002
-0.10525884 -0.026424561 0.43600002
-0.10412217 -0.026424561 0.43600002
-0.10298549 -0.026424561 0.43600002
-0.10184881 -0.026424561 0.43600002
-0.10071212 -0.026424561 0.43600002
-0.099575445 -0.026424561 0.43600002
-0.098438762 -0.026424561 0.43600002
-0.097302087 -0.026424561 0.43600002
-0.096165404 -0.026424561 0.43600002
-0.095028728 -0.026424561 0.43600002
-0.093892045 -0.026424561 0.43600002
-0.09275537 -0.026424561 0.43600002
-0.091618687 -0.026424561 0.43600002
-0.090482011 -0.026424561 0.43600002
-0.089345329 -0.026424561 0.43600002
-0.088208653 -0.026424561 0.43600002
-0.08707197 -0.026424561 0.43600002
-0.086132385 -0.026485167 0.43700001
-0.084798604 -0.026424561 0.43600002
-0.083661929 -0.026424561 0.43600002
-0.082525246 -0.026424561 0.43600002
-0.08138857 -0.026424561 0.43600002
-0.080251887 -0.026424561 0.43600002
-0.079115212 -0.026424561 0.43600002
-0.077978529 -0.026424561 0.43600002
-0.076841854 -0.026424561 0.43600002
-0.075705171 -0.026424561 0.43600002
-0.074568495 -0.026424561 0.43600002
-0.073431812 -0.026424561 0.43600002
-0.072295137 -0.026424561 0.43600002
-0.071321651 -0.026485167 0.43700001
-0.070182368 -0.026485167 0.43700001
-0.069043078 -0.026485167 0.43700001
-0.067903794 -0.026485167 0.43700001
-0.066764511 -0.026485167 0.43700001
-0.065625221 -0.026485167 0.43700001
-0.064485937 -0.026485167 0.43700001
-0.063346647 -0.026485167 0.43700001
-0.062207364 -0.026485167 0.43700001
-0.061068077 -0.026485167 0.43700001
-0.05992879 -0.026485167 0.43700001
-0.058789503 -0.026485167 0.43700001
-0.057518296 -0.026424561 0.43600002
-0.056381609 -0.026424561 0.43600002
-0.05524493 -0.026424561 0.43600002
-0.054108255 -0.026424561 0.43600002
-0.052971575 -0.026424561 0.43600002
-0.051834892 -0.026424561 0.43600002
-0.050698213 -0.026424561 0.43600002
-0.049561534 -0.026424561 0.43600002
-0.048424855 -0.026424561 0.43600002
-0.047396634 -0.026485167 0.43700001
-0.046257347 -0.026485167 0.43700001
