# .PCD v0.7 - Point Cloud Data file format
VERSION 0.7
FIELDS x y z
SIZE 4 4 4
TYPE F F F
COUNT 1 1 1
WIDTH 1353
HEIGHT 1
VIEWPOINT 0 0 0 1 0 0 0
POINTS 1353
DATA ascii
0.055867828 -0.086311907 0.46972495
0.065104209 -0.08500886 0.46769747
0.074965887 -0.085128933 0.4642466
0.084045775 -0.084206663 0.46248874
0.09105856 -0.08132261 0.46092597
0.059344593 -0.078823417 0.46992999
0.065600097 -0.075378545 0.4696317
0.074687406 -0.075101763 0.46722218
0.085313097 -0.07494434 0.46395472
0.093787394 -0.074280441 0.46178687
0.052237976 -0.063800991 0.46758038
0.068450816 -0.067235216 0.46981981
0.075184435 -0.065078229 0.46849653
0.084759414 -0.064922817 0.46556324
0.094693847 -0.064903907 0.46271721
0.10275738 -0.063490629 0.46129134
0.076124661 -0.054901753 0.46968225
0.084875479 -0.054926809 0.46803793
0.0950251 -0.0550128 0.46496758
0.10460217 -0.054813631 0.46285322
0.11300347 -0.05225759 0.4614999
0.076644219 -0.047530048 0.46974292
0.085150495 -0.045275498 0.46905056
0.094966397 -0.044880062 0.46735367
0.10486905 -0.044975989 0.46464503
0.1150381 -0.045002118 0.46231216
0.12148436 -0.044585455 0.46092886
0.089279987 -0.038389776 0.46993357
0.095736168 -0.035863008 0.46836716
0.10492145 -0.034995928 0.46557119
0.11499502 -0.034982111 0.463588
0.12340207 -0.033466365 0.46193057
0.098877773 -0.028753819 0.46979126
0.10543311 -0.025362011 0.46873695
0.11484647 -0.025257422 0.46615827
0.12496339 -0.025166444 0.46336243
0.13290003 -0.023264734 0.46153834
0.10822512 -0.017832836 0.46993494
0.1156625 -0.016246282 0.46866772
0.12511952 -0.014960583 0.46697158
0.13506453 -0.014933505 0.46370074
0.14205556 -0.013250466 0.46153903
0.11877704 -0.0089839743 0.4699353
0.12620425 -0.0054881768 0.46926197
0.13504447 -0.0044056866 0.46636486
0.1421337 -0.0043317215 0.46418348
0.1284817 0.0025876749 0.46982512
0.13443474 0.004827138 0.46827966
0.14115354 0.00080820627 0.46493444
0.1342655 0.014775571 0.46959764
0.13715871 0.020422531 0.46993828
0.14124389 0.032675471 0.46993992
0.18617524 0.079234764 0.46994287
0.19737101 0.079421192 0.46744162
0.20020565 0.079945445 0.46694136
0.18812481 0.082353644 0.46994317
0.19518177 0.085086808 0.46911237
0.20490958 0.085503154 0.4673003
0.21194197 0.08838705 0.46731654
0.19752885 0.090855375 0.46984354
0.2052349 0.09376701 0.46942469
0.21104738 0.092723176 0.46822807
-0.070795126 -0.18310586 0.47992674
-0.064940862 -0.18181662 0.47935486
-0.054798409 -0.18129306 0.4768002
-0.04458135 -0.18081886 0.47392419
-0.062743545 -0.17822634 0.47959334
-0.055282149 -0.17626196 0.47752613
-0.046424553 -0.17798406 0.47381958
-0.039383598 -0.17906085 0.4709239
-0.05667264 -0.1695267 0.47692749
0.0132148 -0.14447759 0.4709239
0.037059717 -0.10250448 0.47092849
0.042795364 -0.10341932 0.4709276
0.036464211 -0.095444538 0.47122794
0.044675384 -0.094272912 0.47096282
0.038683336 -0.086708173 0.4709309
0.045368861 -0.08455123 0.47113374
0.053384427 -0.08214061 0.47093019
0.04735174 -0.076128118 0.47174433
0.055188663 -0.074738055 0.47166127
0.061815534 -0.072070196 0.47093084
0.056842513 -0.065775737 0.47262296
0.064567864 -0.064621709 0.47215003
0.070523389 -0.060572904 0.47093186
0.058337431 -0.055027749 0.47320339
0.065247282 -0.055262633 0.47277719
0.071506076 -0.055047296 0.47093272
0.049966164 -0.041185308 0.47393751
0.056073699 -0.04438227 0.47505102
0.06513685 -0.045144636 0.47355276
0.073930018 -0.04409327 0.47153893
0.081268966 -0.041233733 0.47093397
0.045123775 -0.035756294 0.47615641
0.055557407 -0.037300706 0.4787997
0.065313339 -0.03526755 0.47662693
0.075089946 -0.034862015 0.47404256
0.084737256 -0.034693737 0.47239858
0.092151999 -0.032149892 0.47146365
0.067724496 -0.026190965 0.47916538
0.075052552 -0.024625031 0.47634035
0.08510188 -0.024481272 0.47348332
0.09495528 -0.024491848 0.47167146
0.10245202 -0.020755013 0.47093511
0.075813144 -0.015548646 0.4785544
0.084965669 -0.014552593 0.4754096
0.095015906 -0.014693146 0.47283089
0.1045007 -0.014067692 0.4719705
0.1129568 -0.011468196 0.47135654
0.078548558 -0.0083378088 0.47993994
0.085549623 -0.0054818573 0.47823793
0.095033616 -0.0046108761 0.47577932
0.10505509 -0.0047345608 0.47437501
0.1150492 -0.0045968308 0.47276509
0.12227479 -0.0027914923 0.47105363
0.088560313 0.0016726777 0.47994053
0.095450766 0.0044687814 0.47871801
0.10500298 0.0052477242 0.47664353
0.11494794 0.0051591853 0.47437567
0.12425642 0.0054938649 0.47211173
0.098780587 0.010848891 0.47994095
0.10525499 0.015219797 0.47960758
0.11507978 0.015153893 0.47749534
0.1251093 0.015010802 0.47306368
0.13143352 0.017273791 0.47093838
0.10559817 0.023329427 0.47994226
0.11515721 0.024878237 0.47887793
0.12476516 0.025057523 0.47558829
0.13429897 0.025241962 0.47240716
0.1405208 0.02721942 0.47093904
0.11821239 0.033276211 0.47974259
0.125039 0.035072736 0.4774977
0.13499841 0.034613989 0.47364244
0.14097288 0.035678197 0.47177377
0.12671584 0.043862306 0.47899342
0.13493522 0.045123253 0.47808564
0.14280161 0.045820124 0.47921473
0.12756565 0.059338439 0.47994602
0.1358754 0.054843605 0.47981668
0.14441872 0.055454791 0.47868928
0.15134123 0.057903297 0.47927645
0.12615803 0.06231058 0.47994667
0.13319704 0.06121517 0.47994569
0.14687581 0.06468232 0.47988918
0.1548752 0.065431021 0.47948501
0.16331068 0.067394391 0.47766757
0.14677314 0.073903807 0.47882137
0.15475336 0.075125538 0.47888318
0.1648771 0.074682623 0.47632098
0.17409068 0.076654881 0.47385496
0.18205234 0.078432038 0.47156814
0.15643322 0.084261604 0.47889453
0.16487613 0.084842339 0.4776786
0.17504723 0.085247025 0.47462618
0.18446133 0.085781254 0.47189236
0.19127901 0.088817202 0.4709439
0.15885246 0.091559753 0.47994804
0.16584103 0.094171546 0.47992498
0.17493042 0.095156118 0.47817877
0.1850391 0.094983101 0.47475812
0.19454698 0.095594175 0.47224149
0.20229526 0.097952038 0.47103512
0.16838801 0.10409164 0.47953734
0.17510137 0.10519247 0.47965613
0.18488945 0.10496127 0.47771883
0.19505163 0.10509003 0.47470754
0.20266701 0.10495194 0.47299942
0.17715099 0.1129968 0.47984964
0.18507759 0.11354896 0.47892848
0.19411342 0.1115035 0.47618556
-0.10127167 -0.18369803 0.48985866
-0.09511514 -0.18329597 0.48813459
-0.085014977 -0.1826921 0.48452839
-0.075008236 -0.18192616 0.4819645
-0.069061458 -0.18097942 0.48092693
-0.10037351 -0.17861491 0.48993081
-0.094186306 -0.17587003 0.48895392
-0.084988184 -0.17531772 0.48672667
-0.075026102 -0.17477815 0.48492864
-0.065777503 -0.1745262 0.48255733
-0.059241321 -0.17166021 0.48192739
-0.090472512 -0.1680765 0.48993152
-0.084798694 -0.16541073 0.48863307
-0.074842021 -0.16470939 0.48633033
-0.065958105 -0.16555394 0.48587266
-0.082333781 -0.15708503 0.4894619
-0.075173095 -0.15512666 0.48768607
-0.066722296 -0.15508719 0.48562807
-0.07311222 -0.14561038 0.48743343
-0.067361318 -0.14458464 0.48259965
-0.07131777 -0.1390384 0.48926771
-0.064848572 -0.13482602 0.48776776
-0.056335147 -0.13144229 0.48767084
-0.061407819 -0.12943515 0.48993486
-0.054974377 -0.12481403 0.48837727
-0.048567742 -0.12128928 0.48293483
-0.052097738 -0.11792281 0.48846912
-0.045923788 -0.11442228 0.48686433
-0.041355621 -0.10591803 0.48949227
-0.037123371 -0.10337383 0.48819584
-0.03316126 -0.097614221 0.48855254
-0.028712561 -0.092009477 0.48793766
-0.025743524 -0.084799677 0.48793855
-0.02291516 -0.075657926 0.4891398
-0.019764559 -0.065161683 0.48694125
0.039500859 -0.030569997 0.48194051
0.046404932 -0.032384995 0.48236254
0.054624535 -0.032836113 0.4820241
0.061154824 -0.030925987 0.48093805
0.017447142 -0.025326442 0.48594391
0.025655583 -0.023335811 0.48700044
0.035794131 -0.02448629 0.48559651
0.045435112 -0.025067195 0.4849408
0.055432636 -0.025016721 0.48390853
0.063753381 -0.024164185 0.48186743
0.028903466 -0.019060286 0.48974365
0.036265533 -0.016216885 0.48878777
0.045339067 -0.014863204 0.48667389
0.055474807 -0.014934535 0.48428515
0.065315083 -0.014874648 0.48236227
0.072124064 -0.012416841 0.48101136
0.038880542 -0.0087214699 0.48994434
0.045390334 -0.0055293627 0.4884178
0.055006627 -0.0048583597 0.48642004
0.065152965 -0.0047941264 0.48469964
0.074875757 -0.0043314192 0.48264092
0.082107291 -0.0016678816 0.48124066
0.048462104 0.00085887872 0.48994488
0.055870131 0.0038034625 0.48927778
0.064867094 0.0053170971 0.48844376
0.074782342 0.0051698191 0.48556384
0.084637262 0.0057046819 0.48272285
0.092448428 0.0084797684 0.48103216
0.066152014 0.015175936 0.48911193
0.074807338 0.015449519 0.48683512
0.08485242 0.015243349 0.48474923
0.094867997 0.015563239 0.48186755
0.10086769 0.015260397 0.4809415
0.066784702 0.023699237 0.48941353
0.074876189 0.024994636 0.48728532
0.085063703 0.025377734 0.48465088
0.095170848 0.025396165 0.48197374
0.10446207 0.028096655 0.48105863
0.11131854 0.029262707 0.48094273
0.076550849 0.032989372 0.48903289
0.084990866 0.035083171 0.48743787
0.094812676 0.035015728 0.48526707
0.1048879 0.035028193 0.48346901
0.11399939 0.036063239 0.48181638
0.087128885 0.0410081 0.48958379
0.095793091 0.044458669 0.48815399
0.10474481 0.044702578 0.48511013
0.11513429 0.0450752 0.48277581
0.12300143 0.047155071 0.48142722
0.14601353 0.045980468 0.48094165
0.097796805 0.053022798 0.48903528
0.10519896 0.054930262 0.48729625
0.11485792 0.054770831 0.48412696
0.12484643 0.055108782 0.48168802
0.13303165 0.056529619 0.4809449
0.10532999 0.064063214 0.48783621
0.1149395 0.063190445 0.48337951
0.12218858 0.061746519 0.48094705
0.13706382 0.06369561 0.48112434
0.14305899 0.06617897 0.48094541
0.14225316 0.071060658 0.48094639
0.16492322 0.097682551 0.48094842
-0.15065303 -0.19072971 0.49993441
-0.14774989 -0.19034843 0.49893415
-0.15065295 -0.18942618 0.49993464
-0.14416254 -0.18612893 0.49883914
-0.13517556 -0.18471514 0.49639916
-0.12504931 -0.18462721 0.49412909
-0.11509871 -0.18413888 0.49208373
-0.10652719 -0.18409932 0.49093062
-0.1413008 -0.17727102 0.49979281
-0.13477117 -0.17514366 0.49775201
-0.12479599 -0.17503276 0.49533078
-0.11501872 -0.17493668 0.49338329
-0.10538577 -0.17487146 0.49214956
-0.097415492 -0.1724046 0.49111912
-0.13358718 -0.16740127 0.49909657
-0.12507233 -0.16482316 0.49754256
-0.11510102 -0.1651642 0.49559107
-0.10494225 -0.16468026 0.49462861
-0.095314845 -0.16491665 0.49241653
-0.088736579 -0.16137925 0.49093249
-0.12276514 -0.15805483 0.49936548
-0.11451112 -0.15566164 0.49834383
-0.10499845 -0.15517803 0.49670097
-0.094770066 -0.15488733 0.49400574
-0.085920162 -0.153919 0.49145615
-0.11103604 -0.1465307 0.49960423
-0.1045509 -0.1450908 0.49765137
-0.094959781 -0.14482118 0.49512908
-0.085029528 -0.14518583 0.49355987
-0.077656925 -0.14375827 0.49207059
-0.10316146 -0.13755062 0.49931914
-0.095128305 -0.13483189 0.49728256
-0.085225873 -0.13539366 0.49512696
-0.075201616 -0.13470016 0.49326313
-0.068108208 -0.13268909 0.49126843
-0.092737272 -0.12799762 0.49899751
-0.084723137 -0.12560254 0.49761096
-0.074980624 -0.12500654 0.49518722
-0.065140098 -0.12500113 0.49262038
-0.059356533 -0.12227504 0.49093589
-0.081424475 -0.11564831 0.49951845
-0.074798159 -0.11533359 0.4976756
-0.064841829 -0.11492355 0.49573475
-0.055762392 -0.11434469 0.49322537
-0.048131235 -0.11186947 0.49133644
-0.080257118 -0.10926345 0.49994045
-0.074224792 -0.10550647 0.49889785
-0.064902879 -0.10476427 0.49714255
-0.054943278 -0.10514614 0.49541917
-0.046231329 -0.10450912 0.49198008
-0.072580375 -0.096660636 0.49952066
-0.065014422 -0.094551511 0.49798813
-0.055061705 -0.095296703 0.49606505
-0.045177907 -0.095089048 0.4940328
-0.035608564 -0.093647644 0.49155518
-0.02888887 -0.090019248 0.49093801
-0.063455194 -0.087074921 0.49929026
-0.054880172 -0.085315712 0.49813464
-0.045117345 -0.085252732 0.49582586
-0.034852233 -0.084638581 0.49274909
-0.028002618 -0.083886608 0.49143893
-0.051547062 -0.078584597 0.49964252
-0.044562466 -0.075429007 0.49805993
-0.034903627 -0.074706018 0.49447259
-0.026466852 -0.074890845 0.49156189
-0.042427156 -0.068163171 0.49964327
-0.034678143 -0.065118663 0.49767175
-0.025649231 -0.065663435 0.49304181
-0.032232717 -0.055906869 0.49932516
-0.027319815 -0.055157598 0.49733666
-0.031770755 -0.046395689 0.4995929
-0.024897832 -0.044891749 0.49666664
-0.015872452 -0.042905681 0.49535841
-0.022677617 -0.037381064 0.49899185
-0.015368175 -0.035286423 0.49785501
-0.0056286114 -0.031160807 0.4956598
0.0022740737 -0.031307124 0.49361125
-0.012303886 -0.026084736 0.49947649
-0.0052716271 -0.025021037 0.49666086
0.0047737635 -0.02452228 0.49374929
0.014425512 -0.02342364 0.49254456
0.022332532 -0.020913005 0.49127743
-0.0041395179 -0.016934514 0.49902466
0.0050952011 -0.015314291 0.49693125
0.015281595 -0.015405655 0.49581683
0.024824029 -0.014905957 0.49354142
0.032465972 -0.012527989 0.49149442
0.0063449726 -0.0053867265 0.49942768
0.014853419 -0.0049681552 0.49823353
0.0244883 -0.0049486221 0.49608719
0.034437846 -0.0047876514 0.49249387
0.041272648 -0.0020831111 0.49104518
0.008607327 0.0017483454 0.49994954
0.015497273 0.0048087169 0.49894929
0.024498079 0.0054026637 0.49626091
0.034722507 0.0053833402 0.49443159
0.044738762 0.0055086291 0.49254295
0.05325472 0.0077230288 0.49102557
0.017268432 0.012367139 0.49967763
0.024850145 0.014984122 0.49862927
0.034891587 0.015124435 0.49684176
0.045024347 0.015046099 0.49432263
0.05504876 0.01496721 0.49175021
0.061255965 0.015473968 0.49094594
0.027611163 0.022462586 0.49982592
0.03508411 0.024853339 0.49855369
0.045164552 0.024790823 0.49585566
0.055192381 0.024649536 0.49304196
0.063107774 0.025923716 0.49124753
0.037112281 0.032354932 0.49956262
0.045656182 0.03505851 0.49815109
0.055220112 0.034971271 0.49596664
0.065180294 0.035087138 0.49393389
0.073702306 0.036920752 0.49158147
0.047526523 0.04454248 0.49953145
0.054477911 0.045042578 0.49823746
0.064637192 0.044880211 0.49645051
0.074951313 0.04496453 0.49394944
0.084551819 0.045929227 0.49250406
0.091130547 0.047540363 0.4911299
0.048539091 0.05480741 0.49883652
0.054674596 0.054459333 0.49757412
0.064758286 0.054686926 0.49735856
0.074747629 0.054912321 0.49591729
0.08502721 0.055117037 0.49381223
0.093644038 0.056153301 0.49168843
0.10040753 0.059740502 0.49094915
0.065062128 0.063579351 0.49513987
0.074578248 0.063741311 0.4960548
0.084990174 0.063379332 0.49436063
0.095042013 0.06435927 0.49252507
0.10040774 0.063154012 0.49094975
-0.18355343 -0.19267845 0.50962538
-0.17592782 -0.19213887 0.50797874
-0.16565691 -0.19153641 0.50533605
-0.15648775 -0.1911203 0.50233501
-0.18143946 -0.18789424 0.50993842
-0.1743246 -0.18552695 0.50875616
-0.16492647 -0.18474472 0.5063777
-0.15497825 -0.18508805 0.50354302
-0.14781797 -0.182861 0.50137299
-0.1717803 -0.17897202 0.50977218
-0.16452496 -0.17587516 0.50905764
-0.1554599 -0.17527452 0.50673068
-0.14549556 -0.17459276 0.50251108
-0.1626617 -0.16564462 0.50966233
-0.15537727 -0.16490532 0.50723565
-0.14527301 -0.16482413 0.50424975
-0.13628288 -0.16353951 0.50188035
-0.16126136 -0.15826438 0.50994122
-0.15455611 -0.15524773 0.50858098
-0.1447836 -0.15493165 0.50614327
-0.13469644 -0.15504423 0.50405937
-0.12567568 -0.15391997 0.50285792
-0.11820599 -0.15214127 0.50115967
-0.15144706 -0.14889444 0.50994176
-0.1444571 -0.14514279 0.50905478
-0.13479704 -0.14543001 0.50735033
-0.12471567 -0.14500317 0.50576073
-0.11548115 -0.14448358 0.50209743
-0.10915465 -0.1401744 0.50093848
-0.14199254 -0.13688642 0.50988388
-0.13474581 -0.13522963 0.50906932
-0.12506685 -0.13502651 0.50688452
-0.11510358 -0.13513896 0.50410074
-0.10637361 -0.13373837 0.50228924
-0.13330765 -0.12732476 0.50964332
-0.12498539 -0.12511872 0.50840724
-0.11491473 -0.12528981 0.50649726
-0.10459752 -0.12509264 0.50478804
-0.095812209 -0.12401529 0.50239211
-0.088114299 -0.12143007 0.5010643
-0.12122837 -0.11890184 0.50961012
-0.11426018 -0.11708808 0.50914896
-0.10510894 -0.11488802 0.50832564
-0.094929695 -0.11516957 0.505391
-0.086310849 -0.11467011 0.50188899
-0.10464524 -0.1049886 0.50963497
-0.094569042 -0.10527828 0.50757742
-0.084885269 -0.10475155 0.5037418
-0.078693278 -0.10362683 0.50105244
-0.10247521 -0.096068069 0.50973099
-0.094873525 -0.095203765 0.50840884
-0.085214011 -0.094781145 0.50570709
-0.076574817 -0.094354846 0.50188851
-0.10113995 -0.088843949 0.50994635
-0.094064713 -0.085832842 0.50938201
-0.085466176 -0.084855698 0.50719053
-0.075171478 -0.084957816 0.50364888
-0.065966114 -0.083336219 0.50169337
-0.057950199 -0.080356479 0.50094295
-0.091167293 -0.078872569 0.50994694
-0.084385805 -0.075279161 0.50865835
-0.07482139 -0.075104311 0.50604916
-0.065197155 -0.074756235 0.50517279
-0.055647302 -0.074393019 0.50264746
-0.048545472 -0.071997799 0.50094336
-0.082779579 -0.066283762 0.50939643
-0.074983709 -0.064711027 0.50839406
-0.064963415 -0.064633153 0.50777459
-0.054542124 -0.065191872 0.50459892
-0.045756564 -0.064417318 0.50135744
-0.039053518 -0.061375141 0.50094408
-0.072749607 -0.057359245 0.5097819
-0.065082327 -0.054805811 0.50869805
-0.054841258 -0.055172134 0.50598264
-0.044848353 -0.054741547 0.50320387
-0.036619823 -0.054258794 0.5011735
-0.064004466 -0.045807533 0.50931925
-0.055040121 -0.044781227 0.50784153
-0.045005687 -0.044696212 0.50518954
-0.035982929 -0.044356719 0.50168198
-0.061248709 -0.038986396 0.50995046
-0.054476738 -0.035561781 0.50925779
-0.044948999 -0.035013404 0.50757003
-0.034985583 -0.035313029 0.50503743
-0.026099943 -0.033822965 0.50239974
-0.018044513 -0.030791055 0.500947
-0.051719274 -0.029236585 0.50995106
-0.044043168 -0.026179928 0.50925297
-0.03517494 -0.024919098 0.50780708
-0.025144489 -0.024815708 0.50574565
-0.016354972 -0.023956664 0.50217873
-0.040638603 -0.019043669 0.50995153
-0.033801511 -0.016461436 0.50932163
-0.025063638 -0.015106399 0.5075801
-0.015189789 -0.014863985 0.50356174
-0.0071178414 -0.013024287 0.50134885
-0.024031227 -0.0054042381 0.50901443
-0.015287779 -0.0050496375 0.50693321
-0.0053438498 -0.005017641 0.50362188
0.0014677962 -0.0037718148 0.50107443
-0.021572888 0.0017852579 0.50978631
-0.014591645 0.0046469425 0.508757
-0.0051011466 0.0046988269 0.50559306
0.0047302749 0.00518054 0.50207061
0.011454868 0.0071939393 0.50095022
-0.011315688 0.01399195 0.50980383
-0.0047217798 0.014798129 0.50781047
0.0051735472 0.014703629 0.50453031
0.014152362 0.015527459 0.50183231
0.020598574 0.018730918 0.50095111
-0.010848895 0.023094393 0.50975543
-0.004394724 0.024373626 0.50854582
0.0052784947 0.024760406 0.50653285
0.015035876 0.025217617 0.50434572
0.023777584 0.025915518 0.50147277
0.030612998 0.029614773 0.50095189
-0.001412211 0.030149126 0.50995559
0.0063929125 0.033225816 0.50917143
0.015122445 0.03528237 0.50724024
0.02486521 0.035035782 0.50368559
0.034281202 0.036040626 0.50184733
0.041062642 0.038104013 0.50095212
0.016313627 0.043790996 0.50928926
0.025164412 0.045040958 0.50713241
0.035407852 0.044927135 0.50420392
0.043229856 0.045377634 0.50148445
0.026369629 0.05362197 0.50864607
0.035305124 0.052121595 0.50445515
0.043673579 0.052615188 0.50170439
-0.22361894 -0.19379562 0.51912397
-0.21554974 -0.19299677 0.51597708
-0.2055005 -0.19307998 0.51269788
-0.19555387 -0.19320759 0.51168907
-0.18849353 -0.19259186 0.51093847
-0.22255658 -0.18666297 0.51959032
-0.21479075 -0.18494128 0.51751405
-0.20467475 -0.18499082 0.51432079
-0.1950691 -0.18526988 0.5127371
-0.18556418 -0.18470095 0.51155156
-0.17794617 -0.18160181 0.51093906
-0.21252209 -0.17740746 0.51947701
-0.2048458 -0.17501605 0.51769817
-0.19515172 -0.17536393 0.5148266
-0.18555678 -0.17516793 0.51356602
-0.17594248 -0.17462754 0.51209688
-0.16831271 -0.17299429 0.51093948
-0.20289758 -0.16788331 0.51934433
-0.19475505 -0.16543342 0.51739657
-0.18488096 -0.16478249 0.51451689
-0.17456312 -0.16532432 0.51259595
-0.16697745 -0.16463825 0.51115507
-0.1931933 -0.15569505 0.5190832
-0.18505676 -0.1549885 0.51674068
-0.17491187 -0.15514107 0.51376468
-0.16521648 -0.15480991 0.51155585
-0.15822756 -0.15149513 0.5109421
-0.19056761 -0.14955188 0.51994604
-0.18392697 -0.14535479 0.51856768
-0.17478634 -0.14503206 0.5141325
-0.16481833 -0.14513876 0.51155108
-0.15557274 -0.14479658 0.51118809
-0.14907913 -0.14208141 0.51094264
-0.18166266 -0.13816746 0.51919699
-0.17426962 -0.13549885 0.51755875
-0.16508409 -0.13507257 0.51630497
-0.15514402 -0.1350334 0.51381952
-0.14622721 -0.13402487 0.51146996
-0.1393089 -0.1309803 0.51094341
-0.16276816 -0.12655401 0.51961356
-0.15470316 -0.12491333 0.51735008
-0.14494126 -0.12527463 0.51373345
-0.13631034 -0.12373931 0.51154435
-0.12898362 -0.12065634 0.51094401
-0.16074078 -0.11769548 0.51994812
-0.15456957 -0.11515846 0.51842785
-0.1448871 -0.11498083 0.51649857
-0.13509108 -0.11526609 0.51517767
-0.12532404 -0.11438867 0.51273322
-0.11641021 -0.11286511 0.51117128
-0.15192835 -0.10888416 0.51994866
-0.14356247 -0.10777286 0.51942617
-0.13504075 -0.10504628 0.51825511
-0.1253065 -0.10516596 0.51430792
-0.11545128 -0.10511358 0.51148093
-0.10980826 -0.104338 0.51094472
-0.14040402 -0.091261141 0.51995039
-0.13436501 -0.094964579 0.51894897
-0.12458266 -0.095040143 0.51554048
-0.11503077 -0.094695501 0.51258153
-0.10734113 -0.094352938 0.51098186
-0.14040384 -0.088549793 0.51995087
-0.13468003 -0.08522252 0.51926547
-0.12507598 -0.084873818 0.51821768
-0.1150739 -0.084883556 0.51542044
-0.10515274 -0.084891692 0.51204354
-0.097649641 -0.082581118 0.51112354
-0.1322692 -0.079060607 0.51995158
-0.12419998 -0.076169632 0.51965117
-0.11531311 -0.075051621 0.51753509
-0.10540656 -0.074884072 0.51453847
-0.095198572 -0.074887581 0.51200366
-0.088681161 -0.0717002 0.51094794
-0.121152 -0.068487063 0.51995212
-0.11425878 -0.065880656 0.51882356
-0.10520899 -0.06492395 0.51603431
-0.094780974 -0.065317959 0.5127365
-0.086492047 -0.063507117 0.51113427
-0.10330436 -0.057105225 0.51847064
-0.094956554 -0.05491915 0.51607651
-0.085118935 -0.054653101 0.51355761
-0.076327026 -0.054198742 0.51155484
-0.095159665 -0.045054559 0.51862711
-0.085488848 -0.044807788 0.51578885
-0.07501559 -0.044991314 0.51260668
-0.067497365 -0.042295311 0.51111722
-0.093510516 -0.036472868 0.51940608
-0.08477205 -0.035037979 0.51797068
-0.074696243 -0.034703035 0.51555979
-0.065026179 -0.034990337 0.51237714
-0.058182694 -0.032674484 0.51105118
-0.082541831 -0.025865274 0.51959157
-0.075081609 -0.024753135 0.51824015
-0.065275133 -0.025289541 0.51547104
-0.055193964 -0.024800071 0.51261318
-0.046954338 -0.022197226 0.51115173
-0.081427664 -0.019414224 0.51995611
-0.074342437 -0.016697478 0.51979446
-0.06512972 -0.015171723 0.5182882
-0.054694429 -0.01533391 0.51511067
-0.044988632 -0.015058183 0.51309854
-0.036668871 -0.013215881 0.51174384
-0.063676171 -0.0058800159 0.5192675
-0.054736435 -0.0051561878 0.51752692
-0.045180175 -0.0051426324 0.51625794
-0.034885127 -0.0051138718 0.51323444
-0.028394325 -0.0030952487 0.51095289
-0.062130194 0.0044765701 0.51966625
-0.054771248 0.004967906 0.51785517
-0.045225147 0.0049549169 0.51679295
-0.034953412 0.0049308171 0.51427639
-0.025191495 0.0053381626 0.51146561
-0.018513067 0.0080058686 0.51095372
-0.060751691 0.011426024 0.51995909
-0.05431629 0.013969354 0.51905394
-0.045266442 0.015076304 0.5172435
-0.034953486 0.014989947 0.51431614
-0.024800953 0.014932784 0.51238412
-0.016292095 0.01529114 0.51122737
-0.044234212 0.024550904 0.51918799
-0.035040837 0.025099315 0.5168494
-0.024854718 0.025005184 0.51346749
-0.015590797 0.025277255 0.51134759
-0.0076764696 0.028343579 0.51095599
-0.033133902 0.03338876 0.51892269
-0.024900911 0.034664173 0.51609892
-0.014838094 0.035113469 0.51439542
-0.0048905639 0.03518917 0.51299387
0.0034036087 0.037265275 0.51145613
-0.023973899 0.044208042 0.51888156
-0.014921489 0.045421563 0.51729894
-0.0047917361 0.045284238 0.51571363
0.0052642557 0.045062374 0.51318949
0.012913001 0.046800461 0.51120675
-0.022429414 0.054804325 0.51943588
-0.015273239 0.053449754 0.5174762
-0.0046326704 0.053987782 0.51701009
0.005292159 0.054694213 0.51570898
0.015306236 0.055111255 0.51331508
0.021995539 0.055329803 0.51136905
0.0062896023 0.061886005 0.51591253
0.014424021 0.062185369 0.51448554
-0.26250869 -0.20068955 0.52969533
-0.25751102 -0.20002688 0.52794486
-0.26135495 -0.19550864 0.52987939
-0.25453696 -0.19491737 0.52772796
-0.2452348 -0.19469833 0.52506071
-0.23518465 -0.19427772 0.52232987
-0.22817636 -0.19364165 0.52094269
-0.2616438 -0.18696688 0.52994758
-0.25498465 -0.18485524 0.52867448
-0.24500164 -0.18492796 0.52636427
-0.23493253 -0.1850412 0.52396452
-0.22639221 -0.18388201 0.52155018
-0.21945992 -0.18107811 0.52094388
-0.25192583 -0.17776988 0.52949357
-0.24519089 -0.17482767 0.52779233
-0.23499581 -0.17497605 0.52559489
-0.22510611 -0.17491671 0.52413076
-0.21613115 -0.17431618 0.52183354
-0.20949857 -0.17066525 0.52094454
-0.24371243 -0.16537286 0.52891904
-0.23522152 -0.1650074 0.52619839
-0.22493279 -0.1647543 0.52451599
-0.21490003 -0.16544996 0.52306849
-0.20549263 -0.16397157 0.52150071
-0.19908448 -0.16138433 0.52094495
-0.24167252 -0.15887271 0.52995014
-0.23439132 -0.15615049 0.52854437
-0.22520177 -0.15505877 0.52542818
-0.21495025 -0.15525737 0.52319777
-0.20502409 -0.15497304 0.52223235
-0.19764705 -0.15348175 0.52109623
-0.23119348 -0.14609225 0.52995121
-0.22452052 -0.14525813 0.52749401
-0.21490209 -0.14479293 0.52496845
-0.20536496 -0.14478123 0.52364075
-0.19531886 -0.14522552 0.5221203
-0.18835615 -0.14290322 0.52108026
-0.22385354 -0.13617909 0.52936375
-0.21488646 -0.13460872 0.52763647
-0.20484225 -0.13505071 0.5257386
-0.19499454 -0.13488851 0.52415282
-0.18554235 -0.13442722 0.5219481
-0.17735012 -0.13160056 0.52094764
-0.21388741 -0.12822555 0.52986902
-0.20414682 -0.12669683 0.52903253
-0.1949884 -0.12489335 0.52713066
-0.18472624 -0.12544453 0.52390945
-0.174898 -0.12489776 0.52173424
-0.16678584 -0.12391858 0.52120578
-0.20113862 -0.11581095 0.529953
-0.19477034 -0.11503112 0.52808702
-0.18483794 -0.11483455 0.52509719
-0.17509638 -0.1150692 0.52317929
-0.16544266 -0.1149388 0.52167821
-0.15810649 -0.11090419 0.52094895
-0.19397315 -0.10770945 0.52942985
-0.18452846 -0.10558721 0.52759111
-0.17476098 -0.10522889 0.52541614
-0.16485131 -0.10492996 0.52391374
-0.15480182 -0.10501511 0.52180064
-0.14538345 -0.10334389 0.52094883
-0.18226911 -0.097175568 0.5295791
-0.17460525 -0.095036797 0.52791286
-0.16491324 -0.095056668 0.52521777
-0.1547683 -0.095139146 0.52266562
-0.14493677 -0.095005669 0.52107984
-0.1393161 -0.097548962 0.52094918
-0.1711991 -0.088408262 0.52995437
-0.16427472 -0.085813515 0.52895409
-0.15523303 -0.084967695 0.52597392
-0.14521085 -0.084664233 0.52197337
-0.13863587 -0.080570504 0.52095199
-0.16123821 -0.075570196 0.52995545
-0.15503985 -0.074822068 0.52813852
-0.14491569 -0.074896537 0.52433121
-0.13536449 -0.074798517 0.52197349
-0.12742414 -0.073388338 0.52101082
-0.1610651 -0.069525078 0.52995646
-0.1548797 -0.065738447 0.52923542
-0.14506017 -0.06501396 0.52701652
-0.13462929 -0.065190256 0.52434301
-0.12503725 -0.064630248 0.52213329
-0.11650946 -0.061519694 0.52141947
-0.15116186 -0.057665747 0.52995735
-0.14447054 -0.054842528 0.52932239
-0.13508318 -0.054896224 0.52795607
-0.12510258 -0.055270601 0.52607477
-0.1150405 -0.055101793 0.52393287
-0.10664843 -0.053633314 0.52164531
-0.14250894 -0.048405316 0.52995795
-0.13396333 -0.045906745 0.52979076
-0.12469536 -0.045182619 0.5280636
-0.11440748 -0.044930752 0.52508032
-0.10497773 -0.045386434 0.52243048
-0.099922657 -0.045257676 0.52095371
-0.12408475 -0.035926703 0.52932954
-0.11464808 -0.034730975 0.52618176
-0.10476797 -0.035007145 0.52322525
-0.096688166 -0.033312872 0.521263
-0.12122216 -0.027154138 0.5299592
-0.11519372 -0.0252512 0.5286935
-0.10505018 -0.02513257 0.52622306
-0.094988592 -0.025009466 0.5236913
-0.086860232 -0.024046425 0.52136332
-0.11423189 -0.016003193 0.52916539
-0.10528784 -0.014874731 0.5274238
-0.095377766 -0.014831387 0.52585131
-0.08555451 -0.014745609 0.52284193
-0.077140182 -0.013038915 0.52101225
-0.1113185 -0.0087315207 0.52996129
-0.10450301 -0.0049799504 0.52949458
-0.09469901 -0.0046232701 0.52804011
-0.084509924 -0.0047634682 0.52580202
-0.074589573 -0.0052596824 0.52243143
-0.067774013 -0.0029266651 0.52095741
-0.10072448 0.0014005919 0.52996182
-0.093952253 0.0043741069 0.52952564
-0.084594414 0.0050570485 0.52700144
-0.074529462 0.0050259316 0.52385747
-0.066863269 0.0054886998 0.52119863
-0.090867363 0.012269681 0.5299626
-0.084820524 0.014715138 0.52841127
-0.074664742 0.014614736 0.52481836
-0.064874955 0.01501954 0.52172607
-0.05684172 0.018675759 0.52095985
-0.08356443 0.023266716 0.52951539
-0.07508295 0.025022266 0.52776659
-0.06524504 0.025071405 0.52509147
-0.055284917 0.025459593 0.52271593
-0.04803811 0.027365495 0.52102697
-0.073192403 0.034384266 0.5297035
-0.06542404 0.035322584 0.52755547
-0.055214033 0.035314143 0.52505863
-0.044825602 0.034874879 0.52313101
-0.036579177 0.036613051 0.52191514
-0.071244776 0.041008703 0.52996528
-0.064482227 0.043777246 0.52953655
-0.054579765 0.044638932 0.52858895
-0.044739056 0.044898048 0.52694255
-0.034925368 0.04464335 0.52396184
-0.02794873 0.04671089 0.52133644
-0.052062128 0.053443171 0.52996528
-0.044833053 0.054628901 0.52804631
-0.034853075 0.05465848 0.52529055
-0.027261319 0.055228781 0.52202946
-0.042574957 0.061565761 0.52960199
-0.035683692 0.064234227 0.5283311
-0.02879901 0.061091401 0.52446395
-0.03600847 0.070023075 0.52996635
-0.30151877 -0.20208159 0.53894949
-0.29462066 -0.20190845 0.53661549
-0.28514981 -0.20176099 0.53516203
-0.27521935 -0.20143303 0.53363889
-0.2683515 -0.20110011 0.5316959
-0.30088285 -0.19884622 0.53969997
-0.29401061 -0.19575903 0.53842193
-0.28504872 -0.19515423 0.53594893
-0.27528307 -0.19507675 0.53390843
-0.26636538 -0.19481789 0.53151345
-0.29110444 -0.18732615 0.53961748
-0.28457019 -0.18513148 0.53783935
-0.27481219 -0.18487367 0.53512323
-0.26620933 -0.18406042 0.53240573
-0.25920352 -0.18085952 0.53094834
-0.28305766 -0.17762281 0.53970158
-0.27464411 -0.17606179 0.53861052
-0.2650359 -0.17518196 0.53688997
-0.25607404 -0.17447929 0.53310531
-0.27110413 -0.16937678 0.53995168
-0.26500711 -0.16501078 0.53892732
-0.25522223 -0.16507445 0.53471816
-0.24851584 -0.16384827 0.53153342
-0.26385802 -0.15522453 0.53928661
-0.25481772 -0.15497586 0.53628558
-0.24536787 -0.15504171 0.5332467
-0.23799621 -0.15238038 0.53202778
-0.26318625 -0.14598048 0.53943628
-0.25485152 -0.14501743 0.53736705
-0.24509059 -0.14504881 0.53557116
-0.23562969 -0.14444017 0.53235829
-0.26124755 -0.13981329 0.53995568
-0.25397438 -0.13808529 0.53962177
-0.24533433 -0.13507372 0.537907
-0.23525845 -0.13491137 0.534141
-0.22685809 -0.13282004 0.53132796
-0.24477392 -0.12513947 0.53860068
-0.23457384 -0.12497313 0.53559166
-0.22497095 -0.12465882 0.53328109
-0.21553884 -0.12358408 0.53228658
-0.20683186 -0.12267621 0.53126496
-0.24408114 -0.11639942 0.53864348
-0.23517816 -0.11477908 0.53657937
-0.22543085 -0.11484827 0.53513962
-0.21535391 -0.11484028 0.53457475
-0.2061585 -0.11488494 0.53246593
-0.23278074 -0.10771566 0.53902459
-0.2244897 -0.10524321 0.53739226
-0.21492149 -0.10487311 0.53537637
-0.20482747 -0.10500214 0.53401768
-0.19554703 -0.10327707 0.53256744
-0.18871522 -0.10063449 0.53128749
-0.22147414 -0.098637253 0.53995824
-0.21391591 -0.095498785 0.53888476
-0.20504764 -0.095233604 0.53741854
-0.19528209 -0.094975203 0.53551835
-0.18591604 -0.094169661 0.53211123
-0.17832863 -0.090766497 0.53095472
-0.21159343 -0.085223682 0.53984177
-0.20499194 -0.084592678 0.53856343
-0.19505437 -0.08498881 0.53659904
-0.18503673 -0.084875919 0.53473008
-0.17532229 -0.084926292 0.53233033
-0.16838713 -0.082160808 0.53125507
-0.21056233 -0.078576595 0.53996044
-0.20410344 -0.075738959 0.53967822
-0.1950838 -0.074789323 0.53803086
-0.18509236 -0.074712567 0.5358994
-0.17504302 -0.074718639 0.53393823
-0.16628611 -0.07528422 0.53187704
-0.20117629 -0.068957128 0.53996104
-0.1947154 -0.065272704 0.53875595
-0.18517965 -0.06490732 0.53627902
-0.17515308 -0.064604931 0.53499961
-0.16514815 -0.064636357 0.53262448
-0.15888031 -0.062061269 0.53112417
-0.19268057 -0.055981785 0.53956228
-0.18506907 -0.054997548 0.53812081
-0.17536375 -0.055109531 0.53619462
-0.1651935 -0.05477339 0.53436774
-0.15547489 -0.054365154 0.5319351
-0.14890862 -0.050276112 0.53095835
-0.19085109 -0.049717657 0.53996319
-0.1839506 -0.048830505 0.5397318
-0.17433742 -0.046132486 0.53901333
-0.16485064 -0.045110997 0.53721631
-0.15495266 -0.045111414 0.53471559
-0.14528696 -0.044284973 0.53203213
-0.13688174 -0.041882802 0.53110129
-0.17170413 -0.038737923 0.53996295
-0.16539294 -0.035064843 0.53914803
-0.15471137 -0.035423119 0.53667581
-0.14476447 -0.03510797 0.5347383
-0.13519324 -0.035329353 0.5325247
-0.12771697 -0.032594349 0.5312447
-0.16284086 -0.02772326 0.53973305
-0.15488866 -0.025496507 0.53866339
-0.14491037 -0.024927596 0.53665864
-0.13479109 -0.025115332 0.53473479
-0.12547761 -0.025101783 0.5320434
-0.15227486 -0.014992099 0.5399093
-0.14510041 -0.01462098 0.53802788
-0.13485508 -0.014745753 0.53627062
-0.12506387 -0.014847044 0.53417325
-0.11773486 -0.012593692 0.53157669
-0.15002187 -0.008189735 0.53996575
-0.14434251 -0.0063974271 0.53958076
-0.13484564 -0.0048335837 0.53886044
-0.12506033 -0.0048314123 0.53714126
-0.11508314 -0.0043323473 0.53300691
-0.10792874 -0.001272701 0.53096217
-0.13078101 0.0026022831 0.53996545
-0.12471189 0.0049961288 0.53856504
-0.11510614 0.0050521949 0.53510982
-0.10515411 0.0053558298 0.53250647
-0.097739667 0.0078683337 0.53126252
-0.12175195 0.012211493 0.53946608
-0.11478221 0.014913124 0.53781927
-0.10534219 0.014817289 0.53513134
-0.095567778 0.015102333 0.53212267
-0.11216327 0.023389995 0.53957802
-0.10500901 0.024762511 0.53712904
-0.095327646 0.024606826 0.53373611
-0.087383278 0.026162451 0.53146452
-0.1106005 0.031930465 0.53996819
-0.10443368 0.034241859 0.53864294
-0.094776049 0.034456618 0.53628677
-0.085014924 0.034383398 0.53378391
-0.077557564 0.036558736 0.53169596
-0.10074526 0.040376723 0.53996849
-0.09369313 0.043396141 0.53909719
-0.084644981 0.044895116 0.53622228
-0.074937649 0.045645125 0.5326643
-0.066182114 0.048018474 0.53108358
-0.057535153 0.049391329 0.53096515
-0.091241822 0.051286682 0.53996933
-0.084845573 0.054989591 0.53845859
-0.074707821 0.055344723 0.53494769
-0.064646982 0.055092763 0.53251797
-0.056201022 0.055714708 0.53143483
-0.083510682 0.064195052 0.53945214
-0.075082228 0.065271802 0.53701156
-0.064987965 0.064821102 0.53483826
-0.054973502 0.064866923 0.53441429
-0.045924999 0.065681018 0.53275609
-0.039537359 0.068771087 0.53096646
-0.081033893 0.071347386 0.53997159
-0.07765469 0.072197042 0.53930473
-0.044344887 0.071221262 0.53424019
-0.038882274 0.070914298 0.53146678
-0.30255714 -0.19360629 0.54289222
-0.29822153 -0.19289638 0.54131436
-0.30329603 -0.18466957 0.54548842
-0.29561782 -0.18468024 0.54226607
-0.28947222 -0.18144278 0.54095167
-0.3034603 -0.17451684 0.54698485
-0.29484692 -0.17512724 0.54433113
-0.2852523 -0.17358556 0.54181749
-0.27737635 -0.17117886 0.54120207
-0.30364001 -0.16625202 0.54899591
-0.29503962 -0.16516416 0.54710728
-0.28522068 -0.16498412 0.54404932
-0.27505931 -0.16461277 0.54155725
-0.29355446 -0.15580003 0.54845661
-0.28486139 -0.1548306 0.54493016
-0.27477482 -0.15497212 0.54210043
-0.26878437 -0.15488115 0.54095387
-0.29193276 -0.14550091 0.54975808
-0.28512788 -0.14515524 0.54684377
-0.27485374 -0.14507054 0.54335159
-0.26733142 -0.14343849 0.5411557
-0.29046109 -0.13809893 0.54995924
-0.28448665 -0.13501546 0.54814827
-0.27517289 -0.13507061 0.54504502
-0.26505649 -0.13506232 0.54275686
-0.25596419 -0.13338968 0.54159254
-0.28289032 -0.12773754 0.54968739
-0.27471283 -0.12545964 0.54807591
-0.26513582 -0.12520964 0.54547948
-0.25488144 -0.1251286 0.54205745
-0.27265146 -0.11737415 0.54971081
-0.26472002 -0.11500883 0.54727733
-0.2551381 -0.11465386 0.54367042
-0.24657358 -0.11202625 0.54174453
-0.26219577 -0.10629795 0.54962814
-0.25489333 -0.10504542 0.54809433
-0.24517006 -0.10493451 0.54595989
-0.23604798 -0.10385199 0.54309237
-0.22824557 -0.10118387 0.54115856
-0.25381091 -0.097137623 0.54978031
-0.24495628 -0.095160663 0.54886848
-0.2348568 -0.094816692 0.54561943
-0.22526675 -0.094872877 0.54224139
-0.2183637 -0.09229596 0.5410701
-0.24254425 -0.086056963 0.54969609
-0.23541471 -0.084886581 0.5473907
-0.22551809 -0.085041024 0.54419029
-0.21678895 -0.085241772 0.54144269
-0.24051023 -0.07692302 0.54996413
-0.23475394 -0.074504584 0.54791129
-0.22491823 -0.074965894 0.54506278
-0.21524288 -0.075058624 0.54222983
-0.20816973 -0.072388478 0.54106128
-0.23322946 -0.067289375 0.54936498
-0.2247127 -0.065247349 0.54818392
-0.2148252 -0.065111883 0.54542154
-0.20552436 -0.065045029 0.54231942
-0.19910367 -0.062220901 0.54096192
-0.22019571 -0.05923973 0.54996485
-0.21333219 -0.055736385 0.5486185
-0.20452134 -0.054777235 0.54460835
-0.1972616 -0.054772515 0.54124081
-0.21111362 -0.046016708 0.5499661
-0.20492031 -0.044703778 0.5480144
-0.19504593 -0.04508277 0.5441277
-0.18533823 -0.043598305 0.54226357
-0.17827016 -0.042618398 0.5411852
-0.20241791 -0.037117548 0.54971665
-0.19476844 -0.034933172 0.54807729
-0.18480742 -0.034545723 0.54496515
-0.1754863 -0.034474239 0.54167837
-0.19358721 -0.025331009 0.5491057
-0.18506768 -0.024489831 0.54672241
-0.17480324 -0.024715358 0.54344404
-0.16540681 -0.023243215 0.54152358
-0.15829282 -0.020663088 0.54096448
-0.191356 -0.016543664 0.54996896
-0.18471439 -0.0150151 0.54848015
-0.17523324 -0.014685744 0.54613417
-0.16504727 -0.014604685 0.54306829
-0.15677997 -0.013960874 0.54123467
-0.18235074 -0.0070209359 0.54971957
-0.17468195 -0.0049329852 0.54778296
-0.16497122 -0.0048063798 0.54478192
-0.15515152 -0.0045371493 0.54249883
-0.14563085 -0.0018591579 0.54154527
-0.13831058 -0.00044831808 0.54096568
-0.17340031 0.005125693 0.54897064
-0.16490383 0.0053450316 0.54701144
-0.15502459 0.0053390269 0.5459469
-0.14521348 0.005043007 0.54407609
-0.13556732 0.005567532 0.5419898
-0.12867209 0.0089538777 0.54096627
-0.17229633 0.011911253 0.54984671
-0.16434745 0.014389961 0.54885691
-0.15478477 0.015232136 0.54684782
-0.14464055 0.015346766 0.54554355
-0.13505477 0.014992068 0.54399079
-0.1259401 0.015829867 0.54227483
-0.11926866 0.018591156 0.54096687
-0.16140133 0.02105408 0.549972
-0.15470864 0.023022881 0.54901159
-0.14473571 0.024662688 0.54813749
-0.13469391 0.025188889 0.54631674
-0.1248747 0.025073716 0.54387331
-0.11670008 0.025838492 0.54170972
-0.14184751 0.035000626 0.54997218
-0.13499177 0.035234589 0.54752254
-0.12508652 0.03506032 0.54480374
-0.11562151 0.035090145 0.54240412
-0.10801295 0.038245913 0.54111183
-0.14247748 0.045256704 0.54980737
-0.13524497 0.045315329 0.54856509
-0.12491216 0.045199782 0.54715586
-0.11472868 0.045196667 0.54488391
-0.10518444 0.044721931 0.54256076
-0.097554833 0.046675354 0.54135811
-0.14132506 0.051164385 0.54997492
-0.13594794 0.051761497 0.54997438
-0.12406406 0.054587908 0.54952192
-0.11496117 0.055198595 0.54731953
-0.10485448 0.05512752 0.54472709
-0.095518716 0.054748319 0.54187518
-0.089647315 0.058081068 0.54097027
-0.13226455 0.067293696 0.54970402
-0.12497018 0.065454252 0.54808193
-0.11481168 0.06509982 0.54662734
-0.10466184 0.064993091 0.54570776
-0.094953269 0.064679801 0.54306728
-0.088039733 0.065709732 0.54112935
-0.13190047 0.072966978 0.54912049
-0.12491319 0.072104648 0.54622674
-0.11290784 0.072045363 0.54524201
-0.10355105 0.073960409 0.54616821
-0.094732009 0.074924938 0.54570705
-0.085767798 0.074205413 0.54294634
-0.093460061 0.082407139 0.54797488
-0.088738643 0.08130461 0.54697418
-0.30593202 -0.1621604 0.5518235
-0.30491599 -0.15503356 0.55400562
-0.29791272 -0.15304475 0.5516848
-0.31013152 -0.14348568 0.55696052
-0.30512425 -0.14541788 0.55514383
-0.29674953 -0.14459811 0.55206978
-0.3102901 -0.13556658 0.55724764
-0.30483025 -0.13498637 0.55566412
-0.29549325 -0.13484891 0.55262703
-0.28907344 -0.13164647 0.55096012
-0.31087628 -0.12592418 0.55867791
-0.30479437 -0.12557152 0.55789167
-0.29488748 -0.1251267 0.55534834
-0.28585619 -0.12393696 0.55241275
-0.27901736 -0.12159169 0.55096078
-0.293782 -0.1156339 0.5587135
-0.28455624 -0.11510132 0.5548197
-0.27594075 -0.11373582 0.55228442
-0.26944008 -0.11105801 0.55096149
-0.29325333 -0.10513375 0.55893195
-0.28443903 -0.10490146 0.55641663
-0.27479073 -0.10456191 0.55443943
-0.26658961 -0.10450693 0.55177712
-0.29394126 -0.095490336 0.55908126
-0.28493717 -0.094911896 0.5573945
-0.27545124 -0.094649337 0.55584592
-0.26536411 -0.095355071 0.55293989
-0.25616342 -0.09317147 0.55120313
-0.2493279 -0.09094841 0.55096269
-0.29184565 -0.089024693 0.55996782
-0.28476954 -0.085217088 0.5587244
-0.27527198 -0.084577613 0.55632395
-0.26502824 -0.084933117 0.5541001
-0.25497207 -0.085378923 0.55254209
-0.24701069 -0.084780864 0.55146348
-0.2826274 -0.07715676 0.55961168
-0.27497968 -0.07476183 0.55861115
-0.26513103 -0.074602626 0.55720633
-0.25516993 -0.075198911 0.55542612
-0.24556541 -0.075041421 0.55254823
-0.27208623 -0.068489239 0.55996913
-0.26413429 -0.067027517 0.55951399
-0.25468165 -0.064851545 0.55789292
-0.24465434 -0.065323785 0.55388969
-0.23602353 -0.063846156 0.55170649
-0.22749133 -0.061070763 0.55096537
-0.25359541 -0.054722954 0.5587908
-0.24501574 -0.055521615 0.55584925
-0.23490596 -0.055246726 0.5540089
-0.22507222 -0.055200286 0.55263287
-0.21789622 -0.053553585 0.55140311
-0.25234571 -0.047009386 0.55925626
-0.24470901 -0.045835789 0.55801874
-0.23498963 -0.045478728 0.55585271
-0.2251287 -0.045170188 0.55327743
-0.21605726 -0.044568311 0.5514406
-0.24197397 -0.038215771 0.55972087
-0.23457085 -0.035965785 0.5584982
-0.22508359 -0.035303328 0.55594629
-0.2152447 -0.035185095 0.55352658
-0.20612571 -0.033915192 0.55170298
-0.23087113 -0.027362827 0.55997151
-0.22446083 -0.025311435 0.55850613
-0.21442364 -0.024956668 0.55521405
-0.20473684 -0.025038481 0.55243421
-0.198218 -0.023663482 0.55112231
-0.22338484 -0.016320555 0.5592525
-0.21501204 -0.014974611 0.55697191
-0.20516501 -0.01480058 0.55422664
-0.19589037 -0.014333928 0.55180764
-0.18899012 -0.010508698 0.55096972
-0.22127599 -0.0092182774 0.55997354
-0.21486415 -0.0050551649 0.55857891
-0.20499437 -0.004956333 0.55590868
-0.19484611 -0.0046192845 0.55397135
-0.18587127 -0.0038696032 0.55197048
-0.17893407 -0.00045389397 0.55097032
-0.21235007 0.0038277453 0.55953735
-0.20519529 0.0053639864 0.5579266
-0.19500563 0.0053406889 0.55583024
-0.18474419 0.0053146863 0.55330515
-0.17829564 0.0056248722 0.55104822
-0.20320089 0.013202562 0.55929112
-0.19481307 0.015432516 0.55760902
-0.18507676 0.015630515 0.55499649
-0.17541184 0.0160385 0.552499
-0.16737595 0.018771505 0.55134732
-0.19289507 0.024544491 0.55965799
-0.1849646 0.024900431 0.55792135
-0.17500703 0.025176995 0.55569226
-0.16515467 0.025569376 0.55304295
-0.15546571 0.028187763 0.55192494
-0.14767066 0.029146638 0.5511719
-0.19134441 0.030198617 0.55997694
-0.18382007 0.032421067 0.55947644
-0.17490804 0.034160305 0.55859119
-0.16523728 0.035287473 0.5569492
-0.15486026 0.035140213 0.5540452
-0.14647076 0.0356456 0.55174702
-0.17100856 0.041876968 0.5599767
-0.16463354 0.044679612 0.55850023
-0.15498826 0.044702947 0.55464208
-0.14700806 0.045485284 0.55140942
-0.16390221 0.053595003 0.55923724
-0.15533921 0.054678939 0.55650091
-0.14507705 0.055350032 0.55254745
-0.13436718 0.056772936 0.55100209
-0.1274377 0.057002507 0.55097431
-0.15469244 0.064993203 0.5579074
-0.14487585 0.064559981 0.5538823
-0.13578339 0.064564086 0.55134326
-0.12865293 0.061312065 0.5509752
-0.15401715 0.074703574 0.55859154
-0.14495589 0.074873462 0.55564606
-0.13711379 0.074609637 0.55241853
-0.1517223 0.08243347 0.55978143
-0.14569482 0.083898522 0.55754769
-0.13886607 0.080495231 0.55447972
-0.31190357 -0.1212223 0.56146461
-0.30678067 -0.12085699 0.56146413
-0.31269267 -0.115116 0.5652349
-0.30504307 -0.11519586 0.56386483
-0.29867816 -0.11377075 0.56171429
-0.31350049 -0.10541721 0.56700325
-0.30542472 -0.10492926 0.56436664
-0.29887468 -0.10570695 0.5614658
-0.31312543 -0.09495724 0.56632632
-0.30515003 -0.094645552 0.56370348
-0.29879373 -0.09412843 0.5613963
-0.31376669 -0.084608741 0.56793773
-0.304878 -0.084792458 0.56572002
-0.2956481 -0.085005604 0.56319118
-0.28929707 -0.082455538 0.56163532
-0.31282917 -0.078351259 0.56982917
-0.30499384 -0.075147644 0.56852728
-0.29529941 -0.075163871 0.5649429
-0.28654173 -0.074041411 0.56207693
-0.27871501 -0.070658714 0.56096953
-0.30264384 -0.065424308 0.56953561
-0.29477358 -0.06538593 0.56694782
-0.28477833 -0.065186307 0.56428814
-0.27545825 -0.064513855 0.56281221
-0.26608333 -0.062672831 0.5623607
-0.25970113 -0.061884552 0.56096888
-0.30101782 -0.059902683 0.56997389
-0.294213 -0.057791796 0.56940222
-0.28470173 -0.055918287 0.56847268
-0.27518311 -0.055380281 0.567186
-0.26487207 -0.054882221 0.5641849
-0.25823811 -0.05457183 0.56097001
-0.28021276 -0.049501825 0.56997335
-0.27431217 -0.04541862 0.56926358
-0.26497513 -0.044743273 0.56574738
-0.25593126 -0.043282293 0.56270248
-0.24906339 -0.040732123 0.56172132
-0.2720685 -0.036946055 0.56986344
-0.2655862 -0.034573562 0.56887901
-0.25565013 -0.034634218 0.56624806
-0.24569541 -0.034577951 0.56271398
-0.23846108 -0.032175343 0.56147164
-0.2652829 -0.025136214 0.56922579
-0.25496295 -0.024994839 0.56669563
-0.24454309 -0.025635563 0.56426889
-0.23524991 -0.024809949 0.56206071
-0.26359951 -0.016409365 0.56954241
-0.25494337 -0.015299355 0.56806153
-0.24488345 -0.015200005 0.56683564
-0.23509151 -0.01521016 0.5645839
-0.22742276 -0.013454247 0.5621736
-0.25420478 -0.0093807671 0.56997734
-0.24306996 -0.0060362304 0.56982666
-0.23509265 -0.0049028192 0.56756562
-0.22515179 -0.0045177527 0.56331688
-0.21894045 -0.0011911986 0.56147474
-0.24310683 0.0052060555 0.56961489
-0.23507288 0.0054489365 0.56683481
-0.22498812 0.0054183174 0.56378603
-0.21679658 0.0063582761 0.56189895
-0.24058151 0.011918075 0.56997937
-0.23421159 0.014701032 0.56847912
-0.22514558 0.015048608 0.56573492
-0.21519272 0.014898312 0.56376642
-0.20662062 0.016473172 0.56203198
-0.23191248 0.020338338 0.56997991
-0.22410427 0.024020031 0.56913584
-0.21506427 0.024644194 0.56723446
-0.20473653 0.024459301 0.56379145
-0.19742443 0.025893275 0.56154835
-0.22126193 0.031235188 0.56998056
-0.21469422 0.034554396 0.56886929
-0.20514865 0.035154659 0.56647938
-0.19510601 0.035058208 0.56358796
-0.18592346 0.036935896 0.56197751
-0.17779119 0.039027065 0.56097698
-0.21147829 0.041512907 0.56998128
-0.2039105 0.043751355 0.5694589
-0.1952347 0.045364063 0.56702763
-0.18508153 0.045275684 0.56384248
-0.17561363 0.045296144 0.56207782
-0.20194219 0.053524349 0.56998223
-0.19522576 0.055204108 0.56779748
-0.18476328 0.054637611 0.56508046
-0.1748191 0.055255849 0.56346714
-0.16740321 0.057669979 0.56211227
-0.19373713 0.06301 0.56952447
-0.18520114 0.064694487 0.56800598
-0.17533447 0.065239489 0.56617641
-0.16477062 0.065362088 0.56295502
-0.19166249 0.074699566 0.56998473
-0.18532522 0.075108156 0.56838876
-0.17498137 0.074802697 0.56608486
-0.16476922 0.074916102 0.563429
-0.15774919 0.078549981 0.56123155
-0.18378484 0.082727931 0.56930095
-0.17470515 0.084491573 0.56816089
-0.16506134 0.085133485 0.56629294
-0.15613316 0.085288554 0.56301475
-0.1714267 0.091366544 0.56998527
-0.16438325 0.094300069 0.56851619
-0.15649173 0.092836529 0.56505042
-0.16429308 0.10206548 0.56998628
-0.31540143 -0.073914602 0.57197303
-0.30849352 -0.070923954 0.57097286
-0.32062539 -0.065016799 0.57583237
-0.31496707 -0.06461592 0.57436937
-0.30707946 -0.063944153 0.57157385
-0.32155001 -0.054436103 0.57874632
-0.31488398 -0.054496609 0.57652915
-0.30496979 -0.054928634 0.57348937
-0.29573041 -0.05329863 0.57167447
-0.28715521 -0.051324967 0.57097381
-0.32192278 -0.047091451 0.57997847
-0.31496367 -0.045029856 0.57803512
-0.30477422 -0.045487791 0.5756672
-0.29496205 -0.045364968 0.57409465
-0.28511477 -0.045104798 0.57216978
-0.27828488 -0.042331703 0.57097429
-0.31226915 -0.038909741 0.57983589
-0.30395007 -0.036549214 0.57861829
-0.29470307 -0.035045467 0.57607752
-0.28499874 -0.034837205 0.57385147
-0.27624851 -0.034336731 0.57150877
-0.30024827 -0.028443635 0.57997918
-0.29494348 -0.024596497 0.57846498
-0.2850765 -0.025062485 0.575086
-0.27470672 -0.024894275 0.5719769
