# .PCD v0.7 - Point Cloud Data file format
VERSION 0.7
FIELDS x y z
SIZE 4 4 4
TYPE F F F
COUNT 1 1 1
WIDTH 1355
HEIGHT 1
VIEWPOINT 0 0 0 1 0 0 0
POINTS 1355
DATA ascii
0.1055587 -0.025932943 0.46864378
0.11495247 -0.02519135 0.46628505
0.12499274 -0.025029736 0.46351096
0.1335375 -0.024901921 0.46156186
0.10890888 -0.019928083 0.46998909
0.11650605 -0.016673874 0.46952814
0.12496536 -0.014941901 0.46617404
0.13346983 -0.014943874 0.46213055
0.11732276 -0.0050595547 0.46982339
0.12487033 -0.0045903143 0.46783775
0.13398921 -0.0050977622 0.46412003
0.12690024 0.0029980021 0.46920511
0.13223547 0.0046509895 0.46799126
0.13198905 0.014991339 0.46999156
0.13035594 0.021730753 0.46999168
0.15976742 0.061550848 0.46999472
0.16283087 0.063388541 0.46999496
0.18795134 0.07808999 0.4699969
0.19672076 0.079625718 0.4646641
0.20298146 0.078996703 0.46099776
0.18908703 0.082135901 0.46977487
0.19522336 0.084944069 0.46764907
0.20404594 0.085433476 0.46451527
0.21085532 0.087903537 0.46466517
0.19790946 0.09330254 0.4696067
0.20465103 0.095078938 0.46745551
0.21067172 0.093092665 0.46537367
0.20350218 0.10292604 0.46954855
-0.071284026 -0.18259847 0.47997332
-0.065181322 -0.18160647 0.47955707
-0.055319123 -0.18110639 0.47714096
-0.044640772 -0.18068261 0.47384992
-0.063749202 -0.17824538 0.47997388
-0.054304745 -0.17565572 0.47871134
-0.044896483 -0.17518339 0.4751201
-0.034737363 -0.17497051 0.47216126
-0.027562667 -0.17314912 0.47111899
-0.05199004 -0.16705672 0.47983211
-0.044899754 -0.1651399 0.4771468
-0.034873739 -0.16482441 0.47403321
-0.026679954 -0.16507742 0.47197643
-0.043299522 -0.15544581 0.47857103
-0.034781892 -0.15490997 0.47576419
-0.02635652 -0.15472382 0.47311962
-0.042196732 -0.14787596 0.47937623
-0.034675773 -0.14570586 0.47825533
-0.024925018 -0.1449604 0.47497725
-0.018198185 -0.14248873 0.47181106
-0.031235352 -0.13880362 0.4799771
-0.024608037 -0.13555378 0.47802603
-0.017515909 -0.13494398 0.47500664
-0.022499898 -0.12533151 0.47904256
-0.017538743 -0.12534526 0.4754611
-0.021687491 -0.11674996 0.47917837
-0.017667573 -0.11463259 0.47600901
-0.020803742 -0.1035571 0.47997889
-0.017670378 -0.10511783 0.47677204
0.036071051 -0.10254163 0.47098213
-0.020803325 -0.099177241 0.47997904
0.036048643 -0.094223462 0.47135743
0.040983785 -0.091797724 0.47098279
0.029545382 -0.080597349 0.47131586
0.03564392 -0.084843613 0.47195241
0.043713059 -0.083365783 0.47106433
0.051422276 -0.080133416 0.47098377
0.027358109 -0.07420519 0.47394264
0.034714121 -0.075115137 0.47534406
0.045114499 -0.074722603 0.47266006
0.054370496 -0.074032389 0.47139588
0.061860528 -0.071012668 0.47098467
0.02512132 -0.064633913 0.47694635
0.034935821 -0.064923987 0.47870383
0.044776097 -0.065177992 0.47534865
0.055201724 -0.064981595 0.47325715
0.064451732 -0.064305447 0.4716517
0.071275555 -0.061307099 0.47098553
0.021415923 -0.056706704 0.47898281
0.035997272 -0.056855612 0.47946748
0.045100007 -0.055299036 0.47808102
0.054854114 -0.055124976 0.47554338
0.065214917 -0.055202581 0.47306359
0.073164649 -0.05494041 0.47129521
0.048743431 -0.044748373 0.47998485
0.054994844 -0.044963527 0.47817352
0.064968243 -0.044879757 0.47531915
0.074039549 -0.044525713 0.47224554
0.082211867 -0.041193523 0.47098681
0.049280331 -0.038491476 0.47998506
0.055407666 -0.036465898 0.4796856
0.064490944 -0.036410503 0.47893721
0.075505883 -0.035504535 0.47679546
0.084640823 -0.035143275 0.4728696
0.092520207 -0.033964768 0.47118115
0.068887144 -0.02076531 0.47998679
0.075512156 -0.024093965 0.47848701
0.08492288 -0.024961771 0.47444081
0.094780803 -0.024720853 0.4721663
0.10177512 -0.021767665 0.47126132
0.06878332 -0.01586402 0.479987
0.074833713 -0.014694366 0.47934681
0.08498653 -0.014613996 0.47673798
0.095115259 -0.014548505 0.47453535
0.10503257 -0.014992442 0.47275934
0.11340825 -0.013145125 0.47142199
0.077564642 -0.0082105184 0.47998771
0.085265718 -0.0060693501 0.4790549
0.095044181 -0.0046759364 0.47729439
0.10512681 -0.0047018006 0.47468165
0.11282063 -0.0042233267 0.47179469
0.095787868 0.004723174 0.47950917
0.10493089 0.0052718823 0.47698963
0.11502468 0.0051020011 0.47399041
0.12365618 0.0066119279 0.471968
0.13063212 0.0094977077 0.47099131
0.098176479 0.012704699 0.47990623
0.10509387 0.015062966 0.47838706
0.11505069 0.015330921 0.47615463
0.12418615 0.014946265 0.47304121
0.13172393 0.012772075 0.47099146
0.10643382 0.023388326 0.47962371
0.11522921 0.025093209 0.47791967
0.12443678 0.024438892 0.47400901
0.11739117 0.033865761 0.47941995
0.12497522 0.035199232 0.47727358
0.13184258 0.034744397 0.47556359
0.11936577 0.040965147 0.47999173
0.12614094 0.043944921 0.47918737
0.13188899 0.045363046 0.47810799
0.11936756 0.059736006 0.47999236
0.12482814 0.059394196 0.47999266
0.13632131 0.054735363 0.47976819
0.14209725 0.057702381 0.47936854
0.15622056 0.059382539 0.47224444
0.11670162 0.062776119 0.47932565
0.12477311 0.062123612 0.47911772
0.13620201 0.0639017 0.47978756
0.14506526 0.065105215 0.47809124
0.15475854 0.064728826 0.47393662
0.16445814 0.067397028 0.47182846
0.17184195 0.068707071 0.47287065
0.14660864 0.073526196 0.47746658
0.15514664 0.075031988 0.47725582
0.16495211 0.075030126 0.47497934
0.17453727 0.076130502 0.47344241
0.18306993 0.078138754 0.47163299
0.15678231 0.083790749 0.47874528
0.16516884 0.085079201 0.47747329
0.17492928 0.08495307 0.47493485
0.18468364 0.085504487 0.47230464
0.19121741 0.088897884 0.47099742
0.15922856 0.091980658 0.47849575
0.16537501 0.094814762 0.47913185
0.17510858 0.09509863 0.47824311
0.1852103 0.09523458 0.47533053
0.19358189 0.095593855 0.47207612
0.16833252 0.10380411 0.47972998
0.17521003 0.10538663 0.47930166
0.18532632 0.10485752 0.47659224
0.19516686 0.10499568 0.47298393
0.20195581 0.10694122 0.47152498
0.17761956 0.1128855 0.47833085
0.18487529 0.11320203 0.47741249
0.19389464 0.1118489 0.47488725
0.20025231 0.110649 0.47299868
-0.10108584 -0.18107729 0.4899717
-0.09493874 -0.18326576 0.48845777
-0.085301302 -0.1824781 0.48397252
-0.076209545 -0.18189727 0.48143137
-0.1013918 -0.17622904 0.48968607
-0.094862163 -0.1747558 0.48786315
-0.08478038 -0.17464222 0.48473352
-0.074680321 -0.17480487 0.48265594
-0.065863729 -0.17413597 0.48148412
-0.058184188 -0.17240156 0.48097447
-0.092393391 -0.16785023 0.48934108
-0.084482834 -0.16559045 0.48843473
-0.07491456 -0.16500328 0.48591816
-0.064741589 -0.16506843 0.48362514
-0.056137912 -0.16450912 0.48204881
-0.049694482 -0.16082701 0.4809753
-0.080324881 -0.1577656 0.48997366
-0.074574314 -0.15535946 0.48862213
-0.064955831 -0.15524232 0.48613632
-0.054990038 -0.15499368 0.48399264
-0.048467722 -0.15469916 0.48173553
-0.072853647 -0.14703141 0.48951995
-0.064909197 -0.14506727 0.48803386
-0.055028964 -0.14481777 0.4855153
-0.045816451 -0.14435743 0.4824855
-0.037494671 -0.14156221 0.48097667
-0.063494191 -0.13587949 0.48942274
-0.054793663 -0.13503312 0.48717591
-0.044887673 -0.13478598 0.48392376
-0.035534266 -0.13462678 0.48217994
-0.02884404 -0.13214381 0.48097748
-0.06084089 -0.12934393 0.48997572
-0.053928096 -0.12641165 0.48853171
-0.044919644 -0.1245862 0.48684254
-0.035245009 -0.1249378 0.48462716
-0.0276822 -0.1249777 0.48200634
-0.042163875 -0.11595245 0.48956981
-0.035117481 -0.11534799 0.48751339
-0.026374701 -0.11465092 0.48313203
-0.041111536 -0.10539196 0.48976341
-0.035145905 -0.10526927 0.48792449
-0.025820805 -0.10501632 0.48354515
-0.03377435 -0.095981173 0.48893505
-0.024973299 -0.095014758 0.48592898
-0.019592268 -0.094995007 0.48097926
-0.030523648 -0.085298255 0.48937893
-0.025929451 -0.085807279 0.48553804
0.027561307 -0.060765363 0.48098311
0.018678941 -0.050534211 0.48148292
0.025866102 -0.054473162 0.48217925
0.033916999 -0.052900638 0.48155951
0.042693835 -0.050693016 0.4809843
0.0076291761 -0.042357009 0.48371595
0.015447068 -0.044849169 0.48612338
0.02519354 -0.045310002 0.48612419
0.035185985 -0.045129176 0.48412475
0.043986507 -0.04491685 0.48180467
0.0048192386 -0.035495337 0.48639566
0.014436071 -0.039326686 0.48982921
0.026433639 -0.035945725 0.4890255
0.035335004 -0.035183918 0.48620316
0.044994965 -0.034799084 0.48256555
0.054156229 -0.031894799 0.4811523
0.06558273 -0.031678986 0.48102975
0.071798861 -0.03152008 0.4809866
0.027527556 -0.025729952 0.48926997
0.035418607 -0.025098644 0.48731279
0.045324005 -0.024957335 0.48454797
0.055225097 -0.024865592 0.48273611
0.064928234 -0.024999773 0.48147836
0.071677305 -0.027775491 0.48098671
0.029869324 -0.019490914 0.4899846
0.036641479 -0.016205985 0.48918515
0.045210592 -0.014843345 0.4868342
0.055328783 -0.014779679 0.48441693
0.064267002 -0.014504054 0.48175606
0.045990739 -0.0059180777 0.48901156
0.054925695 -0.0048251557 0.48631039
0.065289415 -0.0046658651 0.48335639
0.074719392 -0.0040687062 0.48172837
0.084006205 -0.001450327 0.48119882
0.049033187 0.00094664027 0.48998636
0.055315513 0.0050019734 0.48846838
0.064835034 0.0052349553 0.48565415
0.075289987 0.005490914 0.48388347
0.085376471 0.0053328173 0.48242605
0.091844134 0.0073743323 0.48098901
0.057771765 0.01195504 0.48961225
0.065239429 0.014644342 0.48834777
0.074858285 0.015284996 0.48551866
0.08497031 0.015440178 0.48412761
0.094284318 0.016126296 0.48215017
0.10080245 0.019734316 0.48098996
0.067667834 0.023023481 0.4893795
0.074662298 0.024969257 0.4868834
0.084466793 0.02492859 0.4844
0.095050342 0.025359839 0.48300427
0.10389012 0.027091414 0.48128453
0.11146238 0.029765278 0.48099092
0.076149002 0.033348214 0.48903778
0.08501327 0.034628056 0.4875364
0.094786949 0.034891207 0.48568496
0.10485966 0.034906466 0.48355964
0.11326091 0.036466546 0.48182055
0.086778879 0.043863636 0.48924008
0.095123187 0.044764005 0.48724046
0.10486807 0.044584967 0.48530349
0.11477057 0.044890128 0.48312286
0.12314793 0.047426652 0.48153389
0.09720356 0.05402508 0.48899093
0.10513839 0.054846786 0.48655394
0.11495063 0.055030044 0.48358911
0.12492783 0.054380529 0.48190925
0.13244088 0.056724247 0.48099306
0.097716898 0.064383194 0.48895282
0.10517236 0.063992493 0.48581865
0.11164971 0.062669016 0.48234209
0.13309684 0.061426662 0.48099321
-0.15193151 -0.19050701 0.49963513
-0.14782515 -0.19025318 0.49896872
-0.15116282 -0.18889612 0.49996856
-0.14413632 -0.18574463 0.49890235
-0.13514769 -0.18465437 0.49632046
-0.12503678 -0.18426307 0.49368948
-0.11499057 -0.18388619 0.49251089
-0.10546745 -0.18445827 0.49134329
-0.099372484 -0.18592727 0.49097165
-0.14041248 -0.17596662 0.4998585
-0.134655 -0.17507949 0.49836293
-0.12491362 -0.17488213 0.49571183
-0.11493669 -0.17454986 0.49364331
-0.10605156 -0.17481856 0.49176332
-0.099371023 -0.17056645 0.49097216
-0.1402981 -0.16847515 0.49996987
-0.13448672 -0.16646704 0.49889126
-0.12464644 -0.16516244 0.49805295
-0.1149909 -0.16499589 0.49694073
-0.10509405 -0.16514306 0.49466541
-0.09586592 -0.16408615 0.49189252
-0.087316185 -0.16150041 0.49097314
-0.12074426 -0.1593523 0.4999713
-0.11506904 -0.15511371 0.4991892
-0.10496481 -0.15492415 0.49622238
-0.094795898 -0.15482832 0.49413428
-0.085341908 -0.15455692 0.49254498
-0.078632116 -0.15162341 0.49097401
-0.12074295 -0.14566523 0.49997175
-0.1149943 -0.14506575 0.49895415
-0.10500399 -0.14495686 0.49711794
-0.095351122 -0.14469938 0.49608445
-0.085025385 -0.14500968 0.49405581
-0.076401725 -0.14378211 0.49166876
-0.11252525 -0.13891977 0.49979064
-0.1042483 -0.13592835 0.49922889
-0.094873644 -0.13495423 0.49715096
-0.084745117 -0.13519338 0.49474609
-0.074887291 -0.13470614 0.49284783
-0.06782154 -0.13408959 0.49118352
-0.10205737 -0.12850383 0.49997339
-0.094471365 -0.12640201 0.49876559
-0.085103028 -0.12497168 0.49736792
-0.074982964 -0.1247975 0.49475625
-0.065050766 -0.12519002 0.49228472
-0.056755513 -0.12241612 0.4911502
-0.08284115 -0.11530451 0.49915147
-0.074750468 -0.11497291 0.49632022
-0.065156899 -0.11485979 0.49363163
-0.055361345 -0.1152101 0.49236712
-0.046771679 -0.11410069 0.4912138
-0.081121661 -0.10678017 0.49968961
-0.074890055 -0.10493763 0.49845785
-0.064771265 -0.10470194 0.49650666
-0.054992799 -0.10522882 0.49420497
-0.046080094 -0.10451333 0.49167752
-0.073846698 -0.095261738 0.49932605
-0.065164819 -0.094850399 0.49759734
-0.055079561 -0.095337033 0.49624988
-0.045193333 -0.094879366 0.49344662
-0.037675504 -0.092748679 0.49129412
-0.072048545 -0.088067539 0.49980983
-0.064564019 -0.085861407 0.49864373
-0.055121727 -0.085085057 0.49681956
-0.045249574 -0.084906928 0.49489874
-0.035698004 -0.085202061 0.49258247
-0.061751842 -0.079516605 0.49997735
-0.053774524 -0.076323986 0.49906877
-0.044910647 -0.074902005 0.49747857
-0.037831731 -0.075910673 0.49297881
-0.050769866 -0.062332444 0.49935359
-0.044813085 -0.065039292 0.49636176
-0.038612232 -0.066475064 0.4922868
0.0078298319 -0.032253638 0.49161929
0.01542307 -0.034597363 0.49186563
0.022173818 -0.033858798 0.49110866
-0.0049572582 -0.024341805 0.49502325
0.0050062551 -0.025477309 0.49481097
0.015278737 -0.025411014 0.49338982
0.022836789 -0.024664983 0.49129441
-0.015436079 -0.018403659 0.49685162
-0.0042626462 -0.016384946 0.49905089
0.0050353766 -0.015254997 0.49784285
0.015360761 -0.015196773 0.49595279
0.025265971 -0.015201814 0.49331775
0.032626279 -0.01303512 0.49144331
-0.0011308435 -0.0084798979 0.49998319
0.0055581173 -0.0054647187 0.49905631
0.01539508 -0.0048661302 0.49704689
0.025021752 -0.0048488085 0.49519929
0.034543827 -0.0048244623 0.4929229
0.042311791 -0.003046076 0.49146587
0.0086465767 0.0012956595 0.49998409
0.015974805 0.0038310594 0.49890971
0.024817506 0.0050034826 0.49708125
0.034861524 0.0050947433 0.49510434
0.044740837 0.0055235722 0.49278
0.051064234 0.0076067485 0.49108672
0.018749787 0.010093537 0.49998498
0.025380284 0.013945092 0.49875012
0.034658164 0.014785506 0.49677303
0.045024782 0.015160189 0.4951117
0.054545846 0.015584797 0.4924455
0.061295468 0.017588289 0.49098763
0.027858905 0.023191981 0.49969178
0.034917664 0.024996279 0.49822062
0.045134455 0.02489602 0.49629933
0.055186 0.024761517 0.49362823
0.063658781 0.025516532 0.49152458
0.036287304 0.032690641 0.49950671
0.045532987 0.034923419 0.49797004
0.055367969 0.03517653 0.49523786
0.0654184 0.035026025 0.49314478
0.073502399 0.03736864 0.49129328
0.048438713 0.044312458 0.49951166
0.055292152 0.044929709 0.49768049
0.064996503 0.045070663 0.49533975
0.074834086 0.04522828 0.4926711
0.082776412 0.04707728 0.49148989
0.047094282 0.055858772 0.49891129
0.055071305 0.054879051 0.49834567
0.064577617 0.054936789 0.49750531
0.074786477 0.055222403 0.49556118
0.084799387 0.055012997 0.49368659
0.093089648 0.056216381 0.4916271
0.047434617 0.061138563 0.49698836
0.055423763 0.063583396 0.49706995
0.064800173 0.063662775 0.49821675
0.07481119 0.06360504 0.49714559
0.085044861 0.062912896 0.49511552
0.092826106 0.062893383 0.49215096
-0.1909721 -0.19444349 0.50996619
-0.18489659 -0.19228722 0.50904649
-0.17570104 -0.19170962 0.50713378
-0.16577452 -0.1914198 0.50467348
-0.15750104 -0.19076931 0.50146818
-0.18204422 -0.18855612 0.50996691
-0.17417413 -0.18559653 0.50892669
-0.16468884 -0.18471143 0.50631887
-0.1550782 -0.18487233 0.50320989
-0.14770406 -0.18278775 0.50127673
-0.17267516 -0.17557666 0.50964636
-0.1653159 -0.17478897 0.5083757
-0.15515111 -0.17507966 0.50587958
-0.1455825 -0.17502065 0.5022034
-0.16349983 -0.1660469 0.5093019
-0.15509935 -0.16511981 0.50759184
-0.14531673 -0.16475387 0.5036304
-0.13597797 -0.16192223 0.50151592
-0.12686354 -0.16097662 0.50097096
-0.16038795 -0.15987675 0.50996906
-0.15402527 -0.1585938 0.50961649
-0.14496899 -0.1554196 0.50807536
-0.13491412 -0.15532137 0.50468731
-0.12533304 -0.1552638 0.50211412
-0.11967914 -0.15444662 0.50097156
-0.1510793 -0.14458719 0.50997013
-0.14506668 -0.14498001 0.50911039
-0.13540538 -0.14510612 0.50631064
-0.12539282 -0.14475127 0.50199109
-0.11902471 -0.14007916 0.50097209
-0.14229982 -0.13647595 0.50966322
-0.13476953 -0.13477637 0.50734383
-0.12491942 -0.13501666 0.50398946
-0.11535078 -0.13438424 0.50208563
-0.1076204 -0.13254482 0.50097299
-0.140441 -0.12929778 0.50997126
-0.13374563 -0.12660339 0.50877166
-0.12499479 -0.12514387 0.50663298
-0.11508387 -0.12462155 0.50442123
-0.10558328 -0.1246758 0.50226414
-0.095630549 -0.121514 0.50116152
-0.089634717 -0.12048986 0.50097442
-0.12375454 -0.11844335 0.50930589
-0.11413012 -0.11641328 0.50842053
-0.10507234 -0.11511555 0.50610483
-0.095281653 -0.11511402 0.50318849
-0.087925591 -0.11380709 0.50115997
-0.11118736 -0.10425972 0.50997376
-0.10559592 -0.10484312 0.50875181
-0.095276438 -0.10489764 0.50495738
-0.086069703 -0.10455935 0.50184178
-0.10379183 -0.09668617 0.50929868
-0.094731033 -0.095043086 0.50766581
-0.084980853 -0.095057741 0.50419968
-0.078233071 -0.093667805 0.50116354
-0.092748016 -0.08781942 0.50972533
-0.085373759 -0.085140519 0.50710791
-0.07546135 -0.084233701 0.50258756
-0.067311667 -0.081053048 0.50119925
-0.084330611 -0.075571425 0.50853866
-0.074846849 -0.074906848 0.50516313
-0.065112256 -0.074937746 0.50262314
-0.057326633 -0.072847284 0.50117791
-0.081769109 -0.067134298 0.50954807
-0.074952446 -0.064695187 0.50769943
-0.065303601 -0.065466501 0.50474542
-0.055765927 -0.065517925 0.5024246
-0.049139544 -0.069554299 0.50097847
-0.072927825 -0.054902818 0.50864428
-0.065825462 -0.055749729 0.50446683
-0.057685576 -0.058271732 0.5019784
-0.084197149 -0.041395612 0.5091024
-0.074460968 -0.045115605 0.50557244
-0.044413593 -0.011979946 0.50459969
-0.035079557 -0.012190261 0.50550503
-0.024829976 -0.012630196 0.50494719
-0.01514142 -0.013380994 0.50359988
-0.0078031486 -0.01294745 0.50143278
-0.052642267 -0.0096356058 0.50964689
-0.044742294 -0.009062021 0.50940931
-0.033839643 -0.0083686532 0.50950509
-0.024726611 -0.0049823741 0.50939262
-0.014708701 -0.0049601453 0.50721687
-0.0050220508 -0.0046395664 0.50256008
0.0019514968 -0.0013496815 0.50098366
-0.023762112 0.0047329185 0.50971913
-0.014722795 0.0049572526 0.50776857
-0.0047568772 0.004923319 0.50412631
0.0048039351 0.0051814858 0.5020802
0.012860839 0.0075033507 0.5010615
-0.022089759 0.012240925 0.50990582
-0.014671555 0.014842612 0.50865
-0.0047745928 0.014843799 0.50616229
0.0051077697 0.014797532 0.50460947
0.014849313 0.014829385 0.50283951
0.02140969 0.017356129 0.50121611
-0.012816961 0.024262642 0.50962007
-0.0047896616 0.024814537 0.50771886
0.0051247464 0.024727833 0.50600278
0.015104339 0.025158573 0.50487435
0.023529824 0.025869038 0.50202841
-0.01012469 0.030906912 0.50998408
-0.0042373464 0.032811463 0.50919652
0.0052708518 0.034613959 0.50798506
0.014877327 0.035054717 0.50569153
0.024757575 0.035067298 0.50291479
0.034113724 0.036690716 0.50143838
0.040994372 0.038846657 0.50098723
0.0082052322 0.043510117 0.50966972
0.015202209 0.044890825 0.5078879
0.024880935 0.04512199 0.50537699
0.035301384 0.044967465 0.50365901
0.043788388 0.045269847 0.50158769
0.0098211849 0.050184246 0.50998586
0.016032025 0.05408287 0.50946009
0.02483253 0.055076525 0.50741273
0.035619542 0.054597124 0.50425673
0.042923175 0.053795304 0.50154787
0.018243099 0.061706662 0.50998676
0.021973806 0.061163295 0.50915354
-0.22101668 -0.19581351 0.51996446
-0.21506308 -0.19339211 0.51819062
-0.20497638 -0.19312324 0.51432657
-0.19511782 -0.19259244 0.51176602
-0.18868178 -0.1908284 0.51096642
-0.21388075 -0.18506707 0.51896513
-0.20478508 -0.18530244 0.51622576
-0.19511741 -0.18515483 0.51424688
-0.18544249 -0.18467273 0.51215035
-0.1785228 -0.18167043 0.51096731
-0.21275897 -0.1770705 0.51966548
-0.20488498 -0.1754517 0.5184387
-0.19497624 -0.17478929 0.51614296
-0.18520512 -0.17516126 0.51325572
-0.17759895 -0.17441715 0.51112747
-0.20246044 -0.16594888 0.51974422
-0.1948393 -0.16511638 0.51710147
-0.18463251 -0.16488053 0.51410204
-0.17449856 -0.16513672 0.51186097
-0.16656439 -0.16238785 0.51096863
-0.20058763 -0.15848924 0.51996684
-0.19421451 -0.15696847 0.51851565
-0.184696 -0.15498944 0.51632988
-0.17491934 -0.15513058 0.51380479
-0.16516647 -0.1546261 0.51241535
-0.15569262 -0.15384322 0.5115149
-0.18252303 -0.14664291 0.51935709
-0.174796 -0.1452769 0.51718295
-0.16518883 -0.14473939 0.51414722
-0.15528537 -0.144805 0.51155168
-0.14871067 -0.14020824 0.51097041
-0.18115453 -0.13996357 0.51996857
-0.1745712 -0.13661084 0.51934737
-0.16498962 -0.13526557 0.51739818
-0.15479246 -0.1350075 0.51369756
-0.14666776 -0.13406721 0.51148683
-0.16182297 -0.12578163 0.51925594
-0.15484107 -0.12475634 0.51677454
-0.14517513 -0.12486092 0.51343536
-0.13665105 -0.12257165 0.51158041
-0.162874 -0.11486581 0.51950169
-0.15494634 -0.11455087 0.51847088
-0.14497572 -0.11525574 0.5172022
-0.13489267 -0.11493605 0.5141505
-0.12567517 -0.1137275 0.51217777
-0.11690886 -0.11255501 0.5110842
-0.15349564 -0.10670701 0.51997125
-0.1455023 -0.10510316 0.51852524
-0.13551901 -0.1049439 0.51595312
-0.1251505 -0.10512157 0.51331258
-0.11596973 -0.10503919 0.51135331
-0.15132587 -0.09929622 0.51997161
-0.14526963 -0.095299892 0.51888329
-0.13531414 -0.094967954 0.5170818
-0.12513745 -0.094891965 0.51473188
-0.11483114 -0.094618507 0.51244837
-0.10597423 -0.092366457 0.51119667
-0.099414207 -0.090921171 0.51097488
-0.14281946 -0.087898195 0.51965672
-0.13435043 -0.085630476 0.51880282
-0.12507685 -0.084726915 0.51793784
-0.115287 -0.084986337 0.51605409
-0.10527607 -0.08535286 0.51356399
-0.096222155 -0.084196746 0.51170254
-0.12427419 -0.075004645 0.5187372
-0.1149805 -0.074823253 0.51537454
-0.10521234 -0.074599482 0.5132609
-0.095068619 -0.074884556 0.51177937
-0.087866582 -0.071827263 0.51097614
-0.12352639 -0.066068932 0.51872426
-0.11496861 -0.064977124 0.51722491
-0.10492828 -0.065047473 0.51652443
-0.094723426 -0.06537316 0.51392335
-0.085791469 -0.064234219 0.51164317
-0.079428151 -0.060282256 0.51097703
-0.11132975 -0.059985507 0.51997524
-0.10405679 -0.055354372 0.51872581
-0.095160551 -0.054901976 0.51681572
-0.085457698 -0.054896727 0.51425987
-0.077913389 -0.055026915 0.51167291
-0.11179659 -0.044043336 0.51847577
-0.10524974 -0.045202263 0.51477611
-0.094868176 -0.045350049 0.51406962
-0.0853751 -0.046338093 0.51331997
-0.078922637 -0.047953043 0.51140606
-0.11175968 -0.037822414 0.5188331
-0.094010822 -0.026699683 0.51627368
-0.087488197 -0.022217782 0.51397783
-0.090226039 -0.018620899 0.51947784
-0.084278435 -0.0161139 0.51701045
-0.075369142 -0.013494278 0.51497889
-0.066040322 -0.012019628 0.51324606
-0.059440311 -0.010992406 0.51097983
-0.073159836 -0.0085743535 0.51931244
-0.064834185 -0.0051759961 0.51789349
-0.054839253 -0.0048263157 0.51453584
-0.04498174 -0.0037802041 0.51212037
-0.035211958 -0.0033422539 0.51098138
-0.062729381 0.0042067533 0.51930159
-0.054790232 0.005058873 0.51736844
-0.045086768 0.0050295503 0.51436895
-0.034823515 0.0049976311 0.51139259
-0.028192336 0.0058389022 0.51098216
-0.060937148 0.010956586 0.51998049
-0.054387216 0.013151689 0.5190112
-0.045279972 0.015093882 0.51743603
-0.034999169 0.015075651 0.51393509
-0.025629587 0.015818879 0.51142442
-0.019471105 0.019644607 0.51098317
-0.042142797 0.023247009 0.51948202
-0.034728982 0.025128592 0.51674718
-0.024881965 0.025055012 0.5125953
-0.017617 0.025900025 0.51098347
-0.033055078 0.033885676 0.51867253
-0.024865178 0.034778137 0.51492447
-0.014987741 0.035162922 0.51193553
-0.0056286342 0.037902143 0.51115847
0.0011800471 0.039625786 0.51098502
-0.031109499 0.040778559 0.51998323
-0.025253458 0.045049977 0.51768738
-0.014937265 0.045353886 0.51543069
-0.0048399991 0.045166157 0.51333177
0.0036129195 0.045686122 0.51149893
-0.024307838 0.054191872 0.5192126
-0.015013451 0.055041499 0.51812726
-0.0047304416 0.054970447 0.515495
0.0051120929 0.055157393 0.51225555
0.012588765 0.057193212 0.51098621
-0.022069737 0.061112795 0.51998442
-0.014644184 0.060615845 0.51831818
-0.0019690746 0.061802726 0.51341414
0.005189762 0.062623195 0.51217824
0.013925587 0.062628038 0.51117396
-0.27307558 -0.20068009 0.52996129
-0.26911247 -0.2003018 0.52896154
-0.27123305 -0.19837739 0.52996147
-0.26425156 -0.19578181 0.52889222
-0.25506186 -0.19497167 0.5273279
-0.24545428 -0.19490615 0.52531189
-0.23557067 -0.19443154 0.52303183
-0.22558022 -0.19367824 0.52126145
-0.21953958 -0.19048548 0.52096468
-0.26063883 -0.18962736 0.52996236
-0.25351208 -0.18596855 0.52931774
-0.24497475 -0.18503602 0.52625209
-0.23499148 -0.18516164 0.52312398
-0.22533235 -0.18517032 0.52160472
-0.2191315 -0.18423745 0.52096492
-0.25142613 -0.178344 0.52996331
-0.24461634 -0.17531775 0.52831161
-0.2350118 -0.17490658 0.52518439
-0.2253316 -0.17513512 0.52271032
-0.21620534 -0.17362075 0.52120227
-0.20799226 -0.17011237 0.52096605
-0.2414777 -0.16828606 0.52976424
-0.23476416 -0.16530392 0.52843267
-0.2250708 -0.16509351 0.52550524
-0.21512432 -0.16485427 0.52313238
-0.20667052 -0.16445504 0.52118057
-0.23161907 -0.15660644 0.5299651
-0.22465257 -0.15507744 0.52754009
-0.21474159 -0.1550902 0.52471071
-0.20521238 -0.15482406 0.52292907
-0.19604692 -0.15245067 0.5218519
-0.18965365 -0.15109821 0.52096772
-0.23023638 -0.1467962 0.52996558
-0.22442608 -0.14496049 0.52784961
-0.21453141 -0.14482978 0.52534169
-0.20485567 -0.14528708 0.52490705
-0.19467996 -0.14501302 0.52351868
-0.18636543 -0.14411806 0.52126807
-0.22311682 -0.13811579 0.52946621
-0.21425751 -0.13603996 0.52865905
-0.20488526 -0.13530298 0.52668953
-0.19476916 -0.1350911 0.52417177
-0.18488814 -0.13458113 0.52192867
-0.17598912 -0.13208358 0.52096915
-0.16927752 -0.13072595 0.52096951
-0.2038191 -0.12659721 0.52954352
-0.19508456 -0.12482701 0.52752596
-0.18489622 -0.12538542 0.52457315
-0.17539442 -0.12509601 0.52300519
-0.16724156 -0.12482493 0.52150106
-0.19426115 -0.115274 0.5283407
-0.18519513 -0.11500628 0.52528018
-0.17542458 -0.11489261 0.52309233
-0.16763853 -0.11457019 0.52106106
-0.19296615 -0.1067346 0.52931893
-0.18454804 -0.10534491 0.52694952
-0.17484021 -0.10479527 0.52474362
-0.16510817 -0.10480138 0.52248991
-0.15624729 -0.10423763 0.52106798
-0.18294859 -0.097875178 0.52955812
-0.17460604 -0.095275767 0.52812958
-0.16474962 -0.095220521 0.52489096
-0.15515438 -0.094782867 0.52195108
-0.14889956 -0.091337763 0.52097201
-0.17102772 -0.088181868 0.52977091
-0.16526628 -0.084894232 0.52799171
-0.15509808 -0.085245065 0.52399147
-0.14588858 -0.083861887 0.52175617
-0.13745838 -0.081244379 0.52108413
-0.16448152 -0.075520426 0.52937174
-0.15480599 -0.07524047 0.52720439
-0.14483823 -0.074749202 0.52510506
-0.13544208 -0.075074829 0.52243167
-0.12926459 -0.074052438 0.52097374
-0.16114183 -0.069425121 0.52997208
-0.15339318 -0.066458315 0.52986914
-0.14490773 -0.065180898 0.52790493
-0.13486607 -0.06475614 0.52417368
-0.12660983 -0.063297227 0.52137434
-0.11629784 -0.060100425 0.52097493
-0.15008654 -0.055378437 0.52997321
-0.14512998 -0.055139102 0.52901787
-0.13517688 -0.055129901 0.52695471
-0.1249911 -0.055155654 0.52570921
-0.11518969 -0.055085555 0.52330124
-0.10884428 -0.054450154 0.52105886
-0.1500859 -0.048700009 0.52997339
-0.14371026 -0.046388112 0.52959555
-0.13459614 -0.045665942 0.52936649
-0.1248436 -0.045110058 0.52838558
-0.11603329 -0.045825195 0.52304685
-0.12386336 -0.037053749 0.52956611
-0.11552217 -0.034284372 0.52589685
-0.106783 -0.031246444 0.52227652
-0.11430792 -0.025382433 0.52962494
-0.10529086 -0.024964744 0.52662259
-0.09682671 -0.022933487 0.52276683
-0.11455984 -0.01533145 0.52954793
-0.10521166 -0.015445698 0.52667099
-0.095196575 -0.015205507 0.52348816
-0.086519636 -0.012286795 0.52162111
-0.11195802 -0.0067297909 0.52978951
-0.10508116 -0.005358465 0.52805591
-0.095207766 -0.0049614576 0.52607971
-0.085039742 -0.0051249173 0.52508211
-0.07547795 -0.0040982091 0.52228868
-0.068752348 -0.00034062381 0.52097964
-0.10342509 0.0024922432 0.52976727
-0.094237715 0.0047294586 0.52928072
-0.084833555 0.0051650968 0.52806044
-0.074691713 0.0051304265 0.5244897
-0.067061417 0.0062631136 0.52140856
-0.091125809 0.011169936 0.52997881
-0.084665768 0.014652174 0.52931279
-0.074968599 0.01475584 0.5264492
-0.065133929 0.014888656 0.52271956
-0.056370392 0.0174901 0.52110595
-0.083876856 0.023824291 0.52971494
-0.075078867 0.024663115 0.52819568
-0.065268427 0.025018735 0.52573073
-0.055380911 0.025012624 0.52387601
-0.046047941 0.026051261 0.52169621
-0.080991223 0.030052803 0.52998
-0.074384086 0.032433316 0.52988952
-0.06550318 0.035383742 0.52831453
-0.054919176 0.035249472 0.52507102
-0.044438187 0.035082087 0.52257401
-0.037126519 0.03635563 0.52133262
-0.063101582 0.044526108 0.52956975
-0.054458097 0.045021039 0.52724737
-0.044678424 0.044861887 0.52541119
-0.035061847 0.044980966 0.52277035
-0.06095396 0.050777048 0.52998185
-0.053742006 0.053261172 0.52956849
-0.044841688 0.054646958 0.52730948
-0.03497421 0.054949738 0.52365005
-0.027537089 0.057818569 0.52141255
-0.042751212 0.063451178 0.52934688
-0.035436086 0.064991079 0.52732462
-0.027452361 0.062624998 0.52341276
-0.040916655 0.071961872 0.5299837
-0.037187979 0.071180716 0.52931726
-0.30104172 -0.20230447 0.53795964
-0.2950955 -0.20177044 0.5365389
-0.28507051 -0.20142351 0.53359693
-0.27823049 -0.20065501 0.53136098
-0.30115011 -0.19530426 0.53915989
-0.29482302 -0.19478714 0.53736848
-0.28481522 -0.19496208 0.53514081
-0.27555123 -0.19442469 0.53280228
-0.2679778 -0.19151223 0.53136188
-0.29310864 -0.18661796 0.53934151
-0.28489202 -0.18475446 0.53792399
-0.27469301 -0.1851375 0.53598255
-0.26510301 -0.18515311 0.53386611
-0.25766954 -0.18367216 0.53155094
-0.28314054 -0.17563812 0.53973079
-0.27479294 -0.17495458 0.53844345
-0.26513186 -0.17487676 0.53685611
-0.25543272 -0.17448282 0.5332315
-0.24774846 -0.17103192 0.5312137
-0.28180805 -0.1665833 0.53996187
-0.27487046 -0.16472287 0.53890109
-0.26492971 -0.1645249 0.53774065
-0.25537542 -0.16519256 0.53614336
-0.24544984 -0.16463539 0.53312677
-0.23896971 -0.1611419 0.53171456
-0.27357087 -0.15741298 0.53969955
-0.26493356 -0.15482844 0.53869808
-0.25460476 -0.15483466 0.53731018
-0.24519317 -0.15497299 0.5360257
-0.23599666 -0.15463161 0.53290939
-0.26393965 -0.1458459 0.53963023
-0.25508037 -0.14498684 0.5386579
-0.24524724 -0.14475161 0.53729016
-0.23582782 -0.14471433 0.53378582
-0.22928581 -0.14015153 0.53096581
-0.26132819 -0.13970879 0.53996402
-0.25369748 -0.13723303 0.53961664
-0.2451213 -0.1350311 0.53815567
-0.23505941 -0.13488618 0.53502554
-0.22565934 -0.13377553 0.53256071
-0.21667525 -0.13203366 0.53132397
-0.24297959 -0.1257786 0.53934056
-0.23468335 -0.12480154 0.53677851
-0.22472228 -0.12511018 0.53486246
-0.21517909 -0.12451836 0.53273189
-0.20727679 -0.12327185 0.53113431
-0.24081203 -0.11597901 0.53996599
-0.23470509 -0.11536821 0.53864032
-0.22501253 -0.11520243 0.53729349
-0.21475112 -0.11486664 0.53586328
-0.20506124 -0.11516848 0.53321809
-0.19882745 -0.11246743 0.53096849
-0.23176111 -0.10873968 0.53996676
-0.22400716 -0.10751248 0.53941548
-0.21498935 -0.10498384 0.53825349
-0.20512028 -0.10501468 0.53550184
-0.19620618 -0.10355362 0.5323689
-0.1891358 -0.1000092 0.53096944
-0.21370284 -0.096057802 0.53963482
-0.20512636 -0.095143817 0.5381524
-0.1951088 -0.095041193 0.53520834
-0.18571068 -0.093891345 0.53221226
-0.17815635 -0.091159455 0.53125608
-0.20289741 -0.08560095 0.53928918
-0.19503526 -0.085230678 0.53714955
-0.18518806 -0.085228585 0.53516632
-0.1753637 -0.084662393 0.53228658
-0.20148991 -0.074955031 0.53996956
-0.19532563 -0.074750759 0.53849363
-0.18520516 -0.074920602 0.53598905
-0.17513138 -0.075111143 0.53267568
-0.16819486 -0.072324172 0.53097159
-0.20125467 -0.068854526 0.53996974
-0.19433643 -0.065607123 0.53909862
-0.18493277 -0.064723901 0.53685713
-0.17489354 -0.065128528 0.53445297
-0.16486016 -0.064727478 0.53263861
-0.15682894 -0.063038714 0.53174531
-0.19139904 -0.059000757 0.5399707
-0.18424551 -0.055989861 0.5389449
-0.17502987 -0.054803621 0.53722173
-0.16538079 -0.05491931 0.53531277
-0.15526591 -0.054787759 0.53229213
-0.18107417 -0.049616311 0.53997159
-0.17407069 -0.047538139 0.53931993
-0.16496804 -0.045074787 0.53732824
-0.15490399 -0.044920944 0.53324604
-0.14616345 -0.041731048 0.53141135
-0.13652481 -0.040487122 0.53097445
-0.17121772 -0.031315662 0.53997278
-0.16457011 -0.03526504 0.53820032
-0.1546112 -0.035093319 0.5354628
-0.14489061 -0.035145648 0.53449512
-0.134966 -0.035078023 0.53301638
-0.12623343 -0.033315737 0.5316003
-0.11991167 -0.030798251 0.5309757
-0.17121738 -0.027796129 0.5399729
-0.16468836 -0.025695993 0.5383988
-0.15503418 -0.025024652 0.53710359
-0.14495102 -0.025521027 0.53654569
-0.13487323 -0.02546913 0.53540355
-0.12517451 -0.025343722 0.53273761
-0.11933428 -0.024684092 0.53097588
-0.15371701 -0.017295357 0.53957427
-0.14498219 -0.015583403 0.53846473
-0.13511965 -0.015025266 0.53638613
-0.12521251 -0.014841554 0.53332293
-0.11940671 -0.014311939 0.53097624
-0.14118205 -0.0071510454 0.53997535
-0.13488291 -0.0048289816 0.5384391
-0.12497927 -0.004525838 0.53487438
-0.11568658 -0.003533859 0.53161329
-0.13240516 0.0048777135 0.53945243
-0.12505265 0.0050689387 0.53679895
-0.11490311 0.005222688 0.53342611
-0.10547266 0.0069123572 0.53171116
-0.098250888 0.0084258877 0.53114492
-0.131091 0.010914945 0.53997648
-0.12381478 0.013945008 0.53914368
-0.11492307 0.015053097 0.53678191
-0.10531669 0.014856176 0.53510582
-0.095511146 0.015170886 0.53252214
-0.089451402 0.016958952 0.53097904
-0.11363702 0.023694534 0.53936511
-0.1045535 0.024940452 0.53697848
-0.094827332 0.024584008 0.53330469
-0.088077411 0.026145285 0.53104615
-0.11155554 0.032206278 0.53997833
-0.1046297 0.034650024 0.53827047
-0.09500058 0.034521643 0.53493172
-0.085354947 0.034964714 0.53247046
-0.076314308 0.036973406 0.53138685
-0.10368717 0.044341929 0.5394237
-0.094612628 0.044901099 0.53620428
-0.084847577 0.045139395 0.5335651
-0.074448831 0.045379225 0.53180087
-0.067391224 0.046904974 0.5309813
-0.10172655 0.051253963 0.53981286
-0.09458714 0.0540874 0.53818518
-0.084570915 0.055384438 0.53608698
-0.074687444 0.055379074 0.53430778
-0.064881414 0.055381246 0.53264141
-0.056287725 0.057445042 0.53158236
-0.091432817 0.060653944 0.53998041
-0.084632017 0.062727816 0.53936183
-0.075062938 0.065069646 0.53840011
-0.065114491 0.065306097 0.5365029
-0.055248223 0.065201178 0.53492135
-0.047107298 0.065744728 0.53224236
-0.076180533 0.070741825 0.5399816
-0.05401963 0.070993856 0.53658289
-0.045382127 0.071666285 0.53258342
-0.3022491 -0.19120897 0.54095989
-0.30250061 -0.18465275 0.54286921
-0.29694292 -0.18357685 0.54164052
-0.30284047 -0.17473795 0.54469121
-0.29451323 -0.1752625 0.54222178
-0.28720301 -0.17390338 0.54096133
-0.30382121 -0.16483659 0.54730362
-0.29483882 -0.16489954 0.54414868
-0.28621784 -0.16451015 0.54160881
-0.30185217 -0.15797868 0.54966104
-0.29467085 -0.15481931 0.54791397
-0.28495276 -0.15527527 0.54403353
-0.27648741 -0.15322286 0.54166645
-0.29416049 -0.14482231 0.54867625
-0.28472796 -0.14493324 0.54555345
-0.27441671 -0.14496776 0.54245198
-0.2682305 -0.14285856 0.54123622
-0.29364207 -0.13602534 0.54915464
-0.28481969 -0.13538964 0.54796284
-0.27527457 -0.13491783 0.54581451
-0.2649017 -0.13519701 0.54243195
-0.25612521 -0.13301447 0.54156458
-0.2491174 -0.13009578 0.54096502
-0.28122231 -0.1293897 0.54996324
-0.27420512 -0.12572502 0.54865128
-0.26519436 -0.12502585 0.546278
-0.25511339 -0.12494095 0.54392046
-0.24734846 -0.12434521 0.54141533
-0.27104068 -0.11820637 0.54996413
-0.26445743 -0.11522009 0.54874837
-0.255097 -0.11504737 0.54605037
-0.24551344 -0.11441458 0.54234815
-0.23818478 -0.11070353 0.54096627
-0.26180327 -0.1076792 0.54984003
-0.25483388 -0.10499443 0.54856551
-0.24518283 -0.1049572 0.5457505
-0.23525132 -0.10492834 0.54268461
-0.22615063 -0.10288554 0.54126352
-0.25264382 -0.095661968 0.54996598
-0.24466811 -0.09491802 0.54830736
-0.23476857 -0.094911203 0.54483366
-0.22495389 -0.095104724 0.54194438
-0.217024 -0.092590258 0.54128385
-0.2433406 -0.086130075 0.5496487
-0.23479427 -0.084918514 0.54766953
-0.22487947 -0.084949277 0.54570383
-0.21498093 -0.085130185 0.54358554
-0.20718479 -0.083928376 0.54135787
-0.24035181 -0.079207622 0.54996723
-0.23466949 -0.075063318 0.54896772
-0.22507955 -0.074691013 0.54701179
-0.21445304 -0.075145617 0.54401648
-0.20624511 -0.075148538 0.54136223
-0.23302747 -0.065281495 0.54960454
-0.22502637 -0.064584218 0.54756439
-0.21491557 -0.065153316 0.54494917
-0.20550689 -0.064762823 0.5425173
-0.19802898 -0.062238213 0.5410952
-0.23102966 -0.059134111 0.54996848
-0.22444141 -0.058381941 0.54963547
-0.21406291 -0.056176726 0.54861236
-0.20475341 -0.054995578 0.54558724
-0.19537674 -0.054923315 0.54244691
-0.18771702 -0.05253895 0.5410822
-0.21023729 -0.048381954 0.54997003
-0.20451945 -0.045346681 0.54894269
-0.19486058 -0.044872988 0.54609102
-0.18517888 -0.044878788 0.54358375
-0.17640701 -0.043235134 0.54189211
-0.20019916 -0.038345717 0.54997087
-0.19434981 -0.03490483 0.54868197
-0.18518351 -0.034502599 0.54585284
-0.1751164 -0.035292018 0.54249328
-0.1941521 -0.024683271 0.54908597
-0.18515787 -0.02440124 0.54644948
-0.1753827 -0.024302777 0.54297286
-0.16717099 -0.020573247 0.54130673
-0.19299443 -0.016322862 0.54987687
-0.18488377 -0.014823949 0.54910886
-0.17512587 -0.014514711 0.54719537
-0.16505779 -0.014614332 0.5438146
-0.15575382 -0.01272283 0.54207772
-0.14849596 -0.01068968 0.5409748
-0.18236218 -0.0067123328 0.54997295
-0.17469116 -0.0046759807 0.54929155
-0.16496806 -0.0047817612 0.54786772
-0.15493399 -0.0044476278 0.54538369
-0.14549395 -0.0042689638 0.54235011
-0.13909224 -0.0010526974 0.54097563
-0.16272816 0.0038658569 0.54991573
-0.15472026 0.0051722545 0.5476861
-0.14485036 0.0053267428 0.54404706
-0.13721941 0.0059763826 0.54137594
-0.16004559 0.011836428 0.54997492
-0.15451321 0.015209409 0.54877532
-0.1452488 0.01529803 0.54554719
-0.13536884 0.01538926 0.54240209
-0.12689519 0.017666996 0.54132998
-0.15239146 0.024507614 0.5494464
-0.14486489 0.025311232 0.54678476
-0.13488245 0.025056947 0.54344171
-0.12524177 0.025091825 0.54207939
-0.11713229 0.027246434 0.54125559
-0.15000647 0.031909861 0.54997611
-0.14425068 0.035058726 0.54845029
-0.13491336 0.035411425 0.54578149
-0.12523487 0.034900807 0.54368889
-0.11590859 0.035470597 0.54163688
-0.10946956 0.039141495 0.54097867
-0.1427329 0.042633079 0.54957688
-0.13472316 0.044731483 0.54827023
-0.12488014 0.045318421 0.54629052
-0.11493263 0.044848468 0.54290885
-0.10874061 0.045664791 0.54113281
-0.13136412 0.051265534 0.54997784
-0.12389776 0.054104302 0.54912651
-0.11501788 0.055356409 0.54636186
-0.10557543 0.055189583 0.54290056
-0.098262914 0.058126632 0.5414086
-0.12282678 0.066346392 0.5493598
-0.11503031 0.065282911 0.547306
-0.10494009 0.06525784 0.54631323
-0.095249459 0.0652043 0.54376614
-0.086149834 0.066905603 0.5417428
-0.079847887 0.068757519 0.54098135
-0.1236209 0.072657429 0.54833609
-0.11421169 0.073735632 0.5464958
-0.10517177 0.075366996 0.54800045
-0.094908327 0.075156584 0.5464704
-0.08545775 0.074493192 0.54375046
-0.079045542 0.072747871 0.54128152
-0.10110044 0.082036994 0.54723066
-0.094590224 0.082757436 0.54662102
-0.087464839 0.081615433 0.54560637
-0.30536607 -0.15433358 0.55153674
-0.30506009 -0.14477308 0.55287576
-0.29969126 -0.14542468 0.55096161
-0.31032568 -0.13398547 0.55716145
-0.30475959 -0.13490018 0.55429506
-0.29706705 -0.13296025 0.55157334
-0.28819799 -0.13106084 0.55096275
-0.31107515 -0.12509611 0.55883664
-0.30502081 -0.12488742 0.55749536
-0.29472414 -0.1251865 0.55472332
-0.28508005 -0.12486234 0.55269223
-0.27791822 -0.12222071 0.55158865
-0.30150956 -0.11812289 0.55967671
-0.29506367 -0.11548542 0.55807102
-0.28513005 -0.11460881 0.55477315
-0.27562383 -0.11468324 0.55220091
-0.26894718 -0.11210098 0.55096447
-0.30020246 -0.10327189 0.55996299
-0.29500049 -0.1050892 0.55862999
-0.2852411 -0.10457586 0.55561495
-0.27479145 -0.10529927 0.55319363
-0.26533008 -0.10450279 0.55138922
-0.25946534 -0.10161549 0.55096543
-0.29285252 -0.096583232 0.55927944
-0.28465667 -0.094681822 0.55667847
-0.27442309 -0.094993323 0.55356938
-0.26467693 -0.095216475 0.5513463
-0.25691092 -0.094459876 0.55096579
-0.28431225 -0.085231163 0.55852342
-0.27456805 -0.084727518 0.55555201
-0.26506659 -0.085319035 0.55331445
-0.25533625 -0.085434243 0.55196619
-0.24716805 -0.083600499 0.5514015
-0.28202656 -0.078164332 0.55963159
-0.27448785 -0.075559564 0.55858314
-0.26493561 -0.074957594 0.55642253
-0.25491706 -0.075601332 0.55396646
-0.24484867 -0.07505177 0.55182087
-0.23887272 -0.071211703 0.55096751
-0.26377368 -0.065523095 0.55900639
-0.25536165 -0.065561995 0.55618107
-0.24526885 -0.065220557 0.55296743
-0.23788092 -0.064329937 0.55120605
-0.26126602 -0.058260307 0.55996674
-0.25478402 -0.055438932 0.55801982
-0.24498607 -0.05538249 0.55487484
-0.2350173 -0.054817375 0.55283189
-0.22499155 -0.053754985 0.55239755
-0.2166656 -0.052518103 0.55146945
-0.2528536 -0.047856655 0.5595926
-0.24476531 -0.045679014 0.55832529
-0.23506105 -0.045292094 0.55611163
-0.22476007 -0.045119613 0.55394888
-0.21469362 -0.044761602 0.55174482
-0.20750642 -0.041048363 0.55097038
-0.24287453 -0.038024738 0.55969578
-0.23489089 -0.035933919 0.55858439
-0.22507381 -0.03516623 0.5565151
-0.21502048 -0.034939606 0.55441451
-0.20511505 -0.034929544 0.55215669
-0.19912609 -0.032669622 0.55097115
-0.23060417 -0.029064113 0.55996948
-0.22450273 -0.025210598 0.55848217
-0.21450105 -0.024855031 0.5551334
-0.20467699 -0.024832958 0.55237591
-0.19912533 -0.024768915 0.55097139
-0.22430691 -0.015267211 0.55860674
-0.21482855 -0.015021233 0.55541527
-0.2049225 -0.014764913 0.55304283
-0.1964173 -0.013118014 0.55127966
-0.18906854 -0.010404952 0.55097246
-0.22188823 -0.0091040581 0.55947065
-0.21402831 -0.0053587519 0.55832422
-0.20482209 -0.004692567 0.55556697
-0.19508819 -0.0048363842 0.55313152
-0.18608534 -0.0034940655 0.55144167
-0.17901213 -0.0003504655 0.55097336
-0.21161729 0.0048767491 0.55963844
-0.20517015 0.0054654791 0.55763882
-0.19546622 0.0054359664 0.55485356
-0.18514317 0.0054077622 0.55211604
-0.17494062 0.0054053506 0.5517289
-0.16614892 0.0065888641 0.55135369
-0.20426236 0.014416204 0.55900574
-0.19454433 0.014981474 0.55604804
-0.18481593 0.015633272 0.55364799
-0.17529769 0.015423269 0.55314094
-0.16513129 0.015632274 0.55197483
-0.1588994 0.01904026 0.5509752
-0.20164374 0.020084966 0.55997276
-0.1940653 0.022413213 0.55906856
-0.18476288 0.024996014 0.5578025
-0.17491375 0.025099732 0.55587697
-0.16477302 0.02508614 0.55387259
-0.15697561 0.026317349 0.55178326
-0.18252516 0.03420778 0.55945265
-0.17493489 0.034388639 0.55786127
-0.16534002 0.034733471 0.55565816
-0.15496747 0.035240732 0.5525614
-0.14848293 0.038791031 0.55097646
-0.18047242 0.04052233 0.55997467
-0.17411758 0.042933181 0.55938423
-0.16494133 0.044546656 0.5574438
-0.15502253 0.044687506 0.55457634
-0.14598437 0.045973178 0.55219114
-0.13763644 0.049348217 0.55097735
-0.16455822 0.05469624 0.55916023
-0.15513411 0.054993879 0.55670989
-0.14515772 0.054388441 0.5544337
-0.13506719 0.055300791 0.55265278
-0.12679417 0.057239048 0.55120903
-0.16239184 0.063000835 0.55972648
-0.15477787 0.06494277 0.55822146
-0.14469545 0.065079264 0.55642438
-0.13481741 0.064520977 0.55438703
-0.12722124 0.063858517 0.55179673
-0.15334213 0.075286448 0.55908084
-0.14495999 0.074887484 0.55625081
-0.13554202 0.074244924 0.55382442
-0.1283271 0.07175152 0.55131203
-0.15378004 0.085248053 0.55847782
-0.14472973 0.083900124 0.5538311
-0.13733578 0.08209198 0.55182475
-0.15516169 0.091131717 0.55997783
-0.31226504 -0.12048915 0.56196177
-0.30878431 -0.12027504 0.56096196
-0.31252685 -0.11475754 0.56442028
-0.3054584 -0.11440789 0.56262904
-0.31308922 -0.10489415 0.56477177
-0.30564097 -0.10466591 0.56273198
-0.31352472 -0.094937019 0.56689107
-0.30506235 -0.094529137 0.56467026
-0.29734531 -0.0943432 0.56201351
-0.31390342 -0.085013412 0.56908786
-0.30522153 -0.084524944 0.56718838
-0.29538313 -0.084972844 0.56378889
-0.28875971 -0.082923338 0.56156439
-0.31133977 -0.07762412 0.56996328
-0.3041952 -0.075207867 0.56949151
-0.29478592 -0.07482022 0.56683272
-0.28548661 -0.0744844 0.56309813
-0.27712393 -0.071475871 0.5618543
-0.30110186 -0.068708941 0.56996417
-0.29399246 -0.065885551 0.56919044
-0.28475878 -0.065368563 0.56679857
-0.27504021 -0.065179631 0.56414998
-0.26768309 -0.06258747 0.56219709
-0.29146752 -0.057635546 0.56985402
-0.28477445 -0.055318985 0.56869727
-0.27481669 -0.054856308 0.56613678
-0.26526096 -0.054297719 0.56281966
-0.25905055 -0.050808039 0.56096721
-0.28261745 -0.045831498 0.56959105
-0.27492085 -0.044785026 0.56672257
-0.26472604 -0.044438861 0.56370515
-0.25611052 -0.043576453 0.56204456
-0.24954297 -0.041302286 0.56096804
-0.28029466 -0.03899039 0.56996638
-0.27421528 -0.036553793 0.5690667
-0.26501867 -0.034486379 0.5675953
-0.25499997 -0.035566323 0.56466007
-0.2461679 -0.034518942 0.56250173
-0.23780444 -0.031391755 0.56156904
-0.26212662 -0.026063731 0.56973708
-0.25505739 -0.025425429 0.56816334
-0.24519788 -0.025532184 0.56585252
-0.23528968 -0.025004271 0.56302065
-0.25401962 -0.016110575 0.56942022
-0.24529855 -0.015192837 0.56781912
-0.23533046 -0.01524239 0.56414461
-0.22856385 -0.011589329 0.56213689
-0.24219255 -0.0058039194 0.56983638
-0.23472464 -0.0047579785 0.56784505
-0.22514749 -0.0045521487 0.56402779
-0.21825199 -0.0020011154 0.56184614
-0.24211383 0.0048431573 0.56988674
-0.23478797 0.004736424 0.56799471
-0.2250265 0.0056684744 0.56583214
-0.21694435 0.0056143403 0.5626266
-0.2401673 0.01004466 0.56997031
-0.23388664 0.011909226 0.56933916
-0.22512066 0.015086925 0.56788564
-0.21506888 0.015260234 0.56397194
-0.20785798 0.017705483 0.56163901
-0.22259577 0.022404181 0.56937164
-0.21483289 0.02487934 0.56756192
-0.20518839 0.024882693 0.5642978
-0.19600213 0.026992792 0.56242335
-0.1895712 0.028895015 0.56097382
-0.21181962 0.032315873 0.5696727
-0.2046041 0.035195369 0.56818748
-0.19468179 0.035159208 0.56464875
-0.18738887 0.035337936 0.56181622
-0.21044348 0.044591941 0.56997317
-0.20466958 0.044999309 0.56864911
-0.1947469 0.045338564 0.56537873
-0.18515351 0.045375671 0.56321269
-0.17641358 0.04721795 0.56187993
-0.20372438 0.054176886 0.56934428
-0.19520891 0.055049639 0.56672454
-0.18481083 0.055096623 0.56481588
-0.17478494 0.055401117 0.56280887
-0.16872688 0.058509924 0.56097603
-0.20208658 0.064045385 0.56976002
-0.19505973 0.064746603 0.56752229
-0.18509047 0.064521141 0.56526428
-0.1751447 0.06507656 0.56397569
-0.16610216 0.06611681 0.56228673
-0.19311911 0.071737513 0.56953061
-0.18402478 0.07416378 0.56891513
-0.17476931 0.074948713 0.56713891
-0.16502228 0.074860737 0.56405175
-0.15836789 0.075381242 0.5616135
-0.1807193 0.082854286 0.56997615
-0.17465553 0.084968731 0.56800365
-0.16478401 0.084886469 0.563739
-0.15868367 0.083863027 0.56112033
-0.17369393 0.092803329 0.5694769
-0.16481058 0.094824433 0.56667447
-0.15828858 0.093882166 0.5633111
-0.16497013 0.1005968 0.56947762
-0.31800628 -0.081481308 0.57096279
-0.31502241 -0.073989898 0.57111472
-0.30758488 -0.071061872 0.57096374
-0.320232 -0.060315754 0.57496339
-0.31485555 -0.064463109 0.57280439
-0.30490839 -0.064362064 0.57159209
-0.29780164 -0.062875316 0.57096452
-0.32140982 -0.054163057 0.5781635
-0.31518644 -0.054675892 0.5763486
-0.30503649 -0.05502522 0.57385015
-0.29593635 -0.05497608 0.57155859
-0.28971934 -0.050967019 0.57096541
-0.31385252 -0.04715272 0.57901978
-0.30500564 -0.045672208 0.57647765
-0.29505163 -0.045131616 0.57391655
-0.28700525 -0.044342835 0.57148963
-0.30431518 -0.035238147 0.57882226
-0.294797 -0.034641739 0.57575506
-0.28529435 -0.034663506 0.57344115
-0.27607763 -0.032199256 0.57159835
-0.26887649 -0.030128136 0.57096732
-0.30374894 -0.025299255 0.57978696
-0.29523456 -0.025390247 0.57781887
-0.28538921 -0.025123443 0.57574433
-0.27519667 -0.025016285 0.57327276
-0.26672938 -0.024254214 0.57135886
-0.30093575 -0.015328279 0.57996601
-0.29464582 -0.015420604 0.57770926
-0.28528598 -0.015364259 0.57553828
-0.275379 -0.015313275 0.57365769
-0.26543328 -0.015159592 0.57182848
-0.25784877 -0.012904925 0.57103997
-0.30033028 -0.0086751096 0.57996631
-0.29408845 -0.0052581746 0.57865423
-0.28507307 -0.0048649064 0.57684821
-0.27496237 -0.0050514508 0.57519001
-0.26493946 -0.0047382461 0.57399154
-0.25527474 -0.0048350235 0.57292235
-0.24644919 -0.0042309761 0.57143611
-0.29201281 0.0011527293 0.57996702
