# .PCD v0.7 - Point Cloud Data file format
VERSION 0.7
FIELDS x y z
SIZE 4 4 4
TYPE F F F
COUNT 1 1 1
WIDTH 1
HEIGHT 625
VIEWPOINT 0 0 0 1 0 0 0
POINTS 625
DATA ascii
0.0085706813 -0.082250908 0.44705883
-0.002271384 -0.1711785 0.45908758
0.0046568289 -0.17179768 0.45965129
-0.011777786 -0.16316842 0.45786476
-0.0051536215 -0.16452679 0.45638782
0.005291095 -0.16539718 0.4580057
0.011392528 -0.16337764 0.45919666
-0.012709842 -0.15470119 0.45713347
-0.0059365463 -0.15457496 0.45382661
0.0044441312 -0.15531451 0.45595336
0.013924575 -0.15447682 0.45863253
-0.012866204 -0.14472702 0.45698276
-0.005788967 -0.14504446 0.45350641
0.004731352 -0.14510058 0.45459163
0.014889449 -0.14490791 0.45788032
-0.012001826 -0.13532753 0.45751065
-0.0055936021 -0.13489874 0.4536137
0.0049357051 -0.13507195 0.45321751
0.015424151 -0.13579294 0.45700952
0.021294951 -0.1347843 0.45953479
-0.012178157 -0.12476885 0.4571971
-0.0052114855 -0.12510952 0.45251173
0.0036019087 -0.12493859 0.45109224
0.014959905 -0.12504962 0.45576248
0.0220415 -0.12419465 0.45917526
-0.013550445 -0.11470646 0.45622814
-0.0052070534 -0.11498315 0.45191082
0.0040962421 -0.11475852 0.45095575
0.014592041 -0.11531812 0.45555398
0.020970821 -0.114517 0.459562
-0.014065474 -0.10504188 0.45627004
-0.005333689 -0.10494252 0.4522168
0.0044448869 -0.10489021 0.45219824
0.01462139 -0.10558737 0.4571597
-0.01326674 -0.095467329 0.45719051
-0.0050653769 -0.094996706 0.45353609
0.0044934764 -0.094458818 0.4531405
0.014229557 -0.096108735 0.45664588
-0.012189184 -0.085561007 0.45842922
-0.0051343939 -0.084908135 0.45568496
0.0045620049 -0.085010231 0.4531132
0.013596982 -0.087305769 0.45222992
-0.011994579 -0.075598955 0.4592689
-0.0051906561 -0.074958064 0.45689696
0.00202971 -0.075968184 0.45411906
-0.010368288 -0.066881672 0.45951807
-0.005587189 -0.065648071 0.45792237
0.00090041757 -0.068469785 0.45537931
-0.012150186 -0.053287491 0.45856592
-0.0082387943 -0.055287626 0.4568826
-0.01219773 -0.04823935 0.45852631
-0.0075341165 -0.048937213 0.45687845
-0.01182504 -0.17398845 0.46718881
-0.0059093204 -0.1760339 0.46320096
0.0063229031 -0.17644809 0.46158585
-0.014479584 -0.16508482 0.46514043
-0.0096995234 -0.16983093 0.4605864
0.0098572671 -0.16983648 0.46001336
0.016692532 -0.16536514 0.46090195
-0.016861761 -0.15523773 0.46526009
0.018815011 -0.15475054 0.46004683
-0.016166352 -0.14508298 0.46460575
0.024098499 -0.14544541 0.46169996
-0.014606099 -0.13492367 0.46447909
0.027333329 -0.13627484 0.46239138
-0.015156706 -0.12494896 0.46452606
0.026944462 -0.12606458 0.46169969
-0.01616665 -0.11520945 0.46434894
0.025994128 -0.11546756 0.46270147
0.03399045 -0.11547001 0.46743706
-0.016263407 -0.10488287 0.46448067
0.024491787 -0.1062456 0.4626838
0.035195697 -0.10814994 0.4677819
-0.01558143 -0.094658121 0.46434599
-0.020806812 -0.080647111 0.46868867
-0.016768152 -0.084788114 0.46388018
-0.021712605 -0.074077807 0.46739897
-0.017106647 -0.074840456 0.46230653
-0.023149341 -0.064617053 0.46732455
-0.01509222 -0.065244421 0.46246704
-0.0095341504 -0.062601238 0.46052918
-0.030735612 -0.052183408 0.46965298
-0.024885619 -0.054694738 0.46720305
-0.016192367 -0.055455022 0.46263996
-0.024369048 -0.045124754 0.46788797
-0.015906105 -0.045663588 0.46454227
-0.0057545286 -0.046209253 0.46567267
0.0012953579 -0.047955975 0.46778843
-0.023954965 -0.039095629 0.46965748
-0.019092619 -0.15498041 0.47228578
-0.017008131 -0.14557169 0.47521004
-0.014928096 -0.13546331 0.47524577
-0.014459155 -0.12476975 0.47509104
-0.013717108 -0.11472964 0.47493505
-0.012993374 -0.10494549 0.47489992
-0.014429967 -0.0949324 0.47502002
-0.020905331 -0.081996039 0.47566181
-0.018173356 -0.086809158 0.47394675
-0.023746729 -0.075114459 0.47482142
-0.030976068 -0.062226348 0.47699267
-0.027633861 -0.066245668 0.4738611
-0.033934969 -0.054464299 0.4748584
-0.029440364 -0.058914617 0.47107568
0.017258802 -0.050669372 0.47644851
0.020798981 -0.050371081 0.47851369
-0.040431548 -0.046391182 0.47924811
-0.035272349 -0.045021497 0.47455901
-0.029194806 -0.043558516 0.47056118
-0.01338354 -0.041432869 0.47275051
-0.0056779599 -0.043207698 0.47522539
0.0045195497 -0.046956439 0.4748123
0.014487818 -0.049114641 0.47841701
-0.041668463 -0.035219599 0.47921133
-0.035132989 -0.035181567 0.47568694
-0.026078383 -0.036093131 0.47371164
-0.015901068 -0.038502861 0.4767077
-0.041798629 -0.029070962 0.47939906
-0.036799069 -0.028802438 0.4786801
-0.021489378 -0.082732216 0.48645851
-0.018573409 -0.087617144 0.48457378
-0.024870591 -0.075841144 0.48535323
-0.033668995 -0.063725568 0.48530805
-0.02895347 -0.069151238 0.48476401
-0.043094214 -0.053487953 0.48637003
-0.037692048 -0.057010055 0.48299572
-0.053302918 -0.043309048 0.48737103
-0.045225017 -0.044899102 0.48300543
-0.0027578883 -0.04118485 0.48540813
0.0051402948 -0.044229057 0.48523772
0.015343999 -0.046565413 0.48542133
-0.062354635 -0.033128593 0.48866311
-0.055066366 -0.034976732 0.48535496
-0.046436191 -0.034611773 0.48161548
-0.023767928 -0.031641103 0.4828051
-0.015275068 -0.034911599 0.48514041
-0.0084543107 -0.038345806 0.48535419
-0.061401866 -0.026961377 0.48891228
-0.05496835 -0.024902087 0.48652858
-0.045340542 -0.024688032 0.48424134
-0.035081588 -0.025545847 0.48477679
-0.026679117 -0.028102208 0.48679671
-0.050600648 -0.019836053 0.48991874
-0.04666407 -0.019722998 0.4896678
-0.04269667 -0.063719049 0.49768186
-0.036672562 -0.066530228 0.49439698
-0.052475911 -0.052691262 0.49608606
-0.046804525 -0.056093723 0.4933323
-0.062224161 -0.042009685 0.49612153
-0.056952778 -0.046218593 0.49390715
-0.072276123 -0.032242276 0.49781868
-0.066230297 -0.035101041 0.49377286
-0.013090312 -0.031662431 0.49370369
-0.072708488 -0.025300102 0.49678436
-0.065876834 -0.024372838 0.49244457
-0.058023166 -0.020285398 0.49088535
-0.040879488 -0.020122424 0.49138311
-0.034363247 -0.021574149 0.49385312
-0.024989819 -0.025110861 0.49531904
-0.016047368 -0.028656945 0.49647444
-0.070153713 -0.019871846 0.49895337
-0.064513676 -0.018392077 0.49681583
-0.05539009 -0.017366081 0.49489823
-0.045616198 -0.017669093 0.49491635
-0.03682759 -0.019113105 0.49738419
-0.049137592 -0.058781907 0.50084388
-0.073696546 -0.042152286 0.50819629
-0.065119684 -0.045005161 0.50489891
-0.059913427 -0.048969284 0.50273168
-0.083492652 -0.034146871 0.50757301
-0.076000996 -0.035275202 0.50388408
-0.068712361 -0.038254675 0.50054628
-0.082161553 -0.028324641 0.50777787
-0.076311618 -0.024298418 0.50443375
-0.023582941 -0.021856228 0.50243068
-0.071371034 -0.018930174 0.505723
-0.065254584 -0.016218776 0.50462705
-0.055080343 -0.013519236 0.50493455
-0.045186333 -0.01373811 0.50504321
-0.034960922 -0.016097253 0.50531989
-0.10423474 -0.042444676 0.51877052
-0.094915576 -0.044513274 0.51673239
-0.085231185 -0.045044292 0.51420557
-0.11078081 -0.038368881 0.51993442
-0.10421926 -0.035782583 0.51796114
-0.094851747 -0.034571446 0.51472002
-0.088012472 -0.034059908 0.51143444
-0.092020221 -0.029449243 0.51828521
-0.083943322 -0.026834041 0.51513892
-0.078006424 -0.022020474 0.51470762
-0.073655874 -0.017304774 0.51590323
-0.065350115 -0.013371408 0.51515049
-0.056025181 -0.011259983 0.51271713
-0.10646111 -0.031968053 0.52140045
-0.097846612 -0.03034202 0.52061129
0.0032518567 -0.16085672 0.4497312
-0.0017902489 -0.15321453 0.44862571
0.0044673011 -0.15485816 0.44821191
0.011460049 -0.15381552 0.44934037
-0.0043917969 -0.14428748 0.44703129
0.0042979061 -0.14503331 0.44526708
0.012044785 -0.14511479 0.44836912
-0.0042910222 -0.13512881 0.44732693
0.0045697079 -0.13508752 0.4448286
0.01402822 -0.13464881 0.44785687
-0.0032954316 -0.12517609 0.44741973
0.0048216931 -0.12494154 0.44486773
0.014239861 -0.12459367 0.44710565
-0.0026538044 -0.11625598 0.4486475
0.0046901898 -0.11493678 0.44687635
0.013342976 -0.11455491 0.44767722
0.006088689 -0.10593543 0.44878495
0.012327038 -0.10561138 0.44902262
0.011485741 -0.099671103 0.44981566
-0.0026228328 -0.17251194 0.45800212
0.0045823795 -0.17425153 0.45657235
0.014519319 -0.17517638 0.45802161
-0.00439286 -0.16480874 0.45491344
0.0046173679 -0.16530088 0.45154947
0.014632671 -0.16520964 0.45452368
-0.0059435177 -0.1554316 0.45432258
0.0085618049 -0.15891872 0.45032719
0.015865013 -0.15575655 0.45253909
0.024097003 -0.15521398 0.45771483
-0.010912146 -0.14369534 0.4556033
-0.0087488648 -0.14623043 0.45166114
0.017159721 -0.14521213 0.45185626
0.024929112 -0.14486839 0.45700109
0.031818196 -0.14281195 0.45993441
-0.010706922 -0.1351364 0.45607504
-0.0089240493 -0.13421547 0.45116666
0.018932212 -0.1369119 0.45115939
0.024909046 -0.13469991 0.45445016
0.030963399 -0.13550188 0.45859662
-0.010047466 -0.1273616 0.45944527
-0.0085133323 -0.12486068 0.45385477
0.019363333 -0.1255018 0.45057324
0.024458529 -0.12537374 0.45496893
0.030649289 -0.12959662 0.45974514
-0.0069960868 -0.11435957 0.45364293
0.018753011 -0.11479367 0.45081002
0.02474899 -0.11469216 0.45546314
0.030682787 -0.11716267 0.45981315
-0.0048593669 -0.10513297 0.45437065
0.0026350729 -0.10296431 0.45103884
0.017314378 -0.10458753 0.45210928
0.023273133 -0.10593459 0.45689857
-0.0048930696 -0.095046863 0.45631617
0.0049736672 -0.094995327 0.45248345
0.014461609 -0.094686151 0.45252863
0.022495952 -0.095012508 0.45795619
-0.0103528 -0.082595587 0.45907974
-0.005389798 -0.085120589 0.45631829
0.0048426767 -0.085094042 0.45452189
0.014086245 -0.085464336 0.45600528
0.021232478 -0.088328496 0.45900574
-0.011178802 -0.075189702 0.45907563
-0.0050807246 -0.074954577 0.45690003
0.0046202415 -0.074895374 0.45623994
0.011614542 -0.077542573 0.45844197
-0.011186485 -0.068910129 0.45973191
-0.0049046101 -0.065561973 0.45847854
0.0032019981 -0.066952981 0.45795012
-0.0086819241 -0.16451645 0.46311072
-0.010983816 -0.15463798 0.46669495
-0.0091149285 -0.1572618 0.46302333
-0.012005551 -0.1451337 0.4651185
-0.011331302 -0.13489962 0.46539351
-0.010361736 -0.12638432 0.46597254
-0.0097515136 -0.12380692 0.46335208
-0.010188888 -0.11847284 0.4680438
-0.0095334491 -0.1145606 0.46447188
0.035812732 -0.11477184 0.4647837
-0.010481993 -0.10229704 0.46727166
-0.0093659917 -0.10550352 0.46380904
0.028249959 -0.10500718 0.46204951
0.034945346 -0.10499812 0.46751216
-0.010427219 -0.095099576 0.46566173
-0.0096682012 -0.095109358 0.46103311
0.027469274 -0.094470911 0.46209064
0.034665935 -0.094512798 0.46710363
-0.012004765 -0.08452183 0.46458429
-0.0097920746 -0.089157537 0.46058196
0.018546494 -0.082064584 0.46103761
0.025387563 -0.084500089 0.46483883
0.032429479 -0.087380931 0.4683587
-0.014661913 -0.074445195 0.46377811
0.015904503 -0.074636228 0.46377501
0.021827016 -0.077119574 0.46763405
-0.021271508 -0.062981375 0.46724555
-0.015407 -0.06502939 0.46265939
-0.0066641984 -0.061434772 0.4604772
0.0055979453 -0.062985696 0.46212131
0.013146562 -0.065825596 0.46665472
-0.030355558 -0.050555155 0.46960089
-0.023832388 -0.054330673 0.46626961
-0.015068999 -0.055261169 0.46293524
-0.005222281 -0.054870542 0.46310651
0.00430799 -0.05552838 0.46584827
0.011374492 -0.058211625 0.46928504
-0.031863421 -0.046041816 0.469055
-0.024843654 -0.04501164 0.46722758
-0.015309398 -0.045302108 0.46658278
-0.0056770584 -0.047352102 0.4673599
0.0017365515 -0.048636794 0.46869966
-0.023845524 -0.038730938 0.46941388
-0.017401671 -0.039635453 0.46937799
-0.013135499 -0.12466755 0.47565457
-0.011635447 -0.11561308 0.47675058
-0.0098260129 -0.11269926 0.47162801
-0.011818987 -0.10477358 0.47539473
-0.0097319707 -0.10821272 0.47119555
-0.011086651 -0.095674209 0.47511813
-0.013353991 -0.085338347 0.47501853
0.029155508 -0.080143347 0.47118554
-0.020212218 -0.071298331 0.47929072
-0.017322239 -0.07503701 0.47488943
0.026005276 -0.074326292 0.47349083
-0.022881022 -0.064789705 0.47482213
-0.01961568 -0.069747582 0.47245389
0.017662477 -0.063759282 0.47229397
0.024573235 -0.065830559 0.47709814
-0.032442816 -0.052291974 0.47480237
-0.02748106 -0.057079919 0.4739998
0.0082089938 -0.051838391 0.47051316
0.015205117 -0.054728445 0.47472709
0.021450803 -0.058391262 0.47802624
-0.042944834 -0.042496681 0.47688815
-0.036120802 -0.044277638 0.47277987
-0.011526977 -0.040945802 0.47078228
-0.0044665388 -0.042822998 0.47324991
0.0049501215 -0.046110671 0.47473738
0.011925591 -0.04825395 0.47747856
-0.0438051 -0.035089772 0.47758749
-0.035063129 -0.035073571 0.47388706
-0.025722457 -0.034176394 0.47242698
-0.015288697 -0.036059719 0.47435525
-0.0072321394 -0.037979022 0.47783199
-0.043025661 -0.028346153 0.47899464
-0.035417594 -0.027896462 0.47787222
-0.027514767 -0.028904235 0.47782525
-0.021594228 -0.072880052 0.48653272
-0.018398982 -0.076810986 0.48388746
-0.025295628 -0.06477575 0.48493317
-0.041114233 -0.050328888 0.48810321
-0.034281958 -0.054534096 0.48527578
-0.028608894 -0.058875579 0.48235026
0.01814089 -0.050642002 0.48064598
-0.052742533 -0.041869741 0.48693541
-0.045541212 -0.045283698 0.48448119
-0.039433822 -0.048797 0.48251688
-0.00099749863 -0.040541902 0.4802959
0.0057918513 -0.041984692 0.48345819
0.015106359 -0.044785619 0.48542106
-0.063084632 -0.033709887 0.48792711
-0.054881938 -0.034853611 0.48461097
-0.048675369 -0.034959711 0.48099717
-0.014491194 -0.031286906 0.48379984
-0.0045920177 -0.034729861 0.48542407
0.0038023097 -0.037769541 0.48792356
-0.062819786 -0.0266144 0.48866647
-0.054933872 -0.025178915 0.48626676
-0.045603365 -0.024308316 0.48381355
-0.035303295 -0.023248794 0.48512194
-0.025148502 -0.02675412 0.48435473
-0.016578084 -0.028794967 0.48768324
-0.051893901 -0.019672057 0.48880339
-0.048108965 -0.019775916 0.488985
-0.051099353 -0.050360743 0.49934977
-0.044004835 -0.052465316 0.49609977
-0.035855044 -0.056479666 0.49378771
-0.063762069 -0.041784339 0.49686834
-0.055126566 -0.045172803 0.49445936
-0.047649875 -0.048344202 0.49227777
-0.073143207 -0.034097232 0.49678525
-0.066993967 -0.036104973 0.49273533
-0.0038771064 -0.031046052 0.49189839
-0.072452694 -0.02696367 0.49605584
-0.066195622 -0.023629867 0.49303839
-0.058299966 -0.020653334 0.49050057
-0.033846904 -0.020600777 0.49151841
-0.024444163 -0.022419672 0.49381259
-0.014729242 -0.02571311 0.49536869
-0.062518448 -0.019257488 0.49755251
-0.05509622 -0.018285315 0.49482593
-0.044848565 -0.01793972 0.49467719
-0.035255563 -0.018422676 0.4959501
-0.026809029 -0.01909413 0.4986372
-0.074036881 -0.043174744 0.50678408
-0.065840289 -0.046274472 0.50476491
-0.057276547 -0.048410278 0.50216538
-0.082198143 -0.0340528 0.50717574
-0.077625759 -0.035614677 0.50281715
-0.080869816 -0.029056828 0.50869006
-0.075151734 -0.025139742 0.50465769
-0.068673953 -0.020803463 0.50184929
-0.070850387 -0.019850165 0.50809288
-0.064621791 -0.018010946 0.50545877
-0.05512682 -0.015486261 0.50510323
-0.045008026 -0.014565763 0.50522429
-0.034652144 -0.014323487 0.50568348
-0.10455871 -0.044035256 0.5175671
-0.11009085 -0.038902484 0.51911354
-0.10434755 -0.03666839 0.51698965
-0.095092006 -0.034693889 0.51515383
-0.086979061 -0.034925967 0.51170236
-0.091894306 -0.028530819 0.5180366
-0.084565833 -0.026178543 0.51593858
-0.076808929 -0.022696961 0.51438582
-0.0014091916 -0.1523644 0.43987831
0.0038989484 -0.15239906 0.43947855
-0.0029192206 -0.14445981 0.4393298
0.0050081448 -0.14489812 0.43803287
0.011498905 -0.1437697 0.43931267
-0.003637728 -0.13534617 0.43920514
0.0049933079 -0.13504222 0.43800381
0.012673643 -0.13458237 0.43881756
-0.0019931067 -0.12752466 0.43986803
0.0050024712 -0.12500367 0.4388563
0.012459108 -0.12614141 0.43944877
0.0062221298 -0.11861702 0.43997988
0.010753114 -0.1195925 0.43998012
-0.0042527979 -0.1701255 0.44922757
0.0010202243 -0.17022067 0.44947785
-0.010895705 -0.16284254 0.44787747
-0.0046907295 -0.16407299 0.44385779
0.0041529713 -0.16385636 0.44575873
0.01099361 -0.16102555 0.44997874
-0.012100738 -0.15481086 0.44704908
-0.0058142426 -0.15522002 0.44210914
0.0057226014 -0.15698473 0.44209623
0.012906265 -0.15383737 0.44656244
-0.011328761 -0.14641204 0.44688705
-0.0072498117 -0.14576803 0.44235751
0.015431965 -0.14482494 0.44503355
-0.010061215 -0.13543922 0.44731176
-0.0077701914 -0.13401318 0.44214526
0.017374238 -0.13526537 0.44401708
0.02035903 -0.13331039 0.44948021
-0.0054107034 -0.12427173 0.44277903
0.016638551 -0.124202 0.44307545
0.021189066 -0.12443249 0.44871736
-0.0044404063 -0.11515173 0.44500881
0.0045196731 -0.11402544 0.44134507
0.014881165 -0.11494622 0.44305193
0.02081956 -0.11535023 0.44829333
-0.0041635893 -0.10480957 0.44573787
0.0051495717 -0.10521837 0.44275236
0.014925333 -0.10499535 0.4443697
0.020327751 -0.10500598 0.44873118
-0.0047678724 -0.094784401 0.44684166
0.0050666314 -0.095249355 0.44415367
0.014834423 -0.095094681 0.44692576
0.020376021 -0.097630337 0.44978142
-0.010116398 -0.085353509 0.44998008
-0.0047550625 -0.085116901 0.4479661
0.0050879195 -0.085147962 0.44584492
0.01382836 -0.085366219 0.44834885
-0.0034398118 -0.07580816 0.44933501
0.0049185259 -0.075300507 0.44816312
0.011764455 -0.077793725 0.44923162
-0.0013160493 -0.069516435 0.44998115
0.002790076 -0.069516823 0.44998139
-0.011632293 -0.17299922 0.45786592
-0.0055885445 -0.17229965 0.45247746
-0.014257872 -0.16518009 0.45545864
-0.0089711212 -0.16961201 0.45097733
0.0080136033 -0.16791175 0.45272836
-0.016413454 -0.15469749 0.45528507
-0.01457573 -0.14618799 0.45538956
0.018851308 -0.14730799 0.45197964
0.024627706 -0.13436127 0.4563219
-0.010353395 -0.12479342 0.45372874
0.026154028 -0.12490705 0.45526347
-0.010662877 -0.114817 0.45519334
-0.0089657903 -0.1136446 0.45097917
0.02473034 -0.11530871 0.45537576
-0.010727898 -0.10547472 0.45710438
-0.0089738052 -0.10504662 0.45142397
0.023549352 -0.10500135 0.45498142
-0.011135988 -0.094942361 0.4547444
-0.0089643449 -0.098476961 0.45097974
0.019255184 -0.091424935 0.45098156
0.023647059 -0.094950154 0.45559531
-0.012335383 -0.084081896 0.452355
-0.0089626089 -0.080252275 0.45098037
0.018295875 -0.083991565 0.45212466
0.021910377 -0.085101262 0.4563612
-0.013704282 -0.074693009 0.45465305
-0.007620119 -0.073660694 0.45107588
0.0089744478 -0.071180925 0.45123172
0.015795123 -0.074705027 0.45478529
0.021117073 -0.078472465 0.45948213
-0.021516737 -0.06262017 0.45964691
-0.014852288 -0.065077335 0.45527381
-0.0049599474 -0.064987987 0.45208097
0.0052361689 -0.0650497 0.45391494
0.013334839 -0.066395596 0.4578768
-0.021555243 -0.056089044 0.45970771
-0.014982785 -0.055029858 0.45689335
-0.0048857168 -0.054849111 0.45492601
0.0035881645 -0.056284536 0.45750269
0.010048516 -0.059069976 0.45998213
-0.013405912 -0.047981277 0.45967686
-0.0064123515 -0.048537944 0.45944822
-0.018831942 -0.15212943 0.46217737
-0.017099932 -0.14599191 0.46613762
-0.014498584 -0.13690285 0.46617809
-0.013764599 -0.12289009 0.46597862
-0.013535136 -0.11478017 0.46482509
-0.013483158 -0.10490388 0.46652469
-0.015175371 -0.097534448 0.46714607
0.028425133 -0.094148509 0.4646903
-0.018375061 -0.080490977 0.46597981
0.027198384 -0.084787205 0.46603489
-0.021893784 -0.073637761 0.46647978
-0.018405681 -0.076806784 0.46297994
0.019705445 -0.070692897 0.46148229
0.023492208 -0.075539909 0.46635735
-0.024170317 -0.065250143 0.46446148
0.016354056 -0.063905671 0.46438858
0.02175178 -0.067973919 0.4680936
-0.032074224 -0.052266736 0.46797994
-0.025949042 -0.054493513 0.46338454
0.006734875 -0.052482005 0.46336681
0.012446136 -0.056001112 0.46615371
-0.041194923 -0.041969538 0.46997985
-0.03514754 -0.044446185 0.46758357
-0.025030669 -0.044920109 0.46432686
-0.015323936 -0.04353857 0.46217737
-0.004655119 -0.044104841 0.464196
0.0029468331 -0.047802642 0.46618211
-0.041194573 -0.038293578 0.46997991
-0.034629006 -0.035534114 0.46901232
-0.024616048 -0.035114147 0.46762717
-0.015204398 -0.036282022 0.46624824
-0.0069979029 -0.037992802 0.4680407
-0.031391192 -0.029717276 0.46998081
-0.027102575 -0.029717684 0.46998104
-0.017961305 -0.096726768 0.47597927
-0.022269525 -0.082180053 0.47647959
-0.019224629 -0.083988421 0.47197965
-0.030811707 -0.0703943 0.47997943
-0.026233511 -0.075028457 0.47531286
-0.031066688 -0.064464755 0.47840819
-0.028329574 -0.067981519 0.47331297
0.018627105 -0.061566241 0.47223252
-0.041736029 -0.051265597 0.47897944
-0.035493981 -0.054483633 0.47489634
0.016609672 -0.053977843 0.4750382
-0.051177662 -0.040720049 0.47931263
-0.044386148 -0.044506442 0.47550896
-0.038473058 -0.049087342 0.4716464
-0.00076088012 -0.040834781 0.47098213
0.0047940598 -0.044455081 0.47523952
0.011668837 -0.048698835 0.47708255
-0.054130025 -0.033816624 0.47697943
-0.04506705 -0.034925971 0.47267634
-0.037843388 -0.031499006 0.47098035
-0.014042417 -0.031927362 0.47437298
-0.0045167459 -0.035257213 0.47521898
0.0010987773 -0.038001835 0.47785735
-0.05408236 -0.026443873 0.47859076
-0.044728644 -0.025765169 0.47644785
-0.034973934 -0.025469827 0.4749808
-0.025130752 -0.025928739 0.47505826
-0.018183511 -0.028358484 0.4771634
-0.033528034 -0.07448408 0.48701617
-0.028696483 -0.078183405 0.48297933
-0.04031248 -0.060239777 0.48897925
-0.034801453 -0.064879701 0.48618627
-0.04424927 -0.054586403 0.48653474
-0.03758426 -0.058039002 0.48337945
-0.060708325 -0.041115019 0.48897874
-0.054335605 -0.043722041 0.48651478
-0.047779109 -0.047316715 0.48361561
-0.064293228 -0.034269046 0.48617396
-0.05801475 -0.037552752 0.48247901
-0.011446375 -0.030446522 0.48148191
-0.0044850716 -0.031403977 0.48374698
-0.071050964 -0.028423525 0.48997855
-0.0647875 -0.025252525 0.48532513
-0.056454692 -0.022593003 0.48197967
-0.045789242 -0.020523688 0.48109138
-0.035333458 -0.020423034 0.48198086
-0.02401997 -0.021432962 0.48354402
-0.015532622 -0.025386145 0.4857069
-0.0063848356 -0.028836949 0.48824891
-0.061281607 -0.019422553 0.48847944
-0.054603484 -0.018187324 0.48597988
-0.04543563 -0.018134227 0.48519772
-0.035074018 -0.018735571 0.48716843
-0.026105396 -0.019054471 0.48789051
-0.061538856 -0.0519481 0.499145
-0.054539576 -0.053996507 0.49674788
-0.047995377 -0.056770422 0.49341646
-0.071127608 -0.041346658 0.4994781
-0.064567186 -0.04466049 0.496025
-0.056650922 -0.047403984 0.49247873
-0.074470319 -0.034295011 0.49658337
-0.067919359 -0.037578437 0.49272844
-0.073948324 -0.025781639 0.4950695
-0.068739414 -0.021793215 0.49172893
-0.013220547 -0.022265801 0.49311545
-0.070911944 -0.019799586 0.49797887
-0.064614877 -0.018144161 0.4957687
-0.054729622 -0.015092295 0.4951466
-0.045323949 -0.015116116 0.49466476
-0.035096165 -0.015839387 0.49602446
-0.024706511 -0.016637458 0.4956899
-0.10216837 -0.040754076 0.50954783
-0.095893107 -0.040562313 0.50927675
-0.067927428 -0.048049346 0.50147814
-0.1019155 -0.038010448 0.50935149
-0.094216913 -0.035573889 0.50810862
-0.084962711 -0.03465423 0.50473762
-0.077785335 -0.038457099 0.50270516
-0.091236204 -0.029582277 0.5099774
-0.084246486 -0.026061898 0.50700563
-0.078308947 -0.022905191 0.50319266
-0.080598369 -0.018946471 0.50997841
-0.07431864 -0.017912354 0.50592309
-0.064951733 -0.014892364 0.50567949
-0.05534919 -0.0119379 0.50604665
-0.10506894 -0.035041697 0.51525766
-0.097975843 -0.032183621 0.51297688
