# .PCD v0.7 - Point Cloud Data file format
VERSION 0.7
FIELDS x y z
SIZE 4 4 4
TYPE F F F
COUNT 1 1 1
WIDTH 1365
HEIGHT 1
VIEWPOINT 0 0 0 1 0 0 0
POINTS 1365
DATA ascii
0.032163162 0.043232337 0.50607121
0.033482339 0.04323208 0.50607115
0.034732595 0.043146275 0.50507098
0.036049161 0.043146022 0.50507087
0.037365727 0.043145765 0.50507081
0.038605552 0.043059967 0.5040707
0.039919514 0.043059714 0.50407064
0.041233476 0.043059461 0.50407052
0.042462882 0.042973664 0.50307041
0.043774232 0.042973407 0.50307035
0.044995815 0.042887617 0.50207025
0.046304561 0.042887364 0.50207019
0.047518317 0.042801563 0.50107008
0.048824452 0.042801309 0.50106996
0.050030392 0.042715516 0.50006986
0.051231116 0.04262973 0.49906981
0.05253204 0.042629477 0.49906972
0.053724941 0.042543687 0.49806964
0.055023257 0.042543434 0.49806955
0.056208335 0.042457648 0.49706945
0.057504047 0.042457394 0.49706936
0.058681313 0.042371608 0.49606928
0.059853353 0.042285826 0.49506921
0.061020184 0.042200036 0.49406913
0.062308073 0.042199787 0.49406901
0.063467078 0.042114008 0.49306896
0.064752363 0.042113759 0.49306884
0.065903552 0.042027973 0.49206877
0.067186229 0.042027723 0.49206865
0.068468906 0.042027473 0.49206856
0.069751583 0.042027224 0.49206844
0.07103426 0.042026978 0.49206835
0.072316937 0.042026728 0.49206826
-0.33756042 0.053704243 0.60909885
-0.33597273 0.053703934 0.60909867
-0.33383602 0.053615358 0.60809857
-0.33225095 0.053615049 0.60809845
-0.33066583 0.053614743 0.60809833
-0.32853961 0.053526163 0.60709816
-0.32641858 0.053437587 0.60609794
-0.3248387 0.053437278 0.60609782
-0.32272553 0.053348701 0.60509771
-0.32061756 0.053260133 0.60409755
-0.31851482 0.053171556 0.60309744
-0.31641722 0.053082988 0.60209727
-0.24605739 0.051482365 0.58409196
-0.24411622 0.051393822 0.5830918
-0.2425963 0.051393524 0.58309168
-0.24066301 0.051304985 0.58209151
-0.2391457 0.051304691 0.58209139
-0.23762839 0.051304396 0.58209127
-0.23570551 0.051215861 0.58109117
-0.23419082 0.051215567 0.58109105
-0.23227575 0.051127028 0.58009094
-0.23076366 0.051126733 0.58009082
-0.22885643 0.051038202 0.57909065
-0.2269544 0.050949663 0.57809049
-0.22544751 0.050949369 0.57809037
-0.22355331 0.050860841 0.57709026
-0.22204903 0.050860547 0.57709014
-0.22016264 0.050772015 0.57608998
-0.21828149 0.050683487 0.57508987
-0.21678242 0.050683197 0.57508975
-0.21490908 0.050594669 0.57408959
-0.21341261 0.050594378 0.57408947
-0.21154711 0.05050585 0.57308936
-0.2096868 0.050417326 0.5720892
-0.20783171 0.050328799 0.57108909
-0.20634307 0.050328512 0.57108897
-0.20449582 0.050239988 0.57008886
-0.20300978 0.050239701 0.57008874
-0.20117031 0.050151173 0.56908858
-0.19968688 0.050150886 0.56908846
-0.19785523 0.050062366 0.56808835
-0.19637443 0.050062079 0.56808823
-0.19455065 0.049973559 0.56708813
-0.19307245 0.049973272 0.56708801
-0.19159424 0.049972985 0.56708789
-0.18978086 0.049884472 0.56608772
-0.18830526 0.049884185 0.5660876
-0.18682967 0.049883898 0.56608748
-0.18502668 0.049795382 0.56508732
-0.1835537 0.049795099 0.5650872
-0.1820807 0.049794812 0.56508708
-0.1802882 0.049706299 0.56408697
-0.17881781 0.049706012 0.56408685
-0.17734741 0.049705729 0.56408674
-0.17556532 0.04961722 0.56308663
-0.17409754 0.049616933 0.56308651
-0.17262977 0.04961665 0.56308639
-0.17116198 0.049616363 0.56308627
-0.16939293 0.049527854 0.56208616
-0.16792776 0.049527571 0.56208605
-0.16616653 0.049439065 0.56108594
-0.16441049 0.049350556 0.56008577
-0.16265969 0.049262054 0.55908567
-0.16120233 0.049261771 0.55908555
-0.15945935 0.049173269 0.55808544
-0.15772156 0.049084764 0.55708534
-0.15598899 0.04899627 0.55608523
-0.15426165 0.048907761 0.55508506
-0.15253952 0.048819266 0.55408496
-0.15109521 0.048818983 0.55408484
-0.14938089 0.048730485 0.55308473
-0.1476718 0.048641995 0.55208462
-0.14623269 0.048641715 0.55208451
-0.14453141 0.048553213 0.55108434
-0.14309491 0.048552934 0.55108422
-0.14165843 0.048552655 0.5510841
-0.13996756 0.048464164 0.55008399
-0.1385337 0.048463885 0.55008388
-0.1370998 0.048463609 0.55008376
-0.13566591 0.04846333 0.55008364
-0.13423203 0.04846305 0.55008352
-0.13279815 0.048462775 0.5500834
-0.13112555 0.048374284 0.54908329
-0.12969428 0.048374008 0.54908323
-0.128263 0.048373729 0.54908311
-0.12683171 0.048373453 0.54908299
-0.12517215 0.048284966 0.54808289
-0.12374349 0.048284691 0.54808277
-0.12231482 0.048284415 0.54808265
-0.12066568 0.048195932 0.54708254
-0.11923962 0.048195653 0.54708242
-0.11781356 0.048195377 0.5470823
-0.11638749 0.048195101 0.54708219
-0.11475138 0.048106611 0.54608202
-0.11332792 0.048106335 0.54608196
-0.11169966 0.048017856 0.54508185
-0.11027881 0.04801758 0.54508173
-0.10885795 0.048017304 0.54508162
-0.1072401 0.047928829 0.54408151
-0.10582186 0.047928553 0.54408139
-0.10440361 0.047928277 0.54408127
-0.10298537 0.047928002 0.54408115
-0.10156713 0.047927726 0.54408103
-0.10014889 0.04792745 0.54408091
-0.098549284 0.047838978 0.54308087
-0.097133644 0.047838703 0.54308075
-0.095718011 0.047838431 0.54308063
-0.094128847 0.047749955 0.54208052
-0.092715815 0.04774968 0.5420804
-0.09130279 0.047749408 0.54208028
-0.089724034 0.047660928 0.54108012
-0.088313609 0.047660656 0.54108
-0.086903185 0.047660384 0.54107994
-0.085334867 0.04757192 0.54007983
-0.08392705 0.047571648 0.54007971
-0.082366556 0.047483176 0.53907961
-0.080961347 0.047482904 0.53907949
-0.079408683 0.04739444 0.53807938
-0.078006081 0.047394168 0.53807926
-0.076461218 0.047305696 0.53707916
-0.075061224 0.047305424 0.53707904
-0.073524192 0.047216967 0.53607893
-0.072126806 0.047216695 0.53607881
-0.07072942 0.047216423 0.53607869
-0.069202818 0.047127962 0.53507859
-0.067681424 0.047039505 0.53407854
-0.066165254 0.046951048 0.53307843
-0.06477569 0.046950776 0.53307831
-0.06326732 0.046862315 0.53207815
-0.061764188 0.046773858 0.5310781
-0.060379837 0.04677359 0.53107798
-0.05888452 0.046685133 0.53007787
-0.057502776 0.046684865 0.53007776
-0.056121033 0.046684597 0.53007764
-0.054739285 0.046684332 0.53007752
-0.053257003 0.046595879 0.52907747
-0.051877867 0.046595614 0.52907735
-0.050498731 0.046595346 0.52907723
-0.049119595 0.046595078 0.52907711
-0.047740459 0.04659481 0.52907699
-0.046273813 0.046506356 0.52807689
-0.044897281 0.046506088 0.52807677
-0.043520752 0.04650582 0.52807665
-0.04214422 0.046505556 0.52807653
-0.040690616 0.04641711 0.52707642
-0.039316695 0.046416841 0.52707636
-0.037942771 0.046416577 0.52707624
-0.036499586 0.046328131 0.52607614
-0.035128273 0.046327863 0.52607602
-0.033692919 0.046239424 0.52507597
-0.032324214 0.046239156 0.52507585
-0.030896677 0.046150718 0.52407575
-0.02947435 0.046062272 0.52307564
-0.028110856 0.046062008 0.52307552
-0.026696356 0.045973569 0.52207541
-0.025287068 0.045885131 0.52107531
-0.023928788 0.045884866 0.52107525
-0.022527326 0.045796432 0.52007514
-0.02117165 0.045796167 0.52007502
-0.019778006 0.045707732 0.51907498
-0.018424939 0.045707468 0.51907486
-0.017071873 0.045707207 0.51907474
-0.015688654 0.045618773 0.51807457
-0.014338197 0.045618512 0.51807451
-0.012987738 0.045618247 0.51807439
-0.01163728 0.045617986 0.51807427
-0.01028682 0.045617726 0.51807415
-0.0089363605 0.045617461 0.51807404
-0.0075859022 0.0456172 0.51807398
-0.0062354435 0.04561694 0.51807386
-0.0048849848 0.045616675 0.51807374
-0.003527839 0.045528248 0.51707363
-0.0021799868 0.045527983 0.51707357
-0.00083066197 0.04543956 0.51607347
0.00051344879 0.045351136 0.51507342
0.0018560864 0.045350876 0.5150733
0.0031923756 0.045262448 0.51407313
0.0045324066 0.045262188 0.51407301
0.0058608749 0.045173768 0.51307297
0.0071841287 0.045085344 0.51207286
0.0085189454 0.045085084 0.5120728
0.009834379 0.044996668 0.5110727
0.011166588 0.044996407 0.51107258
0.012474201 0.044907987 0.51007253
0.013803802 0.04490773 0.51007241
0.015103593 0.04481931 0.5090723
0.016430587 0.044819053 0.50907218
0.017757582 0.044818796 0.50907207
0.019046944 0.044730384 0.50807202
0.020371331 0.044730127 0.5080719
0.02169572 0.04472987 0.50807178
0.022974657 0.044641454 0.50707173
0.024296438 0.0446412 0.50707161
0.025618218 0.044640943 0.5070715
0.026940001 0.044640686 0.50707138
0.0282059 0.044552278 0.50607133
0.029525073 0.044552021 0.50607121
0.030844249 0.044551767 0.50607109
0.032163419 0.04455151 0.50607103
0.033482596 0.044551253 0.50607091
0.03480177 0.044551 0.50607079
0.036120944 0.044550743 0.50607067
0.03736598 0.044462331 0.50507057
0.03868255 0.044462074 0.50507045
0.039919771 0.044373672 0.5040704
0.041233733 0.044373419 0.50407028
0.042547692 0.044373162 0.50407016
0.043774486 0.044284757 0.50307012
0.044996068 0.04419636 0.50207007
0.046304815 0.044196106 0.50206995
0.04751857 0.044107702 0.50106984
0.048824705 0.044107448 0.50106978
0.050030645 0.044019047 0.50006968
0.051334176 0.044018798 0.50006956
0.052532293 0.0439304 0.49906951
0.053833216 0.043930147 0.49906939
0.055023506 0.043841749 0.49806932
0.056208588 0.043753359 0.49706924
0.0575043 0.043753106 0.49706912
0.058681563 0.043664712 0.49606907
0.059853606 0.043576322 0.495069
0.061144102 0.043576073 0.49506891
0.062308323 0.043487675 0.4940688
0.063467324 0.043399289 0.49306872
0.064752609 0.04339904 0.49306864
0.065903798 0.04331065 0.49206853
0.067186475 0.0433104 0.49206844
0.068469152 0.043310151 0.49206835
0.069751829 0.043309901 0.49206823
0.071034506 0.043309655 0.49206814
0.072464302 0.043397542 0.49306801
0.073899329 0.043485425 0.49406788
-0.33811426 0.055382822 0.6100986
-0.33597243 0.055291634 0.60909843
-0.33438468 0.055291325 0.60909832
-0.33225065 0.055200141 0.60809815
-0.33066553 0.055199835 0.60809803
-0.32853931 0.055108648 0.60709792
-0.32641828 0.055017464 0.6060977
-0.3248384 0.055017155 0.60609758
-0.25301039 0.05318778 0.58609217
-0.25105369 0.053096626 0.58509207
-0.24952856 0.053096328 0.58509195
-0.2475796 0.053005185 0.58409184
-0.24605709 0.053004891 0.58409172
-0.24411593 0.05291374 0.5830915
-0.24259602 0.052913442 0.58309138
-0.24066272 0.052822296 0.58209127
-0.23914541 0.052822001 0.58209115
-0.2376281 0.052821707 0.58209103
-0.23570521 0.052730564 0.58109093
-0.23419052 0.05273027 0.58109081
-0.23227546 0.052639123 0.58009064
-0.23076336 0.052638829 0.58009052
-0.22885613 0.052547693 0.57909042
-0.2269541 0.052456547 0.57809025
-0.22544721 0.052456252 0.57809013
-0.22355303 0.052365117 0.57708997
-0.22166404 0.052273974 0.57608986
-0.22016236 0.052273683 0.57608974
-0.21828121 0.052182548 0.57508963
-0.21678214 0.052182257 0.57508951
-0.21490878 0.052091122 0.57408935
-0.21341231 0.052090831 0.57408923
-0.21154681 0.051999699 0.57308906
-0.2096865 0.051908568 0.57208896
-0.20783143 0.051817432 0.57108885
-0.20634279 0.051817145 0.57108873
-0.20449553 0.051726013 0.57008862
-0.2030095 0.051725727 0.57008851
-0.20117003 0.051634591 0.56908834
-0.1996866 0.051634304 0.56908822
-0.19785495 0.051543176 0.56808805
-0.19637415 0.051542889 0.56808794
-0.19455035 0.051451765 0.56708783
-0.19307216 0.051451478 0.56708771
-0.19125617 0.051360358 0.5660876
-0.18978058 0.051360071 0.56608748
-0.18830498 0.051359784 0.56608737
-0.18682939 0.051359497 0.56608725
-0.18502639 0.051268373 0.56508708
-0.18355341 0.05126809 0.56508696
-0.18208042 0.051267803 0.56508684
-0.18028791 0.051176682 0.56408674
-0.17881753 0.051176395 0.56408662
-0.17734712 0.051176112 0.5640865
-0.17587675 0.051175825 0.56408638
-0.17409725 0.051084708 0.56308627
-0.17262949 0.051084425 0.56308615
-0.1711617 0.051084138 0.56308603
-0.16969393 0.051083855 0.56308591
-0.16792747 0.050992742 0.56208581
-0.16616625 0.050901629 0.5610857
-0.1644102 0.050810512 0.56008554
-0.16295026 0.050810229 0.56008542
-0.16120204 0.05071912 0.55908531
-0.15945907 0.05062801 0.5580852
-0.15772128 0.050536901 0.5570851
-0.15626915 0.050536621 0.55708498
-0.1545392 0.050445516 0.55608487
-0.15281445 0.050354403 0.55508471
-0.15109493 0.050263297 0.5540846
-0.1496506 0.050263017 0.55408448
-0.14793891 0.050171912 0.55308437
-0.14649719 0.050171632 0.55308425
-0.14479333 0.050080534 0.55208415
-0.14335422 0.050080255 0.55208403
-0.14191513 0.050079975 0.55208391
-0.14022164 0.04998887 0.55108374
-0.13878517 0.04998859 0.55108362
-0.13734867 0.049988315 0.55108351
-0.13591217 0.049988035 0.55108339
-0.13447568 0.049987756 0.55108327
-0.13279787 0.049896661 0.55008316
-0.13136397 0.049896382 0.55008304
-0.12993009 0.049896102 0.55008298
-0.12826273 0.049805008 0.54908288
-0.12683144 0.049804732 0.54908276
-0.12540017 0.049804453 0.54908264
-0.12374321 0.049713358 0.54808253
-0.12231454 0.049713083 0.54808241
-0.12066541 0.049621996 0.5470823
-0.11923935 0.049621716 0.54708219
-0.11781328 0.04962144 0.54708207
-0.11638722 0.049621165 0.54708195
-0.1147511 0.049530067 0.54608178
-0.11332764 0.049529791 0.54608166
-0.11190419 0.049529511 0.5460816
-0.11027853 0.049438432 0.5450815
-0.10885768 0.049438156 0.54508138
-0.10743682 0.049437881 0.54508126
-0.10601597 0.049437605 0.54508114
-0.10440334 0.049346518 0.54408103
-0.1029851 0.049346242 0.54408091
-0.10156685 0.049345966 0.54408079
-0.10014861 0.049345691 0.54408067
-0.098549008 0.049254611 0.54308063
-0.097133368 0.049254335 0.54308051
-0.095717736 0.049254064 0.54308039
-0.094128571 0.049162984 0.54208028
-0.092715539 0.049162708 0.54208016
-0.091302514 0.049162436 0.54208004
-0.089723758 0.049071349 0.54107988
-0.088313334 0.049071077 0.54107976
-0.086742401 0.048980005 0.54007971
-0.085334592 0.048979733 0.54007959
-0.083926775 0.048979461 0.54007947
-0.082366288 0.048888382 0.53907937
-0.080961078 0.04888811 0.53907925
-0.079408407 0.048797037 0.53807914
-0.078005806 0.048796766 0.53807902
-0.07646095 0.04870569 0.53707892
-0.075060956 0.048705418 0.5370788
-0.073523924 0.048614349 0.53607869
-0.072126538 0.048614077 0.53607857
-0.070729151 0.048613805 0.53607845
-0.069202542 0.048522741 0.53507841
-0.067681156 0.048431676 0.5340783
-0.066288985 0.048431404 0.53407818
-0.064775422 0.048340339 0.53307807
-0.063267052 0.048249271 0.53207791
-0.061880101 0.048248999 0.53207785
-0.060379568 0.048157938 0.53107774
-0.058995221 0.04815767 0.53107762
-0.057502508 0.048066609 0.53007752
-0.056120764 0.04806634 0.5300774
-0.054739017 0.048066076 0.53007734
-0.053357273 0.048065808 0.53007722
-0.051975533 0.048065539 0.5300771
-0.050498463 0.047974482 0.52907699
-0.049119327 0.047974214 0.52907687
-0.047740191 0.047973946 0.52907676
-0.046361055 0.047973678 0.5290767
-0.044897012 0.047882617 0.52807653
-0.043520484 0.047882348 0.52807641
-0.042143952 0.047882084 0.52807629
-0.040767424 0.047881816 0.52807617
-0.039316427 0.047790762 0.52707613
-0.037942503 0.047790498 0.52707601
-0.036499321 0.047699444 0.5260759
-0.035128009 0.047699176 0.52607578
-0.033692654 0.047608133 0.52507573
-0.032323949 0.047607865 0.52507561
-0.030896412 0.047516819 0.52407551
-0.029530309 0.047516555 0.52407539
-0.028110592 0.047425501 0.52307528
-0.026696093 0.047334455 0.52207518
-0.025286805 0.047243409 0.52107513
-0.023928525 0.047243144 0.52107501
-0.022527061 0.047152106 0.5200749
-0.021171385 0.047151841 0.52007478
-0.019777743 0.047060799 0.51907474
-0.018424677 0.047060534 0.51907462
-0.017038852 0.046969492 0.51807445
-0.015688391 0.046969231 0.51807439
-0.014337935 0.04696897 0.51807427
-0.012987476 0.046968706 0.51807415
-0.011637018 0.046968445 0.51807404
-0.010286558 0.046968184 0.51807392
-0.0089360988 0.04696792 0.51807386
-0.0075856401 0.046967659 0.51807374
-0.0062351814 0.046967398 0.51807362
-0.0048847226 0.046967134 0.5180735
-0.0035275775 0.046876099 0.51707345
-0.0021797253 0.046875834 0.51707333
-0.00083040108 0.046784803 0.51607323
0.00051484368 0.046784543 0.51607317
0.0018563468 0.046693515 0.51507306
0.0031926357 0.046602476 0.5140729
0.0045326664 0.046602216 0.51407284
0.0058611343 0.046511192 0.51307273
0.0071985577 0.046510931 0.51307261
0.0085192043 0.0464199 0.51207256
0.0098346369 0.046328876 0.51107246
0.011166846 0.046328615 0.5110724
0.012499057 0.046328358 0.51107228
0.013804059 0.046237335 0.51007217
0.015133663 0.046237078 0.51007211
0.016430844 0.046146046 0.50907195
0.017757839 0.046145789 0.50907183
0.019084835 0.046145532 0.50907177
0.020371588 0.046054516 0.50807166
0.021695977 0.046054259 0.50807154
0.023020366 0.046054002 0.50807148
0.024344753 0.046053745 0.50807136
0.025618475 0.045962725 0.50707126
0.026940258 0.045962468 0.5070712
0.02826204 0.045962211 0.50707108
0.029525328 0.045871194 0.50607097
0.030844504 0.045870941 0.50607091
0.032163676 0.045870684 0.50607079
0.033482853 0.045870427 0.50607067
0.034802027 0.045870174 0.50607055
0.036121201 0.045869917 0.50607049
0.037440374 0.04586966 0.50607038
0.038759548 0.045869403 0.50607026
0.039999373 0.045778386 0.50507015
0.041315943 0.045778129 0.50507003
0.042547945 0.04568712 0.50406998
0.043861907 0.045686867 0.50406986
0.045086097 0.045595858 0.50306976
0.046305068 0.045504853 0.50206971
0.047613814 0.045504596 0.50206959
0.048824959 0.045413587 0.50106955
0.050131101 0.045413334 0.50106943
0.051334426 0.045322329 0.50006938
0.052532546 0.045231324 0.49906927
0.05383347 0.04523107 0.49906918
0.05502376 0.045140069 0.49806911
0.056322079 0.045139819 0.49806902
0.05750455 0.045048814 0.49706891
0.058681816 0.044957813 0.49606884
0.059853856 0.044866819 0.49506879
0.061144352 0.044866569 0.49506867
0.062308572 0.044775564 0.49406859
0.063596457 0.044775315 0.49406847
0.064752862 0.044684324 0.49306843
0.065904044 0.044593323 0.49206832
0.067186721 0.044593073 0.49206823
0.068469398 0.044592824 0.49206811
0.069752075 0.044592574 0.49206802
0.071179278 0.044683076 0.49306792
0.072464556 0.044682827 0.4930678
0.074049316 0.044864066 0.49506766
-0.33811396 0.05697313 0.6100983
-0.33652365 0.05697282 0.61009818
-0.33438438 0.056879025 0.60909802
-0.33279669 0.056878719 0.6090979
-0.2610935 0.054810464 0.58709252
-0.25956315 0.054810166 0.5870924
-0.2580328 0.054809868 0.58709228
-0.25606561 0.05471611 0.58609217
-0.25453788 0.054715812 0.58609205
-0.25301015 0.054715518 0.58609194
-0.25148243 0.05471522 0.58609182
-0.24952826 0.054621462 0.58509171
-0.24800313 0.054621167 0.58509159
-0.24605681 0.054527413 0.58409142
-0.24453427 0.054527115 0.58409131
-0.24259572 0.054433357 0.58309114
-0.2410758 0.054433063 0.58309102
-0.23914512 0.054339312 0.58209091
-0.2376278 0.054339018 0.5820908
-0.23570491 0.054245267 0.58109063
-0.23419023 0.054244973 0.58109051
-0.23227516 0.054151222 0.5800904
-0.23076306 0.054150928 0.58009028
-0.22885585 0.054057181 0.57909018
-0.22695382 0.053963427 0.57808995
-0.22544692 0.053963132 0.57808983
-0.22355273 0.053869393 0.57708973
-0.22204845 0.053869098 0.57708961
-0.22016206 0.053775351 0.5760895
-0.21828091 0.053681612 0.5750894
-0.21678184 0.053681321 0.57508928
-0.2149085 0.053587578 0.57408905
-0.21341203 0.053587288 0.57408893
-0.21154653 0.053493544 0.57308882
-0.20968622 0.053399805 0.57208872
-0.20819499 0.053399514 0.5720886
-0.20634249 0.053305779 0.57108849
-0.20485386 0.053305488 0.57108837
-0.20300922 0.053211752 0.57008827
-0.20116974 0.053118009 0.56908804
-0.19968632 0.053117722 0.56908792
-0.19785467 0.05302399 0.56808782
-0.19637387 0.053023703 0.5680877
-0.19455007 0.052929968 0.56708759
-0.19307187 0.052929681 0.56708747
-0.19159366 0.052929394 0.56708735
-0.18978028 0.052835669 0.56608725
-0.18830468 0.052835383 0.56608713
-0.18682909 0.052835096 0.56608701
-0.18535347 0.052834809 0.56608689
-0.18355313 0.052741081 0.56508672
-0.18208013 0.052740794 0.5650866
-0.18060715 0.052740507 0.56508648
-0.17913416 0.052740224 0.56508636
-0.17766115 0.052739937 0.56508625
-0.17587647 0.052646209 0.56408614
-0.17440608 0.052645922 0.56408602
-0.17293571 0.052645639 0.5640859
-0.17116141 0.052551918 0.56308579
-0.16969365 0.052551635 0.56308568
-0.16792719 0.05245791 0.56208557
-0.16646202 0.052457627 0.56208545
-0.16440992 0.052270468 0.5600853
-0.16294998 0.052270185 0.56008518
-0.16120176 0.052176468 0.55908507
-0.15945879 0.052082751 0.55808496
-0.15800405 0.052082468 0.55808485
-0.15626886 0.051988754 0.55708474
-0.15453891 0.051895041 0.55608463
-0.15308937 0.051894758 0.55608451
-0.15136726 0.051801041 0.55508435
-0.14992033 0.051800758 0.55508423
-0.14820603 0.051707052 0.55408412
-0.1467617 0.051706772 0.554084
-0.1450552 0.051613059 0.5530839
-0.1436135 0.051612779 0.55308378
-0.1421718 0.0516125 0.55308366
-0.14047574 0.051518794 0.55208355
-0.13903666 0.051518515 0.55208343
-0.13759755 0.051518239 0.55208331
-0.13615844 0.05151796 0.55208319
-0.13447541 0.051424246 0.55108303
-0.13303892 0.051423967 0.55108291
-0.13160244 0.051423687 0.55108279
-0.12992983 0.051329985 0.55008274
-0.12849595 0.05132971 0.55008262
-0.12706205 0.05132943 0.5500825
-0.12539989 0.051235732 0.5490824
-0.12396861 0.051235456 0.54908228
-0.12231426 0.051141754 0.54808217
-0.12088559 0.051141474 0.54808205
-0.11923907 0.05104778 0.54708195
-0.11781301 0.051047504 0.54708183
-0.11638694 0.051047228 0.54708171
-0.11496088 0.051046953 0.54708159
-0.11332737 0.05095325 0.54608142
-0.11190391 0.050952971 0.54608136
-0.11048046 0.050952695 0.54608124
-0.1088574 0.050859004 0.54508114
-0.10743655 0.050858729 0.54508102
-0.1060157 0.050858453 0.5450809
-0.10459485 0.050858177 0.54508078
-0.10298482 0.050764482 0.54408067
-0.10156658 0.050764207 0.54408056
-0.10014834 0.050763931 0.54408044
-0.09854874 0.050670248 0.54308039
-0.0971331 0.050669972 0.54308027
-0.095717467 0.0506697 0.54308015
-0.094301835 0.050669424 0.54308003
-0.092715263 0.050575733 0.54207993
-0.091133907 0.050482046 0.54107976
-0.089723483 0.05048177 0.54107964
-0.088313058 0.050481498 0.54107952
-0.086902633 0.050481226 0.54107946
-0.085334323 0.050387546 0.54007936
-0.083926506 0.050387274 0.54007924
-0.082366012 0.050293587 0.53907913
-0.080960803 0.050293315 0.53907901
-0.079408139 0.050199639 0.5380789
-0.078005537 0.050199367 0.53807878
-0.076460674 0.050105684 0.53707868
-0.075060681 0.050105412 0.53707856
-0.073523656 0.050011735 0.53607845
-0.072126269 0.050011463 0.53607833
-0.070728883 0.050011192 0.53607821
-0.069202274 0.049917519 0.53507817
-0.067807496 0.049917247 0.53507805
-0.06628871 0.049823575 0.53407794
-0.064775154 0.049729906 0.53307784
-0.063385583 0.049729638 0.53307772
-0.061879829 0.049635958 0.53207761
-0.060492873 0.04963569 0.53207749
-0.058994953 0.049542021 0.53107738
-0.057610601 0.049541753 0.53107727
-0.056120496 0.049448084 0.53007716
-0.054738749 0.04944782 0.5300771
-0.053357005 0.049447551 0.53007698
-0.051975265 0.049447283 0.53007686
-0.050593521 0.049447015 0.53007674
-0.049119059 0.04935335 0.52907664
-0.047739923 0.049353082 0.52907658
-0.046360787 0.049352814 0.52907646
-0.044896748 0.049259145 0.52807629
-0.04352022 0.049258877 0.52807617
-0.042143688 0.049258612 0.52807605
-0.040767159 0.049258344 0.52807599
-0.039316162 0.049164683 0.52707589
-0.037942238 0.049164418 0.52707577
-0.036499057 0.049070761 0.52607566
-0.035127744 0.049070492 0.5260756
-0.033692386 0.048976839 0.5250755
-0.032323681 0.04897657 0.52507538
-0.030954974 0.048976306 0.52507526
-0.029530043 0.048882656 0.52407521
-0.028110327 0.048788995 0.52307504
-0.026746834 0.04878873 0.52307492
-0.025334939 0.048695076 0.52207488
-0.023928262 0.048601426 0.52107477
-0.022569982 0.048601162 0.52107465
-0.021171123 0.048507512 0.52007461
-0.019815451 0.048507251 0.52007449
-0.018424414 0.048413601 0.51907438
-0.017071348 0.04841334 0.51907426
-0.015718281 0.048413076 0.5190742
-0.014365217 0.048412815 0.51907408
-0.012987213 0.048319165 0.51807392
-0.011636755 0.048318904 0.5180738
-0.010286296 0.048318643 0.51807374
-0.0089358361 0.048318379 0.51807362
-0.0075853784 0.048318118 0.5180735
-0.0062349197 0.048317857 0.51807338
-0.0048844609 0.048317593 0.51807326
-0.003534002 0.048317332 0.5180732
-0.0021794639 0.048223685 0.51707309
-0.00083161209 0.048223425 0.51707298
0.00051510456 0.04812979 0.51607293
0.0018566073 0.048036151 0.51507282
0.0031992451 0.04803589 0.5150727
0.0045329263 0.047942247 0.5140726
0.0058729569 0.047941986 0.51407248
0.0071988171 0.047848351 0.51307243
0.008536241 0.047848091 0.51307231
0.0098542795 0.047754459 0.51207221
0.011167105 0.047660824 0.51107216
0.012499316 0.047660567 0.51107204
0.013831524 0.04766031 0.51107192
0.015133921 0.047566678 0.51007187
0.016431101 0.047473043 0.50907171
0.017758096 0.047472786 0.50907165
0.019085092 0.047472529 0.50907153
0.020412087 0.047472272 0.50907141
0.021739082 0.047472015 0.50907129
0.023020623 0.047378387 0.50807124
0.024345011 0.04737813 0.50807112
0.0256694 0.047377873 0.50807101
0.026940515 0.047284249 0.50707096
0.028262297 0.047283992 0.50707084
0.029584076 0.047283735 0.50707072
0.03090586 0.047283478 0.50707066
0.032163929 0.047189858 0.50607055
0.033483107 0.047189601 0.50607044
0.03480228 0.047189347 0.50607038
0.036121454 0.04718909 0.50607026
0.037440628 0.047188833 0.50607014
0.038759802 0.047188576 0.50607002
0.040078975 0.047188323 0.50606996
0.0413162 0.047094695 0.50506979
0.042548202 0.047001082 0.50406975
0.043862164 0.047000829 0.50406963
0.04508635 0.046907209 0.50306958
0.046397701 0.046906956 0.50306946
0.047614068 0.046813343 0.50206941
0.048825212 0.046719726 0.50106931
0.050131354 0.046719473 0.50106925
0.051334679 0.04662586 0.50006914
0.05263821 0.046625607 0.50006902
0.053833719 0.046531994 0.49906895
0.055134643 0.046531744 0.49906886
0.056322332 0.046438135 0.49806878
0.057504803 0.046344526 0.4970687
0.058682065 0.046250917 0.49606863
0.059975166 0.046250667 0.49606851
0.061144602 0.046157066 0.49506846
0.062435098 0.046156816 0.49506834
0.063596711 0.046063203 0.49406826
0.064753108 0.045969605 0.49306819
-0.26766968 0.056438077 0.5880928
-0.26613671 0.056437779 0.58809268
-0.26460379 0.056437485 0.58809257
-0.26307082 0.056437187 0.58809245
-0.2610932 0.056340814 0.58709228
-0.25956285 0.056340516 0.58709216
-0.2580325 0.056340218 0.58709204
-0.25650215 0.056339923 0.58709192
-0.25453758 0.056243557 0.58609182
-0.25300986 0.056243263 0.5860917
-0.25148213 0.056242965 0.58609158
-0.24995437 0.056242671 0.58609146
-0.24800283 0.056146301 0.58509129
-0.24647771 0.056146007 0.58509117
-0.24453397 0.056049645 0.58409107
-0.24301144 0.056049351 0.58409095
-0.2410755 0.055952985 0.58309078
-0.23914482 0.055856626 0.58209062
-0.23762751 0.055856332 0.5820905
-0.23570462 0.055759978 0.58109039
-0.23418993 0.055759683 0.58109027
-0.23227488 0.055663321 0.58009017
-0.23076278 0.055663027 0.58009005
-0.22885555 0.055566676 0.57908988
-0.22695352 0.055470314 0.57808971
-0.22544663 0.05547002 0.57808959
-0.22355244 0.055373672 0.57708949
-0.22204815 0.055373378 0.57708937
-0.22016178 0.055277023 0.57608926
-0.21828063 0.055180676 0.5750891
-0.21678156 0.055180386 0.57508898
-0.2149082 0.055084035 0.57408881
-0.21341173 0.055083744 0.57408869
-0.21154623 0.054987397 0.57308859
-0.20968594 0.05489105 0.57208848
-0.2081947 0.054890759 0.57208836
-0.20634221 0.054794416 0.57108825
-0.20485358 0.054794125 0.57108814
-0.20300892 0.054697786 0.57008797
-0.2015229 0.054697499 0.57008785
-0.19968602 0.054601148 0.56908768
-0.19785438 0.054504804 0.56808758
-0.19637358 0.054504517 0.56808746
-0.19454978 0.054408178 0.56708735
-0.19307159 0.054407891 0.56708723
-0.19159338 0.054407604 0.56708711
-0.18978 0.054311272 0.56608701
-0.18830439 0.054310985 0.56608689
-0.18682881 0.054310698 0.56608677
-0.18535319 0.054310411 0.56608665
-0.1838776 0.054310128 0.56608653
-0.182402 0.054309841 0.56608641
-0.18060686 0.054213502 0.56508625
-0.17913386 0.054213218 0.56508613
-0.17766085 0.054212932 0.56508601
-0.17618787 0.054212645 0.56508589
-0.17471488 0.054212358 0.56508577
-0.17293543 0.054116026 0.56408566
-0.17146502 0.054115739 0.56408554
-0.16969337 0.054019414 0.56308544
-0.16822559 0.054019131 0.56308532
-0.16646174 0.053922802 0.56208521
-0.16470312 0.053826474 0.5610851
-0.1629497 0.053730141 0.56008494
-0.16120148 0.05363382 0.55908483
-0.15974414 0.053633537 0.55908471
-0.15800376 0.053537216 0.55808461
-0.15626858 0.053440891 0.5570845
-0.15481645 0.053440608 0.55708438
-0.15308911 0.053344291 0.55608428
-0.15163958 0.053344011 0.55608416
-0.14992005 0.053247683 0.55508399
-0.14847313 0.053247403 0.55508387
-0.14702621 0.053247124 0.55508375
-0.14531711 0.05315081 0.55408365
-0.1438728 0.053150527 0.55408353
-0.14242849 0.053150248 0.55408341
-0.1407298 0.05305393 0.5530833
-0.13928811 0.053053651 0.55308318
-0.13759728 0.052957341 0.55208308
-0.13615817 0.052957062 0.55208296
-0.13471907 0.052956782 0.55208284
-0.13303864 0.052860461 0.55108267
-0.13160215 0.052860182 0.55108255
-0.13016565 0.052859906 0.55108243
-0.12849566 0.0527636 0.55008239
-0.12706177 0.052763321 0.55008227
-0.1253996 0.052667011 0.54908216
-0.12396833 0.052666735 0.54908204
-0.12253705 0.052666456 0.54908192
-0.12088531 0.052570149 0.54808182
-0.11945665 0.052569874 0.5480817
-0.11781273 0.052473571 0.54708159
-0.11638667 0.052473295 0.54708147
-0.1149606 0.05247302 0.54708135
-0.11353454 0.05247274 0.54708123
-0.11210848 0.052472465 0.54708111
-0.11048018 0.052376155 0.54608101
-0.10905673 0.052375879 0.54608089
-0.10763326 0.052375603 0.54608077
-0.10601542 0.052279305 0.54508066
-0.10459457 0.052279029 0.54508054
-0.10298455 0.05218273 0.54408044
-0.1015663 0.052182455 0.54408032
-0.10014806 0.052182179 0.5440802
-0.098548464 0.052085888 0.54308015
-0.097132824 0.052085612 0.54308003
-0.095717192 0.05208534 0.54307991
-0.09412802 0.051989041 0.54207981
-0.092714988 0.051988766 0.54207969
-0.091133639 0.051892471 0.54107952
-0.089723215 0.051892195 0.5410794
-0.08831279 0.051891923 0.54107928
-0.086741857 0.051795635 0.54007924
-0.085334048 0.051795363 0.54007912
-0.083770953 0.051699072 0.53907901
-0.082365744 0.0516988 0.53907889
-0.080960535 0.051698528 0.53907877
-0.079407863 0.051602241 0.53807867
-0.078005262 0.051601969 0.53807861
-0.076460406 0.051505677 0.53707844
-0.075060412 0.051505405 0.53707832
-0.07352338 0.051409125 0.53607821
-0.072125994 0.051408853 0.5360781
-0.070728607 0.051408581 0.53607798
-0.069202006 0.051312301 0.53507793
-0.067807227 0.051312029 0.53507781
-0.066288441 0.051215749 0.5340777
-0.064896271 0.051215481 0.53407758
-0.063385315 0.051119205 0.53307748
-0.061995752 0.051118933 0.53307742
-0.060492605 0.051022649 0.53207725
-0.059105646 0.051022381 0.53207713
-0.057610333 0.050926108 0.53107703
-0.056225982 0.05092584 0.53107691
-0.054738481 0.050829563 0.53007686
-0.053356737 0.050829295 0.53007674
-0.051974997 0.050829027 0.53007662
-0.050593253 0.050828759 0.5300765
-0.04921151 0.05082849 0.53007638
-0.047739655 0.050732221 0.52907634
-0.046360519 0.050731953 0.52907622
-0.04489648 0.050635677 0.52807605
-0.043519951 0.050635409 0.52807593
-0.042143419 0.050635144 0.52807581
-0.040766891 0.050634876 0.52807575
-0.039390363 0.050634608 0.52807564
-0.03794197 0.050538346 0.52707553
-0.036568046 0.050538078 0.52707541
-0.035127476 0.050441809 0.52607536
-0.033692122 0.050345551 0.52507526
-0.032323416 0.050345283 0.52507514
-0.030954707 0.050345019 0.52507502
-0.029529778 0.050248761 0.52407497
-0.028110063 0.050152492 0.52307481
-0.026695564 0.050056234 0.5220747
-0.025334675 0.05005597 0.52207464
-0.023927998 0.049959708 0.52107453
-0.022569718 0.049959444 0.52107441
-0.02117086 0.049863189 0.52007437
-0.019815188 0.049862929 0.52007425
-0.018424151 0.049766667 0.51907414
-0.017071085 0.049766406 0.51907402
-0.015718019 0.049766142 0.51907396
-0.014337411 0.049669892 0.5180738
-0.012986952 0.049669627 0.51807368
-0.011636494 0.049669366 0.51807362
-0.010286034 0.049669106 0.5180735
-0.0089355744 0.049668841 0.51807338
-0.0075851162 0.04966858 0.51807326
-0.0062346575 0.04966832 0.51807314
-0.0048841988 0.049668055 0.51807308
-0.0035337401 0.049667794 0.51807296
-0.0021792026 0.04957154 0.51707286
-0.00083135068 0.049571279 0.51707274
0.00051536551 0.049475037 0.51607269
0.0018606103 0.049474776 0.51607257
0.0031995056 0.049378529 0.51507252
0.0045331861 0.049282283 0.51407236
0.0058732168 0.049282022 0.51407224
0.0072132475 0.049281761 0.51407212
0.0085364999 0.049185518 0.51307207
0.0098545384 0.049089279 0.51207203
0.011167363 0.04899304 0.51107192
0.012499574 0.048992783 0.5110718
0.013831782 0.048992526 0.51107168
0.015134179 0.048896283 0.51007164
0.016463781 0.048896026 0.51007152
0.017793383 0.048895765 0.5100714
0.01908535 0.048799526 0.50907129
0.020412344 0.048799269 0.50907117
0.021739339 0.048799012 0.50907105
0.023066336 0.048798755 0.50907099
0.024345268 0.048702523 0.50807089
0.025669657 0.048702266 0.50807083
0.026994046 0.048702009 0.50807071
0.028262552 0.048605777 0.5070706
0.029584331 0.04860552 0.50707054
0.030906115 0.048605263 0.50707042
0.032227889 0.04860501 0.5070703
0.033549674 0.048604753 0.50707018
0.034871455 0.048604496 0.50707012
0.036193237 0.048604239 0.50707
0.037440885 0.048508011 0.5060699
0.038760059 0.048507754 0.50606984
0.040079232 0.0485075 0.50606972
0.041316453 0.048411265 0.50506955
0.042633019 0.048411012 0.50506949
0.043862417 0.048314791 0.50406939
0.045176376 0.048314534 0.50406933
0.046397954 0.048218314 0.50306922
0.047614321 0.048122089 0.50206918
0.048825465 0.048025869 0.50106913
0.050131608 0.048025616 0.50106901
0.051334932 0.047929395 0.5000689
0.052638464 0.047929142 0.50006878
0.053833973 0.047832925 0.49906874
0.055134896 0.047832675 0.49906862
0.056322582 0.047736455 0.49806857
0.057505053 0.047640238 0.49706846
0.058800764 0.047639988 0.49706838
0.059975415 0.047543775 0.4960683
0.061144851 0.047447562 0.49506825
0.062435351 0.047447313 0.49506813
0.063596956 0.047351096 0.49406806
0.064884849 0.047350846 0.49406794
-0.27473223 0.058169588 0.59009308
-0.27319407 0.05816929 0.59009296
-0.27119565 0.058070309 0.58909285
-0.26966006 0.058070011 0.58909273
-0.26766938 0.057971027 0.58809251
-0.26613641 0.057970729 0.58809239
-0.2646035 0.057970434 0.58809227
-0.26307052 0.057970136 0.58809215
-0.26153755 0.057969838 0.58809203
-0.25956255 0.057870861 0.58709192
-0.2580322 0.057870563 0.5870918
-0.25650185 0.057870269 0.58709168
-0.2549715 0.057869971 0.58709157
-0.25344115 0.057869673 0.58709145
-0.25191081 0.057869378 0.58709133
-0.24995407 0.057770409 0.58609116
-0.24842633 0.057770111 0.58609104
-0.24647743 0.057671141 0.58509094
-0.24453367 0.057572171 0.58409083
-0.24301115 0.057571877 0.58409071
-0.2410752 0.057472903 0.58309048
-0.23955528 0.057472609 0.58309036
-0.23762721 0.057373643 0.58209026
-0.23570433 0.057274681 0.58109015
-0.23418964 0.057274386 0.58109003
-0.23227458 0.057175416 0.58008987
-0.23076248 0.057175122 0.58008975
-0.22885525 0.057076164 0.57908964
-0.22695324 0.056977194 0.57808948
-0.22544634 0.0569769 0.57808936
-0.22355215 0.056877945 0.57708925
-0.22166316 0.056778982 0.57608908
-0.22016148 0.056778692 0.57608896
-0.21865983 0.056778401 0.57608885
-0.21678126 0.056679446 0.57508874
-0.21490791 0.056580488 0.57408857
-0.21341145 0.056580197 0.57408845
-0.21154594 0.056481242 0.57308835
-0.20968564 0.056382291 0.57208818
-0.2081944 0.056382 0.57208806
-0.20634192 0.056283049 0.57108796
-0.2048533 0.056282759 0.57108784
-0.20300864 0.056183811 0.57008773
-0.20152262 0.056183524 0.57008761
-0.19968574 0.056084566 0.56908745
-0.19820231 0.056084279 0.56908733
-0.19637328 0.055985332 0.56808722
-0.19489247 0.055985045 0.5680871
-0.19341166 0.055984758 0.56808698
-0.1915931 0.055885807 0.56708688
-0.1901149 0.05588552 0.56708676
-0.18863668 0.055885233 0.56708664
-0.18682852 0.055786293 0.56608653
-0.18535291 0.055786006 0.56608641
-0.18387732 0.055785723 0.56608629
-0.18240172 0.055785436 0.56608617
-0.18092613 0.055785149 0.56608605
-0.17945053 0.055784862 0.56608593
-0.17766057 0.055685919 0.56508577
-0.17618759 0.055685632 0.56508565
-0.1747146 0.055685345 0.56508553
-0.17324162 0.055685062 0.56508541
-0.17146474 0.055586122 0.5640853
-0.16969308 0.055487189 0.5630852
-0.1682253 0.055486906 0.56308508
-0.16646145 0.05538797 0.56208497
-0.16499628 0.055387683 0.56208485
-0.16294941 0.055190098 0.5600847
-0.16148944 0.055189814 0.56008458
-0.15974386 0.055090886 0.55908448
-0.15800348 0.054991957 0.55808437
-0.15654872 0.054991674 0.55808425
-0.15481617 0.054892741 0.55708414
-0.15336402 0.054892462 0.55708402
-0.1516393 0.054793537 0.55608392
-0.15018977 0.054793254 0.5560838
-0.14874025 0.054792974 0.55608368
-0.14702593 0.054694045 0.55508351
-0.14557901 0.054693762 0.55508339
-0.14413208 0.054693483 0.55508327
-0.1424282 0.054594558 0.55408317
-0.14098388 0.054594278 0.55408305
-0.13928784 0.054495357 0.55308294
-0.13784613 0.054495074 0.55308282
-0.13640442 0.054494794 0.5530827
-0.13471879 0.054395881 0.5520826
-0.1332797 0.054395601 0.55208248
-0.1318406 0.054395322 0.55208236
-0.13016537 0.054296397 0.55108219
-0.12872888 0.054296117 0.55108207
-0.12706149 0.054197203 0.55008203
-0.12562759 0.054196924 0.55008191
-0.12419374 0.054196648 0.55008179
-0.12253677 0.054097734 0.54908168
-0.12110549 0.054097459 0.54908156
-0.11945637 0.053998545 0.54808146
-0.1180277 0.053998265 0.54808134
-0.11659903 0.05399799 0.54808122
-0.11517036 0.053997714 0.5480811
-0.11353426 0.053898804 0.54708099
-0.11210821 0.053898528 0.54708087
-0.11068214 0.053898253 0.54708081
-0.10925608 0.053897977 0.5470807
-0.10763299 0.053799059 0.54608053
-0.10620953 0.053798784 0.54608041
-0.1045943 0.053699881 0.5450803
-0.10317345 0.053699605 0.54508018
-0.10156602 0.053600695 0.54408008
-0.10014778 0.053600419 0.54407996
-0.098548189 0.05350152 0.54307985
-0.097132549 0.053501245 0.54307979
-0.095540769 0.053402342 0.54207969
-0.094127744 0.05340207 0.54207957
-0.092714712 0.053401794 0.54207945
-0.091133364 0.053302892 0.54107928
-0.089722939 0.053302616 0.54107916
-0.088149406 0.053203721 0.54007906
-0.086741589 0.053203449 0.540079
-0.085333779 0.053203177 0.54007888
-0.083770677 0.053104278 0.53907877
-0.082365468 0.053104006 0.53907865
-0.080960259 0.053103734 0.53907853
-0.079407595 0.053004842 0.53807843
-0.078004993 0.05300457 0.53807837
-0.076460131 0.052905671 0.5370782
-0.075060137 0.052905399 0.53707808
-0.073523112 0.052806512 0.53607798
-0.072125725 0.05280624 0.53607786
-0.070728339 0.052805968 0.53607774
-0.06920173 0.05270708 0.53507769
-0.067806952 0.052706808 0.53507757
-0.066288173 0.052607924 0.53407747
-0.064896002 0.052607656 0.53407735
-0.063503832 0.052607384 0.53407723
-0.061995484 0.052508496 0.53307718
-0.060492337 0.052409608 0.53207701
-0.059105378 0.05240934 0.5320769
-0.057718422 0.052409071 0.53207678
-0.056225713 0.052310187 0.53107667
-0.054841362 0.052309919 0.53107661
-0.053457011 0.052309651 0.53107649
-0.051974729 0.052210771 0.53007638
-0.050592985 0.052210502 0.53007627
-0.049211241 0.052210234 0.53007615
-0.047739387 0.052111357 0.5290761
-0.046360251 0.052111089 0.52907598
-0.044981111 0.052110821 0.52907586
-0.043519683 0.052011937 0.5280757
-0.042143151 0.052011672 0.52807564
-0.040766623 0.052011404 0.52807552
-0.039390095 0.052011136 0.5280754
-0.037941705 0.051912267 0.52707529
-0.036567781 0.051911999 0.52707517
-0.035127211 0.051813126 0.52607512
-0.033755895 0.051812861 0.52607501
-0.032323152 0.051713992 0.5250749
-0.030954443 0.051713727 0.52507478
-0.029529514 0.051614862 0.52407473
-0.028109798 0.051515985 0.52307457
-0.026746305 0.051515721 0.52307445
-0.02533441 0.051416855 0.5220744
-0.023927735 0.05131799 0.5210743
-0.022569455 0.051317725 0.52107418
-0.021211173 0.051317465 0.52107412
-0.019814925 0.051218599 0.52007401
-0.018459253 0.051218335 0.52007389
-0.017070822 0.051119473 0.51907384
-0.015717756 0.051119208 0.51907372
-0.014337149 0.051020347 0.51807356
-0.013011625 0.051118687 0.51907349
-0.011636232 0.051019821 0.51807338
-0.010285772 0.051019561 0.51807326
-0.0089353127 0.051019296 0.51807314
-0.0075848545 0.051019035 0.51807302
-0.0062343958 0.051018775 0.5180729
-0.0048839371 0.05101851 0.51807284
-0.0035334781 0.051018249 0.51807272
-0.002183019 0.051017988 0.51807261
-0.00083108927 0.05091913 0.51707256
0.00051676255 0.05091887 0.51707244
0.0018608712 0.050820019 0.51607233
0.0031997659 0.050721169 0.51507229
0.0045424034 0.050720908 0.51507217
0.0058734766 0.05062205 0.514072
0.0072135073 0.050621789 0.51407194
0.0085367598 0.050522942 0.51307184
0.0098741828 0.050522685 0.51307172
0.011189613 0.050423834 0.51207167
0.012499833 0.050324991 0.51107156
0.013832041 0.050324734 0.5110715
0.015164251 0.050324474 0.51107138
0.01646404 0.050225627 0.51007128
0.017793642 0.050225366 0.51007122
0.019123245 0.050225109 0.5100711
0.020412602 0.050126266 0.50907093
0.021739597 0.050126009 0.50907087
0.023066593 0.050125752 0.50907075
0.024393588 0.050125495 0.50907063
0.025669914 0.050026655 0.50807059
0.026994303 0.050026398 0.50807047
0.028262809 0.049927555 0.50707042
0.029584588 0.049927298 0.5070703
0.030906372 0.049927041 0.50707018
0.032228146 0.049926788 0.50707006
0.033549931 0.049926531 0.50707
0.034871712 0.049926274 0.50706989
0.036193494 0.049926016 0.50706977
0.037515275 0.049925759 0.50706965
0.038760316 0.049826927 0.5060696
0.040079489 0.049826674 0.50606948
0.041398667 0.049826417 0.50606936
0.042633276 0.049727578 0.50506926
0.043862674 0.049628749 0.50406921
0.045176633 0.049628492 0.50406909
0.046398208 0.049529664 0.50306904
0.047614574 0.049430836 0.50206894
0.048923317 0.049430583 0.50206882
0.050131861 0.049331754 0.50106877
0.051438 0.049331501 0.50106865
0.052638717 0.049232673 0.50006855
0.053834226 0.049133848 0.4990685
0.05513515 0.049133599 0.49906841
0.056322835 0.049034774 0.49806833
0.057505306 0.04893595 0.49706826
0.058801018 0.0489357 0.49706814
0.060096726 0.048935447 0.49706805
0.061268773 0.048836626 0.49606797
0.062435597 0.048737809 0.49506792
0.06372609 0.048737556 0.49506781
0.064885102 0.048638735 0.49406773
-0.28183657 0.05991153 0.59209335
-0.27981979 0.059809942 0.59109318
-0.27827907 0.059809644 0.59109306
-0.27627015 0.059708055 0.59009296
-0.27473193 0.059707757 0.59009284
-0.27319378 0.059707459 0.59009272
-0.27119535 0.05960587 0.58909255
-0.26965976 0.059605572 0.58909243
-0.26766908 0.05950398 0.58809227
-0.26613611 0.059503682 0.58809215
-0.2646032 0.059503388 0.58809203
-0.26307023 0.05950309 0.58809191
-0.26153725 0.059502792 0.58809179
-0.25956225 0.059401207 0.58709162
-0.2580319 0.059400909 0.58709151
-0.25650156 0.059400614 0.58709139
-0.25497121 0.059400316 0.58709127
-0.25344086 0.059400018 0.58709115
-0.25191051 0.059399724 0.58709103
-0.25038016 0.059399426 0.58709091
-0.24842604 0.059297848 0.5860908
-0.24689831 0.059297554 0.58609068
-0.24495198 0.059195973 0.58509058
-0.24301085 0.059094399 0.58409041
-0.24148832 0.059094105 0.58409029
-0.23955499 0.058992527 0.58309013
-0.23762693 0.058890954 0.58209002
-0.23610961 0.058890659 0.5820899
-0.23418935 0.058789089 0.58108974
-0.23227428 0.058687516 0.58008963
-0.23076218 0.058687221 0.58008951
-0.22885497 0.058585655 0.5790894
-0.22695294 0.058484077 0.57808924
-0.22544605 0.058483783 0.57808912
-0.22355185 0.058382221 0.57708895
-0.22166288 0.058280651 0.57608885
-0.2201612 0.05828036 0.57608873
-0.21865955 0.058280069 0.57608861
-0.21678098 0.058178507 0.5750885
-0.21528192 0.058178216 0.57508838
-0.21341115 0.05807665 0.57408822
-0.2119147 0.058076359 0.5740881
-0.21005182 0.057974797 0.57308793
-0.20819412 0.057873238 0.57208782
-0.20670287 0.057872947 0.57208771
-0.204853 0.057771388 0.5710876
-0.20336436 0.057771098 0.57108748
-0.20152232 0.05766955 0.57008737
-0.20003629 0.05766926 0.57008725
-0.19820203 0.057567697 0.56908709
-0.19671862 0.057567406 0.56908697
-0.19523519 0.05756712 0.56908685
-0.19341138 0.057465568 0.56808674
-0.19193056 0.057465281 0.56808662
-0.19044976 0.057464994 0.5680865
-0.18863638 0.057363439 0.5670864
-0.18715818 0.057363156 0.56708628
-0.18567997 0.057362869 0.56708616
-0.18420178 0.057362583 0.56708604
-0.18240143 0.057261035 0.56608593
-0.18092585 0.057260748 0.56608582
-0.17945024 0.057260461 0.5660857
-0.17797464 0.057260174 0.56608558
-0.17618731 0.057158623 0.56508541
-0.17471431 0.057158336 0.56508529
-0.17324133 0.057158053 0.56508517
-0.17146444 0.057056505 0.56408507
-0.1696928 0.056954965 0.56308496
-0.16822502 0.056954682 0.56308484
-0.16675726 0.056954395 0.56308472
-0.164996 0.056852851 0.56208462
-0.16323999 0.056751315 0.56108451
-0.16148916 0.056649771 0.56008428
-0.15974358 0.056548234 0.55908418
-0.15828621 0.056547951 0.55908406
-0.15654844 0.056446414 0.55808395
-0.15509371 0.056446135 0.55808389
-0.15336375 0.056344599 0.55708379
-0.15191163 0.056344315 0.55708367
-0.15045948 0.056344032 0.55708355
-0.14873996 0.056242503 0.55608344
-0.14729044 0.05624222 0.55608332
-0.14584091 0.056241941 0.5560832
-0.14413179 0.0561404 0.55508304
-0.14268489 0.056140121 0.55508292
-0.14098361 0.056038592 0.55408281
-0.13953932 0.056038313 0.55408269
-0.13809499 0.056038029 0.55408257
-0.13640414 0.0559365 0.55308247
-0.13496242 0.055936221 0.55308235
-0.13327941 0.055834699 0.55208224
-0.13184032 0.05583442 0.55208212
-0.13040121 0.055834141 0.552082
-0.1287286 0.055732612 0.55108184
-0.1272921 0.055732332 0.55108172
-0.12562732 0.055630811 0.55008167
-0.12419346 0.055630535 0.55008155
-0.12275957 0.055630255 0.55008143
-0.12110522 0.055528738 0.54908133
-0.11967395 0.055528458 0.54908121
-0.11824267 0.055528183 0.54908109
-0.11659876 0.055426661 0.54808098
-0.11517008 0.055426385 0.54808086
-0.11374141 0.055426106 0.54808074
-0.11231274 0.05542583 0.54808062
-0.11068186 0.055324316 0.54708052
-0.1092558 0.05532404 0.54708046
-0.10782972 0.055323761 0.54708034
-0.10620926 0.055222239 0.54608017
-0.1047858 0.055221964 0.54608005
-0.10317317 0.055120453 0.54507995
-0.10156575 0.055018939 0.54407984
-0.10014751 0.055018663 0.54407972
-0.098547913 0.054917157 0.54307961
-0.097132273 0.054916881 0.54307956
-0.095540501 0.054815371 0.54207945
-0.094127476 0.054815099 0.54207933
-0.092543505 0.054713584 0.54107916
-0.091133088 0.054713313 0.54107904
-0.089556947 0.05461181 0.54007894
-0.08814913 0.054611534 0.54007882
-0.086741313 0.054611262 0.54007876
-0.085175604 0.054509759 0.53907865
-0.083770402 0.054509483 0.53907853
-0.082365192 0.054509211 0.53907841
-0.080959983 0.054508939 0.5390783
-0.079407319 0.05440744 0.53807819
-0.078004718 0.054407168 0.53807813
-0.076459862 0.054305665 0.53707796
-0.075059868 0.054305393 0.53707784
-0.073522836 0.054203898 0.53607774
-0.07212545 0.054203626 0.53607762
-0.070728064 0.054203354 0.5360775
-0.069201462 0.054101858 0.53507745
-0.067806683 0.054101586 0.53507733
-0.066287905 0.054000095 0.53407723
-0.064895734 0.053999826 0.53407711
-0.063384771 0.053898335 0.533077
-0.061995216 0.053898063 0.53307694
-0.060605649 0.053897794 0.53307682
-0.059105109 0.053796295 0.53207666
-0.057718154 0.053796027 0.53207654
-0.056331195 0.053795759 0.53207642
-0.054841094 0.053694271 0.53107637
-0.053456742 0.053694002 0.53107625
-0.05197446 0.053592514 0.53007615
-0.050592717 0.053592246 0.53007603
-0.049210973 0.053591978 0.53007591
-0.047829229 0.05359171 0.53007585
-0.046359986 0.053490225 0.52907574
-0.044980846 0.053489957 0.52907562
-0.043519419 0.053388469 0.52807546
-0.042142887 0.053388204 0.5280754
-0.040766358 0.053387936 0.52807528
-0.03938983 0.053387668 0.52807516
-0.037941437 0.053286191 0.52707505
-0.036567513 0.053285923 0.52707493
-0.035126943 0.053184442 0.52607489
-0.033755627 0.053184178 0.52607477
-0.032322887 0.053082701 0.52507466
-0.030954177 0.053082436 0.5250746
-0.029529249 0.052980963 0.52407449
-0.028163148 0.052980699 0.52407438
-0.02674604 0.052879214 0.52307427
-0.025334148 0.052777741 0.52207416
-0.023927471 0.052676268 0.52107406
-0.022569191 0.052676003 0.521074
-0.021210909 0.052675743 0.52107388
-0.019814663 0.052574273 0.52007377
-0.018423626 0.0524728 0.51907372
-0.01707056 0.052472539 0.51907361
-0.013011363 0.052471753 0.51907325
-0.01163597 0.05237028 0.51807314
-0.010285511 0.052370019 0.51807302
-0.008935051 0.052369755 0.5180729
-0.0075845923 0.052369494 0.51807278
-0.0062341336 0.052369233 0.51807272
-0.0048836749 0.052368969 0.51807261
-0.0035332162 0.052368708 0.51807249
-0.0021786797 0.052267242 0.51707244
-0.00083082786 0.052266981 0.51707232
0.00051702396 0.052266721 0.5170722
0.0018611322 0.052165262 0.51607209
0.0032063769 0.052165002 0.51607203
0.0045426637 0.052063543 0.51507193
0.0058737365 0.051962081 0.51407182
