# .PCD v0.7 - Point Cloud Data file format
VERSION 0.7
FIELDS x y z
SIZE 4 4 4
TYPE F F F
COUNT 1 1 1
WIDTH 1386
HEIGHT 1
VIEWPOINT 0 0 0 1 0 0 0
POINTS 1386
DATA ascii
0.055089101 0.10885462 0.50833428
0.056534991 0.10929005 0.50779152
0.057645842 0.10985217 0.50818646
0.058756694 0.1104143 0.50858152
0.060193717 0.11084523 0.50803554
0.061302349 0.11140624 0.50842977
0.062732711 0.11183381 0.50788146
0.063839138 0.1123937 0.50827491
0.064945549 0.11295358 0.5086683
0.06605196 0.11351347 0.50906169
0.067471251 0.11393543 0.50850952
0.068575442 0.11449419 0.50890213
0.069988072 0.11491278 0.50834751
0.071090057 0.11547042 0.50873935
0.072192028 0.11602806 0.50913119
0.073294014 0.1165857 0.50952303
0.074695557 0.11699868 0.50896454
0.075795323 0.1175552 0.50935555
0.076895088 0.11811172 0.50974661
0.077994853 0.11866824 0.51013768
0.079094619 0.11922476 0.51052868
0.080482855 0.11963101 0.50996548
0.081580386 0.1201864 0.51035571
0.082677945 0.1207418 0.510746
0.083775491 0.1212972 0.51113629
0.084873036 0.1218526 0.51152653
0.085970581 0.122408 0.51191676
0.087343305 0.12280639 0.51134801
0.08843863 0.12336066 0.51173747
0.089804694 0.12375569 0.51116633
0.090897813 0.12430885 0.51155502
0.092257231 0.12470051 0.5109815
0.093348131 0.12525254 0.51136935
0.094439015 0.12580457 0.51175725
0.095789552 0.12619175 0.51118064
0.096878231 0.12674266 0.51156771
0.097966909 0.12729356 0.51195484
0.099055588 0.12784448 0.51234198
0.10014427 0.12839538 0.51272905
0.10148151 0.12877582 0.51214767
0.10256797 0.12932561 0.51253402
0.10365444 0.12987539 0.51292032
0.10498281 0.13025136 0.51233578
0.10606705 0.13080002 0.5127213
0.1071513 0.13134868 0.51310682
0.10823554 0.13189735 0.51349241
0.10931978 0.13244601 0.51387793
0.11063484 0.13281524 0.51328868
0.11171687 0.13336278 0.51367342
0.11279889 0.13391033 0.51405811
0.11388092 0.13445786 0.51444292
0.11518491 0.13482147 0.51384962
0.11626472 0.1353679 0.51423359
0.11756205 0.13572815 0.51363802
0.11863964 0.13627344 0.51402116
0.11971723 0.13681874 0.51440436
0.12100568 0.1371745 0.51380563
0.12208106 0.13771868 0.51418799
0.12336288 0.13807108 0.51358688
0.12443603 0.13861413 0.51396847
0.12550919 0.13915719 0.51435006
0.12658235 0.13970023 0.51473165
0.1278531 0.14004703 0.5141266
0.12892401 0.14058895 0.51450741
0.12999496 0.14113088 0.51488817
0.13106591 0.14167282 0.51526904
0.13232553 0.142014 0.51466
0.13339424 0.1425548 0.51504004
0.13446297 0.14309561 0.51542008
0.13571373 0.1434323 0.51480794
0.13678023 0.14397199 0.51518714
0.13784674 0.14451168 0.51556635
0.13891324 0.14505138 0.51594561
0.14015293 0.14538243 0.51532948
0.14121723 0.14592101 0.51570797
0.14245026 0.14624873 0.51508951
0.14351232 0.14678615 0.51546717
0.1447387 0.14711051 0.51484632
0.14579855 0.14764681 0.51522315
0.14701828 0.14796782 0.51460004
0.14807592 0.14850301 0.51497608
0.14913356 0.14903821 0.51535213
0.1503444 0.1493547 0.5147258
0.15139982 0.14988878 0.51510108
0.15260404 0.1502019 0.51447237
0.15365723 0.15073486 0.51484692
0.15471044 0.15126781 0.51522136
0.15590578 0.15157644 0.51458955
0.15695676 0.15210828 0.51496327
0.15814546 0.15241355 0.51432908
0.15919423 0.15294427 0.51470196
0.16037622 0.15324616 0.51406538
0.16142279 0.15377575 0.51443756
0.16259819 0.1540743 0.51379853
0.1636425 0.15460277 0.51416987
0.16468684 0.15513124 0.51454127
-0.29088634 -0.034572318 0.49198312
-0.28954929 -0.033895731 0.49245852
-0.2882123 -0.033219159 0.49293393
-0.28602928 -0.032413557 0.49265346
-0.28469449 -0.031738102 0.49312809
-0.28335971 -0.031062678 0.49360269
-0.28202486 -0.030387208 0.49407732
-0.28069007 -0.029711753 0.49455196
-0.27935529 -0.029036298 0.49502659
-0.27718776 -0.028238595 0.49474046
-0.27502465 -0.027443089 0.49445289
-0.27369428 -0.026769884 0.49492592
-0.27153784 -0.025977783 0.49463594
-0.27020973 -0.025305696 0.49510819
-0.26805997 -0.024516933 0.49481589
-0.26591456 -0.023730427 0.49452192
-0.26377368 -0.022946179 0.4942264
-0.26163721 -0.022164136 0.49392939
-0.25950515 -0.021384388 0.49363068
-0.25737762 -0.020606861 0.49333048
-0.25525439 -0.019831568 0.49302861
-0.25313568 -0.019058526 0.49272525
-0.25182527 -0.018395409 0.49319121
-0.2497132 -0.017625734 0.49288544
-0.24760555 -0.016858295 0.49257815
-0.24550228 -0.016093127 0.49226916
-0.24340354 -0.015330181 0.49195874
-0.24210195 -0.014671549 0.49242154
-0.24000989 -0.01391197 0.49210864
-0.23871057 -0.013254479 0.49257067
-0.23662506 -0.01249826 0.49225548
-0.235328 -0.011841878 0.4927167
-0.23403089 -0.011185512 0.49317792
-0.23195426 -0.010433786 0.49285954
-0.23143665 -0.0098727494 0.49410036
-0.23013957 -0.0092163682 0.49456158
-0.22884248 -0.0085599869 0.4950228
-0.22677474 -0.0078127608 0.49470127
-0.22624828 -0.0072472543 0.49594525
-0.22418498 -0.0065022483 0.49562213
-0.22289006 -0.0058469847 0.49608257
-0.22159521 -0.0051917359 0.49654299
-0.21954076 -0.0044512227 0.49621671
-0.21749078 -0.0037129745 0.49588895
-0.21620028 -0.0030599535 0.49634778
-0.21415697 -0.0023250617 0.49601758
-0.21286874 -0.0016731806 0.49647567
-0.21083204 -0.0009416528 0.49614313
-0.20805351 -0.00013384968 0.49501756
-0.20677195 0.00051467121 0.49547327
-0.20474856 0.0012394711 0.49513593
-0.2034692 0.001886867 0.49559087
-0.20145245 0.0026082993 0.49525124
-0.2001753 0.003254585 0.49570537
-0.19889815 0.0039008632 0.49615949
-0.19689028 0.0046178028 0.49581668
-0.1956154 0.0052629635 0.49627
-0.19434045 0.0059081241 0.49672335
-0.19234143 0.0066205785 0.49637735
-0.19106869 0.0072646141 0.49682993
-0.18979602 0.0079086423 0.49728245
-0.18852328 0.0085526779 0.49773499
-0.18653534 0.009259522 0.49738508
-0.18526487 0.00990244 0.49783683
-0.18328361 0.010605909 0.49748462
-0.18201534 0.011247702 0.49793559
-0.18074708 0.011889495 0.49838656
-0.17877467 0.012588486 0.49803111
-0.17750861 0.013229162 0.4984813
-0.17624258 0.013869829 0.49893147
-0.17427902 0.01456433 0.49857295
-0.17301522 0.015203873 0.49902233
-0.17105828 0.015895011 0.49866134
-0.16979669 0.016533436 0.49910992
-0.16784646 0.017221203 0.49874666
-0.16658704 0.017858503 0.49919447
-0.16464351 0.01854291 0.49882877
-0.16338627 0.019179085 0.4992758
-0.16144936 0.019860132 0.4989078
-0.16019438 0.020495189 0.49935406
-0.15893941 0.021130247 0.49980029
-0.15701135 0.021806797 0.49942911
-0.1557586 0.02244073 0.49987453
-0.15450583 0.023074677 0.50032002
-0.15258668 0.023746731 0.49994564
-0.15133612 0.024379553 0.50039029
-0.15008558 0.025012361 0.50083494
-0.14817528 0.025679944 0.50045753
-0.14692698 0.026311627 0.50090134
-0.14502333 0.02697584 0.50052148
-0.14377724 0.027606413 0.50096458
-0.1418802 0.028267249 0.5005824
-0.1399876 0.028925849 0.50019848
-0.13874595 0.029554179 0.50064003
-0.13686 0.030209407 0.50025392
-0.13562058 0.030836612 0.50069463
-0.1343811 0.031463817 0.50113535
-0.13250406 0.032114562 0.50074601
-0.13126682 0.032740641 0.50118589
-0.12939642 0.033388019 0.50079429
-0.12816142 0.034012988 0.50123346
-0.1262977 0.034656987 0.50083935
-0.12506489 0.035280831 0.50127769
-0.12320776 0.035921473 0.50088125
-0.1213551 0.03655988 0.50048327
-0.12012671 0.037181474 0.50092006
-0.11828075 0.037816506 0.50051969
-0.11705457 0.038436983 0.5009557
-0.11582844 0.03905746 0.50139165
-0.11399131 0.039687999 0.50098813
-0.11215858 0.040316306 0.50058305
-0.11093687 0.040934533 0.50101745
-0.10971515 0.04155276 0.50145185
-0.10789131 0.042176578 0.50104362
-0.1066718 0.042793684 0.50147724
-0.10485463 0.043414138 0.50106668
-0.1030419 0.044032335 0.50065452
-0.10123359 0.044648297 0.50024068
-0.10002072 0.045262039 0.50067198
-0.098219022 0.045874625 0.50025582
-0.097008392 0.046487249 0.50068629
-0.095213398 0.047096483 0.5002678
-0.094004974 0.047707975 0.50069749
-0.092216656 0.048313841 0.50027668
-0.091010436 0.048924215 0.5007056
-0.089228734 0.049526714 0.50028229
-0.08802478 0.050135963 0.50071043
-0.086820796 0.050745219 0.50113857
-0.085047945 0.051343225 0.50071216
-0.083846197 0.051951356 0.50113952
-0.082644448 0.052559488 0.50156683
-0.081442669 0.053167619 0.50199413
-0.08024092 0.05377575 0.5024215
-0.078481361 0.054367028 0.50199032
-0.077281818 0.054974034 0.50241685
-0.076082274 0.055581048 0.50284338
-0.074882731 0.056188054 0.50326985
-0.073134288 0.056773722 0.50283486
-0.039441571 0.070832297 0.50424761
-0.037772939 0.071377575 0.50378418
-0.036599979 0.071971118 0.50420129
-0.034937993 0.072513022 0.50373542
-0.033280447 0.073052689 0.503268
-0.032111958 0.073643982 0.50368357
-0.030943438 0.074235283 0.50409901
-0.029294774 0.074770465 0.50362849
-0.02812849 0.075360641 0.50404322
-0.026486501 0.075892448 0.50357032
-0.025322422 0.076481506 0.50398421
-0.024158373 0.077070564 0.50439817
-0.022994295 0.077659622 0.50481206
-0.021363363 0.078185827 0.50433528
-0.020201519 0.078773759 0.50474834
-0.019039676 0.0793617 0.50516152
-0.017877817 0.079949632 0.50557464
-0.016257957 0.080470212 0.50509381
-0.015098318 0.081057027 0.50550616
-0.013485119 0.081574254 0.505023
-0.012327716 0.082159944 0.50543463
-0.010721162 0.082673803 0.50494909
-0.0095659792 0.083258368 0.50535989
-0.0084107816 0.083842941 0.50577062
-0.0068131089 0.084352307 0.50528193
-0.0056601316 0.084935755 0.50569195
-0.0040691048 0.085441761 0.50520092
-0.0029183477 0.086024083 0.50561011
-0.0017675757 0.086606413 0.50601929
-0.00018540025 0.087107919 0.50552505
0.00096313655 0.087689124 0.50593346
0.0025386363 0.088187277 0.5054369
0.0036849678 0.088767357 0.50584453
0.0052538067 0.089262135 0.50534558
0.0063979179 0.089841098 0.50575244
0.007542029 0.090420052 0.50615925
0.0091020018 0.090910353 0.5056572
0.010243908 0.09148819 0.50606322
0.011385784 0.092066027 0.50646925
0.012527689 0.092643864 0.50687528
0.01366958 0.093221702 0.5072813
0.014811471 0.093799539 0.50768733
0.015953362 0.094377369 0.50809336
0.017495617 0.094858691 0.50758493
0.018635303 0.095435403 0.50799024
0.019774973 0.096012115 0.50839543
0.020914644 0.096588835 0.50880075
0.02205433 0.097165547 0.50920594
0.023194 0.09774226 0.50961119
0.024333671 0.098318979 0.51001644
0.025858179 0.098791324 0.50950176
0.026995644 0.099366918 0.50990623
0.028513491 0.099835895 0.50938916
0.029648736 0.10041036 0.5097928
0.031159937 0.10087597 0.50927341
0.032292962 0.10144933 0.50967634
0.033425987 0.10202268 0.51007921
0.034928322 0.10248379 0.50955665
0.036059126 0.10305602 0.50995874
0.037554815 0.10351378 0.50943375
0.038683414 0.10408488 0.50983506
0.039811999 0.10465598 0.51023638
0.041298807 0.10510926 0.50970829
0.042425185 0.10567924 0.51010883
0.043905348 0.10612914 0.50957835
0.045381054 0.1065768 0.50904638
0.046502993 0.10714454 0.50944531
0.047972098 0.10758883 0.50891089
0.049091816 0.10815544 0.50930905
0.050554216 0.10859637 0.50877225
0.051671728 0.10916187 0.50916964
0.053127497 0.10959943 0.50863051
0.054242775 0.1101638 0.50902712
0.055691898 0.110598 0.50848562
0.05713658 0.11102995 0.50794256
0.058247432 0.11159208 0.50833756
0.059358284 0.11215421 0.50873256
0.060469136 0.11271633 0.50912756
0.061902747 0.11314267 0.50858045
0.063331917 0.11356677 0.5080319
0.064438328 0.11412665 0.50842535
0.065544739 0.11468654 0.50881875
0.066651165 0.11524642 0.50921214
0.068069234 0.11566491 0.50865966
0.06917344 0.11622367 0.50905228
0.070584863 0.11663879 0.50849736
0.071686849 0.11719643 0.5088892
0.07278882 0.11775407 0.50928104
0.073890805 0.1183117 0.50967288
0.074992791 0.11886935 0.51006472
0.076094761 0.119427 0.51045656
0.077196762 0.11998463 0.5108484
0.078298733 0.12054227 0.51124024
0.079690203 0.12094729 0.51067829
0.080789968 0.12150381 0.5110693
0.081889734 0.12206033 0.51146042
0.082989499 0.12261685 0.51185143
0.084369883 0.12301627 0.51128554
0.085467428 0.12357166 0.51167578
0.086564973 0.12412706 0.51206601
0.087662533 0.12468246 0.5124563
0.089031816 0.12507625 0.51188642
0.090127155 0.12563053 0.51227593
0.091489792 0.12602097 0.51170367
0.092582896 0.12657411 0.51209235
0.093938917 0.12696119 0.51151776
0.095029816 0.12751321 0.51190567
0.0961207 0.12806526 0.51229358
0.097467825 0.12844783 0.51171577
0.098556496 0.12899874 0.5121029
0.099645175 0.12954965 0.51249003
0.10073385 0.13010056 0.51287711
0.1020699 0.13047753 0.51229542
0.10315637 0.13102731 0.51268172
0.10424282 0.1315771 0.51306808
0.10556999 0.13194959 0.51248324
0.10665424 0.13249825 0.51286876
0.10773848 0.13304691 0.51325428
0.10882272 0.13359557 0.51363981
0.1101388 0.13396245 0.51305103
0.11122082 0.13451 0.51343584
0.11230285 0.13505754 0.51382053
0.11338487 0.13560508 0.51420528
0.11468989 0.13596633 0.51361251
0.11576969 0.13651276 0.51399648
0.11706804 0.13687065 0.51340139
0.11814563 0.13741596 0.51378453
0.11922322 0.13796125 0.51416773
0.12030081 0.13850656 0.51455092
0.12158807 0.13885884 0.51395184
0.12266345 0.13940302 0.5143342
0.12373882 0.13994719 0.51471663
0.12501721 0.140295 0.51411438
0.12609038 0.14083806 0.51449603
0.12716353 0.14138111 0.51487762
0.12843305 0.14172441 0.51427221
0.129504 0.14226633 0.51465303
0.13057494 0.14280827 0.51503384
0.13164587 0.1433502 0.51541466
0.13290429 0.14368792 0.51480538
0.13397303 0.14422873 0.51518536
0.13504174 0.14476953 0.5155654
0.13629131 0.14510274 0.51495296
0.13735782 0.14564243 0.51533222
0.13842432 0.14618212 0.51571143
0.13949084 0.14672181 0.51609063
0.14072932 0.14704943 0.5154742
0.14179361 0.14758798 0.51585269
0.14302543 0.14791222 0.51523393
0.14408751 0.14844966 0.51561159
0.14531267 0.14877054 0.51499045
0.14637253 0.14930686 0.51536727
0.14759105 0.14962436 0.5147438
0.14864869 0.15015957 0.51511991
0.14970633 0.15069476 0.51549602
0.15091598 0.15100777 0.51486933
0.15212122 0.15131855 0.5142411
0.1531744 0.15185151 0.5146156
0.15422761 0.15238446 0.51499009
0.15542397 0.15269075 0.51435876
0.15647495 0.15322259 0.51473248
0.15766466 0.1535255 0.51409876
0.15871343 0.15405622 0.51447165
0.15989645 0.15435576 0.51383555
0.16094302 0.15488535 0.51420772
0.16211942 0.15518156 0.51356924
0.16316375 0.15571001 0.51394057
0.16433349 0.15600283 0.5132997
0.16537561 0.15653017 0.51367033
-0.29149926 -0.033154756 0.4916895
-0.29016221 -0.032478169 0.49216491
-0.28882521 -0.031801596 0.49264035
-0.28664118 -0.030998349 0.49236035
-0.28530639 -0.030322894 0.49283499
-0.28397161 -0.02964747 0.49330959
-0.28263682 -0.028972 0.49378422
-0.28130203 -0.028296545 0.49425882
-0.27996725 -0.02762109 0.49473345
-0.27779865 -0.026825741 0.49444783
-0.27646601 -0.026151389 0.49492168
-0.27430415 -0.025359385 0.49463379
-0.27297384 -0.024686195 0.49510682
-0.27081865 -0.023897544 0.49481651
-0.26866782 -0.023111127 0.49452472
-0.26734191 -0.022440188 0.49499616
-0.2643795 -0.021545067 0.49393621
-0.26224202 -0.020765379 0.49363968
-0.26092273 -0.020097792 0.49410877
-0.25879192 -0.019321509 0.49380979
-0.25585616 -0.018439874 0.49274036
-0.25454354 -0.01777564 0.4932071
-0.25242603 -0.017006062 0.49290347
-0.25031292 -0.016238734 0.49259818
-0.24900474 -0.01557675 0.49306333
-0.24609999 -0.014710829 0.49198288
-0.2447962 -0.014051072 0.49244648
-0.24269865 -0.013291597 0.4921357
-0.24139713 -0.012632988 0.49259853
-0.2393062 -0.011876881 0.49228534
-0.23800687 -0.011219382 0.49274734
-0.23670755 -0.010561876 0.49320936
-0.2346255 -0.0098102614 0.4928931
-0.23332845 -0.0091538802 0.49335432
-0.23203133 -0.0084975064 0.49381554
-0.23073421 -0.0078411251 0.49427676
-0.2294371 -0.0071847439 0.49473798
-0.22813998 -0.0065283701 0.4951992
-0.22684292 -0.0058720037 0.49566042
-0.22477858 -0.0051293522 0.49533778
-0.2234837 -0.0044740885 0.49579823
-0.22218882 -0.0038188398 0.49625865
-0.22013335 -0.003080681 0.49593288
-0.21808235 -0.0023447797 0.49560559
-0.21679188 -0.0016917586 0.49606442
-0.21474753 -0.00095922127 0.49573469
-0.21270762 -0.00022892281 0.49540347
-0.21142159 0.0004218407 0.49586073
-0.20938833 0.0011487715 0.49552706
-0.20735948 0.0018734634 0.49519181
-0.20607786 0.0025219917 0.49564755
-0.20405571 0.0032433048 0.49530992
-0.20277633 0.0038907155 0.49576485
-0.2007608 0.0046086758 0.49542493
-0.19948365 0.0052549541 0.49587905
-0.19820653 0.0059012324 0.49633315
-0.19692938 0.0065475069 0.49678728
-0.19492491 0.0072598532 0.49644336
-0.19364999 0.0079050064 0.49689671
-0.19165216 0.0086139962 0.49655044
-0.19037946 0.0092580244 0.49700296
-0.18910675 0.00990206 0.49745554
-0.18783401 0.010546096 0.49790806
-0.1865613 0.011190139 0.49836063
-0.18457685 0.011892382 0.49800959
-0.18259679 0.01259239 0.49765706
-0.18132849 0.013234183 0.49810806
-0.18006019 0.013875976 0.49855903
-0.17808901 0.014571493 0.49820328
-0.17682298 0.015212161 0.49865347
-0.17555688 0.015852837 0.49910364
-0.17359461 0.016543852 0.49874479
-0.17233075 0.017183403 0.4991942
-0.17037503 0.017871069 0.49883288
-0.16911341 0.018509494 0.4992815
-0.16716443 0.019193785 0.49891794
-0.16590498 0.019831093 0.49936575
-0.16396265 0.020512016 0.49899974
-0.16270544 0.021148207 0.49944678
-0.16076975 0.02182577 0.49907848
-0.15951477 0.022460828 0.49952471
-0.15825976 0.023095893 0.49997097
-0.15700482 0.02373095 0.50041723
-0.15508015 0.024402907 0.50004494
-0.15382738 0.02503684 0.50049037
-0.1519094 0.025705433 0.50011569
-0.15065889 0.02633824 0.50056034
-0.14940833 0.026971063 0.50100505
-0.14749925 0.027635152 0.50062728
-0.14625092 0.028266849 0.5010711
-0.14434849 0.028927587 0.50069094
-0.14310236 0.029558159 0.50113404
-0.14055686 0.030242326 0.49992585
-0.13931517 0.030870656 0.5003674
-0.13807349 0.031498976 0.50080884
-0.13618879 0.032150734 0.50042248
-0.13494931 0.032777939 0.50086319
-0.13307126 0.033426333 0.50047433
-0.13183402 0.034052413 0.50091422
-0.1305968 0.0346785 0.50135416
-0.1287276 0.035322409 0.50096226
-0.12749259 0.035947364 0.50140136
-0.12563004 0.036587901 0.50100696
-0.12377189 0.037226193 0.50061107
-0.12254132 0.037848912 0.50104862
-0.12068985 0.038483843 0.50065029
-0.11946146 0.039105438 0.50108707
-0.1176167 0.039737001 0.50068641
-0.11639057 0.040357478 0.50112247
-0.11455239 0.040985666 0.50071943
-0.11332847 0.041605018 0.5011546
-0.11149694 0.04222985 0.50074917
-0.11027522 0.042848077 0.50118363
-0.10845037 0.043469541 0.50077581
-0.10723089 0.044086646 0.50120944
-0.10541268 0.04470475 0.50079936
-0.10359894 0.045320593 0.50038767
-0.10238384 0.045935459 0.50081974
-0.10057674 0.046547949 0.50040567
-0.099363908 0.047161691 0.50083691
-0.097563401 0.047770813 0.50042045
-0.096352771 0.048383437 0.50085092
-0.094558969 0.048989184 0.50043213
-0.093350574 0.049600683 0.50086182
-0.091563419 0.050203077 0.50044072
-0.090357229 0.050813451 0.50086957
-0.08915101 0.051423825 0.50129849
-0.087372735 0.052021727 0.50087416
-0.086168751 0.052630983 0.50130224
-0.084964797 0.053240232 0.50173032
-0.083195373 0.053833649 0.50130296
-0.081993625 0.05444178 0.50173026
-0.080791846 0.055049911 0.50215757
-0.079590097 0.055658042 0.50258487
-0.078388318 0.056266174 0.50301218
-0.076632187 0.056852855 0.50257993
-0.042330608 0.070888907 0.5031538
-0.041155443 0.071483575 0.50357169
-0.039980277 0.072078243 0.50398958
-0.038310632 0.072621167 0.50352663
-0.037137702 0.073214717 0.50394368
-0.035474703 0.073754273 0.50347829
-0.034303978 0.074346691 0.50389457
-0.032647654 0.07488288 0.50342691
-0.031479135 0.07547418 0.50384247
-0.030310646 0.076065481 0.50425792
-0.028663173 0.076597191 0.5037871
-0.027496889 0.077187367 0.50420177
-0.026330605 0.07777755 0.5046165
-0.024692014 0.07830476 0.50414252
-0.02352795 0.078893818 0.50455642
-0.022363886 0.079482876 0.50497037
-0.021199822 0.080071934 0.50538433
-0.019572303 0.080593541 0.50490636
-0.018410459 0.081181474 0.50531948
-0.01678957 0.081699707 0.50483918
-0.015629932 0.082286514 0.50525153
-0.014015719 0.082801402 0.50476885
-0.012858316 0.083387092 0.50518042
-0.011250749 0.083898589 0.50469542
-0.010095567 0.084483162 0.50510621
-0.0089403689 0.085067734 0.50551695
-0.007341668 0.085574746 0.50502878
-0.0061886907 0.086158201 0.50543875
-0.0050357133 0.086741641 0.50584877
-0.0034458935 0.087244168 0.50535738
-0.0022951365 0.087826498 0.50576663
-0.00071193278 0.088325657 0.50527287
0.00043660402 0.088906862 0.50568128
0.0015851408 0.089488067 0.50608963
0.0031594485 0.089982741 0.50559282
0.0043057799 0.09056282 0.5060004
0.0054521114 0.091142908 0.50640798
0.0070175231 0.091633096 0.50590801
0.0081616342 0.092212051 0.50631487
0.0093057454 0.092791013 0.50672168
0.010449842 0.093369976 0.50712848
0.011593953 0.093948931 0.50753534
0.013146088 0.094432391 0.50703061
0.014287978 0.095010228 0.50743663
0.015429869 0.095588058 0.50784266
0.016571775 0.096165895 0.50824869
0.017713651 0.096743733 0.50865471
0.019252494 0.097220451 0.50814521
0.020392179 0.09779717 0.50855041
0.02153185 0.098373882 0.50895572
0.022671536 0.098950595 0.50936091
0.023811206 0.099527314 0.50976616
0.025336727 0.099997312 0.50925195
0.026474178 0.1005729 0.50965643
0.027993053 0.10103953 0.5091399
0.029128298 0.101614 0.50954354
0.030640513 0.10207726 0.50902462
0.031773537 0.10265061 0.50942755
0.032906562 0.10322396 0.50983042
0.03440991 0.10368273 0.50930834
0.035540715 0.10425495 0.50971043
0.037037432 0.10471036 0.50918591
0.038166016 0.10528146 0.50958723
0.0392946 0.10585257 0.50998855
0.0404232 0.10642368 0.5103898
0.041908816 0.10687347 0.50986147
0.043389991 0.10732102 0.50933152
0.044514135 0.10788988 0.50973129
0.045988649 0.10833407 0.5091989
0.047110587 0.10890181 0.5095979
0.048232526 0.10946955 0.50999677
0.049698219 0.10990924 0.50946128
0.051159412 0.11034669 0.50892425
0.052276924 0.11091218 0.50932157
0.053731486 0.11134627 0.50878215
0.054846779 0.11191065 0.50917876
0.056294695 0.11234137 0.50863695
0.057407767 0.11290462 0.50903273
0.058849022 0.11333198 0.50848866
0.059959874 0.1138941 0.5088836
0.061070725 0.11445624 0.5092786
0.062503144 0.1148791 0.50873125
0.063611776 0.11544011 0.50912547
0.065037519 0.11585961 0.5085758
0.066143945 0.11641949 0.50896919
0.067250356 0.11697938 0.50936264
0.068356767 0.11753926 0.50975603
0.069771424 0.11795315 0.50920248
0.07087563 0.11851192 0.50959504
0.071979836 0.11907068 0.50998771
0.073385611 0.11948008 0.50943089
0.074487597 0.12003772 0.50982273
0.075589582 0.12059537 0.51021457
0.076691568 0.121153 0.51060641
0.077793539 0.12171064 0.51099825
0.078895524 0.12226829 0.51139009
0.07999751 0.12282592 0.51178193
0.081099495 0.12338357 0.51217377
0.082485333 0.12378287 0.51160991
0.083585098 0.12433939 0.51200098
0.084684849 0.12489591 0.51239204
0.08606182 0.12529072 0.51182503
0.087159365 0.12584612 0.51221526
0.08825691 0.12640151 0.51260555
0.089625016 0.12679185 0.51203537
0.090988666 0.12717994 0.51146364
0.09208177 0.12773308 0.51185232
0.09317489 0.12828624 0.51224101
0.094268009 0.12883939 0.51262969
0.095620602 0.12922186 0.51205397
0.096711501 0.1297739 0.51244187
0.098057404 0.130153 0.51186383
0.099146083 0.13070391 0.51225096
0.10023476 0.13125482 0.51263809
0.10132344 0.13180573 0.51302516
0.10241211 0.13235664 0.51341224
0.10374475 0.13272901 0.51282948
0.1048312 0.1332788 0.51321578
0.10615718 0.13364781 0.5126307
0.10724142 0.13419648 0.51301622
0.10832566 0.13474514 0.51340175
0.10940991 0.13529381 0.51378727
0.11072478 0.13565721 0.5131982
0.11180681 0.13620475 0.51358294
0.11288884 0.13675229 0.51396769
0.11397086 0.13729984 0.51435244
0.11527467 0.13765761 0.51375937
0.11635448 0.13820404 0.51414335
0.11765162 0.13855848 0.5135479
0.11872921 0.13910377 0.5139311
0.1198068 0.13964906 0.51431429
0.1208844 0.14019437 0.51469743
0.12217045 0.14054316 0.51409805
0.12324582 0.14108735 0.51448047
0.12432121 0.14163154 0.51486284
0.1255984 0.14197586 0.51426035
0.12667155 0.14251892 0.51464194
0.1277447 0.14306197 0.51502353
0.12881786 0.14360502 0.51540512
0.13008398 0.14394373 0.51479864
0.13115492 0.14448567 0.51517951
0.13222587 0.14502759 0.51556027
0.13329679 0.14556953 0.51594108
0.13455181 0.14590265 0.51533067
0.13562052 0.14644346 0.51571071
0.13668925 0.14698426 0.51609075
0.1379354 0.14731288 0.51547718
0.13900191 0.14785257 0.51585644
0.14024141 0.14817783 0.51524055
0.1413057 0.14871639 0.51561892
0.14236999 0.14925495 0.51599741
0.14360061 0.14957573 0.51537836
0.1448268 0.14989424 0.51475769
0.14588666 0.15043056 0.51513457
0.1471062 0.15074572 0.51451159
0.14816383 0.15128091 0.51488769
0.14922148 0.15181613 0.51526374
0.15043214 0.15212679 0.51463759
0.15148756 0.15266086 0.51501286
0.15269157 0.15296815 0.51438433
0.15374479 0.15350112 0.51475883
0.15479799 0.15403408 0.51513332
0.15599313 0.15433688 0.51450169
0.15718386 0.15463746 0.51386845
0.15823263 0.15516818 0.51424134
0.15941668 0.15546536 0.51360571
0.16046324 0.15599495 0.51397789
0.16164066 0.1562888 0.51333988
0.16268498 0.15681726 0.51371121
0.16372932 0.15734574 0.51408255
0.16489786 0.15763508 0.51344144
-0.29211217 -0.031737193 0.49139592
-0.29077518 -0.031060606 0.49187133
-0.28943813 -0.030384034 0.49234676
-0.28810114 -0.029707462 0.49282217
-0.28676409 -0.029030874 0.49329758
-0.28458351 -0.028232262 0.49301648
-0.28324872 -0.027556792 0.49349111
-0.28191394 -0.026881337 0.49396574
-0.28057915 -0.026205882 0.49444035
-0.27924436 -0.025530443 0.49491498
-0.27707696 -0.02473852 0.49462906
-0.27491409 -0.023948871 0.49434167
-0.27358377 -0.023275681 0.49481469
-0.27142751 -0.022489384 0.49452487
-0.26927567 -0.021705315 0.49423355
-0.26794976 -0.021034375 0.49470502
-0.26580453 -0.020253673 0.49441126
-0.26366383 -0.019475222 0.49411592
-0.26152754 -0.018699035 0.49381906
-0.25939572 -0.017925099 0.49352056
-0.25726831 -0.017153405 0.49322057
-0.25514531 -0.016383931 0.49291885
-0.25302672 -0.015616708 0.4926157
-0.25171632 -0.014953606 0.49308166
-0.24960445 -0.01418975 0.49277607
-0.24749701 -0.013428144 0.49246895
-0.24539392 -0.012668766 0.49216017
-0.2432953 -0.011911646 0.4918499
-0.24199377 -0.011253037 0.4923127
-0.23990189 -0.010499276 0.49200001
-0.23860256 -0.0098417774 0.49246204
-0.23730324 -0.0091842785 0.49292403
-0.23600392 -0.0085267797 0.49338603
-0.23392306 -0.0077786297 0.49306947
-0.23340528 -0.007211782 0.49431005
-0.23210596 -0.0065542683 0.49477208
-0.23003177 -0.0058095008 0.49445313
-0.22873466 -0.0051531196 0.49491435
-0.22743757 -0.0044967532 0.49537557
-0.22537221 -0.0037564561 0.49505344
-0.22407733 -0.0031011924 0.49551389
-0.22201861 -0.0023642704 0.49518937
-0.22072597 -0.0017101318 0.49564901
-0.21867393 -0.00097658485 0.4953222
-0.21738349 -0.00032356381 0.49578106
-0.2153381 0.00040661916 0.49545181
-0.21329717 0.0011345707 0.49512106
-0.21201117 0.0017853342 0.49557835
-0.20997687 0.0025099181 0.49524516
-0.20869307 0.0031595565 0.49570164
-0.20666541 0.0038807839 0.4953661
-0.20538382 0.0045293048 0.4958218
-0.20336284 0.0052471533 0.49548388
-0.20208345 0.0058945641 0.49593881
-0.20006914 0.0066090412 0.49559858
-0.198792 0.0072553195 0.49605271
-0.19751485 0.0079015978 0.49650684
-0.1962377 0.0085478835 0.49696097
-0.19423448 0.0092567503 0.49661675
-0.19295953 0.009901911 0.49707007
-0.1909629 0.010607418 0.4967235
-0.18969019 0.011251453 0.49717605
-0.18841748 0.011895489 0.4976286
-0.18714474 0.012539532 0.49808115
-0.18587206 0.01318356 0.4985337
-0.18388878 0.013882335 0.49818239
-0.1819099 0.01457887 0.49782956
-0.18064164 0.015220663 0.49828053
-0.17937337 0.015862456 0.49873149
-0.17740338 0.016554499 0.49837545
-0.17613731 0.017195174 0.49882561
-0.17487128 0.017835835 0.4992758
-0.17291014 0.018523389 0.49891669
-0.17164631 0.019162932 0.49936604
-0.16969179 0.01984713 0.49900445
-0.16843019 0.020485548 0.49945304
-0.16648237 0.021166379 0.49908918
-0.16453896 0.021844948 0.49872366
-0.16328178 0.022481138 0.49917069
-0.1620246 0.023117321 0.49961773
-0.16009007 0.023791408 0.49924913
-0.1588351 0.024426473 0.49969536
-0.15758012 0.025061531 0.50014162
-0.15632515 0.025696596 0.50058782
-0.1544017 0.026365073 0.50021529
-0.15314893 0.026999013 0.50066072
-0.15189622 0.027632946 0.50110614
-0.14998163 0.028296942 0.5007304
-0.1487311 0.02892975 0.50117505
-0.14682321 0.029590381 0.50079703
-0.14491974 0.030248769 0.50041729
-0.14367364 0.030879341 0.50086039
-0.14177682 0.031534351 0.50047839
-0.1398844 0.032187127 0.50009471
-0.13864271 0.032815449 0.5005362
-0.136757 0.033464864 0.50015026
-0.13551755 0.034092069 0.50059098
-0.1342781 0.034719273 0.5010317
-0.13240121 0.035364188 0.50064254
-0.131164 0.035990275 0.50108248
-0.12929378 0.036631834 0.50069106
-0.12805878 0.037256788 0.50113016
-0.12619521 0.037894979 0.50073624
-0.12433605 0.038530916 0.50034082
-0.12310545 0.039153636 0.50077838
-0.121253 0.039786212 0.50038052
-0.12002461 0.040407807 0.5008173
-0.11817883 0.041037023 0.50041723
-0.11695267 0.0416575 0.50085318
-0.11511348 0.042283341 0.50045061
-0.11388956 0.042902693 0.50088584
-0.11205702 0.043525167 0.50048089
-0.1108353 0.044143394 0.50091529
-0.10900943 0.044762515 0.50050801
-0.10778995 0.04537962 0.50094163
-0.10597073 0.04599537 0.50053203
-0.10475348 0.046611346 0.50096488
-0.1029409 0.047223732 0.50055289
-0.1017258 0.047838598 0.50098497
-0.0999199 0.048447609 0.5005706
-0.098707065 0.049061351 0.50100183
-0.09690778 0.049667001 0.50058508
-0.09569715 0.050279617 0.50101554
-0.09390454 0.0508819 0.50059646
-0.092696115 0.051493399 0.50102615
-0.091487721 0.05210489 0.50145578
-0.089703992 0.052702695 0.5010336
-0.088497803 0.053313069 0.50146252
-0.087291583 0.053923443 0.50189137
-0.086085424 0.054533817 0.50232029
-0.084312752 0.055125996 0.50189412
-0.083108768 0.055735253 0.5023222
-0.081904814 0.056344509 0.50275028
-0.080141023 0.056932203 0.502321
-0.046232805 0.0710425 0.50381279
-0.044548854 0.071589805 0.50335509
-0.042869315 0.07213486 0.50289577
-0.041694179 0.072729528 0.50331366
-0.040519044 0.073324196 0.50373149
-0.039343879 0.073918864 0.50414938
-0.037675425 0.074458316 0.50368613
-0.036502495 0.075051859 0.50410318
-0.034840688 0.075587943 0.50363755
-0.033669963 0.076180369 0.50405383
-0.032014832 0.076713078 0.50358582
-0.030846342 0.077304378 0.50400132
-0.029677823 0.077895686 0.50441682
-0.028031573 0.078423917 0.50394571
-0.026865289 0.079014093 0.50436044
-0.02569899 0.079604276 0.50477511
-0.024061605 0.080128014 0.50430083
-0.022897542 0.080717072 0.50471473
-0.021733478 0.08130613 0.50512868
-0.020569399 0.081895187 0.50554258
-0.018943086 0.082413316 0.50506437
-0.017781243 0.083001256 0.50547749
-0.016161561 0.083516017 0.5049969
-0.015001938 0.084102832 0.50540924
-0.013388917 0.084614232 0.50492626
-0.012231514 0.085199922 0.50533783
-0.010625154 0.085707955 0.50485253
-0.0094699562 0.08629252 0.50526327
-0.0083147585 0.086877093 0.505674
-0.0067172647 0.08738064 0.5051856
-0.0055642873 0.087964088 0.50559556
-0.0039734393 0.088464268 0.50510466
-0.0028226823 0.089046597 0.50551391
-0.0012384802 0.089543402 0.50502062
-8.9928508e-05 0.090124607 0.50542903
0.0010586083 0.090705805 0.50583744
0.0026339293 0.091198131 0.50534105
0.0037802607 0.091778219 0.50574869
0.0049265772 0.092358291 0.50615633
0.0060729086 0.092938378 0.5065639
0.0072192401 0.093518458 0.50697148
0.0083655566 0.094098538 0.50737911
0.0099253505 0.094583012 0.50687724
0.011069462 0.095161974 0.50728405
0.012213573 0.095740929 0.50769091
0.013357669 0.096319884 0.50809771
0.01450178 0.096898846 0.50850451
0.016048282 0.097376585 0.50799793
0.017190173 0.097954422 0.50840396
0.018332064 0.098532259 0.50880998
0.0198697 0.099005505 0.50830019
0.021009386 0.099582225 0.50870538
0.022149056 0.10015894 0.50911069
0.023288727 0.10073565 0.50951588
0.024428412 0.10131237 0.50992119
0.025952727 0.10177889 0.50940669
0.027472615 0.10224316 0.50889063
0.02860786 0.10281763 0.50929427
0.02974309 0.10339211 0.50969791
0.031254113 0.10385189 0.50917876
0.032387137 0.10442524 0.50958157
0.033520162 0.10499859 0.50998449
0.035022303 0.10545389 0.50946212
0.036153123 0.10602612 0.50986421
0.037283927 0.10659835 0.5102663
0.038777217 0.10704915 0.50974071
0.039905801 0.10762025 0.51014197
0.041392431 0.10806771 0.50961411
0.042518809 0.10863768 0.51001465
0.043998778 0.10908177 0.50948441
0.045122936 0.10965063 0.50988412
0.046596244 0.11009134 0.50935149
0.047718182 0.11065908 0.50975049
0.049184889 0.11109642 0.50921541
0.050304607 0.11166304 0.50961351
0.051764607 0.11209702 0.50907624
0.05288212 0.11266251 0.50947356
0.053999618 0.11322801 0.50987089
0.055450767 0.1136575 0.50933039
0.05656606 0.11422187 0.509727
0.058010548 0.114648 0.50918412
0.059450626 0.11507189 0.50863969
0.060561478 0.11563402 0.50903463
0.06167233 0.11619615 0.50942969
0.063103527 0.11661553 0.50888205
0.064212158 0.11717654 0.50927621
0.065636709 0.11759257 0.50872624
0.066743135 0.11815245 0.50911963
0.067849547 0.11871234 0.50951308
0.068955958 0.11927222 0.50990653
0.070062384 0.11983211 0.51029992
0.071473613 0.12024141 0.50974524
0.072577819 0.12080017 0.51013786
0.07368201 0.12135893 0.51053047
0.074786216 0.12191769 0.51092315
0.075890407 0.12247646 0.5113157
0.076994613 0.12303522 0.51170838
0.07839033 0.12343666 0.5111481
0.079492316 0.1239943 0.51153994
0.080594286 0.12455194 0.51193178
0.081696272 0.12510958 0.51232362
0.082798257 0.12566721 0.51271546
0.084180668 0.12606193 0.51215053
0.085280433 0.12661844 0.51254159
0.086380199 0.12717497 0.51293266
0.087753758 0.12756519 0.51236451
0.088851303 0.12812059 0.5127548
0.090218201 0.12850744 0.51218432
0.091313526 0.12906173 0.51257378
0.092408851 0.12961599 0.51296329
0.093766883 0.12999836 0.51238966
0.094860002 0.13055152 0.51277834
0.096211389 0.13093051 0.51220232
0.097302273 0.13148254 0.51259023
0.098393172 0.13203457 0.51297814
0.099735662 0.1324091 0.51239896
0.10082434 0.13296001 0.51278609
0.10191302 0.13351092 0.51317322
0.1030017 0.13406181 0.5135603
0.10433313 0.13443071 0.51297724
0.10566012 0.13479738 0.51239258
0.10674436 0.13534604 0.5127781
0.1078286 0.13589472 0.51316369
0.10891286 0.13644338 0.51354921
0.1099971 0.13699204 0.51393473
0.11131077 0.13735196 0.51334536
0.11239279 0.1378995 0.51373005
0.11347482 0.13844705 0.51411486
0.11477964 0.1388025 0.51352227
0.11585945 0.13934891 0.51390624
0.11693925 0.13989532 0.51429015
0.1182352 0.14024629 0.51369447
0.11931279 0.14079158 0.51407766
0.12039039 0.14133689 0.5144608
0.12146798 0.14188218 0.51484394
0.12275283 0.14222752 0.51424432
0.12382822 0.14277169 0.51462668
0.12490359 0.14331588 0.51500905
0.12617958 0.14365673 0.51440632
0.12725273 0.14419979 0.51478791
0.12832588 0.14474283 0.5151695
0.12939905 0.14528589 0.51555109
0.13047221 0.14582895 0.51593268
0.13173491 0.14616306 0.51532507
0.13280582 0.14670499 0.51570594
0.13387677 0.14724693 0.5160867
0.13513058 0.14757656 0.51547605
0.1361993 0.14811738 0.51585603
0.13726802 0.14865819 0.51623607
0.13851297 0.14898333 0.51562226
0.13957947 0.14952302 0.51600146
0.14081779 0.1498448 0.51538527
0.14188206 0.15038335 0.51576364
0.14311373 0.15070178 0.51514512
0.14417578 0.15123922 0.51552278
0.14540078 0.15155426 0.51490182
0.14646064 0.15209059 0.5152787
0.14767897 0.15240228 0.51465541
0.14873663 0.15293747 0.51503146
0.14994828 0.15324578 0.51440579
0.15100372 0.15377986 0.51478112
0.15205912 0.15431395 0.51515639
0.15326194 0.15461777 0.51452756
0.15431516 0.15515073 0.51490206
0.15551132 0.15545119 0.5142709
0.1565623 0.15598303 0.51464462
0.15775183 0.15628012 0.51401103
0.1588006 0.15681082 0.51438397
0.15984938 0.15734154 0.51475692
0.16103001 0.15763415 0.51412022
0.16207655 0.15816374 0.51449233
-0.29358083 -0.030444935 0.49185446
-0.29138809 -0.029643044 0.49157774
-0.2900511 -0.028966472 0.49205315
-0.28871405 -0.028289899 0.49252856
-0.28737706 -0.027613312 0.49300396
-0.28604007 -0.026936755 0.49347937
-0.28386062 -0.026141584 0.49319798
-0.28252584 -0.025466129 0.49367261
-0.28119105 -0.024790674 0.49414724
-0.27985626 -0.024115235 0.49462187
-0.27852148 -0.023439765 0.4950965
-0.27635527 -0.022651345 0.49481025
-0.27419364 -0.021865167 0.49452257
-0.27203637 -0.021081224 0.49423322
-0.2707082 -0.020409137 0.4947055
-0.26855761 -0.019628569 0.49441385
-0.2672317 -0.0189576 0.49488533
-0.26426965 -0.018074125 0.49382573
-0.26213235 -0.017300293 0.49352938
-0.26081312 -0.016632702 0.49399847
-0.25868243 -0.015862226 0.49369967
-0.25574708 -0.01499223 0.4926306
-0.25443441 -0.014327995 0.49309736
-0.25231707 -0.013564251 0.49279389
-0.25020421 -0.01280275 0.4924888
-0.24889599 -0.012140766 0.49295396
-0.24678974 -0.011382632 0.49264655
-0.24468784 -0.010626726 0.49233747
-0.24259047 -0.0098730922 0.4920269
-0.24128895 -0.0092144608 0.4924897
-0.23919819 -0.0084641874 0.49217671
-0.23789887 -0.0078066811 0.49263871
-0.23659961 -0.0071491897 0.49310073
-0.23530023 -0.0064916834 0.49356273
-0.23400097 -0.0058341846 0.49402475
-0.23270158 -0.0051766783 0.49448675
-0.23062639 -0.0044342503 0.49416831
-0.22932927 -0.0037778765 0.49462953
-0.22726075 -0.0030388311 0.49430865
-0.22596584 -0.0023835674 0.4947691
-0.22467093 -0.0017283037 0.49522954
-0.22261123 -0.00099372864 0.4949055
-0.22131859 -0.00033959001 0.49536514
-0.21926554 0.00039160997 0.49503881
-0.21721689 0.0011205785 0.49471086
-0.21592869 0.001772467 0.49516892
-0.21464045 0.0024243556 0.49562699
-0.21260072 0.0031488277 0.49529594
-0.21131469 0.0037995912 0.49575323
-0.20928164 0.0045206957 0.49541974
-0.20725293 0.0052395761 0.49508467
-0.20597135 0.0058880895 0.49554038
-0.20468979 0.0065366216 0.49599609
-0.20266996 0.0072509982 0.49565786
-0.20139061 0.007898394 0.49611276
-0.19937749 0.0086094067 0.49577224
-0.19810034 0.0092556849 0.49622637
-0.19682319 0.0099019706 0.4966805
-0.19554608 0.010548241 0.49713463
-0.19354402 0.011253648 0.49679011
-0.1922691 0.011898801 0.49724346
-0.19099416 0.012543961 0.49769679
-0.18900095 0.013244871 0.49734911
-0.18772821 0.013888914 0.49780166
-0.18645553 0.014532942 0.49825421
-0.18518279 0.015176985 0.49870676
-0.1832007 0.015872288 0.49835515
-0.18122308 0.016565347 0.49800202
-0.17995478 0.01720714 0.49845299
-0.17868651 0.017848926 0.49890396
-0.17671771 0.018537508 0.49854761
-0.17545168 0.019178169 0.49899781
-0.17348953 0.019863373 0.49863914
-0.1722257 0.020502916 0.49908853
-0.17096184 0.021142466 0.49953791
-0.16900857 0.021823181 0.499176
-0.16774695 0.022461614 0.49962461
-0.16580032 0.023138957 0.49926043
-0.16454093 0.023776265 0.49970827
-0.16260092 0.024450252 0.49934167
-0.16134374 0.025086435 0.4997887
-0.1594104 0.02575705 0.49941981
-0.15815546 0.026392108 0.49986604
-0.15690048 0.027027173 0.50031227
-0.154976 0.0276933 0.49994016
-0.15372325 0.02832724 0.50038564
-0.15247051 0.028961172 0.50083107
-0.15055494 0.029622821 0.5004558
-0.1493044 0.030255629 0.50090045
-0.14739548 0.03091391 0.50052285
-0.14614718 0.031545609 0.50096679
-0.14424489 0.032200515 0.50058675
-0.1429988 0.032831088 0.50102985
-0.14045362 0.033503607 0.49982205
-0.13921194 0.034131929 0.50026357
-0.13797028 0.034760259 0.50070506
-0.13608576 0.035406191 0.50031883
-0.13484631 0.036033396 0.50075954
-0.13296841 0.03667596 0.50037086
-0.1317312 0.037302047 0.5008108
-0.12985997 0.037941255 0.50041986
-0.12862496 0.038566209 0.50085896
-0.12676035 0.039202046 0.50046557
-0.12552755 0.039825883 0.5009039
-0.12366961 0.040458355 0.50050819
-0.12243901 0.041081075 0.50094569
-0.12058775 0.041710179 0.50054759
-0.11935936 0.042331774 0.50098437
-0.11751477 0.042957518 0.50058395
-0.11628865 0.043577988 0.50101995
-0.11445068 0.044200361 0.50061703
-0.11322673 0.044819713 0.50105226
-0.1113954 0.045438714 0.50064707
-0.11017369 0.046056945 0.50108147
-0.10834901 0.046672583 0.50067389
-0.1071295 0.047289696 0.50110745
-0.1053115 0.047901958 0.50069761
-0.10409422 0.04851795 0.50113046
-0.10228287 0.049126856 0.50071812
-0.1010678 0.049741715 0.50115019
-0.099263057 0.050347261 0.50073552
-0.098050222 0.050961003 0.50116676
-0.096837386 0.051574744 0.501598
-0.095041499 0.052175798 0.50118017
-0.093830869 0.052788422 0.50161064
-0.092041716 0.053386107 0.50119042
-0.090833291 0.053997606 0.50162017
-0.089624867 0.054609098 0.5020498
-0.088416472 0.055220596 0.50247955
-0.086638376 0.055812679 0.50205541
-0.085432187 0.056423053 0.50248432
-0.049644813 0.071147926 0.50358927
-0.047953174 0.071696237 0.50313437
-0.046773598 0.072293147 0.50355375
-0.045088604 0.072838105 0.50309658
-0.043911234 0.073433891 0.50351518
-0.042232916 0.073975481 0.50305557
-0.041057751 0.074570142 0.50347346
-0.039882585 0.07516481 0.50389135
-0.03870745 0.075759478 0.50430918
-0.037040219 0.076295465 0.50384563
-0.035867259 0.076889008 0.50426269
-0.034206674 0.077421613 0.5037967
-0.033035949 0.078014031 0.50421298
-0.031865224 0.078606457 0.50462925
-0.03021352 0.079134583 0.50416023
-0.02904503 0.079725884 0.50457573
-0.027876511 0.080317184 0.50499123
-0.026233658 0.080840819 0.50451899
-0.025067374 0.081431001 0.50493371
-0.023431197 0.081951268 0.50445914
-0.022267118 0.082540326 0.50487304
-0.021103069 0.083129384 0.50528693
-0.01993899 0.083718441 0.50570089
-0.018313885 0.084233098 0.50522232
-0.01669319 0.084745511 0.50474226
-0.015533552 0.085332327 0.50515461
-0.013919517 0.085841373 0.50467211
-0.012762114 0.086427063 0.50508368
-0.011604697 0.087012753 0.50549519
-0.0099995434 0.087517321 0.50500959
-0.0088443458 0.088101886 0.50542033
-0.0072458237 0.088603079 0.5049324
-0.0060928613 0.089186527 0.50534236
-0.004939869 0.089769974 0.50575233
-0.003350243 0.090266682 0.50526118
-0.0017650127 0.09076114 0.50476843
-0.00061647594 0.091342345 0.50517678
0.00053207576 0.091923542 0.50558519
0.0016806126 0.092504747 0.5059936
0.0028291643 0.093085952 0.50640202
0.004401058 0.093573682 0.50590456
0.0055473894 0.094153762 0.50631213
0.0066937208 0.094733849 0.50671977
0.0078400522 0.095313922 0.5071274
0.0089863688 0.095894009 0.50753498
0.0101327 0.096474089 0.50794262
0.011279032 0.097054169 0.50835025
0.012833178 0.097532928 0.50784647
0.013977274 0.098111883 0.50825328
0.015121385 0.098690838 0.50866008
0.016666681 0.099165112 0.5081532
0.017808571 0.099742949 0.50855923
0.018950477 0.10032079 0.50896525
0.020486906 0.10079056 0.50845516
0.021626592 0.10136727 0.50886041
0.022766262 0.10194398 0.50926566
0.023905933 0.1025207 0.50967085
0.025431275 0.10298488 0.50915688
0.026952177 0.1034468 0.5086413
0.028087422 0.10402127 0.509045
0.029222652 0.10459574 0.50944865
0.030734688 0.10505317 0.50892991
0.031867713 0.10562652 0.50933278
0.033000737 0.10619988 0.5097357
0.034503907 0.10665282 0.50921381
0.035634711 0.10722505 0.5096159
0.036765516 0.10779727 0.51001799
0.038259834 0.10824573 0.50949287
0.039388418 0.10881683 0.50989413
0.040517002 0.10938794 0.51029551
0.041645601 0.10995904 0.51069677
0.043128803 0.1104019 0.51016784
0.044255182 0.11097188 0.51056832
0.045731738 0.11141137 0.510037
0.046855882 0.11198023 0.51043671
0.048325792 0.11241634 0.50990301
0.049447715 0.11298408 0.51030195
0.050911009 0.11341683 0.5097658
0.052369818 0.11384734 0.50922817
0.053487316 0.11441283 0.50962555
0.054939479 0.11483998 0.50908554
0.056054771 0.11540435 0.50948209
0.057500273 0.11582813 0.50893968
0.058613345 0.11639138 0.50933552
0.060052216 0.11681179 0.50879073
0.061163068 0.11737392 0.50918573
0.062595293 0.11779095 0.50863856
0.063703924 0.11835196 0.50903273
0.064812556 0.11891297 0.50942695
0.066235915 0.11932553 0.50887668
0.067342326 0.11988541 0.50927013
0.068448737 0.1204453 0.50966352
0.069555148 0.12100518 0.51005697
0.070661575 0.12156507 0.51045036
0.071767986 0.12212495 0.51084375
0.072874397 0.12268484 0.5112372
0.074280009 0.12308842 0.51068068
0.075384215 0.12364718 0.51107323
0.076488405 0.12420594 0.51146591
0.077592611 0.1247647 0.51185852
0.078696802 0.12532347 0.51225114
0.079801008 0.12588224 0.51264381
0.081191078 0.12627795 0.51208162
0.082293078 0.12683558 0.51247346
0.083395049 0.12739323 0.5128653
0.084497035 0.12795088 0.51325715
0.085876033 0.12834099 0.51269114
0.086975798 0.12889752 0.51308221
0.088348135 0.12928426 0.51251376
0.089445695 0.12983966 0.51290405
0.09054324 0.13039505 0.51329434
0.091906711 0.1307773 0.51272273
0.093002051 0.13133159 0.51311219
0.094358876 0.13171048 0.51253831
0.095451981 0.13226363 0.512927
0.09680216 0.13263917 0.51235068
0.097893074 0.1331912 0.51273859
0.098983966 0.13374323 0.51312649
0.10032526 0.13411427 0.51254702
0.10141393 0.13466518 0.51293415
0.10250261 0.13521609 0.51332128
0.10359129 0.13576698 0.51370835
0.10492152 0.13613242 0.51312494
0.10624731 0.13649561 0.51254004
0.10733154 0.13704427 0.51292557
0.1084158 0.13759294 0.51331109
0.10950004 0.1381416 0.51369667
0.11081472 0.13849919 0.51310772
0.11189675 0.13904673 0.51349247
0.11297877 0.13959426 0.51387721
0.11428461 0.13994735 0.51328516
0.11536442 0.14049378 0.51366913
0.11644423 0.14104021 0.51405305
0.1177412 0.1413888 0.51345783
0.11881879 0.1419341 0.51384103
0.11989638 0.14247939 0.51422417
0.12097397 0.14302468 0.51460731
0.12205156 0.14356999 0.51499051
0.12333522 0.14391187 0.51439059
0.12441059 0.14445603 0.51477289
0.12548596 0.14500022 0.51515532
0.12676075 0.1453376 0.51455224
0.1278339 0.14588064 0.51493382
0.12890707 0.1464237 0.51531541
0.12998024 0.14696676 0.515697
0.13105339 0.14750981 0.51607859
0.13231488 0.14784046 0.51547074
0.13338582 0.14838238 0.5158515
0.13445675 0.14892432 0.51623237
0.13570936 0.14925048 0.51562136
0.13677809 0.14979129 0.51600134
0.13802406 0.15011409 0.51538801
0.13909057 0.15065378 0.51576728
0.14015706 0.15119347 0.51614654
0.14139415 0.15151176 0.51552999
0.14245845 0.15205033 0.51590842
0.14368889 0.15236527 0.51528955
0.1449149 0.15267798 0.51466906
0.14597476 0.15321431 0.51504594
0.14703462 0.15375063 0.51542282
0.14825176 0.15405883 0.51479924
0.14930938 0.15459403 0.51517528
0.15036702 0.15512922 0.51555139
0.15157528 0.15543294 0.51492459
0.15263072 0.15596703 0.51529992
0.15383232 0.15626739 0.51467079
0.15488553 0.15680034 0.51504529
0.15608048 0.15709732 0.51441383
0.15713148 0.15762916 0.5147875
0.1583198 0.15792277 0.51415366
0.15936857 0.15845349 0.51452661
0.16041735 0.15898421 0.51489949
0.19998458 0.174391 0.51312292
0.20100009 0.17490488 0.513484
-0.29419476 -0.029025018 0.49156037
-0.29285556 -0.028347328 0.49203655
-0.2915163 -0.027669623 0.49251276
-0.28932703 -0.026872337 0.49223495
-0.28798997 -0.02619575 0.49271038
-0.28665298 -0.025519192 0.49318579
-0.28531599 -0.024842605 0.4936612
-0.28397894 -0.024166033 0.49413663
-0.28180295 -0.023375466 0.49385414
-0.28046817 -0.022700027 0.49432874
-0.27913338 -0.022024557 0.49480337
-0.27696615 -0.021238483 0.49451762
-0.27480352 -0.020454668 0.49423042
-0.27347314 -0.019781463 0.49470347
-0.27131712 -0.019000977 0.49441385
-0.26998895 -0.01832889 0.4948861
-0.26783955 -0.017551787 0.49459416
-0.2656945 -0.016776923 0.4943006
-0.26355398 -0.016004305 0.49400544
-0.26141793 -0.015233953 0.49370876
-0.25928622 -0.014465824 0.49341047
-0.2579692 -0.01379934 0.49387878
-0.25503618 -0.012936294 0.49280912
-0.25372356 -0.01227206 0.49327585
-0.25160742 -0.011511788 0.49297211
-0.24949573 -0.010753766 0.49266669
-0.24818753 -0.010091767 0.49313185
-0.24608244 -0.0093370974 0.49282414
-0.24398176 -0.0085846856 0.49251476
-0.24188565 -0.0078345165 0.49220389
-0.24058406 -0.0071758926 0.49266669
-0.23928253 -0.0065172687 0.49312949
-0.23719524 -0.0057715923 0.49281541
-0.23589592 -0.005114086 0.49327743
-0.2345966 -0.0044565871 0.49373943
-0.23329727 -0.0037990808 0.49420142
-0.23122104 -0.0030590072 0.49388349
-0.22992392 -0.0024026334 0.49434471
-0.22785436 -0.0016659275 0.49402431
-0.22655945 -0.0010106638 0.49448475
-0.22526456 -0.00035540015 0.49494517
-0.22320382 0.00037681311 0.49462163
-0.22191118 0.0010309517 0.49508131
-0.21985714 0.0017598048 0.49475545
-0.21856664 0.0024128184 0.49521431
-0.21651928 0.0031383075 0.49488604
-0.21523105 0.003790196 0.4953441
-0.2131903 0.0045123138 0.49501354
-0.21190427 0.0051630922 0.49547082
-0.21061824 0.0058138557 0.49592808
-0.20858638 0.0065314919 0.49559432
-0.20730259 0.0071811303 0.49605078
-0.20527731 0.0078954138 0.49571466
-0.20399569 0.0085439421 0.49617037
-0.20197712 0.0092548318 0.49583185
-0.20069776 0.0099022426 0.49628675
-0.19941841 0.010549638 0.49674168
-0.19740869 0.011256058 0.49640006
-0.19613157 0.011902329 0.49685419
-0.19485442 0.012548614 0.49730831
-0.19285356 0.013250537 0.4969635
-0.19157861 0.013895698 0.49741682
-0.1903037 0.014540849 0.49787015
-0.18831168 0.0152383 0.49752218
-0.18703897 0.015882328 0.49797475
-0.18576626 0.016526371 0.49842727
