# .PCD v0.7 - Point Cloud Data file format
VERSION 0.7
FIELDS x y z
SIZE 4 4 4
TYPE F F F
COUNT 1 1 1
WIDTH 1420
HEIGHT 1
VIEWPOINT 0 0 0 1 0 0 0
POINTS 1420
DATA ascii
0.15127407 0.019093722 0.42021376
0.15249363 0.019657027 0.41851002
0.15352023 0.020149618 0.41780636
0.15472424 0.020705059 0.4160971
0.15573978 0.021192037 0.41538954
0.15692829 0.021739626 0.4136748
0.15793271 0.022221001 0.4129633
0.15893273 0.022700123 0.41225019
0.16009906 0.023236498 0.41052753
0.16108799 0.023710009 0.40981048
0.16207246 0.024181277 0.40909189
0.16321662 0.024706436 0.40736136
0.16419002 0.025172092 0.40663877
0.16531867 0.025689391 0.40490273
0.16628098 0.026149442 0.40417624
0.16723886 0.026607241 0.40344816
0.16834532 0.027113326 0.40170422
0.16929211 0.02756552 0.40097219
0.17008588 0.0279672 0.40125442
0.17102602 0.028416038 0.40052009
0.17196175 0.028862614 0.39978409
0.1727511 0.029262051 0.40006477
0.17368013 0.029705271 0.39932644
0.17446727 0.030103585 0.39960635
0.1752544 0.030501904 0.39988622
0.1761746 0.030940633 0.39914471
0.17695951 0.031337827 0.39942384
0.17774442 0.031735022 0.39970291
0.17865574 0.032169264 0.3989583
0.17943844 0.032565333 0.39923662
0.18034309 0.032996215 0.39848962
0.18112358 0.033391163 0.39876714
0.18202159 0.033818673 0.39801773
0.18279985 0.0342125 0.39829448
0.18369122 0.034636643 0.39754274
0.18446726 0.035029348 0.39781868
0.18524331 0.035422053 0.39809465
0.1861258 0.035841718 0.39733973
0.18689963 0.036233302 0.3976149
0.18767345 0.036624886 0.39789006
0.18844728 0.037016466 0.3981652
0.18931869 0.03743051 0.3974064
0.1900903 0.037820973 0.39768076
0.19086191 0.038211431 0.39795512
0.19163352 0.038601894 0.39822948
0.19240513 0.038992357 0.39850387
0.19317675 0.039382815 0.39877823
0.19394834 0.039773274 0.39905259
0.19471996 0.040163737 0.39932695
0.19549155 0.040554196 0.39960134
0.19626316 0.040944658 0.3998757
0.19703478 0.041335121 0.40015006
0.19787958 0.041735701 0.39938176
0.19864896 0.042125043 0.39965534
0.19941837 0.042514384 0.39992893
0.20025429 0.042910472 0.39915746
0.20102146 0.043298692 0.39943027
0.20178863 0.043686908 0.39970306
0.20261571 0.044078514 0.39892846
0.20338067 0.044465613 0.39920047
0.20414561 0.044852704 0.39947248
0.20491058 0.045239802 0.39974448
0.20567554 0.04562689 0.40001649
0.20648929 0.046011768 0.39923713
0.20725203 0.046397738 0.39950836
0.20801477 0.046783715 0.39977956
0.20881966 0.047164097 0.3989971
0.20958018 0.04754895 0.39926752
0.21034071 0.047933802 0.39953795
0.21113673 0.048309702 0.3987523
0.21189503 0.048693433 0.39902192
0.21265334 0.049077161 0.39929157
0.21341164 0.049460888 0.3995612
0.21416995 0.049844615 0.39983085
0.21492825 0.050228346 0.40010047
0.21566436 0.050627753 0.4014309
0.1125609 0.0031888783 0.49936467
0.11430234 0.0039807707 0.49677822
0.11820418 0.0057169907 0.48961717
0.12035568 0.0066568293 0.48503941
0.12203505 0.0074173063 0.48243091
0.12392388 0.0082540065 0.47882828
0.12579498 0.0090817213 0.4752194
0.12721166 0.0097390525 0.47358605
0.12861949 0.010391906 0.47194952
0.13001844 0.011040274 0.47030982
0.13119684 0.011606801 0.46966031
0.13258028 0.012247302 0.4680151
0.13436933 0.013033509 0.46437702
0.14899784 0.01906617 0.420425
0.15003878 0.019563135 0.41972658
0.15107529 0.020057864 0.41902655
0.15229464 0.020615339 0.41732302
0.15332006 0.021104462 0.41661909
0.15452388 0.021654081 0.41491002
0.15553822 0.022137586 0.41420215
0.15672652 0.022679353 0.4124876
0.15772977 0.02315725 0.41177577
0.1587286 0.023632906 0.41106236
0.15989473 0.024163447 0.4093399
0.16088244 0.024633493 0.40862256
0.16186574 0.025101289 0.40790364
0.16300972 0.025620617 0.40617329
0.1639819 0.026082803 0.40545043
0.16511036 0.026594279 0.40371457
0.16607147 0.027050857 0.40298778
0.16702816 0.027505189 0.40225938
0.1679804 0.027957279 0.40152943
0.16892821 0.028407123 0.40079787
0.16987158 0.028854728 0.4000648
0.17081054 0.029300082 0.39933008
0.17159988 0.029699519 0.39961076
0.17253216 0.030141506 0.39887372
0.17331928 0.030539822 0.39915359
0.17410642 0.030938135 0.39943349
0.17502984 0.031375647 0.39869326
0.17581476 0.031772837 0.39897236
0.17659968 0.032170031 0.39925146
0.17751423 0.032603048 0.3985081
0.17829692 0.032999117 0.39878643
0.17907962 0.033395186 0.39906472
0.17998528 0.033823714 0.39831823
0.18076578 0.034218661 0.39859575
0.18166481 0.034643821 0.39784685
0.18244307 0.035037648 0.39812356
0.18333545 0.03545944 0.39737234
0.18411149 0.035852145 0.39764827
0.18488753 0.036244851 0.39792424
0.18577105 0.036662161 0.39716983
0.18654487 0.037053745 0.39744496
0.1873187 0.037445329 0.39772013
0.18809253 0.037836909 0.39799529
0.18896495 0.038248606 0.39723694
0.18973656 0.038639069 0.3975113
0.19050816 0.039029527 0.39778569
0.19127978 0.03941999 0.39806005
0.19205138 0.039810453 0.39833441
0.19282299 0.040200911 0.3986088
0.1935946 0.04059137 0.39888316
0.19436622 0.040981833 0.39915752
0.19513783 0.041372292 0.39943188
0.19590944 0.041762754 0.39970624
0.19675747 0.042162105 0.39893922
0.19752687 0.042551443 0.39921281
0.19829625 0.042940784 0.39948636
0.19906566 0.043330126 0.39975995
0.19990259 0.043723863 0.39898902
0.20066977 0.044112083 0.3992618
0.20150006 0.044502463 0.39848849
0.20226502 0.044889554 0.3987605
0.20302998 0.045276653 0.3990325
0.20379493 0.045663744 0.39930451
0.20455989 0.046050843 0.39957651
0.20537688 0.046434484 0.39879844
0.20613962 0.046820454 0.39906964
0.20690235 0.047206432 0.39934087
0.20771047 0.047585592 0.39855966
0.208471 0.047970444 0.39883009
0.20923153 0.048355289 0.39910051
0.20999205 0.048740141 0.39937094
0.21075258 0.049124993 0.39964136
0.2115474 0.049497422 0.39885542
0.21230569 0.049881149 0.39912504
0.21306401 0.050264876 0.39939469
0.21382231 0.050648604 0.39966431
0.11312407 0.0048176497 0.49950609
0.11509456 0.0056842044 0.49593303
0.11727776 0.0066257641 0.49136713
0.12135164 0.0083934702 0.48319989
0.12324674 0.0092218891 0.47960001
0.12534569 0.010120794 0.4750042
0.12676442 0.010773424 0.4733718
0.12817428 0.011421576 0.47173625
0.12957527 0.012065236 0.47009754
0.13096738 0.01270441 0.46845567
0.13214014 0.013265222 0.46780428
0.14795649 0.019603949 0.41893825
0.14880347 0.020032555 0.41923943
0.15003598 0.020590931 0.41754079
0.15106905 0.021081071 0.41683969
0.1520977 0.021568954 0.41613704
0.153308 0.022116121 0.41443053
0.15432556 0.022598397 0.41372392
0.1553387 0.023078432 0.41301575
0.15652683 0.023614377 0.41130134
0.15752886 0.0240888 0.41058925
0.15852648 0.024560977 0.40987551
0.15951964 0.025030907 0.40916026
0.16067895 0.025552269 0.4074356
0.16166103 0.026016591 0.40671638
0.16280481 0.026530102 0.40498623
0.16377583 0.026988817 0.40426305
0.16490409 0.027494464 0.40252739
0.16586401 0.027947571 0.40180027
0.16681948 0.028398436 0.40107158
0.16777052 0.028847046 0.4003413
0.16871715 0.029293414 0.39960951
0.16965932 0.029737547 0.39887607
0.17044866 0.030136984 0.39915675
0.17138419 0.030577743 0.39842099
0.17217129 0.030976057 0.39870086
0.17295843 0.031374373 0.39898077
0.17374557 0.031772688 0.39926064
0.17467001 0.032207847 0.39852092
0.17545493 0.032605037 0.39880002
0.17623985 0.033002231 0.39907908
0.17715541 0.033432893 0.39833623
0.1779381 0.033828963 0.39861456
0.1787208 0.034225032 0.39889285
0.17962751 0.034651212 0.39814684
0.18040797 0.03504616 0.39842436
0.18130802 0.035468969 0.39767593
0.18208629 0.035862796 0.39795268
0.18297967 0.036282238 0.39720193
0.18375573 0.036674943 0.39747787
0.18453176 0.037067648 0.39775383
0.18530782 0.037460357 0.39802977
0.18619013 0.037874188 0.39727503
0.18696395 0.038265772 0.3975502
0.18773779 0.038657352 0.39782536
0.18861121 0.039066702 0.39706752
0.18938282 0.039457165 0.39734188
0.19015443 0.039847624 0.39761624
0.19092605 0.040238086 0.39789063
0.19169766 0.040628549 0.39816499
0.19246927 0.041019008 0.39843935
0.19324088 0.041409466 0.39871371
0.19401249 0.041799929 0.39898807
0.19478409 0.042190388 0.39926246
0.1955557 0.04258085 0.39953682
0.19640476 0.042977847 0.39877027
0.19717415 0.043367185 0.39904386
0.19794354 0.043756526 0.39931741
0.19878373 0.044149041 0.39854777
0.1995509 0.044537257 0.39882055
0.20038441 0.044926409 0.39804852
0.20114937 0.045313507 0.39832053
0.20191434 0.045700599 0.39859253
0.20267929 0.046087697 0.39886451
0.20344424 0.046474788 0.39913651
0.20426448 0.046857208 0.39835972
0.20502721 0.04724317 0.39863095
0.20578995 0.047629148 0.39890215
0.20655268 0.048015118 0.39917338
0.20736183 0.048391931 0.39839268
0.20812234 0.048776783 0.39866307
0.20888287 0.049161628 0.3989335
0.20964339 0.04954648 0.39920393
0.21040392 0.049931332 0.39947435
0.21116444 0.050316185 0.39974478
0.21195807 0.050685138 0.39895853
0.11415456 0.0066118799 0.49767703
0.12234278 0.010116227 0.48135912
0.12467383 0.011082746 0.47577813
0.12631716 0.011807803 0.47315758
0.12772904 0.012451246 0.47152299
0.14900312 0.021121554 0.41605753
0.15003721 0.021609336 0.41535693
0.15106688 0.022094868 0.41465473
0.15209211 0.022578161 0.41395101
0.1531129 0.023059215 0.41324568
0.1551412 0.024014572 0.41183031
0.15632915 0.024544694 0.41011611
0.15715176 0.024960961 0.41040859
0.15832639 0.02548435 0.40868965
0.15931836 0.025950808 0.40797409
0.16047749 0.026466349 0.40624961
0.16145837 0.026927199 0.4055301
0.16260198 0.02743488 0.4038001
0.16469985 0.028389949 0.40134114
0.16565856 0.028839581 0.40061375
0.16661283 0.029286973 0.39988476
0.16756269 0.029732112 0.39915422
0.16850811 0.030175012 0.39842206
0.16944906 0.030615665 0.39768836
0.1702362 0.031013979 0.39796826
0.17102332 0.031412296 0.39824814
0.17181045 0.031810608 0.39852801
0.17274036 0.032245655 0.39779034
0.17352527 0.032642849 0.39806944
0.17431018 0.033040043 0.39834854
0.1750951 0.033437233 0.39862764
0.1760139 0.033866674 0.39788607
0.17679659 0.034262743 0.39816436
0.17757928 0.034658812 0.39844269
0.17848921 0.035083763 0.39769793
0.1792697 0.035478711 0.39797544
0.18005016 0.035873659 0.39825296
0.18095124 0.036294114 0.39750504
0.1817295 0.03668794 0.39778179
0.18262391 0.037105031 0.39703152
0.18339995 0.037497737 0.39730746
0.184176 0.037890442 0.3975834
0.18495205 0.038283151 0.39785933
0.18583536 0.038694635 0.39710513
0.18660921 0.039086219 0.39738026
0.18738303 0.039477799 0.39765543
0.18815684 0.039869383 0.39793059
0.1890291 0.040275257 0.39717245
0.18980069 0.040665716 0.39744681
0.19057232 0.041056179 0.39772117
0.19134392 0.041446641 0.39799553
0.19211553 0.0418371 0.39826989
0.19288713 0.042227559 0.39854428
0.19365874 0.042618021 0.39881864
0.19443035 0.04300848 0.399093
0.19520196 0.043398943 0.39936739
0.19605204 0.043793593 0.39860132
0.19682142 0.04418293 0.39887488
0.19759081 0.044572271 0.39914846
0.19843201 0.044962432 0.3983793
0.19919918 0.045350648 0.39865208
0.20003372 0.045737449 0.39788052
0.20079869 0.046124548 0.39815253
0.20156366 0.046511639 0.39842454
0.20232861 0.046898738 0.39869654
0.20309356 0.047285829 0.39896855
0.20391481 0.047665901 0.39819223
0.20467754 0.048051864 0.39846343
0.20544028 0.048437841 0.39873466
0.20620301 0.048823811 0.39900589
0.20701317 0.04919827 0.39822567
0.20777369 0.049583122 0.39849609
0.20853421 0.049967967 0.39876652
0.20929474 0.050352819 0.39903694
0.21005526 0.050737672 0.39930737
0.11321051 0.0075489655 0.49941912
0.12422352 0.012124173 0.47556242
0.1258699 0.012842175 0.47294334
0.12728383 0.013480917 0.47130975
0.14881486 0.022073835 0.41487488
0.14984775 0.022558141 0.41417396
0.15106878 0.02309927 0.41247177
0.15393502 0.024472928 0.41135463
0.15512943 0.025000595 0.40964296
0.1561335 0.025470313 0.40893179
0.15713313 0.025937788 0.40821907
0.15812835 0.026403021 0.40750477
0.15911911 0.026866015 0.40678886
0.16010545 0.027326757 0.40607142
0.16125773 0.027833104 0.40434477
0.162233 0.028288236 0.40362337
0.16336976 0.02878673 0.40189123
0.16433392 0.029236253 0.40116587
0.16545516 0.029726889 0.39942819
0.16640824 0.030170806 0.39869896
0.16735689 0.030612472 0.39796805
0.16830108 0.0310519 0.39723563
0.16908821 0.031450216 0.39751554
0.16987535 0.031848527 0.39779541
0.1708107 0.03228347 0.3970598
0.1715956 0.032680664 0.3973389
0.17238052 0.033077855 0.397618
0.17316544 0.033475049 0.39789709
0.17395034 0.033872243 0.39817619
0.17487238 0.034300447 0.39743587
0.17565508 0.034696519 0.39771417
0.17643778 0.035092592 0.39799249
0.17735094 0.035516307 0.39724901
0.1781314 0.035911255 0.39752653
0.17891189 0.036306202 0.39780405
0.17981619 0.036725435 0.39705741
0.18059444 0.037119262 0.39733416
0.18137272 0.037513088 0.39761087
0.18226814 0.037927829 0.39686111
0.18304418 0.038320534 0.39713705
0.18382022 0.038713239 0.39741299
0.18459627 0.039105948 0.39768893
0.18548062 0.039515078 0.39693519
0.18625444 0.039906662 0.39721036
0.18702829 0.040298242 0.39748549
0.18780211 0.040689826 0.39776066
0.18867536 0.041093349 0.397003
0.18944696 0.041483808 0.39727736
0.19021858 0.041874271 0.39755175
0.19099018 0.042264733 0.39782611
0.19176179 0.042655192 0.39810047
0.1925334 0.043045651 0.39837483
0.19330502 0.043436114 0.39864922
0.19407663 0.043826573 0.39892358
0.19484824 0.044217035 0.39919794
0.19569932 0.044609334 0.39843237
0.19646871 0.044998672 0.39870593
0.19723809 0.045388013 0.39897951
0.1980803 0.045775823 0.39821082
0.19884747 0.04616404 0.3984836
0.19968304 0.046548489 0.39771256
0.20044801 0.046935588 0.39798456
0.20121297 0.047322679 0.39825657
0.20197791 0.047709778 0.39852858
0.20274287 0.048096869 0.39880055
0.20356514 0.048474588 0.39802474
0.20432787 0.048860557 0.39829594
0.20509061 0.049246527 0.39856717
0.20585336 0.049632505 0.39883837
0.20666453 0.050004616 0.39805865
0.20742504 0.050389461 0.39832908
0.12564506 0.013947845 0.47174013
0.14985612 0.023560077 0.41199356
0.15088117 0.024037549 0.41128999
0.15392971 0.025456492 0.40916982
0.15475231 0.02587276 0.40946233
0.15593988 0.026391227 0.40774849
0.15675807 0.026805252 0.40803939
0.15793233 0.027316995 0.40632084
0.1589219 0.027776511 0.40560466
0.15990704 0.028233781 0.40488687
0.16105914 0.028734302 0.40316042
0.1620332 0.029185968 0.40243873
0.16300282 0.029635388 0.40171546
0.16413274 0.030124683 0.39998111
0.16509126 0.030568492 0.39925388
0.16604535 0.031010058 0.39852512
0.16699502 0.031449374 0.39779472
0.16794023 0.031886451 0.39706278
0.16888103 0.032321285 0.39632922
0.16966595 0.03271848 0.39660832
0.17045087 0.03311567 0.39688742
0.17123577 0.033512864 0.39716652
0.17202069 0.033910055 0.39744562
0.17280561 0.034307249 0.39772472
0.17373088 0.034734227 0.39698568
0.17451356 0.0351303 0.397264
0.17529626 0.035526372 0.3975423
0.17621267 0.035948865 0.3968001
0.17699313 0.036343809 0.39707762
0.17777361 0.036738761 0.39735517
0.17868114 0.037156753 0.39660978
0.17945941 0.037550583 0.39688653
0.18023767 0.03794441 0.39716324
0.18113634 0.038357921 0.39641476
0.18191238 0.038750622 0.3966907
0.18268842 0.039143328 0.39696664
0.18346447 0.039536033 0.39724258
0.18435204 0.039943941 0.3964901
0.18512586 0.040335525 0.39676526
0.1858997 0.040727109 0.39704043
0.18667352 0.041118689 0.39731556
0.18744734 0.041510273 0.39759073
0.18832162 0.041911446 0.39683357
0.18909323 0.042301904 0.39710793
0.18986484 0.042692367 0.39738229
0.19063646 0.04308283 0.39765665
0.19140807 0.043473288 0.39793104
0.19217966 0.043863747 0.3982054
0.19295128 0.04425421 0.39847976
0.19372287 0.044644669 0.39875412
0.19449449 0.045035131 0.39902851
0.19534659 0.04542508 0.39826339
0.196116 0.045814417 0.39853698
0.19688538 0.046203759 0.39881057
0.1977286 0.046589218 0.39804235
0.19849578 0.046977434 0.39831516
0.19933236 0.047359534 0.39754456
0.20009732 0.047746632 0.39781657
0.20086227 0.048133723 0.39808857
0.20162722 0.048520822 0.39836058
0.20245272 0.048897311 0.39758605
0.20321548 0.049283281 0.39785725
0.20397821 0.049669251 0.39812845
0.20474094 0.050055221 0.39839968
0.20550369 0.050441198 0.39867088
0.11306245 0.010205723 0.50031674
0.15069559 0.024971129 0.41010916
0.15272999 0.025912389 0.40869668
0.15374053 0.026379649 0.40798807
0.15474664 0.026844669 0.40727788
0.15574831 0.027307443 0.40656614
0.15674555 0.027767975 0.40585279
0.15773836 0.028226258 0.4051379
0.15872672 0.028682306 0.40442139
0.15971065 0.029136103 0.40370333
0.16069016 0.029587664 0.40298367
0.16183543 0.030078992 0.40125507
0.16280384 0.030524939 0.40053147
0.16376781 0.03096864 0.39980632
0.16472736 0.031410094 0.39907956
0.16568246 0.03184931 0.39835131
0.16679226 0.03232269 0.39661005
0.16757938 0.032721002 0.39688993
0.1685212 0.033153486 0.39615688
0.16930611 0.03355068 0.39643598
0.17009103 0.03394787 0.39671507
0.17102396 0.034375861 0.39597887
0.17180666 0.03477193 0.39625719
0.17258936 0.035168003 0.39653552
0.17337206 0.035564072 0.39681381
0.17429391 0.035986461 0.3960737
0.17507437 0.036381409 0.39635122
0.17585486 0.036776356 0.39662874
0.17676784 0.037194252 0.39588541
0.17754611 0.037588075 0.39616215
0.17832436 0.037981898 0.39643887
0.17910263 0.038375728 0.39671561
0.18000452 0.038788013 0.39596838
0.18078056 0.039180718 0.39624435
0.18155661 0.03957342 0.39652029
0.18233265 0.039966125 0.39679623
0.18310869 0.04035883 0.39707217
0.1839973 0.040764388 0.39632019
0.18477112 0.041155972 0.39659533
0.18554494 0.041547555 0.39687049
0.18631878 0.041939136 0.39714566
0.1870926 0.04233072 0.39742079
0.18786642 0.0427223 0.39769596
0.18873949 0.043119997 0.3969385
0.18951112 0.043510459 0.39721286
0.19028272 0.043900922 0.39748722
0.19105433 0.044291381 0.39776158
0.19182593 0.04468184 0.39803594
0.19259754 0.045072302 0.39831033
0.19336915 0.045462761 0.39858469
0.19422449 0.045851488 0.39782089
0.19499388 0.046240825 0.39809448
0.19576328 0.046630163 0.39836803
0.19660974 0.047014393 0.3976011
0.19737691 0.047402609 0.39787391
0.19821671 0.047783479 0.39710459
0.19898167 0.048170574 0.3973766
0.19974664 0.048557673 0.3976486
0.20051159 0.048944764 0.39792061
0.20127654 0.049331862 0.39819261
0.20210305 0.049705997 0.39741856
0.20286581 0.050091974 0.39768976
0.20362854 0.050477937 0.39796096
0.15070766 0.025952015 0.40793103
0.15172365 0.026419174 0.40722448
0.1527352 0.026884083 0.40651637
0.15355338 0.027298108 0.4068073
0.1545583 0.027759656 0.40609685
0.15555876 0.028218959 0.40538475
0.15655479 0.028676013 0.40467113
0.15754642 0.029130833 0.40395591
0.15835571 0.029540367 0.40424368
0.1595163 0.030033726 0.40252075
0.16049461 0.030481808 0.40180081
0.16146848 0.030927647 0.4010793
0.16243792 0.031371243 0.4003562
0.16340292 0.031812593 0.39963153
0.16452803 0.032288004 0.39789602
0.16548195 0.032723747 0.39716738
0.16643141 0.033157237 0.3964372
0.16721854 0.033555552 0.3967171
0.16816136 0.033985682 0.3959845
0.16894628 0.034382876 0.3962636
0.16988245 0.034809642 0.3955287
0.17066514 0.035205711 0.395807
0.17144784 0.03560178 0.39608532
0.17223054 0.035997853 0.39636362
0.17315562 0.036419012 0.39562479
0.1739361 0.036813959 0.39590231
0.17471658 0.037208907 0.39617983
0.1756328 0.037625574 0.39543778
0.17641106 0.038019404 0.39571452
0.17718932 0.038413227 0.39599124
0.17796758 0.038807049 0.39626798
0.1788727 0.039218109 0.39552203
0.17964876 0.039610811 0.39579797
0.18042481 0.040003516 0.39607394
0.18120083 0.040396217 0.39634985
0.18197688 0.040788922 0.39662582
0.18286872 0.041193247 0.3958751
0.18364254 0.041584831 0.39615026
0.18441637 0.041976415 0.39642543
0.1851902 0.042367999 0.39670056
0.18596402 0.042759579 0.39697573
0.18673785 0.043151163 0.39725089
0.18751168 0.043542743 0.39752603
0.18838575 0.043938093 0.39676905
0.18915737 0.044328555 0.39704341
0.18992898 0.044719018 0.39731777
0.19070059 0.045109477 0.39759216
0.1914722 0.045499936 0.39786652
0.19224381 0.045890398 0.39814088
0.19301541 0.046280857 0.39841527
0.19387177 0.046667229 0.39765194
0.19464116 0.047056567 0.3979255
0.19541055 0.047445904 0.39819908
0.19625802 0.047827788 0.39743263
0.19702521 0.048216004 0.39770544
0.19779238 0.04860422 0.39797822
0.19863099 0.048981618 0.39720863
0.19939595 0.049368717 0.39748061
0.20016091 0.049755808 0.39775264
0.20099065 0.050128713 0.39697984
0.20175338 0.050514691 0.39725107
0.15154196 0.027337521 0.40604579
0.15255232 0.027798966 0.40533739
0.15336826 0.028211866 0.40562752
0.15437198 0.028669942 0.40491673
0.15537125 0.029125767 0.40420437
0.15636609 0.029579354 0.40349042
0.15717539 0.029988891 0.4037782
0.15816356 0.030439107 0.4030619
0.15914732 0.030887086 0.40234399
0.16012666 0.031332813 0.40162456
0.16127376 0.031813622 0.3998971
0.162242 0.032253746 0.39917371
0.16320577 0.032691624 0.39844871
0.16416514 0.033127256 0.39772218
0.16512008 0.033560649 0.39699405
0.16607055 0.033991791 0.39626434
0.16685769 0.034390103 0.39654425
0.16780153 0.034817882 0.39581215
0.16858645 0.035215076 0.39609125
0.16952364 0.035639487 0.39535683
0.17030632 0.03603556 0.39563513
0.17108902 0.036431629 0.39591345
0.17201734 0.036851555 0.39517587
0.17279783 0.03724651 0.39545339
0.17357829 0.037641458 0.39573091
0.17449775 0.038056895 0.39499015
0.17527601 0.038450722 0.39526689
0.17605427 0.038844548 0.39554361
0.17696485 0.039255496 0.39479974
0.1777409 0.039648201 0.39507568
0.17851694 0.040040907 0.39535162
0.17929299 0.040433608 0.39562756
0.18006903 0.040826313 0.3959035
0.1809663 0.041230526 0.39515486
0.18174013 0.04162211 0.39543003
0.18251395 0.042013694 0.39570516
0.1832878 0.042405277 0.39598033
0.18406162 0.042796861 0.39625549
0.18483543 0.043188445 0.39653063
0.18560928 0.043580025 0.39680579
0.1863831 0.043971609 0.39708096
0.18715692 0.044363189 0.39735609
0.18803203 0.044756189 0.39659962
0.18880364 0.045146652 0.39687398
0.18957525 0.045537114 0.39714834
0.19034687 0.045927573 0.3974227
0.19111846 0.046318032 0.39769709
0.19189008 0.046708494 0.39797145
0.19266167 0.047098953 0.39824581
0.19351906 0.047482971 0.39748299
0.19428845 0.047872309 0.39775655
0.19505784 0.048261646 0.39803013
0.19582722 0.048650987 0.39830372
0.19667351 0.049029395 0.39753696
0.19744068 0.049417611 0.39780974
0.1982803 0.049792659 0.39704064
0.19904527 0.050179757 0.39731264
0.19981021 0.050566848 0.39758465
0.15237145 0.028709143 0.40415934
0.15318519 0.029120922 0.40444869
0.15418769 0.029575519 0.4037376
0.15518577 0.030027878 0.40302494
0.15599507 0.030437412 0.40331271
0.15698649 0.030886404 0.4025977
0.15797348 0.031333148 0.40188107
0.15895604 0.031777658 0.40116289
0.15993415 0.032219909 0.40044314
0.16090783 0.032659929 0.3997218
0.16187707 0.033097699 0.39899892
0.16284189 0.033533223 0.39827439
0.16380227 0.033966508 0.39754838
0.16475821 0.034397546 0.39682072
0.1657097 0.034826338 0.39609152
0.16649684 0.035224654 0.39637139
0.1674417 0.035650082 0.39563978
0.16822661 0.036047276 0.39591891
0.16916482 0.03646934 0.39518496
0.16994752 0.036865409 0.39546326
0.17087907 0.037284106 0.39472696
0.17165953 0.037679054 0.39500448
0.17244002 0.038074002 0.395282
0.1733627 0.038488213 0.39454252
0.17414096 0.038882039 0.39481926
0.17491923 0.039275866 0.39509597
0.17583305 0.039685588 0.39435339
0.17660908 0.040078294 0.39462933
0.17738514 0.040470999 0.39490527
0.17816117 0.040863704 0.39518121
0.1790639 0.041267805 0.39443463
0.17983773 0.041659389 0.39470977
0.18061155 0.042050969 0.39498493
0.18138538 0.042442553 0.3952601
0.18215922 0.042834137 0.39553523
0.18293303 0.043225721 0.3958104
0.18370686 0.043617304 0.39608556
0.1844807 0.044008888 0.39636073
0.18525451 0.044400468 0.39663586
0.18613507 0.04479336 0.39588144
0.18690668 0.045183823 0.3961558
0.18767828 0.045574281 0.39643016
0.1884499 0.045964744 0.39670455
0.1892215 0.046355207 0.39697891
0.18999311 0.046745665 0.39725327
0.19076473 0.047136124 0.39752764
0.19153634 0.047526587 0.397802
0.19230795 0.047917046 0.39807636
0.19316633 0.048298713 0.39731401
0.19393572 0.04868805 0.3975876
0.19470511 0.049077388 0.39786118
0.19547451 0.049466729 0.39813477
0.1963218 0.04984279 0.39736849
0.19708897 0.050231006 0.3976413
0.19792962 0.050603699 0.39687267
0.15118466 0.029160127 0.40369129
0.15219262 0.029614622 0.40298229
0.15300414 0.030025277 0.40327084
0.15381566 0.030435935 0.40355942
0.15481476 0.030885942 0.4028472
0.1558094 0.031333704 0.40213346
0.15679963 0.031779222 0.40141812
0.15778542 0.032222494 0.40070122
0.15858807 0.032628663 0.40098664
0.15956719 0.033068571 0.40026739
0.16054189 0.033506237 0.3995465
0.16151215 0.033941656 0.3988241
0.16247799 0.034374833 0.39810008
0.16343936 0.034805767 0.39737454
0.16439635 0.035234455 0.39664739
0.16534886 0.035660893 0.39591867
0.16613598 0.036059208 0.39619854
0.16708186 0.036482289 0.39546743
0.16786678 0.036879484 0.39574653
0.168806 0.037299193 0.39501309
0.16974078 0.037716657 0.39427805
0.17052126 0.038111605 0.39455557
0.17130174 0.038506553 0.39483309
0.17222767 0.038919538 0.39409488
0.17300592 0.039313365 0.39437163
0.17392519 0.039722975 0.39363107
0.17470123 0.040115681 0.39390701
0.17547727 0.040508386 0.39418295
0.17625332 0.040901091 0.39445889
0.17716148 0.041305095 0.3937144
0.17793533 0.041696675 0.39398953
0.17870915 0.042088259 0.3942647
0.17948297 0.042479843 0.39453986
0.1802568 0.042871423 0.394815
0.18103063 0.043263007 0.39509016
0.18180445 0.043654591 0.39536533
0.1825783 0.044046175 0.39564049
0.18335211 0.044437759 0.39591563
0.18412593 0.044829343 0.39619079
0.18489978 0.045220923 0.39646596
0.18578133 0.04561146 0.39571199
0.18655294 0.046001922 0.39598638
0.18732455 0.046392381 0.39626074
0.18809617 0.046782844 0.3965351
0.18886778 0.047173306 0.39680946
0.18963939 0.047563765 0.39708382
0.190411 0.047954224 0.39735821
0.19118261 0.048344687 0.39763257
0.19204421 0.048725121 0.39687148
0.19281361 0.049114462 0.39714506
0.19358301 0.0495038 0.39741865
0.19435239 0.049893137 0.39769223
0.19512178 0.050282478 0.39796579
0.19597009 0.050656188 0.39720005
0.1266112 0.020581378 0.44613796
0.15081161 0.030022886 0.4035126
0.1518206 0.030475033 0.40280408
0.15282515 0.030924931 0.40209395
0.15363444 0.031334467 0.40238172
0.15444374 0.031744 0.40266949
0.15562578 0.032225288 0.4009552
0.15643065 0.032632582 0.40124139
0.15741745 0.033073504 0.40052497
0.15839982 0.033512179 0.39980701
0.15937774 0.033948619 0.3990874
0.16017595 0.034352545 0.39937124
0.16114724 0.03478561 0.39864931
0.16211408 0.035216436 0.39792579
0.16307649 0.035645016 0.39720073
0.16403449 0.036071353 0.39647403
0.16498801 0.036495447 0.39574581
0.16577514 0.036893759 0.39602569
0.16672203 0.037314486 0.39529508
0.16766448 0.03773297 0.3945629
0.16844718 0.038129039 0.39484119
0.16938299 0.038544156 0.39410666
0.17016345 0.038939103 0.39438418
0.17109261 0.03935086 0.39364725
0.17187089 0.039744686 0.393924
0.17279337 0.040153071 0.39318472
0.17356941 0.040545773 0.39346066
0.17434546 0.040938478 0.3937366
0.17525908 0.041342374 0.39299414
0.17603293 0.041733958 0.3932693
0.17680675 0.042125542 0.39354447
0.17758057 0.042517122 0.39381963
0.1783544 0.042908706 0.39409477
0.17912823 0.04330029 0.39436993
0.17990205 0.04369187 0.39464509
0.18067586 0.044083454 0.39492023
0.18144971 0.044475038 0.39519539
0.18222353 0.044866621 0.39547056
0.18299735 0.045258205 0.39574569
0.18377119 0.045649789 0.39602086
0.18454501 0.046041369 0.39629602
0.18542761 0.046429556 0.39554256
0.18619922 0.046820018 0.39581692
0.18697082 0.047210477 0.39609128
0.18774244 0.04760094 0.39636564
0.18851404 0.047991402 0.39664003
0.18928565 0.048381861 0.39691439
0.19005725 0.04877232 0.39718875
0.19082886 0.049162783 0.39746311
0.19160047 0.049553242 0.3977375
0.19246089 0.049930207 0.39697611
0.19323029 0.050319545 0.3972497
0.19399968 0.050708883 0.39752328
0.12503304 0.021033136 0.44659188
0.12595542 0.021499893 0.44691989
0.1268778 0.021966649 0.44724786
0.12872258 0.02290017 0.44790381
0.12964496 0.023366926 0.44823179
0.15063705 0.030924784 0.40233731
0.15164483 0.031373452 0.40162846
0.15245414 0.031782988 0.40191624
0.15345523 0.032228295 0.40120506
0.15426232 0.032636706 0.40149203
0.15525681 0.033078644 0.40077844
0.15624683 0.033518337 0.40006331
0.15723243 0.033955786 0.39934662
0.15803286 0.034360833 0.39963123
0.15901181 0.034794923 0.39891213
0.15998632 0.035226762 0.39819148
0.16078232 0.035629567 0.39847451
0.16175018 0.036058038 0.39775148
0.16271362 0.036484268 0.3970269
0.16367261 0.036908258 0.3963007
0.16462716 0.037329994 0.39557296
0.16541427 0.03772831 0.39585286
0.1663622 0.038146686 0.39512271
0.16730568 0.038562816 0.39439103
0.16808838 0.038958885 0.39466932
0.16902518 0.039371654 0.39393529
0.16980566 0.039766602 0.39421281
0.17073584 0.040176004 0.39347637
0.17151409 0.040569831 0.39375308
0.17243761 0.040975865 0.39301431
0.17321366 0.041368566 0.39329025
0.1739897 0.041761272 0.39356619
0.17490435 0.042162817 0.39282423
0.17567816 0.042554401 0.39309937
0.176452 0.042945985 0.39337453
0.17722583 0.043337565 0.3936497
0.17799965 0.043729149 0.39392483
0.17877346 0.044120733 0.3942
0.17954729 0.044512313 0.39447516
0.18032113 0.044903897 0.3947503
0.18109494 0.045295481 0.39502546
0.18186879 0.045687065 0.39530063
0.18264261 0.046078648 0.39557576
0.18341643 0.046470232 0.39585093
0.18419027 0.046861812 0.39612609
0.18507385 0.047247648 0.39537311
0.18584546 0.047638111 0.39564747
0.18661708 0.04802857 0.39592186
0.18738869 0.048419032 0.39619622
0.1881603 0.048809495 0.39647058
0.18893191 0.049199954 0.39674497
0.18970352 0.049590413 0.39701933
0.19047514 0.049980875 0.39729369
0.19124675 0.050371334 0.39756805
0.19201836 0.050761797 0.39784241
0.1236878 0.021544328 0.44606137
0.12461018 0.022011084 0.44638935
0.12553257 0.022477841 0.44671732
0.12668769 0.022998219 0.44606102
0.12737733 0.023411354 0.44737327
0.12829971 0.023878118 0.44770128
0.1292221 0.024344875 0.44802925
0.13014448 0.024811631 0.44835722
0.15026501 0.031785198 0.40215912
0.1512738 0.032231517 0.40145075
0.15208311 0.032641053 0.40173852
0.15308523 0.033084005 0.40102783
0.15408295 0.033524714 0.40031552
0.15507621 0.033963177 0.39960167
0.15587887 0.034369346 0.39988706
0.15686548 0.034804441 0.39917085
0.15784766 0.035237301 0.398453
0.15864587 0.035641227 0.39873683
0.15962142 0.036070716 0.39801669
0.1605925 0.036497962 0.39729491
0.16138628 0.036899641 0.39757717
0.16235071 0.037323523 0.39685309
0.16331074 0.037745159 0.39612737
0.1642663 0.038164549 0.39540011
0.16505343 0.03856286 0.39568001
0.16600236 0.038978886 0.39495036
0.16694686 0.039392669 0.39421916
0.16772956 0.039788738 0.39449745
0.16866738 0.040199153 0.3937639
0.16944787 0.040594101 0.39404142
0.17037904 0.041001149 0.39330545
0.1711573 0.041394979 0.3935822
0.17208184 0.041798662 0.3928439
0.17285788 0.042191364 0.39311984
0.17363393 0.042584069 0.39339578
0.17454958 0.042983264 0.3926543
0.17532343 0.043374848 0.39292943
0.17609724 0.043766432 0.3932046
0.17687106 0.044158012 0.39347976
0.17764489 0.044549596 0.39375493
0.17841873 0.044941179 0.39403006
0.17919254 0.04533276 0.39430523
0.17996638 0.045724344 0.39458039
0.18074021 0.046115927 0.39485553
0.18151402 0.046507511 0.39513069
0.18228786 0.046899095 0.39540586
0.18306169 0.047290679 0.39568102
0.18383551 0.047682259 0.39595616
0.18472013 0.048065744 0.39520368
0.18549174 0.048456207 0.39547804
0.18626335 0.048846666 0.3957524
0.18703496 0.049237128 0.39602679
0.18780658 0.049627591 0.39630115
0.18857819 0.05001805 0.39657551
0.18934979 0.050408509 0.39684987
0.1901214 0.050798971 0.39712423
0.12326494 0.022522284 0.44585884
0.12418732 0.02298904 0.44618681
0.12534568 0.023508178 0.44553179
0.12626585 0.023973813 0.44585896
0.12718602 0.024439448 0.44618616
0.12810618 0.024905087 0.44651335
0.12902635 0.025370723 0.44684052
0.12994651 0.025836358 0.44716772
0.14887874 0.03219939 0.40268719
0.14989299 0.032645606 0.40198091
0.15090279 0.033089574 0.40127304
0.15190814 0.033531297 0.4005636
0.15271524 0.033939712 0.40085059
0.15371397 0.034378067 0.40013877
0.15470824 0.034814183 0.39942539
0.15569811 0.035248052 0.39871046
0.1566835 0.035679679 0.39799389
0.15748173 0.036083605 0.39827773
0.1584605 0.036511865 0.39755884
0.15925649 0.036914669 0.39784187
0.16022861 0.037339564 0.39712059
0.16119628 0.037762213 0.3963978
0.16198784 0.038162772 0.39667928
0.16294888 0.03858206 0.39595404
0.16390546 0.038999096 0.39522728
0.16485763 0.039413895 0.39449888
0.16564253 0.039811086 0.39477798
0.16658804 0.040222514 0.39404726
0.16737074 0.040618584 0.39432558
0.16830957 0.041026648 0.39359251
0.16909006 0.0414216 0.39387003
0.17002225 0.0418263 0.39313453
0.17080052 0.042220127 0.39341128
0.17172608 0.04262146 0.39267349
0.17250212 0.043014161 0.39294943
0.17327815 0.043406866 0.39322537
0.17419484 0.043803707 0.39248437
0.17496866 0.044195291 0.39275953
0.17574249 0.044586875 0.39303467
0.17651632 0.044978455 0.39330983
0.17729014 0.045370039 0.393585
0.17806396 0.045761622 0.39386016
0.17883779 0.046153203 0.3941353
0.17961162 0.046544787 0.39441046
0.18038544 0.04693637 0.39468563
0.18115929 0.047327954 0.39496076
0.1819331 0.047719538 0.39523593
0.18270692 0.048111122 0.39551109
0.18348077 0.048502702 0.39578623
0.18425459 0.048894286 0.39606139
0.18513802 0.049274299 0.39530861
0.1859096 0.049664758 0.39558297
0.18668124 0.050055221 0.39585733
0.18745282 0.050445683 0.39613169
0.18822443 0.050836142 0.39640608
0.12099732 0.022566715 0.44500032
0.1219197 0.023033476 0.4453283
0.12284209 0.023500232 0.44565627
0.12376447 0.023966989 0.44598424
0.12468685 0.024433745 0.44631222
0.125844 0.024949422 0.4456569
0.12676418 0.025415054 0.4459841
0.12768435 0.025880693 0.4463113
0.1286045 0.026346324 0.44663846
0.12952468 0.026811963 0.44696566
0.13044484 0.027277598 0.44729286
0.14850569 0.033062153 0.4025085
0.14972247 0.033538096 0.40080756
0.15053177 0.033947632 0.40109533
0.15153815 0.034387007 0.40038639
0.15254012 0.034824133 0.39967585
0.15334499 0.035231426 0.39996204
0.15434028 0.035665192 0.39924914
0.15533115 0.036096707 0.39853469
0.15631758 0.036525983 0.39781862
0.15729958 0.036953017 0.39710101
0.15809557 0.037355818 0.39738405
0.15907091 0.037779484 0.39666405
0.15986469 0.038181167 0.39694628
0.16083339 0.038601469 0.39622399
0.16162495 0.039002027 0.39650545
0.16258702 0.039418958 0.39578071
0.16354461 0.03983365 0.39505443
0.16449779 0.040246096 0.39432654
0.1652827 0.040643286 0.39460564
0.16622922 0.041052364 0.39387539
0.16701192 0.041448437 0.39415371
0.16795178 0.041854147 0.39342111
0.16888721 0.042257614 0.3926869
0.16966549 0.042651445 0.39296365
0.17044374 0.043045271 0.39324039
0.1713703 0.043444257 0.39250305
0.17214635 0.043836959 0.39277899
0.1729224 0.044229664 0.39305496
0.17384008 0.044624154 0.39231443
0.17461392 0.045015737 0.3925896
0.17538774 0.045407321 0.39286476
0.17616156 0.045798901 0.3931399
0.1769354 0.046190485 0.39341506
0.17770922 0.046582069 0.39369023
0.17848304 0.046973649 0.39396536
0.17925687 0.047365233 0.39424053
0.1800307 0.047756817 0.39451569
0.18080452 0.048148401 0.39479083
0.18157835 0.048539985 0.39506599
0.18235219 0.048931569 0.39534116
0.183126 0.049323149 0.39561632
0.18389983 0.049714733 0.39589146
0.18467367 0.050106313 0.39616662
0.18555588 0.050482854 0.39541352
0.11940298 0.023024615 0.44544792
0.12057446 0.023544671 0.44479775
0.12149684 0.024011431 0.44512576
0.12241923 0.024478188 0.44545373
0.12334161 0.024944944 0.44578171
0.124502 0.025459385 0.44512767
0.12542218 0.025925023 0.44545484
0.12634233 0.026390655 0.44578204
0.1272625 0.026856294 0.44610924
0.12818268 0.027321925 0.44643641
0.12910284 0.027787564 0.4467636
0.130023 0.0282532 0.4470908
0.14711194 0.033481158 0.40303355
0.14813264 0.033924915 0.4023298
0.14914891 0.034366421 0.4016245
0.15016076 0.034805689 0.40091759
0.15116815 0.035242714 0.40020916
0.15217113 0.035677493 0.39949909
0.15316966 0.036110025 0.3987875
0.15416378 0.036540318 0.3980743
0.15515342 0.036968365 0.39735952
0.15595165 0.037372287 0.39764333
0.15693466 0.03779697 0.39692622
0.15773065 0.038199771 0.39720926
0.15870702 0.03862109 0.39648974
0.15950081 0.039022774 0.396772
0.16047052 0.039440718 0.39605016
0.1614358 0.039856423 0.3953267
0.16222514 0.040255859 0.39560738
0.16318375 0.040668197 0.39488158
0.16413796 0.041078296 0.39415416
0.16492286 0.041475486 0.39443326
0.1658704 0.041882209 0.39370352
0.16681349 0.042286698 0.3929722
0.16759399 0.042681646 0.39324972
0.16853043 0.043082766 0.39251602
0.16930869 0.043476589 0.39279276
0.17008695 0.043870419 0.39306948
0.17101455 0.044267051 0.39233264
0.17179057 0.044659752 0.39260858
0.17256662 0.045052458 0.39288455
0.17348534 0.0454446 0.3921445
0.17425916 0.045836184 0.39241967
0.17503299 0.046227768 0.39269483
0.17580682 0.046619348 0.39297
0.17658064 0.047010932 0.39324513
0.17735445 0.047402516 0.3935203
0.1781283 0.047794096 0.39379546
0.17890212 0.04818568 0.3940706
0.17967594 0.048577264 0.39434576
0.18044978 0.048968848 0.39462093
0.1812236 0.049360432 0.39489606
0.18199742 0.049752016 0.39517123
0.18277127 0.050143596 0.39544639
0.18354508 0.05053518 0.39572155
0.1166208 0.022962784 0.4465394
0.11780218 0.023484975 0.44589293
0.118729 0.023953974 0.44622248
0.11990371 0.024472795 0.44557363
0.12107399 0.02498938 0.44492319
0.12199637 0.025456136 0.44525117
0.12316 0.025969347 0.44459841
0.12384114 0.026389649 0.44590715
0.12500033 0.026900617 0.44525278
0.1259205 0.027366253 0.44557998
0.12684067 0.027831892 0.44590718
0.12776083 0.028297527 0.44623435
0.128681 0.028763162 0.44656155
0.12960117 0.029228797 0.44688874
0.14775959 0.034787674 0.40215111
0.14877689 0.035226829 0.40144631
0.14978975 0.035663746 0.40073988
0.15079814 0.036098421 0.40003192
0.15180215 0.036530852 0.39932236
0.15280169 0.036961034 0.39861122
0.15379682 0.037388973 0.39789852
0.1547875 0.037814669 0.39718422
0.15577374 0.038238119 0.39646837
0.15656975 0.038640924 0.3967514
0.15754934 0.039061006 0.39603317
0.15834312 0.039462689 0.39631543
0.15931606 0.039879411 0.39559487
0.16010763 0.04027997 0.39587635
0.16107392 0.040693324 0.39515337
0.16203576 0.041104436 0.39442885
0.1628229 0.041502751 0.39470872
0.16377813 0.041910496 0.39398181
0.16472889 0.04231599 0.39325336
0.16551158 0.042712063 0.39353165
0.1664557 0.043114197 0.39280081
0.16723618 0.043509144 0.39307836
0.16817364 0.043907911 0.39234513
0.1689519 0.044301741 0.39262185
0.16973017 0.044695567 0.39289859
0.17065877 0.045089848 0.39216223
0.17143482 0.04548255 0.39243817
0.17221086 0.045875255 0.39271411
0.17298689 0.04626796 0.39299005
0.17390442 0.046656627 0.39224973
0.17467824 0.047048211 0.3925249
0.17545205 0.047439791 0.39280006
0.1762259 0.047831375 0.39307523
0.17699972 0.048222959 0.39335036
0.17777354 0.048614539 0.39362553
0.17854737 0.049006123 0.39390069
0.1793212 0.049397707 0.39417583
0.18009502 0.049789291 0.39445099
0.18086885 0.050180875 0.39472616
0.18164268 0.050572459 0.39500129
0.11288336 0.022429012 0.44729075
0.11407682 0.022954462 0.44664869
0.11500808 0.023425708 0.44697982
0.1161949 0.023947788 0.44633541
0.11737729 0.024467632 0.44568938
0.1183041 0.024936631 0.44601896
0.11947984 0.025453106 0.44537061
0.12065113 0.025967335 0.44472066
0.12157352 0.026434092 0.44504863
0.1224959 0.026900848 0.4453766
0.12365833 0.027410587 0.44472352
0.12457849 0.027876226 0.44505072
0.12549865 0.028341858 0.44537792
0.12641883 0.028807497 0.44570512
0.12733899 0.029273128 0.44603229
0.14533663 0.034770083 0.40337637
0.14738655 0.035650432 0.40197241
0.14840485 0.036087245 0.40126809
0.14941873 0.036521811 0.40056217
0.15042815 0.036954131 0.39985469
0.15143317 0.037384205 0.3991456
0.15243374 0.037812039 0.39843497
0.15342987 0.038237628 0.39772275
0.15442157 0.038660973 0.39700896
0.15540883 0.039082073 0.39629358
0.15620482 0.039484877 0.39657661
0.15718544 0.039902609 0.39585885
0.15797922 0.040304292 0.39614111
0.15895317 0.040718667 0.39542106
0.15992272 0.041130792 0.39469936
0.16071206 0.041530229 0.39498001
0.16167492 0.041938987 0.394256
0.16263337 0.042345498 0.39353034
0.16341829 0.042742692 0.39380944
0.16437007 0.043145835 0.39308146
0.16515276 0.043541908 0.39335978
0.16609791 0.043941692 0.39262944
0.16687837 0.044336639 0.39290696
0.16765887 0.044731587 0.39318448
0.16859512 0.045126885 0.39245096
0.16937339 0.045520712 0.39272767
0.17015165 0.045914538 0.39300442
0.17107904 0.046305344 0.39226776
0.17185509 0.046698049 0.3925437
0.17263113 0.047090754 0.39281964
0.17340717 0.047483459 0.39309561
0.17432348 0.047868658 0.39235497
0.17509732 0.048260238 0.39263013
0.17587113 0.048651822 0.39290529
0.17664495 0.049043406 0.39318043
0.1774188 0.049434986 0.39345559
0.17819262 0.04982657 0.39373076
0.17896643 0.050218154 0.39400589
0.17974028 0.050609738 0.39428106
0.11152195 0.022946354 0.44675386
0.11271865 0.023470575 0.44611305
0.1136499 0.02394182 0.44644418
0.11458115 0.024413066 0.44677532
0.11576899 0.024932792 0.44613141
0.1169524 0.025450286 0.44548586
0.11787922 0.025919288 0.44581544
0.11905596 0.026433408 0.44516757
0.11998057 0.026901286 0.44549632
0.12115066 0.02741204 0.44484609
0.12207305 0.027878797 0.44517407
0.12299543 0.028345553 0.44550204
0.12415665 0.02885182 0.44484866
0.12507682 0.029317455 0.44517586
0.12599699 0.029783094 0.44550306
0.14496155 0.035637546 0.40319672
0.14598975 0.036076494 0.40249604
0.1470135 0.036513191 0.40179375
0.14803281 0.036947653 0.40108991
0.14904772 0.037379868 0.40038446
0.15005815 0.037809838 0.39967746
0.15106419 0.038237564 0.39896888
0.15206577 0.038663048 0.39825872
0.15306292 0.039086286 0.39754701
0.15405563 0.039507277 0.39683366
0.15504391 0.03992603 0.39611879
0.15583992 0.040328834 0.39640182
0.15682153 0.040744215 0.39568454
0.15779874 0.041157354 0.39496577
0.15859029 0.041557916 0.39524722
0.15956086 0.04196769 0.394526
0.16052695 0.042375222 0.39380327
0.16131407 0.042773537 0.39408314
0.16227354 0.043177698 0.39335799
0.16305846 0.043574892 0.39363709
0.16401125 0.043975689 0.39290959
0.16479394 0.044371758 0.39318791
0.1657401 0.044769194 0.39245805
0.16652057 0.045164142 0.39273557
0.16730106 0.045559093 0.39301309
0.16823834 0.04595203 0.39228004
0.1690166 0.04634586 0.39255679
0.16979486 0.046739686 0.39283353
0.17057312 0.047133513 0.39311025
0.17149931 0.047520846 0.39237329
0.17227536 0.047913551 0.39264923
0.17305142 0.048306257 0.39292517
0.17382745 0.048698962 0.39320114
0.17474255 0.049080681 0.3924602
0.1755164 0.049472265 0.39273536
0.17629021 0.049863849 0.39301053
0.17706403 0.050255429 0.39328566
0.17783786 0.050647013 0.39356083
0.11016054 0.023463693 0.44621694
0.11109401 0.023936063 0.44654888
0.11229173 0.024457933 0.44590855
0.11322298 0.024929179 0.44623968
0.11415423 0.025400424 0.44657081
0.11534309 0.0259178 0.44592738
0.11652751 0.026432943 0.44528234
0.11745433 0.026901945 0.44561189
0.11863209 0.027413711 0.44496453
0.1195567 0.027881589 0.44529331
0.1204813 0.02834947 0.44562206
0.12165019 0.028856752 0.4449715
0.12257257 0.029323509 0.44529948
0.12373482 0.029827429 0.4446466
0.12465498 0.03029306 0.4449738
0.12557516 0.030758699 0.44530097
0.12649532 0.031224333 0.44562817
0.1437683 0.036090985 0.40272611
0.14458647 0.03650501 0.40301704
0.14664045 0.037375957 0.40161505
0.14745419 0.037787735 0.4019044
0.14867669 0.038237929 0.40020674
0.14968815 0.038665544 0.39950022
0.1506952 0.039090924 0.39879212
0.15169781 0.039514054 0.39808246
0.15269597 0.039934944 0.39737123
0.1536897 0.040353585 0.39665839
0.154679 0.040769987 0.395944
0.15547499 0.041172791 0.39622703
0.15645763 0.041585818 0.39551026
0.15743585 0.041996613 0.39479196
0.15822741 0.042397175 0.39507341
0.15919898 0.042804595 0.39435267
0.16016608 0.043209773 0.39363042
0.16095322 0.043608088 0.39391029
0.16191369 0.044009902 0.39318562
0.16269863 0.044407096 0.39346471
0.16365243 0.044805534 0.39273772
0.16443513 0.045201607 0.39301604
0.1653823 0.045596693 0.39228666
0.16616276 0.045991641 0.39256418
0.16694325 0.046386592 0.3928417
0.16788155 0.046777181 0.39210916
0.16865982 0.047171008 0.3923859
0.16943808 0.047564834 0.39266261
0.17021634 0.047958661 0.39293936
0.17114356 0.048343647 0.39220288
0.17191958 0.048736352 0.39247882
0.17269564 0.049129058 0.39275476
0.17347169 0.049521763 0.3930307
0.17424773 0.049914468 0.39330667
0.17502376 0.05030717 0.39358261
0.17593546 0.050684296 0.39284059
0.1094629 0.024404004 0.44698209
0.11066607 0.024925768 0.44634387
0.11159954 0.025398135 0.44667581
0.11279606 0.02591653 0.44603521
0.11372732 0.026387775 0.44636634
0.11465856 0.026859021 0.44669747
0.11584622 0.027372932 0.44605371
0.11702944 0.027884595 0.44540837
0.11795626 0.028353598 0.44573793
0.11913282 0.028861891 0.44509026
0.12005743 0.029329773 0.44541904
0.12122733 0.029834704 0.44476897
0.12214971 0.030301461 0.44509694
0.12331297 0.03080303 0.44444454
0.12423314 0.031268664 0.44477174
0.1251533 0.031734303 0.44509891
0.12607348 0.032199934 0.44542611
0.14317673 0.036935985 0.40353552
0.14421138 0.037372474 0.4028374
0.14524162 0.037806712 0.40213767
0.1462674 0.038238719 0.40143636
0.14708114 0.038650498 0.40172571
0.14810029 0.03907913 0.40102205
0.14931816 0.039521255 0.39932299
0.15032622 0.039944284 0.39861536
0.15132985 0.040365063 0.39790621
0.15232903 0.040783599 0.39719546
0.15332377 0.041199889 0.39648309
0.15431407 0.04161394 0.39576921
0.15511008 0.042016745 0.39605224
0.15609373 0.042427421 0.39533594
0.15707296 0.042835861 0.39461812
0.15786453 0.043236423 0.39489958
0.15883711 0.043641496 0.39417934
0.15980524 0.04404432 0.39345756
0.16059238 0.044442635 0.39373744
0.16155386 0.044842102 0.39301327
0.16233879 0.045239296 0.39329237
0.16329363 0.045635387 0.39256585
0.16407631 0.04603146 0.39284414
0.16502449 0.046424188 0.39211527
0.16580498 0.046819136 0.39239278
0.16658545 0.047214083 0.39267033
0.16752477 0.047602326 0.39193824
0.16830304 0.047996156 0.39221498
0.1690813 0.048389982 0.39249173
0.16985956 0.048783809 0.39276844
0.17078778 0.049166445 0.39203247
0.17156383 0.04955915 0.39230841
0.17233987 0.049951855 0.39258435
0.17311591 0.05034456 0.39286029
0.17389196 0.050737265 0.39313623
0.20140058 0.065267153 0.41038004
0.20219213 0.065667711 0.41066152
0.10809826 0.024922576 0.44644392
0.10930467 0.025443103 0.44580698
0.11023813 0.025915474 0.44613889
0.1111716 0.026387841 0.44647083
0.11236914 0.026903888 0.4458307
0.11330039 0.027375134 0.44616184
0.11423165 0.027846379 0.44649297
0.11542031 0.028357936 0.44584972
0.11660455 0.028867252 0.44520485
0.11753137 0.029336251 0.44553441
0.11870895 0.029842198 0.44488722
0.11963356 0.030310079 0.445216
0.12080447 0.030812657 0.44456643
0.12172686 0.031279415 0.4448944
0.12264924 0.031746171 0.44522238
0.12357163 0.032212928 0.44555035
0.12473147 0.032709904 0.44489685
0.14176053 0.037369411 0.40405148
0.1438363 0.038239934 0.40265772
0.14465448 0.038653955 0.40294865
0.1456835 0.039084725 0.40224862
0.14670809 0.039513256 0.40154701
0.14772823 0.039939545 0.40084386
0.14894816 0.040376961 0.39914578
0.14995724 0.040797636 0.39843863
0.15096188 0.041216068 0.39772993
0.15196207 0.041632254 0.39701968
0.15295783 0.042046193 0.39630783
0.15394917 0.04245789 0.39559442
0.15474516 0.042860694 0.39587745
0.15572983 0.043269023 0.39516163
0.15671009 0.043675113 0.39444432
0.15768591 0.044078957 0.39372534
0.15847525 0.044478394 0.39400601
0.15944439 0.04487887 0.39328471
0.16023153 0.045277186 0.39356461
0.16119403 0.045674298 0.39284089
0.16215211 0.046069168 0.39211565
0.16293481 0.046465233 0.39239398
0.16371749 0.046861306 0.39267227
0.16466668 0.047251686 0.3919439
0.16544718 0.047646634 0.39222142
0.16622764 0.048041582 0.39249894
0.16700813 0.04843653 0.39277646
0.16794625 0.048821304 0.3920441
0.16872451 0.049215131 0.39232081
0.16950276 0.049608957 0.39259756
0.17028102 0.050002784 0.39287427
0.17120805 0.050381944 0.392138
0.17198411 0.050774649 0.39241394
0.19945456 0.065305293 0.40964329
0.20024613 0.065705843 0.40992475
0.20103769 0.066106409 0.41020623
0.20176917 0.066566512 0.41153222
0.10766931 0.025914632 0.44623846
0.108605 0.02638812 0.44657117
0.1098102 0.026905179 0.44593391
0.11074367 0.027377546 0.44626585
0.11167714 0.027849913 0.44659775
0.11287347 0.028362488 0.44595733
0.11380472 0.028833734 0.44628847
0.11499441 0.02934294 0.44564572
0.11617967 0.029849902 0.44500133
0.11710648 0.030318905 0.44533089
0.1180333 0.030787908 0.44566044
0.11920968 0.031290382 0.44501296
0.12013428 0.03175826 0.44534174
0.12130401 0.032257363 0.44469184
0.12222639 0.032724123 0.44501981
0.12314877 0.03319088 0.44534779
