# .PCD v0.7 - Point Cloud Data file format
VERSION 0.7
FIELDS x y z
SIZE 4 4 4
TYPE F F F
COUNT 1 1 1
WIDTH 1
HEIGHT 290
VIEWPOINT 0 0 0 1 0 0 0
POINTS 290
DATA ascii
0.1659209 -0.094359912 0.4698658
0.15555955 -0.060680002 0.46993291
0.1625782 -0.062491652 0.46982887
0.15644366 -0.058080662 0.4697721
0.16110703 -0.056885798 0.46970505
0.12908366 -0.10127008 0.47668445
0.13419957 -0.10312851 0.47388926
0.14466077 -0.10417879 0.47538197
0.15462652 -0.10332084 0.47674215
0.16476616 -0.10225759 0.47621548
0.17287438 -0.10262617 0.47780505
0.12843183 -0.094744749 0.47502512
0.1345633 -0.094636798 0.47175348
0.14523603 -0.094810508 0.47302735
0.15545711 -0.094549902 0.4728305
0.16489545 -0.094374456 0.47135836
0.17562835 -0.095183223 0.47638142
0.12913205 -0.087499611 0.47708231
0.13424994 -0.084885694 0.47485662
0.14507097 -0.084930934 0.47443908
0.155412 -0.084424481 0.47285613
0.16510609 -0.084958501 0.471746
0.1733931 -0.085430726 0.47500834
0.13555436 -0.075491674 0.47615561
0.1448261 -0.074999049 0.47473121
0.15442276 -0.075113051 0.47288057
0.16396764 -0.074533708 0.4712899
0.17307891 -0.076668568 0.47569779
0.13698421 -0.064912111 0.47536093
0.14504828 -0.064765409 0.47204643
0.15505618 -0.065441184 0.47113162
0.16452979 -0.065790236 0.47136012
0.17244998 -0.065780789 0.47709268
0.13702789 -0.055130403 0.47604701
0.14476736 -0.054760028 0.47245499
0.15465711 -0.054491781 0.47106904
0.16441698 -0.05409582 0.47205159
0.17138954 -0.054746676 0.47790825
0.13745974 -0.045005169 0.47688603
0.14509511 -0.045333292 0.47533247
0.15527494 -0.045712728 0.47659105
0.16450563 -0.044570819 0.4757973
0.17061205 -0.049353696 0.4768301
0.13758583 -0.034370117 0.47669548
0.14490362 -0.034811117 0.47679704
0.15168534 -0.036050949 0.47923556
0.16681089 -0.037529338 0.47909054
0.17076443 -0.039026998 0.47699776
0.13727826 -0.024979455 0.4763979
0.14458276 -0.02494863 0.47475246
0.15303971 -0.026062099 0.4783366
0.1378769 -0.019308431 0.47628063
0.14327274 -0.019804185 0.4721472
0.13685755 -0.11152167 0.48781618
0.14562826 -0.11232674 0.48569521
0.15509449 -0.11215901 0.48651242
0.1640971 -0.11135798 0.48728195
0.17497338 -0.11060029 0.4876866
0.12903945 -0.10226534 0.48610413
0.13330799 -0.10756868 0.48408732
0.14609104 -0.10949475 0.48118296
0.15553458 -0.10827851 0.48151198
0.16515999 -0.1074928 0.48224607
0.17560942 -0.10660196 0.48307016
0.18419732 -0.10404011 0.48611686
0.19030263 -0.10108331 0.48959583
0.12819357 -0.095245861 0.48431414
0.1857802 -0.09540908 0.48546353
0.19039245 -0.094994679 0.48969471
0.12926684 -0.087562904 0.48466024
0.13086782 -0.082938418 0.48515603
0.17836429 -0.080193244 0.48053116
0.18382199 -0.086466886 0.48504019
0.13355787 -0.075007431 0.48497841
0.17727147 -0.074156381 0.48056996
0.18123548 -0.076614313 0.48437008
0.13525437 -0.065021753 0.48492998
0.17739546 -0.066950083 0.48205414
0.18168335 -0.064320445 0.4872486
0.13466825 -0.054672685 0.48505291
0.13497545 -0.044900659 0.48564741
0.15797997 -0.040767554 0.48028874
0.16132261 -0.040539853 0.48026243
0.13514657 -0.035347953 0.48521885
0.15709616 -0.034809079 0.48106292
0.16446885 -0.033849277 0.48141629
0.17054702 -0.032144114 0.48130041
0.13604686 -0.025007967 0.48511079
0.15677024 -0.029077375 0.480896
0.16502525 -0.028687453 0.482694
0.13832636 -0.018197672 0.48566246
0.13494162 -0.11345425 0.49608073
0.14367753 -0.1168272 0.4948642
0.15535173 -0.11704197 0.49375996
0.16569665 -0.11647768 0.49472943
0.17545436 -0.11526868 0.49446139
0.18438222 -0.11458521 0.49554983
0.19440715 -0.11254546 0.49918428
0.12938139 -0.10273872 0.49544135
0.13063465 -0.10762633 0.49547911
0.18671428 -0.1097942 0.49182767
0.1955281 -0.10450607 0.49518022
0.2008812 -0.10161779 0.49887514
0.12923956 -0.095012017 0.49491802
0.13003488 -0.090558305 0.49398249
0.19639187 -0.095135421 0.49558073
0.200927 -0.098512217 0.49892557
0.12952925 -0.089017965 0.49053431
0.13170397 -0.084723882 0.49570552
0.18902434 -0.087367818 0.49017388
0.19035126 -0.086285517 0.491934
0.13452205 -0.07486286 0.49460465
0.13535737 -0.064883411 0.4943884
0.13400273 -0.054939125 0.49531716
0.19104803 -0.058086712 0.49746737
0.13359331 -0.044950623 0.49536377
0.13392697 -0.034885164 0.49533036
0.13507068 -0.024833186 0.49542564
0.1373509 -0.016984334 0.49573883
0.14132334 -0.015864134 0.49275035
0.16505586 -0.12376853 0.50533414
0.13325386 -0.11658067 0.50298125
0.14061196 -0.11854261 0.50014788
0.17440923 -0.11953042 0.50024557
0.18747678 -0.11880378 0.50123811
0.19624962 -0.11700892 0.50345385
0.20429309 -0.11477485 0.5069505
0.20522439 -0.10550696 0.5035274
0.1304815 -0.090406507 0.50004989
0.20562668 -0.095260657 0.50454777
0.13137163 -0.083816655 0.50350487
0.20341194 -0.08524023 0.50586528
0.13307631 -0.074792713 0.50497228
0.1984079 -0.07333646 0.50259954
0.13351882 -0.065240994 0.50420898
0.19734393 -0.064827867 0.50353748
0.20241654 -0.068200774 0.50791049
0.13186103 -0.05509422 0.50331241
0.1990619 -0.05902312 0.50581139
0.13137594 -0.044800229 0.50323999
0.13156688 -0.035024632 0.50427288
0.13212854 -0.025079306 0.50428152
0.13272293 -0.017768489 0.50266272
0.14625292 -0.10090416 0.46972132
0.16708343 -0.10212827 0.469722
0.17370015 -0.10130908 0.4695408
0.13835596 -0.093280397 0.46972349
0.14484794 -0.09516982 0.46892026
0.1516861 -0.095340446 0.46947351
0.16953388 -0.099064827 0.46972317
0.17520292 -0.095479056 0.46937469
0.18122125 -0.094115734 0.46972549
0.13874905 -0.086996302 0.46947569
0.1450076 -0.084713586 0.46883208
0.15323667 -0.08404009 0.46964413
0.16752787 -0.082857303 0.46972865
0.17546205 -0.085210457 0.46972823
0.18068351 -0.085463122 0.46972847
0.14728436 -0.075606495 0.46954083
0.15512744 -0.074358791 0.46919876
0.16414207 -0.072236225 0.46949869
0.17519946 -0.073026456 0.4697324
0.18056051 -0.077621087 0.46973112
0.14900605 -0.066399179 0.46959043
0.1552749 -0.064685233 0.4692342
0.16501513 -0.064894773 0.46922633
0.17275122 -0.065252736 0.46970469
0.14927267 -0.054341827 0.46973744
0.15503649 -0.055171628 0.46955103
0.16524296 -0.059242181 0.46973661
0.17136955 -0.059241824 0.46973693
0.14951743 -0.049032092 0.46973929
0.15401025 -0.049031835 0.4697395
0.1742277 -0.043006171 0.46974263
0.17259371 -0.039023977 0.46974394
0.13192141 -0.0089482861 0.46675205
0.1374726 -0.10242101 0.47562027
0.14479539 -0.10451084 0.47342274
0.15507358 -0.10369209 0.47262087
0.16425921 -0.10386258 0.4731974
0.17522512 -0.10494085 0.47332147
0.18270881 -0.10394343 0.47600788
0.13575508 -0.095207453 0.47413582
0.14042443 -0.09989132 0.47072133
0.15632637 -0.095231235 0.47216493
0.16570894 -0.095447958 0.47537759
0.17195265 -0.091890454 0.4710829
0.18524653 -0.095348038 0.47337744
0.1362429 -0.084812343 0.47453585
0.15749834 -0.085856326 0.47133574
0.16470332 -0.084925927 0.47169447
0.17508073 -0.08439599 0.47075561
0.18507655 -0.085432433 0.47529387
0.13853195 -0.076130956 0.47603977
0.14278619 -0.073673025 0.4718281
0.16614133 -0.076832093 0.47073057
0.17536776 -0.075228445 0.47073162
0.18325268 -0.074272558 0.47466096
0.13935196 -0.065510504 0.47973308
0.14368014 -0.06476 0.47315258
0.15024556 -0.060597099 0.47073534
0.16661793 -0.060596153 0.47073618
0.17735508 -0.06422472 0.47112677
0.18204947 -0.065452605 0.47542289
0.14396831 -0.055344697 0.47346917
0.15884049 -0.050773188 0.47073916
0.16527547 -0.05479639 0.47078353
0.17474531 -0.055129915 0.47103852
0.18156871 -0.054672547 0.4774057
0.14494596 -0.045134533 0.47387922
0.15489523 -0.044491157 0.47121277
0.16522604 -0.04531502 0.4714497
0.17413287 -0.046318054 0.47135919
0.18189812 -0.046111494 0.47974196
0.1450195 -0.035205267 0.47447231
0.15466817 -0.038269859 0.47133577
0.16333683 -0.038148738 0.47109148
0.17173308 -0.039721102 0.47074363
0.14503372 -0.027597954 0.47679892
0.13198239 -0.0085061463 0.47575223
0.13941815 -0.11008452 0.48871779
0.14577152 -0.11207968 0.48721743
0.15500835 -0.11289441 0.48687154
0.16388895 -0.11245053 0.48681825
0.17627865 -0.11273673 0.48709381
0.18452157 -0.11164056 0.48757678
0.13560469 -0.10469874 0.48517776
0.14506306 -0.109377 0.48209333
0.15483297 -0.1096337 0.48114735
0.16452438 -0.10982026 0.48196924
0.17417397 -0.10956343 0.48084486
0.18507262 -0.10658659 0.48212141
0.19080169 -0.10902929 0.48972088
0.13278209 -0.095097482 0.48497257
0.18980379 -0.091978095 0.48072669
0.19233602 -0.094019309 0.48472613
0.13428201 -0.085197575 0.48527154
0.18972544 -0.083719268 0.48372951
0.19094583 -0.08587411 0.48522884
0.13676311 -0.074899375 0.48460066
0.18801807 -0.075235963 0.48258948
0.13815302 -0.06519822 0.48465905
0.18701757 -0.064993188 0.48355401
0.19028001 -0.06668929 0.48840204
0.13906768 -0.055603717 0.48589435
0.14055893 -0.051960897 0.48173782
0.18671729 -0.056839988 0.48573858
0.13958587 -0.044740494 0.48749021
0.14068766 -0.045488454 0.48321366
0.13954888 -0.035683606 0.48714331
0.14058316 -0.034768078 0.48221424
0.1396984 -0.025358539 0.48974687
0.14222153 -0.024613045 0.48467413
0.13764969 -0.013689766 0.48728016
0.14236033 -0.018049315 0.48744187
0.13431291 -0.0093713542 0.48875207
0.1374303 -0.11227038 0.49635977
0.14470367 -0.1150083 0.4948743
0.15518788 -0.11721051 0.49511617
0.16551974 -0.11677054 0.49490738
0.17485972 -0.11689665 0.49541736
0.18500227 -0.11609121 0.49512997
0.19324034 -0.11289278 0.49671969
0.13291278 -0.10496402 0.4954778
0.19703698 -0.1063808 0.49522209
0.20050903 -0.10242536 0.49797365
0.13136445 -0.094282031 0.49584773
0.20000574 -0.098925471 0.49672484
0.13372284 -0.084810928 0.49600616
0.19800937 -0.084705971 0.49822962
0.13496871 -0.07513506 0.49569923
0.19489411 -0.071711466 0.4949339
0.13670669 -0.064922303 0.49535376
0.19430348 -0.064995423 0.49565923
0.13844152 -0.055300575 0.49573651
0.19291782 -0.05450305 0.49740636
0.13881831 -0.045068812 0.49574006
0.19329229 -0.048008718 0.49949193
0.13858475 -0.034659948 0.49491027
0.13869999 -0.024847023 0.49574697
0.13710018 -0.016455958 0.49478978
0.15133047 -0.11931687 0.50071526
0.18571071 -0.11937444 0.50096714
0.19599654 -0.1166367 0.50305194
0.1303632 -0.091745466 0.50172365
0.19900227 -0.080129951 0.50073129
0.19953169 -0.075757883 0.50206614
0.19839786 -0.063002571 0.50307041
0.19748949 -0.055345472 0.50537598
0.19702913 -0.047291219 0.50574243
