# .PCD v0.7 - Point Cloud Data file format
VERSION 0.7
FIELDS x y z
SIZE 4 4 4
TYPE F F F
COUNT 1 1 1
WIDTH 1
HEIGHT 467
VIEWPOINT 0 0 0 1 0 0 0
POINTS 467
DATA ascii
-0.081280053 -0.093068406 0.42961705
-0.074553959 -0.092301928 0.42883462
-0.068446904 -0.09017089 0.42492384
-0.071112253 -0.089026324 0.42900708
-0.065072507 -0.086361207 0.42641872
-0.057399493 -0.082081951 0.42582157
-0.051978845 -0.077444248 0.42622584
-0.047865111 -0.072450146 0.42536172
-0.043278582 -0.064983346 0.42631367
-0.040638722 -0.057861805 0.42683199
-0.039232839 -0.053615171 0.42590022
-0.037682161 -0.046237614 0.42712185
-0.040116787 -0.031185001 0.42897937
-0.03813614 -0.036803529 0.4291797
-0.041799285 -0.027005078 0.42900842
-0.093787573 -0.091547228 0.43463817
-0.085511692 -0.092006899 0.4323051
-0.077392481 -0.091167405 0.43147153
-0.11209612 -0.081481397 0.43887928
-0.10463443 -0.08458478 0.43871489
-0.095458858 -0.087812074 0.43775445
-0.084327005 -0.088137463 0.43733633
-0.07489527 -0.087240592 0.43544412
-0.065365292 -0.0845946 0.43444297
-0.057470929 -0.081377335 0.43494073
-0.12078057 -0.07401818 0.43947172
-0.11514843 -0.075240739 0.43953022
-0.10905329 -0.079078272 0.43970314
-0.052388247 -0.077310048 0.43536532
-0.04832143 -0.072425731 0.43518475
-0.043959662 -0.065241426 0.43495035
-0.04092326 -0.057624072 0.43477863
-0.038921796 -0.053173289 0.43573859
-0.038122755 -0.045377262 0.43494773
-0.040970288 -0.033442751 0.43516511
-0.039235022 -0.037577301 0.43356004
-0.044132978 -0.024716999 0.43466395
-0.050907832 -0.013090972 0.43801358
-0.047714625 -0.016629932 0.43468499
-0.10229211 -0.081701651 0.44274157
-0.09440551 -0.085051358 0.44378182
-0.084787138 -0.085825957 0.44377822
-0.074622288 -0.084466115 0.44391772
-0.064588599 -0.083973221 0.44461322
-0.058144547 -0.08140327 0.44418082
-0.12156166 -0.071330033 0.44087157
-0.11662531 -0.072707996 0.44060832
-0.10742506 -0.077529296 0.4426935
-0.053430736 -0.077572502 0.44433734
-0.047076315 -0.072948188 0.44555438
-0.1230814 -0.064851418 0.44244584
-0.11836787 -0.068454392 0.44061193
-0.042665727 -0.06487187 0.44498613
-0.12556702 -0.054982759 0.44717178
-0.040735718 -0.058297083 0.44315514
-0.038419843 -0.054291464 0.44556221
-0.12521362 -0.046774261 0.44910827
-0.037691686 -0.045112897 0.44470018
-0.04131221 -0.03265987 0.4432115
-0.039218601 -0.037076514 0.44576493
-0.044900578 -0.025281955 0.4445098
-0.052296992 -0.013695355 0.44346052
-0.049400412 -0.01842778 0.44425601
-0.091131583 -0.0056439787 0.44967645
-0.083502717 -0.0028490592 0.44855183
-0.079458967 -0.0015694723 0.44668168
-0.081435114 0.0011070609 0.44902048
-0.07928165 0.001096826 0.44751191
-0.083138347 -0.091059685 0.45986968
-0.078645557 -0.091153264 0.45841351
-0.094649851 -0.085601479 0.45303097
-0.085565999 -0.088485047 0.4537181
-0.074175894 -0.087483965 0.45304155
-0.064230971 -0.086628661 0.4553071
-0.055898938 -0.082727432 0.45483986
-0.05168058 -0.078617148 0.45345333
-0.045551404 -0.074175641 0.45513591
-0.041235257 -0.066229135 0.45396259
-0.03912748 -0.062867977 0.45726225
-0.12770523 -0.050905488 0.45041931
-0.037086982 -0.054946259 0.45452705
-0.13008586 -0.04620111 0.45225251
-0.12796868 -0.04484557 0.45121086
-0.035345603 -0.045407359 0.45495602
-0.040474325 -0.031874996 0.45114949
-0.037826158 -0.035951898 0.45551518
-0.11678382 -0.021773254 0.453904
-0.043826144 -0.025368582 0.45402211
-0.039842457 -0.029358074 0.45973435
-0.11272208 -0.016800577 0.4548617
-0.10691742 -0.012169261 0.45507929
-0.051727399 -0.014442086 0.45073658
-0.048482321 -0.017769206 0.45402592
-0.10325313 -0.005835549 0.45673871
-0.095826015 -0.0039569293 0.45302033
-0.087422676 -0.0019028892 0.45180818
-0.1020518 0.0044819671 0.45897892
-0.095329255 0.0034781906 0.45697561
-0.085677505 0.0019172648 0.45321491
-0.10378011 0.011639103 0.45981848
-0.083172329 -0.092539072 0.46542645
-0.074988633 -0.094657019 0.4677574
-0.064200811 -0.0927497 0.46795335
-0.059726775 -0.090485394 0.46935272
-0.061250299 -0.089204192 0.46415538
-0.05447527 -0.086129002 0.46466786
-0.048308767 -0.082115397 0.46655902
-0.043700635 -0.074736036 0.46466637
-0.040556818 -0.068969205 0.46201771
-0.037911888 -0.064651698 0.46476051
-0.034639694 -0.055133183 0.46497706
-0.033394519 -0.045363814 0.46537128
-0.036077954 -0.035251219 0.46493676
-0.043441355 -0.022443745 0.46305627
-0.038369179 -0.029168658 0.46741408
-0.11293933 -0.014884868 0.46512493
-0.10971547 -0.010881335 0.46156418
-0.046080351 -0.018704683 0.46106967
-0.10708136 -0.0050643762 0.46365365
-0.11039937 0.008665815 0.46768385
-0.10705981 0.0052010394 0.46279195
-0.11066917 0.01252521 0.46815941
-0.10769295 0.013838172 0.46469209
-0.080274493 -0.094618976 0.47147569
-0.074196607 -0.096917167 0.47623587
-0.064254582 -0.095530383 0.47578734
-0.057319459 -0.091473691 0.47607204
-0.052808627 -0.088511832 0.47406116
-0.046030104 -0.084011264 0.47578663
-0.042193122 -0.076799661 0.47428155
-0.038427453 -0.07234779 0.47598091
-0.035068765 -0.065132119 0.47491094
-0.033330109 -0.054879479 0.47505155
-0.032436233 -0.04551452 0.47511908
-0.033550166 -0.035743881 0.47455636
-0.11158635 -0.021771323 0.47448805
-0.10991964 -0.02633816 0.47402993
-0.042675406 -0.021592317 0.47501579
-0.037817266 -0.02667471 0.47671065
-0.11303687 -0.016359791 0.47269332
-0.10372722 -0.011107847 0.47936836
-0.10568239 -0.007017456 0.47359189
-0.11058845 0.0083899144 0.47278434
-0.10882131 0.0048119226 0.47380459
-0.11203117 0.013902338 0.47399676
-0.10944626 0.017885879 0.47108209
-0.073912658 -0.096840419 0.48544383
-0.065274335 -0.094419234 0.48467287
-0.05587339 -0.091718465 0.48495188
-0.050635695 -0.089710779 0.48488092
-0.044991091 -0.085077912 0.4852992
-0.040589917 -0.078896224 0.48520163
-0.037006073 -0.073883407 0.4857648
-0.033366948 -0.0650561 0.4853752
-0.032538112 -0.054865092 0.48522812
-0.031194817 -0.044937145 0.48489019
-0.10402679 -0.031349182 0.48698428
-0.032320783 -0.034688432 0.48534679
-0.029687434 -0.038351633 0.48744401
-0.10617217 -0.029441729 0.48164436
-0.041374236 -0.023923129 0.4807024
-0.034704261 -0.02926708 0.48612091
-0.099274725 -0.01285965 0.48825404
-0.10203183 -0.0051485598 0.48510453
-0.099659234 -0.0095619261 0.48721293
-0.11111262 0.0097902417 0.48496604
-0.10829125 0.0057938369 0.48409122
-0.080673262 -0.093525723 0.49825087
-0.075355157 -0.093834125 0.49485669
-0.065244287 -0.091783069 0.49409333
-0.05593726 -0.091139622 0.4932254
-0.071840517 -0.089571692 0.49938187
-0.064651661 -0.088882945 0.49892566
-0.053630762 -0.086643577 0.49758172
-0.046456221 -0.084082447 0.49396697
-0.044552654 -0.075301073 0.49703357
-0.03777393 -0.0731408 0.4930855
-0.06206619 -0.061785977 0.49929163
-0.05368818 -0.063746013 0.49958301
-0.044638958 -0.065207392 0.49875218
-0.036595091 -0.064808726 0.49423426
-0.063470185 -0.058502924 0.49955681
-0.056114119 -0.058623031 0.499524
-0.043920416 -0.057304349 0.49917868
-0.035358418 -0.054876935 0.49506375
-0.10053264 -0.043249272 0.49796247
-0.099608421 -0.044619292 0.49730381
-0.032544155 -0.045171671 0.49561736
-0.10113382 -0.035807729 0.49659291
-0.099767648 -0.038550921 0.4967986
-0.033438966 -0.035864267 0.49535209
-0.034905285 -0.029650131 0.49306798
-0.095285177 -0.014261788 0.49656492
-0.10151669 -0.0019854337 0.4938632
-0.097785927 -0.0074727512 0.49491999
-0.10341147 0.0021166503 0.4959271
-0.1019901 0.010473788 0.49317768
-0.081092365 -0.091567643 0.5008781
-0.077963993 -0.090603821 0.50059247
-0.080615982 -0.088602409 0.50284874
-0.074907131 -0.085254833 0.5033024
-0.10060933 -0.06158397 0.50890112
-0.098901749 -0.062493484 0.50758106
-0.080568075 -0.066958576 0.50798213
-0.074504487 -0.06520281 0.50547439
-0.065630466 -0.065437861 0.50188577
-0.055692419 -0.067024231 0.50053811
-0.10153729 -0.054188069 0.50716358
-0.098637275 -0.055564702 0.5041014
-0.071981125 -0.056957513 0.5059526
-0.065699592 -0.054552402 0.50302935
-0.054801431 -0.053749528 0.50158888
-0.045844875 -0.053072885 0.5014298
-0.038243324 -0.050966233 0.50027239
-0.10187853 -0.044902377 0.50492728
-0.063717276 -0.045904517 0.50492787
-0.054820456 -0.045251548 0.5046798
-0.10021743 -0.039605889 0.50527078
-0.099359289 -0.03742383 0.5051285
-0.055326998 -0.039587051 0.50640512
-0.037491724 -0.036695216 0.50261176
-0.090749502 -0.020793468 0.50711799
-0.092139609 -0.015047695 0.50521225
-0.10085708 -0.0010541528 0.50058448
-0.096858956 -0.0063110273 0.50472403
-0.10178971 0.00093230605 0.50061631
-0.10301187 -0.065240026 0.51544726
-0.099877745 -0.067863762 0.51172143
-0.10350303 -0.055341817 0.51532817
-0.10241122 -0.045137484 0.51490581
-0.099291198 -0.04071866 0.51725549
-0.10006672 -0.039919302 0.51072419
-0.096548483 -0.03815975 0.51593834
-0.088112444 -0.023643568 0.51617879
-0.091385946 -0.013776138 0.51555091
-0.089644 -0.018290194 0.51597542
-0.094334245 -0.0070531666 0.51451868
-0.090993673 -0.090104647 0.41999221
-0.089351222 -0.09010458 0.41999227
-0.072926722 -0.090103902 0.41999286
-0.092636168 -0.089009739 0.41999227
-0.071716569 -0.085235655 0.4193134
-0.065428779 -0.083843932 0.41816831
-0.058026392 -0.081973672 0.4171609
-0.060955778 -0.07950335 0.41799429
-0.05696613 -0.078949302 0.41681269
-0.034604888 -0.040828831 0.41999903
-0.037304524 -0.036232013 0.41908267
-0.039484955 -0.029843798 0.41949993
-0.084315315 -0.090581089 0.42221463
-0.076540902 -0.090490177 0.42179269
-0.10344245 -0.084056884 0.42625046
-0.09527798 -0.086668834 0.42524773
-0.084710017 -0.086687379 0.42502257
-0.076778844 -0.085646592 0.42294443
-0.11331514 -0.077864744 0.42965928
-0.10941602 -0.079919204 0.42999253
-0.033195384 -0.040566385 0.42299911
-0.034282032 -0.034191027 0.42411327
-0.042503536 -0.022845507 0.42197022
-0.037327811 -0.025969205 0.42230344
-0.053630311 -0.011377719 0.42630118
-0.045693755 -0.015120747 0.42600119
-0.039080501 -0.018301506 0.42580104
-0.061473988 -0.0023318036 0.42790183
-0.056007676 -0.0057498883 0.42740598
-0.048989087 -0.0084970864 0.42766833
-0.062384859 0.00079089595 0.42650211
-0.10379077 -0.081725799 0.43499258
-0.094964415 -0.083810747 0.4356986
-0.085472308 -0.082600527 0.43438447
-0.11421151 -0.07422509 0.43477476
-0.10872654 -0.078706749 0.43624267
-0.12108278 -0.063860521 0.43618119
-0.11768451 -0.066368513 0.43767649
-0.12247621 -0.054836441 0.43909127
-0.11999152 -0.059409462 0.43999416
-0.12299413 -0.046653084 0.43953377
-0.031290926 -0.035939511 0.43489966
-0.064482369 -0.0035512878 0.43307304
-0.10222334 -0.080758311 0.44299278
-0.095461674 -0.081514664 0.44459289
-0.087342136 -0.082078017 0.44510424
-0.11170501 -0.072682537 0.44268069
-0.10522993 -0.075162575 0.44621816
-0.099002294 -0.079256743 0.44779301
-0.11359705 -0.064232364 0.44396174
-0.10674143 -0.067101605 0.44662806
-0.12040818 -0.054370768 0.44099465
-0.11676023 -0.05527721 0.44593021
-0.12175445 -0.043313522 0.44139561
-0.11665796 -0.044963073 0.44573006
-0.029904969 -0.041214395 0.44799915
-0.12264948 -0.036172919 0.44299632
-0.1172308 -0.034696247 0.44662383
-0.029738154 -0.037794672 0.44549951
-0.12081096 -0.029208886 0.44299707
-0.11411578 -0.02561358 0.44534138
-0.10753193 -0.02294616 0.44702852
-0.11137164 -0.017540313 0.44322079
-0.10486497 -0.014929975 0.44631329
-0.098322272 -0.011185773 0.44974965
-0.10291471 -0.0064351428 0.44780639
-0.09512122 -0.0050227554 0.44744772
-0.085787281 -0.00397838 0.44750082
-0.0745131 -0.0040967423 0.44706577
-0.06889639 -0.0060180393 0.44275117
-0.09366715 0.00083065126 0.44850096
-0.070627421 0.00082879758 0.44700181
-0.093682021 -0.081244729 0.45524296
-0.089282885 -0.082372658 0.45599303
-0.1005768 -0.072603248 0.4530845
-0.098876946 -0.076451644 0.45555848
-0.11059807 -0.060730446 0.45419437
-0.10502729 -0.065508492 0.45556074
-0.11298678 -0.054984771 0.45535848
-0.11214779 -0.044810839 0.45499584
-0.10985682 -0.041122288 0.45999628
-0.029186226 -0.041266486 0.45499921
-0.11231963 -0.035984226 0.45407364
-0.10909043 -0.033795547 0.45813036
-0.029138243 -0.037640803 0.45424953
-0.11005923 -0.029735792 0.45099741
-0.10508884 -0.024833266 0.45496866
-0.10079092 -0.018234666 0.45362389
-0.096057475 -0.013856828 0.45526129
-0.087465167 -0.011488497 0.45788887
-0.10406724 -0.0012626825 0.45050043
-0.09117914 -0.0097394576 0.4506667
-0.084379002 -0.0059215478 0.4525412
-0.076982521 -0.0054036169 0.45266759
-0.1100923 0.0091657164 0.45600119
-0.10498412 0.005121158 0.45352402
-0.097313918 0.004186267 0.45387992
-0.087324202 0.00084330246 0.45514402
-0.077362031 0.00084810762 0.45750159
-0.11033383 0.010972964 0.45700136
-0.10504127 0.012805842 0.45738015
-0.094178282 -0.08115451 0.46609297
-0.098437838 -0.07482814 0.46568912
-0.11009488 -0.060441386 0.46099442
-0.10497946 -0.06487783 0.4657442
-0.099990979 -0.068972744 0.46999395
-0.11118814 -0.055310257 0.46503186
-0.10979415 -0.053860873 0.46999505
-0.11041245 -0.046826854 0.46232906
-0.10899072 -0.044057295 0.46681425
-0.028156906 -0.042404573 0.46749911
-0.10778137 -0.035301119 0.4656755
-0.028862037 -0.039477985 0.46899936
-0.10346688 -0.025787521 0.46551982
-0.099522181 -0.02182078 0.46779853
-0.094827838 -0.017140925 0.46503767
-0.085786872 -0.01347649 0.46513617
-0.077988222 -0.01151674 0.46300036
-0.09659031 0.0071027623 0.46453995
-0.08369454 0.0019050331 0.46400139
-0.079181269 0.0020810163 0.46650159
-0.10117556 0.014583886 0.46281454
-0.099441648 0.012769521 0.46677971
-0.093263209 -0.081711419 0.47569293
-0.097101517 -0.075360477 0.47566006
-0.10415909 -0.06354104 0.47547999
-0.099363036 -0.068914369 0.476394
-0.034685683 -0.067051418 0.47973847
-0.11002771 -0.055612706 0.47099489
-0.10689985 -0.055338632 0.47614095
-0.027251462 -0.050852429 0.47939834
-0.10659271 -0.045150861 0.47580159
-0.026566178 -0.045209158 0.47613224
-0.10517875 -0.034790095 0.4757323
-0.028880253 -0.038822718 0.47599944
-0.10228819 -0.02778252 0.47499791
-0.09620028 -0.022876395 0.47588089
-0.089606814 -0.020384066 0.47999904
-0.091846891 -0.018508319 0.473142
-0.085471965 -0.016474603 0.47536325
-0.095667087 0.0080207465 0.47422382
-0.084763266 0.0039696819 0.47393015
-0.07690721 0.0021191253 0.47500169
-0.098128751 0.013767185 0.47442311
-0.091769733 -0.083012171 0.48619288
-0.051552724 -0.086917326 0.48870823
-0.044534504 -0.08493156 0.48735932
-0.095539443 -0.075367942 0.48572427
-0.042222723 -0.07752268 0.48637983
-0.035044767 -0.074647471 0.48289952
-0.101119 -0.063154235 0.48494688
-0.098791152 -0.068250112 0.48621628
-0.034055784 -0.062120873 0.48466364
-0.025442362 -0.064991489 0.48550496
-0.10249319 -0.054883733 0.48502383
-0.033593044 -0.056346565 0.48762718
-0.024976639 -0.055665981 0.48446855
-0.10279233 -0.045349225 0.48513129
-0.023496311 -0.045928873 0.48553741
-0.10194414 -0.035477832 0.4846032
-0.098310679 -0.031665865 0.48749763
-0.094393082 -0.026192443 0.48458654
-0.087098986 -0.021848418 0.48653233
-0.083049908 -0.01807286 0.48507097
-0.079813652 -0.01630507 0.48899978
-0.09303423 0.0081267841 0.48450172
-0.08588253 0.0056256121 0.48375174
-0.079373062 0.0034376138 0.48633507
-0.096274503 0.01326633 0.48478776
-0.08424519 -0.091851041 0.4955923
-0.090744764 -0.082217671 0.49182633
-0.085443377 -0.085039541 0.49582112
-0.075364865 -0.084678337 0.49580672
-0.068167165 -0.082292572 0.49329382
-0.093412317 -0.07497216 0.49599349
-0.084460698 -0.076244764 0.49882302
-0.075137638 -0.074993998 0.49696201
-0.066680208 -0.074126944 0.49612269
-0.097486585 -0.064691298 0.49591112
-0.080303676 -0.06815993 0.49999472
-0.074797362 -0.065863073 0.4992224
-0.10061973 -0.053493265 0.49099541
-0.097967289 -0.055153251 0.49654809
-0.037482847 -0.056710958 0.49116406
-0.10062009 -0.044532791 0.49099633
-0.097338259 -0.044858616 0.4964529
-0.062278066 -0.045150273 0.49993879
-0.058829445 -0.044375427 0.49966446
-0.10062033 -0.038772479 0.49099687
-0.095838569 -0.035079807 0.49597466
-0.089429945 -0.030357877 0.49999806
-0.092323631 -0.028531656 0.49319822
-0.084713146 -0.025119539 0.49610132
-0.07725247 -0.021851925 0.49924931
-0.067889057 -0.021221656 0.49974972
-0.080839649 -0.019209495 0.49266616
-0.076623864 -0.018556496 0.4980585
-0.068696901 -0.019368555 0.49899989
-0.090792067 0.0095957667 0.49325192
-0.086857796 0.0073633227 0.49444634
-0.094842628 0.012962846 0.49500212
-0.091775298 -0.072413772 0.50124395
-0.087221093 -0.072427191 0.50140584
-0.092692465 -0.064950481 0.50242698
-0.085173495 -0.065256082 0.50274485
-0.074726917 -0.061250906 0.50106233
-0.092796206 -0.054610867 0.50210989
-0.085299775 -0.054946996 0.50388116
-0.07487113 -0.054783583 0.50290239
-0.09194164 -0.045050785 0.50244486
-0.084572241 -0.044770766 0.50620377
-0.074885525 -0.045083631 0.50520474
-0.066103697 -0.044569436 0.50134134
-0.058914144 -0.040866446 0.50099814
-0.091733195 -0.036757544 0.50210267
-0.085309811 -0.035018768 0.50467581
-0.074917048 -0.034972634 0.50537115
-0.065628894 -0.035790719 0.50355154
-0.059115686 -0.038560688 0.50159836
-0.082442701 -0.028418511 0.50155413
-0.074667312 -0.025756462 0.50252962
-0.067411155 -0.026782878 0.50335211
-0.074588723 -0.018662725 0.50099981
-0.085609071 0.0077637485 0.50360191
-0.094421946 0.013557253 0.50440216
-0.088942878 0.010145503 0.50466871
-0.083160013 0.0078065293 0.51530206
-0.079146743 0.0050122649 0.51800191
-0.090596065 0.01234713 0.5140022
-0.087192722 0.010857221 0.5176689
