# .PCD v0.7 - Point Cloud Data file format
VERSION 0.7
FIELDS x y z
SIZE 4 4 4
TYPE F F F
COUNT 1 1 1
WIDTH 1389
HEIGHT 1
VIEWPOINT 0 0 0 1 0 0 0
POINTS 1389
DATA ascii
0.12215587 0.016837528 0.50899458
0.12320899 0.017371176 0.5093683
0.12426212 0.017904827 0.50974202
0.12552159 0.018495375 0.5091213
0.12657249 0.019027898 0.50949425
0.12762341 0.019560425 0.50986719
0.12867431 0.020092951 0.51024008
0.12972522 0.020625474 0.51061302
0.1309714 0.021209275 0.50998759
0.1320201 0.021740677 0.51035976
0.13306879 0.022272078 0.51073188
0.13411748 0.02280348 0.51110399
0.13516617 0.023334885 0.51147616
0.13639903 0.023911951 0.51084608
0.13744551 0.024442231 0.51121742
0.13867173 0.025015924 0.51058489
0.13971598 0.025545076 0.51095545
0.14093556 0.026115397 0.5103206
0.14197759 0.026643427 0.51069039
0.1431905 0.027210388 0.51005316
0.14423034 0.027737301 0.51042217
0.14527017 0.028264206 0.51079118
0.1464742 0.028826665 0.51015079
0.14767382 0.02938688 0.50950885
0.14870921 0.029911542 0.50987625
0.14974459 0.030436201 0.51024365
0.15093532 0.030991919 0.50959861
0.15196851 0.031515457 0.50996524
0.15300167 0.032038994 0.51033187
0.15403484 0.032562528 0.5106985
0.15521449 0.03311263 0.51004952
0.15624544 0.033635043 0.51041538
0.15727641 0.034157462 0.51078123
0.15830736 0.034679875 0.51114708
0.15947592 0.035224359 0.51049411
0.16050467 0.035745651 0.51085913
0.16153342 0.036266942 0.51122421
0.16256215 0.036788233 0.51158929
0.16371962 0.0373271 0.51093239
0.16474614 0.037847266 0.51129663
0.16577266 0.038367432 0.51166093
0.16679919 0.038887601 0.51202524
0.16794559 0.039420843 0.51136434
0.1689699 0.039939888 0.51172787
0.16999421 0.040458933 0.51209134
0.17101851 0.040977977 0.51245487
0.17204282 0.041497022 0.51281834
0.17317592 0.042023525 0.51215279
0.174198 0.042541448 0.51251554
0.17532444 0.043064587 0.51184762
0.17634431 0.043581381 0.51220953
0.17736417 0.044098184 0.51257145
0.17848176 0.044616826 0.51190037
0.17949942 0.045132495 0.51226151
0.18061033 0.04564777 0.5115881
0.18162577 0.046162318 0.51194847
0.18273005 0.046674214 0.51127267
0.18374327 0.047187641 0.5116322
0.18475649 0.047701076 0.5119918
0.18576971 0.048214495 0.51235133
0.18686289 0.048720784 0.51167166
0.18787389 0.049233086 0.51203036
0.18888488 0.049745388 0.51238918
0.18989588 0.05025769 0.51274794
0.1909069 0.05077 0.5131067
0.1919179 0.051282302 0.51346552
0.1929289 0.051794603 0.51382422
0.19393991 0.052306905 0.51418304
0.19495089 0.052819207 0.5145418
0.19602193 0.053314261 0.51385421
0.19703071 0.053825438 0.51421219
0.1980395 0.054336622 0.51457018
0.19910163 0.054827176 0.51387948
0.2001082 0.055337235 0.51423669
0.20116369 0.055824414 0.51354355
0.20216805 0.056333344 0.51389998
0.2031724 0.056842279 0.51425636
0.20417675 0.057351213 0.51461279
0.20522116 0.057832785 0.51391578
0.20622329 0.058340587 0.51427138
0.20722543 0.058848396 0.51462704
0.20822756 0.059356205 0.51498264
0.2092609 0.059832163 0.51428169
0.21026081 0.06033884 0.51463652
0.21126072 0.060845532 0.5149914
0.21226063 0.061352208 0.51534617
0.2132829 0.061822556 0.51464134
0.21428058 0.062328115 0.51499534
0.21527828 0.062833682 0.51534939
0.21627598 0.063339233 0.51570344
0.21728712 0.063803956 0.51499462
0.21828261 0.064308397 0.51534796
0.2192781 0.064812839 0.51570117
0.22027358 0.065317273 0.51605445
0.22127365 0.065776378 0.51534164
0.22226691 0.066279694 0.51569414
0.22326031 0.066735409 0.51497906
0.22425137 0.067237608 0.51533079
0.22523814 0.06768997 0.51461327
0.22622697 0.068191037 0.51496416
0.22720709 0.068640031 0.51424432
0.2281937 0.069139972 0.51459444
0.22918031 0.069639914 0.51494455
0.23015156 0.070084408 0.51422155
0.23113598 0.070583232 0.51457089
0.23212036 0.071082048 0.51492023
0.23308274 0.071522057 0.51419413
0.23406491 0.072019741 0.51454264
0.23504709 0.07251744 0.51489121
0.23602927 0.073015139 0.51523972
0.23698057 0.07344953 0.51450968
0.23796053 0.073946103 0.51485741
0.23894049 0.074442677 0.5152052
0.23988292 0.074872561 0.51447195
0.24086067 0.075368017 0.51481891
0.2418384 0.075863466 0.51516593
0.24277197 0.076288864 0.51442957
0.24374749 0.076783188 0.51477575
0.24472302 0.077277511 0.51512194
0.24564771 0.077698417 0.51438236
0.24662101 0.078191623 0.51472783
0.24759433 0.078684822 0.51507318
0.24851014 0.079101235 0.51433051
0.24948123 0.079593316 0.51467514
0.25045234 0.080085397 0.51501977
0.25142342 0.080577478 0.51536435
0.25232816 0.080988266 0.51461774
0.25329703 0.081479229 0.5149616
0.2542659 0.081970178 0.5153054
0.25516176 0.08237648 0.51455569
0.25612843 0.082866311 0.51489872
0.2570951 0.083356142 0.51524174
0.25806177 0.08384598 0.51558483
0.2590284 0.084335811 0.51592785
0.25991097 0.084735371 0.51517338
0.2608754 0.08522407 0.51551563
0.26183987 0.085712783 0.51585788
0.26280427 0.086201496 0.51620013
0.26376873 0.08669021 0.51654238
0.26463801 0.087083012 0.51578319
0.26560023 0.0875706 0.51612461
0.26656246 0.088058189 0.51646614
0.26752466 0.088545769 0.51680756
0.26848692 0.089033358 0.51714903
0.26934287 0.089419447 0.51638514
-0.21180078 -0.14632727 0.4897033
-0.21054152 -0.14568914 0.49015021
-0.20928219 -0.14505102 0.49059707
-0.20726344 -0.14407857 0.49024594
-0.20600632 -0.14344157 0.49069205
-0.20474926 -0.14280458 0.49113816
-0.20349213 -0.14216755 0.49158424
-0.20223507 -0.14153056 0.49203038
-0.20022961 -0.14056489 0.49167451
-0.19897476 -0.139929 0.49211982
-0.19697592 -0.13896668 0.49176157
-0.19572324 -0.13833189 0.4922061
-0.19373113 -0.13737297 0.49184552
-0.19174346 -0.1364163 0.49148336
-0.18976018 -0.13546185 0.49111962
-0.18778136 -0.13450962 0.49075443
-0.18580693 -0.13355967 0.4903875
-0.18383697 -0.13261196 0.49001905
-0.18187144 -0.13166651 0.48964903
-0.18063429 -0.13103962 0.49008805
-0.17867544 -0.13009755 0.4897157
-0.17744052 -0.12947178 0.49015391
-0.17620558 -0.128846 0.49059212
-0.17425558 -0.12790839 0.49021661
-0.1730229 -0.12728374 0.49065405
-0.17179015 -0.1266591 0.49109152
-0.17055747 -0.12603445 0.49152896
-0.16932473 -0.1254098 0.49196643
-0.16738799 -0.12447891 0.49158612
-0.16615751 -0.1238554 0.49202278
-0.16492698 -0.12323186 0.49245945
-0.1636965 -0.12260835 0.49289611
-0.16177088 -0.12168312 0.49251199
-0.16054261 -0.12106071 0.49294788
-0.15931433 -0.12043831 0.49338374
-0.1573976 -0.11951756 0.49299642
-0.15617153 -0.11889628 0.49343151
-0.15494546 -0.11827502 0.49386659
-0.15303758 -0.11735876 0.49347612
-0.15181375 -0.11673862 0.49391043
-0.14991248 -0.11582573 0.49351752
-0.14869085 -0.11520667 0.49395105
-0.14746922 -0.11458765 0.49438456
-0.1462476 -0.11396863 0.49481809
-0.14435747 -0.11306135 0.4944213
-0.14313802 -0.11244343 0.49485403
-0.14125457 -0.11153956 0.49445492
-0.13937551 -0.11063793 0.49405423
-0.13816056 -0.11002226 0.49448538
-0.13694558 -0.10940659 0.49491653
-0.13507539 -0.10850945 0.49451268
-0.13386261 -0.10789491 0.49494305
-0.13264987 -0.10728037 0.49537343
-0.13078851 -0.1063877 0.49496642
-0.12957793 -0.10577428 0.49539602
-0.12836742 -0.10516086 0.49582559
-0.12651497 -0.10427271 0.49541545
-0.12530664 -0.10366042 0.49584424
-0.12346086 -0.10277562 0.49543175
-0.12225476 -0.10216446 0.49585974
-0.12104866 -0.10155328 0.49628776
-0.11984256 -0.10094212 0.49671575
-0.11800781 -0.10006297 0.49629933
-0.11680391 -0.099452913 0.49672654
-0.11497587 -0.098577112 0.49630773
-0.11377421 -0.097968191 0.49673417
-0.11257252 -0.09735927 0.49716061
-0.11137083 -0.096750349 0.49758705
-0.11016917 -0.096141428 0.4980135
-0.0052154958 -0.044878572 0.49469227
-0.0045493245 -0.044490457 0.49599618
-0.0038787127 -0.044100121 0.4973017
-0.0032036602 -0.043707535 0.49860877
-0.0025241822 -0.043312691 0.49991742
-0.0018402636 -0.04291559 0.50122762
-0.00071173906 -0.042343743 0.5016281
0.00041675568 -0.041771904 0.50202858
0.0015452653 -0.041200057 0.50242901
0.002673775 -0.040628202 0.50282949
0.0042335689 -0.039888345 0.50231552
0.0057889372 -0.03915073 0.50179994
0.0073398501 -0.038415357 0.50128281
0.0084617138 -0.037846878 0.50168091
0.010005996 -0.037114874 0.50116134
0.011545852 -0.036385119 0.50064027
0.012663275 -0.035818897 0.50103682
0.014196455 -0.035092525 0.50051343
0.01572521 -0.034368381 0.49998838
0.016838193 -0.033804402 0.50038338
0.018360287 -0.033083633 0.49985602
0.019471064 -0.032520778 0.50025022
0.020581827 -0.031957917 0.50064433
0.021692619 -0.031395055 0.50103855
0.023203656 -0.030679904 0.50050718
0.024312213 -0.030118167 0.50090057
0.025816575 -0.029406399 0.50036693
0.026922911 -0.028845787 0.50075948
0.028029248 -0.028285176 0.5011521
0.029524744 -0.027577884 0.5006153
0.03062886 -0.027018398 0.50100708
0.032117724 -0.026314482 0.50046796
0.033219621 -0.025756113 0.50085896
0.034321517 -0.025197752 0.50125003
0.035801515 -0.024498329 0.50070769
0.036901206 -0.023941092 0.50109792
0.038374528 -0.023245044 0.50055325
0.039471984 -0.022688925 0.50094271
0.040569454 -0.022132806 0.50133216
0.042033926 -0.021441258 0.50078434
0.046040371 -0.019512132 0.50007105
0.047131181 -0.018959388 0.50045812
0.048577905 -0.018276818 0.49990401
0.07070072 -0.0074708089 0.4992145
0.071457788 -0.0070366412 0.50055063
0.072219312 -0.0066002309 0.50188839
0.072985262 -0.0061615743 0.50322777
0.07406278 -0.0056155659 0.50361013
0.075140297 -0.0050695576 0.50399256
0.075915113 -0.0046264157 0.50533497
0.077295318 -0.0039775483 0.50475729
0.078372836 -0.00343154 0.50513965
0.079450354 -0.0028855316 0.50552201
0.080527872 -0.0023395233 0.50590444
0.08160539 -0.0017935224 0.50628674
0.082972303 -0.0011513904 0.50570428
0.084047601 -0.00060650706 0.50608587
0.085122898 -6.1623752e-05 0.50646746
0.08648093 0.00057599694 0.50588191
0.087554008 0.0011197627 0.50626266
0.088627085 0.0016635209 0.50664347
0.089700162 0.0022072792 0.50702429
0.090773255 0.0027510375 0.50740504
0.092117995 0.0033819303 0.50681478
0.093188852 0.0039245635 0.50719476
0.094259724 0.0044672042 0.5075748
0.095595583 0.0050935969 0.50698137
0.096664235 0.0056351125 0.50736058
0.097732872 0.0061766282 0.50773978
0.098801523 0.0067181364 0.50811899
0.1001263 0.0073389076 0.50752163
0.10119274 0.0078792982 0.50790006
0.10225916 0.0084196888 0.50827849
0.10332559 0.0089600757 0.50865698
0.10439202 0.0095004663 0.50903535
0.10570351 0.010114498 0.50843322
0.10676772 0.010653771 0.50881088
0.10783193 0.011193037 0.50918853
0.10913455 0.011802576 0.50858331
0.11019655 0.012340721 0.50896019
0.11149251 0.012946889 0.50835252
0.1125523 0.013483912 0.50872862
0.11361207 0.014020935 0.50910473
0.11489916 0.014622608 0.5084939
0.11595672 0.015158506 0.50886923
0.11723717 0.015756816 0.50825608
0.11829252 0.016291585 0.50863063
0.11956629 0.016886523 0.5080151
0.12061943 0.017420171 0.50838882
0.12167256 0.017953819 0.50876254
0.12272568 0.018487466 0.50913626
0.12377881 0.019021118 0.50950998
0.12483193 0.01955477 0.5098837
0.1260902 0.020141834 0.50926268
0.1271411 0.020674361 0.50963569
0.12819202 0.021206887 0.51000857
0.12924293 0.02173941 0.51038152
0.13029385 0.022271937 0.51075447
0.13134475 0.022804463 0.51112735
0.13258751 0.023383675 0.51050085
0.13363619 0.023915077 0.51087296
0.13468489 0.024446482 0.51124513
0.13573357 0.02497788 0.5116173
0.13696525 0.025551466 0.51098686
0.13819247 0.026122812 0.51035482
0.13923673 0.026651964 0.51072538
0.14028099 0.027181119 0.511096
0.14149937 0.027747968 0.51046085
0.14254141 0.028276006 0.51083064
0.14375313 0.028839488 0.51019311
0.14479294 0.029366393 0.51056206
0.14583278 0.029893298 0.51093107
0.14703561 0.030452289 0.51029038
0.14823402 0.031009028 0.50964814
0.1492694 0.031533688 0.51001561
0.15030479 0.032058343 0.51038301
0.15149434 0.032610595 0.50973761
0.15252751 0.033134133 0.51010424
0.15356067 0.033657666 0.51047087
0.15459386 0.034181204 0.51083755
0.15562701 0.034704741 0.51120412
0.15680327 0.035250247 0.51055408
0.15783422 0.035772659 0.51091993
0.15886518 0.036295075 0.51128578
0.15989614 0.036817487 0.51165164
0.16106129 0.037357371 0.51099753
0.16209002 0.037878662 0.51136267
0.16311875 0.038399953 0.51172769
0.1641475 0.038921244 0.51209277
0.16530156 0.039455514 0.51143479
0.16632807 0.039975684 0.5117991
0.1673546 0.04049585 0.51216334
0.16838112 0.041016016 0.51252764
0.16940764 0.041536182 0.51289189
0.17054841 0.042063713 0.5122292
0.17157272 0.042582758 0.51259267
0.17259702 0.043101802 0.51295614
0.17372893 0.043624837 0.51229036
0.17475101 0.044142757 0.51265305
0.17587626 0.044662409 0.51198483
0.17689613 0.045179211 0.51234674
0.17801473 0.045695513 0.51167619
0.17903239 0.046211183 0.51203728
0.18014431 0.046724103 0.5113644
0.18115975 0.047238652 0.51172477
0.18217519 0.0477532 0.51208508
0.18327826 0.048261628 0.51140898
0.18429148 0.048775062 0.51176858
0.1853047 0.049288481 0.51212811
0.18631792 0.049801908 0.51248765
0.18733114 0.050315335 0.51284724
0.18834436 0.050828762 0.51320678
0.18935756 0.051342189 0.51356637
0.1903708 0.051855616 0.51392591
0.19138402 0.052369043 0.51428545
0.1924649 0.052866243 0.51360154
0.19347592 0.053378545 0.5139603
0.19448692 0.053890847 0.51431906
0.19549792 0.054403149 0.51467788
0.19656773 0.054894716 0.51398993
0.19757654 0.0554059 0.51434791
0.19858532 0.055917077 0.5147059
0.19964625 0.056404173 0.51401496
0.20065281 0.056914225 0.51437211
0.20170711 0.057397928 0.51367867
0.20271146 0.057906862 0.51403511
0.20371582 0.058415797 0.51439154
0.20476124 0.058895029 0.513695
0.20576337 0.059402831 0.5140506
0.2067655 0.05991064 0.5144062
0.20776764 0.060418449 0.51476187
0.208802 0.060892053 0.51406139
0.2098019 0.06139873 0.51441622
0.21080182 0.061905421 0.5147711
0.21180174 0.062412098 0.51512593
0.21282502 0.062880091 0.51442152
0.21382269 0.063385651 0.51477557
0.2148204 0.063891217 0.51512963
0.21581809 0.064396769 0.51548368
0.21683027 0.064859144 0.51477534
0.21782576 0.065363586 0.51512861
0.21882124 0.065868028 0.51548189
0.21981673 0.066372462 0.51583517
0.2208178 0.066829205 0.51512283
0.22181107 0.067332521 0.51547533
0.22280549 0.067785889 0.51476073
0.22379656 0.068288088 0.5151124
0.22478434 0.068738103 0.51439542
0.22577317 0.069239169 0.51474631
0.226762 0.069740228 0.5150972
0.2277409 0.070185751 0.51437712
0.2287275 0.070685692 0.51472718
0.22969978 0.071127839 0.51400471
0.23068421 0.071626663 0.51435405
0.23166858 0.07212548 0.51470339
0.23265301 0.072624311 0.51505268
0.23361415 0.073060825 0.51432627
0.23459633 0.073558524 0.51467478
0.23557851 0.074056223 0.51502335
0.23653083 0.07448826 0.51429379
0.23751079 0.074984834 0.51464152
0.23849075 0.075481407 0.51498926
0.23947071 0.075977981 0.51533705
0.24041195 0.0764044 0.5146035
0.24138968 0.076899849 0.51495051
0.24232426 0.0773229 0.51421463
0.24329978 0.077817217 0.51456082
0.24427532 0.078311548 0.514907
0.24520102 0.078730099 0.51416796
0.24617432 0.079223305 0.51451337
0.24714763 0.079716504 0.51485872
0.24806447 0.080130562 0.51411659
0.24903557 0.080622643 0.51446122
0.25000668 0.081114724 0.51480579
0.25097775 0.081606805 0.51515043
0.25194883 0.082098886 0.51549506
0.25285238 0.082506202 0.5147481
0.25382125 0.082997151 0.5150919
0.25479013 0.083488114 0.51543576
0.25568479 0.083890937 0.51468575
0.25665146 0.084380768 0.51502883
0.25761813 0.084870607 0.5153718
0.25858477 0.085360438 0.51571488
0.25955144 0.085850276 0.51605791
0.26051807 0.0863401 0.51640093
0.26148474 0.086829938 0.51674402
0.26236168 0.087223776 0.51598763
0.26332614 0.087712489 0.51632988
0.26429057 0.088201195 0.51667213
0.265255 0.088689901 0.51701438
0.26612085 0.089078128 0.51625413
0.26708305 0.089565709 0.5165956
0.26804531 0.090053298 0.51693702
0.2690075 0.090540886 0.51727849
-0.21314588 -0.14532772 0.49022096
-0.21111944 -0.1443543 0.48987275
-0.20986018 -0.14371617 0.49031964
-0.20860079 -0.14307804 0.49076653
-0.20734146 -0.14243989 0.49121344
-0.2060822 -0.14180176 0.4916603
-0.20482287 -0.14116363 0.49210721
-0.20281199 -0.14019807 0.4917534
-0.20155486 -0.13956104 0.49219951
-0.19955066 -0.13859886 0.49184334
-0.1975508 -0.13763888 0.4914856
-0.19629815 -0.13700411 0.49193013
-0.194305 -0.13604751 0.49157003
-0.19231632 -0.1350932 0.49120837
-0.19033203 -0.1341411 0.49084514
-0.18835217 -0.13319124 0.49048039
-0.18637672 -0.13224363 0.49011397
-0.18440577 -0.13129827 0.489746
-0.18243921 -0.13035515 0.48937649
-0.18120205 -0.12972826 0.4898155
-0.17924222 -0.12878855 0.4894436
-0.17800727 -0.12816279 0.48988184
-0.17677233 -0.127537 0.49032009
-0.17482135 -0.12660174 0.48994505
-0.1735886 -0.1259771 0.49038249
-0.17235592 -0.12535246 0.49081993
-0.17112318 -0.1247278 0.49125737
-0.16989049 -0.12410314 0.49169484
-0.16865775 -0.12347849 0.49213231
-0.16742504 -0.12285385 0.49256974
-0.1654917 -0.12192757 0.49218833
-0.16426122 -0.12130405 0.492625
-0.16303071 -0.12068053 0.49306166
-0.16180024 -0.120057 0.49349833
-0.15987805 -0.11913636 0.49311313
-0.15864977 -0.11851397 0.49354902
-0.1574215 -0.11789156 0.49398488
-0.15550816 -0.11697543 0.49359646
-0.15428209 -0.11635414 0.49403155
-0.15237543 -0.11544137 0.49364078
-0.15115157 -0.1148212 0.49407509
-0.14992771 -0.11420104 0.4945094
-0.14802989 -0.11329277 0.49411541
-0.14680824 -0.11267373 0.49454895
-0.14558664 -0.11205469 0.49498245
-0.14369765 -0.11115091 0.49458539
-0.14181319 -0.11024937 0.49418676
-0.14059597 -0.10963257 0.49461868
-0.13871816 -0.10873443 0.49421769
-0.13750318 -0.10811876 0.49464884
-0.1362882 -0.1075031 0.49507999
-0.1344192 -0.10660942 0.49467587
-0.13320646 -0.10599488 0.49510622
-0.13199368 -0.10538034 0.4955366
-0.13078091 -0.1047658 0.49596697
-0.12892297 -0.10387772 0.49555889
-0.12771243 -0.1032643 0.49598849
-0.1258612 -0.10237963 0.49557802
-0.12465286 -0.10176735 0.49600682
-0.12344453 -0.10115506 0.49643561
-0.12160215 -0.10027485 0.49602205
-0.12039605 -0.09966369 0.49645004
-0.11856034 -0.098786861 0.49603409
-0.11735645 -0.098176807 0.4964613
-0.11615255 -0.097566783 0.49688855
-0.11432567 -0.09669444 0.49646944
-0.11312401 -0.096085519 0.49689588
-0.11192232 -0.095476598 0.49732232
-0.11072066 -0.094867676 0.49774873
-0.10951898 -0.094258755 0.49817517
-0.0046108961 -0.043127894 0.49484262
-0.0043935776 -0.042910993 0.49705455
-0.0037195385 -0.042516038 0.49836111
-0.0030410886 -0.04211884 0.49966928
-0.0023581684 -0.041719414 0.50097901
-0.0012296587 -0.041147567 0.50137949
-0.00010114908 -0.04057572 0.50177991
0.0010273457 -0.040003873 0.5021804
0.0021558702 -0.039432026 0.50258088
0.0037166774 -0.038694501 0.50206739
0.0048429668 -0.038123779 0.50246704
0.0063971281 -0.037389636 0.50195122
0.0079468489 -0.036657736 0.50143373
0.0094921589 -0.035928085 0.50091469
0.011033028 -0.035200685 0.50039411
0.012150437 -0.034634456 0.50079066
0.013684645 -0.033910431 0.50026774
0.014799863 -0.033345319 0.50066346
0.016327411 -0.032624662 0.50013816
0.017440394 -0.032060683 0.5005331
0.018961281 -0.031343386 0.50000548
0.020072058 -0.030780524 0.50039965
0.021182835 -0.030217662 0.50079381
0.022293612 -0.029654801 0.50118804
0.023803458 -0.028943129 0.50065637
0.024912 -0.028381392 0.50104976
0.026415169 -0.027673095 0.50051576
0.027521506 -0.027112484 0.50090837
0.028627843 -0.026551872 0.50130093
0.030122131 -0.025848061 0.50076389
0.031226262 -0.025288567 0.50115567
0.03271392 -0.02458813 0.50061619
0.033815816 -0.024029769 0.5010072
0.035296828 -0.0233327 0.50046539
0.036396503 -0.022775456 0.50085568
0.037870854 -0.022081755 0.50031149
0.038968325 -0.021525636 0.50070095
0.040065795 -0.020969518 0.50109041
0.041531265 -0.020280309 0.500543
0.042992324 -0.019593358 0.49999413
0.045539752 -0.018355891 0.49983069
0.046989694 -0.017674558 0.49927786
0.048435241 -0.01699546 0.49872345
0.069138393 -0.0068783611 0.49859855
0.069892243 -0.0064429641 0.49993345
0.070650518 -0.0060053244 0.50126994
0.071413234 -0.0055654459 0.502608
0.07218039 -0.0051233172 0.50394762
0.073260128 -0.0045761839 0.50433075
0.074339852 -0.0040290505 0.50471395
0.07541959 -0.0034819245 0.50509715
0.076499328 -0.0029347911 0.50548029
0.077878326 -0.0022894032 0.50490224
0.078955844 -0.0017433949 0.50528467
0.080033362 -0.0011973865 0.50566697
0.08111088 -0.00065138564 0.50604939
0.082478806 -1.1600554e-05 0.50546741
0.083554104 0.00053328276 0.505849
0.084629402 0.0010781661 0.50623059
0.085988462 0.0017134324 0.50564545
0.087061539 0.0022571981 0.50602627
0.088134617 0.0028009564 0.50640708
0.089207694 0.0033447146 0.5067879
0.090280771 0.0038884766 0.50716865
0.09162654 0.0045170113 0.5065788
0.092697397 0.0050596446 0.50695884
0.093768269 0.0056022853 0.50733888
0.094839126 0.0061449185 0.50771892
0.096173793 0.0067678466 0.50712514
0.097242445 0.0073093623 0.50750434
0.098311082 0.0078508705 0.50788355
0.099636883 0.0084692948 0.50728667
0.10070331 0.0090096854 0.50766516
0.10176974 0.009550076 0.50804353
0.10283617 0.010090463 0.50842202
0.1039026 0.010630853 0.50880045
0.10496902 0.011171244 0.50917888
0.10627931 0.011781812 0.50857645
0.10734352 0.012321077 0.50895411
0.10840774 0.012860343 0.50933176
0.10970917 0.013466407 0.50872624
0.11077116 0.014004547 0.50910306
0.11206593 0.014607249 0.50849509
0.1131257 0.015144272 0.5088712
0.11441381 0.015743593 0.50826097
0.11547136 0.016279491 0.50863624
0.11652893 0.016815389 0.50901151
0.11780818 0.017410222 0.50839806
0.11886352 0.017944995 0.50877261
0.12013611 0.018536454 0.50815678
0.12118924 0.019070102 0.5085305
0.12224236 0.01960375 0.50890422
0.12329549 0.020137401 0.50927794
0.12434862 0.020671053 0.50965166
0.12540174 0.021204701 0.51002538
0.1266588 0.021788297 0.50940412
0.12770972 0.022320824 0.50977707
0.12876064 0.022853347 0.51014996
0.12981154 0.023385873 0.5105229
0.13086244 0.0239184 0.51089585
0.13210621 0.024495257 0.51026976
0.13315491 0.025026659 0.51064193
0.13420361 0.025558064 0.5110141
0.1352523 0.026089462 0.51138628
0.13648498 0.026660701 0.51075631
0.13753146 0.027190981 0.51112771
0.13875748 0.027758852 0.51049531
0.13980174 0.028288007 0.51086593
0.14102113 0.028852502 0.51023126
0.14206317 0.029380539 0.51060104
0.14310521 0.02990857 0.51097083
0.14431573 0.030468572 0.510333
0.14535555 0.030995477 0.51070201
0.14655942 0.031552121 0.51006186
0.14759701 0.032077901 0.51043004
0.14879423 0.032631166 0.50978744
0.14982963 0.033155821 0.5101549
0.15086502 0.033680484 0.51052231
0.15190041 0.034205146 0.51088977
0.15308651 0.034752797 0.5102433
0.15411969 0.035276335 0.51060987
0.15515286 0.035799872 0.51097655
0.15618604 0.036323413 0.51134318
0.15721922 0.036846951 0.51170981
0.15839204 0.037387859 0.51105869
0.15942299 0.037910271 0.51142454
0.16045395 0.038432684 0.51179039
0.1614849 0.0389551 0.51215625
0.16264664 0.039490391 0.51150107
0.16367537 0.040011682 0.51186609
0.16470411 0.040532969 0.51223123
0.16573286 0.04105426 0.51259625
0.16676159 0.041575551 0.51296133
0.16791001 0.042104099 0.51230145
0.16893654 0.042624265 0.51266575
0.16996306 0.043144435 0.51303005
0.17098959 0.043664604 0.5133943
0.17212693 0.044187538 0.51273048
0.17315122 0.044706576 0.51309395
0.17428195 0.045226138 0.51242787
0.17530403 0.045744058 0.51279056
0.17642806 0.046260253 0.51212204
0.17744794 0.046777047 0.51248395
0.17856534 0.047289863 0.5118131
0.17958298 0.04780554 0.51217425
0.18069373 0.048314985 0.51150107
0.18170917 0.048829533 0.51186138
0.1827246 0.049344085 0.51222169
0.18382648 0.049849048 0.5115453
0.1848397 0.050362468 0.5119049
0.18585292 0.050875895 0.51226449
0.18686613 0.051389322 0.51262403
0.18787935 0.051902749 0.51298356
0.18889257 0.052416176 0.5133431
0.18990579 0.052929603 0.51370269
0.19091901 0.05344303 0.51406229
0.19193223 0.053956456 0.51442182
0.19301194 0.054450177 0.51373756
0.19402292 0.054962471 0.51409632
0.19503394 0.05547478 0.51445508
0.19604494 0.055987075 0.5148139
0.19711356 0.056475185 0.5141257
0.19812234 0.056986362 0.51448369
0.1991843 0.057471104 0.51379317
0.20019086 0.057981156 0.51415038
0.20124619 0.058462515 0.51345742
0.20225054 0.05897145 0.51381385
0.20325489 0.059480384 0.51417029
0.20425925 0.059989322 0.51452667
0.20530346 0.06046506 0.51382983
0.20630559 0.060972869 0.51418543
0.20730773 0.061480679 0.51454109
0.2083431 0.061951935 0.51384115
0.209343 0.062458612 0.51419592
0.21034293 0.062965304 0.51455081
0.21134284 0.06347198 0.51490563
0.21234275 0.063978672 0.51526046
0.21336481 0.064443186 0.51455575
0.21436252 0.064948753 0.5149098
0.21536021 0.065454304 0.51526386
0.21635792 0.065959871 0.51561791
0.21736889 0.066418767 0.51490927
0.21836437 0.066923209 0.51526254
0.21935986 0.067427643 0.51561582
0.22036196 0.067882046 0.51490402
0.22135523 0.068385363 0.51525652
0.22234848 0.068888672 0.51560897
0.22334172 0.069338575 0.51489407
0.22433053 0.069786236 0.51417756
0.22531936 0.070287302 0.51452845
0.22630818 0.070788369 0.51487935
0.22728811 0.071231537 0.51415968
0.22827472 0.071731478 0.5145098
0.229248 0.072171271 0.51378787
0.23023243 0.072670095 0.51413715
0.2312168 0.073168911 0.51448649
0.23220123 0.073667742 0.51483583
0.23316339 0.07410191 0.51410985
0.23414557 0.074599609 0.51445842
0.23512775 0.075097308 0.51480699
0.23608109 0.075526997 0.5140779
0.23706105 0.076023564 0.51442564
0.23804101 0.076520145 0.51477337
0.23902097 0.077016711 0.51512116
0.23996322 0.077440783 0.51438808
0.24094094 0.077936232 0.5147351
0.24191871 0.078431688 0.51508206
0.24285208 0.07885126 0.51434588
0.24382761 0.079345584 0.51469207
0.24480315 0.079839922 0.51503825
0.24572764 0.080254987 0.51429892
0.24670096 0.080748186 0.51464432
0.24767427 0.081241392 0.51498973
0.24858989 0.081651978 0.5142473
0.24956098 0.082144059 0.51459187
0.25053209 0.08263614 0.51493645
0.25150317 0.083128221 0.51528108
0.25240773 0.083533183 0.51453465
0.2533766 0.084024131 0.51487851
0.25434548 0.084515095 0.51522231
0.25524116 0.084915578 0.51447278
0.25620782 0.085405409 0.51481581
0.25717449 0.085895248 0.51515889
0.25814116 0.086385079 0.51550192
0.25910783 0.086874917 0.51584494
0.26007444 0.087364741 0.51618797
0.2610411 0.087854579 0.51653099
0.26200777 0.08834441 0.51687407
0.26297444 0.088834248 0.5172171
0.26384795 0.089223482 0.5164597
0.26481238 0.089712188 0.51680195
0.26577681 0.090200901 0.5171442
0.26664147 0.090585642 0.51638359
0.2676037 0.09107323 0.51672506
0.26856592 0.091560818 0.51706648
-0.21372482 -0.14399055 0.48994303
-0.21246329 -0.14335129 0.49039072
-0.21120176 -0.14271203 0.49083841
-0.20917875 -0.14174318 0.4904891
-0.20791942 -0.14110504 0.49093598
-0.20666012 -0.14046691 0.49138287
-0.20540079 -0.13982879 0.49182975
-0.2033889 -0.13886556 0.49147645
-0.20213178 -0.13822855 0.49192256
-0.20012659 -0.13726872 0.4915669
-0.1988717 -0.13663283 0.4920122
-0.19687304 -0.13567629 0.49165416
-0.19487888 -0.13472207 0.49129453
-0.19288918 -0.13377009 0.49093336
-0.19090387 -0.13282035 0.4905706
-0.18818814 -0.13155672 0.48939982
-0.18621391 -0.13061258 0.48903313
-0.18497455 -0.12998457 0.48947296
-0.18300697 -0.12904382 0.48910391
-0.18176982 -0.12841693 0.48954293
-0.17980894 -0.12747955 0.48917153
-0.17857406 -0.12685378 0.48960978
-0.17733911 -0.126228 0.49004799
-0.17610416 -0.12560223 0.49048623
-0.17486924 -0.12497646 0.49092448
-0.17363432 -0.12435068 0.49136272
-0.17239937 -0.12372492 0.49180093
-0.1704562 -0.12279651 0.49142325
-0.16922349 -0.12217185 0.49186072
-0.16799077 -0.12154721 0.49229816
-0.16675806 -0.12092255 0.49273559
-0.16552535 -0.12029789 0.49317306
-0.16429263 -0.11967325 0.4936105
-0.16236496 -0.1187527 0.49322724
-0.16113445 -0.11812916 0.49366391
-0.15990397 -0.11750565 0.49410057
-0.15798518 -0.11658961 0.49371427
-0.15675691 -0.11596721 0.49415016
-0.15484479 -0.11505455 0.49376145
-0.15361872 -0.11443326 0.49419653
-0.15239266 -0.11381197 0.49463162
-0.15048939 -0.11290377 0.49423978
-0.14926556 -0.11228365 0.49467406
-0.14736888 -0.11137883 0.4942798
-0.14614728 -0.11075979 0.49471331
-0.14425731 -0.10985835 0.49431676
-0.14303789 -0.10924046 0.49474946
-0.14115462 -0.10834236 0.49435052
-0.13993743 -0.10772559 0.49478248
-0.13806075 -0.10683091 0.49438119
-0.1368458 -0.10621525 0.49481231
-0.13563079 -0.10559958 0.49524349
-0.13376302 -0.10470939 0.49483904
-0.13255027 -0.10409483 0.49526942
-0.13133749 -0.10348031 0.49569976
-0.13012475 -0.10286576 0.49613014
-0.12826797 -0.10198116 0.49572179
-0.12705746 -0.10136774 0.49615136
-0.12520739 -0.10048653 0.49574062
-0.12399909 -0.099874243 0.49616942
-0.12279078 -0.099261954 0.49659821
-0.1209496 -0.09838523 0.49618432
-0.1197435 -0.097774059 0.49661234
-0.11790892 -0.096900731 0.49619609
-0.11670503 -0.096290678 0.49662331
-0.11550117 -0.095680654 0.49705052
-0.11429727 -0.095070601 0.49747774
-0.11247382 -0.094202846 0.49705756
-0.11127216 -0.09359394 0.497484
-0.1100705 -0.092985019 0.49791044
-0.10886881 -0.092376083 0.49833685
-0.0051237196 -0.041943453 0.49459642
-0.0049084425 -0.041721836 0.49680737
-0.0037865937 -0.041153356 0.4972055
-0.0035579801 -0.040925004 0.49942115
-0.002876088 -0.040523209 0.5007304
-0.0017475784 -0.039951362 0.50113082
-0.00061908364 -0.039379515 0.5015313
0.0005094409 -0.038807668 0.50193179
0.0016379356 -0.038235821 0.50233227
0.003199771 -0.037500657 0.50181925
0.0043260604 -0.036929935 0.50221896
0.0058812499 -0.036198139 0.5017035
0.0074319839 -0.035468593 0.50118661
0.0085538477 -0.034900114 0.50158471
0.010097951 -0.034173951 0.50106537
0.011637613 -0.033450015 0.50054449
0.012755036 -0.032883786 0.50094104
0.014288038 -0.032163225 0.50041777
0.015816614 -0.031444922 0.49989295
0.016929597 -0.030880928 0.50028789
0.018042579 -0.030316949 0.50068283
0.019562289 -0.029603139 0.50015497
0.020673066 -0.029040277 0.50054908
0.021783829 -0.028477415 0.5009433
0.023294687 -0.02776809 0.50041211
0.024403244 -0.027206354 0.5008055
0.025511801 -0.026644617 0.50119889
0.027013764 -0.025939792 0.50066459
0.0281201 -0.025379181 0.50105727
0.029226437 -0.024818569 0.50144982
0.030719534 -0.024118222 0.50091243
0.03182365 -0.023558736 0.50130427
0.033310115 -0.022861764 0.50076449
0.034412012 -0.022303395 0.5011555
0.035891816 -0.021609813 0.50061333
0.036991507 -0.021052569 0.50100362
0.038464651 -0.02036234 0.50045913
0.039562121 -0.019806221 0.50084859
0.041397646 -0.018988647 0.49936542
0.042490676 -0.01843477 0.4997533
0.043948323 -0.017752394 0.49920329
0.045401499 -0.017072283 0.49865171
0.046490103 -0.016520664 0.49903801
0.047936648 -0.015843913 0.49848408
0.069081724 -0.0054104105 0.50065148
0.069841206 -0.00496931 0.50198823
0.070918724 -0.0044233017 0.5023706
0.071684867 -0.0039788187 0.50370979
0.072455421 -0.0035320893 0.50505048
0.07353738 -0.0029838383 0.50543439
0.074619323 -0.0024355873 0.50581837
0.07600379 -0.0017903 0.50524241
0.077083528 -0.0012431666 0.50562561
0.078461319 -0.00060125068 0.5050472
0.079538837 -5.524233e-05 0.50542963
0.080616355 0.00049075857 0.50581199
0.08198531 0.0011281893 0.50523049
0.083060607 0.00167308 0.50561208
0.084135905 0.0022179633 0.50599366
0.085495979 0.0028508753 0.50540906
0.086569056 0.0033946373 0.50578988
0.087642133 0.0039383993 0.50617063
0.088715225 0.0044821575 0.50655144
0.089788303 0.0050259195 0.50693226
0.09086138 0.0055696778 0.50731307
0.092205942 0.006194748 0.50672293
0.093276799 0.0067373887 0.50710297
0.094347671 0.0072800219 0.50748295
0.095418528 0.0078226626 0.50786299
0.096751988 0.0084421039 0.50726891
0.09782064 0.0089836121 0.50764811
0.098889291 0.0095251277 0.50802737
0.10021389 0.01014008 0.5074302
0.10128032 0.010680471 0.50780863
0.10234675 0.011220858 0.50818706
0.10341318 0.011761248 0.50856549
0.1044796 0.012301639 0.50894392
0.10579091 0.012909852 0.50834197
0.10685512 0.013449118 0.50871962
0.10791934 0.013988383 0.50909728
0.10898355 0.014527651 0.50947493
0.11028376 0.01513024 0.50886911
0.11157955 0.015730595 0.50826168
0.11263933 0.016267618 0.50863773
0.11392845 0.016864585 0.50802791
0.11498601 0.017400483 0.50840324
0.11604358 0.017936381 0.50877851
0.11732385 0.018528868 0.5081656
0.11837918 0.01906364 0.50854009
0.11965279 0.019652745 0.5079248
0.12070592 0.020186393 0.50829852
0.12175904 0.02072004 0.50867224
0.12281217 0.021253692 0.50904596
0.12386529 0.021787344 0.50941968
0.12512559 0.022369714 0.50879967
0.12617651 0.022902241 0.50917256
0.12722741 0.023434767 0.50954551
0.12827832 0.02396729 0.50991845
0.12932923 0.024499817 0.5102914
0.13038015 0.025032343 0.51066434
0.13162494 0.025606846 0.51003873
0.13267362 0.026138248 0.5104109
0.13372232 0.026669653 0.51078308
0.13477102 0.027201051 0.51115519
0.1360047 0.027769944 0.51052576
0.13705118 0.028300224 0.51089716
0.13827823 0.028865747 0.51026529
0.13932249 0.029394902 0.51063585
0.14036675 0.029924057 0.51100641
0.14158495 0.030485081 0.51037145
0.14262699 0.031013111 0.51074123
0.14366902 0.031541139 0.51111102
0.14487834 0.032097679 0.51047289
0.14591816 0.032624591 0.51084191
0.14695799 0.033151496 0.51121092
0.14815843 0.033703528 0.51056963
0.14919604 0.034229312 0.51093787
0.15038982 0.034777977 0.5102942
0.15142521 0.035302639 0.5106616
0.1524606 0.035827301 0.51102906
0.153496 0.036351964 0.51139647
0.15453139 0.036876626 0.51176393
0.15571187 0.037418559 0.51111555
0.15674505 0.037942097 0.51148224
0.15777823 0.038465634 0.51184881
0.15881139 0.038989171 0.5122155
0.1599808 0.039525475 0.51156324
0.16101176 0.040047891 0.51192909
0.16204271 0.040570304 0.51229495
0.16307366 0.04109272 0.5126608
0.16410461 0.041615132 0.51302665
0.16526073 0.042144701 0.51236963
0.16628946 0.042665992 0.51273465
0.1673182 0.043187283 0.51309973
0.16834694 0.04370857 0.51346481
0.16949195 0.044232525 0.51280391
0.17051849 0.044752695 0.51316816
0.171545 0.045272861 0.5135324
0.17268114 0.045792319 0.51286829
0.17370546 0.046311364 0.51323181
0.17483497 0.046827447 0.51256537
0.17596 0.047341287 0.51189733
0.17697987 0.047858089 0.51225924
0.17809829 0.048368558 0.51158893
0.17911595 0.048884228 0.51195002
0.1802277 0.049391326 0.51127732
0.18124314 0.049905874 0.51163769
0.18225858 0.050420426 0.51199806
0.18327402 0.050934978 0.51235837
0.18437469 0.051436462 0.51168168
0.18538791 0.051949888 0.51204121
0.18640113 0.052463308 0.51240075
0.18741435 0.052976742 0.51276034
0.18842755 0.053490162 0.51311994
0.18944079 0.054003589 0.51347947
0.19045401 0.054517023 0.51383901
0.19146723 0.055030443 0.51419854
0.19248044 0.055543877 0.51455814
0.19355893 0.056034118 0.51387358
0.19456995 0.05654642 0.5142324
0.19558094 0.057058722 0.5145911
0.19665059 0.057544477 0.51390344
0.19765937 0.058055654 0.51426142
0.19872235 0.058538042 0.51357138
0.19972891 0.059048094 0.51392859
0.20078525 0.059527107 0.51323617
0.2017896 0.060036041 0.5135926
0.20279396 0.060544975 0.51394898
0.20384142 0.061019495 0.51325345
0.20484354 0.061527304 0.51360905
0.20584568 0.062035114 0.51396465
0.20688428 0.062505133 0.51326597
0.20788421 0.063011825 0.51362085
0.20888411 0.063518502 0.51397562
0.20988403 0.064025193 0.51433051
0.21088395 0.06453187 0.51468533
0.21190925 0.06499517 0.51398194
0.21290693 0.065500721 0.51433599
0.21390465 0.066006288 0.51469004
0.21490234 0.066511847 0.51504409
0.21591654 0.066969514 0.51433671
0.21691203 0.067473955 0.51468998
0.21790752 0.067978397 0.51504326
0.21890301 0.068482831 0.51539648
0.21990611 0.068934888 0.51468515
0.22089937 0.069438204 0.51503766
0.22189583 0.069886871 0.51432407
0.22288689 0.07038907 0.51467574
0.22387794 0.070891261 0.5150274
0.22486554 0.071335435 0.5143106
0.22585437 0.071836501 0.51466149
0.22683531 0.072277322 0.51394236
0.22782192 0.072777271 0.51429248
0.22879623 0.07321471 0.51357096
0.22978064 0.073713534 0.51392031
0.23076503 0.07421235 0.51426959
0.23174945 0.074711181 0.51461893
0.23273383 0.075209998 0.51496828
0.23369481 0.075640701 0.51424205
0.23467699 0.0761384 0.51459056
0.23563135 0.076565735 0.51386201
0.23661131 0.077062309 0.51420975
0.23759127 0.077558883 0.51455748
0.23857123 0.078055456 0.51490521
0.2395145 0.078477174 0.51417267
0.24049222 0.078972623 0.51451969
0.24146999 0.079468079 0.51486665
0.24240437 0.079885297 0.51413095
0.24337991 0.08037962 0.51447713
0.24435544 0.080873959 0.51482332
0.24528095 0.081286684 0.51408446
0.24625427 0.081779882 0.51442993
0.24722758 0.082273088 0.51477528
0.24820089 0.082766294 0.51512069
0.24911532 0.083173394 0.51437795
0.25008643 0.083665475 0.51472253
0.25105751 0.084157556 0.5150671
0.25202861 0.084649637 0.51541173
0.25293195 0.085051127 0.51466501
0.25390083 0.08554209 0.51500887
0.2548697 0.086033054 0.51535267
0.25583857 0.086524002 0.51569653
0.25680745 0.087014966 0.51604033
0.25777632 0.087505914 0.51638412
0.25874519 0.087996878 0.51672798
0.25971407 0.088487826 0.51707178
0.26068294 0.08897879 0.51741564
0.26156414 0.089369044 0.51666105
0.2625308 0.089858882 0.51700413
0.26349747 0.090348713 0.51734716
0.26446414 0.090838544 0.51769018
0.26533419 0.091223188 0.51693165
0.26629865 0.091711901 0.51727396
0.26716208 0.09209317 0.51651305
0.26812431 0.092580758 0.51685452
-0.21507293 -0.14298396 0.49045938
-0.21304226 -0.14201409 0.49011278
-0.21178073 -0.14137483 0.49056047
-0.21051916 -0.14073557 0.49100816
-0.20925763 -0.14009631 0.49145582
-0.20723808 -0.13913207 0.49110544
-0.20597875 -0.13849394 0.49155232
-0.20471942 -0.13785581 0.49199921
-0.20270872 -0.13689606 0.4916456
-0.20070252 -0.13593856 0.49129042
-0.19870061 -0.13498329 0.49093363
-0.19744793 -0.13434851 0.49137816
-0.19545278 -0.13339663 0.49101904
-0.19346204 -0.13244702 0.49065834
-0.19147572 -0.1314996 0.4902961
-0.18875793 -0.13024068 0.48912629
-0.18751636 -0.12961154 0.48956689
-0.18554333 -0.12867087 0.48919991
-0.18357477 -0.12773247 0.48883134
-0.18233761 -0.12710558 0.48927039
-0.18110046 -0.1264787 0.48970938
-0.17914078 -0.1255448 0.48933768
-0.17790583 -0.12491901 0.48977593
-0.17667091 -0.12429322 0.49021417
-0.17543599 -0.12366746 0.49065238
-0.17420104 -0.12304169 0.49109066
-0.17296615 -0.12241592 0.49152887
-0.1717312 -0.12179014 0.49196711
-0.17049626 -0.12116437 0.49240535
-0.16855651 -0.12024055 0.49202657
-0.1673238 -0.11961591 0.49246401
-0.16609108 -0.11899127 0.49290147
-0.16485837 -0.11836661 0.49333891
-0.16362569 -0.11774196 0.49377638
-0.16239294 -0.11711732 0.49421382
-0.1604687 -0.11620136 0.49382946
-0.15923819 -0.11557783 0.49426615
-0.15732059 -0.11466527 0.49387956
-0.15609232 -0.11404286 0.49431545
-0.15486404 -0.11342047 0.4947513
-0.15295532 -0.11251238 0.49436152
-0.15172926 -0.11189109 0.4947966
-0.14982721 -0.11098641 0.49440444
-0.14860335 -0.11036624 0.49483874
-0.14670792 -0.1094649 0.49444419
-0.1454863 -0.10884587 0.4948777
-0.14359751 -0.1079479 0.49448082
-0.14237812 -0.10732998 0.49491355
-0.14049605 -0.1064354 0.49451432
-0.13927883 -0.10581861 0.49494624
-0.1374034 -0.10492741 0.49454466
-0.13618839 -0.10431173 0.49497581
-0.1343196 -0.10342389 0.49457186
-0.13310686 -0.10280934 0.49500221
-0.13189408 -0.10219482 0.49543259
-0.13068131 -0.10158026 0.49586296
-0.12882355 -0.10069802 0.49545509
-0.12761304 -0.1000846 0.49588466
-0.12640247 -0.099471182 0.49631423
-0.12455365 -0.098593459 0.49590319
-0.12334532 -0.09798117 0.49633199
-0.12213698 -0.097368881 0.49676079
-0.12029701 -0.096495613 0.49634659
-0.11909091 -0.095884457 0.49677461
-0.11725757 -0.095014602 0.49635807
-0.11605367 -0.094404548 0.49678528
-0.11484978 -0.093794495 0.49721253
-0.11302531 -0.09292911 0.49679282
-0.11182365 -0.092320204 0.49721926
-0.11062196 -0.091711283 0.49764568
-0.1094203 -0.091102347 0.49807212
-0.0049712211 -0.040362731 0.49565348
-0.0043014437 -0.039964229 0.49695835
-0.0036272258 -0.039563455 0.49826473
-0.0029485822 -0.039160438 0.49957269
-0.0022654831 -0.038755171 0.50088221
-0.0011369884 -0.038183331 0.50128269
-8.4787607e-06 -0.037611485 0.50168312
0.0011200309 -0.03703963 0.50208366
0.0026828796 -0.036306821 0.50157106
0.0038091689 -0.035736099 0.50197077
0.0053653717 -0.035006657 0.5014559
0.0069171339 -0.034279451 0.50093943
0.0080389827 -0.033710986 0.50133753
0.0095840991 -0.032987148 0.50081873
0.01112479 -0.032265574 0.50029826
0.012242213 -0.031699345 0.50069487
0.013776243 -0.030981131 0.50017208
0.014891431 -0.030416027 0.50056779
0.0164188 -0.029701188 0.50004268
0.017531797 -0.029137209 0.50043768
0.01864478 -0.02857323 0.50083262
0.020163298 -0.027862884 0.5003044
0.02127406 -0.027300023 0.50069857
0.022384822 -0.026737168 0.50109273
0.0234956 -0.026174307 0.5014869
0.025003046 -0.025469579 0.50095463
0.026111603 -0.024907842 0.50134802
0.027612373 -0.024206489 0.50081348
0.02871871 -0.023645878 0.5012061
0.03021282 -0.022947885 0.50066918
0.031316936 -0.022388399 0.50106096
0.032804415 -0.021693781 0.50052172
0.033906311 -0.021135412 0.50091273
0.035387143 -0.020444177 0.5003711
0.036486819 -0.019886933 0.50076133
0.037960976 -0.019199051 0.50021732
0.039058447 -0.018642932 0.50060678
0.040896013 -0.017830051 0.49912462
0.041989043 -0.017276175 0.49951249
0.043447703 -0.016596157 0.49896297
0.044901907 -0.015918396 0.49841189
0.046351686 -0.015242882 0.49785921
0.067834198 -0.0047118515 0.49907982
0.068588242 -0.0042706281 0.50041455
0.069346696 -0.0038271733 0.50175083
0.070109606 -0.0033814684 0.50308871
0.070876926 -0.0029335171 0.50442815
0.07195887 -0.0023852587 0.50481212
0.073040828 -0.0018370077 0.50519603
0.074122772 -0.0012887567 0.50558001
0.075508267 -0.00064581633 0.50500453
0.07658799 -9.868294e-05 0.50538766
0.077966809 0.00054088607 0.50480986
0.079044327 0.0010868944 0.50519222
0.080121845 0.0016328953 0.50557458
0.081491813 0.0022679791 0.50499356
0.082567111 0.0028128624 0.50537515
0.083930418 0.0034445524 0.50479186
0.085003495 0.0039883144 0.50517261
0.086076587 0.0045320727 0.50555348
0.087149665 0.0050758347 0.50593424
0.088222742 0.005619593 0.50631505
0.089295819 0.006163355 0.50669587
0.090368897 0.0067071132 0.50707662
0.091714486 0.007329829 0.50648701
0.092785344 0.0078724697 0.50686705
0.093856215 0.008415103 0.50724703
0.094927073 0.0089577436 0.50762701
0.09599793 0.0095003769 0.50800705
0.097330198 0.010116354 0.50741267
0.098398849 0.010657869 0.50779194
0.099467494 0.011199385 0.5081712
0.10079089 0.011810858 0.50757366
0.10185732 0.012351245 0.50795209
0.10292375 0.012891635 0.50833058
0.10399018 0.013432026 0.50870895
0.10505661 0.013972417 0.50908744
0.10612304 0.014512807 0.50946587
0.10743093 0.015116422 0.50886285
0.10849515 0.015655691 0.50924051
0.10979638 0.016255926 0.50863516
0.11109319 0.016853927 0.50802815
0.11215296 0.01739095 0.50840425
0.11321273 0.017927965 0.50878036
0.11450066 0.018521467 0.50817025
0.11555822 0.019057365 0.50854552
0.11683951 0.019647498 0.50793308
0.11789484 0.020182271 0.50830758
0.11916947 0.020769028 0.50769281
0.1202226 0.021302676 0.50806653
0.12127572 0.021836324 0.50844026
0.12232885 0.022369975 0.50881398
0.12338198 0.022903627 0.5091877
0.1246433 0.023483651 0.50856817
0.1256942 0.024016177 0.50894105
0.1267451 0.024548704 0.509314
0.12779602 0.025081227 0.50968695
0.12884693 0.025613753 0.51005983
0.12989785 0.02614628 0.51043278
0.13114366 0.026718436 0.50980771
0.13219234 0.027249837 0.51017988
0.13324103 0.027781243 0.51055205
0.13428973 0.02831264 0.51092416
0.13533843 0.028844045 0.51129627
0.13657092 0.029409459 0.51066661
0.13761739 0.029939739 0.51103795
0.13884324 0.030501783 0.51040578
0.13988751 0.031030938 0.5107764
0.14093176 0.031560097 0.5111469
0.14214875 0.03211765 0.51051164
0.1431908 0.03264568 0.51088142
0.14423284 0.033173718 0.51125121
0.14544095 0.033726774 0.51061285
0.14648077 0.034253679 0.5109818
0.1475206 0.034780588 0.51135081
0.14871985 0.035329148 0.51070929
0.14975744 0.035854936 0.51107746
0.15095004 0.036400132 0.51043355
0.15198544 0.036924787 0.51080096
0.15302083 0.037449449 0.51116836
0.15405622 0.037974112 0.51153576
0.15509161 0.038498774 0.51190323
0.15627089 0.039037224 0.51125455
0.15730406 0.039560761 0.51162124
0.15833724 0.040084299 0.51198786
0.15937041 0.040607836 0.51235449
0.16040358 0.041131373 0.51272112
0.16143675 0.041654915 0.51308775
0.16260052 0.042185508 0.51243365
0.16363147 0.04270792 0.5127995
0.16466242 0.043230332 0.51316535
0.16569339 0.043752749 0.51353121
0.16672434 0.044275161 0.51389706
0.16787481 0.044799007 0.51323819
0.16890356 0.045320302 0.51360321
0.16993229 0.045841593 0.51396829
0.17107388 0.046360943 0.51330626
0.17221105 0.046878047 0.51264262
0.17323536 0.047397099 0.51300615
0.17425966 0.047916137 0.51336968
0.17538798 0.048428755 0.51270294
0.17651182 0.048939124 0.5120346
0.17753169 0.049455918 0.51239651
0.1786489 0.049962915 0.51172584
0.17966656 0.050478585 0.51208699
0.18077712 0.050982211 0.51141393
0.18179256 0.051496763 0.5117743
0.182808 0.052011315 0.51213467
0.18382344 0.052525863 0.51249504
0.18483886 0.053040415 0.51285535
0.18585429 0.05355496 0.51321566
0.18686974 0.054069515 0.51357603
0.18788517 0.05458406 0.5139364
0.1889006 0.055098612 0.51429671
0.189989 0.05559101 0.51361579
0.19100222 0.056104429 0.51397538
0.19201544 0.056617863 0.51433492
0.19302866 0.057131283 0.51469445
0.19410595 0.057618059 0.51400959
0.19511695 0.058130354 0.51436841
0.19618763 0.058613762 0.51368117
0.19719641 0.059124939 0.51403916
0.1982604 0.059604973 0.51334965
0.19926696 0.060115024 0.5137068
0.20032431 0.06059169 0.51301491
0.20132867 0.061100625 0.51337129
0.20233302 0.061609559 0.51372772
0.20338149 0.062081732 0.51303267
0.20438363 0.062589534 0.51338828
0.20538576 0.063097343 0.51374388
0.20638789 0.063605152 0.51409948
0.20742531 0.064071707 0.51340055
0.20842521 0.064578384 0.51375532
0.20942514 0.065085076 0.51411021
0.21042503 0.065591753 0.51446503
0.21142496 0.066098444 0.51481986
0.21244906 0.066558257 0.51411617
0.21344677 0.067063823 0.51447022
0.21444446 0.067569375 0.51482427
0.21545967 0.068024702 0.51411736
0.21645516 0.068529144 0.5144707
0.21745065 0.069033585 0.51482391
0.218457 0.069484405 0.5141139
0.21945027 0.069987722 0.51446635
0.22044353 0.070491038 0.51481885
0.221441 0.07093735 0.51410568
0.22243206 0.071439549 0.5144574
0.22342311 0.071941741 0.51480907
0.22441173 0.072383575 0.51409274
0.22540057 0.072884634 0.51444364
0.22638252 0.073323116 0.51372498
0.22736913 0.07382305 0.5140751
0.22835577 0.074322999 0.51442522
0.22932887 0.074756972 0.51370341
0.23031326 0.075255789 0.51405275
0.23129767 0.07575462 0.51440203
0.23228206 0.076253437 0.51475143
0.23324405 0.076681785 0.51402569
0.23422623 0.077179484 0.5143742
0.23520841 0.077677183 0.5147227
0.23616156 0.078101039 0.51399386
0.23714152 0.07859762 0.51434159
0.23812148 0.079094186 0.51468933
0.23910144 0.079590768 0.51503712
0.24004351 0.080009006 0.51430428
0.24102128 0.080504462 0.51465124
0.24199902 0.080999911 0.5149982
0.2429322 0.081413656 0.51426226
0.24390773 0.081907988 0.51460844
0.24488325 0.082402304 0.51495463
0.24585879 0.08289665 0.51530081
0.24678089 0.08330477 0.51456082
0.2477542 0.083797976 0.51490629
0.2487275 0.084291175 0.51525164
0.24970081 0.084784389 0.51559705
0.25061184 0.085186891 0.51485318
0.25158292 0.085678972 0.51519781
0.252554 0.086171046 0.51554239
0.25352511 0.086663134 0.51588702
0.25449622 0.087155215 0.51623166
0.2554673 0.087647289 0.51657623
0.2563628 0.088041946 0.51582688
0.25733167 0.088532895 0.51617068
0.25830054 0.089023858 0.51651454
0.25926942 0.089514807 0.51685834
0.26023829 0.09000577 0.51720214
0.26120716 0.090496726 0.51754594
0.26208717 0.090883523 0.51679116
0.26305383 0.091373354 0.51713419
0.2640205 0.091863185 0.51747721
0.26489159 0.092245474 0.51671922
0.26585603 0.092734188 0.51706147
0.26682049 0.093222901 0.51740372
0.26768273 0.09360069 0.51664257
-0.21565291 -0.14164442 0.49018094
-0.21438918 -0.14100404 0.4906294
-0.21312541 -0.14036366 0.49107787
-0.21109813 -0.13939837 0.49073023
-0.2098366 -0.13875911 0.49117789
-0.2085751 -0.13811988 0.49162555
-0.20655671 -0.13715909 0.49127486
-0.20529738 -0.13652097 0.49172175
-0.20328566 -0.13556357 0.49136865
-0.20127842 -0.13460842 0.49101394
-0.20002353 -0.13397253 0.49145928
-0.19802281 -0.13302071 0.49110219
-0.19602665 -0.1320712 0.49074355
-0.1940349 -0.13112392 0.49038336
-0.19204757 -0.13017888 0.49002159
-0.18932775 -0.12892464 0.48885274
-0.18808615 -0.12829551 0.48929334
-0.18611214 -0.12735718 0.48892686
-0.18487278 -0.12672916 0.48936665
-0.18290538 -0.12579423 0.48899782
-0.18166825 -0.12516734 0.48943684
-0.1804311 -0.12454045 0.48987585
-0.17919394 -0.12391356 0.49031487
-0.17723766 -0.12298425 0.4899421
-0.17671967 -0.12265976 0.49119294
