# .PCD v0.7 - Point Cloud Data file format
VERSION 0.7
FIELDS x y z
SIZE 4 4 4
TYPE F F F
COUNT 1 1 1
WIDTH 1380
HEIGHT 1
VIEWPOINT 0 0 0 1 0 0 0
POINTS 1380
DATA ascii
-0.12489535 -0.05478527 0.49640527
-0.11488715 -0.055246416 0.49542534
-0.10920116 -0.057173122 0.49537143
0.025243996 -0.055103131 0.49557695
0.032105528 -0.052597117 0.49807116
-0.2822195 -0.043507185 0.49290338
-0.27510023 -0.045157108 0.4939386
-0.26494119 -0.044981208 0.49429986
-0.25537914 -0.04505777 0.49468893
-0.24486959 -0.045228608 0.49457294
-0.23473743 -0.045150332 0.49464124
-0.22489193 -0.045123529 0.49502128
-0.21488817 -0.045041054 0.49555463
-0.20478712 -0.045097966 0.49574125
-0.19493148 -0.044938609 0.49555466
-0.18520999 -0.045008272 0.49560401
-0.17490372 -0.044829737 0.49600649
-0.16510507 -0.044981159 0.49662891
-0.15499526 -0.045034565 0.49676055
-0.14513765 -0.044958271 0.49679953
-0.13497962 -0.045026645 0.49709103
-0.12502402 -0.045372099 0.49746907
-0.11751296 -0.04764108 0.49724615
-0.29119962 -0.031470712 0.49118355
-0.28446829 -0.034675725 0.49282029
-0.2754145 -0.035027854 0.49628091
-0.26518577 -0.035355721 0.49698243
-0.25500876 -0.034823045 0.4967612
-0.24496707 -0.034893636 0.4967452
-0.2350056 -0.03507835 0.49655509
-0.22488245 -0.035303816 0.49538082
-0.21496193 -0.035049289 0.49489236
-0.20516858 -0.034952898 0.49556759
-0.19505449 -0.035129085 0.4957051
-0.18473844 -0.035083156 0.49531624
-0.17474152 -0.034798775 0.49603555
-0.16481812 -0.03521445 0.49725959
-0.15500015 -0.035136715 0.49744543
-0.14491278 -0.034872741 0.49752104
-0.13490888 -0.03512365 0.49747905
-0.12486864 -0.034973558 0.49737975
-0.11708698 -0.033214416 0.49788406
0.040986035 -0.033649642 0.49829516
-0.30091101 -0.021086112 0.49383664
-0.29428479 -0.024284486 0.49330801
-0.284762 -0.025207885 0.49407899
-0.27505764 -0.025076602 0.49539277
-0.2649453 -0.024966316 0.49533835
-0.25507483 -0.024840336 0.49512285
-0.24487683 -0.024986196 0.49596921
-0.23516655 -0.024971008 0.49725452
-0.22509149 -0.024882952 0.4965547
-0.21483172 -0.024952391 0.49488595
-0.2050692 -0.025258105 0.49483082
-0.19521476 -0.024988893 0.49512106
-0.18513802 -0.025088025 0.49452597
-0.17504948 -0.025070773 0.49515924
-0.16543971 -0.024938107 0.49709541
-0.15541355 -0.0250866 0.49733782
-0.14501353 -0.025004685 0.49694222
-0.13477948 -0.024885913 0.49708217
-0.12498572 -0.024738869 0.49761361
-0.11524929 -0.024981914 0.49868286
-0.10744552 -0.020901894 0.49951568
0.041401517 -0.02535134 0.49814841
-0.30396089 -0.014186452 0.49447659
-0.29497346 -0.014930768 0.49562699
-0.2849471 -0.015238633 0.49621412
-0.27517718 -0.014956724 0.49641114
-0.26525769 -0.014851478 0.49635145
-0.25493389 -0.015264136 0.49554744
-0.24461347 -0.014966935 0.49559855
-0.23474987 -0.015026291 0.49673775
-0.22479504 -0.014967422 0.49668175
-0.21478832 -0.014763604 0.49561885
-0.20476764 -0.015375672 0.49524054
-0.19539145 -0.015088079 0.49596259
-0.18511605 -0.014858257 0.49571764
-0.17472376 -0.015068576 0.49545941
-0.16503567 -0.015235123 0.49665958
-0.15489766 -0.015124459 0.49675041
-0.14501821 -0.014853342 0.49670044
-0.13524932 -0.014804423 0.49758223
-0.12584986 -0.015130897 0.49890155
-0.11469933 -0.018294219 0.49949878
-0.10430428 -0.016447222 0.49960488
-0.095693581 -0.012773087 0.49811569
-0.088513955 -0.010236274 0.4968279
0.040527657 -0.018885426 0.4993611
-0.31147087 -0.0037614829 0.49252081
-0.30517739 -0.005072128 0.49367079
-0.29513317 -0.0048368801 0.4948138
-0.28484422 -0.0050483225 0.49546942
-0.27493924 -0.0046986942 0.49591926
-0.26515195 -0.004952529 0.49599054
-0.25487691 -0.0049743443 0.49563289
-0.24469936 -0.0050521791 0.49576285
-0.23494802 -0.0050607375 0.49642846
-0.22537366 -0.0050293645 0.49697125
-0.21492763 -0.0048732893 0.49695116
-0.20460498 -0.0049659535 0.49688658
-0.1949946 -0.0052678394 0.49737442
-0.1849777 -0.0050657014 0.49743238
-0.17490502 -0.004989516 0.49710491
-0.16516525 -0.0050444715 0.49731126
-0.15501152 -0.0049163853 0.49656716
-0.14512908 -0.0050537484 0.4962118
-0.1351641 -0.0049472884 0.49772614
-0.12626559 -0.0044851312 0.49933624
-0.11915724 -0.00099198893 0.49983525
-0.10049899 -0.0079610422 0.49969387
-0.094019637 -0.0059737288 0.49868312
-0.086655803 -0.0051001483 0.49875179
-0.32187003 0.0084104659 0.49425617
-0.31447139 0.0051603615 0.4928228
-0.30503318 0.0049308282 0.49299514
-0.2951048 0.0049898638 0.49368119
-0.28479683 0.0050200727 0.49380761
-0.27507967 0.0052345055 0.494488
-0.26486227 0.005132149 0.49467009
-0.25501338 0.0051743183 0.49460655
-0.24507615 0.0049412283 0.49513745
-0.23534349 0.0051497552 0.4969677
-0.22526836 0.0049648564 0.49789625
-0.21506232 0.0050057694 0.49751863
-0.20533636 0.0050032092 0.49725917
-0.19520888 0.0048753968 0.49732512
-0.18483329 0.0048135244 0.49729571
-0.17492938 0.0050889775 0.49764341
-0.16516435 0.0049633086 0.4986724
-0.15490291 0.0050139506 0.49788371
-0.14481221 0.005049271 0.49670935
-0.13492763 0.0050256103 0.49729109
-0.12514758 0.0051922719 0.4986338
-0.11671616 0.0066956691 0.49961495
-0.10924707 0.0080510974 0.49996632
-0.091094717 7.1812421e-05 0.49967855
-0.087569341 0.00010047108 0.49993765
0.0071534812 0.0029652172 0.49870238
0.031046256 0.00011615828 0.49975988
-0.33048153 0.017905168 0.495224
-0.32509804 0.015122304 0.49502444
-0.31514075 0.014889155 0.49361709
-0.30469161 0.014852982 0.4929159
-0.29528573 0.015013204 0.49378785
-0.28529894 0.014882823 0.49432209
-0.27518761 0.014845295 0.49510089
-0.26484999 0.014920371 0.49578089
-0.25505179 0.015043676 0.49588487
-0.24479149 0.014937249 0.49589801
-0.23503025 0.014872567 0.49713847
-0.22548404 0.014958885 0.49749014
-0.21489637 0.014766136 0.49614698
-0.2045792 0.015038081 0.49549398
-0.19489917 0.014989763 0.49684325
-0.18540595 0.014806487 0.49843827
-0.17504139 0.014886484 0.4987599
-0.16506921 0.014679722 0.4990868
-0.15510872 0.014849188 0.4981423
-0.14468169 0.015179407 0.4964456
-0.13492137 0.015168664 0.49738118
-0.12505735 0.015020297 0.49857643
-0.115795 0.014963243 0.49927112
-0.10918039 0.014053169 0.49972683
-0.33351782 0.025599524 0.49537197
-0.3248567 0.02492599 0.49509522
-0.31471968 0.024594789 0.49420062
-0.30485627 0.025136316 0.49344003
-0.29508629 0.024588512 0.4942283
-0.28501189 0.025071187 0.49543345
-0.27494696 0.024970017 0.49604505
-0.26481473 0.025096472 0.49621686
-0.25474337 0.024975661 0.49616289
-0.24491793 0.024917254 0.49670914
-0.23506145 0.024833739 0.49753204
-0.22523676 0.025180239 0.49774021
-0.21489987 0.025082147 0.49636045
-0.20495087 0.02506333 0.49618143
-0.19502695 0.024614343 0.49720722
-0.18549186 0.024604252 0.49909309
-0.17515643 0.023499943 0.49969813
-0.16512735 0.022169067 0.49957934
-0.15495755 0.023010505 0.49917665
-0.144521 0.024730783 0.49830559
-0.13505711 0.024728786 0.49849895
-0.12592667 0.02386326 0.49950925
-0.11641149 0.021695377 0.49976391
-0.34206626 0.035923507 0.49683377
-0.33503002 0.034892704 0.49741736
-0.32502961 0.034964059 0.49708691
-0.31507206 0.034654297 0.49585569
-0.30501887 0.034780528 0.49495268
-0.29504937 0.034728371 0.49539974
-0.28502762 0.035177268 0.49622113
-0.27493775 0.035027873 0.49648011
-0.26500314 0.035355583 0.49669412
-0.25514635 0.035055857 0.49715003
-0.2450351 0.035032481 0.49797213
-0.23498686 0.035013624 0.49903545
-0.22497794 0.034290165 0.49908152
-0.21531448 0.034440201 0.49897161
-0.20593952 0.033136223 0.49918839
-0.19371977 0.031392131 0.49969381
-0.18548617 0.034645472 0.4997685
-0.17476474 0.035833739 0.49969611
-0.16590701 0.038011063 0.49973282
-0.15526971 0.039153978 0.4999516
-0.14207962 0.034401387 0.49969974
-0.1356025 0.034583118 0.4996216
-0.1278248 0.036356602 0.49979162
-0.11624929 0.038880691 0.49981618
-0.10886194 0.039954975 0.49977463
-0.34417182 0.045622773 0.49611914
-0.33521995 0.045059372 0.49734604
-0.32523778 0.04493922 0.49740928
-0.3148953 0.04485384 0.49637783
-0.30504176 0.044619348 0.49579945
-0.29523909 0.044995356 0.49566588
-0.2852295 0.045236353 0.49601525
-0.27456322 0.045168851 0.49556869
-0.26469857 0.044930909 0.49545977
-0.25514385 0.045025256 0.49699774
-0.24512188 0.044958208 0.49861982
-0.23787586 0.045556903 0.49967843
-0.22958224 0.047509298 0.4998942
-0.21381359 0.041809719 0.49989039
-0.2047343 0.045809384 0.49959299
-0.19469354 0.045421205 0.49931401
-0.18488163 0.044891544 0.49932507
-0.17504373 0.044722587 0.49935633
-0.16499856 0.045386329 0.49913105
-0.15547104 0.046020426 0.49951756
-0.14447427 0.04461287 0.49977237
-0.13499439 0.04343953 0.49972954
-0.12451471 0.044899978 0.49962902
-0.11494714 0.04514493 0.49941996
-0.10887366 0.045516677 0.49952495
-0.35202789 0.055632312 0.49505907
-0.34506154 0.0551368 0.4969855
-0.33492836 0.055006348 0.49804074
-0.32499552 0.055133585 0.49786809
-0.31505319 0.055253301 0.49721405
-0.30515248 0.054494478 0.4960492
-0.29472196 0.055105858 0.49508688
-0.28512293 0.055108201 0.4953995
-0.27547228 0.055061154 0.49560103
-0.26482287 0.054838631 0.49544466
-0.25501186 0.054891348 0.49657139
-0.24493517 0.05506539 0.49795854
-0.23583734 0.055563677 0.49928045
-0.22811851 0.056104671 0.49974656
-0.2034633 0.051873367 0.49975014
-0.19454657 0.05248078 0.49941486
-0.18579151 0.053801585 0.4995575
-0.17439671 0.051690754 0.49958149
-0.16478448 0.053076975 0.49943861
-0.1561611 0.052780353 0.49948648
-0.14953129 0.052885726 0.4999066
-0.121619 0.054754257 0.49981052
-0.11470007 0.05449529 0.49960521
-0.10851502 0.053628005 0.49970382
-0.36267442 0.067857519 0.49646321
-0.35464337 0.064620279 0.49528059
-0.34542084 0.065004788 0.49696022
-0.3352553 0.065012202 0.49788305
-0.32511619 0.065062813 0.49811989
-0.31517285 0.065348037 0.49822012
-0.30526692 0.064899713 0.49776888
-0.29458764 0.065334313 0.49638903
-0.28475341 0.064871646 0.49587205
-0.27502325 0.064806715 0.49617013
-0.26528171 0.065163955 0.49675345
-0.25504434 0.064936705 0.49704215
-0.2448864 0.064914428 0.49732617
-0.23490448 0.064966269 0.49781957
-0.22508049 0.065174259 0.49860954
-0.21543238 0.067632519 0.49911562
-0.20563126 0.069280609 0.49994767
-0.18525301 0.065249637 0.4997907
-0.13242067 0.067202091 0.49971366
-0.12467935 0.06609413 0.49944171
-0.1150548 0.06510292 0.49910495
-0.10770334 0.066165902 0.49916863
-0.37268373 0.077253006 0.49899647
-0.36527738 0.075042196 0.49836686
-0.35503766 0.074944265 0.49739373
-0.34505498 0.074962445 0.49764898
-0.33492669 0.075096056 0.49809298
-0.32518083 0.074986078 0.49819356
-0.31497911 0.075146891 0.49825376
-0.30467042 0.074914142 0.49790198
-0.29457417 0.075030379 0.49667349
-0.28515396 0.074912049 0.49650702
-0.27504972 0.075148977 0.49674737
-0.26476666 0.075004287 0.49692497
-0.25464678 0.074968591 0.49700707
-0.24492437 0.075075023 0.49694815
-0.23521264 0.075072996 0.49721545
-0.2252561 0.07493984 0.49770212
-0.2151638 0.075047486 0.49802566
-0.20529847 0.075241737 0.49874058
-0.19845954 0.075386293 0.4997099
-0.18592678 0.071414247 0.49979955
-0.13282432 0.073149554 0.49955627
-0.12615517 0.072317094 0.49904397
-0.11491759 0.072634719 0.49818847
-0.10497381 0.074588202 0.49831793
-0.098917045 0.077847749 0.49971643
-0.38039595 0.08884912 0.49786788
-0.3741225 0.085046016 0.49801987
-0.36528435 0.085139684 0.49838412
-0.35487786 0.085170113 0.49794081
-0.3446559 0.084635243 0.49759433
-0.33486262 0.085186571 0.4983139
-0.32530248 0.085158437 0.49884799
-0.31514996 0.085151404 0.49824893
-0.30473077 0.084925652 0.49712929
-0.29462093 0.085119277 0.49599779
-0.28491661 0.084826604 0.49590275
-0.27497756 0.085003674 0.49619079
-0.26467314 0.085077941 0.49657699
-0.25452831 0.085076667 0.49731919
-0.2445922 0.084965549 0.49750054
-0.23505467 0.085047349 0.49812514
-0.22571136 0.084315576 0.49900594
-0.215004 0.082705185 0.49894434
-0.20596699 0.081966981 0.49960196
-0.38327 0.095913172 0.49745265
-0.37497011 0.094991669 0.49771163
-0.36498699 0.095189802 0.49823144
-0.35496387 0.095035277 0.49769628
-0.3446185 0.0951453 0.49705854
-0.33495575 0.094815761 0.49730086
-0.32479331 0.094908133 0.49777421
-0.31482011 0.095237441 0.49721143
-0.30504382 0.094904773 0.49639449
-0.29442513 0.095045827 0.49561411
-0.28472453 0.094752438 0.49594131
-0.27475417 0.09522821 0.49605593
-0.2644161 0.094653189 0.49612585
-0.25526372 0.095166817 0.49810734
-0.24574654 0.094793208 0.49935183
-0.23601446 0.093790911 0.49957994
-0.22681084 0.094855651 0.49992198
-0.19237058 0.097037129 0.49998274
-0.18453461 0.09726236 0.49971998
-0.39216745 0.10450594 0.49861985
-0.38456222 0.1047591 0.4972477
-0.37506709 0.10505282 0.49715817
-0.36480236 0.1046469 0.49672171
-0.35522312 0.10469593 0.49670967
-0.3450869 0.10528737 0.49684334
-0.33530113 0.10246944 0.49716511
-0.32471311 0.10341676 0.49724659
-0.3151103 0.10497831 0.49733689
-0.30468991 0.10514386 0.49709672
-0.29463944 0.105144 0.4969534
-0.28494391 0.10482598 0.49755061
-0.27510035 0.10512633 0.49812829
-0.26490739 0.10502743 0.49786803
-0.25512192 0.10479759 0.49843001
-0.24487673 0.10484463 0.49925753
-0.23455255 0.10486045 0.49957117
-0.22489451 0.1051222 0.4996163
-0.2152991 0.10652883 0.49977714
-0.18282507 0.10029574 0.49969634
-0.38456821 0.11199341 0.49891028
-0.37457544 0.11274743 0.49842656
-0.36469316 0.1103485 0.49642596
-0.35215032 0.11064845 0.49543968
-0.34500381 0.11128128 0.49586663
-0.31316939 0.11225094 0.49759564
-0.30521461 0.11339145 0.4978407
-0.29548615 0.11462943 0.49774396
-0.28494638 0.11505393 0.49846289
-0.27464038 0.11506184 0.4992747
-0.26525933 0.11554661 0.49958697
-0.25505108 0.11380995 0.49975303
-0.24429867 0.11430667 0.49963364
-0.23468317 0.11515702 0.49953341
-0.22471991 0.11378867 0.4997232
-0.21820898 0.11234529 0.49972183
-0.30523831 0.1224682 0.49799791
-0.2953594 0.12242689 0.49744797
-0.28742695 0.12110976 0.49782449
-0.27437285 0.12042842 0.49903551
-0.26440781 0.12229864 0.49868071
-0.25541985 0.12359908 0.4991526
-0.24576195 0.12295558 0.49955606
-0.23669019 0.120294 0.49935195
0.035915378 -0.14631094 0.50020856
0.043296248 -0.14226452 0.50031877
0.010960445 -0.13023058 0.50006855
0.046278689 -0.13852054 0.50012004
0.055339687 -0.13346636 0.50022119
0.062444709 -0.13123512 0.50041556
0.0084047616 -0.12879038 0.50011063
0.016786888 -0.12719963 0.50012743
0.022806956 -0.12512296 0.50021225
0.047407512 -0.12438513 0.50025696
0.055218279 -0.12470331 0.50053954
0.064899817 -0.12437434 0.50058866
0.073997214 -0.12310953 0.50085896
0.081501655 -0.12110557 0.50146246
-0.014278886 -0.11076443 0.50038528
0.03599146 -0.1118906 0.50035989
0.046257414 -0.11392218 0.50039798
0.054930426 -0.11489676 0.50098848
0.065025061 -0.11501919 0.5016101
0.075051613 -0.11494859 0.50153881
0.084693082 -0.11467245 0.50087023
0.093855985 -0.11248435 0.50076723
0.10091799 -0.11018251 0.50103211
-0.022091379 -0.10707731 0.50012773
-0.013976336 -0.10539569 0.50035429
-0.0056147291 -0.10417435 0.50056577
0.0027017801 -0.10286964 0.50035435
0.028845733 -0.10641513 0.50041765
0.035180807 -0.10505867 0.50104785
0.044841155 -0.10557666 0.50066042
0.055496868 -0.1062732 0.50064176
0.065073416 -0.10539714 0.50142163
0.07491304 -0.10492952 0.50231367
0.085020065 -0.10517409 0.50166303
0.094970509 -0.10511968 0.50182009
0.10451301 -0.1043835 0.50238657
0.11325482 -0.1021194 0.50348324
-0.012652257 -0.097869627 0.50016296
-0.0049975631 -0.095970765 0.50033599
0.0043221181 -0.096269287 0.50030738
0.037446376 -0.095316187 0.50049883
0.043378569 -0.094001479 0.50047261
0.057299413 -0.091119558 0.50020891
0.065635815 -0.09452419 0.50050032
0.0749892 -0.094965465 0.50114012
0.085047647 -0.094974488 0.50176632
0.094950065 -0.094880566 0.50252849
0.10490899 -0.095153242 0.50371999
0.11491345 -0.095051356 0.50355434
0.12443618 -0.094062112 0.50322527
0.13274701 -0.09151227 0.50419438
-0.011603405 -0.08485622 0.50039488
-0.0051779905 -0.084948838 0.50056601
0.0048333649 -0.083680823 0.5003522
0.014962494 -0.083348826 0.50033957
0.024594121 -0.082082435 0.50046366
0.03596098 -0.084313028 0.50105786
0.044986077 -0.084832132 0.5018208
0.055081639 -0.084751539 0.50117183
0.064770021 -0.085046701 0.50168663
0.074957982 -0.084917396 0.50225258
0.084998406 -0.085040778 0.50354499
0.095093444 -0.085133649 0.50413227
0.10487401 -0.085012376 0.50452667
0.11496887 -0.08493498 0.50318241
0.12498692 -0.085032985 0.50231427
0.13503702 -0.084821291 0.50357145
0.14451915 -0.083132297 0.50350124
0.1519617 -0.081249297 0.50492942
-0.011092544 -0.079917759 0.50022733
-0.0060516223 -0.078360498 0.50034887
0.0057447483 -0.076432079 0.50046605
0.014957548 -0.075098649 0.50052744
0.025061272 -0.075050749 0.50070345
0.035162784 -0.075009756 0.50126618
0.044898242 -0.07492315 0.5020318
0.055089533 -0.074810639 0.50134355
0.065146372 -0.075109765 0.50177264
0.074884139 -0.074905701 0.50333679
0.084930874 -0.075050592 0.50462598
0.094947487 -0.075014144 0.50488669
0.10506178 -0.074998327 0.50464821
0.11507308 -0.074996047 0.50376815
0.12502317 -0.075029209 0.50318384
0.13504684 -0.074869476 0.50434285
0.14502642 -0.074987672 0.5046438
0.15487958 -0.074839495 0.50572622
0.16411746 -0.072995365 0.50743723
0.1712628 -0.070814013 0.50765061
0.01705032 -0.068579793 0.50031644
0.025739493 -0.065685138 0.50104594
0.035006266 -0.064859264 0.5015986
0.045044962 -0.065079495 0.50205094
0.054985188 -0.064983815 0.50181311
0.064987361 -0.064941972 0.50144112
0.074998207 -0.064906843 0.50275165
0.085006244 -0.065149881 0.50436878
0.095195644 -0.064895637 0.50494176
0.1050854 -0.065097786 0.50474489
0.11508905 -0.064854562 0.50361109
0.12508336 -0.065002345 0.50401378
0.13500069 -0.065121926 0.5058732
0.14508955 -0.065063827 0.50549817
0.15495439 -0.064916961 0.50593853
0.16497515 -0.064912036 0.50702929
0.17470858 -0.064703591 0.50749969
0.18367535 -0.062194593 0.50738943
0.19015199 -0.060368612 0.50789821
0.029070342 -0.058442105 0.50052661
0.036011484 -0.055662766 0.5015884
0.044930149 -0.055048116 0.50253206
0.05496202 -0.055102643 0.50284946
0.064919129 -0.054982387 0.50344729
0.075103253 -0.054911189 0.5033136
0.085155383 -0.055048861 0.50403666
0.095034502 -0.054990426 0.50517976
0.10498291 -0.054943044 0.50598121
0.11503152 -0.05499579 0.50551283
0.12508069 -0.055186868 0.50517714
0.13503338 -0.054939922 0.5054211
0.14507213 -0.054955769 0.50536048
0.15494148 -0.055058543 0.50653195
0.16480924 -0.054873284 0.50760818
0.17494234 -0.054987349 0.50680685
0.18512887 -0.054935746 0.50730562
0.19458318 -0.054172009 0.50804317
0.20318495 -0.05183892 0.50861877
0.038528301 -0.04629796 0.50124168
0.044897024 -0.044978727 0.50321245
0.05502715 -0.044954617 0.50401384
0.065149337 -0.044920843 0.504605
0.075052947 -0.044917777 0.50463802
0.084852703 -0.045031495 0.5050174
0.095022038 -0.045054741 0.5056293
0.10506077 -0.044946887 0.50657153
0.11505353 -0.044969391 0.50728232
0.12495711 -0.045057103 0.50735968
0.13497061 -0.045024782 0.50568891
0.14509158 -0.044832051 0.50642753
0.15504357 -0.045101136 0.50821829
0.16499363 -0.044932347 0.50861889
0.17506428 -0.045010284 0.50734961
0.18489887 -0.044868842 0.50791407
0.19488664 -0.045101397 0.50805128
0.20501061 -0.044977557 0.50893438
0.21424221 -0.043937407 0.50939167
0.22213341 -0.041548908 0.50962567
0.04573388 -0.035182361 0.50217503
0.054933127 -0.034855671 0.50463891
0.064906977 -0.034956772 0.50513625
0.075035833 -0.035030566 0.50565583
0.08510977 -0.034936052 0.50591958
0.0951216 -0.034990415 0.50572664
0.10504525 -0.03494367 0.50602436
0.11504284 -0.035193201 0.50692838
0.12489856 -0.034994926 0.5080151
0.13490872 -0.034945704 0.50693041
0.14487331 -0.035030752 0.50692248
0.15492053 -0.035081156 0.5078935
0.16507213 -0.035061438 0.50847811
0.17509429 -0.034846246 0.50872266
0.18435657 -0.036022197 0.50927359
0.19534189 -0.036737248 0.5082795
0.2048555 -0.036374923 0.50897557
0.21422619 -0.036750443 0.50966871
0.22331989 -0.037107691 0.50975865
0.23505645 -0.033191424 0.50944334
0.24138553 -0.03093156 0.50952721
-0.10962854 -0.023736298 0.50015426
0.046172731 -0.024831595 0.50237179
0.054914139 -0.025127487 0.50479215
0.065161861 -0.025096543 0.50547498
0.074877806 -0.024918308 0.50586915
0.08511173 -0.025085328 0.50570613
0.095093474 -0.024869869 0.5063051
0.10499851 -0.025159337 0.5068624
0.11527749 -0.025027553 0.5064705
0.12508079 -0.025023149 0.50780338
0.13514519 -0.024926133 0.5073601
0.14521009 -0.025051871 0.50679815
0.15513529 -0.025078906 0.50717318
0.16508789 -0.024879117 0.50729984
0.17500129 -0.025006784 0.50854188
0.18379126 -0.023782158 0.50938308
0.19400965 -0.020884136 0.50955766
0.20718989 -0.022708774 0.50985771
0.21500959 -0.023582689 0.5097549
0.22301507 -0.023322839 0.5097847
0.23653421 -0.027717773 0.50980437
0.24359919 -0.027746068 0.50973803
0.25971061 -0.020926639 0.509938
-0.12141437 -0.01260992 0.50043201
-0.11521348 -0.013552636 0.50068372
-0.10691577 -0.013184405 0.50046074
0.038482998 -0.012979819 0.50167215
0.04473855 -0.015282211 0.50402713
0.055009171 -0.0149252 0.50484031
0.064916 -0.015003325 0.50568163
0.074909128 -0.015060558 0.5061354
0.084915467 -0.015053501 0.50610954
0.09491618 -0.014863671 0.50624686
0.10495133 -0.01507201 0.50644988
0.11497547 -0.014964317 0.50676173
0.12497772 -0.014951763 0.50826079
0.13505261 -0.015052454 0.50848407
0.14501004 -0.015093349 0.50818706
0.15485121 -0.014906091 0.5086062
0.16487308 -0.015068792 0.50834745
0.17501935 -0.014915297 0.50837672
0.18503243 -0.015050414 0.50841862
0.19479305 -0.014851807 0.50918746
0.20522581 -0.014743448 0.50969559
0.21456927 -0.01485871 0.50951564
0.22302361 -0.015179583 0.50979835
-0.1222956 -0.0056612333 0.50030887
-0.11494879 -0.0051079495 0.50103229
-0.10513393 -0.0047816099 0.50104225
-0.097175851 -0.0017085108 0.50055307
-0.082116254 -0.0024878539 0.50055313
-0.076569349 -0.0016963106 0.50154126
0.036769841 -0.0044336668 0.50260115
0.044943154 -0.0049971957 0.5043866
0.054891009 -0.0048165703 0.5055148
0.064856917 -0.0050644204 0.5058943
0.075138628 -0.0050564208 0.50601214
0.084947988 -0.0050669136 0.50706673
0.095073342 -0.0048180567 0.50715172
0.10498493 -0.0049990024 0.50763851
0.11492177 -0.0051465272 0.50793779
0.12483243 -0.0049889456 0.50890529
0.13499799 -0.0050715581 0.50812161
0.14499524 -0.0050055739 0.50834608
0.15485483 -0.0051134983 0.50927663
0.16481136 -0.0062524425 0.50950927
0.17556663 -0.0064640106 0.50917822
0.18504058 -0.0050556473 0.50828689
0.19423653 -0.0051416876 0.50906003
0.20740061 -0.006750491 0.50962484
0.21510801 -0.0045250291 0.50955534
0.22363581 -0.0039770589 0.50961721
0.23056981 -0.00094121322 0.50982952
-0.12090294 0.0015179962 0.50013578
-0.1137052 0.0037999938 0.50040549
-0.10492 0.0050976775 0.50105745
-0.095123783 0.0054755798 0.50138402
-0.084995516 0.0047184159 0.50124002
-0.075205408 0.0048653339 0.50215971
-0.065127142 0.006076593 0.50312871
-0.055648904 0.0072419653 0.50366831
-0.044853758 0.0078120553 0.50298929
-0.034876864 0.0087204678 0.50232178
-0.025597868 0.0091468031 0.50179237
-0.014292207 0.0080743944 0.5013448
-0.0056821727 0.0071323565 0.50184512
0.0046701785 0.0068940665 0.5018279
0.015290858 0.0069625801 0.5022012
0.025660725 0.006105992 0.50268519
0.035005454 0.004896374 0.50367886
0.04499894 0.0049671447 0.50495744
0.05501258 0.0052575236 0.50586265
0.065057173 0.0048875781 0.50645375
0.075150557 0.0050528441 0.50676477
0.085051686 0.0050351941 0.50722176
0.095037274 0.0050933082 0.50683928
0.10491481 0.0050271796 0.50795043
0.11495472 0.0047798301 0.50854945
0.12507652 0.0049621123 0.50860786
0.13506351 0.0049329479 0.50791943
0.14503342 0.0050255633 0.50703955
0.15487541 0.0050655976 0.50871253
0.16478631 0.0059638429 0.50975251
0.17475276 0.0062563331 0.509848
0.18574835 0.0027159222 0.50932515
0.19435833 0.0037711333 0.50955665
0.2004627 0.0062904991 0.50991881
0.21644391 0.0018859443 0.50958455
0.22548325 0.0028611647 0.50959313
0.23223707 0.0038720972 0.50963509
-0.11184047 0.015855512 0.50017196
-0.10444312 0.015070306 0.5009076
-0.094983831 0.015038769 0.50211036
-0.08483009 0.014632852 0.50274891
-0.074821644 0.014810287 0.50307858
-0.065026075 0.014745614 0.50315344
-0.054878876 0.014767467 0.50285262
-0.044823829 0.014971052 0.50208831
-0.034921557 0.014904999 0.50169086
-0.024959208 0.015164824 0.50150055
-0.015214643 0.01487591 0.50198048
-0.0050039371 0.014664683 0.5021888
0.0050529968 0.014938163 0.50306982
0.014897514 0.014753306 0.50441235
0.024938416 0.014822697 0.50484967
0.035057463 0.014893896 0.50522518
0.045054287 0.014849843 0.50605696
0.055174664 0.014821818 0.50599736
0.065034285 0.014856008 0.50629771
0.074982107 0.014981257 0.50671697
0.084860794 0.015028065 0.5069508
0.094985843 0.014859374 0.5068984
0.10507906 0.014813693 0.50785375
0.11502682 0.01473188 0.50868046
0.12501013 0.014849493 0.5086444
0.13499522 0.014579653 0.50893164
0.14504254 0.014970748 0.50788218
0.15486212 0.015027292 0.50860208
0.16429932 0.014595603 0.509637
0.17126799 0.012857636 0.50984681
-0.18092294 0.025155989 0.50016129
-0.17432435 0.026603404 0.50026923
-0.16558354 0.026555929 0.50044543
-0.15534052 0.02828134 0.5004043
-0.14754196 0.029240258 0.50027341
-0.13165869 0.02917615 0.50020695
-0.1236738 0.026978843 0.50029594
-0.11447623 0.025874905 0.50082564
-0.10514089 0.024862411 0.50174898
-0.09512198 0.024581313 0.50259346
-0.085186273 0.024933033 0.50302547
-0.075023256 0.024689112 0.50296879
-0.064906999 0.024722351 0.50295311
-0.05500209 0.024743687 0.50229329
-0.045034394 0.0251555 0.50171638
-0.035143524 0.025077149 0.502002
-0.025035923 0.024959907 0.50144082
-0.015111243 0.024975082 0.5018912
-0.0049937102 0.025068978 0.50293088
0.004961771 0.024878895 0.5040803
0.014959707 0.024760824 0.50532615
0.025118979 0.024788875 0.50619936
0.035082128 0.024927378 0.5069204
0.045101237 0.024889788 0.50677818
0.055089172 0.025032554 0.5067516
0.065116562 0.024924317 0.50724119
0.075074449 0.024897207 0.50697851
0.08500544 0.024890499 0.5068959
0.095000096 0.0248293 0.50782251
0.10489046 0.024754245 0.50902718
0.114855 0.024738794 0.50911981
0.12467166 0.024839638 0.50942236
0.13113283 0.024449123 0.50970447
0.14645728 0.02478807 0.50911826
0.15488909 0.024624502 0.50901604
0.16376014 0.022992544 0.50966954
0.1862319 0.028263003 0.50961727
0.19187693 0.027861083 0.5097934
-0.23527776 0.038594954 0.500278
-0.22608343 0.039331883 0.50029123
-0.2139266 0.038803563 0.50019419
-0.203688 0.03704625 0.50043803
-0.19517156 0.035846058 0.5003897
-0.18442284 0.034615137 0.50023216
-0.17533538 0.033689365 0.50022918
-0.16466501 0.034284536 0.50040537
-0.15502173 0.034950223 0.500498
-0.14655904 0.035778154 0.50038701
-0.13306642 0.036081284 0.50017369
-0.12450868 0.034500655 0.50053024
-0.11475027 0.034340482 0.50083148
-0.10486534 0.035013188 0.5015955
-0.095115215 0.034976617 0.50215399
-0.084963098 0.03491386 0.50195324
-0.074838787 0.034738041 0.50228631
-0.064773865 0.035049334 0.50262505
-0.054899629 0.034877297 0.50254422
-0.044925489 0.035322223 0.50240403
-0.034909036 0.034991734 0.50298518
-0.024888609 0.035056531 0.50337088
-0.014842502 0.034923159 0.50317585
-0.0051066456 0.035059381 0.50492245
0.0049048774 0.035100278 0.50710398
0.015117179 0.034787629 0.50711364
0.024933504 0.034742445 0.50729007
0.035075583 0.035059661 0.50652134
0.045081113 0.035293113 0.50579882
0.055021502 0.035112891 0.5059979
0.065000787 0.034935638 0.50707692
0.07505355 0.034981638 0.50795674
0.08503063 0.035123464 0.50762314
0.09505783 0.034859851 0.50759184
0.10494608 0.03489105 0.50884384
0.11502324 0.034981437 0.50924087
0.12503159 0.035826456 0.50941801
0.13220087 0.036998738 0.50976801
0.14765352 0.033011533 0.5095191
0.1543861 0.034754988 0.50948507
0.16112575 0.035851985 0.50982022
0.18671347 0.033944003 0.50959277
0.19255331 0.032919832 0.50964546
-0.23411188 0.044700176 0.50039518
-0.22507812 0.045046579 0.50056952
-0.21482638 0.045521818 0.5003649
-0.20542867 0.041935503 0.50016004
-0.19751343 0.041073062 0.50029606
-0.15382157 0.041962646 0.50026715
-0.14551041 0.045157459 0.50043535
-0.13523126 0.046522494 0.50023359
-0.12657124 0.045570977 0.50020003
-0.11647841 0.040676598 0.50007844
-0.10380048 0.044875432 0.50088656
-0.095102884 0.045215074 0.50259423
-0.084778741 0.044949908 0.50211519
-0.074984543 0.044911936 0.50245947
-0.064705826 0.044817567 0.50294089
-0.054776061 0.045312181 0.50371194
-0.045004483 0.044888698 0.50439417
-0.035001401 0.04489325 0.50431687
-0.024905229 0.0449517 0.50412267
-0.014926057 0.045035534 0.50447214
-0.0047999169 0.044952847 0.50544351
0.0049480237 0.045132469 0.50800943
0.015047243 0.045015831 0.50907779
0.025054447 0.044771019 0.5079391
0.035087377 0.045190565 0.50702721
0.045204241 0.045130655 0.50648427
0.055121608 0.04489265 0.50684953
0.065259859 0.044940501 0.50787914
0.074934162 0.044921525 0.50916255
0.085001327 0.04512975 0.50859755
0.095105521 0.045049127 0.508286
0.10497917 0.044957999 0.50904518
0.11497779 0.044907711 0.50912583
0.12483781 0.044504073 0.50918525
0.13355722 0.045394223 0.50965875
0.14002064 0.048480794 0.50985861
0.15573312 0.041052297 0.50982958
0.16193458 0.041569941 0.50987327
0.17888677 0.046262801 0.5097965
0.18293813 0.046567507 0.50982153
0.19042884 0.04114439 0.50994503
-0.23256771 0.052686822 0.50022066
-0.22401476 0.054730877 0.5006066
-0.21499084 0.055061787 0.50100762
-0.20539172 0.055853341 0.50098658
-0.1954349 0.057257347 0.50052112
-0.18334402 0.056362439 0.50029153
-0.17522974 0.056580048 0.50056708
-0.16478324 0.058036044 0.50054413
-0.15377598 0.056558859 0.50084066
-0.14475855 0.054835211 0.50140727
-0.13486001 0.054965809 0.50107116
-0.12579158 0.055140279 0.50050104
-0.11493719 0.05638019 0.50016201
-0.10419777 0.055095367 0.50161314
-0.09515658 0.055143312 0.50361353
-0.084982947 0.055097647 0.50376076
-0.075153947 0.054920767 0.50390643
-0.065025121 0.054897815 0.50414324
-0.055047177 0.055095181 0.50485265
-0.045087051 0.054872125 0.50511146
-0.035068918 0.054888405 0.50491112
-0.02497826 0.055174381 0.50434959
-0.014985621 0.054991573 0.50475162
-0.0050860345 0.054815516 0.50545359
0.0050091683 0.054964468 0.50606
0.015023923 0.055101056 0.50709856
0.025028301 0.055049449 0.5070858
0.03517741 0.055110708 0.50669861
0.045192912 0.055002723 0.50681728
0.055156805 0.05488082 0.50701457
0.065053567 0.055036936 0.507994
0.07504037 0.054510549 0.5091458
0.085060462 0.055058837 0.50871223
0.094928399 0.054936182 0.50884324
0.10408746 0.05405743 0.50939
0.11375185 0.051881284 0.50965476
0.12062587 0.051651578 0.5098896
0.14361297 0.055141512 0.50980592
0.15005842 0.058646128 0.50998831
0.17995417 0.050351441 0.50986612
0.18253528 0.050294109 0.50977278
-0.22115664 0.062270951 0.5002827
-0.21407698 0.062995099 0.50106138
-0.20491323 0.064642951 0.50145924
-0.19494742 0.065203279 0.50079376
-0.18417203 0.065075152 0.50025719
-0.17497765 0.064893551 0.50115973
-0.16486412 0.065052547 0.50150126
-0.15516169 0.064970076 0.50193977
-0.1451816 0.064781494 0.5019145
-0.13573712 0.064305775 0.50073981
-0.12594993 0.06203457 0.50027007
-0.11968414 0.061357222 0.50009656
-0.10337599 0.06443736 0.50159013
-0.095126808 0.065156341 0.5045585
-0.084868796 0.064911239 0.50571734
-0.074780263 0.065133385 0.50578505
-0.064880684 0.064906567 0.50605339
-0.054728497 0.065099344 0.50599122
-0.044920903 0.064924143 0.50578356
-0.035226461 0.06503351 0.50521839
-0.024927827 0.065013036 0.50528342
-0.015048779 0.064967982 0.50600749
-0.0048927898 0.064955175 0.50569469
0.0052210651 0.06486088 0.50513303
0.015083144 0.065122709 0.5057463
0.024892487 0.065081723 0.50701416
0.035012551 0.06489668 0.50653815
0.04500512 0.064957 0.50712848
0.055103298 0.064937018 0.50854152
0.063219465 0.063467287 0.50943029
0.078946248 0.06061089 0.50981557
0.085365653 0.062033426 0.50960737
0.095065676 0.062563419 0.50968981
0.10141223 0.060835455 0.50972378
0.13930902 0.064449474 0.50995576
0.14378938 0.06385611 0.50973666
-0.20125368 0.073071972 0.50009489
-0.19452077 0.075004451 0.50061101
-0.18471408 0.075290695 0.50109285
-0.17490259 0.074678637 0.50137186
-0.16504051 0.075123921 0.50160277
-0.15500693 0.074910641 0.50180686
-0.14511581 0.075165696 0.50189102
-0.13743037 0.073591962 0.50075102
-0.10077098 0.072407357 0.50068313
-0.09482228 0.075027511 0.50279772
-0.085331291 0.075009435 0.50560439
-0.074988715 0.075149164 0.50557369
-0.065087147 0.074771851 0.50522441
-0.054847091 0.075185679 0.50502628
-0.045118771 0.074924096 0.50591725
-0.03507854 0.075067535 0.50581318
-0.024858149 0.074786246 0.50545645
-0.015084405 0.075042121 0.50649369
-0.0049836184 0.075076304 0.50641704
0.0052900924 0.075039051 0.50541466
0.015015047 0.074869074 0.50592655
0.02501527 0.075077109 0.50733286
0.035004847 0.07499183 0.50818235
0.045169372 0.074896574 0.50839442
0.055085737 0.074826315 0.50817144
0.064568773 0.075891532 0.50891012
0.075240977 0.07725925 0.50941718
0.085179895 0.075841583 0.50951564
0.091512442 0.076658599 0.50957006
-0.22351252 0.088093556 0.50024199
-0.21525568 0.087872759 0.50045311
-0.20470588 0.086256847 0.50082374
-0.19500503 0.084911779 0.5017699
-0.18510471 0.085113309 0.50276065
-0.17509881 0.084795259 0.50210416
-0.16512679 0.08424554 0.50150341
-0.1549987 0.082715638 0.5013423
-0.14587034 0.083063923 0.50153357
-0.09229438 0.084249347 0.50213838
-0.085402399 0.084962785 0.50626212
-0.075332507 0.084987387 0.50725651
-0.0649959 0.085112929 0.50591254
-0.054858051 0.084793873 0.50477624
-0.045095053 0.084953301 0.50683272
-0.0350991 0.084986478 0.50839567
-0.024902007 0.084801525 0.50690758
-0.014798146 0.084864594 0.5060271
-0.0051543401 0.08503031 0.50651592
0.0048389076 0.085037813 0.50672537
0.01513744 0.084937565 0.50675571
0.025143815 0.084926479 0.50695306
0.035153862 0.08490891 0.50727761
0.044733189 0.085057244 0.50825804
0.055018492 0.084913097 0.50736308
0.065160379 0.084957011 0.50729412
0.074848279 0.084722452 0.50866514
0.084015481 0.082776509 0.50955278
0.09255439 0.083049715 0.50968134
-0.24295565 0.096689962 0.50016832
-0.23440427 0.095895909 0.5002833
-0.2247324 0.094938248 0.50051802
-0.21525361 0.095109418 0.50103045
-0.20525591 0.094981238 0.50112695
-0.19479869 0.09503457 0.5006966
-0.18474087 0.093857571 0.50082088
-0.17696069 0.093267843 0.50128269
-0.090532884 0.090156205 0.50447631
-0.084732145 0.094382472 0.50749946
-0.075295828 0.094511591 0.50860655
-0.065019041 0.092911273 0.50683296
-0.05424178 0.093136251 0.50512367
-0.044525117 0.094303481 0.50767511
-0.035147049 0.096287586 0.50918567
-0.024756135 0.095201701 0.50891548
-0.01474115 0.095181733 0.5076136
-0.004930601 0.094806366 0.50700194
0.0049204719 0.095110394 0.50698066
0.014937083 0.094912887 0.50740498
0.024940314 0.095041476 0.50779754
0.035042256 0.0949753 0.50758028
0.045074787 0.095143557 0.50831372
0.055146489 0.094985455 0.50872189
0.065006688 0.094938852 0.5086444
0.073130928 0.093782894 0.50933236
-0.23663682 0.10463322 0.50006264
-0.22579387 0.10412339 0.50016445
-0.21463725 0.10381762 0.50035018
-0.20476884 0.10517194 0.50090218
-0.19553353 0.10434914 0.50114125
-0.18772744 0.10192043 0.50075513
-0.084807672 0.10052874 0.50653547
-0.041269802 0.1012031 0.50786644
-0.034414776 0.10422665 0.50762337
-0.025233246 0.10512093 0.50781584
-0.015173471 0.10502816 0.50783062
-0.0049718241 0.10513974 0.50651598
0.0049517909 0.1049882 0.50644314
0.014971841 0.10489903 0.50800729
0.024985412 0.10499445 0.50891525
0.034957618 0.10498359 0.50868422
0.045113679 0.1050669 0.50812942
0.05485839 0.10490172 0.50928432
0.064050458 0.10463248 0.50952876
0.071336217 0.1012428 0.50978833
-0.38431528 0.1151491 0.50022155
-0.26457146 0.11427759 0.50018442
-0.25535434 0.11595642 0.50038379
-0.24751121 0.11667935 0.50030208
-0.23823451 0.1128844 0.50016576
-0.22602183 0.11423688 0.50024033
-0.2148277 0.11546192 0.50102717
-0.20622939 0.1132447 0.50118715
-0.19705479 0.11072135 0.50189102
-0.031723872 0.11042443 0.50704986
-0.0235836 0.11163804 0.50665265
-0.015834244 0.11172364 0.50703257
-0.0041705659 0.11161944 0.50517303
0.0055774385 0.11142272 0.50617915
0.015469134 0.11323764 0.5090577
0.024847381 0.11528964 0.50935149
0.034980319 0.11497098 0.50950694
0.045172639 0.11431387 0.50935245
0.053744424 0.1125844 0.50956881
0.065502711 0.1143021 0.5096572
0.073178843 0.11654807 0.50963825
0.080149338 0.11832701 0.50986409
-0.25590244 0.12115273 0.50026691
-0.21597189 0.12032993 0.50128347
0.026900673 0.12222276 0.507788
0.034826808 0.12455012 0.50817972
0.043560609 0.1261712 0.50939912
0.068708017 0.12085336 0.50971496
0.073671319 0.12108147 0.50967574
0.080535486 0.1220695 0.50984478
0.034748599 0.13006164 0.50719398
0.046808261 0.13039385 0.50887662
0.069115646 0.13738172 0.50949663
0.073221073 0.13875128 0.50934476
0.069703631 0.141396 0.50704539
0.07536564 0.14459096 0.50827372
0.080956675 0.14645465 0.50981987
0.080845937 0.15024835 0.50978911
0.21632659 -0.042288084 0.51012999
0.22321272 -0.041045107 0.51024842
0.18698093 -0.032421939 0.51049727
0.19458584 -0.032071564 0.51096189
0.20534739 -0.031667728 0.51045877
0.21536036 -0.034028094 0.51040351
0.22535017 -0.034556452 0.51057422
0.23216362 -0.032710217 0.51026267
0.18667221 -0.026912669 0.51062095
0.19524583 -0.025775684 0.51127344
0.20493406 -0.025319058 0.5107379
0.21503383 -0.026143575 0.51038045
0.2252759 -0.02527456 0.51064891
0.23471469 -0.024498926 0.51091403
0.2449335 -0.024112938 0.51061374
0.25384629 -0.022524934 0.51092279
0.26065499 -0.020447925 0.51027322
0.19875933 -0.014474854 0.51019174
0.20465639 -0.015492273 0.51022184
0.21728608 -0.015536715 0.51020825
0.22579446 -0.014993181 0.51051491
0.23509029 -0.014963264 0.5117839
0.24505849 -0.01507151 0.51173604
0.25499421 -0.014980707 0.51230615
0.2645252 -0.014351759 0.51164931
0.27347818 -0.011906198 0.51124805
0.15857029 -0.0039037466 0.51007414
0.16501816 -0.0028968307 0.51028174
0.17367251 -0.0022785689 0.51043391
0.18005392 -0.00057375804 0.51000971
0.1986074 -0.0037964706 0.51037675
0.20377414 -0.004209748 0.5105812
0.21425851 -0.0065486045 0.5101524
0.22632761 -0.0060109072 0.51038337
0.23504789 -0.0051239729 0.5118506
0.2449642 -0.0050012474 0.51269031
0.25491959 -0.0049309456 0.51319671
0.26497766 -0.0049305726 0.51338232
0.27503657 -0.0050672656 0.51245344
0.28448129 -0.0038482088 0.51346409
0.29265571 -0.0016001149 0.51386684
0.15823898 0.0038680267 0.51014137
0.1653244 0.0045360043 0.51030523
0.17500585 0.0050157825 0.5107733
0.18430434 0.0071305037 0.51050562
0.19608633 0.0060589691 0.51044554
0.20525773 0.0049096756 0.51122493
0.2145441 0.0060160849 0.51107526
0.22458068 0.0068009794 0.51060057
0.23592702 0.005562888 0.51082325
0.24509172 0.0052374848 0.51209098
0.25506249 0.0050240359 0.51291734
0.26511544 0.0050947852 0.51389158
0.27505997 0.0048854849 0.51386583
0.28506911 0.0050806045 0.51447189
0.29508677 0.004893674 0.51458108
0.30124649 0.0051563964 0.51398659
0.13481136 0.019183496 0.51025474
0.1590032 0.012217328 0.5100615
0.16580971 0.015476216 0.51026708
0.17519388 0.015274921 0.51094258
0.1851196 0.014785388 0.51112312
0.19490846 0.014830365 0.51099831
0.20498002 0.014969952 0.51201016
0.21506122 0.015121546 0.51246721
0.22504693 0.01482808 0.5116815
0.23510484 0.015045045 0.51264894
0.24501432 0.015181849 0.51352376
0.25508776 0.015111899 0.51307237
0.2650879 0.014957948 0.51355678
0.27499917 0.015037749 0.51404148
0.28510541 0.015065347 0.51455569
0.29442123 0.01461345 0.51390016
0.11838849 0.029967809 0.51000154
0.12682083 0.026931098 0.51010764
0.13561304 0.025286371 0.51060712
0.14185607 0.025416961 0.51032943
0.15855272 0.028211752 0.51025605
0.16580737 0.025926644 0.51050866
0.17499495 0.024946673 0.51130116
0.18472527 0.023946328 0.5107435
0.19530344 0.024552546 0.51067758
0.2050475 0.025253285 0.51179874
0.21495189 0.025161821 0.5125826
0.22494769 0.024926929 0.5118649
0.23494411 0.02493947 0.51277834
0.24507076 0.025005631 0.51366061
0.25501442 0.025030157 0.51309299
0.26496074 0.025059838 0.51406306
0.275078 0.02511099 0.51523238
0.28502458 0.025133364 0.51460886
0.29254007 0.024276461 0.5141502
0.11896153 0.031628259 0.51014459
0.12519459 0.032731388 0.51022583
0.13548255 0.034681227 0.5106504
0.14386268 0.035842337 0.51084226
0.15690005 0.035384789 0.51018536
0.16540541 0.034965359 0.51104593
0.1749704 0.034911834 0.51121652
0.18329476 0.036008999 0.51045138
0.19590682 0.035529442 0.51073647
0.20491873 0.035141189 0.51235467
0.21495768 0.034919977 0.51409799
0.22503395 0.034895692 0.51406038
0.23499718 0.035064705 0.51384741
0.24498105 0.034934193 0.51397419
0.25490084 0.034924403 0.51373351
0.26504794 0.035145584 0.51490253
0.27508807 0.034994569 0.51579368
0.28496295 0.034929954 0.51519942
0.29096591 0.032378342 0.51533848
0.0098702013 0.043231502 0.51019418
0.012571052 0.044395618 0.51009208
0.12536314 0.04912148 0.51045126
0.13598929 0.044734944 0.51055789
0.14496604 0.044902388 0.51105922
0.15482219 0.045489572 0.51079458
0.16511035 0.045103189 0.51121897
0.17464316 0.044893045 0.51086086
0.18533543 0.044741817 0.51060206
0.19515163 0.044970702 0.51171935
0.20504823 0.045125771 0.51290929
0.21505217 0.044973414 0.51406467
0.2250971 0.044861931 0.51400298
0.23504737 0.045057774 0.51485276
0.24506594 0.045027897 0.51485693
0.25503126 0.044988129 0.51415217
0.26498154 0.04500711 0.51388991
0.2750316 0.045038514 0.51518697
0.28350362 0.044414699 0.51494634
0.074747048 0.05881314 0.51027161
0.1069437 0.056979343 0.51037621
0.11547089 0.055810925 0.51064306
0.125222 0.055158943 0.51125163
0.13495912 0.054955959 0.5110305
0.14558284 0.054886017 0.51040012
0.15512428 0.05495546 0.51121593
0.16506946 0.054968089 0.51203209
0.17498128 0.055029884 0.51159739
0.18503501 0.055209663 0.51161343
0.19493744 0.05495305 0.5128811
0.20505209 0.055096857 0.51335508
0.21502195 0.054813527 0.51386964
0.22495738 0.055116855 0.51370454
0.23511879 0.054952499 0.5140776
0.24497893 0.055020623 0.51493782
0.25499687 0.054984204 0.51393008
0.2648724 0.05494079 0.51333559
0.27497721 0.05506264 0.5150876
0.28171125 0.053713966 0.51610261
0.066194676 0.066172928 0.51071924
0.074864991 0.065035231 0.5112133
0.084909827 0.065751925 0.51055974
0.094983369 0.065932974 0.51050657
0.10501376 0.06511531 0.51120204
0.1149535 0.064994037 0.51210868
0.12501065 0.065062255 0.5121085
0.13503592 0.065018639 0.51117653
0.14572467 0.065613106 0.51047713
0.15502843 0.065000661 0.5112164
0.16486369 0.065038599 0.51245499
0.17485955 0.064899683 0.51324707
0.18495046 0.064983137 0.51311153
0.19493659 0.064945891 0.51277971
0.20495184 0.065095 0.51314563
0.21507119 0.064947017 0.51389998
0.22504762 0.064982057 0.513699
0.23492895 0.065017946 0.51301444
0.2450175 0.065002881 0.51406109
0.25495031 0.064996578 0.51548898
0.26490626 0.065028876 0.51552153
0.27475786 0.064888321 0.51630825
0.2801522 0.060184054 0.5162133
0.066794924 0.071903303 0.51047081
0.074479841 0.072688065 0.51062882
0.084810801 0.071599998 0.51029557
0.095713682 0.074599802 0.51091838
0.10502274 0.074961729 0.51196748
0.11512379 0.075035751 0.51232415
0.12503077 0.075050369 0.51196301
0.13500023 0.074973978 0.51164353
0.14506245 0.075020768 0.51157802
0.15503193 0.075059935 0.51211786
0.16510597 0.074933074 0.51302487
0.17499897 0.074930571 0.51358736
0.18498895 0.074923314 0.51390642
0.19505522 0.075004086 0.51387721
0.20517637 0.075028539 0.51355231
0.21500011 0.075022325 0.51376647
0.22504717 0.074924253 0.51332825
0.23507102 0.074982882 0.51398909
0.24501398 0.075048782 0.51373285
0.25501466 0.074964091 0.51452094
0.26502994 0.074937358 0.51640314
0.2730017 0.074431486 0.51720732
-0.034694467 0.08913362 0.51025534
0.07815744 0.08894334 0.51040816
0.085538343 0.086660184 0.51061922
0.095715292 0.085275561 0.51067477
0.10499737 0.085047439 0.51189864
0.11487456 0.084928274 0.51215321
0.12488344 0.084936745 0.51173985
0.13499354 0.084894866 0.51181507
0.14493564 0.085111201 0.51350451
0.15491463 0.085028768 0.51386631
0.1650746 0.084964201 0.51295835
0.17503902 0.084911667 0.51316607
0.18502316 0.084969968 0.51330233
0.19504175 0.084998436 0.51408839
0.20497623 0.085123986 0.51390797
0.21496162 0.084956504 0.51412851
0.2249155 0.085064828 0.51516426
0.23502266 0.084949896 0.51537091
0.24510516 0.085098907 0.5153681
0.25502393 0.085015364 0.51571447
0.26489949 0.084947035 0.5159328
0.27129877 0.082887605 0.51635146
-0.034665804 0.092258595 0.51027095
0.069999084 0.09979023 0.51006103
0.077041544 0.095763341 0.51049793
0.084842324 0.095032848 0.51141065
0.094982997 0.095142312 0.51096815
0.1048122 0.094946645 0.51201022
0.11511383 0.094863676 0.51260704
0.12513301 0.094977997 0.5123803
0.13494156 0.095008954 0.51225907
0.14493802 0.095027268 0.51373887
0.15501939 0.094939932 0.51397032
0.16495982 0.094918266 0.51284695
0.1750057 0.094981968 0.51310337
0.18503629 0.094946757 0.51352245
0.19503768 0.094936043 0.51419163
0.20511045 0.094986647 0.51441759
0.21508048 0.095016547 0.51450264
0.22509088 0.094890021 0.51559192
0.2349558 0.095023103 0.51609516
0.24494527 0.094971463 0.51572561
0.25503424 0.094932601 0.51457399
0.2639682 0.094505087 0.51545686
0.06749025 0.10612465 0.5103209
0.075218394 0.10514167 0.51088297
0.084899433 0.10496625 0.51135987
0.095095895 0.10499576 0.5111593
0.1049654 0.10490947 0.51219434
0.11493967 0.10498849 0.51312214
0.12508182 0.10493675 0.51279867
0.13508023 0.10503294 0.51312286
0.14497493 0.10496172 0.51376313
0.15500535 0.10501113 0.51429081
0.16511108 0.10500212 0.51422304
0.17497748 0.10501406 0.51391906
0.18500437 0.10499362 0.51457876
0.1950008 0.10487853 0.51560944
0.20493165 0.10504642 0.51619846
0.21493274 0.10495578 0.51577723
0.22498207 0.10503408 0.51644772
0.23506811 0.10490692 0.51614857
0.24501699 0.10498591 0.51635438
0.25500694 0.10511343 0.51555878
0.26197404 0.10391746 0.51535743
0.01827614 0.11417134 0.51023769
0.025677655 0.11363365 0.51016557
0.035125837 0.11558352 0.51011419
0.044720676 0.11760395 0.51025754
0.0553171 0.11635504 0.51066363
0.064084403 0.11548425 0.51025379
0.076029852 0.11404806 0.51060814
0.084952101 0.11502596 0.51194435
0.094979398 0.11509781 0.51229852
0.10501979 0.11492059 0.51201624
0.1149246 0.11497875 0.51330048
0.12507704 0.11504508 0.51385498
0.13512941 0.11502092 0.51392579
0.14502482 0.11502545 0.51456225
0.15495326 0.11497451 0.51468343
0.16481303 0.11513585 0.51490462
0.17496671 0.11504368 0.51499212
0.18503664 0.11499315 0.51574349
0.19506173 0.11504345 0.51624495
0.20507859 0.11497721 0.51575381
0.21506126 0.11488502 0.51507008
0.22507074 0.11513211 0.51578104
0.23503028 0.11499289 0.51625252
0.24506681 0.11503042 0.51572508
0.25470898 0.11474277 0.51664037
0.26054204 0.11135489 0.51654261
0.046743114 0.12379077 0.51044655
0.055059273 0.12499487 0.51183212
0.064968236 0.1250774 0.51132697
0.075188212 0.12582304 0.5109424
0.085066654 0.12493689 0.51119447
0.094859801 0.12487527 0.51189828
0.10504913 0.12509421 0.51202393
0.11508888 0.12480024 0.51265001
0.12489476 0.12507801 0.51328337
0.13501909 0.12495945 0.51320517
0.14503805 0.1249884 0.51431757
0.15505163 0.12501633 0.51481301
0.16508429 0.12495568 0.5147292
0.17500189 0.12493273 0.51491034
0.1850238 0.12496005 0.51522386
0.19493386 0.12504531 0.51538944
0.20452702 0.12421159 0.51499194
0.21506412 0.124818 0.51403081
0.22339612 0.12416626 0.51481652
0.23669219 0.12107696 0.51531708
0.2457372 0.12160429 0.51455581
0.25390041 0.12172531 0.51643211
0.056835108 0.13109796 0.51203418
0.066301264 0.13220093 0.51124835
0.075252131 0.1343998 0.5110203
0.084808417 0.1349421 0.51174134
0.095059901 0.13504077 0.51209611
0.10516389 0.13503323 0.51234949
0.11497396 0.13481259 0.51293838
0.12486053 0.13489914 0.51381409
0.13501471 0.13514589 0.51435494
0.14487664 0.13500844 0.51482862
0.15496606 0.13487838 0.51507509
0.16511384 0.13504529 0.51474255
0.17490907 0.13510908 0.51627159
0.18494008 0.13488562 0.51577538
0.19461384 0.13448331 0.5152297
0.20088568 0.13038054 0.51423448
0.21710357 0.13096417 0.51439536
0.22157259 0.13098542 0.51559424
0.078085527 0.14065933 0.5102402
0.085376069 0.14486095 0.51102269
0.095052809 0.14511739 0.51272643
0.10502497 0.14504619 0.5138672
0.11494572 0.14510731 0.51411605
0.12490518 0.14503089 0.51525927
0.13493492 0.14519702 0.51598579
0.14511639 0.144958 0.51563376
0.15499099 0.14502786 0.5155285
0.16493978 0.14484073 0.51496208
0.17499079 0.14492704 0.51482636
0.18496153 0.1449807 0.51482081
0.19218691 0.14560421 0.51603115
0.086491637 0.15181603 0.51070386
0.095432833 0.15363552 0.51188642
