# .PCD v0.7 - Point Cloud Data file format
VERSION 0.7
FIELDS x y z
SIZE 4 4 4
TYPE F F F
COUNT 1 1 1
WIDTH 1
HEIGHT 244
VIEWPOINT 0 0 0 1 0 0 0
POINTS 244
DATA ascii
0.0052871308 -0.06572111 0.41938201
0.015446774 -0.065016709 0.4181987
0.023836251 -0.062656991 0.41835764
0.03104005 -0.061183207 0.41979876
0.037462767 -0.053048801 0.41733941
0.040861137 -0.050837677 0.41506529
0.039094113 -0.048492447 0.41810557
0.043292433 -0.044242859 0.41751355
0.046697091 -0.035308447 0.41864967
0.050037086 -0.031772748 0.41785234
0.046728119 -0.024752049 0.41826576
0.046079818 -0.017960163 0.41803601
0.0066364049 -0.064207546 0.42524341
0.014686482 -0.062572256 0.42424214
0.023196118 -0.060686897 0.42290181
0.030916691 -0.06014543 0.42087668
0.026700433 -0.057994399 0.42625001
0.032985229 -0.053886656 0.42434478
0.036210109 -0.045282848 0.4248538
0.040955108 -0.041546293 0.42087632
0.038838927 -0.036404807 0.42732441
0.042213939 -0.034494419 0.42301643
0.039587289 -0.024272684 0.42896125
0.042311724 -0.025448782 0.42356586
0.039589722 -0.01526185 0.42773727
0.042924624 -0.015026603 0.4232311
0.039642207 -0.0057002287 0.42790607
0.041894197 -0.0078837061 0.42459562
0.0066049588 -0.063407108 0.4347603
0.014275159 -0.061083943 0.43459949
0.018345749 -0.059478216 0.43654495
0.025756318 -0.055322412 0.4347285
0.030723952 -0.051580988 0.43060002
0.029656902 -0.048981845 0.43853429
0.032643348 -0.044832461 0.4343251
0.037689451 -0.035302743 0.43479806
0.038432457 -0.024695426 0.43426964
0.037960872 -0.014845553 0.43454301
0.0378967 -0.0052342187 0.43414328
0.038237724 0.00058487337 0.43312842
0.0081712566 -0.062815577 0.44454533
0.012309919 -0.06103573 0.44466534
0.016963672 -0.058600325 0.44461185
0.025100578 -0.054070998 0.44471514
0.029734552 -0.049249891 0.44502506
0.032100495 -0.043921039 0.44523197
0.036668304 -0.035215512 0.44520694
0.037541404 -0.025345864 0.4450863
0.036385041 -0.014993004 0.44548872
0.036775585 -0.0055892086 0.44493407
0.037404038 0.00053651555 0.44577369
0.007600856 -0.062769689 0.4561944
0.010964777 -0.060797319 0.45419884
0.0014888942 -0.058361493 0.45986336
0.015763517 -0.058443248 0.45576558
0.025113201 -0.053938523 0.45497394
0.030054018 -0.05040428 0.45932686
0.031136218 -0.044761211 0.45471674
0.034335937 -0.035185494 0.45465758
0.036377799 -0.024751941 0.45489278
0.034875453 -0.015101507 0.45523876
0.034510471 -0.004674043 0.45468262
0.037299268 0.0018828631 0.45583615
0.042939633 0.00073133036 0.45514563
0.0054890905 -0.061445523 0.46146259
0.0066777943 -0.058639266 0.46601811
0.014703206 -0.057182245 0.46483508
0.025187248 -0.053257789 0.46499652
0.029649619 -0.049113672 0.46793437
0.030875308 -0.045011248 0.4645395
0.033659212 -0.03484308 0.46488842
0.035519179 -0.025155572 0.46480697
0.033974364 -0.01467527 0.46497774
0.032380998 -0.0053361231 0.46523753
0.036472395 0.0016595094 0.46340206
0.0075559877 -0.056582123 0.47412646
0.015280792 -0.055043388 0.4751294
0.024149194 -0.052018996 0.47425732
0.028655149 -0.048151158 0.47529271
0.031257283 -0.043218877 0.47549471
0.033946861 -0.034775577 0.4749673
0.035300829 -0.025835445 0.47509897
0.034136809 -0.01525265 0.47541952
0.032788206 -0.0043396773 0.47497323
0.038682383 0.0015868194 0.47511038
0.0077138515 -0.054666676 0.48574334
0.015338291 -0.053279441 0.48534933
0.022412386 -0.051091846 0.48433897
0.027288329 -0.047328256 0.48527238
0.031586442 -0.042232357 0.48473546
0.034064107 -0.035032723 0.48530972
0.035446212 -0.02445578 0.48448426
0.033541199 -0.01476976 0.48560917
0.032718502 -0.0047602607 0.48650232
0.038629767 0.0008598743 0.48344091
0.045703929 0.0025434631 0.48708859
0.015101999 -0.077013187 0.4973847
-0.0022083223 -0.068550244 0.49964464
-0.010934766 -0.053060755 0.49856234
-0.0081432397 -0.054389942 0.49576679
0.0079498487 -0.05200443 0.49311107
0.014993759 -0.051245868 0.49261945
0.020088986 -0.050966367 0.49050975
-0.011190286 -0.048723377 0.49847454
-0.0095207691 -0.048911765 0.49560148
0.0091755912 -0.049380954 0.49727482
0.014803105 -0.048710059 0.4972896
0.02529292 -0.045480762 0.49518529
0.031216621 -0.041250464 0.49196514
-0.024274107 -0.034304287 0.49700397
0.02928026 -0.039814435 0.49931467
0.032519899 -0.03508237 0.49508691
-0.025843395 -0.02453845 0.4947955
-0.01607904 -0.021127108 0.49153173
0.033472545 -0.024822151 0.495121
-0.023375459 -0.01549329 0.49537942
-0.015225763 -0.014713198 0.49198186
-0.0054195682 -0.013232339 0.49281734
0.004028833 -0.01362248 0.49678898
0.01630808 -0.011885225 0.49935931
0.025778709 -0.014016992 0.49690756
0.031604636 -0.015587942 0.49267715
-0.020800024 -0.0091872569 0.49854919
-0.014507757 -0.0073029287 0.49674338
-0.0067130318 -0.006996579 0.49551675
0.0073374608 -0.0056417608 0.49683166
0.01502281 -0.0047107781 0.49774677
0.025183642 -0.0054930649 0.49473107
0.031663898 -0.0016810956 0.49175119
0.038913049 0.0025567152 0.49497676
0.043871466 0.0039496124 0.49620047
0.051419161 0.0039831754 0.49585813
-0.0093663931 -0.059721395 0.50050241
0.030747075 -0.032520391 0.50187814
0.031190712 -0.027490381 0.50122041
0.0090093613 -0.014580924 0.50003207
0.01498281 -0.015817689 0.50141191
0.023073532 -0.018579911 0.50106758
0.013766617 -0.00036633015 0.50018805
-0.022713318 -0.04422057 0.39933228
-0.030673817 -0.021756455 0.3993499
-0.026692867 -0.015992546 0.39738852
-0.010567777 -0.060362864 0.40596336
-0.0091861784 -0.061172761 0.40843052
-0.015174302 -0.054528318 0.40618169
-0.0096158981 -0.059179481 0.40947944
-0.021277139 -0.043468654 0.40330449
-0.01912749 -0.046583332 0.40643871
-0.030007288 -0.033251002 0.40331733
-0.025300492 -0.035317291 0.40603161
-0.030598242 -0.026704947 0.40366149
-0.027516147 -0.024514558 0.40623662
-0.024970712 -0.014582573 0.40518433
-0.031076834 -0.0073278286 0.40604964
-0.024879651 -0.0066149216 0.4068408
-0.0044893022 -0.061967671 0.41574302
0.00017921627 -0.064541191 0.41929471
-0.01345153 -0.053075127 0.4145416
-0.0076390859 -0.057473909 0.41598251
-0.020315424 -0.04025504 0.41156146
-0.018329058 -0.045364615 0.41493315
-0.022435265 -0.034539107 0.41461027
-0.019731756 -0.039674949 0.41523266
-0.024874868 -0.025250373 0.4145889
-0.022232048 -0.015032773 0.41464281
-0.020720707 -0.0050724791 0.41194817
-0.019102497 -0.0042629675 0.4162311
-0.02097971 0.00054594316 0.41298842
-0.016984712 0.0024320786 0.41786575
-0.0012915666 -0.061007202 0.42133468
0.0040671658 -0.062160213 0.42495862
0.012486969 -0.061015755 0.42763361
-0.01198817 -0.051373214 0.42359823
-0.004906544 -0.05549787 0.42509535
0.0041261916 -0.058488019 0.42850155
0.013111128 -0.058032058 0.42849973
-0.016786715 -0.045662981 0.42482558
-0.022157028 -0.03446966 0.42483872
-0.019703923 -0.039190549 0.42618632
-0.023385877 -0.025229121 0.42469513
-0.02153541 -0.015352056 0.42481026
-0.020155609 -0.0091785416 0.42487097
-0.01712166 -0.0041794726 0.42477635
-0.012465349 0.0025571689 0.42283341
-0.0068929582 0.005282436 0.42445892
-0.010063708 -0.050200481 0.43619224
-0.005079166 -0.052819386 0.43439555
0.0038763913 -0.05616276 0.43394911
0.011457528 -0.055831451 0.43154514
-0.015948588 -0.045606442 0.43475693
-0.021556711 -0.03496391 0.43476674
-0.019494042 -0.039638847 0.4300293
-0.022256199 -0.02493622 0.4345789
-0.021360809 -0.015280832 0.43458259
-0.019755417 -0.011007731 0.43829569
-0.020214155 -0.0098040849 0.43272096
-0.016055416 -0.0050826645 0.43493211
-0.010807581 0.000354046 0.43288028
-0.006881699 0.0024568345 0.43079212
-0.010544896 -0.050277553 0.44521362
-0.0050563221 -0.053631496 0.44507876
0.0015956275 -0.055557035 0.44269916
-0.020615913 -0.040504813 0.44551158
-0.01612829 -0.04571636 0.44512504
-0.021918977 -0.034835756 0.44504559
-0.021924298 -0.024918994 0.44468737
-0.020748632 -0.016587373 0.44391167
-0.018823093 -0.012147628 0.44605196
-0.014267977 -0.005585256 0.44524288
-0.0096398294 -0.0016118437 0.44704634
-0.01096233 -0.050611455 0.45472497
-0.006617967 -0.053582747 0.45511323
-0.020518474 -0.041154783 0.45110384
-0.016097629 -0.045006439 0.45517203
-0.021620356 -0.034839068 0.45498028
-0.019478928 -0.038743149 0.45844978
-0.021293515 -0.025725143 0.45428032
-0.019200111 -0.022013793 0.45788872
-0.020328108 -0.018449003 0.45097679
-0.015649268 -0.014804447 0.45568514
-0.0085112173 -0.012335351 0.45906991
-0.012107787 -0.0076193898 0.45235792
-0.0086952588 -0.0070356368 0.45482418
-0.010385819 -0.050473161 0.46282548
-0.0071283979 -0.0518809 0.46467456
-0.014415752 -0.045024257 0.46496022
-0.0084535182 -0.049601682 0.46886465
-0.020335689 -0.032862183 0.46104583
-0.017717395 -0.034957886 0.46552625
-0.020179834 -0.028551597 0.46110559
-0.015725138 -0.024937337 0.46532241
-0.0095209107 -0.022443334 0.46860161
-0.012368176 -0.018483002 0.46161795
-0.008345386 -0.015909005 0.46139061
-0.0054064244 -0.050427996 0.47112036
-0.012798552 -0.042993538 0.47447976
-0.0085135754 -0.045947243 0.47451076
-0.01322295 -0.035519358 0.4745872
-0.0092740115 -0.032999344 0.47702256
-0.011968373 -0.028070517 0.47125709
-0.0075690392 -0.026432775 0.4718613
-0.0081452914 -0.040793095 0.48089421
-0.010433152 -0.037682384 0.48042876
-0.0090892464 -0.037707631 0.48093691
