# .PCD v0.7 - Point Cloud Data file format
VERSION 0.7
FIELDS x y z
SIZE 4 4 4
TYPE F F F
COUNT 1 1 1
WIDTH 1420
HEIGHT 1
VIEWPOINT 0 0 0 1 0 0 0
POINTS 1420
DATA ascii
-0.25922865 0.15122306 0.31853318
-0.25875238 0.1510047 0.31817704
-0.2582761 0.15078636 0.31782091
-0.25779983 0.15056801 0.31746477
-0.25732356 0.15034966 0.31710863
-0.25684729 0.15013131 0.31675249
-0.25637102 0.14991295 0.31639636
-0.25589475 0.14969461 0.31604022
-0.25541848 0.14947626 0.31568408
-0.25494221 0.14925791 0.31532794
-0.25446594 0.14903957 0.3149718
-0.25351012 0.1487363 0.31551588
-0.25303191 0.14851704 0.31515828
-0.25255367 0.1482978 0.31480068
-0.25207543 0.14807856 0.31444308
-0.2515972 0.14785931 0.31408548
-0.25111896 0.14764005 0.31372786
-0.25064075 0.14742081 0.31337026
-0.25016251 0.14720157 0.31301266
-0.24918906 0.14689022 0.31354356
-0.24870887 0.14667007 0.31318447
-0.24822868 0.14644992 0.31282541
-0.2472474 0.14613497 0.31335044
-0.26661599 0.15544325 0.32556108
-0.26565951 0.15500475 0.32484588
-0.2651813 0.15478551 0.32448828
-0.26513672 0.15462728 0.32319516
-0.26466048 0.15440893 0.32283902
-0.26418421 0.15419059 0.32248288
-0.26370794 0.15397224 0.32212675
-0.26323166 0.15375388 0.32177061
-0.26275539 0.15353553 0.32141447
-0.26227912 0.15331718 0.32105833
-0.26180285 0.15309882 0.3207022
-0.26132658 0.15288049 0.32034606
-0.26085031 0.15266213 0.31998992
-0.26037404 0.15244378 0.31963378
-0.25989777 0.15222543 0.31927764
-0.2594215 0.15200709 0.31892151
-0.25894523 0.15178874 0.31856537
-0.25800782 0.15149678 0.31912422
-0.25752962 0.15127754 0.31876662
-0.25751641 0.15113369 0.31749696
-0.25704014 0.15091534 0.31714082
-0.25656387 0.15069699 0.31678468
-0.2560876 0.15047863 0.31642854
-0.25561133 0.15026028 0.3160724
-0.25466025 0.14996204 0.31662101
-0.25418201 0.1497428 0.31626341
-0.25370377 0.14952356 0.31590581
-0.25322554 0.1493043 0.31554821
-0.2527473 0.14908504 0.31519061
-0.25226909 0.1488658 0.31483299
-0.25179085 0.14864656 0.31447542
-0.25131261 0.14842731 0.31411779
-0.25083441 0.14820805 0.31376019
-0.25035617 0.14798881 0.31340259
-0.24987793 0.14776957 0.313045
-0.24939971 0.14755031 0.3126874
-0.24842313 0.1472404 0.31321692
-0.24794294 0.14702025 0.31285787
-0.26585317 0.155792 0.32523578
-0.26537496 0.15557276 0.32487822
-0.26489672 0.15535352 0.32452059
-0.26485333 0.15519294 0.32322735
-0.26437706 0.15497459 0.32287121
-0.26390079 0.15475625 0.32251507
-0.26342452 0.1545379 0.32215893
-0.26294824 0.15431955 0.32180279
-0.26247197 0.15410119 0.32144666
-0.2619957 0.15388285 0.32109052
-0.26151943 0.1536645 0.32073438
-0.26104316 0.15344615 0.32037824
-0.26056689 0.15322781 0.32002211
-0.26009062 0.15300944 0.31966597
-0.25961435 0.1527911 0.31930983
-0.25913808 0.15257275 0.31895369
-0.25820148 0.15228403 0.31951416
-0.25772327 0.15206479 0.31915656
-0.25724503 0.15184554 0.31879896
-0.2567668 0.15162629 0.31844136
-0.25628859 0.15140703 0.31808376
-0.25581035 0.15118779 0.31772614
-0.25580418 0.15104431 0.31646073
-0.2548539 0.1507493 0.31701094
-0.25437567 0.15053004 0.31665334
-0.25389743 0.1503108 0.31629574
-0.25341919 0.15009156 0.31593814
-0.25294095 0.1498723 0.31558055
-0.25246274 0.14965305 0.31522292
-0.25198451 0.14943381 0.31486532
-0.25150627 0.14921457 0.31450772
-0.25102806 0.14899531 0.31415012
-0.25054982 0.14877605 0.31379253
-0.25007159 0.14855681 0.3134349
-0.24959336 0.14833757 0.31307733
-0.24911514 0.14811832 0.3127197
-0.2486369 0.14789906 0.3123621
-0.24765721 0.14759058 0.31289032
-0.247177 0.14737043 0.31253126
-0.24669683 0.14715029 0.31217217
-0.26652506 0.1567985 0.32598335
-0.26604682 0.15657926 0.32562572
-0.26556861 0.15636 0.32526815
-0.26509038 0.15614076 0.32491052
-0.26461214 0.1559215 0.32455292
-0.2641339 0.15570226 0.32419533
-0.26365566 0.15548301 0.32383773
-0.26317745 0.15526377 0.32348013
-0.26269922 0.15504453 0.3231225
-0.26266485 0.15488522 0.32183498
-0.26218855 0.15466687 0.32147884
-0.26171231 0.15444852 0.32112271
-0.26123601 0.15423018 0.32076657
-0.26075977 0.15401182 0.32041043
-0.26028347 0.15379347 0.32005429
-0.25980723 0.15357512 0.31969815
-0.25887337 0.15329054 0.32026172
-0.25885469 0.15313843 0.31898591
-0.25791693 0.15285203 0.31954649
-0.25743869 0.15263279 0.31918889
-0.25696045 0.15241353 0.31883126
-0.25648224 0.15219429 0.3184737
-0.25600401 0.15197504 0.31811607
-0.25552577 0.15175579 0.31775847
-0.25504753 0.15153654 0.31740087
-0.25456929 0.1513173 0.31704327
-0.25409108 0.15109804 0.31668568
-0.25361285 0.1508788 0.31632805
-0.25313461 0.15065955 0.31597048
-0.2526564 0.15044031 0.31561285
-0.25217816 0.15022105 0.31525525
-0.25169992 0.15000181 0.31489766
-0.25122172 0.14978255 0.31454006
-0.25074348 0.14956331 0.31418246
-0.25026524 0.14934406 0.31382483
-0.24978702 0.14912482 0.31346726
-0.24930878 0.14890556 0.31310964
-0.24883056 0.14868632 0.31275204
-0.24835232 0.14846706 0.31239444
-0.2478741 0.14824782 0.31203684
-0.24739587 0.14802857 0.31167924
-0.24691764 0.14780933 0.31132162
-0.24593088 0.14750047 0.31184557
-0.26671872 0.15758574 0.32637328
-0.26624048 0.1573665 0.32601565
-0.26576227 0.15714726 0.32565805
-0.265284 0.156928 0.32530046
-0.26480579 0.15670875 0.32494286
-0.26432756 0.15648951 0.32458526
-0.26384932 0.15627027 0.32422763
-0.26337111 0.15605101 0.32387006
-0.26289287 0.15583175 0.32351243
-0.26241463 0.15561251 0.32315484
-0.26193643 0.15539327 0.32279724
-0.26145819 0.15517402 0.32243964
-0.26097995 0.15495476 0.32208204
-0.26050174 0.15473552 0.32172441
-0.26002347 0.15451628 0.32136685
-0.25954527 0.15429702 0.32100922
-0.25906703 0.15407777 0.32065162
-0.25858879 0.15385853 0.32029402
-0.25811058 0.15363929 0.31993642
-0.25763234 0.15342003 0.31957883
-0.25715411 0.15320078 0.3192212
-0.2566759 0.15298153 0.31886363
-0.25619766 0.15276229 0.318506
-0.25571942 0.15254304 0.3181484
-0.25524119 0.15232378 0.31779081
-0.25476295 0.15210454 0.31743318
-0.25428474 0.1518853 0.31707561
-0.2538065 0.15166605 0.31671798
-0.25332826 0.15144679 0.31636041
-0.25285006 0.15122755 0.31600279
-0.25237182 0.15100831 0.31564519
-0.25189358 0.15078905 0.31528759
-0.25141537 0.1505698 0.31492996
-0.25093713 0.15035056 0.31457239
-0.2504589 0.15013131 0.31421477
-0.24998066 0.14991206 0.31385717
-0.24950244 0.1496928 0.31349957
-0.24902421 0.14947356 0.31314197
-0.24854597 0.14925432 0.31278437
-0.24806774 0.14903507 0.31242675
-0.24758951 0.14881581 0.31206918
-0.24711129 0.14859657 0.31171155
-0.24663305 0.14837733 0.31135395
-0.24615483 0.14815807 0.31099635
-0.26643413 0.15815374 0.32640558
-0.2659559 0.1579345 0.32604799
-0.26547766 0.15771525 0.32569039
-0.26499945 0.15749601 0.32533279
-0.26452121 0.15727675 0.32497519
-0.26404297 0.15705751 0.32461756
-0.26356477 0.15683825 0.32426
-0.26308653 0.15661901 0.32390237
-0.26260829 0.15639976 0.32354477
-0.26213008 0.15618052 0.32318717
-0.26165184 0.15596128 0.32282957
-0.26117361 0.15574202 0.32247198
-0.26069537 0.15552276 0.32211435
-0.26021713 0.15530352 0.32175675
-0.25973892 0.15508427 0.32139915
-0.25926068 0.15486503 0.32104155
-0.25878245 0.15464577 0.32068396
-0.25830424 0.15442653 0.32032633
-0.257826 0.15420729 0.31996876
-0.25734776 0.15398803 0.31961113
-0.25686955 0.15376878 0.31925353
-0.25639132 0.15354954 0.31889594
-0.25591308 0.15333028 0.31853834
-0.25543484 0.15311104 0.31818074
-0.2549566 0.15289178 0.31782311
-0.25447839 0.15267254 0.31746554
-0.25400016 0.15245329 0.31710792
-0.25352192 0.15223405 0.31675032
-0.25304371 0.15201479 0.31639272
-0.25256547 0.15179555 0.31603512
-0.25208724 0.1515763 0.31567752
-0.25160903 0.15135705 0.3153199
-0.25113079 0.1511378 0.31496233
-0.25065255 0.15091856 0.3146047
-0.25017431 0.15069932 0.3142471
-0.24969609 0.15048006 0.3138895
-0.24921787 0.15026081 0.31353191
-0.24873963 0.15004157 0.31317431
-0.24826139 0.14982231 0.31281668
-0.24778317 0.14960307 0.31245911
-0.24730495 0.14938381 0.31210148
-0.24682671 0.14916457 0.31174389
-0.24634847 0.14894532 0.31138629
-0.24587025 0.14872608 0.31102866
-0.24487922 0.14842097 0.31155142
-0.26614955 0.15872175 0.32643792
-0.26567131 0.1585025 0.32608032
-0.2651931 0.15828325 0.32572269
-0.26471487 0.15806401 0.32536513
-0.26423663 0.15784475 0.3250075
-0.26375842 0.15762551 0.3246499
-0.26328018 0.15740626 0.3242923
-0.26280195 0.15718701 0.3239347
-0.26232374 0.15696776 0.32357711
-0.2618455 0.15674852 0.32321948
-0.26136726 0.15652928 0.32286191
-0.26088902 0.15631002 0.32250428
-0.26041079 0.15609077 0.32214668
-0.25993258 0.15587153 0.32178909
-0.25945434 0.15565227 0.32143149
-0.2589761 0.15543303 0.32107389
-0.25849789 0.15521377 0.32071626
-0.25801966 0.15499453 0.32035869
-0.25754142 0.15477529 0.32000107
-0.25706318 0.15455604 0.31964347
-0.25658494 0.15433678 0.31928587
-0.25610673 0.15411754 0.31892824
-0.2556285 0.15389828 0.31857067
-0.25515026 0.15367904 0.31821305
-0.25467205 0.15345979 0.31785545
-0.25419381 0.15324055 0.31749785
-0.25371557 0.15302129 0.31714025
-0.25323737 0.15280205 0.31678265
-0.25275913 0.15258279 0.31642503
-0.25228089 0.15236355 0.31606746
-0.25180265 0.1521443 0.31570983
-0.25132442 0.15192506 0.31535223
-0.25084621 0.1517058 0.31499463
-0.25036797 0.15148656 0.31463704
-0.24988975 0.15126732 0.31427944
-0.24941151 0.15104806 0.31392181
-0.24893329 0.15082881 0.31356424
-0.24845505 0.15060957 0.31320661
-0.24797682 0.15039031 0.31284901
-0.2474986 0.15017107 0.31249142
-0.24702036 0.14995182 0.31213382
-0.24654213 0.14973257 0.31177622
-0.2460639 0.14951332 0.31141859
-0.24558568 0.14929408 0.31106102
-0.24510744 0.14907482 0.3107034
-0.26634321 0.159509 0.32682782
-0.26586497 0.15928975 0.32647026
-0.26538676 0.15907049 0.32611263
-0.26490852 0.15885125 0.32575506
-0.26443028 0.15863201 0.32539743
-0.26395208 0.15841275 0.32503983
-0.26347384 0.1581935 0.32468224
-0.2629956 0.15797426 0.32432461
-0.26251736 0.15775502 0.32396704
-0.26203912 0.15753576 0.32360941
-0.26156092 0.15731651 0.32325181
-0.26108268 0.15709727 0.32289422
-0.26060444 0.15687802 0.32253662
-0.26012623 0.15665877 0.32217902
-0.259648 0.15643951 0.32182139
-0.25916976 0.15622027 0.32146382
-0.25869155 0.15600103 0.3211062
-0.25821331 0.15578178 0.3207486
-0.25773507 0.15556252 0.320391
-0.25725684 0.15534328 0.3200334
-0.2567786 0.15512404 0.3196758
-0.25630039 0.15490478 0.31931818
-0.25582215 0.15468553 0.31896061
-0.25534391 0.15446629 0.31860298
-0.25486571 0.15424705 0.31824538
-0.25438747 0.15402779 0.31788778
-0.25390923 0.15380853 0.31753018
-0.25343102 0.15358929 0.31717259
-0.25295278 0.15337005 0.31681496
-0.25247455 0.1531508 0.31645739
-0.25199631 0.15293154 0.31609976
-0.25151807 0.1527123 0.31574216
-0.25103986 0.15249306 0.31538457
-0.25056162 0.1522738 0.31502697
-0.25008339 0.15205455 0.31466937
-0.24960516 0.15183531 0.31431174
-0.24912694 0.15161607 0.31395414
-0.2486487 0.15139681 0.31359655
-0.24817047 0.15117756 0.31323895
-0.24769224 0.15095831 0.31288135
-0.24721402 0.15073907 0.31252372
-0.24673578 0.15051982 0.31216615
-0.24625756 0.15030056 0.31180853
-0.24577934 0.15008132 0.31145093
-0.2453011 0.14986208 0.31109333
-0.24482286 0.14964283 0.31073573
-0.23547125 0.14597541 0.30880621
-0.23498517 0.14575256 0.30844277
-0.2344991 0.14552972 0.3080793
-0.23401304 0.14530689 0.30771583
-0.23352696 0.14508404 0.30735236
-0.2330409 0.14486119 0.30698889
-0.26605862 0.16007699 0.32686019
-0.26510218 0.15963849 0.32614496
-0.26462394 0.15941925 0.32578737
-0.26414573 0.1592 0.32542977
-0.26366749 0.15898076 0.32507217
-0.26318926 0.1587615 0.32471454
-0.26271102 0.15854226 0.32435697
-0.26223278 0.158323 0.32399935
-0.26175457 0.15810376 0.32364175
-0.26127633 0.15788451 0.32328415
-0.2607981 0.15766527 0.32292655
-0.26031989 0.15744603 0.32256895
-0.25984165 0.15722677 0.32221133
-0.25936341 0.15700752 0.32185376
-0.2588852 0.15678827 0.32149613
-0.25840697 0.15656902 0.32113853
-0.25792873 0.15634978 0.32078093
-0.25745049 0.15613052 0.32042333
-0.25697225 0.15591128 0.32006574
-0.25649405 0.15569203 0.31970811
-0.25554654 0.15541548 0.32026643
-0.25506634 0.15519534 0.31990737
-0.25458616 0.15497519 0.31954831
-0.25410599 0.15475504 0.31918925
-0.25362578 0.15453491 0.31883016
-0.25314558 0.15431476 0.3184711
-0.2526654 0.15409461 0.31811202
-0.25218523 0.15387446 0.31775296
-0.25170502 0.15365431 0.3173939
-0.25122482 0.15343416 0.31703484
-0.25074464 0.15321401 0.31667575
-0.25026447 0.15299387 0.31631669
-0.25027704 0.15284181 0.3150593
-0.24979882 0.15262255 0.31470168
-0.2493206 0.15240331 0.31434408
-0.24884236 0.15218405 0.31398648
-0.24836412 0.15196481 0.31362888
-0.2478859 0.15174556 0.31327128
-0.24740767 0.15152632 0.31291366
-0.24692944 0.15130706 0.31255609
-0.24645121 0.15108782 0.31219846
-0.24597298 0.15086856 0.31184086
-0.24549475 0.15064932 0.31148326
-0.24501652 0.15043007 0.31112567
-0.24453829 0.15021083 0.31076807
-0.235182 0.14655271 0.30883908
-0.23469593 0.14632988 0.30847561
-0.23420987 0.14610703 0.30811214
-0.23372379 0.14588419 0.30774868
-0.23323771 0.14566135 0.30738521
-0.23275165 0.14543851 0.30702174
-0.23226558 0.14521566 0.30665827
-0.23122008 0.14489418 0.30714333
-0.23073205 0.14467044 0.3067784
-0.22934917 0.14387861 0.30447751
-0.2648176 0.1602065 0.3261773
-0.26433936 0.15998726 0.32581967
-0.26386112 0.159768 0.3254621
-0.26338291 0.15954876 0.32510448
-0.26290467 0.1593295 0.32474688
-0.26242644 0.15911026 0.32438928
-0.26194823 0.15889101 0.32403168
-0.26146999 0.15867177 0.32367408
-0.26099175 0.15845251 0.32331645
-0.26051354 0.15823327 0.32295889
-0.26003531 0.15801403 0.32260126
-0.25955707 0.15779477 0.32224366
-0.25907883 0.15757552 0.32188606
-0.25860059 0.15735628 0.32152846
-0.25812238 0.15713702 0.32117087
-0.25764415 0.15691778 0.32081324
-0.25716591 0.15669852 0.32045567
-0.25622118 0.1564261 0.32101703
-0.255741 0.15620597 0.32065797
-0.2552608 0.15598582 0.32029891
-0.25478059 0.15576567 0.31993985
-0.25430042 0.15554552 0.31958076
-0.25382024 0.15532538 0.31922168
-0.25334004 0.15510523 0.31886262
-0.25285983 0.15488508 0.31850356
-0.25237966 0.15466493 0.3181445
-0.25189948 0.15444478 0.31778544
-0.25141928 0.15422463 0.31742635
-0.25093907 0.15400448 0.31706727
-0.2504589 0.15378435 0.31670821
-0.24997871 0.1535642 0.31634915
-0.24949852 0.15334405 0.31599009
-0.24951425 0.15319055 0.31473401
-0.24903601 0.15297131 0.31437641
-0.24855778 0.15275206 0.31401879
-0.24807955 0.15253282 0.31366122
-0.24760133 0.15231356 0.31330359
-0.24712309 0.15209432 0.31294599
-0.24664485 0.15187506 0.31258839
-0.24616663 0.15165582 0.3122308
-0.24568841 0.15143657 0.3118732
-0.24521017 0.15121733 0.31151557
-0.24473195 0.15099807 0.311158
-0.24425371 0.15077883 0.31080037
-0.24173306 0.15010533 0.31271902
-0.24124895 0.14988337 0.31235701
-0.23489276 0.14713003 0.30887192
-0.23440669 0.14690718 0.30850846
-0.23392062 0.14668435 0.30814499
-0.23343456 0.1464615 0.30778152
-0.23294848 0.14623865 0.30741805
-0.23246241 0.14601582 0.30705461
-0.23197635 0.14579298 0.30669114
-0.23092967 0.14547382 0.30717632
-0.23044164 0.14525008 0.30681139
-0.22995362 0.14502634 0.30644646
-0.22946557 0.1448026 0.30608153
-0.229546 0.14467876 0.30487382
-0.26453301 0.1607745 0.3262096
-0.26405478 0.16055524 0.32585204
-0.26357657 0.160336 0.32549441
-0.26309833 0.16011676 0.32513681
-0.26262009 0.15989751 0.32477921
-0.26214188 0.15967825 0.32442161
-0.26166365 0.15945901 0.32406402
-0.26118541 0.15923977 0.32370639
-0.2607072 0.15902051 0.32334882
-0.26022896 0.15880126 0.32299119
-0.25975072 0.15858202 0.32263359
-0.25927249 0.15836278 0.322276
-0.25879425 0.15814352 0.3219184
-0.25831604 0.15792426 0.3215608
-0.2578378 0.15770502 0.32120317
-0.25735956 0.15748578 0.32084557
-0.25688136 0.15726653 0.32048798
-0.25593543 0.15699643 0.32104951
-0.25545526 0.15677629 0.32069042
-0.25497505 0.15655614 0.32033136
-0.25449485 0.15633599 0.31997228
-0.25401467 0.15611584 0.31961322
-0.2535345 0.15589571 0.31925416
-0.25305429 0.15567556 0.3188951
-0.25257409 0.15545541 0.31853601
-0.25209391 0.15523526 0.31817695
-0.25161374 0.15501511 0.31781787
-0.25113353 0.15479496 0.31745881
-0.25065333 0.15457481 0.31709975
-0.25017315 0.15435468 0.31674069
-0.24969296 0.15413453 0.3163816
-0.24921277 0.15391438 0.31602255
-0.24873258 0.15369424 0.31566346
-0.24875143 0.1535393 0.31440872
-0.24827321 0.15332006 0.31405115
-0.24779499 0.15310082 0.31369352
-0.24731675 0.15288156 0.31333593
-0.24683851 0.15266231 0.31297833
-0.24636029 0.15244307 0.31262073
-0.24588206 0.15222383 0.31226313
-0.24540383 0.15200457 0.3119055
-0.24492559 0.15178531 0.31154794
-0.24444737 0.15156607 0.31119031
-0.24345049 0.15127262 0.31171373
-0.23893577 0.14985706 0.31341314
-0.23508959 0.14793018 0.30926824
-0.23460352 0.14770734 0.30890477
-0.23411745 0.1474845 0.30854133
-0.23363137 0.14726165 0.30817786
-0.23314531 0.14703882 0.30781439
-0.23265924 0.14681597 0.30745092
-0.23217317 0.14659312 0.30708748
-0.23112729 0.1462772 0.30757424
-0.23063926 0.14605346 0.30720931
-0.23015124 0.14582972 0.30684438
-0.22966319 0.14560598 0.30647945
-0.22917517 0.14538224 0.30611452
-0.22868714 0.1451585 0.3057496
-0.22722305 0.14448728 0.30465481
-0.22673503 0.14426354 0.30428988
-0.26468396 0.16137575 0.32529777
-0.26420772 0.1611574 0.32494164
-0.26373145 0.16093904 0.3245855
-0.26325518 0.16072071 0.32422936
-0.26277891 0.16050234 0.32387322
-0.26230264 0.160284 0.32351708
-0.26182637 0.16006565 0.32316095
-0.26090086 0.15980776 0.32373872
-0.26042262 0.15958852 0.32338113
-0.25994438 0.15936926 0.32302353
-0.25946614 0.15915002 0.32266593
-0.2589879 0.15893076 0.3223083
-0.2585097 0.15871152 0.32195073
-0.25803146 0.15849227 0.32159311
-0.25755322 0.15827303 0.32123551
-0.25707501 0.15805377 0.32087791
-0.25659677 0.15783453 0.32052031
-0.25611854 0.15761527 0.32016271
-0.25516951 0.15734661 0.32072288
-0.25468931 0.15712646 0.32036382
-0.25420913 0.15690632 0.32000476
-0.25372893 0.15668617 0.31964567
-0.25324875 0.15646602 0.31928661
-0.25276855 0.15624589 0.31892753
-0.25228837 0.15602574 0.31856847
-0.25180817 0.15580559 0.31820941
-0.25132799 0.15558544 0.31785035
-0.25084779 0.15536529 0.31749126
-0.25036761 0.15514514 0.3171322
-0.24988741 0.15492499 0.31677312
-0.24940723 0.15470485 0.31641406
-0.24892703 0.1544847 0.316055
-0.24844685 0.15426455 0.31569594
-0.24796665 0.15404442 0.31533688
-0.24798863 0.15388806 0.31408346
-0.2475104 0.15366881 0.31372586
-0.24703217 0.15344957 0.31336826
-0.24655394 0.15323031 0.31301063
-0.24607572 0.15301107 0.31265306
-0.24559748 0.15279181 0.31229544
-0.24511924 0.15257257 0.31193784
-0.24464102 0.15235332 0.31158024
-0.2441628 0.15213408 0.31122264
-0.24316476 0.15184295 0.31174618
-0.23431428 0.14828464 0.30893764
-0.2338282 0.14806181 0.30857417
-0.23334214 0.14783897 0.30821073
-0.23285607 0.14761612 0.30784726
-0.23236999 0.14739329 0.30748379
-0.23188393 0.14717044 0.30712032
-0.23139785 0.14694759 0.30675685
-0.23034886 0.1466331 0.3072423
-0.22986083 0.14640936 0.30687737
-0.2293728 0.14618562 0.30651245
-0.22888476 0.14596188 0.30614752
-0.22839673 0.14573814 0.30578259
-0.22693264 0.14506692 0.3046878
-0.22595659 0.14461944 0.30395794
-0.26487684 0.16215977 0.3256861
-0.26440057 0.16194141 0.32532996
-0.2639243 0.16172308 0.32497382
-0.26344803 0.16150472 0.32461768
-0.26297176 0.16128637 0.32426155
-0.26249549 0.16106802 0.32390541
-0.26201922 0.16084968 0.32354927
-0.26154295 0.16063133 0.32319313
-0.26106668 0.16041297 0.32283702
-0.2605904 0.16019462 0.32248089
-0.26011413 0.15997627 0.32212475
-0.25963789 0.15975793 0.32176861
-0.25916159 0.15953958 0.32141247
-0.25822511 0.15927953 0.32198304
-0.25774688 0.15906027 0.32162544
-0.25726867 0.15884103 0.32126784
-0.25679043 0.15862177 0.32091022
-0.25631219 0.15840253 0.32055265
-0.25583395 0.15818328 0.32019502
-0.25488377 0.15791695 0.32075536
-0.25440356 0.1576968 0.32039627
-0.25392339 0.15747665 0.32003722
-0.25344318 0.1572565 0.31967813
-0.25296301 0.15703636 0.31931907
-0.2524828 0.15681621 0.31896001
-0.25200263 0.15659606 0.31860095
-0.25152242 0.15637591 0.31824186
-0.25104225 0.15615577 0.31788281
-0.25056204 0.15593562 0.31752372
-0.25008187 0.15571547 0.31716466
-0.24960166 0.15549533 0.3168056
-0.24912149 0.15527518 0.31644654
-0.24864128 0.15505503 0.31608745
-0.24816111 0.1548349 0.3157284
-0.2476809 0.15461475 0.31536931
-0.24770406 0.15445606 0.31411579
-0.24722582 0.15423681 0.31375819
-0.24674758 0.15401757 0.31340057
-0.24626936 0.15379831 0.31304297
-0.24579114 0.15357907 0.31268537
-0.2453129 0.15335982 0.31232777
-0.24483468 0.15314057 0.31197017
-0.24435644 0.15292132 0.31161255
-0.24335921 0.15263343 0.31213772
-0.24287902 0.15241328 0.31177863
-0.23699595 0.15005472 0.30992121
-0.23651184 0.14983279 0.3095592
-0.23602773 0.14961083 0.30919719
-0.23451111 0.14908481 0.30933398
-0.23402503 0.14886196 0.30897051
-0.23353896 0.14863913 0.30860704
-0.23305289 0.14841628 0.30824357
-0.23256682 0.14819343 0.3078801
-0.23208076 0.14797059 0.30751663
-0.23159468 0.14774776 0.30715317
-0.23054647 0.14743648 0.30764022
-0.23005845 0.14721274 0.3072753
-0.22957042 0.146989 0.30691037
-0.22908239 0.14676526 0.30654544
-0.22859436 0.14654152 0.30618051
-0.22810632 0.14631778 0.30581558
-0.22664224 0.14564656 0.30472076
-0.22557443 0.1453263 0.30519313
-0.26459342 0.16272545 0.32571831
-0.26411715 0.16250709 0.32536218
-0.26364088 0.16228876 0.32500604
-0.26316461 0.16207039 0.3246499
-0.26268834 0.16185205 0.32429376
-0.2622121 0.1616337 0.32393762
-0.2617358 0.16141534 0.32358149
-0.26125956 0.16119699 0.32322535
-0.26078326 0.16097865 0.32286921
-0.26030701 0.1607603 0.32251307
-0.25983071 0.16054195 0.32215694
-0.25935447 0.16032359 0.3218008
-0.25887817 0.16010524 0.32144466
-0.25840193 0.1598869 0.32108852
-0.25792566 0.15966855 0.32073238
-0.25698408 0.15940902 0.32130015
-0.25650585 0.15918978 0.32094258
-0.25602761 0.15897053 0.32058495
-0.25554937 0.15875128 0.32022735
-0.25507116 0.15853202 0.31986976
-0.25459293 0.15831278 0.31951216
-0.25363764 0.15804698 0.32006967
-0.25315744 0.15782683 0.31971061
-0.25267726 0.15760669 0.31935152
-0.25219706 0.15738654 0.31899247
-0.25171688 0.15716639 0.31863338
-0.25123668 0.15694624 0.31827432
-0.2507565 0.15672609 0.31791526
-0.2502763 0.15650594 0.3175562
-0.24979612 0.15628579 0.31719711
-0.24931592 0.15606566 0.31683806
-0.24883574 0.15584551 0.31647897
-0.24835554 0.15562536 0.31611991
-0.24787536 0.15540522 0.31576085
-0.24739516 0.15518507 0.31540179
-0.24741948 0.15502405 0.31414813
-0.24694124 0.15480481 0.3137905
-0.24646302 0.15458557 0.3134329
-0.24598479 0.15436631 0.3130753
-0.24550655 0.15414706 0.31271771
-0.24502833 0.15392782 0.31236011
-0.24455009 0.15370858 0.31200248
-0.24407187 0.15348932 0.31164491
-0.24359363 0.15327007 0.31128728
-0.24259327 0.15298361 0.31181109
-0.24211308 0.15276346 0.31145203
-0.24009664 0.15218331 0.3124879
-0.23961253 0.15196137 0.31212592
-0.23912843 0.15173942 0.31176394
-0.23864432 0.15151748 0.3114019
-0.23816021 0.15129554 0.31103992
-0.2376761 0.15107359 0.31067795
-0.23719199 0.15085165 0.31031591
-0.23670788 0.1506297 0.30995393
-0.23622377 0.15040776 0.30959192
-0.23573966 0.15018582 0.30922991
-0.23525555 0.14996387 0.30886793
-0.23477145 0.14974193 0.30850592
-0.2337358 0.14943928 0.30900335
-0.23324972 0.14921643 0.30863988
-0.23276365 0.14899358 0.30827641
-0.23227759 0.14877075 0.30791295
-0.23179151 0.1485479 0.30754948
-0.23074409 0.14823987 0.30803815
-0.23025607 0.14801612 0.30767322
-0.22976804 0.14779238 0.30730829
-0.22928001 0.14756864 0.30694336
-0.22879198 0.14734489 0.30657843
-0.22830395 0.14712116 0.3062135
-0.22781593 0.14689741 0.30584857
-0.22732788 0.14667368 0.30548364
-0.22626284 0.14635755 0.30595905
-0.22577286 0.14613292 0.30559266
-0.22528286 0.14590827 0.30522627
-0.22479287 0.14568363 0.30485988
-0.22363691 0.14463723 0.30017996
-0.26431 0.16329113 0.3257505
-0.26383376 0.16307276 0.32539436
-0.26335746 0.16285442 0.32503822
-0.26288122 0.16263607 0.32468209
-0.26284984 0.16244668 0.32338578
-0.26192868 0.16219938 0.32396981
-0.26145241 0.16198102 0.32361367
-0.26097614 0.16176267 0.32325754
-0.26049986 0.16154432 0.3229014
-0.26002359 0.16132598 0.32254529
-0.25954732 0.16110763 0.32218912
-0.25907105 0.16088927 0.32183301
-0.25859478 0.16067092 0.32147688
-0.25811851 0.16045257 0.32112074
-0.25764224 0.16023423 0.3207646
-0.25716597 0.16001588 0.32040846
-0.25622126 0.15975778 0.32097489
-0.25574303 0.15953854 0.32061729
-0.25526482 0.15931928 0.32025969
-0.25478658 0.15910003 0.31990206
-0.25430834 0.15888079 0.31954449
-0.25383013 0.15866154 0.31918687
-0.25287169 0.15839717 0.31974304
-0.25239152 0.15817702 0.31938398
-0.25191131 0.15795687 0.31902492
-0.25143114 0.15773672 0.31866586
-0.25095093 0.15751657 0.3183068
-0.25047076 0.15729642 0.31794772
-0.24999055 0.15707628 0.31758863
-0.24951038 0.15685613 0.31722957
-0.24903017 0.15663598 0.31687051
-0.24855 0.15641584 0.31651145
-0.24806979 0.1561957 0.31615239
-0.24758962 0.15597555 0.31579331
-0.24710941 0.1557554 0.31543425
-0.24713489 0.15559205 0.31418043
-0.24665667 0.15537281 0.31382284
-0.24617843 0.15515357 0.31346524
-0.24570021 0.15493432 0.31310761
-0.24522197 0.15471506 0.31275004
-0.24474375 0.15449582 0.31239241
-0.24426553 0.15427658 0.31203482
-0.24378729 0.15405732 0.31167722
-0.24330907 0.15383807 0.31131962
-0.24033776 0.15282589 0.31164348
-0.23985562 0.15260485 0.31128296
-0.23884036 0.15231441 0.31179667
-0.23889132 0.15216276 0.3105619
-0.23840916 0.15194172 0.31020135
-0.23792702 0.15172067 0.30984083
-0.23744486 0.15149963 0.30948031
-0.23696271 0.15127859 0.30911976
-0.23648056 0.15105754 0.30875921
-0.23545158 0.1507608 0.30926263
-0.23496747 0.15053886 0.30890065
-0.23344654 0.15001659 0.3090362
-0.23296048 0.14979374 0.30867273
-0.2324744 0.14957091 0.30830929
-0.23198834 0.14934807 0.30794582
-0.23150226 0.14912522 0.30758235
-0.23045368 0.14881951 0.30807114
-0.22996566 0.14859577 0.30770621
-0.22947763 0.14837202 0.30734128
-0.2289896 0.14814828 0.30697635
-0.22850157 0.14792454 0.30661142
-0.22801355 0.1477008 0.30624646
-0.2275255 0.14747706 0.30588156
-0.22646126 0.14716417 0.30635858
-0.22597127 0.14693952 0.30599219
-0.22548127 0.14671488 0.3056258
-0.22499129 0.14649025 0.30525941
-0.2245013 0.1462656 0.30489299
-0.22334884 0.1452122 0.30021268
-0.26493913 0.16409728 0.3251912
-0.26446486 0.16387983 0.32483655
-0.26399052 0.16366237 0.32448184
-0.26351622 0.16344494 0.3241272
-0.2625978 0.16320175 0.3247143
-0.26256761 0.16301003 0.32341784
-0.26209331 0.16279256 0.32306319
-0.26161897 0.16257513 0.32270849
-0.26114467 0.16235767 0.32235384
-0.26021644 0.16211 0.32293361
-0.25974017 0.16189164 0.32257748
-0.2592639 0.16167329 0.32222134
-0.25878763 0.16145495 0.3218652
-0.25831136 0.16123658 0.32150906
-0.25783509 0.16101825 0.32115293
-0.25735882 0.16079989 0.32079679
-0.25688255 0.16058154 0.32044065
-0.25640631 0.1603632 0.32008451
-0.25593001 0.16014484 0.31972837
-0.25498024 0.15988728 0.320292
-0.254502 0.15966803 0.3199344
-0.25402376 0.15944879 0.3195768
-0.25354552 0.15922953 0.3192192
-0.25306731 0.15901029 0.3188616
-0.25258908 0.15879104 0.31850398
-0.2516256 0.1585272 0.31905738
-0.25114539 0.15830705 0.31869832
-0.25066519 0.1580869 0.31833923
-0.25018501 0.15786676 0.31798017
-0.24970482 0.15764661 0.31762111
-0.24922463 0.15742646 0.31726205
-0.24874443 0.15720633 0.31690297
-0.24826425 0.15698618 0.31654391
-0.24778405 0.15676603 0.31618482
-0.24730387 0.15654588 0.31582576
-0.24682368 0.15632573 0.3154667
-0.24634349 0.15610558 0.31510764
-0.24637209 0.15594082 0.31385517
-0.24589387 0.15572156 0.31349754
-0.24541563 0.15550232 0.31313998
-0.2449374 0.15528306 0.31278235
-0.24445917 0.15506382 0.31242475
-0.24398094 0.15484457 0.31206715
-0.24350271 0.15462533 0.31170955
-0.24302448 0.15440607 0.31135195
-0.23908655 0.15295646 0.31095502
-0.2386044 0.15273541 0.3105945
-0.23812225 0.15251437 0.31023395
-0.2376401 0.15229332 0.3098734
-0.23715796 0.15207228 0.30951288
-0.2366758 0.15185124 0.30915236
-0.23619366 0.15163019 0.30879182
-0.23516351 0.15133579 0.30929536
-0.23371118 0.15066996 0.30820936
-0.23267123 0.15037106 0.3087056
-0.23218517 0.15014821 0.30834216
-0.23169909 0.14992538 0.30797869
-0.23121303 0.14970253 0.30761522
-0.23016328 0.14939915 0.30810413
-0.22967525 0.14917541 0.3077392
-0.22918722 0.14895166 0.30737427
-0.22869919 0.14872792 0.30700934
-0.22821116 0.14850417 0.30664438
-0.22772314 0.14828044 0.30627948
-0.22723511 0.14805669 0.30591452
-0.22616968 0.14774613 0.30639172
-0.2256797 0.1475215 0.3060253
-0.2251897 0.14729685 0.30565891
-0.22469971 0.14707221 0.30529252
-0.22420973 0.14684758 0.3049261
-0.22371973 0.14662293 0.30455971
-0.22306076 0.14578719 0.3002454
-0.2646569 0.16466063 0.32522327
-0.2641826 0.16444317 0.32486859
-0.26370829 0.16422573 0.32451391
-0.26323396 0.16400826 0.32415926
-0.26275969 0.16379082 0.32380459
-0.26228535 0.16357335 0.32344991
-0.26181105 0.16335592 0.32309523
-0.26133674 0.16313846 0.32274055
-0.26086241 0.16292101 0.32238591
-0.26038814 0.16270357 0.32203123
-0.2599138 0.16248611 0.32167655
-0.2594395 0.16226867 0.32132187
-0.25896519 0.1620512 0.3209672
-0.25802797 0.16180226 0.32154125
-0.25755167 0.16158392 0.32118511
-0.25707543 0.16136557 0.32082897
-0.25659913 0.16114721 0.32047284
-0.25612289 0.16092886 0.3201167
-0.25564662 0.16071051 0.31976056
-0.25517035 0.16049217 0.31940442
-0.25469407 0.16027382 0.31904829
-0.25373918 0.16001679 0.31960914
-0.25326097 0.15979753 0.31925154
-0.25278273 0.15957829 0.31889391
-0.25230449 0.15935904 0.31853634
-0.25182629 0.1591398 0.31817871
-0.25134805 0.15892054 0.31782112
-0.25037944 0.15865722 0.31837171
-0.24989927 0.15843709 0.31801265
-0.24941908 0.15821694 0.31765357
-0.24893889 0.15799679 0.31729448
-0.2484587 0.15777665 0.31693542
-0.24797851 0.1575565 0.31657636
-0.24749832 0.15733635 0.3162173
-0.24701813 0.1571162 0.31585824
-0.24653794 0.15689605 0.31549916
-0.24605775 0.1566759 0.31514007
-0.24608752 0.15650882 0.31388748
-0.24560928 0.15628956 0.31352988
-0.24513106 0.15607032 0.31317228
-0.24465282 0.15585107 0.31281468
-0.2441746 0.15563183 0.31245708
-0.24369636 0.15541257 0.31209946
-0.24321814 0.15519333 0.31174189
-0.24125585 0.15447444 0.31154943
-0.23933509 0.15359385 0.31011313
-0.23831749 0.15330806 0.31062707
-0.23783535 0.15308702 0.31026655
-0.23735319 0.15286598 0.30990601
-0.23687105 0.15264493 0.30954546
-0.23638889 0.15242389 0.30918494
-0.23590675 0.15220284 0.30882442
-0.23542459 0.1519818 0.30846387
-0.23439132 0.15168883 0.3089661
-0.23390721 0.15146688 0.30860412
-0.2334231 0.15124494 0.30824208
-0.232382 0.15094838 0.30873847
-0.23189592 0.15072553 0.308375
-0.23140985 0.15050268 0.30801153
-0.23092379 0.15027985 0.30764806
-0.23043771 0.150057 0.30728459
-0.22938484 0.14975505 0.30777216
-0.22889681 0.1495313 0.30740726
-0.22840878 0.14930756 0.3070423
-0.22792076 0.14908382 0.3066774
-0.22743273 0.14886008 0.30631244
-0.22694468 0.14863634 0.30594754
-0.2258781 0.1483281 0.30642483
-0.22538811 0.14810345 0.30605841
-0.22489813 0.14787881 0.30569202
-0.22440813 0.14765418 0.30532563
-0.22391815 0.14742953 0.30495924
-0.22342816 0.14720489 0.30459285
-0.22293817 0.14698026 0.30422646
-0.22277269 0.14636217 0.30027813
-0.26437467 0.16522396 0.32525533
-0.26390034 0.16500652 0.32490066
-0.26342604 0.16478905 0.32454598
-0.26295173 0.16457161 0.32419133
-0.26247743 0.16435416 0.32383662
-0.26200312 0.16413671 0.32348198
-0.26152879 0.16391926 0.3231273
-0.26105449 0.1637018 0.32277262
-0.26058018 0.16348436 0.32241797
-0.26010588 0.1632669 0.32206327
-0.25963157 0.16304946 0.32170862
-0.25915724 0.16283199 0.32135394
-0.25822082 0.16258629 0.32192957
-0.25774455 0.16236794 0.32157344
-0.25726828 0.16214958 0.3212173
-0.25679201 0.16193125 0.32086116
-0.25631574 0.16171288 0.32050502
-0.25583947 0.16149454 0.32014889
-0.2553632 0.16127619 0.31979275
-0.25488693 0.16105784 0.31943661
-0.25441065 0.1608395 0.31908047
-0.25393438 0.16062114 0.31872433
-0.25297639 0.16036554 0.31928384
-0.25249815 0.1601463 0.31892624
-0.25201994 0.15992704 0.31856865
-0.2515417 0.15970778 0.31821105
-0.25106347 0.15948854 0.31785345
-0.25058523 0.1592693 0.31749582
-0.25010699 0.15905005 0.31713825
-0.24913333 0.15878727 0.31768602
-0.24865314 0.15856712 0.31732696
-0.24817295 0.15834698 0.3169679
-0.24769276 0.15812683 0.31660882
-0.24721257 0.15790668 0.31624976
-0.24673238 0.15768653 0.31589067
-0.24625219 0.15746638 0.31553161
-0.24628118 0.15729606 0.31427741
-0.24580294 0.15707681 0.31391981
-0.2453247 0.15685757 0.31356221
-0.24484648 0.15663832 0.31320462
-0.24436826 0.15641907 0.31284702
-0.24389002 0.15619981 0.31248939
-0.24341179 0.15598057 0.31213182
-0.24293356 0.15576133 0.31177419
-0.24245533 0.15554208 0.3114166
-0.2419771 0.15532282 0.311059
-0.23856916 0.15394403 0.30978653
-0.23754844 0.15365969 0.31029916
-0.23706628 0.15343864 0.30993861
-0.23658413 0.15321758 0.30957806
-0.23610198 0.15299654 0.30921754
-0.23561984 0.1527755 0.30885702
-0.23513769 0.15255445 0.30849648
-0.23465553 0.15233341 0.30813593
-0.23361914 0.15204187 0.30863684
-0.23313503 0.15181991 0.30827481
-0.23265092 0.15159798 0.30791283
-0.23160668 0.15130284 0.30840784
-0.23112062 0.15108 0.30804437
-0.23063454 0.15085715 0.3076809
-0.23014848 0.15063432 0.30731744
-0.22909443 0.15033469 0.30780518
-0.2286064 0.15011095 0.30744022
-0.22811837 0.1498872 0.30707532
-0.22763035 0.14966346 0.30671036
-0.22714232 0.14943972 0.30634546
-0.22665429 0.14921598 0.3059805
-0.22616625 0.14899224 0.3056156
-0.22509654 0.14868543 0.30609155
-0.22460656 0.14846078 0.30572516
-0.22411656 0.14823614 0.30535877
-0.22362657 0.14801151 0.30499238
-0.22313659 0.14778686 0.30462596
-0.22264659 0.14756222 0.30425957
-0.22275005 0.14742605 0.30306107
-0.26361811 0.16556987 0.32493272
-0.26314378 0.1653524 0.32457805
-0.2626695 0.16513497 0.32422337
-0.26219517 0.1649175 0.32386869
-0.26172087 0.16470006 0.32351404
-0.26124656 0.16448261 0.32315937
-0.26077226 0.16426516 0.32280469
-0.26029795 0.1640477 0.32245001
-0.25982362 0.16383025 0.32209533
-0.25934932 0.16361281 0.32174069
-0.25887501 0.16339535 0.32138601
-0.25840071 0.16317791 0.32103133
-0.2579264 0.16296044 0.32067665
-0.25698486 0.16271526 0.32124949
-0.25650859 0.16249691 0.32089335
-0.25603232 0.16227856 0.32053721
-0.25555605 0.1620602 0.32018107
-0.25507978 0.16184187 0.31982493
-0.25460351 0.16162351 0.3194688
-0.25412726 0.16140516 0.31911266
-0.25365096 0.16118681 0.31875652
-0.25317472 0.16096847 0.31840038
-0.25269842 0.16075012 0.31804425
-0.25173533 0.16049504 0.31860098
-0.25125712 0.16027579 0.31824338
-0.25077888 0.16005655 0.31788576
-0.25030065 0.15983731 0.31752816
-0.24982244 0.15961805 0.31717056
-0.2493442 0.15939879 0.31681296
-0.2483674 0.15913744 0.31735942
-0.24788721 0.15891731 0.31700033
-0.24740702 0.15869716 0.31664127
-0.24692683 0.15847701 0.31628221
-0.24644664 0.15825686 0.31592315
-0.24647482 0.15808332 0.31466734
-0.24599659 0.15786406 0.31430975
-0.24551836 0.15764481 0.31395215
-0.24504013 0.15742557 0.31359452
-0.2445619 0.15720633 0.31323695
-0.24408367 0.15698707 0.31287932
-0.24360543 0.15676782 0.31252173
-0.24312721 0.15654857 0.31216413
-0.24264897 0.15632933 0.31180653
-0.24217075 0.15611008 0.31144893
-0.24169251 0.15589082 0.3110913
-0.23780322 0.15429422 0.30945992
-0.23732303 0.15407407 0.30910087
-0.23629722 0.15379024 0.30961066
-0.23581508 0.15356919 0.30925012
-0.23533292 0.15334815 0.3088896
-0.23485078 0.1531271 0.30852908
-0.23436862 0.15290606 0.30816853
-0.23333105 0.15261684 0.30866957
-0.23284695 0.15239491 0.30830753
-0.23236284 0.15217295 0.30794555
-0.23187873 0.15195101 0.30758357
-0.23083137 0.15165731 0.30807725
-0.23034531 0.15143447 0.30771378
-0.22985923 0.15121162 0.30735031
-0.22937316 0.15098879 0.30698687
-0.2288871 0.15076594 0.3066234
-0.22782797 0.15046684 0.30710828
-0.22733994 0.1502431 0.30674338
-0.22685191 0.15001935 0.30637842
-0.22636387 0.14979562 0.30601352
-0.22587585 0.14957187 0.30564857
-0.22538781 0.14934814 0.30528367
-0.22431497 0.14904276 0.30575827
-0.22382499 0.14881811 0.30539188
-0.223335 0.14859347 0.30502546
-0.22284502 0.14836884 0.30465907
-0.22235502 0.14814419 0.30429268
-0.22245964 0.14800569 0.30309406
-0.22256818 0.14786899 0.30189836
-0.26333585 0.1661332 0.32496476
-0.26241669 0.16590112 0.32555532
-0.26238725 0.16569829 0.32425544
-0.26146415 0.16546443 0.32484305
-0.26143861 0.1652634 0.32354611
-0.2609643 0.16504595 0.3231914
-0.26049 0.16482851 0.32283676
-0.2600157 0.16461104 0.32248208
-0.25954139 0.1643936 0.3221274
-0.25906706 0.16417614 0.32177275
-0.25813025 0.16393599 0.32235008
-0.25811845 0.16374125 0.3210634
-0.25717771 0.16349928 0.32163781
-0.25670147 0.16328093 0.32128167
-0.25622517 0.16306257 0.32092553
-0.25574893 0.16284424 0.3205694
-0.25527266 0.16262588 0.32021326
-0.25479639 0.16240753 0.31985712
-0.25432011 0.16218919 0.31950101
-0.25384384 0.16197082 0.31914487
-0.25336757 0.16175249 0.31878874
-0.2528913 0.16153413 0.3184326
-0.25241503 0.16131578 0.31807646
-0.25193876 0.16109744 0.31772032
-0.25146249 0.16087909 0.31736419
-0.2504943 0.16062455 0.31791809
-0.25001609 0.16040531 0.31756049
-0.24953786 0.16018605 0.3172029
-0.24905962 0.1599668 0.3168453
-0.24858139 0.15974756 0.31648767
-0.24810317 0.15952832 0.3161301
-0.24762493 0.15930906 0.31577247
-0.24664108 0.15904734 0.31631467
-0.24616089 0.15882719 0.31595561
-0.24619025 0.15865132 0.31469968
-0.24571201 0.15843207 0.31434208
-0.24523379 0.15821281 0.31398445
-0.24475555 0.15799357 0.31362689
-0.24427733 0.15777433 0.31326926
-0.24379909 0.15755507 0.31291166
-0.24332087 0.15733582 0.31255406
-0.24284263 0.15711658 0.31219643
-0.24236441 0.15689734 0.31183887
-0.24188617 0.15667808 0.31148124
-0.24140795 0.15645882 0.31112364
-0.24092972 0.15623958 0.31076604
-0.24045148 0.15602034 0.31040844
-0.23997326 0.15580109 0.31005085
-0.23799767 0.15508468 0.30985144
-0.23751748 0.15486455 0.30949238
-0.23703729 0.1546444 0.30913329
-0.2365571 0.15442425 0.30877423
-0.23552817 0.15414186 0.30928272
-0.23504601 0.1539208 0.30892217
-0.23456387 0.15369976 0.30856165
-0.23408172 0.15347871 0.30820113
-0.23359957 0.15325767 0.30784059
-0.23255888 0.1529699 0.30834025
-0.23207477 0.15274794 0.30797827
-0.23159066 0.15252601 0.30761629
-0.23110655 0.15230405 0.30725425
-0.23005606 0.15201178 0.30774665
-0.22956999 0.15178894 0.30738318
-0.22908393 0.15156609 0.30701971
-0.22859785 0.15134326 0.30665624
-0.22811177 0.15112041 0.30629277
-0.22704953 0.15082273 0.30677634
-0.2265615 0.150599 0.30641145
-0.22607347 0.15037525 0.30604649
-0.22558543 0.15015152 0.30568156
-0.22509742 0.14992777 0.30531663
-0.22460938 0.14970404 0.3049517
-0.22412135 0.14948028 0.30458677
-0.22304343 0.14917544 0.3050586
-0.22255343 0.1489508 0.30469221
-0.22265726 0.14880908 0.30349198
-0.22216924 0.14858532 0.30312705
-0.22190847 0.14808713 0.3003763
-0.2621333 0.1664668 0.32558751
-0.26210499 0.16626164 0.3242875
-0.26118076 0.16603011 0.32487524
-0.26115638 0.16582674 0.32357815
-0.26068208 0.1656093 0.32322347
-0.26020777 0.16539183 0.32286882
-0.25927567 0.16515669 0.32345068
-0.25925913 0.16495694 0.32215947
-0.25832313 0.16472 0.32273844
-0.25784686 0.16450165 0.3223823
-0.25737059 0.16428331 0.32202616
-0.25689432 0.16406494 0.32167003
-0.25641805 0.16384661 0.32131389
-0.25594178 0.16362825 0.32095775
-0.25546551 0.1634099 0.32060161
-0.25498924 0.16319156 0.32024547
-0.25451297 0.1629732 0.31988934
-0.25403669 0.16275486 0.3195332
-0.25356042 0.1625365 0.31917706
-0.25308415 0.16231816 0.31882092
-0.25260788 0.16209981 0.31846479
-0.25213161 0.16188145 0.31810865
-0.25165534 0.16166312 0.31775251
-0.25117907 0.16144475 0.31739637
-0.2507028 0.16122641 0.31704023
-0.24973151 0.1609733 0.3175928
-0.24925327 0.16075405 0.31723523
-0.24877505 0.1605348 0.3168776
-0.24829681 0.16031556 0.31652001
-0.24781859 0.1600963 0.31616241
-0.24734035 0.15987706 0.31580481
-0.24686213 0.15965781 0.31544721
-0.24638391 0.15943857 0.31508958
-0.24590567 0.15921932 0.31473202
-0.24542743 0.15900007 0.31437439
-0.24494921 0.15878081 0.31401679
-0.24447098 0.15856157 0.31365919
-0.24399275 0.15834232 0.31330159
-0.24351452 0.15812308 0.31294399
-0.24303629 0.15790382 0.31258637
-0.24255806 0.15768458 0.3122288
-0.24207982 0.15746532 0.31187117
-0.24212995 0.15729612 0.31062979
-0.24117741 0.15685941 0.30991751
-0.2401669 0.15658833 0.31044078
-0.23968868 0.15636909 0.31008315
-0.23921046 0.15614983 0.30972558
-0.23873222 0.15593059 0.30936795
-0.23771192 0.15565501 0.30988389
-0.23723173 0.15543488 0.30952483
-0.23675156 0.15521473 0.30916578
-0.23627135 0.15499458 0.30880672
-0.23579118 0.15477443 0.30844763
-0.23427695 0.15427242 0.30859423
-0.23379481 0.15405138 0.30823371
-0.23331267 0.15383033 0.30787319
-0.23283051 0.15360929 0.30751264
-0.2317867 0.15332292 0.308011
-0.23130259 0.15310098 0.30764902
-0.23081847 0.15287903 0.30728698
-0.23033436 0.15265709 0.306925
-0.22985025 0.15243515 0.30656302
-0.22879468 0.1521434 0.30705255
-0.2283086 0.15192056 0.30668908
-0.22782254 0.15169773 0.30632561
-0.22733647 0.15147488 0.30596215
-0.22685041 0.15125203 0.30559871
-0.22578306 0.15095489 0.30607948
-0.22529504 0.15073115 0.30571455
-0.22480699 0.15050741 0.30534962
-0.22431897 0.15028366 0.30498469
-0.22383094 0.15005992 0.30461976
-0.22334291 0.14983618 0.30425483
-0.22285488 0.14961244 0.3038899
-0.22236685 0.1493887 0.30352497
-0.22187883 0.14916496 0.30316004
-0.26089734 0.16659577 0.32490745
-0.25946853 0.16594073 0.32383904
-0.25899225 0.16572237 0.3234829
-0.25851598 0.16550402 0.32312676
-0.25803971 0.16528568 0.32277063
-0.25756344 0.16506732 0.32241449
-0.25708717 0.16484898 0.32205835
-0.2566109 0.16463062 0.32170221
-0.25613463 0.16441227 0.32134607
-0.25565836 0.16419393 0.32098994
-0.25518209 0.16397557 0.3206338
-0.25470585 0.16375723 0.32027766
-0.25422955 0.16353887 0.31992152
-0.2537533 0.16332053 0.31956539
-0.253277 0.16310218 0.31920925
-0.25280076 0.16288382 0.31885311
-0.25232446 0.16266549 0.31849697
-0.25184822 0.16244712 0.31814086
-0.25137195 0.16222878 0.31778473
-0.25089568 0.16201043 0.31742859
-0.25041938 0.16179207 0.31707242
-0.24994314 0.16157374 0.31671631
-0.24896869 0.16132206 0.31726754
-0.24849047 0.1611028 0.31690994
-0.24801224 0.16088355 0.31655234
-0.24753401 0.16066431 0.31619474
-0.24705578 0.16044506 0.31583714
-0.24657756 0.16022581 0.31547952
-0.24609932 0.16000655 0.31512195
-0.24562109 0.15978731 0.31476432
-0.24514286 0.15956807 0.31440672
-0.24466464 0.15934882 0.31404912
-0.2441864 0.15912956 0.3136915
-0.24370816 0.15891032 0.31333393
-0.24322994 0.15869108 0.3129763
-0.24275172 0.15847182 0.3126187
-0.24227348 0.15825257 0.3122611
-0.2423228 0.15808013 0.31101811
-0.24184655 0.15786178 0.31066197
-0.240894 0.15742509 0.3099497
-0.24041773 0.15720674 0.30959356
-0.2394041 0.15693709 0.31011549
-0.23892587 0.15671784 0.30975789
-0.23844764 0.15649858 0.30940029
-0.23796941 0.15627934 0.30904269
-0.236946 0.1560052 0.30955729
-0.23598561 0.1555649 0.30883914
-0.2335079 0.15462403 0.30826628
-0.23302576 0.15440299 0.30790576
-0.2325436 0.15418194 0.30754524
-0.23206145 0.15396088 0.3071847
-0.2315793 0.15373984 0.30682415
-0.2305304 0.15345402 0.3073197
-0.23004629 0.15323208 0.30695772
-0.22956218 0.15301013 0.30659574
-0.22907807 0.15278819 0.3062337
-0.22801937 0.15249787 0.30672196
-0.2275333 0.15227503 0.30635849
-0.22704723 0.15205219 0.30599502
-0.22656116 0.15182935 0.30563158
-0.22607508 0.1516065 0.30526811
-0.22500461 0.1513108 0.30574754
-0.2245166 0.15108705 0.30538261
-0.22402856 0.15086332 0.30501768
-0.22354053 0.15063956 0.30465275
-0.2230525 0.15041584 0.30428782
-0.25918511 0.16650641 0.32387123
-0.25870883 0.16628805 0.32351509
-0.25823259 0.1660697 0.32315895
-0.25775629 0.16585135 0.32280284
-0.25728005 0.16563299 0.32244667
-0.25680375 0.16541466 0.32209057
-0.25632751 0.1651963 0.32173443
-0.25585121 0.16497795 0.32137829
-0.25537497 0.16475961 0.32102215
-0.25489867 0.16454124 0.32066602
-0.25442243 0.16432291 0.32030988
-0.25394613 0.16410455 0.31995374
-0.25346988 0.1638862 0.3195976
-0.25299361 0.16366786 0.31924146
-0.25251734 0.1634495 0.31888533
-0.25204107 0.16323116 0.31852919
-0.2515648 0.1630128 0.31817305
-0.25108853 0.16279446 0.31781691
-0.25061226 0.16257611 0.31746078
-0.25013599 0.16235775 0.31710464
-0.24965972 0.16213942 0.3167485
-0.24918345 0.16192105 0.31639236
-0.2482059 0.1616708 0.31694227
-0.24772766 0.16145155 0.31658465
-0.24724942 0.16123231 0.31622708
-0.2467712 0.16101305 0.31586945
-0.24629298 0.16079381 0.31551185
-0.24581474 0.16057456 0.31515425
-0.24533652 0.16035531 0.31479666
-0.24485828 0.16013606 0.31443906
-0.24438006 0.15991682 0.31408143
-0.24390182 0.15969756 0.31372386
-0.2434236 0.15947832 0.31336623
-0.24294536 0.15925907 0.31300864
-0.24246714 0.15903983 0.31265104
-0.24251567 0.15886417 0.31140643
-0.2420394 0.15864581 0.3110503
-0.24156313 0.15842746 0.31069416
-0.24108686 0.15820912 0.31033802
-0.24061058 0.15799075 0.30998188
-0.24013431 0.15777242 0.30962574
-0.23965804 0.15755406 0.30926961
-0.23918177 0.15733571 0.30891347
-0.23816307 0.15706658 0.30943263
-0.23768483 0.15684734 0.309075
-0.23720661 0.15662809 0.3087174
-0.23273884 0.15497564 0.30793834
-0.2322567 0.15475459 0.30757782
-0.23177454 0.15453355 0.3072173
-0.2312924 0.15431251 0.30685675
-0.23081024 0.15409146 0.3064962
-0.23032808 0.15387042 0.30613568
-0.22927409 0.15358512 0.30662847
-0.22878999 0.15336317 0.30626643
-0.22830588 0.15314123 0.30590445
-0.22782177 0.15291929 0.30554247
-0.22675799 0.15262949 0.30602789
-0.22627191 0.15240666 0.30566442
-0.22578585 0.15218382 0.30530095
-0.22529978 0.15196097 0.30493748
-0.2248137 0.15173814 0.30457401
-0.22432764 0.15151529 0.30421054
-0.22384156 0.15129244 0.30384707
-0.22276209 0.15099546 0.30432081
-0.22286943 0.15084676 0.30312017
-0.22189729 0.15040109 0.30239323
-0.22201246 0.15025596 0.30119845
-0.22152835 0.15003401 0.30083644
-0.25937799 0.16729042 0.32425958
-0.25890172 0.16707206 0.32390344
-0.25842544 0.16685373 0.3235473
-0.25794917 0.16663536 0.32319117
-0.2574729 0.16641703 0.32283503
-0.25699663 0.16619867 0.32247889
-0.25652036 0.16598032 0.32212275
-0.25604409 0.16576198 0.32176661
-0.25556782 0.16554362 0.32141048
-0.25509155 0.16532527 0.32105434
-0.25461528 0.16510692 0.3206982
-0.25413901 0.16488856 0.32034206
-0.25366274 0.16467023 0.31998593
-0.25318646 0.16445187 0.31962979
-0.25271019 0.16423354 0.31927365
-0.25223392 0.16401517 0.31891751
-0.25175765 0.16379683 0.31856138
-0.25128138 0.16357848 0.31820524
-0.25080511 0.16336012 0.3178491
-0.25032884 0.16314177 0.31749296
-0.24985257 0.16292343 0.31713682
-0.2493763 0.16270506 0.31678069
-0.24890004 0.16248673 0.31642455
-0.24842377 0.16226837 0.31606841
-0.24744308 0.16201955 0.31661701
-0.24696486 0.16180031 0.31625938
-0.24648663 0.16158107 0.31590179
-0.2460084 0.16136181 0.31554419
-0.24553016 0.16114256 0.31518659
-0.24505194 0.16092332 0.31482899
-0.24457371 0.16070406 0.31447136
-0.24409547 0.16048482 0.31411377
-0.24413733 0.16030324 0.31286317
-0.24366108 0.16008487 0.31250703
-0.2431848 0.15986653 0.3121509
-0.24270853 0.15964818 0.31179476
-0.24223226 0.15942983 0.31143862
-0.24175599 0.15921149 0.31108248
-0.24127972 0.15899312 0.31072634
-0.24080345 0.15877478 0.31037021
-0.24032718 0.15855643 0.31001407
-0.23985091 0.15833808 0.30965793
-0.23937464 0.15811974 0.30930179
-0.23889837 0.15790138 0.30894566
-0.2384221 0.15768303 0.30858952
-0.23740026 0.15741535 0.30910733
-0.23301318 0.15560482 0.30710873
-0.23253299 0.15538469 0.30674967
-0.2320528 0.15516454 0.30639058
-0.23157261 0.15494439 0.30603153
-0.23052333 0.15466411 0.30652881
-0.23004118 0.15444307 0.30616829
-0.22955903 0.15422203 0.30580774
-0.22907688 0.15400098 0.30544722
-0.22801781 0.15371622 0.30593717
-0.2275337 0.15349427 0.30557519
-0.22704959 0.15327233 0.30521315
-0.22656548 0.15305039 0.30485117
-0.22549661 0.15276113 0.30533379
-0.22501053 0.15253828 0.30497032
-0.22452447 0.15231544 0.30460685
-0.22403839 0.15209261 0.30424342
-0.22355233 0.15186976 0.30387995
