# .PCD v0.7 - Point Cloud Data file format
VERSION 0.7
FIELDS x y z
SIZE 4 4 4
TYPE F F F
COUNT 1 1 1
WIDTH 1365
HEIGHT 1
VIEWPOINT 0 0 0 1 0 0 0
POINTS 1365
DATA ascii
0.094303608 0.01614986 0.48122346
0.10205466 0.019348634 0.48003149
0.069333866 0.020767665 0.48902845
0.075505383 0.024109645 0.48790154
0.084511295 0.024799673 0.48562253
0.095113859 0.025035409 0.48360839
0.10490863 0.025784161 0.48106524
0.1142803 0.027706455 0.48003194
0.077766545 0.032004885 0.48862833
0.085097857 0.034549527 0.4872545
0.094777085 0.034550697 0.48551387
0.10483853 0.03491069 0.48348033
0.11510312 0.035448212 0.48115444
0.12241135 0.036507864 0.48046666
0.087886415 0.04123947 0.48902851
0.096028581 0.04263179 0.48827153
0.10507072 0.044651903 0.48599797
0.11456674 0.044209667 0.48211691
0.12499336 0.044165395 0.48278761
0.10502431 0.051370546 0.48902923
0.15939857 0.08359693 0.48003152
0.16501461 0.086737499 0.48081967
0.17119657 0.088247061 0.48003221
0.16654548 0.09323822 0.48100361
0.17116013 0.092108488 0.48003191
-0.14386374 -0.19024622 0.49902609
-0.14198652 -0.18618067 0.49882594
-0.13512407 -0.18482792 0.49714115
-0.12507243 -0.18471038 0.4950456
-0.11503415 -0.18424161 0.49381667
-0.10726614 -0.18383399 0.4909853
-0.13428189 -0.17550057 0.49837866
-0.12490973 -0.17480545 0.49657667
-0.11498929 -0.1747926 0.4942891
-0.10570963 -0.17505817 0.49141842
-0.13215946 -0.16752794 0.49902537
-0.12485287 -0.16482066 0.49863589
-0.11492723 -0.16518612 0.49689752
-0.10507488 -0.16490921 0.49271172
-0.12240405 -0.15902019 0.49902552
-0.11367128 -0.15641005 0.49864382
-0.10508694 -0.15514553 0.49477679
-0.098492503 -0.15397713 0.49102733
-0.11004689 -0.14991151 0.49902591
-0.10340908 -0.14631675 0.49805185
-0.098908134 -0.14588296 0.49644324
-0.10126768 -0.13852684 0.49902582
-0.097278774 -0.13595745 0.49897835
0.019822262 -0.020885339 0.49402732
0.025839772 -0.0218422 0.49097794
0.031797893 -0.020714084 0.49002838
0.0077584409 -0.01208394 0.49835888
0.015960468 -0.014395246 0.49579579
0.025126942 -0.015205228 0.49364826
0.03438608 -0.014665758 0.49134994
0.04058921 -0.012571374 0.49015349
0.0086371573 -0.0080894865 0.49902532
0.015808938 -0.0052028093 0.49790514
0.025047068 -0.0047986419 0.49559811
0.03454591 -0.0047697672 0.49290219
0.04233098 -0.0037379384 0.49060863
0.018154304 0.0017617821 0.49888253
0.025000578 0.0047059474 0.49780589
0.034720145 0.0048925844 0.49540171
0.044824846 0.0048716888 0.49290252
0.052826833 0.0070300461 0.49095398
0.026992196 0.014147166 0.49899495
0.034834012 0.014624813 0.49705729
0.044942413 0.014540892 0.49421427
0.054808337 0.01508774 0.49170607
0.062757365 0.017327694 0.490381
0.028601054 0.021575166 0.49902478
0.03554596 0.024280231 0.4982945
0.045075398 0.024929171 0.49571329
0.055092119 0.024783112 0.49280813
0.065067872 0.024850322 0.49162441
0.071493663 0.027281687 0.49025032
0.039527148 0.030943779 0.49902499
0.046241961 0.034149121 0.49807194
0.055317897 0.035208654 0.49486974
0.065400295 0.035077263 0.49304244
0.07455992 0.035803512 0.4912726
0.080969542 0.03869665 0.49002808
0.049459137 0.044073068 0.49902487
0.055423807 0.04498608 0.49734014
0.064902946 0.044939928 0.49492991
0.074776456 0.044959154 0.49331015
0.084272705 0.045807667 0.49161705
0.094050817 0.047479533 0.4910579
0.10062351 0.049166471 0.49036232
0.048644062 0.053240214 0.49829075
0.054594476 0.053327296 0.49715272
0.063857041 0.05139843 0.49607098
0.071816735 0.050781596 0.49488348
0.084676102 0.051144347 0.49302745
0.095524535 0.051897399 0.49226362
0.10200448 0.052522808 0.49086222
-0.19053848 -0.19273953 0.50902212
-0.18503012 -0.19209239 0.50887448
-0.17563361 -0.19180335 0.50798637
-0.16508792 -0.19180484 0.50625157
-0.15485658 -0.19111706 0.50302523
-0.14816229 -0.19075525 0.50035912
-0.18301956 -0.1887572 0.50902247
-0.17376515 -0.18589146 0.50880367
-0.164676 -0.18498592 0.50678295
-0.15492444 -0.18484616 0.50412261
-0.14654599 -0.18480228 0.50099987
-0.1713735 -0.17754939 0.50902259
-0.16447061 -0.1751956 0.50790972
-0.1547213 -0.17483114 0.50493622
-0.14466991 -0.1749468 0.50179261
-0.13860853 -0.17223929 0.50016797
-0.16142748 -0.16572605 0.50902259
-0.15483285 -0.16499777 0.50751352
-0.14524059 -0.16529307 0.50441694
-0.13607699 -0.16437693 0.50102466
-0.12938403 -0.1610781 0.50002503
-0.15347332 -0.15718937 0.50879198
-0.1448361 -0.15520558 0.50693691
-0.13449171 -0.15494376 0.50325364
-0.12519656 -0.15461595 0.50132108
-0.11681017 -0.15278403 0.50054407
-0.14288606 -0.14629275 0.50854123
-0.13490675 -0.14490105 0.50656712
-0.1248159 -0.14511819 0.50425017
-0.11471111 -0.14497507 0.50193763
-0.10753272 -0.14330228 0.50052559
-0.13374193 -0.13572508 0.50875425
-0.12504004 -0.13497041 0.50712848
-0.11507051 -0.13495298 0.50389946
-0.10561652 -0.1346093 0.50138366
-0.098104395 -0.13228616 0.50002557
-0.13149858 -0.12903319 0.50902236
-0.12420717 -0.12610169 0.50875968
-0.11517917 -0.12503488 0.50615084
-0.10476547 -0.12528479 0.50293982
-0.096153684 -0.12486912 0.50082004
-0.11324453 -0.11634921 0.50805527
-0.10495526 -0.11502821 0.5054754
-0.096110508 -0.11454937 0.50452435
-0.1038895 -0.1060904 0.50830871
-0.095068134 -0.10535052 0.50664431
-0.088850893 -0.10267553 0.5066908
-0.10031998 -0.096516237 0.50902259
-0.09494108 -0.095114313 0.50862998
-0.088071622 -0.093417764 0.50725877
-0.093440376 -0.086893596 0.50893557
-0.086432174 -0.084945202 0.5082978
-0.084683545 -0.078883357 0.50902259
-0.022042552 -0.010911043 0.50902283
-0.014305381 -0.010996439 0.50624579
-0.0055067074 -0.011327953 0.50310767
0.0022861341 -0.011907423 0.50038868
-0.022807457 -0.0055158972 0.50886101
-0.014677676 -0.0049121543 0.50646049
-0.0047466373 -0.0048844931 0.50388116
0.0045660599 -0.0043921494 0.50150669
0.011806998 -0.0011530527 0.50019169
-0.021248678 0.0020936523 0.50902188
-0.01453934 0.0048787771 0.50755936
-0.0047542299 0.0049730414 0.50453317
0.005098897 0.00496491 0.50343484
0.014455795 0.0053721042 0.50142014
0.02057888 0.0077995276 0.50002515
-0.01227484 0.013535424 0.5085932
-0.0047789435 0.014909497 0.50682598
0.0051073227 0.014839165 0.50450748
0.014908635 0.014778798 0.50239891
0.022051129 0.015290384 0.5004763
-0.0038206556 0.023927107 0.50861007
0.0051247398 0.02480294 0.50648689
0.015047234 0.024810299 0.50446332
0.024341622 0.025514362 0.50149858
0.032349646 0.028525643 0.50035793
-0.00081797695 0.030229608 0.50902146
0.0063029001 0.03212766 0.50868857
0.01514004 0.03473359 0.50777721
0.024824617 0.035223279 0.50439847
0.035087027 0.035122473 0.50189692
0.042344406 0.037051644 0.50040936
0.016207282 0.044811189 0.50880563
0.024952918 0.044656839 0.50700492
0.035266787 0.04488815 0.50471216
0.044714551 0.044903122 0.50111866
0.017756307 0.050668657 0.50902146
0.024293976 0.050962601 0.50866908
0.044602718 0.051229183 0.50091273
-0.22414039 -0.1953588 0.51901937
-0.2155102 -0.1936283 0.51828468
-0.20542653 -0.19314781 0.51430213
-0.19567402 -0.19266085 0.51078165
-0.18958378 -0.19045876 0.51002204
-0.21320356 -0.18688077 0.51868635
-0.20486851 -0.18501799 0.51685667
-0.19511744 -0.18515894 0.51366526
-0.18526402 -0.18474989 0.51141101
-0.17784742 -0.18279855 0.51042247
-0.20355874 -0.17487888 0.51869529
-0.19501476 -0.17505006 0.5170204
-0.18487449 -0.17503525 0.51354122
-0.1757559 -0.17469972 0.51086664
-0.16875674 -0.1713974 0.5100224
-0.20349991 -0.16571169 0.51856434
-0.1949278 -0.16512154 0.51747036
-0.18477021 -0.16488856 0.51476121
-0.17496951 -0.16515799 0.51197988
-0.16686475 -0.16443345 0.51061738
-0.19414598 -0.1590423 0.51863456
-0.1841729 -0.15588647 0.51711279
-0.17468841 -0.15509789 0.5135392
-0.1647066 -0.15476213 0.51160491
-0.15622464 -0.15335818 0.51062214
-0.14970283 -0.15056355 0.51002246
-0.18121141 -0.14871544 0.51901954
-0.17461169 -0.14565904 0.51749903
-0.1650503 -0.14493488 0.5152024
-0.15509407 -0.14526486 0.51244473
-0.14706841 -0.14372441 0.51067841
-0.17210253 -0.13888152 0.5190196
-0.16446134 -0.13569117 0.51772213
-0.15503162 -0.13521938 0.51476616
-0.14491051 -0.13486868 0.51176721
-0.13790074 -0.13316813 0.51028883
-0.16046938 -0.12074838 0.51901919
-0.15432632 -0.12499398 0.51785696
-0.14494604 -0.12513925 0.51404172
-0.13528298 -0.12457033 0.51103961
-0.12708683 -0.12233745 0.51023275
-0.16103706 -0.11696497 0.51890773
-0.15460704 -0.11549091 0.51810801
-0.14465496 -0.11518356 0.5161311
-0.13483395 -0.1149076 0.51412809
-0.1250557 -0.11504453 0.51260066
-0.11713308 -0.11366531 0.51082253
-0.14395432 -0.10600825 0.51841944
-0.13556014 -0.10482636 0.5164088
-0.12522408 -0.10498976 0.51413637
-0.11513563 -0.10496265 0.51188648
-0.10658558 -0.10246903 0.51043159
-0.14153053 -0.09796837 0.51901907
-0.13434038 -0.095377311 0.51795268
-0.12477726 -0.095270827 0.51573199
-0.11477689 -0.09498132 0.51364374
-0.10494851 -0.094815724 0.51089174
-0.13156772 -0.088691868 0.51885253
-0.12479167 -0.085204229 0.51701951
-0.1145471 -0.085037977 0.51398206
-0.10494721 -0.085089691 0.51214647
-0.096358895 -0.083165348 0.51038557
-0.12338002 -0.077256456 0.51777899
-0.11512735 -0.075082481 0.51620138
-0.10544507 -0.075011492 0.51380908
-0.094855398 -0.074978851 0.51130998
-0.085195459 -0.074240722 0.51056981
-0.11401141 -0.065499373 0.51813316
-0.1050828 -0.06521409 0.51570505
-0.094951957 -0.065393366 0.51347983
-0.085453309 -0.065061547 0.51283401
-0.079716399 -0.060491718 0.51302159
-0.11109336 -0.059851564 0.51901877
-0.10390941 -0.058575802 0.51831347
-0.094839491 -0.055260401 0.51709825
-0.085513867 -0.054923121 0.51477528
-0.078295231 -0.054745045 0.51287842
-0.093155816 -0.045237094 0.51841921
-0.085394986 -0.045000277 0.51588523
-0.075482771 -0.044870287 0.51258206
-0.091899671 -0.036720775 0.518852
-0.084918521 -0.035042427 0.51726049
-0.074636906 -0.035200283 0.51483649
-0.083670951 -0.025420593 0.51826251
-0.075170025 -0.025624624 0.51649004
-0.069319136 -0.027169183 0.51521987
-0.081107728 -0.018803203 0.51901823
-0.075246826 -0.016590284 0.5186435
-0.06845773 -0.012932781 0.51885217
-0.053589035 -0.0037445636 0.51763237
-0.045054965 -0.0027201509 0.51363307
-0.034678686 -0.0034966581 0.51135439
-0.027050614 -0.0034999894 0.5101583
-0.052969694 0.0040185144 0.51813889
-0.045210652 0.0050818138 0.51587665
-0.034921121 0.0050515989 0.51291311
-0.025182605 0.0053641065 0.51081663
-0.019430161 0.0083472366 0.51002157
-0.044047128 0.014214922 0.51801884
-0.035071205 0.015145938 0.51506668
-0.024876976 0.015072589 0.51255614
-0.016720064 0.016124101 0.51063228
-0.040748544 0.022021506 0.51901859
-0.034225222 0.02463926 0.51775712
-0.024984287 0.025198584 0.51469326
-0.014823669 0.025037898 0.51139557
-0.007027192 0.027196672 0.51022118
-0.031131739 0.031888731 0.51881868
-0.024631407 0.034161609 0.51760429
-0.014737147 0.034936424 0.51446986
-0.0049040206 0.035166111 0.51198423
0.0043209237 0.036982197 0.510616
0.011145234 0.03893356 0.51002187
-0.022203343 0.044595774 0.51871848
-0.015162067 0.045138549 0.51665246
-0.0048506255 0.045269638 0.51404047
0.0051733432 0.045076083 0.51182425
0.011698165 0.044916872 0.51002145
-0.021134527 0.052469004 0.51901799
-0.015001138 0.05139415 0.51726854
-0.0043864381 0.051734101 0.51484305
0.0054906192 0.052573539 0.51252025
0.015132231 0.054322813 0.51123148
0.020469617 0.054944925 0.51052141
0.015278385 0.060126901 0.51502061
-0.26974159 -0.20032552 0.52901572
-0.26400572 -0.19807282 0.52819788
-0.25461808 -0.19561985 0.52704161
-0.24520266 -0.19469084 0.52450615
-0.23506741 -0.193927 0.521492
-0.2258382 -0.19229104 0.52001899
-0.21906024 -0.19013077 0.52001941
-0.25112534 -0.18859953 0.52901644
-0.24452624 -0.185901 0.52671945
-0.23497352 -0.18508768 0.52301764
-0.22508685 -0.18482174 0.52123022
-0.21629314 -0.18341379 0.52032959
-0.20957221 -0.18063937 0.52001953
-0.24109168 -0.17791162 0.52868313
-0.23493794 -0.17557238 0.5268892
-0.22517917 -0.17508833 0.52449965
-0.21521606 -0.17531526 0.52154922
-0.20879844 -0.17570068 0.52001917
-0.23382966 -0.1651511 0.52807331
-0.22501627 -0.16491389 0.5251801
-0.21528855 -0.16482601 0.52221346
-0.20767571 -0.16350861 0.52027923
-0.23113319 -0.1589445 0.5290159
-0.22423849 -0.15665345 0.52775818
-0.21500532 -0.15502314 0.52519876
-0.20479997 -0.1550678 0.52296442
-0.19534263 -0.15426406 0.52206123
-0.18764377 -0.1520769 0.52078843
-0.22065382 -0.1473579 0.5290159
-0.21453013 -0.14526507 0.52743846
-0.20504013 -0.14509919 0.52535653
-0.19492961 -0.1452381 0.52436477
-0.1849533 -0.14457035 0.52154052
-0.17868178 -0.142042 0.52018589
-0.21290627 -0.13569537 0.52849847
-0.20455493 -0.13520443 0.52658767
-0.19505599 -0.1353253 0.52510959
-0.18502183 -0.13488777 0.52296144
-0.17512037 -0.13469097 0.52095377
-0.16707759 -0.13147099 0.52021945
-0.2113709 -0.12905967 0.5290153
-0.20418715 -0.12641895 0.52841556
-0.1949738 -0.12476472 0.52705622
-0.18475565 -0.12515274 0.52465719
-0.17522863 -0.12526467 0.52312905
-0.16540758 -0.12517171 0.52109909
-0.15915096 -0.12586114 0.52001965
-0.19273052 -0.11639166 0.528216
-0.18460535 -0.11485112 0.52608782
-0.17510103 -0.1151511 0.52432686
-0.16573149 -0.11443564 0.52108485
-0.15620734 -0.11070478 0.5203824
-0.1911471 -0.10928842 0.52901554
-0.18446448 -0.10545927 0.52764076
-0.17471413 -0.10507405 0.52521312
-0.16472489 -0.10467989 0.52369022
-0.15475638 -0.10508713 0.52189606
-0.14779101 -0.1037956 0.52041894
-0.1821274 -0.098682053 0.52884889
-0.17453368 -0.095786236 0.5275287
-0.16512214 -0.094932206 0.52545416
-0.15492408 -0.095102787 0.52310705
-0.14536196 -0.094627827 0.52083677
-0.13827965 -0.091965578 0.52001888
-0.17131943 -0.087166972 0.52870786
-0.16475399 -0.084755808 0.52703619
-0.15524507 -0.084800713 0.52488476
-0.14496842 -0.085454807 0.5226717
-0.13574824 -0.084798165 0.52131861
-0.12960531 -0.080983087 0.52001882
-0.16236991 -0.078457691 0.52884901
-0.1540686 -0.077276401 0.52774048
-0.14468646 -0.075454086 0.52640164
-0.13514011 -0.07472638 0.52389777
-0.1263414 -0.073640406 0.52083331
-0.14257628 -0.066071466 0.52882898
-0.13502929 -0.064961188 0.52578157
-0.12473249 -0.064993687 0.52228594
-0.11810656 -0.062722072 0.52038199
-0.1403255 -0.056478113 0.5290159
-0.13480616 -0.055284284 0.52706379
-0.12527715 -0.055018999 0.52456808
-0.11525606 -0.055115424 0.52253717
-0.10590877 -0.053813744 0.52140331
-0.09928187 -0.051578961 0.52021921
-0.13381775 -0.048148032 0.52871144
-0.12401795 -0.046173047 0.52765954
-0.11452318 -0.044833411 0.52541
-0.10502053 -0.045046527 0.52310687
-0.098059006 -0.045045123 0.5206551
-0.12269983 -0.034001227 0.52853566
-0.11475099 -0.034632973 0.52644491
-0.10458829 -0.035065565 0.52403557
-0.095632546 -0.034099106 0.52099311
-0.12271778 -0.025853429 0.52824581
-0.11476393 -0.025026837 0.52650559
-0.1050046 -0.024988478 0.52575117
-0.094911925 -0.024853427 0.5229767
-0.088047653 -0.022558307 0.52031791
-0.12082714 -0.019631973 0.52901477
-0.11459296 -0.016688535 0.5282436
-0.10528539 -0.015434749 0.52713817
-0.095171578 -0.015353926 0.52440453
-0.085328504 -0.015023023 0.52129996
-0.076436691 -0.012590478 0.52033401
-0.068612494 -0.011155016 0.5200187
-0.10316484 -0.0075890478 0.5284043
-0.095214218 -0.0052177189 0.52646035
-0.085099705 -0.0050051203 0.5245502
-0.074798167 -0.0051711132 0.52287984
-0.065164417 -0.0045760395 0.52147859
-0.058528613 -0.0035134337 0.52020085
-0.092664339 0.0033557261 0.52830112
-0.084610283 0.0051800921 0.52673024
-0.074706815 0.0051601385 0.52469039
-0.064806014 0.0051347204 0.52205867
-0.057073038 0.0062499866 0.52035171
-0.082915068 0.013794298 0.52853554
-0.074997328 0.014792787 0.52670985
-0.065062977 0.014722874 0.52411908
-0.055253711 0.01466033 0.52181393
-0.048422888 0.01616076 0.52055174
-0.08160606 0.023434751 0.52901483
-0.074851684 0.023771426 0.5282836
-0.06525299 0.02473468 0.5269199
-0.05514928 0.025183434 0.52503335
-0.04503122 0.025100706 0.52169734
-0.037297331 0.028694451 0.52039337
-0.063352756 0.033811681 0.52870536
-0.054448985 0.035266235 0.52607626
-0.044476245 0.035144538 0.52299696
-0.035200235 0.03535375 0.5210408
-0.027802473 0.038192704 0.52039349
-0.060386229 0.04335941 0.52901512
-0.054444302 0.045036633 0.52707678
-0.044653509 0.044867627 0.52507782
-0.034943104 0.044703607 0.52313995
-0.026867747 0.04527203 0.52073228
-0.053371046 0.053440534 0.52867013
-0.044828176 0.054658473 0.52709728
-0.035068586 0.054443315 0.52499628
-0.026705492 0.053995393 0.52201736
-0.050505456 0.060370527 0.52901471
-0.043786224 0.061655015 0.52819163
-0.036533613 0.062679499 0.5279758
-0.30083764 -0.20411694 0.53901327
-0.29440188 -0.20237227 0.53789604
-0.28508091 -0.20148274 0.53501439
-0.27551097 -0.20068744 0.53101522
-0.29298308 -0.19549938 0.53834659
-0.28490099 -0.19485919 0.53572512
-0.27494937 -0.19458598 0.53284496
-0.2654371 -0.19326063 0.53151548
-0.25769895 -0.19175558 0.53028876
-0.29142874 -0.18720244 0.53886992
-0.28470916 -0.18527363 0.53727424
-0.27456048 -0.18497996 0.53587699
-0.26499769 -0.18513629 0.53529799
-0.25533018 -0.18476927 0.53277659
-0.24810858 -0.18251573 0.53047085
-0.28209215 -0.178385 0.53876287
-0.2744073 -0.17562579 0.53803462
-0.26504508 -0.17521583 0.53678012
-0.25496522 -0.17477101 0.5350576
-0.24548762 -0.17504963 0.53141052
-0.23985854 -0.17099124 0.53001606
-0.27138919 -0.16563064 0.53901285
-0.2649473 -0.16481175 0.53790706
-0.25519362 -0.16526639 0.53609598
-0.24504285 -0.16477555 0.5330832
-0.23851261 -0.16426502 0.53009254
-0.27063373 -0.15914492 0.53901237
-0.26391092 -0.15580808 0.5387271
-0.25481254 -0.15525483 0.53723359
-0.24498439 -0.15523595 0.53557009
-0.23508066 -0.1549582 0.53285211
-0.22675954 -0.15289296 0.53054518
-0.26115054 -0.14825287 0.53901237
-0.25444987 -0.14517201 0.53776288
-0.24507402 -0.14519142 0.53570563
-0.23479727 -0.14518365 0.53419805
-0.22488081 -0.14454253 0.53109032
-0.21913768 -0.14128004 0.53001559
-0.25180835 -0.13742402 0.53871238
-0.24489002 -0.13476723 0.53733873
-0.23510984 -0.13524768 0.53544742
-0.22528493 -0.13499911 0.5329923
-0.21778844 -0.13405126 0.53024238
-0.24311452 -0.12670636 0.53853405
-0.23469897 -0.12484374 0.53695023
-0.22477496 -0.12469887 0.53415328
-0.21538371 -0.12478933 0.53081006
-0.2066438 -0.12186129 0.53007764
-0.23391576 -0.1167639 0.53846055
-0.22498292 -0.1149753 0.53692776
-0.21477221 -0.11535233 0.53483212
-0.20494106 -0.11503189 0.5330348
-0.19716953 -0.11399124 0.53053707
-0.22295332 -0.1078125 0.53884596
-0.21488979 -0.10551255 0.53788
-0.20519076 -0.10499212 0.53616625
-0.19508018 -0.10495711 0.53252542
-0.18835738 -0.10170673 0.5305866
-0.21252492 -0.097524919 0.53867936
-0.2045873 -0.095683314 0.53829896
-0.19495592 -0.095127083 0.53592527
-0.18503149 -0.09452609 0.53172219
-0.17779538 -0.091581151 0.53031528
-0.20085438 -0.088403694 0.53901303
-0.19484566 -0.084921792 0.53762209
-0.18515044 -0.085046455 0.53454596
-0.17570199 -0.084445357 0.53090066
-0.16940577 -0.080474451 0.53001523
-0.2003884 -0.074819922 0.53901201
-0.19507802 -0.074802279 0.53815883
-0.18510662 -0.074959271 0.53566772
-0.17501356 -0.074574977 0.53375006
-0.16557115 -0.074355565 0.53199279
-0.15544313 -0.07267224 0.53053755
-0.14799047 -0.070798412 0.53001636
-0.19245529 -0.067877717 0.53876215
-0.18416512 -0.065324552 0.53810579
-0.17479172 -0.064577922 0.53723097
-0.16488902 -0.065050334 0.53616542
-0.15496144 -0.065236047 0.53368843
-0.14693448 -0.064586572 0.53071958
-0.18177225 -0.059008021 0.53901243
-0.17426868 -0.056693804 0.53869033
-0.16493297 -0.05503016 0.53793186
-0.15501487 -0.054747343 0.53515732
-0.14529495 -0.054661598 0.53097373
-0.16349189 -0.045725096 0.53766012
-0.15462463 -0.044861645 0.53379947
-0.14470443 -0.044592004 0.53060627
-0.1354178 -0.043133263 0.53019714
-0.12707211 -0.04177805 0.53001589
-0.16197312 -0.037701134 0.53881252
-0.15489419 -0.03533892 0.53714615
-0.14491744 -0.035119466 0.53431171
-0.13505539 -0.035166368 0.53179735
-0.1274433 -0.03567541 0.53001541
-0.15285389 -0.026193043 0.53859568
-0.14506574 -0.025405359 0.53673291
-0.13512124 -0.025294276 0.53415334
-0.12760419 -0.024531929 0.53060544
-0.14443384 -0.016231734 0.53816617
-0.13509737 -0.015009052 0.53637004
-0.12511927 -0.014700142 0.53270149
-0.1170035 -0.012036484 0.53042626
-0.13395119 -0.0056180358 0.53851241
-0.12516794 -0.0046687904 0.53652388
-0.1148259 -0.0049100784 0.53386331
-0.10593767 -0.0035101795 0.53143895
-0.13014162 0.001073826 0.53901231
-0.12338731 0.0044046291 0.53861266
-0.11495233 0.005272279 0.53696573
-0.10526675 0.0052482244 0.53397328
-0.09632694 0.0066002482 0.53076482
-0.1206584 0.011965878 0.53901225
-0.1146037 0.015124938 0.53768694
-0.10532808 0.01485564 0.53568709
-0.095373303 0.014969599 0.53313673
-0.08727213 0.0159865 0.5303899
-0.11311866 0.024475716 0.53821778
-0.10498348 0.024831446 0.53608406
-0.095392771 0.024699736 0.53323805
-0.08594425 0.02480736 0.53028923
-0.077366501 0.028181612 0.53001481
-0.11141933 0.031774394 0.53872579
-0.10413302 0.034148421 0.53738046
-0.094965652 0.034535743 0.53475201
-0.084948026 0.034600686 0.53236669
-0.075058304 0.035027195 0.53140056
-0.066786908 0.036533628 0.53028435
-0.10063928 0.040424902 0.53901184
-0.093813956 0.043529637 0.53801215
-0.084614173 0.044863712 0.53557289
-0.074644446 0.045622271 0.53397298
-0.065106109 0.045638796 0.5311541
-0.091085926 0.051949311 0.53901178
-0.08483389 0.054517344 0.53778464
-0.075051539 0.055257346 0.53555644
-0.064653285 0.053562291 0.53155941
-0.056702867 0.055877756 0.53001446
-0.082375303 0.061272085 0.53901178
-0.078606427 0.062258761 0.53821212
-0.30167565 -0.2018659 0.54051298
-0.29881549 -0.20074101 0.54001313
-0.30235606 -0.19443111 0.54232812
-0.29778019 -0.19477999 0.5404017
-0.30247325 -0.18463257 0.54353321
-0.29572609 -0.18431813 0.54128987
-0.2889643 -0.18102986 0.54001242
-0.30324924 -0.17455859 0.54624605
-0.29487944 -0.17490281 0.54413909
-0.28569961 -0.17462653 0.54155064
-0.27777052 -0.17170946 0.54001272
-0.30349627 -0.16692372 0.54827327
-0.29506063 -0.16507484 0.54665512
-0.28451425 -0.16493613 0.5429672
-0.27608734 -0.16479912 0.54039156
-0.29324186 -0.15512913 0.54782826
-0.28524709 -0.15495539 0.54415351
-0.27538052 -0.15501541 0.54098898
-0.26791918 -0.15280275 0.54001206
-0.29199523 -0.14679375 0.54850948
-0.28489798 -0.14472982 0.54669082
-0.27489772 -0.14533365 0.54355246
-0.2657035 -0.14484444 0.54122597
-0.2589379 -0.14207496 0.54001206
-0.28282005 -0.13598348 0.54845947
-0.27493533 -0.13490641 0.54614049
-0.26460278 -0.13502957 0.5427382
-0.25611517 -0.13441055 0.54065067
-0.27420989 -0.12752454 0.54806221
-0.26490211 -0.12577419 0.54654688
-0.25492278 -0.12533437 0.54296857
-0.24662009 -0.12315461 0.54069161
-0.26135024 -0.11915656 0.54901004
-0.25476217 -0.11522608 0.54675394
-0.24492361 -0.11500095 0.5424763
-0.23638046 -0.11241326 0.54053551
-0.25267389 -0.10696458 0.54836702
-0.24504593 -0.10512507 0.54695261
-0.23509288 -0.10493267 0.54410017
-0.22567409 -0.1039548 0.54104233
-0.21905717 -0.10100657 0.54001236
-0.24352629 -0.094945543 0.54887176
-0.2349862 -0.094643921 0.54696876
-0.22517589 -0.095202245 0.54343998
-0.21598738 -0.093874678 0.54092383
-0.20739423 -0.091049217 0.54001266
-0.2419147 -0.085398793 0.54900914
-0.23521075 -0.084662013 0.54811174
-0.22497594 -0.085013509 0.54581511
-0.21535408 -0.085294999 0.54308289
-0.20553556 -0.084694259 0.54081649
-0.24131948 -0.079077199 0.54900867
-0.23426494 -0.07559441 0.54838055
-0.22514792 -0.074560456 0.54642832
-0.21552692 -0.075446405 0.54351074
-0.20575196 -0.075063571 0.54076171
-0.1993532 -0.070735037 0.54001176
-0.2317795 -0.06857945 0.54900867
-0.22438386 -0.065358035 0.54788113
-0.21493255 -0.065010443 0.54608697
-0.20505618 -0.065020211 0.5435316
-0.19575973 -0.064397998 0.54092073
-0.18856154 -0.061816957 0.54001206
-0.22164318 -0.057962336 0.54900879
-0.21473144 -0.054993197 0.54796386
-0.20482948 -0.054577604 0.54583216
-0.19521712 -0.055114623 0.54345077
-0.18542811 -0.05513854 0.54106188
-0.17678487 -0.052539393 0.54034573
-0.2124676 -0.047531448 0.54840881
-0.20458858 -0.045119163 0.54742789
-0.1946848 -0.04465016 0.54562706
-0.1850785 -0.045171816 0.54401106
-0.17509104 -0.045238547 0.54190314
-0.16841193 -0.044573974 0.54009581
-0.20125085 -0.038994253 0.54900908
-0.19389521 -0.035539247 0.5479489
-0.18507935 -0.034482278 0.54562914
-0.1748831 -0.034926705 0.54292005
-0.1660115 -0.034338322 0.54092854
-0.15994132 -0.032013096 0.54001224
-0.19166738 -0.025948396 0.5486089
-0.18499552 -0.024506144 0.54721785
-0.17501996 -0.024458157 0.54565477
-0.16478589 -0.024771571 0.5428887
-0.15700705 -0.023945998 0.54037189
-0.18339999 -0.015962947 0.5487588
-0.17513633 -0.014625518 0.54788727
-0.16497207 -0.014456267 0.54535937
-0.15496239 -0.014400435 0.54194611
-0.14701542 -0.011478523 0.54046637
-0.17321509 -0.0066239033 0.54884237
-0.1650227 -0.0046216771 0.54749966
-0.15492092 -0.0044392091 0.54539686
-0.14491907 -0.0046333196 0.54205483
-0.13705449 -0.0022111903 0.54041189
-0.17299153 0.0081236931 0.54900795
-0.16526996 0.0052893027 0.54861325
-0.15486623 0.0053648357 0.54690784
-0.14479527 0.0053375736 0.54389149
-0.13506244 0.0054040062 0.54146987
-0.12741853 0.00751568 0.54022628
-0.17406553 0.011105332 0.54900759
-0.16225755 0.011465261 0.54900861
-0.15451704 0.014852819 0.5480091
-0.14482898 0.015497887 0.54564011
-0.13512556 0.015067959 0.5435884
-0.12538554 0.015473332 0.54123384
-0.11912373 0.018675515 0.54001188
-0.15241016 0.023145936 0.54875851
-0.14488539 0.025123332 0.54783529
-0.13495985 0.025473798 0.54598814
-0.12496975 0.024939897 0.54254431
-0.11813679 0.026053568 0.54021138
-0.1424512 0.032970499 0.54900867
-0.13502114 0.035273623 0.54771763
-0.12483053 0.03531092 0.54435086
-0.11555574 0.035313256 0.5414108
-0.10779793 0.038027782 0.54045582
-0.13327932 0.042189684 0.54873604
-0.12455928 0.044687998 0.54757035
-0.11488082 0.045345385 0.54524916
-0.10519326 0.044812985 0.54221565
-0.097651951 0.047123119 0.54061151
-0.12111553 0.051906217 0.54900908
-0.11469936 0.054911964 0.54791653
-0.10514992 0.055278145 0.54530567
-0.095734619 0.054867081 0.54151124
-0.089097448 0.058334321 0.54001141
-0.11212116 0.061540421 0.5487591
-0.10429257 0.064301535 0.54675239
-0.09483254 0.064843938 0.54398602
-0.0862175 0.063864186 0.54090774
-0.10071275 0.070972547 0.54700941
-0.094985656 0.070739947 0.54520994
-0.088814273 0.07058531 0.54401052
-0.30549604 -0.16233642 0.55119997
-0.30470592 -0.15471838 0.55344802
-0.29793814 -0.15500914 0.55050963
-0.30495861 -0.14483243 0.55412728
-0.29607129 -0.14435503 0.55108303
-0.31035879 -0.13259642 0.55734015
-0.305053 -0.13502084 0.55522704
-0.29494175 -0.13497774 0.55243385
-0.28719753 -0.13438722 0.55040896
-0.31110212 -0.1285442 0.55867308
-0.30494946 -0.12550502 0.55781609
-0.29471985 -0.12496769 0.55498379
-0.28489944 -0.12478174 0.55240417
-0.27556419 -0.12270856 0.55149299
-0.26750007 -0.12158022 0.55072397
-0.30256107 -0.11771838 0.55864912
-0.29482466 -0.11543699 0.55726314
-0.28514934 -0.11459762 0.55558538
-0.27487558 -0.11459835 0.55374771
-0.26530117 -0.1150512 0.55163449
-0.25895995 -0.11148672 0.55000967
-0.29210502 -0.10745312 0.55854481
-0.28482774 -0.10501818 0.55753052
-0.27523875 -0.1046624 0.55600762
-0.2655293 -0.10529044 0.55347383
-0.25646612 -0.10392653 0.55069888
-0.28240746 -0.096493594 0.55865639
-0.27462924 -0.094763108 0.55705452
-0.26506528 -0.094713546 0.55425119
-0.25493464 -0.095317878 0.55098724
-0.24826398 -0.094664231 0.55000931
-0.27399355 -0.08540155 0.55816245
-0.26493099 -0.084952235 0.55565828
-0.25499412 -0.085304558 0.5522697
-0.24665812 -0.084758706 0.55027527
-0.27121955 -0.079064742 0.55900604
-0.2638998 -0.075927541 0.55819166
-0.25529245 -0.075185284 0.55562085
-0.24523133 -0.075068928 0.55191046
-0.23801783 -0.072282039 0.55056399
-0.26029125 -0.068861343 0.55900621
-0.25426486 -0.065096296 0.55782688
-0.24464573 -0.065329462 0.55471474
-0.23524733 -0.064673737 0.55189997
-0.22797073 -0.061552536 0.55017513
-0.25161549 -0.056711119 0.55850601
-0.24485302 -0.05551805 0.55679238
-0.2349218 -0.05522972 0.55391204
-0.2253246 -0.054594845 0.55095559
-0.21882194 -0.051256377 0.55000848
-0.24285477 -0.046807993 0.55858499
-0.23517659 -0.045328654 0.55645907
-0.22501263 -0.04491578 0.5534392
-0.21577764 -0.04398638 0.55103946
-0.20780611 -0.04087713 0.55025864
-0.24183702 -0.038010836 0.55900544
-0.2349533 -0.035468794 0.5578897
-0.22496791 -0.03529276 0.55575669
-0.21494028 -0.034828931 0.55405104
-0.2052096 -0.034836266 0.55231798
-0.19797044 -0.032719444 0.55073619
-0.23236348 -0.027638996 0.55873269
-0.22534223 -0.025053576 0.557244
-0.215055 -0.024955954 0.55506808
-0.20515776 -0.024895342 0.55374575
-0.19652385 -0.024373241 0.55116463
-0.22350964 -0.015810501 0.55810875
-0.21484044 -0.014951193 0.55607563
-0.20508485 -0.014613289 0.55445111
-0.19485123 -0.014924877 0.55192083
-0.18698005 -0.012939896 0.55028617
-0.22095351 -0.0091030244 0.55900502
-0.21477067 -0.0051345876 0.55786228
-0.20512588 -0.0046979152 0.55559772
-0.19485101 -0.0045762882 0.55349529
-0.18486734 -0.0047485861 0.55161208
-0.17636682 -0.0031552163 0.55042523
-0.21317682 0.005144482 0.55856013
-0.20506483 0.0053937957 0.55709404
-0.19483627 0.0053508785 0.55542272
-0.18446915 0.0054071019 0.5522927
-0.17573453 0.0044661951 0.55033052
-0.21148439 0.011301549 0.55900425
-0.20417693 0.012499442 0.55882835
-0.19452918 0.014935008 0.55692214
-0.1846468 0.015511196 0.55281579
-0.17483817 0.015754873 0.55144185
-0.16517571 0.016046951 0.5511747
-0.15825279 0.018656343 0.55000842
-0.1927755 0.023432078 0.55857635
-0.18465069 0.024954749 0.55676222
-0.17517032 0.024963278 0.55475634
-0.16519411 0.02559769 0.5528236
-0.15570867 0.026568627 0.55050796
-0.14857605 0.029770683 0.55000836
-0.19035622 0.030250857 0.5590046
-0.18408409 0.032897361 0.55836499
-0.17507517 0.034446687 0.55704916
-0.16506742 0.03522275 0.55527687
-0.15482675 0.034841985 0.55220258
-0.14591436 0.036414977 0.55042738
-0.13997452 0.039809413 0.55000836
-0.17359853 0.040455289 0.55900532
-0.16423148 0.043940291 0.55797827
-0.15502456 0.04452214 0.55510187
-0.14507714 0.045133188 0.55264151
-0.13558729 0.046134703 0.55090111
-0.12812875 0.048837475 0.55015153
-0.16213657 0.051615227 0.55883878
-0.1545307 0.054402381 0.55775607
-0.14497583 0.054537501 0.55496013
-0.135104 0.054620713 0.55290103
-0.1251969 0.055410553 0.55103612
-0.11894763 0.058931638 0.55000871
-0.15275331 0.065329231 0.55832517
-0.14531067 0.064683229 0.55613077
-0.13625941 0.061993867 0.55410695
-0.1272956 0.060583636 0.55200791
-0.15262626 0.073184617 0.55813795
-0.1485386 0.071293779 0.55700517
-0.31136796 -0.12249124 0.56013089
-0.30843961 -0.12057814 0.56000596
-0.31260458 -0.11447197 0.5640052
-0.30562654 -0.11364754 0.56152296
-0.29870823 -0.11133002 0.56000608
-0.31378824 -0.10541743 0.56746858
-0.30524799 -0.10477199 0.56500494
-0.29617655 -0.10419984 0.56121272
-0.28995031 -0.10110876 0.56000608
-0.31369105 -0.095033839 0.56728929
-0.30537727 -0.094692677 0.5664171
-0.29480743 -0.094574489 0.56376702
-0.28684503 -0.09457615 0.56086302
-0.31373703 -0.084677666 0.56796825
-0.30507961 -0.084755026 0.56674808
-0.29512951 -0.084864244 0.5654254
-0.285032 -0.08519312 0.56227553
-0.27812794 -0.083003208 0.56000572
-0.31230694 -0.077491231 0.56880224
-0.30493221 -0.074934743 0.56767845
-0.29481795 -0.075328112 0.56540376
-0.28503361 -0.075189322 0.56349301
-0.27526772 -0.074764259 0.56171274
-0.26691636 -0.072451547 0.56047255
-0.30175993 -0.066741019 0.56864935
-0.29454571 -0.065463446 0.56743157
-0.28482997 -0.065269887 0.56576568
-0.27520514 -0.065010682 0.56442326
-0.2653206 -0.064824656 0.56193054
-0.25904912 -0.061346315 0.56025571
-0.29376554 -0.05721255 0.56871659
-0.28493845 -0.055109669 0.56744486
-0.27495503 -0.05516294 0.56598157
-0.26506045 -0.054738808 0.56474876
-0.25574535 -0.05372664 0.56159157
-0.24908067 -0.050003015 0.56000572
-0.28298339 -0.047305651 0.56846911
-0.27502227 -0.044947404 0.56712812
-0.26508233 -0.044520248 0.56570607
-0.25527793 -0.044789933 0.56317621
-0.2472405 -0.044345014 0.56064183
-0.27223459 -0.038075455 0.568717
-0.26435828 -0.035229597 0.56791216
-0.25478724 -0.035249494 0.56472635
-0.24574624 -0.034999467 0.56136841
-0.23813441 -0.03102164 0.56000519
-0.26071054 -0.027952755 0.56880295
-0.2546283 -0.025466552 0.5672465
-0.24498604 -0.025357625 0.56400418
-0.2362653 -0.02455659 0.56125492
-0.25280258 -0.01589261 0.56852901
-0.24522269 -0.01512732 0.56624156
-0.234945 -0.015033053 0.56283748
-0.22737157 -0.012420478 0.56075472
-0.25071859 -0.0071936408 0.56900215
-0.24478669 -0.004805658 0.56766057
-0.23504557 -0.0048827166 0.56531459
-0.22533366 -0.0046355114 0.56244862
-0.21940331 -0.0030358068 0.56000465
-0.24270916 0.0032323434 0.56850207
-0.23503971 0.00532716 0.56695271
-0.22490576 0.0055141272 0.56340826
-0.21762334 0.0067197452 0.56023479
-0.23315176 0.014446917 0.56817591
-0.22485603 0.015110886 0.56512773
-0.21522884 0.015316751 0.56211472
-0.20547847 0.016587373 0.56068617
-0.19945444 0.018623767 0.56000471
-0.23084572 0.020401509 0.56900179
-0.22391686 0.022799337 0.56818408
-0.21473245 0.024625847 0.56610054
-0.2048438 0.024578851 0.56332928
-0.19672725 0.025741378 0.56075436
-0.21227631 0.03328646 0.5687716
-0.20500882 0.034983821 0.56664407
-0.19521697 0.034972947 0.56285739
-0.18634197 0.037237912 0.56055999
-0.20332322 0.043946218 0.56813288
-0.1949514 0.045387913 0.56597918
-0.18526796 0.045187406 0.56345624
-0.17533587 0.045597386 0.5613535
-0.1678881 0.047646023 0.56000525
-0.20172286 0.05452536 0.56900167
-0.19530606 0.055073824 0.56700224
-0.18490091 0.054839928 0.56457454
-0.17460266 0.055099126 0.56313217
-0.16550341 0.055930402 0.56145221
-0.1579988 0.058341969 0.56000531
-0.20148149 0.062239181 0.56900108
-0.19489363 0.064576693 0.56763554
-0.18513694 0.064401232 0.5661763
-0.17522621 0.064861156 0.56598169
-0.16472162 0.065201506 0.563842
-0.1576672 0.065174453 0.56071073
-0.19191504 0.07121557 0.56900126
-0.18402213 0.074603006 0.56841838
-0.17484853 0.074866809 0.56700259
-0.16505921 0.074792765 0.56434476
-0.15700854 0.075776428 0.56095141
-0.18091489 0.081725083 0.56900144
-0.17442898 0.084826589 0.56823707
-0.16487536 0.085359819 0.56623167
-0.1571587 0.084937647 0.56452954
-0.17305791 0.092650168 0.56872851
-0.16515495 0.093128517 0.56628197
-0.15853174 0.090974271 0.56500268
-0.31742296 -0.080627821 0.57000208
-0.31542319 -0.073579505 0.57068169
-0.30949926 -0.07071957 0.57000202
-0.32043365 -0.063388817 0.57540047
-0.31484592 -0.064814039 0.57297403
-0.30674192 -0.063976035 0.57062662
-0.32165337 -0.053762846 0.57839954
-0.31503779 -0.054359317 0.57595015
-0.30476671 -0.055421483 0.5722906
-0.29616684 -0.05333098 0.57055181
-0.32148701 -0.044239596 0.57999885
-0.31563792 -0.044914797 0.57897156
-0.30494422 -0.045422699 0.57588136
-0.29480758 -0.044950098 0.57292241
-0.28616837 -0.043694358 0.570602
-0.27879345 -0.040498208 0.57000238
-0.32198244 -0.035911307 0.57979816
-0.31516412 -0.035190023 0.57860845
-0.30518365 -0.034963306 0.57673776
-0.29505113 -0.034754608 0.57502323
-0.28499386 -0.034748189 0.57328707
-0.27557215 -0.033932142 0.57138449
-0.26808017 -0.031772476 0.57012761
-0.31166106 -0.029116876 0.57999855
-0.3042556 -0.026625862 0.57933235
-0.29463202 -0.025037695 0.57845914
-0.28517857 -0.025043832 0.57673013
-0.27506241 -0.02510201 0.57434428
-0.26543742 -0.024794243 0.57120228
-0.25947845 -0.021919426 0.57000262
-0.29124981 -0.017772499 0.57999945
-0.2847493 -0.015529938 0.57812804
-0.27454647 -0.015371217 0.57509595
-0.26507899 -0.015298385 0.57245868
-0.25784847 -0.014659929 0.5703935
-0.28386194 -0.0056312364 0.57862878
-0.27473104 -0.0048762965 0.57547617
-0.26480633 -0.0046683098 0.57307565
-0.25546497 -0.00460049 0.57089621
-0.24908009 -0.0003701853 0.57000184
-0.28178158 0.0023391552 0.57979876
-0.27462259 0.0046447217 0.57766593
-0.26500914 0.004874113 0.57500011
-0.25520727 0.0046788403 0.57255971
-0.24688658 0.005851537 0.57054698
-0.27148056 0.010956459 0.57974893
-0.26430407 0.013813225 0.57806838
-0.25519541 0.014805732 0.57497519
-0.24490972 0.014371043 0.57184178
-0.23751995 0.016442899 0.57023233
-0.26179793 0.021780903 0.57949901
-0.25429392 0.024498926 0.57758003
-0.24504659 0.025143195 0.57472509
-0.23516789 0.025099883 0.57212013
-0.22606759 0.027155321 0.57060176
-0.21936487 0.029355654 0.57000214
-0.25043207 0.032133996 0.57999915
-0.24429341 0.034920022 0.57817185
-0.23505273 0.034858555 0.57534325
-0.22492053 0.034996472 0.57268542
-0.21609031 0.036183868 0.57063526
-0.24264568 0.042200387 0.57945365
-0.23499906 0.044637617 0.57782447
-0.22528049 0.044849265 0.57522553
-0.21501645 0.045140851 0.57225126
-0.20759234 0.046529911 0.57030958
-0.23478344 0.055621531 0.57902998
-0.2256045 0.055232275 0.57642823
-0.21550539 0.054957993 0.57354796
-0.20666109 0.054693766 0.57077545
-0.2349682 0.063310035 0.57928973
-0.22520614 0.065048799 0.57699877
-0.21506974 0.064948283 0.57394558
-0.20559654 0.065500468 0.57100064
-0.19782464 0.069482207 0.57000089
-0.22295251 0.074288212 0.57909822
-0.21519084 0.074983411 0.57629883
-0.20504145 0.07530582 0.57394564
-0.19560164 0.075202972 0.57154894
-0.18811248 0.077785231 0.57033449
-0.22193718 0.082463875 0.57979774
-0.2144437 0.0831227 0.57874835
-0.20468265 0.084719539 0.5773325
-0.19488865 0.085076198 0.57419503
-0.18529217 0.085208997 0.57094365
-0.17888105 0.087689422 0.57000118
-0.20374693 0.094395213 0.57924837
-0.19536182 0.094915241 0.5761705
-0.18514037 0.095131665 0.5729512
-0.17644548 0.095890783 0.57069033
-0.20104928 0.10144726 0.57999808
-0.19396208 0.10431942 0.57811981
-0.1847323 0.1052122 0.57516134
-0.17721641 0.1042684 0.5732941
-0.19242448 0.11350303 0.57954335
-0.18525901 0.11474094 0.57710946
-0.17896962 0.11365863 0.57544357
-0.18512331 0.12082069 0.57983136
-0.32317716 -0.045452099 0.58099878
-0.32276067 -0.032814786 0.58119786
-0.31901434 -0.03068299 0.580998
-0.32348117 -0.024656424 0.58479708
-0.3152281 -0.024398707 0.58239269
-0.30584162 -0.022000358 0.58126158
-0.29811326 -0.020682206 0.58099908
-0.32328579 -0.014939721 0.58737129
-0.31472126 -0.014858847 0.58426386
-0.3051061 -0.01464207 0.58269042
-0.29547447 -0.014630426 0.58172613
-0.32398179 -0.0049982341 0.58903128
-0.31490463 -0.0049721077 0.58642489
-0.30479163 -0.0050658677 0.58438754
-0.29498166 -0.0049417093 0.58287919
-0.28809223 -0.0024665692 0.58124852
-0.32242414 0.0011435536 0.58999515
-0.31377459 0.0024446114 0.58930355
-0.30470079 0.0045086001 0.5878675
-0.29516682 0.0051684934 0.58557296
-0.28571242 0.0054227347 0.58256954
-0.27888161 0.0079491343 0.58099854
-0.30171251 0.011295626 0.58979619
-0.29463041 0.014789551 0.58857995
-0.28511724 0.014948602 0.58648527
-0.27544546 0.015158811 0.58348316
-0.26843652 0.017815249 0.58157009
-0.2928614 0.02507589 0.58999598
-0.28491774 0.024939891 0.58876336
-0.27540866 0.024945248 0.58625466
-0.26569986 0.025326857 0.58261371
-0.25782725 0.028418159 0.58133215
-0.29395646 0.034986209 0.58995926
-0.28566083 0.034914002 0.58870995
-0.275406 0.035042547 0.587475
-0.26531154 0.034477759 0.58533973
-0.25574446 0.035346828 0.58274132
-0.24897152 0.037869886 0.58099884
-0.29202333 0.043507755 0.58999455
-0.28484544 0.045011312 0.5894236
-0.27476451 0.044615682 0.58753645
-0.26482278 0.044939104 0.58536053
-0.25518733 0.045291774 0.58346295
-0.24594927 0.046078868 0.58166522
-0.28274694 0.052985732 0.58987695
-0.27459762 0.054711986 0.58821481
-0.26480034 0.054774873 0.58648396
-0.25461999 0.055229425 0.58438599
-0.24462315 0.054808784 0.58182138
-0.23874991 0.052640077 0.5809986
-0.27276257 0.063750938 0.58946133
-0.2649281 0.064530909 0.587466
-0.25476193 0.064731814 0.58507514
-0.24503718 0.065179124 0.58263791
-0.23641874 0.067971714 0.58164042
-0.2701388 0.070370436 0.58999437
-0.26416716 0.074234188 0.58943909
-0.25479582 0.075136095 0.5876534
-0.24502383 0.075289875 0.5863297
-0.23474805 0.074937969 0.58358049
-0.22724606 0.075902551 0.58126438
-0.2609117 0.081139266 0.58999437
-0.25359118 0.082735233 0.5896616
-0.24477112 0.084642835 0.58838946
-0.23495774 0.084764771 0.58562803
-0.2256688 0.085892394 0.58253044
-0.21619597 0.087872185 0.58142632
-0.20997703 0.088998124 0.5809983
-0.24251661 0.093311876 0.589701
-0.23477823 0.09526284 0.58783346
-0.22459836 0.095099449 0.58525372
-0.21458574 0.095070347 0.58278686
-0.20808013 0.095912263 0.58122867
-0.24091998 0.10575353 0.58999419
-0.23470825 0.10510547 0.58835375
-0.22473955 0.10502408 0.58590043
-0.21512334 0.10507328 0.58420169
-0.20552464 0.10548408 0.58254284
-0.19884017 0.10751692 0.5811978
-0.24092093 0.11113711 0.58999377
-0.23500781 0.1130795 0.58953959
-0.22446358 0.11504435 0.58855748
-0.21475169 0.11505949 0.58675271
-0.20441832 0.11492945 0.5843389
-0.1964027 0.11555738 0.58173651
-0.22131127 0.12229232 0.58999467
-0.21480927 0.12493441 0.58841616
-0.20504515 0.1251187 0.58592099
-0.19491708 0.12513655 0.58349681
-0.18768559 0.12493933 0.58230507
-0.21407768 0.1330414 0.58971667
-0.20537642 0.1348795 0.58822083
-0.19610347 0.1325793 0.58577389
-0.18975343 0.13056967 0.58399683
-0.20708659 0.14113742 0.58999443
-0.32759273 -0.00039610383 0.59099483
-0.32467929 0.0056244191 0.59186131
-0.31595117 0.0064479043 0.59164757
-0.30833471 0.0088519864 0.59099579
-0.33050627 0.017477691 0.59624314
-0.32509479 0.015089456 0.59527284
-0.31516185 0.015034917 0.59450626
-0.30559906 0.015497038 0.59218913
-0.29947695 0.01848341 0.59099585
-0.33143499 0.023818985 0.59932595
-0.32468715 0.024826124 0.5986383
-0.31496742 0.025116572 0.59596169
-0.30529684 0.02509773 0.59256148
-0.29863071 0.024877779 0.59099549
-0.32111689 0.033491787 0.59999275
-0.31486958 0.034654725 0.59752899
-0.30534455 0.034888826 0.59321278
-0.29909468 0.035046812 0.59099466
-0.31439936 0.044699796 0.59828657
-0.30450752 0.045295261 0.59402674
-0.29598811 0.046142224 0.59135753
-0.31391516 0.054765094 0.59908259
-0.305031 0.054967992 0.59587133
-0.29491639 0.054392435 0.59287578
-0.28645861 0.056095324 0.59135759
-0.27983943 0.059702646 0.59099436
-0.31173733 0.061192177 0.59959143
-0.30461064 0.062737763 0.59864193
-0.29484901 0.063887574 0.59754109
-0.28538337 0.065186903 0.59518701
-0.27680793 0.066303939 0.59182739
-0.29036033 0.071560413 0.59999251
-0.28458351 0.075290173 0.59747547
-0.27435839 0.074836351 0.59224361
-0.26725993 0.07922136 0.59099394
-0.28439015 0.084515877 0.59834915
-0.27490553 0.085085355 0.5947504
-0.26535621 0.085511424 0.59285074
-0.25599757 0.086708911 0.59172159
-0.2490292 0.088982865 0.59099478
-0.28267464 0.093396731 0.59957039
-0.27492258 0.095513403 0.597992
-0.26472893 0.095124051 0.59568751
-0.25492486 0.094547257 0.59327507
-0.24672782 0.096295536 0.59123451
-0.27409738 0.10414647 0.59914517
-0.26477063 0.10459673 0.59719223
-0.25510448 0.10498732 0.5943644
-0.24603133 0.10513478 0.59154212
-0.27003226 0.11067 0.59999126
-0.26410884 0.11408997 0.59911644
-0.25535542 0.11549556 0.59561718
-0.2453346 0.11467105 0.59175074
-0.23561488 0.11735801 0.59122455
-0.22784898 0.11941695 0.5909943
-0.26171857 0.124085 0.59968323
-0.25479361 0.12496483 0.59725803
-0.24490334 0.1246618 0.59443969
-0.23527779 0.12489303 0.5932073
-0.22580375 0.12565188 0.59155637
-0.2541317 0.13328379 0.5992083
-0.24518655 0.13484275 0.59767914
-0.23479551 0.13535908 0.59550655
-0.22485152 0.1349767 0.59293443
-0.21595217 0.13671708 0.59122926
-0.20897815 0.13983558 0.59099436
-0.24316461 0.14125575 0.59984839
-0.23504563 0.14552777 0.5988487
-0.22499767 0.14458717 0.59556836
-0.21567465 0.14458987 0.59319925
-0.20868191 0.14297831 0.5912441
-0.24054314 0.15536781 0.59999031
-0.23445533 0.1549463 0.59870523
-0.22497085 0.15420765 0.59621763
-0.21860714 0.15185504 0.59482592
-0.24032135 0.16464153 0.59998965
-0.23466879 0.1643547 0.59901863
-0.22798292 0.16144444 0.59799099
-0.24032317 0.17480908 0.59998882
-0.23736142 0.17119333 0.59984648
-0.33242935 0.028303105 0.602135
-0.32828218 0.02887854 0.60165912
-0.3332102 0.035373125 0.60499156
-0.32570758 0.035265204 0.60245055
-0.33340999 0.04460372 0.60574073
-0.3246001 0.044891115 0.60284001
-0.31904364 0.049738809 0.60099167
-0.33381352 0.054560017 0.60791004
-0.32528383 0.055065554 0.60442412
-0.31897587 0.055625174 0.60170549
-0.33230284 0.06254831 0.60978949
-0.32474199 0.065118507 0.60713279
-0.31519154 0.065554693 0.60341382
-0.30489308 0.067675464 0.60183758
-0.29744163 0.06862092 0.60165876
-0.32244343 0.075059347 0.60937828
-0.31478214 0.074609116 0.60730273
-0.30498305 0.074700959 0.60550529
-0.29518703 0.074874654 0.60305429
-0.32212168 0.08530426 0.60943305
-0.31443381 0.084968396 0.60814327
-0.30490038 0.085216925 0.60638481
-0.29540098 0.085019134 0.60358477
-0.28944075 0.087397732 0.60132468
-0.3221648 0.092427321 0.60941654
-0.31436315 0.095337614 0.60854024
-0.30502176 0.095222175 0.60681283
-0.29507944 0.095024839 0.60433394
-0.2869966 0.095694274 0.6017409
-0.31110841 0.10137586 0.60998833
-0.30406725 0.1022981 0.60915554
-0.29489747 0.10496378 0.60770816
-0.28487086 0.10490944 0.60349029
-0.2774294 0.10802876 0.60161579
-0.29364741 0.11446639 0.60938877
-0.28502652 0.11515879 0.60643059
-0.27500921 0.11511086 0.60315174
-0.26856393 0.11681415 0.60170519
-0.29292509 0.12388264 0.60948813
-0.28557783 0.12513301 0.60770655
-0.27513286 0.12519114 0.60495847
-0.26671675 0.12512141 0.60212678
-0.29123479 0.13080011 0.60998774
-0.28395697 0.1343293 0.6092608
-0.27509496 0.13492656 0.60738277
-0.26506299 0.13515909 0.60385638
-0.25665796 0.13778208 0.60162663
-0.27309111 0.14305827 0.60912174
-0.26500675 0.14522232 0.60708898
-0.25489807 0.14502679 0.60386884
-0.2456273 0.14582336 0.60206479
-0.26354289 0.15454641 0.60885793
-0.25539359 0.15524492 0.60605562
-0.24582577 0.15474825 0.60231334
-0.26274821 0.16594557 0.60918748
-0.25494391 0.16516255 0.60658836
-0.24553904 0.16501373 0.60245061
-0.26266816 0.17494036 0.60967916
-0.25535917 0.17459148 0.60739934
-0.24480383 0.1732744 0.60253853
-0.25807789 0.18050526 0.60865349
-0.33815932 0.057997603 0.61098927
-0.34118634 0.066183731 0.61548841
-0.33574075 0.06540224 0.61242384
-0.32913485 0.069680601 0.61098915
-0.3418611 0.075152159 0.61670196
-0.3359524 0.075170591 0.61444265
-0.32791051 0.075693183 0.6113013
-0.34082019 0.085341752 0.61482024
-0.33517638 0.0851302 0.61328739
-0.32748729 0.08413592 0.61121047
-0.34148249 0.096065469 0.61673605
-0.33502737 0.094836704 0.61398673
-0.32651317 0.095318682 0.61143744
-0.31838802 0.099549696 0.61098778
-0.34200543 0.10421734 0.61954087
-0.33497363 0.10502634 0.61756653
-0.32493657 0.10460222 0.6146118
-0.31466889 0.10525431 0.61238056
-0.30533981 0.10736729 0.61132175
-0.3322143 0.11267915 0.61968553
-0.32453108 0.11460755 0.61823612
-0.31518912 0.11445956 0.61515927
-0.30503991 0.11523421 0.61238778
-0.29824054 0.1157214 0.61098832
-0.32171449 0.12366773 0.61968559
-0.31483987 0.12463909 0.61728615
-0.30492106 0.12515983 0.61352038
-0.29757729 0.12507905 0.61117512
-0.31439152 0.13441357 0.61915928
-0.30508867 0.13521631 0.61572814
-0.29520789 0.13456646 0.61202163
-0.28706756 0.13831624 0.61098754
-0.31238538 0.14477079 0.61965144
-0.30495697 0.14512943 0.61681885
-0.29503995 0.14456223 0.61354887
-0.28486919 0.14507142 0.61189348
-0.27677161 0.14655811 0.61120993
-0.3119075 0.15206875 0.61998421
-0.30465433 0.15463613 0.61850321
-0.29489225 0.15470828 0.61651319
-0.2852827 0.15459518 0.61534125
-0.27480805 0.15520346 0.61286974
-0.26807714 0.15633884 0.61111283
-0.30059457 0.16176905 0.61998445
-0.29444355 0.1645855 0.61946487
-0.28491187 0.16485457 0.6173014
-0.27474678 0.16527601 0.61398655
-0.26736453 0.1642552 0.61129969
-0.2925882 0.17485297 0.61956751
-0.28525594 0.1747258 0.61690158
-0.27443883 0.1746573 0.61329609
-0.26717648 0.17566411 0.61131972
-0.29255024 0.18209761 0.61948359
-0.28441763 0.18354905 0.61660326
-0.27499101 0.18405558 0.61469924
-0.26604801 0.18416817 0.6119234
-0.27502108 0.19055252 0.61548454
-0.26994452 0.1900889 0.613985
-0.34344038 0.10868376 0.62148488
-0.34344393 0.11522391 0.62316084
-0.336285 0.11645704 0.62223488
-0.32886434 0.11858222 0.62098539
-0.34410691 0.12457734 0.62686372
-0.33483091 0.12519677 0.62455571
-0.32666397 0.12586968 0.62218511
-0.34254327 0.13461822 0.62929064
-0.33508974 0.13476877 0.62634081
-0.32502216 0.13519406 0.62291777
-0.31878474 0.13619713 0.62131828
-0.3410264 0.14493626 0.62998229
