# .PCD v0.7 - Point Cloud Data file format
VERSION 0.7
FIELDS x y z
SIZE 4 4 4
TYPE F F F
COUNT 1 1 1
WIDTH 1359
HEIGHT 1
VIEWPOINT 0 0 0 1 0 0 0
POINTS 1359
DATA ascii
0.15207596 -0.090800457 0.44103557
0.11809534 -0.089026652 0.44993192
0.12604263 -0.086023249 0.44958431
0.13494594 -0.085070282 0.44823414
0.14507996 -0.085362561 0.44601932
0.15437384 -0.084273823 0.44243774
0.16080308 -0.081734821 0.4409233
0.12920319 -0.078548111 0.44993034
0.13585973 -0.075818859 0.44917554
0.14514029 -0.074971519 0.44723576
0.15497155 -0.074995928 0.44357219
0.16435045 -0.074373238 0.44140756
0.17339961 -0.071423829 0.44104642
0.13821545 -0.067725644 0.44972929
0.14502034 -0.06485685 0.44850823
0.15503813 -0.065154031 0.44603425
0.16511311 -0.065266147 0.44428959
0.17499587 -0.064850189 0.4423914
0.18174616 -0.062117487 0.44115567
0.14805463 -0.057083689 0.4498654
0.15510157 -0.055332836 0.44809327
0.16517518 -0.054936584 0.44587681
0.17509964 -0.054615986 0.44370559
0.18379122 -0.054168772 0.4418714
0.19024083 -0.051502243 0.44091934
0.15667334 -0.045761537 0.44949302
0.16520028 -0.044836733 0.44836277
0.17506376 -0.044875126 0.44621584
0.18524739 -0.044914741 0.44322479
0.19322038 -0.044767801 0.44157773
0.15615852 -0.033987846 0.44694474
0.16464154 -0.035749093 0.44656068
0.17524371 -0.03705316 0.44712368
0.18500409 -0.038046416 0.44327292
0.19245528 -0.038681913 0.44191992
0.017866135 -0.17315857 0.45984682
0.024747675 -0.17254031 0.45797327
0.034547433 -0.17196076 0.45461008
0.0448558 -0.17130582 0.45185789
0.018830659 -0.16821988 0.45994705
0.025758861 -0.16580363 0.45910093
0.035033759 -0.16509393 0.45628911
0.045211259 -0.16498122 0.45312104
0.053301502 -0.16303341 0.4513348
0.028459957 -0.15629561 0.45994595
0.035200179 -0.15505697 0.45804849
0.045108184 -0.15472792 0.45528495
0.054818731 -0.15492745 0.45263162
0.062274303 -0.15326181 0.45102981
0.036228992 -0.1471598 0.45921332
0.044941068 -0.14478323 0.45832786
0.055096395 -0.14511755 0.45607039
0.064817004 -0.14509861 0.45249167
0.074021123 -0.14182438 0.45131657
0.080488957 -0.14024727 0.45093602
0.046282358 -0.13592489 0.45963749
0.055068582 -0.13500333 0.45779693
0.064971656 -0.13503703 0.45622209
0.074969418 -0.13505135 0.4534986
0.08157023 -0.13391969 0.45109418
0.049717844 -0.12924942 0.45994341
0.056314383 -0.12652776 0.45935681
0.064931318 -0.12498844 0.45777607
0.075295851 -0.12492659 0.45510289
0.084744349 -0.12492617 0.45222199
0.094205916 -0.12304632 0.45149964
0.10048066 -0.12026227 0.45093328
0.059313539 -0.11905741 0.45994216
0.065839678 -0.11718926 0.45902601
0.074996635 -0.11489971 0.45785806
0.084738173 -0.11521403 0.45504677
0.094947234 -0.11493234 0.45288482
0.10156218 -0.11411428 0.4510335
0.076922767 -0.10553162 0.45978034
0.085319415 -0.10528558 0.45768121
0.095206797 -0.10490182 0.45463189
0.10417395 -0.10437907 0.45148376
0.078091837 -0.096109398 0.45993993
0.084972955 -0.094934799 0.45925808
0.094934627 -0.095152646 0.45692444
0.10510536 -0.09479814 0.4528138
0.11179715 -0.092888489 0.45103294
0.086360201 -0.08708296 0.45979601
0.09548232 -0.085297704 0.45877039
0.10502422 -0.084942818 0.45566925
0.11480843 -0.085049368 0.45276195
0.12305074 -0.082749866 0.45131069
0.097753376 -0.076265305 0.45978907
0.10492975 -0.07513462 0.45804533
0.11492536 -0.075207926 0.45643988
0.12499322 -0.074893728 0.45399177
0.13173616 -0.072369464 0.45149279
0.10648042 -0.066376954 0.4592028
0.11490824 -0.064997211 0.45746681
0.12524512 -0.065065034 0.45546001
0.13425702 -0.064563692 0.4520199
0.14085926 -0.060695887 0.45092925
0.10929235 -0.05870356 0.45993614
0.11610845 -0.055852782 0.4585349
0.12507492 -0.055003144 0.45579726
0.13516161 -0.054757394 0.45374575
0.14426635 -0.05425927 0.45172563
0.11888796 -0.049111169 0.45993483
0.12607476 -0.04581232 0.45893359
0.13505775 -0.04497515 0.45650113
0.1450911 -0.045101929 0.45300642
0.15250395 -0.043223936 0.45118618
0.12801059 -0.036584876 0.45962355
0.13518326 -0.03494649 0.45805439
0.14498404 -0.034877803 0.45498097
0.15179263 -0.036134619 0.45144734
0.13632423 -0.025029993 0.45949546
0.14395687 -0.027380465 0.45675462
0.15077366 -0.028384963 0.45126295
0.1354703 -0.017862247 0.45939204
0.14026681 -0.018254362 0.45793265
-0.02334143 -0.17451382 0.46970022
-0.014839062 -0.17472142 0.46819508
-0.0049143159 -0.17373203 0.46509454
0.0047661988 -0.17350693 0.46286634
0.01248753 -0.17306343 0.46144798
-0.023014935 -0.16878152 0.46867022
-0.013905032 -0.16781859 0.46756122
-0.0047822408 -0.16558163 0.46565592
0.0049087289 -0.16500406 0.46381986
0.01464328 -0.16467841 0.4620609
0.022356028 -0.16193995 0.46108964
-0.0025549922 -0.1591164 0.46238089
0.0060128132 -0.15607165 0.46262717
0.015102871 -0.15489039 0.46331134
0.024099939 -0.15449542 0.46173948
0.008733334 -0.14608987 0.46165085
0.015178016 -0.14479692 0.46481988
0.025246296 -0.14482452 0.4635365
0.033611506 -0.14291044 0.46157748
0.01454502 -0.1350811 0.46613806
0.025015747 -0.13500108 0.46620813
0.034875266 -0.13486907 0.46257305
0.042676445 -0.13299474 0.46120277
0.014646947 -0.12493993 0.46581894
0.025000799 -0.12499174 0.46875152
0.035125937 -0.12499797 0.46563706
0.044851981 -0.12491583 0.46294487
0.053402226 -0.12325132 0.46164012
0.013569795 -0.11551963 0.4665263
0.027311962 -0.11548784 0.46971247
0.035266824 -0.11498471 0.46749985
0.044870771 -0.11496561 0.46425903
0.054779518 -0.11487918 0.46269351
0.063948587 -0.11289467 0.46145892
0.070861548 -0.11090517 0.46094036
0.028501943 -0.1082845 0.46994957
0.035989851 -0.106567 0.4689056
0.044980515 -0.10499765 0.46679354
0.054971971 -0.10493795 0.46380535
0.065002322 -0.10513698 0.46201149
0.071987405 -0.10429677 0.46103147
0.046435427 -0.095462508 0.46903187
0.055180714 -0.095014319 0.46556219
0.065056391 -0.094928697 0.4633607
0.073436841 -0.094234474 0.46145171
0.048112627 -0.087693997 0.46982199
0.055000335 -0.085308723 0.46817151
0.065040536 -0.085035957 0.46547604
0.074987672 -0.084996708 0.46325225
0.083596177 -0.083268367 0.46156201
0.091658607 -0.08134298 0.46093816
0.057617683 -0.078818932 0.46969566
0.065667495 -0.075885989 0.46874422
0.074771248 -0.074787423 0.46606901
0.085138321 -0.074969597 0.46264139
0.093589924 -0.074246757 0.4613758
0.068291046 -0.066180982 0.46994433
0.075045481 -0.064832434 0.46762654
0.084874995 -0.065108992 0.46454957
0.094996244 -0.064833559 0.46330106
0.10310926 -0.063621223 0.46179819
0.076493613 -0.055339079 0.4698382
0.0849557 -0.055095293 0.46828774
0.095053874 -0.054948699 0.46491441
0.10500416 -0.055145923 0.46227074
0.11234947 -0.052272763 0.46128893
0.077769667 -0.04935484 0.46994364
0.086003885 -0.045789208 0.4694421
0.09521506 -0.0449562 0.46797016
0.10497934 -0.045099624 0.46510258
0.11489666 -0.044923436 0.46279123
0.12212317 -0.042675689 0.46158686
0.088554367 -0.038083702 0.46994218
0.095336318 -0.03617705 0.46928018
0.10520718 -0.035100169 0.46695301
0.11493671 -0.034794364 0.46450609
0.12333281 -0.034205724 0.46195394
0.10719672 -0.026489869 0.46936327
0.11511041 -0.025320662 0.46732637
0.12514508 -0.025137864 0.46387973
0.13179748 -0.024874987 0.46136877
0.10902065 -0.017501751 0.46993941
0.11580064 -0.015617444 0.46879724
0.1251853 -0.014878037 0.46452883
0.13114366 -0.014538972 0.46188223
0.11889651 -0.0079421122 0.46973801
0.12482698 -0.00670395 0.46804208
0.19787252 0.079283662 0.46992788
0.1975341 0.085264884 0.46912843
0.20483121 0.08570186 0.46653882
0.21233709 0.086216837 0.46522155
0.19827527 0.092256136 0.46942881
0.20511101 0.095194213 0.46831816
0.21167839 0.094450474 0.46664608
0.20583363 0.10450985 0.46940181
0.21244062 0.10068998 0.4669264
-0.065035485 -0.18150018 0.47868618
-0.055307627 -0.18091321 0.47506189
-0.044502895 -0.18055305 0.47345963
-0.038904168 -0.18036331 0.47295845
-0.064250752 -0.17729108 0.47829744
-0.054565523 -0.17710473 0.47520596
-0.04452062 -0.17692423 0.47365999
-0.03430875 -0.17651838 0.47177774
-0.027933484 -0.17690097 0.47095639
0.018019166 -0.11330206 0.4709515
0.022595331 -0.11442239 0.47095037
0.017606888 -0.1046005 0.47143498
0.024168128 -0.10440201 0.47145855
0.03361997 -0.10195167 0.47120708
0.0156586 -0.09439519 0.47303042
0.024632746 -0.094735637 0.47329527
0.035179123 -0.094718285 0.47208259
0.04195657 -0.094525993 0.47094777
0.014848686 -0.08511202 0.47773507
0.024675524 -0.08507441 0.4767493
0.034916013 -0.085023627 0.47342825
0.044397019 -0.084218495 0.4715921
0.051897872 -0.080644861 0.47094673
0.01526957 -0.078188479 0.47995478
0.025407614 -0.075199179 0.47854307
0.03466583 -0.074915878 0.47630298
0.044738617 -0.07531812 0.47447109
0.054565098 -0.074270964 0.47222093
0.062377628 -0.071969256 0.47094518
0.028108392 -0.067901641 0.47985283
0.035409905 -0.06513124 0.47884801
0.044710025 -0.064984366 0.47681057
0.054871671 -0.065132715 0.4739061
0.064072095 -0.064416535 0.47149646
0.037807636 -0.057791993 0.47986817
0.045274988 -0.05508478 0.47872207
0.055038046 -0.055097252 0.47560596
0.065224163 -0.055141166 0.47230521
0.072219759 -0.054276165 0.4709444
0.048557166 -0.048314352 0.47994995
0.055573549 -0.04538957 0.47778475
0.064959124 -0.044816177 0.47439545
0.07478141 -0.044907138 0.47234142
0.081949249 -0.042980324 0.4711785
0.057425499 -0.038199451 0.4795852
0.06565991 -0.035957612 0.47890177
0.07519339 -0.03498362 0.47626176
0.084570318 -0.034733962 0.47266641
0.093258783 -0.031981114 0.47119167
0.069416888 -0.02912985 0.47994697
0.075279407 -0.02480701 0.47856671
0.084948227 -0.024653286 0.47518724
0.09504389 -0.025038516 0.47358072
0.10287961 -0.02423971 0.47191691
0.075729631 -0.014816025 0.47985578
0.085312463 -0.014675764 0.47788912
0.095185034 -0.014570768 0.47428635
0.10462321 -0.014514731 0.4718951
0.11259247 -0.010788127 0.47103912
0.078716479 -0.0078577651 0.47994661
0.085596181 -0.0051595639 0.47816408
0.095128648 -0.0045652883 0.4748373
0.1049163 -0.0046673734 0.47353503
0.11464828 -0.0045156172 0.47243142
0.122407 -0.0019637479 0.47193772
0.088235438 0.002672334 0.47961211
0.095119357 0.0049957917 0.4778077
0.10506225 0.0053806496 0.47567725
0.11497897 0.0051519815 0.47457483
0.12240189 0.0038201308 0.4738965
0.097301453 0.014049909 0.47953051
0.10473082 0.015241265 0.47831789
0.11495893 0.015083489 0.47766533
0.12242785 0.015165213 0.4770343
0.1065914 0.024252059 0.47984049
0.11484181 0.025240162 0.47886333
0.12154645 0.024581943 0.47821775
0.10905436 0.031347398 0.47994319
0.11556508 0.033310011 0.47913113
0.12204801 0.03731453 0.47956589
0.12451549 0.044125319 0.47987187
0.15936707 0.078813173 0.4769361
0.16358279 0.078587405 0.4764806
0.17650269 0.078877412 0.47271809
0.18454669 0.07836023 0.47140887
0.19010073 0.079007164 0.47192955
0.15906368 0.080942951 0.47726965
0.1658812 0.083639316 0.47838962
0.17487182 0.085103162 0.47531006
0.18497299 0.085252933 0.4728041
0.19235113 0.0854453 0.47157824
0.17569353 0.094327554 0.47858888
0.18497057 0.095267043 0.47509855
0.19420053 0.095579654 0.47215417
0.20075268 0.099098757 0.47092879
0.17831042 0.10570416 0.47993407
0.18491158 0.10488143 0.47656417
0.19513527 0.10509017 0.47312766
0.20189318 0.10562028 0.4715291
0.17808399 0.1122591 0.47993466
0.18520987 0.11355388 0.47817817
0.19487076 0.11199322 0.47418103
0.20175672 0.11067673 0.47212949
-0.10445608 -0.18341246 0.48955005
-0.095059194 -0.18324675 0.48802286
-0.085005842 -0.18284833 0.48496819
-0.07515303 -0.18223777 0.48246607
-0.069657914 -0.18278199 0.48096487
-0.10268649 -0.17848645 0.48897225
-0.095093042 -0.17850135 0.48837063
-0.084725335 -0.17897092 0.48509338
-0.074699454 -0.17807481 0.48231632
0.0081293667 -0.07257735 0.48218748
0.014909185 -0.073666342 0.48195517
0.021491701 -0.071424887 0.48112068
-0.0037709118 -0.061801378 0.48674276
0.0052033155 -0.064773589 0.48523223
0.015110098 -0.065378621 0.4843621
0.024535337 -0.064551488 0.48254642
0.031577878 -0.061609004 0.48095259
-0.0020405806 -0.056929689 0.48956013
0.0054946179 -0.055148359 0.48779741
0.015147189 -0.05540242 0.48548782
0.025184749 -0.055210136 0.483767
0.03449627 -0.054310642 0.48202941
0.041981984 -0.051235478 0.48109403
0.0087715965 -0.048102032 0.48975849
0.015490353 -0.045716606 0.48770726
0.025239712 -0.045215171 0.48481455
0.035281088 -0.045124315 0.48381245
0.04483771 -0.044594381 0.48205444
0.051533177 -0.041884273 0.48094985
0.017214041 -0.036974441 0.48895749
0.025440319 -0.035347864 0.4872734
0.035390325 -0.035140455 0.48532882
0.045325123 -0.034995671 0.48329547
0.054767244 -0.034190882 0.48215723
0.063511267 -0.032027122 0.48119807
0.028043862 -0.026610119 0.48953295
0.035492208 -0.025209798 0.48766893
0.045458138 -0.024967959 0.4856447
0.055455159 -0.024941331 0.48371598
0.065194771 -0.024767756 0.48164666
0.070816465 -0.023547782 0.48094714
0.029986134 -0.019510411 0.48995617
0.035855338 -0.017101983 0.48928842
0.04461975 -0.015106514 0.48764083
0.054951053 -0.014804479 0.48421881
0.065260276 -0.014788161 0.4816052
0.07095734 -0.014282154 0.48094782
0.038931351 -0.0016274495 0.48995563
0.044656701 -0.0046808086 0.4881961
0.054746948 -0.0049226191 0.48564327
0.065066494 -0.0047172359 0.4837074
0.074731722 -0.0042425329 0.48193082
0.081716187 -0.0011867646 0.4811132
0.045111969 0.0016437427 0.48945457
0.056156181 0.0037107791 0.48958871
0.064851582 0.0053741368 0.48796627
0.074784286 0.0051959022 0.48470974
0.084302932 0.0060269935 0.48233244
0.09088587 0.0090528037 0.48094535
0.059117634 0.01267674 0.48995239
0.065247148 0.014712358 0.48852825
0.074827909 0.015340575 0.48583639
0.084680557 0.01526436 0.48346949
0.092992507 0.016470017 0.48147044
0.067344762 0.023226712 0.48929629
0.074773051 0.024875496 0.4871397
0.084656887 0.025296362 0.48388228
0.094880626 0.02537797 0.48249504
0.10286643 0.027107703 0.4812519
0.07702861 0.033521887 0.48895019
0.084966242 0.03497747 0.48745713
0.094938539 0.035102747 0.48564294
0.10478672 0.03500982 0.48291054
0.11427229 0.038184717 0.48163226
0.079817161 0.040521931 0.48995015
0.086038992 0.04306408 0.48940843
0.095491074 0.044208787 0.48857212
0.10494244 0.04473361 0.48585412
0.11505629 0.044603277 0.48322368
0.12433162 0.043741148 0.48094091
0.098342061 0.050738525 0.48994696
0.10477607 0.051494956 0.48776385
0.11061499 0.050218668 0.48494428
0.16651526 0.08866901 0.48093528
0.16736524 0.094787836 0.48132017
0.17275274 0.098813944 0.4809348
0.16940171 0.1022117 0.48093575
0.1743436 0.1048341 0.48093498
0.17993765 0.11625472 0.48093459
0.18160976 0.11709043 0.48093429
-0.11078811 -0.18657561 0.49097335
-0.10886811 -0.18721597 0.49097294
-0.044561733 -0.060611527 0.49926892
-0.035579205 -0.060146347 0.49863374
-0.014857273 -0.060874682 0.49396259
-0.0083615556 -0.060506012 0.49096119
-0.043396279 -0.057304244 0.49969113
-0.034847964 -0.055428892 0.49924725
-0.024885163 -0.054412235 0.49778515
-0.014659926 -0.054662611 0.49535069
-0.0061365124 -0.054188263 0.49245107
0.0020939761 -0.050693899 0.49095973
-0.032139134 -0.049064826 0.49996716
-0.024090005 -0.046747074 0.49922135
-0.014972051 -0.045132544 0.49794587
-0.0052085477 -0.044885173 0.4951961
0.0047791819 -0.044339962 0.49263763
0.011269332 -0.041521613 0.49095848
-0.013313333 -0.035575025 0.49929753
-0.0052175559 -0.034628589 0.49616566
0.0050281216 -0.035012238 0.49371469
0.013738921 -0.033827975 0.49155223
0.021084938 -0.031069366 0.4909572
-0.012236375 -0.026310371 0.49956468
-0.0052266233 -0.024974391 0.49721333
0.0051918929 -0.025419105 0.49462768
0.015405096 -0.025437938 0.49356818
0.023851866 -0.024405254 0.49177295
-0.0026393603 -0.017216377 0.49941796
0.0051494059 -0.015262914 0.49749306
0.015468054 -0.015205835 0.49553779
0.025032813 -0.015133034 0.49313617
0.033365551 -0.013041028 0.49125898
0.040289391 -0.010591482 0.49095467
-0.0006847016 -0.0088235382 0.49996352
0.0054474003 -0.005138224 0.49876255
0.015126671 -0.0050464217 0.49689269
0.024686776 -0.0047031273 0.49459779
0.034373984 -0.0049967449 0.49193996
0.040289715 -0.0086713806 0.49095482
0.0079727536 0.0025339578 0.49974829
0.014916009 0.0048492071 0.49859399
0.024728267 0.0051708948 0.49639255
0.034721993 0.0054461882 0.49372265
0.044731874 0.0066840933 0.49228844
0.053660322 0.0072083636 0.49124351
0.016789133 0.013063703 0.4991923
0.024436645 0.01486781 0.49744335
0.034854475 0.015153274 0.49556494
0.045038223 0.015098766 0.49390203
0.054669302 0.01525412 0.49160063
0.061095264 0.017886555 0.49095243
0.026419584 0.023328181 0.4993977
0.034981251 0.024937417 0.49738038
0.045123693 0.024806684 0.49481577
0.055252988 0.024719795 0.49309471
0.063398242 0.02571295 0.49143818
0.036462184 0.033901967 0.49912107
0.045428917 0.03523523 0.49733806
0.055279229 0.035039488 0.49600503
0.064988159 0.035055462 0.49381229
0.072956525 0.03647681 0.49173915
0.039732955 0.040052146 0.49995866
0.0461994 0.043155599 0.49941584
0.05455374 0.045130439 0.49768326
0.064669929 0.045154043 0.49495369
0.074915782 0.045212042 0.49230877
0.083881587 0.047755212 0.49099147
0.092910171 0.049050897 0.49094802
0.048859641 0.051782403 0.49995765
0.054774757 0.053320006 0.49854735
0.063443124 0.052823741 0.49630943
0.072167598 0.051575053 0.49332768
0.085742086 0.050844193 0.49094966
0.095150232 0.051990669 0.49112421
-0.10172647 -0.085905299 0.50945294
-0.094549492 -0.084654845 0.50691772
-0.085926801 -0.083111621 0.5044933
-0.079539709 -0.080491848 0.50397491
-0.093427561 -0.07788875 0.50907326
-0.084762767 -0.075261936 0.50778347
-0.07867898 -0.073808402 0.50777525
-0.082080029 -0.0692176 0.50997639
-0.074367709 -0.065407366 0.50997502
-0.065790437 -0.061828692 0.50792587
-0.055596102 -0.060816616 0.50422132
-0.071869366 -0.054844044 0.50982141
-0.064807646 -0.055103626 0.50820327
-0.054831877 -0.054494485 0.50511163
-0.045932539 -0.053254459 0.50175935
-0.038135882 -0.051719844 0.50096828
-0.071506247 -0.048544049 0.50997567
-0.064372033 -0.045642309 0.50895476
-0.054942589 -0.044659175 0.50740099
-0.045144986 -0.044624247 0.5049358
-0.03541318 -0.045093276 0.50192899
-0.026260134 -0.042337831 0.50106168
-0.060867637 -0.037909009 0.50997424
-0.054481011 -0.035563447 0.50946021
-0.044827688 -0.035079978 0.5071876
-0.034869693 -0.035175759 0.50411171
-0.024954697 -0.035092756 0.50293541
-0.017510992 -0.033929843 0.50126958
-0.051669758 -0.029157331 0.50997293
-0.044224076 -0.025631726 0.50829172
-0.034960825 -0.024722945 0.50545186
-0.025047135 -0.02469643 0.50485826
-0.016405441 -0.024189845 0.50217623
-0.04156528 -0.018623693 0.50972158
-0.034767147 -0.017217867 0.50909519
-0.025192756 -0.014910924 0.50775403
-0.015015696 -0.015120069 0.5045622
-0.0066432846 -0.014402376 0.50198829
-0.023819679 -0.005877133 0.5091083
-0.015234536 -0.0049755881 0.50685984
-0.0054331375 -0.0048130862 0.50288427
0.00094786962 -0.0013311815 0.50096381
-0.021369718 0.0028953785 0.50974667
-0.015272936 0.0049479422 0.5081923
-0.0052986997 0.0049120113 0.5044477
0.0042664208 0.0056629693 0.50184464
-0.020637766 0.01825997 0.50996995
-0.01529368 0.014906497 0.50898635
-0.0053217714 0.014855038 0.5071851
0.005227183 0.014779503 0.50458914
0.013397817 0.0160414 0.50166255
-0.014623685 0.024203153 0.50948185
-0.0053334772 0.024839839 0.50859225
0.0052534938 0.024749594 0.50675064
0.015075469 0.02526724 0.50389153
0.023096876 0.026857298 0.50146127
-0.011993347 0.030224949 0.509969
-0.0048212889 0.031963427 0.50968188
0.0057476452 0.034102779 0.50903964
0.01516896 0.035332695 0.50694317
0.024897348 0.035073455 0.5032472
0.032613602 0.036651678 0.50127578
0.0093934471 0.044293001 0.5099656
0.015376549 0.045037355 0.50865656
0.025035974 0.045155235 0.50596237
0.03518302 0.044874813 0.50340259
0.04371066 0.047057141 0.50178599
0.0099490974 0.054154124 0.50996619
0.015062976 0.054749601 0.50849456
0.025031189 0.054721348 0.50579
0.03447751 0.053197607 0.5052712
0.043652873 0.05260361 0.50299728
0.016265817 0.06171013 0.50796539
0.021435311 0.061704133 0.5064643
-0.1134195 -0.083073974 0.51505893
-0.1064207 -0.084136806 0.51175457
-0.12115214 -0.076714464 0.51998413
-0.11525746 -0.074844986 0.51790452
-0.10528646 -0.074741736 0.51419514
-0.096369125 -0.073577978 0.51180756
-0.088968948 -0.071283914 0.51097763
-0.12102665 -0.068608478 0.51848471
-0.11464667 -0.0654817 0.51749516
-0.1051145 -0.064999551 0.51667386
-0.094713189 -0.065261692 0.5139972
-0.085129224 -0.064738661 0.51191962
-0.076803818 -0.063481517 0.51111358
-0.11178222 -0.058187556 0.51898354
-0.10478815 -0.055208396 0.51876408
-0.095029831 -0.05490895 0.51676589
-0.085276261 -0.05487249 0.51390272
-0.076555103 -0.055008285 0.51136506
-0.10383295 -0.045616589 0.5188064
-0.095294118 -0.044931367 0.51822591
-0.085226014 -0.044970054 0.51605439
-0.075591221 -0.044795182 0.51286358
-0.06769114 -0.041774098 0.5110662
-0.092328273 -0.039127216 0.51960582
-0.083356753 -0.036338843 0.51885796
-0.074861869 -0.034917098 0.51599634
-0.065123603 -0.034793954 0.51210868
-0.057988562 -0.032321967 0.51097405
-0.081742197 -0.024276089 0.5194242
-0.074730858 -0.024932167 0.51724732
-0.065118589 -0.025167059 0.51467258
-0.055419546 -0.024668442 0.51272398
-0.048073187 -0.02240009 0.51115453
-0.081549756 -0.018414734 0.51964682
-0.074976072 -0.017337253 0.51894182
-0.064565189 -0.015917061 0.51874268
-0.054593705 -0.015165346 0.51664805
-0.04510542 -0.014731508 0.51292825
-0.035802078 -0.012833978 0.51149076
-0.060361598 -0.009844753 0.51997626
-0.054498442 -0.0053704265 0.51847529
-0.045048084 -0.0050532627 0.51534837
-0.034873839 -0.0049564587 0.51279664
-0.027441934 -0.0026378876 0.51104122
-0.052486032 0.0033092923 0.51938742
-0.045250952 0.0050464505 0.51768851
-0.03492358 0.005014353 0.51465052
-0.025443405 0.0054484894 0.51159495
-0.043954954 0.014347881 0.51925242
-0.034989577 0.015103436 0.51559782
-0.024945822 0.014800829 0.51180083
-0.042429894 0.02481949 0.51976466
-0.034885149 0.025116406 0.51667732
-0.024753818 0.025037028 0.51252234
-0.018016025 0.02762644 0.51107013
-0.033184431 0.033149563 0.5190537
-0.024776459 0.034816939 0.51571733
-0.014969753 0.035340179 0.51240331
-0.0049162577 0.037426259 0.51146805
0.0027720996 0.038807862 0.51096654
-0.024298135 0.044512074 0.51852041
-0.014820337 0.045365345 0.51575655
-0.0047131982 0.045159314 0.51345843
0.0041855173 0.045126144 0.51139849
-0.021933766 0.052041501 0.51980615
-0.014901565 0.054473545 0.51811439
-0.004723791 0.053982012 0.51463592
0.00536018 0.054308247 0.51187462
-0.26210248 -0.20030263 0.52900469
-0.26049313 -0.19846408 0.52900451
-0.25421122 -0.19555731 0.52823597
-0.24681021 -0.19600794 0.52621597
-0.23890136 -0.19765528 0.52199996
-0.25359553 -0.18681915 0.52900398
-0.10588832 -0.041484635 0.52098358
-0.12117145 -0.033283647 0.52998751
-0.11464787 -0.034404531 0.52769709
-0.10475101 -0.035043232 0.52424312
-0.095273502 -0.034578644 0.52272189
-0.08676827 -0.032855481 0.52137142
-0.12094051 -0.029368749 0.52998775
-0.11524259 -0.025290767 0.52959102
-0.10522696 -0.025099453 0.52739275
-0.095081799 -0.024966646 0.52451319
-0.08673089 -0.025090514 0.52152908
-0.11366146 -0.0182239 0.52998704
-0.10553601 -0.015010287 0.52894849
-0.09524294 -0.015418976 0.52541184
-0.085586295 -0.014884256 0.52228361
-0.075651206 -0.01270819 0.52129751
-0.06726937 -0.011673609 0.52097768
-0.10308892 -0.0055307574 0.52955717
-0.095173523 -0.0053708754 0.52679181
-0.085542656 -0.0051413993 0.52474982
-0.075010277 -0.0051242891 0.5228548
-0.064684145 -0.0050260881 0.5214321
-0.058778398 -0.0013747371 0.52097654
-0.10020916 0.0017170196 0.52998573
-0.094264992 0.004980864 0.52842057
-0.084984042 0.0051286565 0.52554274
-0.074847035 0.0049586068 0.52430749
-0.064853154 0.0051061511 0.52340698
-0.056381166 0.0060189613 0.52157038
-0.092254683 0.01417868 0.52985448
-0.084800586 0.014808165 0.52867728
-0.074844085 0.014742954 0.52649146
-0.064919002 0.014668116 0.5239383
-0.055140451 0.014610385 0.52189541
-0.04824882 0.016026465 0.52097565
-0.083582081 0.023262806 0.52970791
-0.0748825 0.024627944 0.52772719
-0.065067843 0.024977917 0.52515858
-0.05527813 0.024882812 0.52320993
-0.047063332 0.025349798 0.52122617
-0.074365854 0.031671859 0.52985746
-0.064589195 0.034689829 0.52903187
-0.055150505 0.035313148 0.52662444
-0.044893403 0.035003271 0.52347642
-0.036122479 0.036755517 0.52159971
-0.060132001 0.041090015 0.52998018
-0.053574152 0.043873686 0.52916652
-0.044688888 0.044988651 0.52705878
-0.034850746 0.044701986 0.5237301
-0.028336147 0.047428351 0.52122384
-0.04467576 0.054774493 0.52899927
-0.034832969 0.054940548 0.52542025
-0.025666742 0.055922244 0.52236933
-0.019717792 0.05872263 0.52097285
-0.050850321 0.066552028 0.52998018
-0.044826657 0.065112397 0.52872884
-0.035413671 0.065096132 0.52672684
-0.026148651 0.062582284 0.5241968
-0.051068641 0.072561547 0.52998066
-0.045755487 0.072760932 0.52844107
-0.038490806 0.071080223 0.5269779
-0.30078176 -0.2026784 0.53901285
-0.29449394 -0.20221929 0.53778929
-0.28519437 -0.20159422 0.53612065
-0.27576318 -0.20152932 0.53409088
-0.26779404 -0.20065995 0.53117257
-0.30064058 -0.19874385 0.53901309
-0.29449072 -0.19525085 0.53827405
-0.28510749 -0.19452649 0.53617281
-0.27527243 -0.19503093 0.5343349
-0.26475722 -0.19486295 0.53100574
-0.25827861 -0.19256426 0.5300045
-0.29173177 -0.18732789 0.53891212
-0.28468579 -0.18543233 0.5376243
-0.27490488 -0.1849477 0.53540868
-0.2648491 -0.18508518 0.53183627
-0.25753012 -0.18461908 0.53005034
-0.28207177 -0.1777093 0.53871071
-0.27502933 -0.17515114 0.53723162
-0.26478955 -0.17514262 0.53362423
-0.25728184 -0.17554386 0.53119612
-0.2726002 -0.16546035 0.53823698
-0.26492694 -0.16513932 0.53503078
-0.25880837 -0.16654427 0.53257805
-0.27103084 -0.15865356 0.53900987
-0.2664583 -0.15819427 0.53770119
-0.15295668 -0.031706039 0.53749442
-0.14394151 -0.033995736 0.53572756
-0.13541082 -0.034075931 0.5340842
-0.12616903 -0.033567738 0.53163135
-0.15461028 -0.026343752 0.5393194
-0.14528555 -0.025065461 0.53778952
-0.13510153 -0.02529636 0.53494561
-0.12543957 -0.025371805 0.53185856
-0.11978295 -0.021118307 0.5309881
-0.14450428 -0.015257533 0.53929383
-0.13489817 -0.015026292 0.53602755
-0.12473094 -0.014726404 0.53263676
-0.115898 -0.013741016 0.53124434
-0.1427639 -0.0066400934 0.53972745
-0.13472758 -0.0050279493 0.53815937
-0.12500598 -0.0046300315 0.53594875
-0.11485244 -0.0045250761 0.53380466
-0.10700259 -0.0028354574 0.53193414
-0.13054767 0.0021054624 0.53974223
-0.12442378 0.0046198745 0.53859109
-0.11532613 0.0051512816 0.5364266
-0.10524959 0.0053587621 0.53360409
-0.09861356 0.0077242027 0.5313192
-0.12104789 0.011602059 0.53974092
-0.11458877 0.014648942 0.538212
-0.10528646 0.014976544 0.53470206
-0.097095057 0.015473736 0.53156298
-0.11351337 0.025206851 0.53899032
-0.10527497 0.024618415 0.53605384
-0.095309108 0.024683764 0.53349668
-0.087298132 0.02639845 0.53173488
-0.11251965 0.031996794 0.53960609
-0.10431322 0.034339637 0.53871638
-0.094784819 0.034816246 0.53687841
-0.085138522 0.034345489 0.53381109
-0.075681865 0.036611378 0.53193051
-0.066962145 0.038678635 0.53134507
-0.10103727 0.041519802 0.53998899
-0.094463222 0.044290349 0.53856564
-0.084589966 0.044368252 0.53610814
-0.074483268 0.045406461 0.53511387
-0.064766623 0.04560874 0.53327322
-0.056568637 0.047822278 0.53162706
-0.092391767 0.051185437 0.53986287
-0.084493704 0.054190099 0.53867531
-0.075048022 0.055282317 0.53669608
-0.064930901 0.055467378 0.53537005
-0.054881066 0.055181913 0.53263319
-0.04916821 0.055701353 0.53097892
-0.082961895 0.063817583 0.53957015
-0.074942596 0.065440558 0.53773528
-0.064886041 0.065193266 0.53573304
-0.055488434 0.064549483 0.53245723
-0.081675053 0.070024803 0.53998697
-0.079563335 0.070024446 0.53998655
-0.055235285 0.071969621 0.53198153
-0.3019211 -0.19349396 0.54084712
-0.29877383 -0.19158134 0.54021323
-0.30260751 -0.18480296 0.54356009
-0.29592746 -0.18406929 0.54134655
-0.28879976 -0.18131903 0.54026192
-0.3030411 -0.17485294 0.54544884
-0.29469788 -0.1748296 0.54328632
-0.28603229 -0.17434722 0.54109514
-0.27951336 -0.17138228 0.54001069
-0.30346015 -0.16595553 0.54786247
-0.29506823 -0.16483925 0.54597455
-0.28445181 -0.16511349 0.54265803
-0.27715972 -0.16392882 0.54045516
-0.29338235 -0.15550748 0.5481528
-0.28508562 -0.15478976 0.54571766
-0.27496621 -0.15459409 0.541825
-0.26836693 -0.15269016 0.54056525
-0.29132402 -0.14919025 0.54901493
-0.28436092 -0.14541717 0.54771066
-0.2752251 -0.14515719 0.5442313
-0.26961243 -0.14537135 0.54276061
-0.28320611 -0.13447283 0.54784769
-0.27560538 -0.13521414 0.54488766
-0.2697351 -0.13623767 0.54301131
-0.28223523 -0.12799743 0.54844326
-0.27595279 -0.12705266 0.54737341
-0.18109445 -0.022540594 0.54900116
-0.175202 -0.022233607 0.54622716
-0.16480415 -0.022703869 0.54218519
-0.15623678 -0.021296363 0.54107285
-0.18161362 -0.014928711 0.54900181
-0.17506377 -0.014419651 0.54684502
-0.16492124 -0.014712731 0.54378086
-0.15492778 -0.014330976 0.54193228
-0.1483649 -0.011873926 0.54099494
-0.18109182 -0.0067965379 0.54900235
-0.1746332 -0.0052198828 0.54819155
-0.16494745 -0.0044431998 0.54673821
-0.15497054 -0.0047962326 0.5440414
-0.14596698 -0.0033159279 0.54183382
-0.13790241 -0.00070983876 0.54099357
-0.16372426 0.0042307754 0.54868919
-0.15498169 0.0055018226 0.54712546
-0.14512803 0.0051651448 0.54476827
-0.1354585 0.0055852393 0.5425269
-0.12755831 0.0086368565 0.54124206
-0.16182192 0.012784216 0.54999977
-0.15493281 0.015122715 0.5484767
-0.1450424 0.015466359 0.54615551
-0.1351368 0.015290934 0.54469419
-0.12535751 0.015350119 0.5430159
-0.11881455 0.017751474 0.54132426
-0.15265624 0.02256912 0.54969853
-0.14485814 0.025121389 0.54823613
-0.13457714 0.025221191 0.54574484
-0.1247777 0.025162846 0.54322535
-0.11853628 0.025032779 0.5411343
-0.14259726 0.035025276 0.54989207
-0.13491143 0.03532223 0.54746515
-0.12491337 0.035120949 0.54432696
-0.11598786 0.035991661 0.54204726
-0.10824689 0.038579892 0.54119027
-0.14237981 0.042812888 0.54999793
-0.1350693 0.043756921 0.54921502
-0.12479203 0.045024022 0.54817212
-0.11497357 0.045372389 0.54588121
-0.10547363 0.045003295 0.54253775
-0.099107675 0.047943208 0.54098904
-0.12154681 0.053762693 0.54999429
-0.11513229 0.055398736 0.54844201
-0.10484502 0.055241432 0.54501307
-0.095605977 0.055214513 0.5418573
-0.089021519 0.057743955 0.54098761
-0.12243988 0.066213205 0.5495218
-0.11493593 0.065294348 0.54752451
-0.10458781 0.065074041 0.54566503
-0.094931677 0.064795472 0.54332274
-0.087772317 0.065270387 0.5414046
-0.12314203 0.071930267 0.54912102
-0.11425978 0.073144726 0.54674429
-0.10438045 0.073489025 0.54579854
-0.09557198 0.073478803 0.54433513
-0.087221369 0.072070621 0.54228252
-0.30574441 -0.16182524 0.55035043
-0.30434635 -0.15505645 0.55115366
-0.29793671 -0.153385 0.55024678
-0.30471942 -0.14472151 0.55385149
-0.29526547 -0.14498833 0.55168277
-0.28868291 -0.14261794 0.55034822
-0.31055182 -0.13631453 0.5578534
-0.30514869 -0.13476995 0.55653119
-0.29524046 -0.13506839 0.55311942
-0.28845525 -0.13521133 0.55037254
-0.30455324 -0.12553823 0.55801964
-0.29495481 -0.12491678 0.55495089
-0.28532815 -0.1237473 0.55201554
-0.27787295 -0.12229688 0.55101413
-0.30178854 -0.11880234 0.5586862
-0.29460749 -0.115793 0.5575611
-0.28484124 -0.11448476 0.55517191
-0.27940226 -0.11655655 0.55376488
-0.2922093 -0.10548349 0.5584532
-0.28458649 -0.10486468 0.55685025
-0.29137498 -0.098278388 0.55901891
-0.28496012 -0.095630378 0.55829895
-0.28058589 -0.070299096 0.55901873
-0.27912855 -0.070299342 0.55901843
-0.27718452 -0.064956062 0.55901843
-0.22126067 -0.040572289 0.55100834
-0.21401691 -0.04250047 0.55200672
-0.20637265 -0.043400135 0.55352217
-0.23217316 -0.030820111 0.55651146
-0.22418825 -0.034180731 0.55334288
-0.21523269 -0.035000157 0.55236167
-0.20521109 -0.034908291 0.55227071
-0.19577526 -0.032978669 0.55142653
-0.23274444 -0.025788119 0.55829763
-0.22500484 -0.025110899 0.55642903
-0.21490943 -0.024848366 0.55477905
-0.20500068 -0.024975898 0.55333167
-0.19491537 -0.024802038 0.55165708
-0.18612234 -0.023790706 0.5507164
-0.22390971 -0.015945336 0.55818212
-0.21490782 -0.014871456 0.55688989
-0.20497431 -0.01483752 0.5555374
-0.19475374 -0.014778029 0.5532428
-0.18639152 -0.014625045 0.55087394
-0.22131006 -0.0086145885 0.5590108
-0.21435525 -0.0053032846 0.55820966
-0.20501514 -0.0048967721 0.55642074
-0.1950625 -0.0046890923 0.55412453
-0.18562797 -0.0043340069 0.55113173
-0.17831397 -0.0013128961 0.55000216
-0.21120396 0.0022652573 0.55900949
-0.20439869 0.0051660896 0.55813646
-0.19503331 0.0054143779 0.55639273
-0.18498658 0.0052552428 0.55354965
-0.17502271 0.0055849585 0.55154556
-0.16740663 0.0069033699 0.550188
-0.20151101 0.011663536 0.55900812
-0.19432662 0.014353915 0.55839968
-0.18502669 0.015590684 0.55614132
-0.17508343 0.015334524 0.55384719
-0.1657023 0.01607351 0.55181658
-0.15876317 0.019749923 0.55099964
-0.19220175 0.024347533 0.55900711
-0.18506137 0.024732474 0.55777496
-0.17489913 0.025107976 0.55629617
-0.16455811 0.025303565 0.55363536
-0.15569313 0.026583895 0.55164665
-0.14870603 0.029803686 0.55099821
-0.19079618 0.031408813 0.55900741
-0.1841726 0.033657484 0.55822486
-0.17489178 0.034465451 0.5566166
-0.16496035 0.034784656 0.55442315
-0.15467186 0.035148177 0.55236363
-0.14699145 0.035932731 0.5511288
-0.18049602 0.040928435 0.55900592
-0.17394465 0.043834407 0.55809861
-0.16510201 0.044814296 0.55655855
-0.1551308 0.044403724 0.55388701
-0.14570811 0.045759026 0.55165398
-0.13455896 0.048696712 0.55099666
-0.12787355 0.049911089 0.55099535
-0.17126438 0.051371224 0.55900478
-0.16422959 0.054192614 0.55824667
-0.15494075 0.054899156 0.55616075
-0.14500237 0.054369852 0.55402064
-0.13485189 0.054776397 0.55270839
-0.12529629 0.055541486 0.55148095
-0.1613535 0.061908148 0.55875343
-0.15424562 0.064194575 0.5575918
-0.14490429 0.064832263 0.55571443
-0.13495576 0.064572677 0.55352867
-0.12693861 0.064168416 0.55162126
-0.14440052 0.073257491 0.55790544
-0.13550821 0.072549835 0.55403572
-0.12786582 0.071535207 0.551597
-0.31175703 -0.13100789 0.56002069
-0.31150255 -0.12462573 0.56087834
-0.30806977 -0.12097772 0.56022072
-0.31263646 -0.11463345 0.56396955
-0.3055625 -0.11429753 0.56212598
-0.29842889 -0.11192397 0.56021935
-0.31287944 -0.10462827 0.56515342
-0.30544013 -0.10483257 0.56352139
-0.29755992 -0.10492603 0.56063074
-0.31307185 -0.095713437 0.56827372
-0.30508843 -0.094923839 0.56620163
-0.29576597 -0.094787776 0.56219661
-0.28818268 -0.092114456 0.56001866
-0.31209761 -0.088293895 0.56902409
-0.30470809 -0.085201815 0.56807685
-0.29501548 -0.085079931 0.56430632
-0.28505754 -0.08511585 0.56063759
-0.27962995 -0.082834743 0.56001759
-0.30195594 -0.075412683 0.56886905
-0.29501104 -0.075244278 0.56610471
-0.28519684 -0.075355515 0.56171376
-0.27962866 -0.075534962 0.56001812
-0.29399285 -0.06576024 0.56739229
-0.28501177 -0.064904116 0.56282014
-0.27892604 -0.064122669 0.56024104
-0.29134417 -0.056311809 0.56864715
-0.28461558 -0.054995954 0.56576443
-0.27802733 -0.052273314 0.56368631
-0.28379956 -0.045380976 0.56739175
-0.27610517 -0.043927878 0.56466281
-0.28114951 -0.038922388 0.56902128
-0.27401489 -0.037015937 0.5682199
-0.2674118 -0.035095505 0.56820053
-0.26122689 -0.024727283 0.56901807
-0.25544265 -0.024828369 0.56679815
-0.24539493 -0.023651036 0.56355053
-0.23714359 -0.023013374 0.56076312
-0.25378668 -0.016099906 0.56798381
-0.24475321 -0.014980649 0.56525922
-0.23517194 -0.014930725 0.56222379
-0.22780389 -0.012528755 0.56034529
-0.25147617 -0.0092589688 0.56901723
-0.2445129 -0.0052100224 0.5679605
-0.23498091 -0.0047745635 0.565014
-0.22527122 -0.0044793105 0.56177515
-0.21798199 -0.0020000986 0.5601356
-0.24210273 0.0027701436 0.56868285
-0.2349163 0.0049559805 0.56687969
-0.22508174 0.0055286577 0.5642032
-0.21569756 0.0059360121 0.56165946
-0.2085634 0.0088872518 0.56000942
-0.23301357 0.01278304 0.56861496
-0.22491261 0.015214646 0.56658483
-0.21481022 0.015001354 0.5632816
-0.20530269 0.015290745 0.56113052
-0.19840321 0.01697614 0.56000787
-0.22350268 0.024085229 0.56830555
-0.21543548 0.024722734 0.5659169
-0.20527293 0.024757655 0.5629645
-0.19734316 0.024537219 0.56035608
-0.22130643 0.031777252 0.56901389
-0.21425901 0.033986103 0.56804484
-0.20500387 0.035032634 0.56562978
-0.19534335 0.035246752 0.56208974
-0.18783413 0.037637789 0.56060719
-0.21141538 0.041170582 0.56901258
-0.20443903 0.044819813 0.56798106
-0.19478671 0.045099232 0.56494272
-0.18493676 0.045371685 0.56216109
-0.17747506 0.047831524 0.56020576
-0.20265433 0.051912595 0.56888652
-0.19490254 0.054789659 0.5671314
-0.18522081 0.054894596 0.56419718
-0.17513639 0.055447634 0.56163383
-0.16785851 0.058047447 0.5601474
-0.19267096 0.062921345 0.56869775
-0.18484753 0.064375333 0.56720382
-0.17520812 0.065295711 0.56511474
-0.16544461 0.065431468 0.56194574
-0.15747444 0.068677112 0.56050313
-0.18237707 0.073781602 0.56885505
-0.17495117 0.074848674 0.56715959
-0.16507411 0.075106047 0.56520039
-0.15513735 0.075315349 0.56310844
-0.1482216 0.075964838 0.56066841
-0.17356005 0.084397279 0.56844783
-0.16510168 0.085097983 0.56653947
-0.15571444 0.084811375 0.56437236
-0.17194757 0.094122045 0.56900817
-0.16575642 0.094757482 0.56700695
-0.15714763 0.09275452 0.56435794
-0.16794388 0.10087685 0.5683412
-0.31638846 -0.092667706 0.57002473
-0.31504562 -0.084275045 0.57052511
-0.30929083 -0.081783757 0.57002407
-0.31491423 -0.074829087 0.5722453
-0.30658591 -0.074111409 0.57054257
-0.32099336 -0.063739635 0.57702792
-0.31496692 -0.064828977 0.57524079
-0.30484685 -0.0645248 0.57251161
-0.29832885 -0.063773066 0.57018977
-0.31295985 -0.055597406 0.57793152
-0.30494529 -0.054943968 0.5749929
-0.29605815 -0.055022325 0.5712018
-0.31268591 -0.044623367 0.5778054
-0.30453229 -0.04535225 0.57535917
-0.29472813 -0.045112733 0.57233799
-0.28808805 -0.042436823 0.57042253
-0.31201315 -0.038044605 0.57831371
-0.30454516 -0.035758272 0.57723242
-0.29491067 -0.034850545 0.5754056
-0.28491467 -0.034509148 0.57291996
-0.2753554 -0.032256093 0.57106823
-0.26758391 -0.031198137 0.57014406
-0.29339236 -0.025624966 0.57830489
-0.2849676 -0.025328882 0.57617944
-0.27516532 -0.02502732 0.57354879
-0.26618451 -0.024686703 0.57094228
-0.29289019 -0.016154995 0.57840657
-0.28507161 -0.015183005 0.57582396
-0.2748633 -0.015295153 0.57292652
-0.26507181 -0.015246091 0.5711388
-0.2580246 -0.012867051 0.57010174
-0.29061404 -0.0082723284 0.57827568
-0.28420135 -0.0052320906 0.57705492
-0.27484947 -0.0048483098 0.57468921
-0.26477244 -0.0048688813 0.5725553
-0.25502962 -0.0047132657 0.57089633
-0.24835035 -0.0015485197 0.57001716
-0.28184718 0.0035200401 0.57873905
-0.27502996 0.0049003353 0.57641226
-0.26476854 0.0048768111 0.57371557
-0.25508758 0.0048626489 0.57213026
-0.24627474 0.005534301 0.57046175
-0.27350667 0.011904056 0.57773787
-0.26458898 0.014168861 0.57638079
-0.25497299 0.014625687 0.57475799
-0.24488966 0.014461577 0.57241309
-0.23627816 0.016066754 0.57068259
-0.26262575 0.024794407 0.57827228
-0.25531799 0.025166932 0.57602084
-0.24515888 0.025282821 0.57415199
-0.23484731 0.024982454 0.57187676
-0.22784606 0.025539862 0.5700863
-0.26117197 0.032089978 0.57902253
-0.25417048 0.033758752 0.57775187
-0.24480398 0.034928069 0.57601917
-0.23473819 0.034769431 0.57343376
-0.22523195 0.035842657 0.57115799
-0.21706007 0.038702127 0.57037723
-0.24421813 0.043692928 0.5779798
-0.23554766 0.044766672 0.57571572
-0.22541009 0.045182526 0.57355434
-0.21515962 0.045133904 0.57118034
-0.20844235 0.047557976 0.57001245
-0.24240173 0.055300526 0.57823455
-0.23489207 0.055047486 0.57612514
-0.22472768 0.055197224 0.57492352
-0.21509752 0.054812569 0.57313639
-0.20613444 0.055638406 0.57095003
-0.1994005 0.058577824 0.57001138
-0.24229868 0.060012389 0.57902068
-0.2341767 0.062475111 0.57817292
-0.22422849 0.063765436 0.57778627
-0.21456532 0.065065913 0.57574487
-0.2045233 0.065389849 0.57230574
-0.19612762 0.066258349 0.57035738
-0.18874882 0.069473565 0.57000995
-0.22116403 0.070575282 0.57901698
-0.21489985 0.074717842 0.57663125
-0.20472294 0.075086705 0.57312483
-0.19521552 0.074878 0.57153958
-0.18660428 0.075672723 0.57026917
-0.21305759 0.083545104 0.57801628
-0.20483156 0.084368736 0.57612568
-0.1948294 0.084702417 0.57433796
-0.18511096 0.084868699 0.57208526
-0.17795296 0.086488493 0.5703423
-0.20142128 0.090646617 0.57868093
-0.19413018 0.094484679 0.57755476
-0.18517485 0.094964214 0.57430828
-0.17670174 0.095038362 0.5709427
-0.19149151 0.10348041 0.57810402
-0.18479392 0.10503025 0.57567853
-0.17479853 0.10480721 0.57188851
-0.18474142 0.11487217 0.57723486
-0.17834346 0.11321644 0.57481116
-0.18491699 0.12235521 0.57834655
-0.32251665 -0.054556243 0.5818184
-0.31766182 -0.053968512 0.58034039
-0.32250425 -0.045121312 0.58208531
-0.31750324 -0.045221239 0.58011192
-0.32336867 -0.035349362 0.58364975
-0.31587958 -0.034252252 0.58115411
-0.30739671 -0.031254578 0.58017045
-0.32351881 -0.024768991 0.58530074
-0.31490737 -0.024547359 0.58270466
-0.30483747 -0.024686987 0.580823
-0.29779664 -0.023418127 0.58002609
-0.3230902 -0.014730804 0.5871191
-0.31490627 -0.014776782 0.58515161
-0.30507493 -0.014961497 0.58255762
-0.29781744 -0.014300415 0.58045536
-0.3222425 -0.0089569231 0.5888325
-0.31382629 -0.0062372554 0.5881142
-0.30504 -0.0050633815 0.58556962
-0.2952933 -0.0044937087 0.58166331
-0.28839278 -0.0015698991 0.58002579
-0.31088078 0.0042433469 0.58883101
-0.30499423 0.005115727 0.5866428
-0.29475042 0.0048515243 0.58294201
-0.28621957 0.0053670541 0.58076495
-0.30405051 0.013117362 0.58811355
-0.29454154 0.01432277 0.58659971
-0.28505433 0.014748096 0.58413744
-0.27610555 0.01657862 0.58185798
-0.26842967 0.018789669 0.58002305
-0.28381404 0.024916908 0.58779609
-0.27470899 0.024923442 0.58392817
-0.26731879 0.025763592 0.58054966
-0.28454593 0.035087831 0.58736104
-0.27481383 0.034772731 0.58376092
-0.26555586 0.035552111 0.58135706
-0.25713876 0.037867423 0.58029491
-0.29101714 0.045700535 0.58902997
-0.2848646 0.044809051 0.58741748
-0.27477121 0.044753056 0.58525497
-0.26487276 0.045171946 0.58358252
-0.25487185 0.04523899 0.58165634
-0.2477847 0.047218338 0.5802936
-0.28414023 0.052347891 0.58834475
-0.27477229 0.054206196 0.58747458
-0.26509696 0.05541471 0.5868631
-0.25521523 0.055086419 0.58405536
-0.24758717 0.054898374 0.58079916
-0.26356283 0.063404419 0.58858794
-0.25497714 0.064685896 0.58583456
-0.24488549 0.065422043 0.58245409
-0.23533353 0.067079954 0.58110666
-0.22684383 0.067965381 0.58035129
-0.26055714 0.074103311 0.58902568
-0.25497445 0.074878827 0.58745688
-0.24510571 0.07521572 0.58573306
-0.23497956 0.074988641 0.58396477
-0.22500536 0.075134143 0.58124667
-0.25353014 0.082881033 0.58835816
-0.2449832 0.084599882 0.58727312
-0.23511592 0.085116029 0.58556873
-0.2248619 0.084985852 0.58227527
-0.21642734 0.086671531 0.58037007
-0.20944618 0.088840298 0.58001584
-0.24359606 0.092188589 0.58849013
-0.2349599 0.094990566 0.58733428
-0.2249777 0.094919398 0.58469534
-0.21494564 0.09459579 0.58296341
-0.20508488 0.095021486 0.58155596
-0.19783603 0.097818211 0.58045852
-0.23169264 0.10088512 0.58852154
-0.22446413 0.103333 0.58802027
-0.21510805 0.10525806 0.58666277
-0.20530799 0.10499838 0.58437741
-0.19674367 0.10521681 0.58138949
-0.22037047 0.11095005 0.58901989
-0.2138595 0.1147088 0.58831507
-0.20460756 0.11509496 0.58593571
-0.19491896 0.11489449 0.58178622
-0.18978399 0.1183229 0.58001393
-0.21226378 0.12434029 0.58868587
-0.20496696 0.12509176 0.58640796
-0.19461954 0.12503468 0.58213669
-0.18722643 0.1263811 0.58021396
-0.21115391 0.13014302 0.58901942
-0.20376782 0.13436814 0.58793122
-0.19505826 0.13445427 0.58516347
-0.1887017 0.13288136 0.58251476
-0.20040318 0.14089012 0.58901799
-0.19542873 0.14147609 0.58790582
-0.32465556 -0.0040071015 0.59136665
-0.31730419 -0.0029277715 0.59049851
-0.32478762 0.0050494927 0.5932008
-0.31561354 0.0051814746 0.59079206
-0.33021787 0.019057844 0.59603631
-0.32485718 0.014922281 0.59368479
-0.3149896 0.015260685 0.59124905
-0.3063049 0.017449407 0.59013635
-0.29664287 0.019373756 0.59002918
-0.33108151 0.024861248 0.59853691
-0.32485801 0.025337839 0.59691435
-0.31490529 0.025164146 0.59447467
-0.30499363 0.025137948 0.59280908
-0.29542777 0.024869161 0.59112298
-0.2893613 0.025012488 0.59002799
-0.32256907 0.031827565 0.59878564
-0.31455025 0.034373578 0.59809667
-0.3047533 0.035172254 0.59503216
-0.29534888 0.035100017 0.59154433
-0.28997537 0.031934343 0.5900287
-0.31313598 0.044267133 0.59815961
-0.30458122 0.045162439 0.59432322
-0.29535785 0.044988874 0.59088278
-0.31122598 0.054272756 0.59886825
-0.30498737 0.054544352 0.59574807
-0.29477262 0.055161219 0.59165317
-0.28592631 0.057218894 0.59048432
-0.27735788 0.059311617 0.59002817
-0.31001025 0.060533296 0.5990352
-0.30396506 0.063691266 0.59742546
-0.29513341 0.065424226 0.59557521
-0.28504214 0.065226004 0.59355789
-0.2750299 0.065264881 0.59155738
-0.26733923 0.06597162 0.59020293
-0.29231846 0.071822353 0.5987823
-0.2845166 0.074824609 0.59719747
-0.27494782 0.074583106 0.59380299
-0.26570144 0.075372741 0.59088403
-0.28263161 0.083986178 0.59845972
-0.27479711 0.084778264 0.59566838
-0.26475736 0.085301653 0.59212118
-0.25643608 0.086803526 0.59031987
-0.28033429 0.090199314 0.59903115
-0.27408943 0.094157025 0.59829104
-0.26483303 0.095026717 0.59545237
-0.25499341 0.094690986 0.59248066
-0.2460001 0.096452184 0.59076345
-0.23869191 0.099092416 0.59002286
-0.26349941 0.10293403 0.59862846
-0.25473964 0.1043985 0.59660244
-0.24472782 0.1055148 0.59382486
-0.23505241 0.1055202 0.5911839
-0.22731742 0.10715424 0.59002113
-0.25286794 0.1144819 0.59870893
-0.24506317 0.11510238 0.59608805
-0.23482439 0.11470706 0.59255105
-0.22499254 0.11528524 0.59057128
-0.21800894 0.11788879 0.59001994
-0.25065809 0.12142698 0.59902722
-0.24481839 0.12474526 0.59737229
-0.23505141 0.12480644 0.59336561
-0.22501251 0.12521882 0.59113318
-0.21722643 0.12523767 0.59002036
-0.24356042 0.13505371 0.59780097
-0.23471956 0.13553981 0.59499353
-0.22521393 0.13489808 0.59302288
-0.21518728 0.13470949 0.59107614
-0.20746829 0.13745241 0.59018588
-0.24410482 0.14356954 0.59864664
-0.23523663 0.14523037 0.59782571
-0.22517055 0.14480717 0.59563458
-0.21501632 0.14482798 0.5935477
-0.20574908 0.14528392 0.59156775
-0.19843578 0.14343618 0.59001774
-0.23208679 0.15283002 0.59902567
-0.22485839 0.1543784 0.59742433
-0.21662334 0.15379451 0.59529167
-0.20688294 0.15142581 0.59218681
-0.22385006 0.16180508 0.59869128
-0.33191103 0.02883173 0.6000374
-0.33254179 0.035446264 0.60250473
-0.32604614 0.035533663 0.60083669
-0.31952602 0.037563324 0.60003543
-0.33319876 0.044924933 0.60508657
-0.32496908 0.044657271 0.60291946
-0.31809512 0.045815822 0.60053581
-0.3340109 0.055402998 0.60787857
-0.32554668 0.055199966 0.60597944
-0.31610849 0.05554248 0.60185438
-0.33353713 0.065344088 0.60892057
-0.32519481 0.065292679 0.60697216
-0.31537333 0.065014057 0.60310566
-0.30776522 0.067642257 0.60074955
-0.33305132 0.073767446 0.60892355
-0.32513869 0.075003438 0.60813046
-0.31518039 0.074721597 0.60623747
-0.30516821 0.074515834 0.60394138
-0.29544586 0.075989947 0.60188514
-0.28862542 0.078619406 0.60003203
-0.32272398 0.080994301 0.60903949
-0.31469715 0.083780296 0.60866767
-0.30518541 0.084863879 0.60691106
-0.29545704 0.085289337 0.60419518
-0.28736323 0.085777134 0.60085577
-0.31081447 0.091312364 0.60903776
-0.30467343 0.095423073 0.60827804
-0.29487228 0.094906352 0.60529935
-0.28487337 0.094675221 0.60179102
-0.27704573 0.097631603 0.60021281
-0.30215973 0.10186913 0.60903674
-0.29467899 0.1048054 0.60803527
-0.28512242 0.10428853 0.60497266
-0.27520752 0.10536759 0.60287493
-0.26608291 0.10692459 0.60087943
-0.30088675 0.11869857 0.60903776
-0.29417887 0.1152418 0.60840261
-0.28519958 0.11500452 0.60632366
-0.27587289 0.11521024 0.60470784
-0.2653555 0.11501788 0.60225207
-0.25765041 0.11563904 0.60024256
-0.30088609 0.12266782 0.60903805
-0.29515004 0.1249209 0.60818404
-0.28528988 0.12526958 0.6062572
-0.27507463 0.12497109 0.60492462
-0.26488346 0.12458787 0.60297167
-0.25542539 0.12485751 0.60138142
-0.24951139 0.12710425 0.60002738
-0.29215229 0.13139871 0.60903686
-0.28415883 0.13234891 0.6087625
-0.27428743 0.13450366 0.60772288
-0.2647278 0.13452876 0.60547233
-0.25549215 0.13518676 0.60271674
-0.24911909 0.13453431 0.60002786
-0.27154902 0.14318913 0.60892224
