# .PCD v0.7 - Point Cloud Data file format
VERSION 0.7
FIELDS x y z
SIZE 4 4 4
TYPE F F F
COUNT 1 1 1
WIDTH 1321
HEIGHT 1
VIEWPOINT 0 0 0 1 0 0 0
POINTS 1321
DATA ascii
0.025877148 -0.10415052 0.48257089
0.02653341 -0.10392272 0.48387823
0.026787788 -0.10400121 0.48611674
0.027455151 -0.10376783 0.48742798
0.027725041 -0.10383846 0.48967203
0.01880905 -0.10161643 0.42952493
0.019769639 -0.10113163 0.42986634
0.020262957 -0.10098322 0.43111563
0.02122575 -0.10049731 0.43145785
0.022188544 -0.10001139 0.43180007
0.022690728 -0.099858508 0.43305251
0.022738978 -0.10003527 0.43521747
0.023252264 -0.099876791 0.43647388
0.023316011 -0.10004574 0.43864438
0.023388639 -0.10021022 0.44081807
0.023470148 -0.1003702 0.44299492
0.024007842 -0.10019937 0.44425994
0.024104878 -0.10035153 0.44644231
0.023767933 -0.10082328 0.44954428
0.023884937 -0.10096537 0.45173374
0.024449244 -0.10078111 0.45300823
0.024581775 -0.10091534 0.45520321
0.024723187 -0.1010451 0.45740134
0.024441704 -0.10148883 0.46052307
0.024603084 -0.10160851 0.46272826
0.024773315 -0.10172372 0.46493664
0.024527311 -0.10214956 0.46807098
0.024717525 -0.10225467 0.47028643
0.024916634 -0.10235535 0.47250506
0.02470611 -0.10276325 0.47565207
0.024925172 -0.10285382 0.47787777
0.025153115 -0.10293992 0.48010662
0.02538991 -0.10302153 0.48233867
0.026045159 -0.1027914 0.4836455
0.026297495 -0.10286516 0.48588303
0.026963845 -0.10262942 0.48719382
0.027231708 -0.10269536 0.48943689
0.027508438 -0.10275681 0.4916831
0.018369511 -0.10059798 0.42931542
0.019330099 -0.10011317 0.42965686
0.019822404 -0.099962413 0.43090564
0.020785198 -0.099476486 0.43124786
0.021747991 -0.098990589 0.43159008
0.022249147 -0.098835334 0.43284205
0.022295371 -0.099007398 0.43500602
0.022807643 -0.098846585 0.43626195
0.022869363 -0.099010825 0.4384315
0.022939965 -0.099170595 0.44060421
0.023019448 -0.099325866 0.44278011
0.023107812 -0.09947665 0.44495907
0.023205027 -0.09962298 0.44714126
0.022867247 -0.10008655 0.45024261
0.022984445 -0.1002228 0.45243186
0.023549959 -0.1000351 0.45370671
0.023682669 -0.10016349 0.45590147
0.023824275 -0.10028744 0.45809942
0.023974761 -0.10040689 0.46030051
0.023703516 -0.10083686 0.46342549
0.02387397 -0.10094625 0.46563372
0.024053261 -0.10105114 0.46784505
0.024241447 -0.10115156 0.47005951
0.024438515 -0.10124749 0.47227719
0.024224952 -0.10164836 0.47542271
0.024441987 -0.10173422 0.47764745
0.024667889 -0.10181561 0.47987536
0.024902657 -0.10189253 0.48210642
0.025146291 -0.10196495 0.48434061
0.025807202 -0.10172909 0.48564935
0.026066378 -0.10179371 0.48788905
0.026738361 -0.10155223 0.48920175
0.027013063 -0.10160899 0.491447
0.028095648 -0.10106261 0.49183181
0.018890575 -0.099094734 0.42944735
0.019381851 -0.098941609 0.43069568
0.020344645 -0.098455697 0.4310379
0.021307439 -0.097969785 0.43138012
0.021807596 -0.097812191 0.43263158
0.021851778 -0.097979546 0.4347946
0.021904841 -0.09814246 0.43696085
0.021966755 -0.098300874 0.43913022
0.022037536 -0.098454788 0.44130275
0.022568747 -0.098281547 0.44256529
0.022205755 -0.09874925 0.44565728
0.022303164 -0.098889738 0.44783926
0.022409454 -0.099025771 0.45002443
0.02252461 -0.099157304 0.45221266
0.022648647 -0.099284366 0.45440415
0.023219794 -0.099090964 0.45568085
0.023359358 -0.099210203 0.45787784
0.023074001 -0.0996387 0.46099743
0.023233533 -0.099747866 0.46320149
0.023401946 -0.099852532 0.46540874
0.023579225 -0.099952713 0.46761909
0.023340449 -0.10035773 0.47075528
0.023537695 -0.10044783 0.47297275
0.023743793 -0.10053349 0.47519338
0.023540512 -0.10092059 0.47834218
0.024182677 -0.10069132 0.47964409
0.024415419 -0.10076353 0.4818742
0.024657011 -0.10083126 0.4841074
0.025316924 -0.10059306 0.48541567
0.025574043 -0.10065295 0.48765442
0.026245028 -0.10040914 0.48896661
0.026517704 -0.1004612 0.49121091
0.027600288 -0.099914819 0.49159569
0.017978504 -0.098406732 0.43014348
0.018941298 -0.097920805 0.4304857
0.019904092 -0.097434893 0.43082792
0.020401016 -0.097276077 0.43207809
0.02090238 -0.09711501 0.43332985
0.021408185 -0.096951693 0.43458316
0.021459207 -0.097109884 0.43674845
0.021519095 -0.097263604 0.43891686
0.021587849 -0.097412825 0.44108841
0.021665484 -0.097557575 0.44326314
0.021752 -0.097697854 0.44544101
0.021847382 -0.097833663 0.44762203
0.021505728 -0.098281994 0.45072126
0.021621093 -0.098407716 0.45290938
0.022186786 -0.098214164 0.454184
0.022317663 -0.098332047 0.45637766
0.022457436 -0.09844546 0.45857444
0.02260603 -0.098554388 0.46077439
0.022763535 -0.09865883 0.46297747
0.022929922 -0.098758802 0.46518376
0.023105159 -0.098854288 0.46739313
0.022863343 -0.099252239 0.47052789
0.023058563 -0.099337667 0.47274438
0.023262635 -0.099418595 0.47496405
0.023056313 -0.09979865 0.47811139
0.023697451 -0.099567011 0.47941282
0.023928165 -0.099634528 0.48164195
0.024167731 -0.099697545 0.4838742
0.024416208 -0.099756092 0.48610964
0.025081724 -0.099512175 0.48741975
0.025345713 -0.099562854 0.48966071
0.02602233 -0.099313363 0.49097478
0.017537951 -0.097385928 0.42993349
0.018500745 -0.096900016 0.43027571
0.018994436 -0.096739948 0.43152463
0.019959435 -0.096252918 0.43186763
0.020459816 -0.096089512 0.43311891
0.020502135 -0.096246362 0.43528083
0.020553336 -0.096398726 0.43744591
0.020613402 -0.09654662 0.43961415
0.021138161 -0.096370861 0.44087407
0.02121377 -0.096510917 0.44304782
0.021298245 -0.096646488 0.44522473
0.021391615 -0.096777588 0.44740477
0.021046922 -0.097218856 0.45050257
0.02116023 -0.097339869 0.45268974
0.021724924 -0.097143993 0.45396385
0.021853775 -0.097257152 0.45615655
0.021991506 -0.097365871 0.45835236
0.022138074 -0.09747009 0.46055135
0.022293553 -0.097569838 0.46275347
0.022026509 -0.097971916 0.46587884
0.02220194 -0.098061591 0.46808809
0.022386268 -0.098146766 0.4703005
0.022154704 -0.098530948 0.4734385
0.022358984 -0.098606065 0.47565797
0.022572115 -0.098676711 0.4778806
0.022794142 -0.098742858 0.48010638
0.023025036 -0.098804533 0.48233533
0.023264825 -0.098861724 0.48456743
0.023924902 -0.098617688 0.48587549
0.024180204 -0.098667055 0.48811314
0.024851367 -0.098417431 0.48942509
0.025526971 -0.098165557 0.49073869
0.016622826 -0.096690863 0.43062815
0.017587826 -0.096203834 0.43097115
0.018552855 -0.095716789 0.43131417
0.019049987 -0.095552146 0.43256414
0.019551545 -0.095385253 0.43381572
0.020057514 -0.095216125 0.43506891
0.020106688 -0.095363796 0.437233
0.020164728 -0.095506996 0.43940029
0.020231664 -0.095645681 0.4415707
0.020762041 -0.09546423 0.44283253
0.020844504 -0.095595106 0.44500849
0.020935819 -0.095721498 0.44718754
0.021036029 -0.095843405 0.44936982
0.02114509 -0.095960826 0.45155516
0.021263048 -0.096073791 0.45374373
0.02183114 -0.095873296 0.45501897
0.021964625 -0.095978439 0.45721304
0.021670118 -0.096385777 0.46032831
0.021823555 -0.096480817 0.46252945
0.021553472 -0.096875846 0.46565339
0.021726876 -0.096960798 0.46786165
0.021909162 -0.097041294 0.4700731
0.021674559 -0.097418427 0.47320965
0.021876812 -0.097488821 0.47542813
0.021666616 -0.097853616 0.47857335
0.021888837 -0.097913951 0.48079899
0.02253677 -0.097673178 0.4821026
0.022774532 -0.09772566 0.48433372
0.023433581 -0.097479269 0.4856413
0.023686856 -0.097523943 0.48787796
0.024357006 -0.097271949 0.48918948
0.024625823 -0.097308785 0.49143165
0.025710627 -0.096761286 0.49181724
0.016672924 -0.095502958 0.4316656
0.017640159 -0.095014811 0.4320094
0.018138483 -0.094846666 0.4332597
0.019107953 -0.094357401 0.4336043
0.019148424 -0.094503716 0.43576509
0.019660041 -0.094328895 0.43702012
0.019716069 -0.094467372 0.43918642
0.019780964 -0.094601363 0.44135588
0.020310327 -0.094417572 0.44261724
0.020390764 -0.094543725 0.44479221
0.020480052 -0.094665408 0.44697031
0.02057822 -0.094782621 0.44915161
0.020685256 -0.094895333 0.451336
0.021245703 -0.094695866 0.45260841
0.02136825 -0.09480077 0.45479834
0.021499708 -0.094901174 0.45699146
0.021640047 -0.094997108 0.45918772
0.021353573 -0.09539181 0.46230546
0.021080434 -0.095779777 0.46542794
0.020820603 -0.096161038 0.46855512
0.021003082 -0.096235707 0.4707664
0.020767644 -0.096604645 0.47390229
0.020545527 -0.096966892 0.47704291
0.020759046 -0.097025856 0.47926518
0.020981446 -0.09708038 0.48149061
0.02163063 -0.096836105 0.48279452
0.021868557 -0.09688279 0.4850255
0.022528827 -0.096632928 0.48633334
0.023193523 -0.09638083 0.48764285
0.023453638 -0.096416309 0.48988166
0.024129435 -0.096158624 0.49119505
0.02521424 -0.095611125 0.49158067
0.016725436 -0.094308078 0.43270367
0.017694876 -0.093818814 0.43304828
0.018196627 -0.093646109 0.43429971
0.018702805 -0.093471155 0.43555269
0.019213393 -0.09329398 0.43680725
0.019267395 -0.093427747 0.43897259
0.019330248 -0.093557045 0.44114107
0.019858614 -0.093370885 0.44240192
0.019937009 -0.093492344 0.44457594
0.02002427 -0.093609333 0.44675308
0.020570382 -0.093414232 0.44802022
0.020673171 -0.093523368 0.45020291
0.02078484 -0.093628049 0.45238876
0.0213487 -0.093423963 0.45366222
0.021034792 -0.09382394 0.45676988
0.021173105 -0.093915135 0.45896515
0.020883575 -0.094302788 0.46208143
0.020607397 -0.094683707 0.46520245
0.020344526 -0.095057905 0.46832821
0.020094961 -0.095425397 0.47145873
0.019858703 -0.095786169 0.47459394
0.019635767 -0.096140206 0.47773391
0.019849494 -0.096193373 0.479956
0.020072058 -0.096242055 0.48218125
0.020722464 -0.095994338 0.48348549
0.020960554 -0.096035182 0.48571625
0.021622032 -0.095781863 0.48702449
0.02228792 -0.095526278 0.48833421
0.022958264 -0.095268488 0.48964554
0.023633048 -0.095008433 0.49095848
0.015312374 -0.093769491 0.43214765
0.016281843 -0.093280226 0.43249226
0.017251283 -0.092790946 0.43283683
0.017752007 -0.092615888 0.43408778
0.018257171 -0.092438594 0.43534029
0.018766746 -0.092259049 0.43659437
0.018818706 -0.092388123 0.43875873
0.019339398 -0.092202976 0.44001672
0.0194069 -0.092324212 0.44218662
0.019938678 -0.092133462 0.44344857
0.020021692 -0.09224686 0.44562396
0.020113587 -0.092355788 0.44780251
0.020214349 -0.09246023 0.44998422
0.020323992 -0.092560172 0.45216909
0.020886824 -0.092353761 0.45344207
0.020569876 -0.092746675 0.45654827
0.020266235 -0.093132839 0.45965919
0.019975916 -0.093512297 0.46277481
0.019698903 -0.093885049 0.46589518
0.019001976 -0.094547376 0.46993923
0.018753782 -0.09490557 0.47306988
0.018518925 -0.095257044 0.4762052
0.01872395 -0.095308855 0.47842395
0.018937856 -0.095356196 0.4806459
0.019160658 -0.095399037 0.48287094
0.019812211 -0.095147848 0.4841755
0.020050526 -0.095182881 0.48640612
0.020713195 -0.094926059 0.48771456
0.021380305 -0.094667047 0.48902464
0.022051856 -0.09440577 0.4903363
0.022727832 -0.094142243 0.49164948
0.014868781 -0.092741638 0.43193623
0.015364066 -0.092566475 0.43318513
0.016335726 -0.092076093 0.43353051
0.017307401 -0.091585696 0.43387589
0.017811552 -0.091406032 0.43512788
0.018320113 -0.091224149 0.43638149
0.018370047 -0.091348514 0.43854487
0.018889725 -0.091160998 0.43980241
0.018955186 -0.09127754 0.44197133
0.019485936 -0.09108445 0.44323277
0.019566938 -0.09119314 0.44540721
0.019656792 -0.091297358 0.44758478
0.019755527 -0.091397092 0.44976553
0.019863144 -0.091492355 0.45194945
0.020424962 -0.091283575 0.45322195
0.02010496 -0.09166944 0.45632669
0.019357398 -0.092345834 0.46035221
0.019066229 -0.092717141 0.46346721
0.018788382 -0.093081698 0.46658692
0.018089607 -0.09373349 0.47062981
0.017840624 -0.094083518 0.47375977
0.017604932 -0.094426796 0.47689444
0.017382532 -0.094763398 0.48003387
0.017598867 -0.09480378 0.48225641
0.018247202 -0.094551355 0.48355967
0.018479034 -0.094583899 0.48578775
0.01913847 -0.09432587 0.48709494
0.019802347 -0.094065607 0.48840374
0.020470664 -0.093803108 0.48971412
0.021143407 -0.093538359 0.49102604
0.012976095 -0.092517048 0.43228245
0.01394777 -0.092026651 0.43262783
0.014919445 -0.091536269 0.43297321
0.01589112 -0.091045871 0.43331859
0.016392037 -0.090864971 0.4345693
0.017365918 -0.090373456 0.43491548
0.017873466 -0.090189219 0.43616858
0.017921373 -0.09030889 0.43833104
0.018440038 -0.090119034 0.43958807
0.018503457 -0.090230852 0.44175601
0.019033208 -0.090035424 0.44301698
0.01911217 -0.090139404 0.44519046
0.019199997 -0.090238914 0.44736707
0.019296691 -0.090333953 0.44954684
0.01940228 -0.090424508 0.45172977
0.019516721 -0.090510577 0.45391583
0.019195929 -0.090888232 0.4570199
0.018446475 -0.091554135 0.46104431
0.018154502 -0.091917232 0.46415862
0.017875835 -0.092273638 0.46727765
0.017175227 -0.092914909 0.47131944
0.016925395 -0.093256727 0.47444871
0.016688868 -0.093591869 0.47758275
0.016465664 -0.093920246 0.4807215
0.017108575 -0.093667716 0.4820227
0.017331704 -0.093698934 0.48424742
0.017563745 -0.093725652 0.48647529
0.018224373 -0.093464166 0.48778281
0.018889457 -0.093200415 0.48909193
0.019974276 -0.092652917 0.48947752
0.020232916 -0.092666209 0.49171484
0.021322176 -0.092116475 0.492102
0.012531489 -0.091486841 0.43207055
0.013503149 -0.090996444 0.43241593
0.014474839 -0.090506062 0.43276131
0.015446499 -0.090015665 0.43310666
0.015946403 -0.08983241 0.4343569
0.016920298 -0.08934091 0.43470308
0.017426834 -0.089154318 0.4359557
0.017937839 -0.088965476 0.43720993
0.017990351 -0.08907707 0.43937373
0.018512428 -0.08888264 0.4406319
0.018580481 -0.088986397 0.44280121
0.018657401 -0.089085683 0.44497371
0.018743202 -0.089180484 0.44714934
0.018386066 -0.089567885 0.45024011
0.018491834 -0.089652613 0.45242289
0.018606484 -0.089732856 0.4546088
0.018284842 -0.090102345 0.45771217
0.017976493 -0.090465128 0.46082029
0.017240748 -0.091112658 0.46484908
0.016961262 -0.091460869 0.46796748
0.016258791 -0.092091605 0.47200811
0.016008124 -0.092425287 0.47513673
0.015770808 -0.092752218 0.47827008
0.015546784 -0.093072444 0.48140815
0.016190857 -0.092816427 0.48270968
0.01641421 -0.092841819 0.48493424
0.016646415 -0.092862725 0.4871619
0.017308265 -0.092597753 0.48846975
0.018393084 -0.092050254 0.48885533
0.01906158 -0.091781929 0.4901655
0.019734517 -0.091511369 0.49147728
0.011599079 -0.090636611 0.43061274
0.012086868 -0.090456635 0.43185863
0.013058543 -0.089966238 0.43220401
0.014030218 -0.08947584 0.43254939
0.015001893 -0.088985443 0.43289477
0.015973568 -0.088495046 0.43324015
0.016474664 -0.088308334 0.43449068
0.016980186 -0.088119403 0.43574283
0.017490178 -0.087928206 0.43699655
0.017540663 -0.088035092 0.43915939
0.017600015 -0.088137507 0.4413254
0.017668262 -0.088235438 0.44349459
0.017745376 -0.088328898 0.44566688
0.01783137 -0.088417888 0.44784236
0.017926231 -0.088502377 0.45002094
0.017579332 -0.088876009 0.45311502
0.017694175 -0.088950455 0.45530075
0.016925558 -0.089603126 0.45931733
0.017062545 -0.089666337 0.46151096
0.016766712 -0.090014234 0.46462312
0.016044647 -0.090643391 0.4686563
0.015777633 -0.09097673 0.47177878
0.015523925 -0.091303334 0.47490594
0.015283555 -0.091623217 0.47803783
0.015056476 -0.091936395 0.48117447
0.015699551 -0.091678023 0.48247552
0.015920863 -0.091698706 0.4846991
0.016151056 -0.091714919 0.48692581
0.016811877 -0.091447592 0.48823315
0.017477155 -0.091178015 0.48954204
0.018146858 -0.090906233 0.49085256
0.019236103 -0.090356499 0.49123973
0.010670587 -0.089916825 0.43130133
0.012124941 -0.089119479 0.43074593
0.012613937 -0.088936031 0.43199208
0.013585612 -0.088445634 0.43233746
0.014557287 -0.087955236 0.43268284
0.01505515 -0.087767288 0.43393213
0.015557423 -0.087577119 0.43518299
0.016064197 -0.087384686 0.43643543
0.016575351 -0.087190032 0.43768948
0.017090976 -0.086993128 0.43894506
0.017148301 -0.087090835 0.4411101
0.017214522 -0.087184072 0.44327831
0.016831324 -0.087567449 0.44635907
0.016917497 -0.087650597 0.44853437
0.017012551 -0.087729275 0.45071283
0.016664848 -0.088094741 0.45380622
0.016779885 -0.088163331 0.45599174
0.016456589 -0.088516474 0.45909381
0.016146585 -0.088862896 0.46220064
0.015849903 -0.089202598 0.46531215
0.015566543 -0.089535579 0.4684284
0.015296474 -0.08986184 0.47154942
0.015039727 -0.090181395 0.47467515
0.014796317 -0.090494215 0.47780561
0.014566198 -0.090800345 0.48094079
0.015208244 -0.090539634 0.48224133
0.01542753 -0.090555608 0.48446396
0.015655681 -0.090567097 0.48668969
0.016315505 -0.090297431 0.48799655
0.016979754 -0.090025514 0.48930499
0.017648444 -0.089751363 0.49061498
0.018737689 -0.089201629 0.49100217
0.010225967 -0.088886604 0.43108943
0.011197641 -0.088396206 0.43143478
0.012169316 -0.087905824 0.43178016
0.013140991 -0.087415427 0.43212554
0.014112666 -0.08692503 0.43247092
0.014609531 -0.086734712 0.43371972
0.015110791 -0.086542204 0.43497011
0.015616536 -0.086347416 0.43622208
0.016126677 -0.086150408 0.43747562
0.016175345 -0.086246789 0.43963733
0.016232863 -0.086338654 0.44180214
0.016299263 -0.086426079 0.44397017
0.016374528 -0.086509004 0.44614133
0.016001597 -0.086878583 0.4492254
0.016096845 -0.08695145 0.45140368
0.016200945 -0.087019831 0.45358509
0.015863523 -0.087371498 0.45668179
0.015091196 -0.088003129 0.46069607
0.015228584 -0.088054717 0.46288931
0.014931083 -0.088386238 0.46600017
0.015088424 -0.088427737 0.46820053
0.014815316 -0.08874695 0.47132009
0.014555529 -0.089059457 0.47444436
0.014309064 -0.089365229 0.47757336
0.01450856 -0.08938545 0.47978869
0.014716938 -0.089401215 0.48200718
0.014934197 -0.089412495 0.48422882
0.015160307 -0.089419276 0.48645359
0.015819117 -0.08914724 0.48775998
0.016482353 -0.088872984 0.48906788
0.01715003 -0.088596493 0.49037743
0.017822132 -0.088317722 0.49168852
0.0097813606 -0.087856397 0.43087751
0.010753036 -0.087366 0.43122289
0.01172471 -0.086875618 0.43156826
0.012696385 -0.08638522 0.43191364
0.01366806 -0.085894823 0.43225902
0.014163896 -0.085702166 0.43350732
0.014664158 -0.085507289 0.43475723
0.015168875 -0.085310161 0.43600872
0.015208825 -0.085405186 0.43816707
0.015724644 -0.08520247 0.43942252
0.015780121 -0.085289642 0.44158638
0.015381977 -0.085663378 0.44466111
0.015457436 -0.085740477 0.44683212
0.015083686 -0.086101919 0.4499155
0.015179083 -0.086168915 0.45209357
0.014829755 -0.086518034 0.45518565
0.014493719 -0.086860418 0.45828244
0.01417096 -0.087196082 0.461384
0.014308557 -0.087241843 0.46357706
0.014455006 -0.08728312 0.46577325
0.014167756 -0.087600872 0.46888742
0.014334172 -0.087632075 0.47109076
0.01407133 -0.087937519 0.47421357
0.013821825 -0.088236243 0.47734115
0.014452979 -0.087975293 0.47863758
0.014225632 -0.088262811 0.48177299
0.014870107 -0.087995157 0.48307413
0.015091971 -0.08799836 0.48529717
0.01532273 -0.087997079 0.48752338
0.015984967 -0.087720469 0.48883083
0.016651616 -0.087441623 0.49013987
0.017322704 -0.087160528 0.49145046
0.0093367398 -0.08682619 0.43066558
0.01030843 -0.086335793 0.43101096
0.01128009 -0.085845396 0.43135634
0.012251779 -0.085354999 0.43170172
0.012744382 -0.08516112 0.43294874
0.013241395 -0.084965006 0.4341974
0.013742894 -0.084766626 0.4354476
0.014248788 -0.084566057 0.43669939
0.014759138 -0.084363207 0.43795273
0.014805958 -0.084449038 0.44011331
0.014861628 -0.084530398 0.44227704
0.01446265 -0.084895968 0.44535106
0.014538303 -0.084967256 0.44752187
0.014163718 -0.085320488 0.45060462
0.014259323 -0.085381702 0.45278254
0.014363825 -0.085438415 0.45496356
0.013572276 -0.086056828 0.45897007
0.01369895 -0.086102366 0.46115902
0.013834506 -0.086143419 0.4633511
0.013978913 -0.086179987 0.46554634
0.014132202 -0.086212084 0.46774477
0.013853014 -0.086517185 0.47086143
0.014026284 -0.086539209 0.47306693
0.013771474 -0.086832002 0.47619224
0.013964713 -0.086843938 0.47840485
0.014166817 -0.086851403 0.48062059
0.014377788 -0.086854398 0.48283947
0.014597625 -0.086852878 0.48506156
0.015252173 -0.086577281 0.48636618
0.015487567 -0.086567938 0.48859376
0.016153201 -0.086286724 0.48990232
0.016823277 -0.086003289 0.49121243
0.0088921338 -0.085795969 0.43045366
0.0098638088 -0.085305572 0.43079904
0.010835484 -0.084815174 0.43114442
0.011807159 -0.084324792 0.4314898
0.012298748 -0.084128544 0.43273634
0.012794748 -0.08393009 0.43398449
0.013295233 -0.083729371 0.43523422
0.01332669 -0.083817229 0.43738908
0.013838232 -0.083610922 0.43864277
0.013885245 -0.083690941 0.44080311
0.013941109 -0.083766475 0.44296667
0.013541296 -0.08412385 0.44604009
0.013617143 -0.084189296 0.44821066
0.013241708 -0.084534377 0.45129275
0.013337523 -0.084589779 0.4534705
0.012986511 -0.084922507 0.45656124
0.013102293 -0.084967822 0.45874605
0.012775689 -0.085288242 0.46184546
0.012911424 -0.085323483 0.46403739
0.013056025 -0.085354224 0.46623248
0.013209507 -0.085380509 0.4684307
0.013371855 -0.085402295 0.47063211
0.013543099 -0.08541961 0.47283661
0.01372321 -0.08543244 0.47504428
0.013912171 -0.085440814 0.47725517
0.014110014 -0.085444704 0.47946915
0.014316738 -0.085444093 0.48168629
0.014532343 -0.085439026 0.48390663
0.014756814 -0.085429475 0.48613006
0.014990166 -0.085415423 0.48835668
0.015654787 -0.085131854 0.48966476
0.01632385 -0.084846064 0.4909744
0.016997352 -0.084558025 0.49228564
0.0094192028 -0.084275365 0.43058714
0.0099053383 -0.084079012 0.43183163
0.010879233 -0.083587497 0.43217778
0.011853114 -0.083095983 0.43252394
0.011869252 -0.083185852 0.43467313
0.012370899 -0.082981676 0.43592316
0.012877002 -0.08277525 0.43717474
0.012915298 -0.082853913 0.4393318
0.012962505 -0.082928121 0.44149202
0.013018563 -0.082997829 0.44365534
0.012617931 -0.083347037 0.44672808
0.012693942 -0.083406687 0.44889855
0.012317702 -0.083743557 0.45197996
0.012413695 -0.083793119 0.45415747
0.012061879 -0.084117711 0.45724756
0.01217781 -0.084157169 0.45943221
0.012302652 -0.084192172 0.46162
0.012436345 -0.084222704 0.46381098
0.012578934 -0.084248751 0.46600509
0.013175979 -0.08399643 0.467289
0.012890697 -0.08428742 0.47040278
0.013059914 -0.084300026 0.47260633
0.013237983 -0.084308162 0.47481301
0.013424933 -0.084311813 0.47702292
0.013620734 -0.084310994 0.47923592
0.013825431 -0.084305689 0.48145214
0.014038995 -0.084295914 0.48367149
0.014261439 -0.084281653 0.48589396
0.014918402 -0.083999097 0.48719919
0.015156373 -0.083976984 0.48942721
0.015824422 -0.08368884 0.49073634
0.016496912 -0.083398446 0.49204713
0.0075119287 -0.084029481 0.43092689
0.0089745969 -0.083245158 0.43037522
0.0094597191 -0.083046451 0.43161923
0.010433599 -0.082554936 0.43196538
0.010925353 -0.082352892 0.43321177
0.011421591 -0.082148582 0.43445975
0.011922225 -0.081942067 0.4357093
0.011951849 -0.082019404 0.43786302
0.011990353 -0.08209224 0.44001985
0.012037739 -0.082160607 0.44217989
0.012093976 -0.082224488 0.44434306
0.011692509 -0.082565516 0.44741511
0.011768728 -0.082619324 0.44958541
0.01139164 -0.082948059 0.45266616
0.011487842 -0.082991779 0.45484352
0.011592895 -0.083031029 0.45702404
0.011706814 -0.083065808 0.45920771
0.01182963 -0.083096102 0.46139455
0.011961296 -0.083121926 0.46358454
0.012101844 -0.083143279 0.4657777
0.012697875 -0.082888603 0.46706113
0.012853965 -0.082902104 0.4692598
0.012576729 -0.083180428 0.47237602
0.012752771 -0.08318387 0.47458175
0.01293768 -0.083182812 0.4767907
0.013566986 -0.082911357 0.47808596
0.013767451 -0.082902461 0.48030037
0.013545662 -0.083152801 0.48343635
0.01376608 -0.083133847 0.48565787
0.014422014 -0.082848936 0.48696262
0.014657959 -0.082822144 0.48918965
0.015324995 -0.082531631 0.4904983
0.015996471 -0.082238868 0.49180859
0.0070662946 -0.08299692 0.43071449
0.0080401897 -0.082505405 0.43106064
0.0090140849 -0.08201389 0.43140683
0.0095026046 -0.081810609 0.43265194
0.01047872 -0.081317976 0.4329989
0.01049301 -0.081397325 0.43514693
0.010994852 -0.081187308 0.43639675
0.011024669 -0.081258804 0.43855029
0.011063352 -0.081325829 0.440707
0.011110917 -0.081388384 0.44286683
0.011167362 -0.081446439 0.44502982
0.010765061 -0.081779301 0.44810125
0.010841459 -0.081827283 0.45027131
0.01046358 -0.082147822 0.45335141
0.011020899 -0.081909806 0.45462096
0.010665178 -0.082219169 0.45770893
0.010779291 -0.082248122 0.45989245
0.011356577 -0.082000047 0.46116909
0.011486217 -0.082021162 0.4633581
0.011624739 -0.082037792 0.4655503
0.012219772 -0.081780776 0.46683323
0.01237382 -0.081789583 0.46903095
0.012536749 -0.081793904 0.47123179
0.01226756 -0.082059577 0.47435048
0.012450442 -0.08205381 0.47655845
0.013078734 -0.081780016 0.47785324
0.013277158 -0.081766412 0.48006669
0.013484433 -0.081748337 0.48228329
0.013700604 -0.081725806 0.48450309
0.013925642 -0.081698775 0.48672602
0.014159545 -0.081667244 0.48895207
0.014825568 -0.081374407 0.49026027
0.01549603 -0.081079289 0.49157009
0.0066206604 -0.081964359 0.43050209
0.0075945556 -0.081472829 0.43084827
0.0080798566 -0.08126834 0.4320921
0.0090559721 -0.080775708 0.43243906
0.0095479488 -0.080567807 0.43368527
0.010044336 -0.080357701 0.43493307
0.010065451 -0.08042787 0.43708327
0.010095477 -0.080493525 0.43923661
0.010134339 -0.080554724 0.44139311
0.010182098 -0.080611452 0.44355276
0.010238722 -0.080663696 0.44571561
0.010304213 -0.080711454 0.44788158
0.0099121928 -0.081030533 0.45095626
0.009997651 -0.081068218 0.45312932
0.010091975 -0.081101432 0.45530555
0.010195196 -0.081130162 0.45748493
0.010307282 -0.081154406 0.45966747
0.010428235 -0.081174165 0.46185312
0.010558069 -0.081189469 0.46404195
0.011147648 -0.080932319 0.46532288
0.011741653 -0.08067295 0.46660537
0.011447236 -0.080942765 0.46971476
0.012054577 -0.080676675 0.47100195
0.011782333 -0.080935284 0.47411922
0.011963189 -0.080924839 0.4763262
0.012590468 -0.080648661 0.47762051
0.01278688 -0.080630362 0.47983301
0.012992114 -0.080607593 0.48204863
0.012775347 -0.080838218 0.48518565
0.013429254 -0.080548584 0.48648942
0.013661131 -0.080512375 0.48871452
0.01432614 -0.080217183 0.49002221
0.01499559 -0.079919733 0.49133155
0.0056809932 -0.081218675 0.43118531
0.0066571087 -0.080726042 0.43153226
0.0076332092 -0.08023341 0.43187922
0.0086093247 -0.079740778 0.43222618
0.0091002882 -0.079530537 0.43347192
0.0091127157 -0.079599351 0.43561876
0.0096147507 -0.079383537 0.43686846
0.0096427351 -0.079444498 0.43902081
0.0096795857 -0.079500996 0.44117635
0.0092512369 -0.079829812 0.4442378
0.009308055 -0.079876229 0.4464004
0.0093737394 -0.079918176 0.4485662
0.0089808702 -0.080229074 0.45164025
0.009066537 -0.080260932 0.45381311
0.0091610551 -0.080288321 0.45598915
0.0092644393 -0.080311224 0.45816836
0.0093767196 -0.080329642 0.46035069
0.0099541992 -0.080075756 0.46162719
0.010081992 -0.08008635 0.46381503
0.010670558 -0.079826847 0.46509549
0.010813877 -0.079829603 0.46728888
0.010966077 -0.079827875 0.46948543
0.011127174 -0.079821661 0.47168511
0.011297122 -0.079810992 0.47388795
0.01147595 -0.079795837 0.47609398
0.012102202 -0.079517297 0.47738782
0.012296572 -0.079494305 0.47959933
0.012499794 -0.079466827 0.48181397
0.012279972 -0.079690397 0.48494953
0.012932882 -0.079398431 0.48625284
0.013162732 -0.079357512 0.48847696
0.013826713 -0.079059958 0.48978418
0.014495149 -0.078760155 0.49109301
0.015167996 -0.078458115 0.49240339
0.0052343458 -0.080183759 0.43097243
0.0062104613 -0.079691127 0.43131939
0.0066959709 -0.079480782 0.43256307
0.0076743066 -0.078987032 0.4329108
0.0086526424 -0.078493267 0.43325853
0.0086630285 -0.078557387 0.43540442
0.0086823255 -0.078617021 0.4375535
0.0087104887 -0.078672156 0.43970573
0.0087475181 -0.078722835 0.44186106
0.0087934285 -0.078769028 0.44401959
0.0083753318 -0.079084076 0.44708428
0.0084411949 -0.079120182 0.44924986
0.008515954 -0.079151832 0.45141867
0.0081333667 -0.079448968 0.45449597
0.0082280785 -0.079470515 0.4566718
0.0087934285 -0.079219855 0.45794386
0.0089036971 -0.079233579 0.46012524
0.0094801486 -0.078977332 0.46140122
0.0096059144 -0.078983217 0.46358812
0.010193452 -0.078721374 0.4648681
0.01033476 -0.078719422 0.46706051
0.010484919 -0.078712985 0.4692561
0.010643989 -0.078702077 0.4714548
0.01081191 -0.078686699 0.47365668
0.010988697 -0.078666836 0.47586173
0.01161395 -0.078385957 0.47715509
0.011806294 -0.07835824 0.47936562
0.011572316 -0.078580365 0.48249578
0.011784613 -0.07854259 0.48471344
0.012436494 -0.07824827 0.48601624
0.012664318 -0.078202643 0.48823941
0.012901008 -0.07815256 0.49046576
0.013570637 -0.077849284 0.49177483
0.0042916536 -0.079431027 0.43165421
0.0052699894 -0.078937262 0.43200195
0.0062483102 -0.078443527 0.43234968
0.0067372173 -0.078228593 0.43359447
0.0077177584 -0.077733725 0.433943
0.007728368 -0.077792004 0.43608871
0.0077478439 -0.077845797 0.43823755
0.0077762157 -0.077895127 0.4403896
0.007813409 -0.07793998 0.44254476
0.0078595132 -0.077980347 0.44470313
0.0079144835 -0.078016229 0.44686463
0.0075066835 -0.078317493 0.44993258
0.0075816065 -0.078343317 0.45210114
0.0071981996 -0.078632258 0.45517778
0.007758081 -0.078381509 0.45644778
0.0078596473 -0.078393891 0.45862585
0.0084306598 -0.07813751 0.45989975
0.0085477382 -0.078142054 0.46208334
0.0091298372 -0.077880099 0.4633612
0.0092624575 -0.077876806 0.4655503
0.009855628 -0.077609241 0.46683213
0.01000376 -0.07759811 0.46902677
0.010160804 -0.077582493 0.47122452
0.010326698 -0.077562392 0.47342542
0.010501459 -0.077537835 0.47562951
0.011125684 -0.077254616 0.47692236
0.011316001 -0.077222191 0.47913194
0.011078984 -0.077437252 0.48226064
0.011289239 -0.077394769 0.48447731
0.01150839 -0.0773478 0.48669717
0.012165904 -0.077047788 0.48800185
0.012400568 -0.076992981 0.49022722
0.013069183 -0.076687351 0.49153584
0.0028656721 -0.078887507 0.4310931
0.0038440078 -0.078393757 0.43144083
0.0048223287 -0.077899992 0.43178859
0.0058006495 -0.077406257 0.43213633
0.0062885433 -0.077188969 0.4333806
0.0072690994 -0.076694101 0.43372914
0.0072776675 -0.076747686 0.4358739
0.0072951168 -0.07679677 0.43802178
0.0073214471 -0.076841392 0.44017285
0.0073566288 -0.076881535 0.44232705
0.0074006915 -0.076917209 0.44448444
0.0069787353 -0.077217013 0.44754699
0.0070427805 -0.077242598 0.44971147
0.0066452175 -0.077530093 0.45278272
0.0067292303 -0.077545606 0.45495427
0.0068220794 -0.077556647 0.457129
0.0073876232 -0.077300176 0.45840088
0.0074960291 -0.077303365 0.46058109
0.0076133162 -0.077302068 0.46276447
0.0081966072 -0.077036649 0.46404269
0.0087843388 -0.076768979 0.46532243
0.0089237988 -0.076756507 0.46751371
0.0095226169 -0.076483235 0.46879745
0.0096776187 -0.07646291 0.4709942
0.0098414719 -0.076438099 0.47319415
0.010014206 -0.076408833 0.47539726
0.010637417 -0.07612326 0.47668964
0.010386288 -0.076336846 0.47981292
0.010585651 -0.076294154 0.4820255
0.01079388 -0.076246962 0.48424122
0.01101099 -0.076195285 0.48646009
0.011236966 -0.076139152 0.48868209
0.011900127 -0.075833403 0.48998868
0.012567714 -0.075525433 0.49129683
0.013239741 -0.075215213 0.49260655
0.0024180114 -0.077850237 0.43087974
0.0033963472 -0.077356488 0.43122748
0.004374668 -0.076862738 0.43157521
0.0053530037 -0.076368988 0.43192297
0.0058398694 -0.076149359 0.43316677
0.0063312054 -0.075927466 0.43441209
0.006826967 -0.075703368 0.43565908
0.0068423748 -0.075747743 0.43780598
0.0063841194 -0.0760573 0.44085529
0.0064194798 -0.076091617 0.44300935
0.0064637512 -0.076121449 0.4451665
0.0065168738 -0.076146811 0.44732687
0.0061051697 -0.076432861 0.45039272
0.0061782748 -0.076448135 0.45256016
0.0057909787 -0.076721862 0.45563468
0.0058840364 -0.076727092 0.45780924
0.0064507872 -0.076467119 0.45908138
0.0070219785 -0.076204941 0.46035516
0.0071372241 -0.07619895 0.46253756
0.0077195019 -0.075931162 0.4638153
0.0083062351 -0.075661138 0.46509454
0.0084436536 -0.075643957 0.46728489
0.0090414584 -0.07536833 0.46856809
0.0091944337 -0.075343311 0.47076392
0.0093562603 -0.075313807 0.47296289
0.0095269531 -0.075279832 0.47516504
0.009706527 -0.075241372 0.47737029
0.009894982 -0.075198442 0.47957876
0.010092303 -0.075151026 0.48179036
0.010298505 -0.07509914 0.48400512
0.010513589 -0.075042769 0.48622301
0.010737538 -0.074981928 0.48844406
0.011399686 -0.074673839 0.48975018
0.011639148 -0.074605145 0.49197674
0.012737274 -0.074050941 0.49236706
0.0019703656 -0.076812968 0.43066636
0.0024495572 -0.076594353 0.43190733
0.0034301132 -0.07609947 0.43225583
0.0044106394 -0.075604603 0.43260437
0.0053911954 -0.075109735 0.43295291
0.0058815181 -0.074885502 0.43419775
0.0058882535 -0.074928552 0.4363414
0.005903855 -0.074967116 0.43848816
0.0059283376 -0.07500121 0.44063807
0.0059616715 -0.075030833 0.44279113
0.0060039014 -0.075055957 0.44494733
0.0055780709 -0.075340547 0.44800779
0.0056402534 -0.075355612 0.45017114
0.005238831 -0.075627863 0.45324028
0.0053209811 -0.075632855 0.45541066
0.0054120123 -0.075633377 0.45758426
0.0059777647 -0.075371049 0.45885593
0.0060843229 -0.075363733 0.46103504
0.0066611469 -0.075095832 0.46231064
0.0072424263 -0.074825689 0.46358791
0.0078281313 -0.074553326 0.46486667
0.0079635233 -0.074531436 0.46705601
0.0085602999 -0.074253455 0.46833876
0.0087112486 -0.074223727 0.47053361
0.0088710487 -0.074189529 0.47273162
0.0090397149 -0.074150831 0.47493279
0.0092172474 -0.074107692 0.47713709
0.0094036758 -0.074060038 0.47934458
0.0095989704 -0.074007928 0.48155522
0.0093661547 -0.074195094 0.48468429
0.0095814168 -0.074132897 0.486902
0.0098055601 -0.074066229 0.4891229
0.0104689 -0.073754668 0.49042925
0.011136666 -0.073440872 0.49173725
0.0010203421 -0.076049596 0.43134493
0.0020008832 -0.075554729 0.43169346
0.0029814392 -0.075059846 0.432042
0.0039619654 -0.074564978 0.43239051
0.0044490546 -0.074339509 0.4336341
0.0049405694 -0.074111819 0.43487933
0.0054365247 -0.073881865 0.43612608
0.0054500997 -0.073915735 0.43827188
0.0054725558 -0.07394512 0.44042084
0.0050214827 -0.074233852 0.44347194
0.0050639063 -0.074253149 0.44562799
0.0051151812 -0.074267991 0.4477872
0.0046996325 -0.074538797 0.4508509
0.004770875 -0.074543566 0.45301723
0.0043797046 -0.074802049 0.45608962
0.0049399883 -0.074539647 0.45735928
0.0050378591 -0.074530959 0.459535
0.0056092441 -0.074262954 0.4608086
0.0061850697 -0.073992699 0.46208373
0.0067653209 -0.073720202 0.46336049
0.0068920255 -0.073696971 0.46554649
0.0074833781 -0.073418885 0.46682718
0.0080791414 -0.073138565 0.46810943
0.0082280487 -0.073104128 0.4703033
0.0083858222 -0.073065221 0.47250035
0.0085524619 -0.073021829 0.47470054
0.0087279677 -0.072973981 0.47690389
0.0089123696 -0.072921634 0.47911042
0.0086653978 -0.073107339 0.48223409
0.0088697672 -0.073044933 0.48444769
0.0090830028 -0.072978027 0.48666444
0.0093051046 -0.072906651 0.48888436
0.0095360726 -0.072830804 0.49110743
0.010634199 -0.072276585 0.49149776
0.00057166815 -0.075009972 0.43113109
0.0010510832 -0.074785516 0.43237182
0.0020338446 -0.074289516 0.43272114
0.0035133064 -0.073525369 0.43217668
0.0039993674 -0.07329753 0.43341979
0.0044898689 -0.073067501 0.43466452
0.0044947714 -0.073100016 0.43680695
0.0045085251 -0.073128052 0.43895257
0.00453116 -0.073151626 0.44110131
0.0045626611 -0.073170714 0.44325325
0.0046030581 -0.073185317 0.44540834
0.0046523064 -0.07319545 0.44756657
0.004233703 -0.073459193 0.45062885
0.0038284063 -0.073716231 0.45369586
0.0039087087 -0.073710687 0.45586514
0.0039978921 -0.073700659 0.45803756
0.0045638233 -0.073432535 0.45930907
0.0051341802 -0.073162176 0.46058217
0.0057089925 -0.072889581 0.46185681
0.0058270246 -0.072864994 0.4640395
0.0064129084 -0.07258679 0.46531811
0.0070032328 -0.072306365 0.46659833
0.0075979978 -0.072023675 0.4678801
0.007292524 -0.072230332 0.47098258
0.0079006106 -0.071940929 0.47226906
0.0076173097 -0.072136395 0.47537947
0.0077930391 -0.072082691 0.47758263
0.0079776049 -0.072024532 0.47978896
0.0077298135 -0.072202072 0.48291197
0.0079343617 -0.072133824 0.48512539
0.008147791 -0.072061107 0.48734197
0.0083700866 -0.071983904 0.48956171
0.0090336055 -0.071666516 0.49086794
0.0097015947 -0.071346894 0.49217573
0.00060139596 -0.073743552 0.43215749
0.0015841573 -0.073247552 0.4325068
0.0025669187 -0.072751567 0.43285611
0.0030541867 -0.072520286 0.43409958
0.0040391684 -0.072023183 0.4344497
0.0040420294 -0.072050989 0.43659115
0.0040537566 -0.072074331 0.43873581
0.0040743798 -0.072093181 0.44088361
0.0041038394 -0.072107561 0.44303456
0.0041422099 -0.07211747 0.44518867
0.0037094504 -0.072379753 0.44824558
0.0037677735 -0.072379589 0.45040676
0.0033594221 -0.072629564 0.45347232
0.0034377128 -0.072619326 0.45564064
0.0035248548 -0.072604589 0.45781207
0.0040897578 -0.072334126 0.45908311
0.0046591163 -0.072061397 0.46035573
0.004768461 -0.072035477 0.46253508
0.0053489059 -0.071757168 0.46381161
0.0059337765 -0.071476609 0.46508977
0.0060652941 -0.07143949 0.46727699
0.006661281 -0.071153358 0.46855906
0.0068083107 -0.071108393 0.47075179
0.0069642514 -0.071058951 0.47294769
0.0071290582 -0.071005039 0.47514677
0.0073027462 -0.070946641 0.47734895
0.0070408136 -0.071122736 0.48046657
0.0072344542 -0.071054265 0.48267588
0.0074369758 -0.070981309 0.48488832
0.0072105378 -0.071139477 0.48801857
0.0074330121 -0.071056448 0.4902381
0.0080977678 -0.070735604 0.49154463
0.00015170872 -0.072701573 0.43194315
0.0011344701 -0.072205588 0.43229246
0.0016184896 -0.071973071 0.43353468
0.0026034862 -0.071475968 0.43388477
0.0030941665 -0.071240082 0.43512928
0.0030972213 -0.071262076 0.43727061
0.0031091273 -0.071279585 0.43941507
0.0031299293 -0.071292624 0.44156268
0.0036450177 -0.071044423 0.44281587
0.0031981319 -0.07130526 0.44586736
0.0032455623 -0.071304858 0.44802445
0.0028230697 -0.071553387 0.45108464
0.0028904527 -0.071542911 0.4532488
0.002966702 -0.07152795 0.45541614
0.0030518323 -0.071508519 0.45758662
0.0036157221 -0.071235701 0.45885718
0.0037163794 -0.071208417 0.46103317
0.0042913705 -0.070929989 0.46230769
0.0048707873 -0.070649341 0.46358374
0.0049936324 -0.070610881 0.46576765
0.0055841357 -0.070324615 0.46704766
0.0061791092 -0.070036098 0.46832922
0.0063241124 -0.069986455 0.47052103
0.0060258806 -0.070172265 0.47362533
0.0061908662 -0.070112526 0.47582421
0.006364733 -0.070048302 0.47802624
0.0065474659 -0.069979623 0.48023143
0.0062958151 -0.070141934 0.48335233
0.0064985007 -0.070063151 0.48556459
0.0067100972 -0.069979899 0.48778006
0.0069305301 -0.069892175 0.48999861
0.0075942725 -0.069568962 0.49130467
0.0082624406 -0.069243513 0.49261224
-0.00080217421 -0.071922973 0.43261963
0.00018282235 -0.07142587 0.43296975
0.0011677891 -0.070928752 0.43331984
0.0016552508 -0.07069163 0.43456307
0.0026424527 -0.070193395 0.43491399
0.0026434809 -0.070210695 0.43705434
0.0026533455 -0.07022351 0.43919781
0.0026721209 -0.07023184 0.4413445
0.0026997477 -0.070235685 0.44349426
0.0027362704 -0.070235059 0.44564724
0.0027816594 -0.070229962 0.44780335
0.0023561269 -0.070471413 0.45086208
0.0024214834 -0.070456244 0.45302525
0.0024956912 -0.070436589 0.45519164
0.002578795 -0.070412464 0.45736116
0.0031416714 -0.070137277 0.45863122
0.0032403022 -0.070105299 0.46080625
0.00381428 -0.069824517 0.4620803
0.0039284378 -0.069784701 0.46426085
0.0045134872 -0.069498345 0.4655388
0.0051029772 -0.069209725 0.46681833
0.0052393377 -0.069158703 0.46900678
0.0053845495 -0.069103226 0.47119835
0.0055386424 -0.069043279 0.47339311
0.0057015866 -0.068978831 0.475591
0.0054247081 -0.06914527 0.47870255
0.0056076199 -0.069070749 0.48090756
0.0057994276 -0.068991758 0.48311573
0.0055580288 -0.069140285 0.48623988
0.0057698041 -0.069051206 0.48845515
0.0059904456 -0.068957657 0.49067357
0.0066553801 -0.068630986 0.4919799
-0.0012528747 -0.070878655 0.43240482
-0.00026787817 -0.070381537 0.43275493
0.00071708858 -0.069884434 0.43310502
0.001203537 -0.069644958 0.43434778
0.001694411 -0.069403261 0.43559211
0.0021897256 -0.069159314 0.43683806
0.0021975785 -0.06916742 0.43898058
0.0022143275 -0.069171056 0.44112629
0.0022399127 -0.069170207 0.44327506
0.0022744089 -0.069164872 0.44542709
0.0018347204 -0.069404878 0.44848043
0.0018891841 -0.06938947 0.45063952
0.0014739186 -0.069617167 0.4537015
0.0015483201 -0.069591686 0.45586771
0.0021057576 -0.069316395 0.45713571
0.0026676208 -0.069038853 0.45840529
0.002764225 -0.069002181 0.46057934
0.0028696954 -0.068961024 0.46275657
0.0034493059 -0.068674535 0.46403247
0.0040333569 -0.06838581 0.46530995
0.0041610152 -0.068333462 0.46749505
0.0047561526 -0.068039119 0.46877646
0.0048993379 -0.067978933 0.47096708
0.0045972019 -0.068149529 0.47406933
0.0047603697 -0.068079256 0.47626704
0.0049323887 -0.068004511 0.47846791
0.0046657473 -0.068157196 0.48158276
0.0048577487 -0.068072364 0.48379073
0.0046155155 -0.068212725 0.48691425
0.0048274547 -0.068117835 0.4891293
0.0050483197 -0.068018444 0.49134752
0.0057144314 -0.067688301 0.49265417
-0.0026885569 -0.070331439 0.43183988
-0.0017035902 -0.069834337 0.43219
-0.0007185936 -0.069337219 0.43254012
0.00026638806 -0.068840101 0.43289021
0.00075180829 -0.068598285 0.43413249
0.0012416691 -0.068354219 0.43537632
0.0012408644 -0.068360992 0.43751553
0.0012488961 -0.068363272 0.43965787
0.0012658238 -0.068361081 0.4418034
0.0017800778 -0.068104714 0.4430559
0.0018125325 -0.068094671 0.44520694
0.0013698041 -0.068327628 0.44825885
0.0014222413 -0.068307512 0.45041695
0.001003921 -0.06852816 0.4534775
0.001076296 -0.068497971 0.45564273
0.0011575669 -0.068463296 0.45781109
0.0017206371 -0.068182297 0.45908099
0.0022881478 -0.067899048 0.46035242
0.0023915917 -0.067853197 0.46252871
0.0025039017 -0.067802846 0.46470812
0.0030891299 -0.06751065 0.46598589
0.0036788434 -0.067216232 0.46726522
0.0038133264 -0.067154683 0.46945253
0.0039566904 -0.067088671 0.47164297
0.0041089356 -0.067018174 0.4738366
0.0038170815 -0.067175001 0.47694209
0.0039892942 -0.06709443 0.47914281
0.0037218481 -0.067238919 0.48225698
0.0039140284 -0.067148276 0.48446476
0.0041150749 -0.067053162 0.48667571
0.0043249875 -0.066953547 0.48888981
0.0045438111 -0.066849463 0.49110708
-0.0021542907 -0.068790004 0.43197519
-0.0011692941 -0.068292901 0.43232527
-0.00018431246 -0.067795783 0.43267539
0.00030009449 -0.067551613 0.43391716
0.00078894198 -0.067305207 0.43516055
0.00078609586 -0.067307256 0.43729877
0.00079210103 -0.067304842 0.43944016
0.00080700219 -0.067297943 0.44158471
0.00083075464 -0.067286573 0.44373241
0.00086338818 -0.067270719 0.44588324
0.00090490282 -0.067250378 0.44803727
0.00047245622 -0.067469537 0.45109239
0.00053392351 -0.067439139 0.45325348
0.00060428679 -0.067404255 0.45541775
0.00068351626 -0.067364886 0.45758516
0.0012455732 -0.067081518 0.45885456
0.0013403296 -0.067034319 0.4610275
0.001913473 -0.066745371 0.46230081
0.0020237565 -0.066690326 0.46447927
0.0026079714 -0.066395774 0.46575657
0.0027338117 -0.066332877 0.46794051
0.0033291131 -0.066032745 0.46922174
0.0034704655 -0.065962024 0.47141123
0.0031644851 -0.066117376 0.47451133
0.0033257753 -0.066036582 0.47670791
0.0030442029 -0.066179626 0.47981668
0.0032254606 -0.066088758 0.48202038
0.0029682815 -0.066219479 0.48513779
0.0031695217 -0.066118538 0.48734859
0.003379643 -0.066013113 0.48956254
0.0035986155 -0.065903202 0.4917796
-0.003589958 -0.068242803 0.43141025
-0.0026049912 -0.067745686 0.43176037
-0.0021260232 -0.067501396 0.43300009
-0.0011388212 -0.067003161 0.43335098
-0.0006531924 -0.066755533 0.43459305
0.0003362149 -0.06625618 0.43494475
-0.00016583502 -0.066501886 0.43797481
0.00033530593 -0.066246398 0.43922243
0.00034818053 -0.066234805 0.44136602
0.00036990643 -0.066218726 0.44351274
0.00040049851 -0.066198163 0.44566262
-4.6059489e-05 -0.066415876 0.44871238
-0.00047932565 -0.066626869 0.45176685
-0.00041767955 -0.066590644 0.45392779
-0.00034713745 -0.06654992 0.45609185
0.00020946562 -0.066266462 0.45735919
0.00029553473 -0.066217914 0.45952877
0.00086323917 -0.065928832 0.46080008
0.00096483529 -0.065872461 0.4629752
0.0015436113 -0.06557779 0.46425042
0.0016607493 -0.065513566 0.46643105
0.0022506267 -0.065213293 0.46771023
0.0023832768 -0.065141231 0.46989635
0.002524808 -0.065064698 0.47208568
0.0026752055 -0.064983681 0.47427812
0.002379477 -0.065125264 0.4773815
0.0020970553 -0.065260112 0.48048964
0.0022785217 -0.065163434 0.48269311
0.0024688542 -0.065062255 0.48489976
0.002221927 -0.065179206 0.48802051
0.002432242 -0.065067954 0.49023423
0.0026514232 -0.064952232 0.49245116
0.0037584156 -0.064393528 0.49284464
-0.0040406734 -0.06719847 0.43119544
-0.0030556917 -0.066701367 0.43154553
-0.002577737 -0.066454723 0.43278477
-0.001590535 -0.065956488 0.43313569
-0.00060333312 -0.065458253 0.43348658
-0.00061690807 -0.06545426 0.43562052
-0.00062160194 -0.065445796 0.43775758
-0.00061742961 -0.065432861 0.43989784
-0.0006043762 -0.065415412 0.44204119
-0.00058245659 -0.065393522 0.44418773
-0.00055165589 -0.065367132 0.44633746
-0.000511989 -0.065336272 0.44849029
-0.0009483099 -0.065540217 0.45154333
-0.00088869035 -0.065499268 0.45370328
-0.0013005883 -0.065690905 0.456765
-0.00074277818 -0.065403961 0.45803267
-0.00065653026 -0.065349579 0.4602021
-8.7633729e-05 -0.065057054 0.46147364
1.4156103e-05 -0.064994842 0.46364859
0.0005941391 -0.064696699 0.46492413
0.0011785775 -0.064396337 0.46620122
0.0013025254 -0.064322911 0.46838406
0.0018980652 -0.064016938 0.46966508
0.0020375699 -0.063935697 0.47185344
0.0017277002 -0.06407582 0.47495142
0.0014311224 -0.064209223 0.47805417
0.001601696 -0.064112306 0.48025352
0.0013295412 -0.0642334 0.48336491
0.0015200526 -0.06412641 0.48557138
0.001719445 -0.064014919 0.48778102
0.0019277334 -0.063898973 0.48999378
0.002144888 -0.063778542 0.49220973
-0.0044913739 -0.066154152 0.43098062
-0.0035063922 -0.065657049 0.43133071
-0.0030294508 -0.065408051 0.43256947
-0.0020422488 -0.064909816 0.43292037
-0.0015586615 -0.06465748 0.43416148
-0.0010706633 -0.064402893 0.43540424
-0.0010773838 -0.064389721 0.43754035
-0.0010752529 -0.064372063 0.43967962
-0.0010642111 -0.06434992 0.44182202
-0.001044333 -0.064323321 0.44396761
-0.0010155588 -0.064292237 0.44611636
-0.001466006 -0.064494707 0.449164
-0.0019031614 -0.064690486 0.45221636
-0.0018433481 -0.064643726 0.45437613
-0.0017746389 -0.064592481 0.45653906
-0.0016970634 -0.064536765 0.45870513
-0.0011336207 -0.064244106 0.45997468
-0.00056575239 -0.063949227 0.46124578
-0.00046597421 -0.063882306 0.46341974
0.0001129806 -0.063581809 0.4646948
0.00022827089 -0.06350705 0.46687427
0.00081832707 -0.063200973 0.46815327
0.00094914436 -0.063118391 0.47033826
0.0010888427 -0.063031323 0.47252643
0.0012374073 -0.062939771 0.47471774
0.00093778968 -0.063066125 0.47781903
0.00065150857 -0.063185744 0.48092502
0.00083112717 -0.06307853 0.48312736
0.001019612 -0.062966831 0.48533288
0.0012169778 -0.062850662 0.48754153
0.0014232397 -0.062729992 0.48975331
0.0016383529 -0.062604852 0.4919683
-0.0049420744 -0.065109834 0.43076581
-0.0039570928 -0.064612716 0.4311159
-0.0034811795 -0.064361364 0.43235418
-0.0030008256 -0.064107805 0.43359402
-0.0020114034 -0.063608438 0.43394572
-0.0015244037 -0.063351512 0.43518797
-0.0015331656 -0.063333631 0.43732312
-0.0015330464 -0.063311279 0.43946141
-0.0020198226 -0.063523494 0.44249579
-0.0019997507 -0.063491069 0.44464117
-0.0019707978 -0.063454144 0.44678974
-0.0024220794 -0.063648462 0.4498367
-0.002373144 -0.063601479 0.45199236
-0.0028000325 -0.063783459 0.45504799
-0.0027311444 -0.063726403 0.45721075
-0.0026533902 -0.063664854 0.45937669
-0.0020887405 -0.063368738 0.46064648
-0.0015196502 -0.063070372 0.46191791
-0.0014197081 -0.062997624 0.46409172
-0.00083951652 -0.06269367 0.46536705
-0.00072406232 -0.062613092 0.46754634
-0.00013278425 -0.062303528 0.46882564
0.00046291947 -0.061991744 0.47010651
0.0006005764 -0.061899967 0.4722937
0.00028683245 -0.062024862 0.47538957
0.00044445693 -0.061923012 0.47758389
0.00015512109 -0.062035583 0.48068842
0.00033271313 -0.06192366 0.4828898
6.7785382e-05 -0.062023923 0.48600301
0.00026534498 -0.061901912 0.48821151
0.00047175586 -0.061775431 0.49042311
0.00068707764 -0.061644465 0.4926379
-0.0053927749 -0.064065501 0.43055099
-0.0049201101 -0.063812926 0.43178797
-0.0039328933 -0.063314691 0.43213886
-0.0029456913 -0.062816471 0.43248978
-0.0024641305 -0.062559426 0.43372992
-0.0024815947 -0.062540196 0.43586174
-0.0024901479 -0.062516488 0.43799672
-0.0024898499 -0.062488325 0.44013482
-0.0024806708 -0.062455662 0.44227612
-0.0024626404 -0.062418528 0.44442055
-0.0029280335 -0.062611371 0.44746214
-0.0028900355 -0.062564164 0.44961366
-0.0033310503 -0.062744685 0.45266393
-0.0032730699 -0.06268739 0.45482254
-0.0036896765 -0.062855616 0.45788148
-0.0031304806 -0.062559381 0.45914927
