# .PCD v0.7 - Point Cloud Data file format
VERSION 0.7
FIELDS x y z
SIZE 4 4 4
TYPE F F F
COUNT 1 1 1
WIDTH 1383
HEIGHT 1
VIEWPOINT 0 0 0 1 0 0 0
POINTS 1383
DATA ascii
-0.077242687 0.091636829 0.50052017
-0.076042518 0.092242546 0.50094676
-0.074291751 0.092759833 0.50051522
-0.073093787 0.093364432 0.50094104
-0.071895823 0.093969025 0.50136685
-0.070697859 0.094573624 0.50179267
-0.069499895 0.095178217 0.50221848
-0.06776242 0.09568879 0.50178218
-0.066566691 0.096292257 0.50220716
-0.065370932 0.096895739 0.50263226
0.071770355 0.1507235 0.5071156
0.072872922 0.15127996 0.50750744
0.073675498 0.15205134 0.50884664
0.07448256 0.15282498 0.51018739
0.075294033 0.15360086 0.51152968
0.076403245 0.15416068 0.51192391
0.077512458 0.15472049 0.51231819
0.078621671 0.15528029 0.51271248
0.079730898 0.1558401 0.5131067
0.080840126 0.15639991 0.51350099
0.082231551 0.15673582 0.51294172
0.083338544 0.15729451 0.51333523
0.084445551 0.1578532 0.51372862
0.10518503 0.16538954 0.51266944
0.10627428 0.16593927 0.51305658
0.10759915 0.16624159 0.51247358
0.10868619 0.1667902 0.51285994
0.1100044 0.16708916 0.51227468
0.11108921 0.16763666 0.51266026
0.11217403 0.16818416 0.51304591
0.11325885 0.16873166 0.51343143
0.11456598 0.16902502 0.51284218
0.11564858 0.1695714 0.51322699
0.11673117 0.17011777 0.51361179
0.11781377 0.17066415 0.5139966
0.1191098 0.1709519 0.51340342
0.12019018 0.17149717 0.51378739
0.12619247 0.17342745 0.51275927
0.14083603 0.17935255 0.51374876
0.14525783 0.18121786 0.51426661
0.14632046 0.18175417 0.51464427
0.14738308 0.18229046 0.51502198
0.1486015 0.18253905 0.5144012
0.1496619 0.18307422 0.51477808
0.15072232 0.1836094 0.51515496
-0.31764972 -0.00045456737 0.49403363
-0.31540751 0.00030779094 0.4937768
-0.31316984 0.0010679439 0.49351844
-0.31180775 0.0017553791 0.49400258
-0.30870789 0.0025814772 0.49299696
-0.30735022 0.0032666624 0.49347955
-0.30599248 0.0039518923 0.49396214
-0.30377257 0.0047030672 0.4936974
-0.30241716 0.0053871498 0.49417922
-0.30106163 0.0060712323 0.494661
-0.2988506 0.0068179369 0.49439317
-0.29664397 0.0075623989 0.4941237
-0.29529297 0.0082442313 0.4946039
-0.29394197 0.0089260787 0.49508414
-0.29174417 0.0096660629 0.49481159
-0.29039538 0.010346793 0.49529099
-0.28904659 0.011027522 0.49577042
-0.28685778 0.011763014 0.49549472
-0.28551114 0.012442641 0.49597338
-0.28332889 0.013174787 0.49569523
-0.28198457 0.01385325 0.49617308
-0.279809 0.014582029 0.49589264
-0.27846682 0.015259406 0.49636969
-0.2771247 0.015936768 0.49684677
-0.27495801 0.016661091 0.49656317
-0.2727958 0.017383149 0.49627793
-0.27145803 0.018058276 0.49675342
-0.26930249 0.018776983 0.49646589
-0.2671513 0.019493449 0.49617669
-0.26500458 0.020207679 0.495886
-0.26286232 0.020919656 0.49559376
-0.26072448 0.021629414 0.49529991
-0.25859106 0.022336919 0.49500442
-0.2564621 0.023042191 0.49470738
-0.25513989 0.023709487 0.49517733
-0.2530176 0.024411391 0.49487796
-0.25089979 0.025111053 0.49457699
-0.24958198 0.025776114 0.49504539
-0.24747078 0.026472431 0.4947421
-0.24536397 0.027166503 0.49443713
-0.24405067 0.027829314 0.49490395
-0.2419505 0.028520042 0.49459669
-0.24063943 0.029181743 0.49506274
-0.23854597 0.029869089 0.49475306
-0.23645695 0.030554201 0.49444184
-0.2343723 0.031237073 0.49412903
-0.23306786 0.031895421 0.4945927
-0.23098998 0.032574929 0.49427754
-0.22891645 0.033252209 0.49396083
-0.22761647 0.033908308 0.49442291
-0.22554962 0.034582227 0.49410382
-0.22348721 0.035253897 0.49378312
-0.22219162 0.03590776 0.49424362
-0.22013585 0.0365761 0.49392053
-0.21884249 0.037228838 0.49438027
-0.21754913 0.037881576 0.49483997
-0.21550228 0.038545415 0.49451378
-0.21421115 0.039197035 0.49497271
-0.21292002 0.039848648 0.49543163
-0.21088202 0.040508017 0.49510232
-0.2095931 0.041158505 0.49556044
-0.20830421 0.041809015 0.49601859
-0.20701532 0.042459503 0.49647671
-0.20498838 0.043113276 0.49614343
-0.20370169 0.043762654 0.49660078
-0.20168142 0.044413067 0.49626514
-0.20039694 0.045061335 0.49672171
-0.19911249 0.045709588 0.49717829
-0.19782801 0.046357855 0.49763483
-0.19581883 0.047002666 0.4972952
-0.19453655 0.047649808 0.49775097
-0.19325431 0.048296943 0.49820673
-0.19197206 0.048944086 0.4986625
-0.19068979 0.049591228 0.4991183
-0.18940754 0.050238371 0.49957407
-0.1881253 0.050885506 0.5000298
-0.18684302 0.051532656 0.5004856
-0.18485384 0.052167371 0.50013888
-0.18357377 0.052813396 0.50059384
-0.18229376 0.053459421 0.5010488
-0.18101369 0.054105446 0.50150383
-0.17903562 0.054734573 0.50115323
-0.17775781 0.055379473 0.50160742
-0.17578636 0.056005262 0.50125444
-0.17451076 0.056649037 0.50170779
-0.17254592 0.057271458 0.50135243
-0.17058556 0.057891637 0.50099546
-0.16931443 0.058533177 0.50144732
-0.16736071 0.059149988 0.50108802
-0.16609173 0.059790418 0.50153899
-0.16414471 0.060403876 0.50117731
-0.16287796 0.061043181 0.50162756
-0.16093759 0.061653294 0.5012635
-0.15967308 0.062291473 0.50171304
-0.15773933 0.062898204 0.50134659
-0.15580998 0.063502714 0.50097859
-0.15454994 0.064138651 0.50142646
-0.1526273 0.064739794 0.50105613
-0.15136944 0.065374628 0.50150323
-0.14945345 0.06597241 0.50113052
-0.14754187 0.066567957 0.5007562
-0.14563476 0.067161262 0.50038028
-0.14373209 0.067752331 0.50000286
-0.14183383 0.068341166 0.49962384
-0.14058708 0.068970382 0.500067
-0.13869546 0.069555864 0.49968562
-0.13680829 0.07013908 0.49930263
-0.13556595 0.070766076 0.49974421
-0.13368545 0.071345948 0.49935886
-0.13244538 0.071971819 0.49979967
-0.13057153 0.072548322 0.49941191
-0.12933366 0.073173076 0.49985191
-0.12809579 0.073797815 0.50029194
-0.12685786 0.074422576 0.50073195
-0.12499516 0.074993484 0.50034034
-0.12375946 0.07561712 0.50077951
-0.1219034 0.07618466 0.50038552
-0.078992054 0.092303596 0.49983183
-0.077791855 0.092909306 0.50025845
-0.076037839 0.093425356 0.49982816
-0.074839875 0.094029948 0.50025392
-0.073641941 0.094634548 0.50067973
-0.072443977 0.09523914 0.50110555
-0.070701018 0.095749602 0.50067139
-0.069505259 0.096353076 0.50109637
-0.068309531 0.096956559 0.50152141
-0.067113802 0.097560026 0.50194645
0.10710176 0.1673941 0.51223654
0.10818879 0.16794272 0.51262295
0.10950802 0.16823933 0.51203811
0.11059283 0.16878682 0.51242369
0.11167765 0.16933432 0.51280928
0.11298802 0.16962644 0.51222128
0.11407062 0.17017283 0.51260608
0.11515321 0.17071921 0.51299089
0.11623581 0.17126557 0.5133757
0.11731841 0.17181195 0.51376051
0.11840101 0.17235833 0.51414531
0.11969583 0.17264262 0.51355177
0.12098622 0.17292467 0.51295674
0.14583424 0.18288082 0.51441252
0.14689684 0.1834171 0.51479024
0.14811628 0.18366334 0.51416993
0.14917669 0.18419851 0.51454681
0.1502371 0.18473369 0.51492369
0.15129752 0.18526888 0.51530063
0.15235792 0.18580405 0.51567757
0.15447874 0.1868744 0.51643145
-0.31827497 0.00099430978 0.49373558
-0.31603181 0.0017543212 0.49347922
-0.31379312 0.0025121123 0.49322137
-0.31243104 0.0031995475 0.49370551
-0.31019902 0.003953971 0.49344528
-0.30797148 0.0047061294 0.49318343
-0.30661374 0.0053913593 0.49366602
-0.30525607 0.0060765743 0.49414861
-0.30303735 0.0068242624 0.49388358
-0.30168188 0.0075083449 0.49436536
-0.30032635 0.0081924573 0.49484718
-0.29811656 0.008935675 0.49457905
-0.29591119 0.0096766427 0.49430928
-0.29456013 0.01035849 0.49478948
-0.29320908 0.011040352 0.49526969
-0.29101259 0.011776857 0.49499682
-0.28966379 0.012457587 0.49547628
-0.28831494 0.013138317 0.49595571
-0.28612733 0.013870358 0.49567968
-0.28394401 0.014600141 0.49540204
-0.28259969 0.015278606 0.49587986
-0.28042316 0.016005037 0.49559993
-0.27908099 0.016682414 0.49607697
-0.27773881 0.017359776 0.49655405
-0.27557111 0.018081753 0.49627092
-0.27340788 0.018801449 0.49598619
-0.27207017 0.019476576 0.49646166
-0.26991355 0.020192936 0.4961746
-0.26776135 0.020907041 0.49588594
-0.26561368 0.021618931 0.49559572
-0.26347035 0.022328554 0.49530393
-0.26133156 0.023035957 0.49501055
-0.26000494 0.023705488 0.49548212
-0.25787264 0.024409536 0.49518633
-0.25574487 0.025111321 0.49488896
-0.25362164 0.025810879 0.49459007
-0.25230163 0.026477057 0.49505925
-0.25018495 0.027173255 0.49475801
-0.24807273 0.027867209 0.49445519
-0.2459649 0.028558934 0.49415073
-0.2446516 0.029221745 0.49461752
-0.24255042 0.029910112 0.49431077
-0.24123935 0.030571813 0.49477679
-0.23992829 0.031233499 0.4952428
-0.23783602 0.031917386 0.49493283
-0.23652713 0.032577954 0.49539804
-0.23444153 0.033258501 0.49508578
-0.23236032 0.033936776 0.49477187
-0.2302836 0.03461282 0.49445641
-0.22898136 0.035270035 0.49491927
-0.22691129 0.035942726 0.49460146
-0.22561131 0.036598817 0.49506354
-0.22354786 0.037268154 0.49474338
-0.22148888 0.037935242 0.49442157
-0.22019331 0.038589098 0.49488208
-0.21889775 0.039242961 0.49534258
-0.21684761 0.039905556 0.49501762
-0.21555425 0.040558301 0.49547732
-0.21426092 0.041211039 0.49593705
-0.2122197 0.041869178 0.49560899
-0.21092854 0.042520799 0.49606791
-0.20963742 0.043172419 0.49652684
-0.20760505 0.043826066 0.49619561
-0.20631616 0.044476576 0.49665377
-0.20502727 0.045127064 0.49711189
-0.20300375 0.045776248 0.4967775
-0.20171706 0.046425633 0.49723485
-0.20043038 0.047075011 0.49769223
-0.19914369 0.047724389 0.49814957
-0.19785701 0.048373766 0.49860692
-0.19584678 0.049016222 0.4982678
-0.19456233 0.049664482 0.49872437
-0.19255875 0.050303578 0.49838287
-0.19127651 0.050950721 0.49883863
-0.18999426 0.051597863 0.4992944
-0.18871199 0.052244999 0.49975017
-0.18742974 0.052892148 0.50020599
-0.1861475 0.053539276 0.50066173
-0.1841595 0.054170541 0.50031471
-0.18287946 0.054816566 0.50076962
-0.18159942 0.055462591 0.50122464
-0.18031938 0.056108609 0.50167966
-0.17834251 0.056734279 0.50132871
-0.17637001 0.057357699 0.5009762
-0.17509444 0.058001474 0.50142956
-0.17312859 0.058621548 0.50107467
-0.1718552 0.059264205 0.50152731
-0.16989605 0.059880912 0.50117004
-0.16794132 0.060495377 0.50081122
-0.16667239 0.061135806 0.50126231
-0.16472434 0.061746918 0.50090104
-0.16345759 0.062386222 0.5013513
-0.16151617 0.062993973 0.50098777
-0.16025169 0.063632153 0.50143719
-0.1583169 0.064236537 0.50107121
-0.15705462 0.064873606 0.50151992
-0.1551265 0.065474629 0.50115168
-0.15320288 0.066073418 0.50078177
-0.15194498 0.066708252 0.50122893
-0.15002798 0.067303687 0.50085664
-0.14811538 0.067896873 0.5004828
-0.14620726 0.068487838 0.50010741
-0.14495607 0.069119304 0.50055218
-0.14305459 0.069706902 0.5001744
-0.14115755 0.070292249 0.49979508
-0.1399108 0.070921481 0.50023824
-0.13802041 0.07150349 0.49985656
-0.13613443 0.072083235 0.49947324
-0.13489209 0.072710216 0.49991482
-0.13301282 0.073286623 0.49952921
-0.13177271 0.073912486 0.49996999
-0.13053261 0.074538358 0.5004108
-0.076031074 0.094603471 0.49871051
-0.074835345 0.095206946 0.49913552
0.10901164 0.16938949 0.51180148
0.11009645 0.16993698 0.51218712
0.11141006 0.17022789 0.51160038
0.11249266 0.17077427 0.51198518
0.11357525 0.17132065 0.51236999
0.11465784 0.17186701 0.5127548
0.11574044 0.17241339 0.51313961
0.11682304 0.17295977 0.51352441
0.14534801 0.18400747 0.51418078
0.14657065 0.18425244 0.51356173
0.14763106 0.18478763 0.51393867
0.14869148 0.18532281 0.51431555
0.14975189 0.18585798 0.51469243
0.15066114 0.18668894 0.51606929
0.15172377 0.18722525 0.51644701
0.15293312 0.18746352 0.51582325
0.15384904 0.18829784 0.51720238
-0.31890029 0.0024431869 0.49343756
-0.31753373 0.0031328574 0.49392328
-0.31529176 0.0038894266 0.49366665
-0.31305432 0.0046437234 0.49340844
-0.31169218 0.0053311735 0.49389261
-0.30946136 0.006082125 0.49363205
-0.307235 0.0068308339 0.49336994
-0.30587733 0.0075160488 0.49385253
-0.30451965 0.008201234 0.49433509
-0.30230212 0.0089454725 0.49406976
-0.30094659 0.0096295848 0.49455157
-0.29959118 0.010313667 0.49503335
-0.29738253 0.011053398 0.49476489
-0.29517829 0.011790909 0.49449483
-0.2938273 0.012472771 0.49497506
-0.29162979 0.013206922 0.49470267
-0.290281 0.013887651 0.4951821
-0.28893214 0.014568381 0.49566153
-0.28674346 0.015298061 0.495386
-0.28539693 0.015977658 0.49586463
-0.28321487 0.016703969 0.49558666
-0.28187048 0.017382478 0.49606454
-0.27969515 0.018105423 0.49578428
-0.27835298 0.018782785 0.49626133
-0.27618426 0.019502407 0.49597871
-0.27402002 0.020219749 0.49569443
-0.27268225 0.020894876 0.49616992
-0.27052462 0.021608889 0.49588335
-0.26918918 0.022282906 0.49635804
-0.26703817 0.022993546 0.49606904
-0.26489162 0.023701942 0.49577853
-0.26274955 0.024408108 0.49548644
-0.26061195 0.025112024 0.4951928
-0.2584787 0.025813717 0.49489748
-0.25634992 0.026513163 0.49460059
-0.25502771 0.027180452 0.49507055
-0.25290561 0.027876537 0.49477139
-0.25078791 0.028570388 0.49447063
-0.24947016 0.029235441 0.494939
-0.24735914 0.029925931 0.49463585
-0.24525253 0.030614177 0.49433109
-0.24393924 0.031276986 0.49479792
-0.24183927 0.031961888 0.49449083
-0.24052821 0.032623574 0.49495685
-0.23921709 0.033285268 0.49542287
-0.23712604 0.033965677 0.4951126
-0.23581715 0.03462626 0.49557784
-0.23373277 0.035303313 0.49526522
-0.23165275 0.035978131 0.49495101
-0.23034833 0.036636457 0.49541467
-0.22827502 0.037307926 0.49509814
-0.2269728 0.037965141 0.495561
-0.22490613 0.038633242 0.49524209
-0.22360615 0.03928934 0.4957042
-0.22230615 0.039945431 0.49616626
-0.22024833 0.040609054 0.49584422
-0.21819501 0.041270427 0.4955205
-0.21689944 0.04192429 0.49598101
-0.21560387 0.042578138 0.49644151
-0.21355937 0.043235049 0.4961147
-0.21226601 0.043887779 0.4965744
-0.21097265 0.044540524 0.4970341
-0.20893709 0.045192949 0.49670416
-0.20764594 0.04584457 0.49716309
-0.20635484 0.046496183 0.49762201
-0.2043281 0.04714413 0.49728891
-0.20303921 0.047794625 0.49774706
-0.20175026 0.048445128 0.49820521
-0.20046137 0.049095623 0.49866334
-0.19844575 0.049737968 0.4983263
-0.19715904 0.050387345 0.49878365
-0.19587235 0.05103673 0.49924099
-0.19386558 0.051674597 0.4989008
-0.19258113 0.05232285 0.49935737
-0.19058101 0.052957363 0.49901477
-0.18929873 0.053604499 0.4994705
-0.18801646 0.054251648 0.4999263
-0.18673424 0.054898776 0.50038207
-0.18545197 0.055545926 0.5008378
-0.18346517 0.056173719 0.50049049
-0.18218513 0.056819744 0.50094545
-0.18090509 0.057465762 0.50140047
-0.1789272 0.05808907 0.50105
-0.17764936 0.05873397 0.50150418
-0.17567812 0.059353925 0.50115138
-0.17371126 0.059971645 0.50079691
-0.17243789 0.060614303 0.50124955
-0.1704777 0.061228655 0.50089282
-0.16852199 0.061840765 0.50053453
-0.167253 0.062481195 0.5009855
-0.16530393 0.063089944 0.50062478
-0.16403721 0.063729249 0.50107503
-0.16209479 0.064334661 0.50071198
-0.1608303 0.06497284 0.50116146
-0.15889449 0.06557487 0.50079596
-0.15763222 0.066211939 0.50124466
-0.15570308 0.066810623 0.50087684
-0.15444301 0.06744656 0.50132477
-0.15252055 0.068041876 0.50095457
-0.15060256 0.068634965 0.50058281
-0.14934687 0.069268674 0.50102913
-0.14743553 0.06985838 0.500655
-0.14552857 0.070445865 0.50027931
-0.14427738 0.071077332 0.50072396
-0.14237712 0.071661472 0.50034595
-0.14048128 0.072243363 0.49996635
-0.13923453 0.072872579 0.50040948
-0.13734533 0.073451102 0.50002754
-0.13546054 0.074027382 0.49964389
-0.13421823 0.074654378 0.50008547
-0.13297592 0.075281359 0.50052702
-0.13110004 0.075853169 0.50014031
-0.12489028 0.078237332 0.50024056
0.10983209 0.17082933 0.51097947
0.11091469 0.17137571 0.51136422
0.11199729 0.17192209 0.51174903
0.11307988 0.17246845 0.51213384
0.11416247 0.17301483 0.51251864
0.14911228 0.1872793 0.51545984
0.15017492 0.18781559 0.51583755
-0.32040638 0.0038253218 0.49387988
-0.31815904 0.004581742 0.49362525
-0.31591606 0.0053359568 0.49336907
-0.31367755 0.0060879067 0.49311137
-0.31231546 0.0067753568 0.49359554
-0.31095332 0.0074627921 0.49407968
-0.30872369 0.008210279 0.49381885
-0.30649853 0.0089555234 0.49355641
-0.30514085 0.0096407086 0.494039
-0.30378318 0.010325924 0.49452159
-0.30156684 0.011066698 0.49425593
-0.30021137 0.01175078 0.49473771
-0.2988559 0.012434863 0.49521953
-0.2966485 0.013171136 0.49495077
-0.29444551 0.013905182 0.4946804
-0.29309446 0.01458703 0.49516061
-0.29089814 0.015317716 0.49488792
-0.28954929 0.015998445 0.49536738
-0.28820056 0.016679175 0.49584678
-0.28601307 0.017405368 0.49557096
-0.28382999 0.018129325 0.49529347
-0.2824856 0.018807834 0.49577135
-0.28030926 0.019528424 0.49549156
-0.27896708 0.020205786 0.49596861
-0.27762496 0.020883163 0.49644569
-0.27545744 0.021599291 0.49616274
-0.27329433 0.022313176 0.49587819
-0.27195662 0.022988318 0.49635366
-0.26980025 0.023698851 0.49606678
-0.26764822 0.024407145 0.49577829
-0.26550072 0.025113193 0.49548826
-0.26335758 0.025816998 0.49519664
-0.26202875 0.026487654 0.49566898
-0.25989234 0.027188113 0.49537501
-0.25776029 0.027886312 0.4950794
-0.2556327 0.028582294 0.49478221
-0.25350958 0.029276025 0.4944835
-0.25218964 0.029942203 0.49495268
-0.25007319 0.030632574 0.49465159
-0.24875544 0.031297628 0.49511999
-0.24664555 0.031984653 0.49481657
-0.24454017 0.032669418 0.49451149
-0.24322684 0.033332244 0.49497831
-0.24191354 0.033995055 0.4954451
-0.23981701 0.034675345 0.49513695
-0.23850589 0.035337046 0.49560297
-0.23641606 0.036013991 0.49529237
-0.2351072 0.036674567 0.49575761
-0.23379831 0.03733515 0.49622285
-0.23171733 0.038007598 0.49590915
-0.22964077 0.038677827 0.49559385
-0.22833632 0.03933616 0.49605748
-0.22703187 0.039994501 0.49652115
-0.22496419 0.040660247 0.49620274
-0.223662 0.041317455 0.4966656
-0.22160096 0.041979849 0.49634483
-0.22030096 0.04263594 0.49680689
-0.21900098 0.043292038 0.49726897
-0.21694882 0.043949947 0.49694505
-0.21565105 0.044604927 0.49740633
-0.21360557 0.045259476 0.49707997
-0.21231 0.045913339 0.49754047
-0.21027111 0.046564519 0.49721175
-0.20897777 0.047217265 0.49767146
-0.20768444 0.047870003 0.49813119
-0.20565449 0.048516713 0.49779937
-0.20436333 0.049168341 0.49825829
-0.20307223 0.049819954 0.49871722
-0.20105116 0.050462179 0.49838224
-0.19976221 0.051112682 0.49884036
-0.19847332 0.051763177 0.49929851
-0.19646113 0.052400939 0.49896038
-0.19517441 0.053050324 0.49941772
-0.19388773 0.053699695 0.49987507
-0.19188438 0.054332972 0.4995338
-0.18988545 0.054964006 0.49919087
-0.18860321 0.055611156 0.49964663
-0.18732093 0.056258284 0.5001024
-0.18533091 0.05688484 0.49975634
-0.18405087 0.057530865 0.50021136
-0.18277083 0.05817689 0.50066626
-0.18078969 0.058798969 0.5003171
-0.17951189 0.059443869 0.50077128
-0.17753737 0.060062587 0.5004198
-0.1762618 0.060706362 0.50087321
-0.17429392 0.061321735 0.50051928
-0.17302053 0.061964393 0.50097185
-0.17105936 0.062576391 0.5006156
-0.16910259 0.063186154 0.50025773
-0.16783364 0.063826583 0.50070882
-0.16656469 0.064467005 0.50115979
-0.16461681 0.065072283 0.50079876
-0.16335009 0.065711595 0.50124902
-0.16140889 0.06631352 0.50088567
-0.16014437 0.066951707 0.50133514
-0.15820979 0.067550272 0.50096929
-0.15694748 0.068187341 0.50141799
-0.1550196 0.068782538 0.50104988
-0.15309612 0.069375515 0.50068021
-0.15183829 0.070010334 0.50112736
-0.14992146 0.070599951 0.50075531
-0.14866583 0.071233653 0.50120163
-0.14675562 0.071819894 0.50082719
-0.14484988 0.072403908 0.50045109
-0.14359869 0.073035389 0.50089586
-0.14169963 0.073616028 0.50051749
-0.14045064 0.074246377 0.50096142
-0.13855825 0.074823678 0.50058073
-0.13667028 0.075398713 0.50019848
-0.1354257 0.076026827 0.50064081
-0.13354437 0.076598525 0.50025606
-0.13230203 0.077225514 0.50069767
-0.13042738 0.077793844 0.50031066
-0.12918727 0.078419715 0.5007515
-0.12731926 0.078984693 0.50036204
-0.12545569 0.079547435 0.49997103
-0.12422003 0.080171056 0.50041026
-0.3210327 0.0052765533 0.49358135
-0.31878436 0.0060306191 0.49332723
-0.31741774 0.0067203194 0.49381295
-0.31517601 0.0074710473 0.49355647
-0.31293875 0.0082195327 0.49329847
-0.3115766 0.0089069679 0.49378261
-0.31021446 0.009594433 0.49426678
-0.30798608 0.010338418 0.49400565
-0.30576211 0.011080176 0.49374288
-0.30440444 0.011765391 0.49422547
-0.30218709 0.012503818 0.49396032
-0.30083162 0.0131879 0.49444211
-0.29947615 0.013871981 0.49492392
-0.29812074 0.014556063 0.4954057
-0.29591447 0.015288882 0.49513665
-0.29371262 0.016019449 0.49486598
-0.29236162 0.016701296 0.49534619
-0.2901665 0.017428502 0.4950732
-0.2888177 0.018109232 0.49555263
-0.28746891 0.018789962 0.49603203
-0.28528267 0.019512691 0.49575591
-0.28310072 0.02023319 0.49547812
-0.2817564 0.020911684 0.49595597
-0.27958119 0.021628795 0.49567589
-0.27823907 0.022306172 0.49615297
-0.27607054 0.023019945 0.4958705
-0.27390647 0.023731483 0.49558643
-0.27256876 0.024406625 0.49606192
-0.27041131 0.025114805 0.49577552
-0.26907581 0.025788814 0.49625021
-0.26610976 0.026524438 0.49519795
-0.26477873 0.027196212 0.49567106
-0.26263678 0.027896551 0.49537915
-0.26049936 0.028594648 0.49508569
-0.25917274 0.02926418 0.49555722
-0.25704187 0.029958922 0.49526131
-0.25491554 0.030651417 0.49496379
-0.25359333 0.03131872 0.49543378
-0.25147367 0.032007854 0.49513397
-0.2493584 0.032694761 0.49483261
-0.2480406 0.033359822 0.49530098
-0.24672286 0.034024876 0.49576938
-0.24461646 0.034707289 0.49546483
-0.24251448 0.035387486 0.4951587
-0.24120115 0.036050312 0.4956255
-0.23988782 0.036713123 0.49609232
-0.23779474 0.037388824 0.49578306
-0.23648362 0.038050517 0.49624908
-0.23517255 0.038712218 0.4967151
-0.23308836 0.039383441 0.49640262
-0.23177947 0.040044017 0.49686787
-0.22970192 0.040711891 0.49655306
-0.22762875 0.041377522 0.49623665
-0.2263243 0.042035863 0.49670032
-0.22501986 0.042694196 0.49716398
-0.22295563 0.043355353 0.49684447
-0.22165342 0.044012569 0.49730733
-0.2203512 0.044669785 0.49777022
-0.2182958 0.045326456 0.49744755
-0.21699582 0.045982555 0.49790964
-0.21569581 0.046638653 0.49837169
-0.21364932 0.047290854 0.49804589
-0.21160726 0.047940806 0.49771842
-0.2103117 0.048594661 0.49817893
-0.20901613 0.049248524 0.49863943
-0.2069829 0.049893998 0.49830881
-0.20568953 0.050546743 0.49876854
-0.20439617 0.051199473 0.49922824
-0.20237188 0.051840492 0.49889454
-0.20108075 0.052492104 0.49935347
-0.19906311 0.053129733 0.49901739
-0.19777419 0.053780235 0.49947554
-0.19648527 0.054430738 0.49993369
-0.19447647 0.055063896 0.49959445
-0.19318978 0.055713281 0.5000518
-0.19118766 0.056343079 0.4997102
-0.18918993 0.056970656 0.499367
-0.18790768 0.057617784 0.49982277
-0.18591665 0.058241993 0.49947718
-0.18463658 0.058888018 0.49993214
-0.18335657 0.059534043 0.50038713
-0.18137439 0.06015376 0.50003844
-0.18009658 0.06079866 0.50049263
-0.17812108 0.061415039 0.50014162
-0.17684548 0.062058814 0.50059497
-0.17487659 0.062671825 0.50024152
-0.17360322 0.063314483 0.50069416
-0.17232983 0.063957147 0.50114679
-0.17036985 0.064565673 0.50079018
-0.16841428 0.065171972 0.50043201
-0.16714536 0.065812394 0.5008831
-0.16519646 0.066415325 0.50052249
-0.16392972 0.067054637 0.50097275
-0.1619875 0.067654207 0.50060987
-0.16072299 0.068292394 0.50105929
-0.1594585 0.068930574 0.50150883
-0.15752508 0.069525659 0.50114274
-0.1562628 0.070162714 0.50159138
-0.15433608 0.070754468 0.50122297
-0.15307604 0.071390405 0.50167084
-0.15115596 0.071978793 0.5013001
-0.14989813 0.072613612 0.50174725
-0.14798473 0.073198631 0.50137407
-0.14607574 0.073781401 0.50099933
-0.14482231 0.074413985 0.50144482
-0.14292 0.074993417 0.5010677
-0.14166881 0.075624883 0.50151241
-0.13977318 0.076200947 0.50113297
-0.13852422 0.076831281 0.5015769
-0.1366352 0.077403992 0.50119513
-0.13538848 0.078033209 0.50163829
-0.1335061 0.078602567 0.50125408
-0.1316282 0.079169668 0.50086832
-0.13038586 0.079796657 0.50130987
-0.32165903 0.0067277849 0.49328282
-0.32029027 0.0074185878 0.49376935
-0.31804311 0.0081691965 0.49351493
-0.3166765 0.0088588819 0.49400064
-0.31443596 0.0096061304 0.49374387
-0.31219989 0.010351136 0.49348554
-0.31083775 0.011038601 0.49396971
-0.3094756 0.011726052 0.49445388
-0.30724841 0.012466565 0.49419239
-0.3050257 0.013204858 0.49392936
-0.30366802 0.013890075 0.49441195
-0.3014518 0.014625018 0.4941465
-0.30009639 0.015309101 0.49462828
-0.29874092 0.015993183 0.49511006
-0.29653364 0.016723648 0.49484152
-0.29518044 0.017406613 0.49532253
-0.29297984 0.018133707 0.49505153
-0.29162878 0.01881557 0.49553177
-0.28943491 0.019539297 0.49525845
-0.28808606 0.020220026 0.49573788
-0.2858988 0.020940408 0.49546221
-0.28455222 0.02162002 0.49594086
-0.28237152 0.02233704 0.49566278
-0.2810272 0.023015505 0.49614063
-0.27885318 0.023729181 0.49586025
-0.27751106 0.024406543 0.49633729
-0.27534372 0.025116859 0.49605456
-0.27318084 0.025824932 0.49577019
-0.27184314 0.026500059 0.49624565
-0.26968694 0.027204759 0.49595895
-0.26753509 0.027907226 0.49567062
-0.26538777 0.028607449 0.49538079
-0.26405674 0.029279215 0.4958539
-0.26191598 0.029976098 0.49556169
-0.25977975 0.030670723 0.4952679
-0.25845313 0.031340256 0.49573943
-0.25632352 0.032031517 0.4954432
-0.25419831 0.032720555 0.49514541
-0.25287616 0.033387836 0.49561539
-0.25075763 0.03407352 0.49531528
-0.24943767 0.034739699 0.49578446
-0.24732582 0.035422008 0.495482
-0.24600808 0.036087062 0.49595037
-0.24390288 0.036766019 0.49564555
-0.24258734 0.037429955 0.49611315
-0.24048875 0.038105547 0.49580589
-0.23917545 0.038768359 0.49627271
-0.23786215 0.03943117 0.49673951
-0.23577248 0.040102303 0.49642918
-0.23446141 0.040763989 0.49689516
-0.23315029 0.041425683 0.49736121
-0.23106949 0.042092308 0.49704763
-0.22976063 0.042752892 0.49751285
-0.22768651 0.043416183 0.497197
-0.22561674 0.044077225 0.49687949
-0.22431229 0.044735566 0.49734315
-0.2230079 0.045393892 0.49780679
-0.22094704 0.046050452 0.4974862
-0.21964483 0.046707667 0.49794906
-0.21834259 0.047364891 0.49841192
-0.2170404 0.048022099 0.49887481
-0.21499066 0.048673078 0.49855027
-0.21369065 0.049329169 0.49901232
-0.21239065 0.049985267 0.49947441
-0.21034978 0.050631747 0.4991467
-0.20831336 0.051275991 0.49881738
-0.20701779 0.051929861 0.49927789
-0.20498799 0.052570738 0.49894616
-0.20369463 0.053223483 0.49940589
-0.2024013 0.053876214 0.49986562
-0.2003804 0.054512635 0.49953082
-0.19836394 0.055146791 0.49919444
-0.19707505 0.055797294 0.49965259
-0.19506525 0.056428105 0.49931383
-0.19377856 0.05707749 0.49977118
-0.19177543 0.057704933 0.49943006
-0.18977664 0.058330156 0.49908733
-0.1884944 0.058977284 0.4995431
-0.18650232 0.059599139 0.49919799
-0.18522231 0.060245164 0.49965298
-0.18323694 0.060863666 0.49930558
-0.18195908 0.061508566 0.49975976
-0.18068127 0.062153466 0.50021398
-0.17870472 0.062767476 0.49986339
-0.17742918 0.063411251 0.5003168
-0.17545925 0.064021923 0.49996379
-0.17418586 0.06466458 0.5004164
-0.17291246 0.065307245 0.50086904
-0.1709515 0.065913416 0.50051296
-0.16899492 0.066517361 0.50015533
-0.16772597 0.067157783 0.5006063
-0.16645704 0.067798205 0.50105739
-0.16450934 0.068397671 0.50069654
-0.16324262 0.069036968 0.50114673
-0.16197588 0.069676273 0.50159699
-0.16003709 0.070271261 0.50123298
-0.15877257 0.070909448 0.50168252
-0.1568404 0.071501046 0.50131607
-0.15557812 0.072138116 0.50176477
-0.15365259 0.072726384 0.50139606
-0.15239255 0.073362336 0.50184393
-0.15113248 0.073998272 0.5022918
-0.14921583 0.07458207 0.50191998
-0.14730363 0.075163618 0.5015465
-0.14604799 0.075797319 0.50199282
-0.14414243 0.076375499 0.50161695
-0.14288901 0.077008076 0.50206256
-0.14099012 0.077582926 0.50168431
-0.13973893 0.078214392 0.50212902
-0.13784672 0.078785852 0.50174844
-0.13659774 0.079416201 0.50219244
-0.13471214 0.079984322 0.50180954
-0.13219665 0.080486827 0.50059736
-0.13095431 0.081113815 0.50103891
-0.12908204 0.081675209 0.50065136
0.1558753 0.19557567 0.51979327
0.15694237 0.19611421 0.52017254
0.15814467 0.19633749 0.51954675
-0.32316923 0.0081193298 0.49372312
-0.32091653 0.0088698268 0.49347082
-0.31954777 0.0095606446 0.49395737
-0.31730181 0.010307766 0.49370262
-0.31593525 0.010997452 0.49418834
-0.31369591 0.011741236 0.49393126
-0.31146103 0.012482785 0.49367264
-0.31009889 0.013170235 0.49415681
-0.30787069 0.013908394 0.49389583
-0.30651081 0.014594726 0.49437919
-0.30428922 0.015329557 0.49411586
-0.30293155 0.016014757 0.49459842
-0.30071658 0.016746229 0.49433267
-0.29936111 0.017430311 0.49481446
-0.29800564 0.018114408 0.49529627
-0.29579961 0.018841386 0.49502739
-0.29444641 0.019524351 0.49550837
-0.29224694 0.020247996 0.49523711
-0.29089594 0.020929828 0.49571732
-0.28870326 0.021650098 0.49544373
-0.28735441 0.022330828 0.49592313
-0.28516841 0.023047738 0.49564719
-0.28382182 0.023727335 0.49612582
-0.28164232 0.024440875 0.49584743
-0.28029788 0.025119385 0.49632528
-0.27812517 0.025829559 0.49604461
-0.27678299 0.026506936 0.49652165
-0.2746169 0.02721378 0.49623862
-0.27245522 0.027918367 0.49595389
-0.27111751 0.028593501 0.49642938
-0.2689625 0.029294737 0.49614239
-0.26681191 0.029993717 0.49585375
-0.26466578 0.030690474 0.4955636
-0.26333469 0.03136225 0.49603671
-0.26119524 0.032055654 0.4957442
-0.25986636 0.03272631 0.49621651
-0.25773358 0.033416346 0.49592164
-0.2556051 0.034104127 0.49562511
-0.25348115 0.034789685 0.49532703
-0.25215894 0.035456989 0.49579698
-0.25004166 0.036139194 0.49549657
-0.24872164 0.036805373 0.49596575
-0.2474017 0.037471544 0.49643493
-0.2452933 0.038149256 0.49613136
-0.24397556 0.038814325 0.49659976
-0.24187379 0.039488669 0.49629381
-0.24055825 0.040152613 0.49676141
-0.23846309 0.040823609 0.49645308
-0.23714976 0.041486435 0.4969199
-0.23583646 0.042149246 0.49738672
-0.23375021 0.042815767 0.49707526
-0.23243915 0.043477461 0.49754128
-0.23112802 0.044139162 0.4980073
-0.22905065 0.044801213 0.49769264
-0.22774176 0.045461781 0.49815789
-0.2256711 0.046120476 0.49784091
-0.22436444 0.046779927 0.49830535
-0.22230028 0.047435261 0.49798599
-0.22099586 0.048093595 0.49844962
-0.21969144 0.048751928 0.49891329
-0.21763627 0.049402781 0.4985908
-0.21633403 0.050060004 0.49905366
-0.21503182 0.050717212 0.49951652
-0.2129855 0.051363587 0.4991909
-0.21168552 0.052019678 0.49965295
-0.21038549 0.052675784 0.50011504
-0.20834802 0.053317681 0.49978626
-0.20705025 0.053972654 0.50024754
-0.20501949 0.054611191 0.49991634
-0.20299311 0.055247486 0.49958354
-0.20169975 0.055900231 0.50004327
-0.19968008 0.056533158 0.49970815
-0.19766481 0.057163864 0.49937147
-0.19637592 0.05781436 0.49982962
-0.1943673 0.058441699 0.49949056
-0.19236313 0.059066787 0.49914995
-0.19036339 0.059689663 0.4988077
-0.18908112 0.060336791 0.49926344
-0.18708806 0.060956299 0.49891883
-0.18580802 0.061602324 0.49937382
-0.1838216 0.062218465 0.49902686
-0.1825438 0.062863365 0.49948108
-0.18126599 0.063508265 0.49993527
-0.17928843 0.064119928 0.49958518
-0.17801283 0.064763702 0.50003862
-0.17604192 0.06537202 0.49968609
-0.17476855 0.066014677 0.5001387
-0.17349516 0.066657342 0.50059134
-0.17222176 0.067299999 0.50104392
-0.17026196 0.067902714 0.50068754
-0.16899084 0.068544254 0.5011394
-0.16703768 0.069143601 0.50078058
-0.16576873 0.06978403 0.50123167
-0.1644998 0.070424445 0.5016827
-0.16323082 0.071064875 0.50213373
-0.16128878 0.071658611 0.50177097
-0.16002207 0.072297916 0.50222123
-0.1580867 0.072888307 0.50185621
-0.15682219 0.073526502 0.50230563
-0.15555768 0.074164674 0.50275505
-0.15363114 0.074750602 0.50238681
-0.15236883 0.075387657 0.50283551
-0.15044896 0.075970203 0.50246489
-0.14918892 0.07660614 0.50291276
-0.14727567 0.077185348 0.50253987
-0.14601783 0.077820167 0.50298691
-0.14411129 0.078396015 0.50261164
-0.14220913 0.078969613 0.5022347
-0.14031146 0.079540968 0.50185615
-0.13906024 0.080172434 0.50230086
-0.13716926 0.080740422 0.50192004
-0.13528265 0.081306189 0.50153762
-0.13340051 0.081869707 0.50115359
-0.13152276 0.082430989 0.50076801
0.15538703 0.19670703 0.51956052
0.1564541 0.19724557 0.51993978
0.15765741 0.19746649 0.51931453
0.15872227 0.1980039 0.51969302
0.15978712 0.19854133 0.52007151
0.16085197 0.19907874 0.52045
0.16191682 0.19961616 0.52082849
0.16617621 0.20176584 0.52234244
-0.3246814 0.0095155761 0.49416247
-0.32242554 0.010264821 0.49391142
-0.3201741 0.011011876 0.49365884
-0.31880534 0.011702679 0.49414536
-0.31656057 0.012446336 0.49389032
-0.31519401 0.013136007 0.49437603
-0.31295586 0.013876349 0.49411866
-0.31072217 0.014614418 0.49385974
-0.30936003 0.015301853 0.49434391
-0.30713308 0.016036555 0.4940826
-0.30577314 0.016722888 0.49456599
-0.30355275 0.017454231 0.49430233
-0.30219513 0.018139431 0.49478492
-0.30083746 0.018824646 0.49526748
-0.29862583 0.019551529 0.49500063
-0.29727042 0.020235611 0.49548241
-0.29591501 0.020919694 0.49596423
-0.29371232 0.021642104 0.49569425
-0.29151416 0.02236224 0.49542266
-0.29016316 0.023044087 0.49590287
-0.28797162 0.023760892 0.49562898
-0.28662282 0.024441622 0.49610841
-0.28443795 0.025155045 0.49583212
-0.28309137 0.025834672 0.49631077
-0.28091305 0.02654474 0.49603209
-0.27956873 0.02722322 0.49650994
-0.27739716 0.027929937 0.49622893
-0.27605498 0.028607314 0.49670601
-0.27389008 0.029310679 0.49642265
-0.27172965 0.030011801 0.49613765
-0.27039194 0.030686928 0.49661312
-0.26823813 0.031384692 0.49632582
-0.26608872 0.032080207 0.49603686
-0.26394379 0.032773495 0.4957464
-0.2626127 0.033445269 0.49621955
-0.26047438 0.0341352 0.49592671
-0.25914556 0.034805842 0.49639904
-0.25701398 0.035492413 0.49610385
-0.25568736 0.036161944 0.49657539
-0.25356233 0.036845159 0.49627778
-0.25144178 0.03752612 0.49597859
-0.25011957 0.038193416 0.49644855
-0.24800567 0.038871031 0.49614707
-0.24668573 0.039537203 0.49661621
-0.24536578 0.040203374 0.49708539
-0.24326079 0.040876504 0.49678075
-0.24194305 0.041541558 0.49724913
-0.24062525 0.042206611 0.49771753
-0.23852913 0.042875271 0.49740973
-0.2364374 0.043541677 0.49710026
-0.2351241 0.044204488 0.49756709
-0.23381077 0.044867299 0.49803391
-0.23172794 0.045529239 0.49772134
-0.23041682 0.04619094 0.49818739
-0.22910576 0.046852633 0.49865341
-0.22703181 0.047510087 0.49833766
-0.22572295 0.048170663 0.49880287
-0.22441404 0.048831239 0.49926811
-0.22310518 0.049491808 0.49973336
-0.22104232 0.050143678 0.4994137
-0.2197357 0.050803129 0.49987817
-0.21767943 0.051451638 0.49955609
-0.21637498 0.052109972 0.50001979
-0.21432547 0.05275511 0.49969539
-0.21302323 0.053412318 0.50015831
-0.21172099 0.054069534 0.50062108
-0.20968033 0.054710194 0.50029361
-0.20838033 0.055366285 0.50075567
-0.20634632 0.0560036 0.50042582
-0.20431672 0.056638658 0.50009429
-0.20302115 0.057292514 0.5005548
-0.20099823 0.057924218 0.50022089
-0.19897972 0.058553696 0.49988547
-0.19696568 0.059180915 0.49954849
-0.19567676 0.059831418 0.50000668
-0.19366936 0.06045527 0.49966729
-0.19095008 0.061049163 0.49852803
-0.18966787 0.061696291 0.4989838
-0.18767376 0.062313445 0.49863967
-0.18639372 0.06295947 0.49909464
-0.18440633 0.063573264 0.49874821
-0.18312849 0.064218163 0.4992024
-0.18185069 0.064863063 0.49965659
-0.17987211 0.065472379 0.49930701
-0.17859654 0.066116154 0.49976039
-0.17732091 0.066759937 0.5002138
-0.17535119 0.067364767 0.49986097
-0.17407779 0.068007432 0.50031364
-0.17280443 0.068650089 0.50076628
-0.17153107 0.069292754 0.5012188
-0.17025767 0.069935411 0.50167143
-0.1683013 0.070533536 0.50131392
-0.16703014 0.071175084 0.50176585
-0.16575895 0.071816623 0.50221765
-0.16381149 0.072410263 0.50185704
-0.16254257 0.073050678 0.50230801
-0.16127358 0.0736911 0.5027591
-0.15933497 0.074280262 0.50239521
-0.15806822 0.074919567 0.50284547
-0.15680151 0.075558864 0.50329572
-0.15487178 0.076143555 0.50292873
-0.15360726 0.076781727 0.50337827
-0.15168415 0.077363059 0.50300884
-0.15042184 0.078000113 0.50345755
-0.14850537 0.078578085 0.50308585
-0.14724533 0.079214036 0.50353372
-0.14533554 0.079788625 0.5031597
-0.14343016 0.080361001 0.50278407
-0.14217459 0.080994695 0.50323039
-0.13963278 0.081498995 0.50202799
-0.13774075 0.082064644 0.50164759
-0.13585316 0.082628056 0.5012657
-0.13396998 0.083189219 0.50088221
0.15276463 0.19676131 0.51856923
0.15383171 0.19729984 0.51894855
0.15489876 0.19783838 0.51932776
0.15610532 0.19805807 0.51870376
0.15717018 0.19859549 0.51908225
0.15823503 0.1991329 0.51946074
0.15929988 0.19967033 0.51983929
0.16036473 0.20020774 0.52021778
0.16142958 0.20074517 0.52059627
0.16249442 0.20128258 0.52097476
0.16355927 0.20181999 0.52135324
0.16462411 0.20235741 0.52173173
0.16568898 0.20289484 0.52211022
0.16651921 0.20409234 0.5245111
-0.32530975 0.010971516 0.49386299
-0.32305288 0.011718407 0.49361244
-0.32080042 0.012463108 0.49336031
-0.31943166 0.013153911 0.49384683
-0.31718588 0.013895215 0.49359229
-0.31581932 0.014584886 0.49407801
-0.31358016 0.015322872 0.49382111
-0.31221581 0.016011424 0.49430606
-0.30998331 0.016746022 0.49404684
-0.30862123 0.017433457 0.49453098
-0.30639541 0.018164709 0.4942694
-0.30503547 0.018851027 0.49475276
-0.30281639 0.019578906 0.49448881
-0.30145872 0.020264121 0.49497136
-0.30010092 0.020949336 0.49545398
-0.29789066 0.021672731 0.49518681
-0.29653519 0.022356814 0.49566862
-0.29517972 0.023040911 0.4961504
-0.29297829 0.023759834 0.49588013
-0.29078132 0.024476506 0.49560824
-0.28943032 0.025158353 0.49608845
-0.28723997 0.025871687 0.49581423
-0.28589118 0.026552416 0.49629366
-0.28454238 0.027233146 0.49677309
-0.28236097 0.027941987 0.49649572
-0.28018391 0.028648583 0.49621674
-0.27883947 0.029327078 0.49669459
-0.27666914 0.030030323 0.49641329
-0.27532697 0.0307077 0.49689034
-0.27316326 0.031407587 0.49660668
-0.27100402 0.03210523 0.49632138
-0.26884919 0.032800645 0.49603456
-0.26751369 0.033474661 0.49650925
-0.26536548 0.034166705 0.49622002
-0.2632218 0.034856521 0.49592924
-0.26189071 0.035528302 0.49640235
-0.25975364 0.036214739 0.49610922
-0.25842476 0.036885396 0.49658155
-0.25629437 0.037568487 0.49628606
-0.25496769 0.038238026 0.4967576
-0.25284392 0.038917769 0.49645969
-0.25072461 0.039595257 0.49616018
-0.24940239 0.040262561 0.49663016
-0.24808021 0.04092985 0.49710011
-0.24675803 0.041597139 0.49757007
-0.24464981 0.042269032 0.49726668
-0.24332981 0.042935204 0.49773589
-0.24200986 0.043601383 0.49820504
-0.23991047 0.044268806 0.49789852
-0.23859273 0.044933859 0.49836692
-0.23650004 0.045597915 0.49805799
-0.2344117 0.046259724 0.49774748
-0.2330984 0.046922542 0.49821427
-0.23101674 0.047581017 0.49790144
-0.22970568 0.048242711 0.49836746
-0.22839455 0.048904404 0.49883348
-0.22708349 0.049566098 0.4992995
-0.22577237 0.050227799 0.49976555
-0.2244613 0.050889492 0.5002315
-0.22239523 0.051540121 0.49991313
-0.22108634 0.05220069 0.50037837
-0.21977745 0.052861266 0.50084358
-0.21772026 0.053507414 0.50052208
-0.21566741 0.054151319 0.50019896
-0.21436299 0.054809652 0.50066257
-0.21231686 0.055450201 0.50033712
-0.21101464 0.056107424 0.50080001
-0.20897518 0.056744605 0.50047219
-0.20767517 0.057400711 0.50093424
-0.20564239 0.058034547 0.50060403
-0.20361398 0.058666132 0.50027221
-0.20159002 0.059295483 0.49993882
-0.20029666 0.059948228 0.50039852
-0.1982794 0.060574219 0.50006282
-0.19626652 0.061197974 0.49972555
-0.19425814 0.061819479 0.49938667
-0.19225417 0.062438771 0.49904624
-0.19025458 0.063055791 0.49870417
-0.18825947 0.063670591 0.49836048
-0.18697943 0.064316615 0.49881548
-0.18499102 0.064928055 0.4984695
-0.18371318 0.065572955 0.49892372
-0.18243538 0.066217855 0.49937791
-0.18045579 0.066824816 0.4990288
-0.17918019 0.067468591 0.49948218
-0.17790459 0.068112373 0.4999356
-0.17662899 0.068756156 0.50038898
-0.17535339 0.069399945 0.50084245
-0.1733871 0.070000187 0.50048852
-0.1721137 0.070642851 0.50094116
-0.17084034 0.071285509 0.50139374
-0.16956697 0.071928173 0.50184631
-0.16829358 0.072570845 0.50229895
-0.16702019 0.073213503 0.50275159
-0.16574679 0.073856167 0.50320423
-0.16379832 0.074447446 0.5028441
-0.16252713 0.075088993 0.5032959
-0.16058527 0.075676911 0.50293338
-0.15931635 0.07631734 0.50338441
-0.15804739 0.076957755 0.50383544
-0.15611441 0.07754121 0.50346971
-0.15418588 0.078122407 0.50310242
-0.15292136 0.078760602 0.50355196
-0.15099944 0.079338446 0.50318223
-0.14973713 0.079975501 0.50363088
-0.14847486 0.08061257 0.50407958
-0.14656185 0.081185952 0.50370681
-0.14465325 0.081757084 0.5033325
-0.14274912 0.082325973 0.50295651
-0.14084937 0.082892619 0.50257897
-0.13895409 0.083457038 0.50219989
0.15334344 0.19843119 0.5187158
0.15441051 0.19896972 0.51909506
0.15561807 0.19918707 0.51847148
0.15668292 0.19972448 0.51884997
0.15774778 0.20026189 0.51922852
0.15881263 0.20079932 0.51960701
0.15987748 0.20133674 0.5199855
0.16094233 0.20187417 0.52036405
0.16213435 0.20208363 0.51973492
0.163197 0.20261995 0.52011263
0.16425961 0.20315625 0.52049035
0.16520172 0.20402382 0.521878
0.16614825 0.20489363 0.52326721
0.16709922 0.20576571 0.52465796
-0.32682496 0.012374818 0.49430087
-0.32456487 0.013120487 0.49405161
-0.3223092 0.013863945 0.49380076
-0.32005793 0.014605144 0.4935483
-0.31868917 0.015295947 0.49403486
-0.31644464 0.016033763 0.49377999
-0.31507802 0.016723478 0.49426571
-0.3128401 0.017457955 0.49400851
-0.3106066 0.018190198 0.49374977
-0.30924451 0.018877633 0.49423391
-0.30788237 0.019565098 0.49471807
-0.30565774 0.020292848 0.49445617
-0.30429786 0.020979181 0.49493954
-0.30293798 0.021665499 0.4954229
-0.30072218 0.022388803 0.49515787
-0.29936457 0.023074003 0.49564043
-0.29715538 0.023793926 0.49537298
-0.29579997 0.024478024 0.49585477
-0.2944445 0.025162106 0.49633655
-0.29224432 0.02587755 0.496066
-0.29004848 0.026590765 0.49579379
-0.28869748 0.027272612 0.49627402
-0.28734642 0.027954474 0.49675423
-0.28515953 0.028663211 0.49647895
-0.28381073 0.02934394 0.49695835
-0.28163052 0.030049287 0.49668068
-0.27945459 0.030752433 0.4964014
-0.27811027 0.03143093 0.49687925
-0.27594113 0.032130711 0.49659762
-0.27459896 0.03280808 0.49707469
-0.2716161 0.033523537 0.49602962
-0.27027839 0.034198672 0.49650511
-0.26812476 0.034890607 0.496218
-0.26678932 0.035564616 0.49669269
-0.2646423 0.036253195 0.49640313
-0.26249975 0.036939546 0.49611208
-0.26116872 0.037611306 0.49658519
-0.25903279 0.038294286 0.49629176
-0.25770396 0.038964935 0.49676409
-0.25557476 0.039644569 0.49646828
-0.25424814 0.040314101 0.49693981
-0.2521255 0.040990356 0.49664161
-0.25080109 0.041658778 0.49711236
-0.24947672 0.042327184 0.49758312
-0.24736302 0.042998966 0.49728173
-0.24604084 0.043666262 0.49775168
-0.24471863 0.044333566 0.49822167
-0.24261384 0.045000862 0.49791718
-0.24129383 0.045667041 0.49838635
-0.23997389 0.046333205 0.49885553
-0.23787795 0.046996038 0.49854788
-0.23578642 0.047656637 0.49823868
-0.23369934 0.048314974 0.49792787
-0.23238601 0.0489778 0.49839467
-0.23107271 0.049640611 0.49886149
-0.22975938 0.050303429 0.49932829
-0.22844608 0.05096624 0.49979511
-0.22637229 0.051617868 0.49947959
-0.22506122 0.052279562 0.49994561
-0.22375016 0.052941255 0.50041163
-0.22243904 0.053602949 0.50087762
-0.22037636 0.054248996 0.50055814
-0.2190675 0.054909572 0.50102341
-0.2170115 0.055552248 0.50070155
-0.21570484 0.056211699 0.50116599
-0.21365543 0.056851014 0.50084174
-0.21235095 0.057509355 0.5013054
-0.2103083 0.058145307 0.50097883
-0.20827 0.058779031 0.50065076
-0.20697002 0.059435122 0.50111282
-0.2049384 0.060065486 0.50078231
-0.20291124 0.060693607 0.50045013
-0.20088844 0.061319493 0.50011647
-0.19887017 0.061943129 0.49978122
-0.19685631 0.062564529 0.49944445
-0.19484691 0.063183688 0.49910605
-0.1935602 0.063833073 0.4995634
-0.19155745 0.064448871 0.49922264
-0.18955903 0.065062448 0.49888027
-0.18756513 0.065673769 0.49853632
-0.18628509 0.066319793 0.49899128
-0.18429787 0.066927753 0.49864504
-0.18302007 0.067572653 0.49909922
-0.18174224 0.068217553 0.49955341
-0.18046443 0.068862453 0.50000763
-0.17848827 0.069464825 0.49965739
-0.1772127 0.070108607 0.50011081
-0.17593707 0.070752397 0.50056422
-0.17466147 0.071396172 0.50101757
-0.1733859 0.072039954 0.50147104
-0.1721103 0.072683737 0.5019244
-0.17083468 0.073327519 0.50237787
-0.16955908 0.073971309 0.50283122
-0.16828348 0.074615084 0.50328469
-0.16700788 0.075258866 0.50373805
-0.16505609 0.075848915 0.50337911
-0.1637827 0.076491579 0.50383174
-0.16250934 0.077134237 0.50428438
-0.16056646 0.077719823 0.50392234
-0.15929531 0.078361362 0.50437415
-0.15735908 0.078943573 0.50400972
-0.15609013 0.079583995 0.50446081
-0.15416057 0.080162846 0.50409395
-0.15289386 0.08080215 0.5045442
-0.15097095 0.081377655 0.50417507
-0.14905243 0.081950903 0.50380433
-0.14779018 0.082587972 0.50425297
-0.14587833 0.083157882 0.5038799
0.15285519 0.19956255 0.51848304
0.154066 0.19977865 0.51786077
0.15513083 0.20031606 0.51823926
0.15619569 0.20085347 0.51861775
0.15726054 0.20139089 0.51899624
0.15832539 0.20192832 0.51937479
0.15952285 0.20213769 0.51874781
0.16058549 0.20267399 0.51912546
0.16164811 0.20321028 0.51950318
0.16271076 0.2037466 0.51988089
0.16377337 0.20428289 0.52025855
0.164836 0.20481919 0.52063632
0.16577932 0.20569023 0.52202427
0.16672705 0.20656353 0.52341378
-0.32745433 0.013833107 0.49400091
-0.32519323 0.01457643 0.49375209
-0.32381999 0.015269483 0.49424022
-0.32156551 0.016009444 0.49398905
-0.31931549 0.016747179 0.49373633
-0.31706995 0.017482648 0.49348193
-0.31570333 0.018172363 0.49396768
-0.31433678 0.018862033 0.4944534
-0.31210005 0.019593045 0.49419591
-0.30986774 0.020321809 0.49393684
-0.30850559 0.021009274 0.49442101
-0.30714351 0.021696709 0.49490517
-0.30492008 0.022421002 0.49464294
-0.30356026 0.02310732 0.49512634
-0.30220032 0.023793668 0.4956097
-0.29998577 0.024513477 0.49534434
-0.29862809 0.025198678 0.49582693
-0.29727042 0.025883907 0.49630952
-0.29506469 0.026599227 0.49604097
-0.29370922 0.027283324 0.49652275
-0.29235375 0.027967406 0.49700454
-0.29015702 0.028678261 0.49673286
-0.28796464 0.029386893 0.49645957
-0.28661358 0.03006874 0.49693981
-0.28442788 0.030774005 0.4966642
-0.28307909 0.031454735 0.4971436
-0.28090012 0.032156624 0.49686566
-0.27872539 0.032856293 0.49658605
-0.27738106 0.033534788 0.49706391
-0.27521306 0.034231089 0.49678198
-0.27387094 0.034908451 0.49725905
-0.27089047 0.035616979 0.49621335
-0.26955277 0.036292106 0.49668884
-0.26740038 0.036980569 0.4964014
-0.26606488 0.037654579 0.49687609
-0.26391912 0.038339686 0.49658626
-0.26177776 0.039022557 0.49629489
-0.26044673 0.039694339 0.49676803
-0.25831205 0.040373832 0.49647427
-0.25698316 0.041044489 0.4969466
-0.25485516 0.041720644 0.49665049
-0.25352854 0.042390175 0.49712202
-0.25220191 0.043059707 0.49759358
-0.25087529 0.043729238 0.49806511
-0.24954866 0.044398785 0.49853668
-0.24743389 0.045068208 0.49823576
-0.24532361 0.045735408 0.4979333
-0.24400146 0.046402682 0.49840325
-0.24267925 0.047069985 0.49887323
-0.24057786 0.047732692 0.49856764
-0.23925792 0.048398871 0.49903682
-0.23716317 0.049058218 0.4987289
-0.23584543 0.049723286 0.49919727
-0.23375733 0.050379287 0.49888697
-0.23167364 0.051033042 0.49857506
-0.23036031 0.051695861 0.49904189
-0.22904702 0.052358672 0.49950868
-0.22773369 0.053021491 0.49997547
-0.22642039 0.053684302 0.50044227
-0.22435008 0.05433134 0.50012565
-0.22303896 0.054993033 0.50059175
-0.22172789 0.055654734 0.50105774
-0.21966641 0.056297295 0.50073791
-0.21835752 0.056957871 0.50120318
-0.21704866 0.057618447 0.50166833
-0.21499608 0.058256533 0.50134546
-0.21294783 0.058892377 0.50102091
-0.21090417 0.059525982 0.50069487
-0.20960192 0.060183205 0.50115776
-0.20756488 0.060813434 0.50082928
-0.20626487 0.061469533 0.50129139
-0.20350407 0.062067226 0.50016761
-0.20148025 0.062690742 0.49983439
-0.20018692 0.06334348 0.50029409
-0.19816984 0.063963659 0.49995857
-0.19615717 0.064581588 0.49962148
-0.19414894 0.065197274 0.49928278
-0.19214518 0.065810725 0.49894252
-0.19014578 0.066421941 0.49860063
-0.1888635 0.067069083 0.4990564
-0.1868708 0.067676939 0.49871212
-0.18559079 0.068322957 0.49916711
-0.18360476 0.068927452 0.49882054
-0.18232696 0.069572352 0.49927473
-0.18104912 0.070217252 0.49972892
-0.17977129 0.070862159 0.50018311
-0.17849348 0.071507052 0.50063729
-0.17721568 0.072151959 0.50109148
-0.17593788 0.072796859 0.50154567
-0.17466001 0.073441766 0.50199986
-0.17338221 0.074086659 0.50245404
-0.1721044 0.074731566 0.50290829
-0.17082657 0.075376473 0.50336248
-0.16954876 0.076021373 0.50381672
