# .PCD v0.7 - Point Cloud Data file format
VERSION 0.7
FIELDS x y z
SIZE 4 4 4
TYPE F F F
COUNT 1 1 1
WIDTH 1357
HEIGHT 1
VIEWPOINT 0 0 0 1 0 0 0
POINTS 1357
DATA ascii
-0.17450614 -0.15401542 0.49153528
-0.16493264 -0.15467456 0.4913983
-0.15473703 -0.15459989 0.49079606
-0.14507732 -0.15486616 0.49090707
-0.1348955 -0.15530953 0.49112347
-0.1250331 -0.15510543 0.49204358
-0.11475725 -0.15525654 0.4928492
-0.10503066 -0.15485555 0.49449968
-0.094767831 -0.15512465 0.49351764
-0.085148945 -0.15494847 0.49340996
-0.075070642 -0.15484573 0.49346912
-0.06492769 -0.15490738 0.49361295
-0.055047803 -0.15516366 0.49456736
-0.04484728 -0.15536292 0.49587253
-0.034919005 -0.15498686 0.49662289
-0.024903182 -0.15504564 0.49656323
-0.015124246 -0.15485074 0.49694058
-0.005079818 -0.15506779 0.49611798
0.0050018388 -0.15522936 0.49595666
0.014554852 -0.15461507 0.49689895
0.023461366 -0.15230246 0.49854535
0.030534387 -0.150004 0.49879688
-0.21359704 -0.14428176 0.49089429
-0.20466015 -0.1451405 0.49152955
-0.1950337 -0.14507115 0.49303386
-0.18479957 -0.1454623 0.49270377
-0.17504349 -0.14514905 0.49261004
-0.16533881 -0.14509654 0.49324915
-0.15498346 -0.14523539 0.49276125
-0.14490636 -0.14483659 0.49199831
-0.1349014 -0.14495322 0.49097583
-0.12536722 -0.1448791 0.49157366
-0.11506089 -0.14524308 0.49238187
-0.10509825 -0.14501312 0.49351025
-0.094801962 -0.14516228 0.49407664
-0.08486969 -0.14478531 0.49447075
-0.074854337 -0.14485416 0.49467775
-0.064937629 -0.14503336 0.49521109
-0.054900914 -0.14510128 0.49581474
-0.045026198 -0.14513299 0.49638718
-0.035147943 -0.1450932 0.49689373
-0.024983155 -0.14501642 0.4971104
-0.014957224 -0.14506452 0.49782148
-0.0050861277 -0.14496486 0.49742892
0.0047815265 -0.14499369 0.49639294
0.015024365 -0.14507331 0.49574509
0.025041524 -0.1448413 0.49722445
0.03461051 -0.14400454 0.49818894
0.043138657 -0.14177036 0.49830556
-0.22174482 -0.13359012 0.49041349
-0.21510312 -0.13509782 0.49122277
-0.20529424 -0.13517435 0.49194902
-0.19508982 -0.13491952 0.49201769
-0.18503366 -0.13476861 0.49169296
-0.1746586 -0.13491562 0.49132636
-0.16486686 -0.13508569 0.49194974
-0.15502599 -0.13503706 0.49237144
-0.14513566 -0.13517493 0.49328431
-0.1350363 -0.13502267 0.4936007
-0.12489872 -0.13498245 0.49311611
-0.1149415 -0.13520797 0.4926796
-0.10508689 -0.13497575 0.49247664
-0.094789788 -0.13486686 0.49290356
-0.08503253 -0.13496503 0.4946095
-0.074923798 -0.1350126 0.49583516
-0.065232255 -0.13513711 0.49702284
-0.054989338 -0.13504595 0.49632049
-0.044893514 -0.13498089 0.49572611
-0.034886107 -0.13505195 0.49638417
-0.024942875 -0.13504313 0.4971028
-0.014849639 -0.13497964 0.49734208
-0.0048631467 -0.13510798 0.49775547
0.0050467183 -0.13497375 0.49789402
0.015034652 -0.13511619 0.49763057
0.025043199 -0.13514149 0.49762544
0.035016008 -0.13506037 0.49849588
0.044877611 -0.13494016 0.49812827
0.053826604 -0.13323097 0.49637246
-0.23215938 -0.12006235 0.49006435
-0.22421168 -0.12582153 0.49011394
-0.21441899 -0.12564299 0.4910621
-0.20499301 -0.12498251 0.49230513
-0.19486195 -0.12483176 0.49295133
-0.18501945 -0.12506205 0.4928011
-0.17491183 -0.12502885 0.4918254
-0.16513424 -0.12519452 0.49199724
-0.15503846 -0.12489463 0.49247733
-0.1447795 -0.12510455 0.49261355
-0.1352099 -0.1250542 0.49306497
-0.12501459 -0.12465031 0.49325171
-0.11511974 -0.12516469 0.49369127
-0.10506227 -0.12488421 0.49339861
-0.095013566 -0.12507649 0.49313805
-0.085182145 -0.12505092 0.49441323
-0.075160734 -0.1249819 0.4953891
-0.065110914 -0.12483044 0.49609601
-0.055039994 -0.12497391 0.4962315
-0.045032576 -0.12505569 0.49642053
-0.034969669 -0.1250443 0.49657285
-0.024979547 -0.12504683 0.49761435
-0.015141993 -0.12520069 0.49865532
-0.0049970872 -0.12519681 0.49823374
0.0051710648 -0.12507731 0.49791762
0.015015466 -0.12493757 0.49874696
0.025001371 -0.12495568 0.49880248
0.034949962 -0.12492736 0.49869356
0.045087088 -0.1250879 0.49886945
0.053843912 -0.12656748 0.49829197
-0.2408441 -0.11055434 0.49171272
-0.23434681 -0.11368039 0.49061203
-0.22484659 -0.11411703 0.49033654
-0.21428551 -0.11464482 0.49072617
-0.20509642 -0.1149458 0.49190015
-0.19504055 -0.11486207 0.49313805
-0.18512635 -0.11507292 0.4937427
-0.17478785 -0.11513971 0.49295703
-0.16487278 -0.11501016 0.4929007
-0.15520589 -0.11503539 0.49327177
-0.14528438 -0.115079 0.49317694
-0.13490246 -0.11474799 0.49290913
-0.12480738 -0.11489854 0.49334854
-0.11493468 -0.11525914 0.4943513
-0.10471062 -0.11494272 0.49375004
-0.094801769 -0.11524481 0.49368086
-0.085045606 -0.11516289 0.49454066
-0.075020246 -0.11517587 0.49523807
-0.065222718 -0.1149271 0.49663404
-0.055122342 -0.11482151 0.49656615
-0.044997703 -0.11510322 0.49620289
-0.035103392 -0.11495336 0.49650708
-0.024999617 -0.11496584 0.49783847
-0.016709439 -0.1147754 0.49944013
-0.0033065013 -0.11664872 0.49941576
0.0051339543 -0.11521441 0.49830633
0.014958863 -0.11511498 0.49853402
0.024255527 -0.11489349 0.49935693
0.03520089 -0.11484661 0.49899018
0.044863917 -0.11547709 0.4976612
0.051071346 -0.11617239 0.49878487
-0.24354206 -0.10376035 0.49274138
-0.23494352 -0.10480382 0.49233425
-0.22489367 -0.10525486 0.49153915
-0.21497598 -0.10498013 0.49191436
-0.20485006 -0.10495906 0.49281582
-0.19504432 -0.10502907 0.49385959
-0.18512149 -0.10517479 0.49415824
-0.17465022 -0.10504951 0.49340808
-0.16489856 -0.10500674 0.49341956
-0.15496081 -0.10491323 0.49409622
-0.14491738 -0.1048842 0.49397972
-0.13482071 -0.10493786 0.49408856
-0.12499604 -0.10519298 0.49519902
-0.11522506 -0.10510541 0.49573025
-0.10504841 -0.10503939 0.49514416
-0.095006511 -0.10497687 0.49407911
-0.085090712 -0.1051863 0.49375501
-0.074876174 -0.10479522 0.49420428
-0.065188684 -0.10514954 0.49618286
-0.05490157 -0.10488418 0.49714544
-0.044954322 -0.10498976 0.49676788
-0.035051342 -0.10484899 0.49650824
-0.024954373 -0.10492503 0.49765888
-0.015270777 -0.10485411 0.49901751
-0.0071681011 -0.10312627 0.4997212
0.0063611534 -0.10793751 0.49935827
0.015353789 -0.10579648 0.4990243
0.025009863 -0.10514664 0.49890029
0.034825746 -0.10491981 0.49769327
0.04099204 -0.1087119 0.49810383
-0.25128728 -0.093658477 0.49130329
-0.2453454 -0.094772592 0.49312001
-0.23502134 -0.094940484 0.49389815
-0.22482052 -0.09497223 0.49282011
-0.21501642 -0.094981834 0.49219087
-0.20502271 -0.095029905 0.49265856
-0.19497463 -0.0950206 0.49333429
-0.18500845 -0.095142022 0.49345413
-0.17487568 -0.094966695 0.49297091
-0.16483121 -0.094889037 0.49356726
-0.15488192 -0.09526556 0.49529418
-0.14506003 -0.095102996 0.49598381
-0.13496491 -0.095222495 0.49506578
-0.12506805 -0.095136344 0.49540508
-0.11480398 -0.095009156 0.49629128
-0.1048632 -0.095009238 0.49658251
-0.094964422 -0.094844721 0.49601176
-0.084816493 -0.094967097 0.49601588
-0.074895471 -0.095210128 0.49659005
-0.065013155 -0.095015451 0.49710423
-0.055039071 -0.095008709 0.49760395
-0.04491511 -0.094861224 0.49737266
-0.03491997 -0.094896898 0.49777329
-0.025099624 -0.095383257 0.49859366
-0.015026815 -0.095561318 0.49936813
-0.0061813658 -0.09558861 0.49964756
0.018021531 -0.093077436 0.49978387
0.025278745 -0.094801404 0.49943674
0.032488015 -0.094600648 0.49947745
-0.25354618 -0.083854549 0.49095154
-0.24512431 -0.0849768 0.49207571
-0.23536816 -0.084971681 0.49368063
-0.22504774 -0.084776446 0.49345449
-0.21497542 -0.084877521 0.49273539
-0.20490956 -0.085184358 0.49244156
-0.19509704 -0.084826164 0.49287266
-0.18499997 -0.084984086 0.49281767
-0.17495278 -0.085195929 0.49228761
-0.16484167 -0.084931605 0.49259454
-0.15498902 -0.085296266 0.49468705
-0.14497599 -0.084933013 0.49606863
-0.13473682 -0.085055418 0.49512509
-0.12493163 -0.085033335 0.49413523
-0.11509249 -0.084849767 0.49459645
-0.10507155 -0.084932804 0.4960086
-0.094996952 -0.084954046 0.49710304
-0.085255772 -0.08508113 0.49846578
-0.07495261 -0.08510498 0.49860868
-0.064913504 -0.085117579 0.498427
-0.055148683 -0.08499869 0.49848977
-0.044940766 -0.084966175 0.49828789
-0.035831701 -0.085171059 0.49928048
-0.026409401 -0.085325688 0.4998056
-0.017461061 -0.08825694 0.4998731
0.0096614361 -0.087958619 0.49996278
0.016014935 -0.084986575 0.49941993
0.025036724 -0.084945768 0.49915406
0.032517109 -0.085254811 0.49934697
-0.26256686 -0.073904708 0.49176982
-0.25466028 -0.075089939 0.49167228
-0.24466912 -0.075149179 0.49217719
-0.23494191 -0.075067855 0.49274781
-0.22508594 -0.074857891 0.4929471
-0.21496302 -0.07481955 0.49301365
-0.20501441 -0.075122386 0.49300119
-0.19504251 -0.074994124 0.4931266
-0.18499908 -0.074911907 0.49348754
-0.17522568 -0.075081371 0.49329066
-0.16500524 -0.074823365 0.49295735
-0.15504666 -0.075172573 0.4937619
-0.14516662 -0.074747495 0.49497902
-0.13515657 -0.074885756 0.49577662
-0.12479074 -0.075005457 0.49500647
-0.1146461 -0.075004287 0.49527571
-0.10505944 -0.075175695 0.49672714
-0.094969481 -0.074982114 0.49751663
-0.084970593 -0.074913226 0.49797618
-0.074873969 -0.074962586 0.49851727
-0.064907379 -0.075120084 0.4989709
-0.055017848 -0.075054064 0.49894556
-0.044983372 -0.075368755 0.49889112
-0.035233576 -0.074985512 0.49921611
-0.02853201 -0.074951656 0.49972293
0.01653539 -0.075282156 0.49948373
0.023123002 -0.077509731 0.49936631
-0.27112618 -0.061912756 0.49118423
-0.26452908 -0.064927742 0.49158496
-0.25524831 -0.06500677 0.49234962
-0.24540204 -0.065076463 0.49237829
-0.23497929 -0.06495849 0.49236318
-0.22488797 -0.065050595 0.49230188
-0.21501586 -0.064880043 0.49280685
-0.2049123 -0.064787671 0.4933542
-0.19459195 -0.06499131 0.493159
-0.18507858 -0.065007329 0.49386099
-0.17519379 -0.064954281 0.49442828
-0.16476029 -0.065034524 0.49425247
-0.15491781 -0.064978667 0.49515861
-0.14488016 -0.064977862 0.49660972
-0.13500609 -0.064912073 0.49781388
-0.12477608 -0.06508933 0.49723929
-0.11506775 -0.064845763 0.49680167
-0.10491246 -0.065099165 0.49725747
-0.094964236 -0.065039366 0.49847093
-0.084912382 -0.065125525 0.49876091
-0.07464169 -0.065104485 0.49831542
-0.065081351 -0.065095097 0.49871051
-0.055090141 -0.064957097 0.49890196
-0.046046205 -0.063455783 0.49928868
-0.033658721 -0.064939268 0.49941298
-0.025631277 -0.064395517 0.49904203
-0.018460695 -0.061238568 0.49965531
0.0088018514 -0.066819116 0.49978656
0.012428356 -0.067124873 0.49956781
-0.28134647 -0.051251456 0.49305707
-0.27417591 -0.054145336 0.49219078
-0.26491645 -0.05530747 0.4926056
-0.25510457 -0.054914538 0.49360776
-0.24495798 -0.055186469 0.49390459
-0.23470528 -0.054910574 0.49325174
-0.22463591 -0.055287521 0.4927665
-0.21485503 -0.055111349 0.49351233
-0.20505561 -0.054759968 0.49518487
-0.19495693 -0.055037029 0.49546126
-0.18507369 -0.055143017 0.49589121
-0.1749537 -0.054992527 0.49601829
-0.16465142 -0.055190735 0.49491152
-0.15491633 -0.055103987 0.49510282
-0.14492914 -0.054885946 0.49660945
-0.13523182 -0.054903213 0.49791175
-0.12488842 -0.054899491 0.49815023
-0.11559341 -0.055532977 0.49896497
-0.10435247 -0.056736015 0.49862289
-0.094813861 -0.055254877 0.49852502
-0.085314192 -0.055038255 0.49909067
-0.074919179 -0.05517016 0.49905878
-0.065044917 -0.055141635 0.49905637
-0.054781981 -0.055032253 0.49881366
-0.044961244 -0.054984193 0.49861467
-0.035222344 -0.054999609 0.49927035
-0.024985384 -0.054841746 0.49863705
-0.01664163 -0.054474112 0.49912781
-0.0009470284 -0.050719738 0.49967474
0.005674901 -0.052520562 0.49894291
0.010348871 -0.052609637 0.49832642
-0.28365439 -0.044296965 0.4930478
-0.2753922 -0.044857059 0.49323785
-0.26533794 -0.044983409 0.49339989
-0.25529966 -0.044981327 0.49376982
-0.24527945 -0.044988781 0.49435347
-0.2349045 -0.045125294 0.49343002
-0.22476768 -0.045006614 0.49233562
-0.21474418 -0.044969533 0.49250895
-0.20493992 -0.044826522 0.49416938
-0.19463079 -0.044893164 0.49550739
-0.1848907 -0.045195397 0.49718338
-0.17504379 -0.044910677 0.49801147
-0.16487581 -0.045065787 0.49628484
-0.15463123 -0.045190532 0.49500045
-0.14476688 -0.04514512 0.49519342
-0.13478167 -0.044932753 0.49591318
-0.12480246 -0.045057606 0.49718165
-0.11696065 -0.044337139 0.49899104
-0.092147902 -0.04900077 0.49974227
-0.085300758 -0.047153186 0.49961895
-0.072589628 -0.046313636 0.4996464
-0.064899534 -0.04502001 0.49921817
-0.054978419 -0.044956673 0.49923238
-0.044727854 -0.045313396 0.49936688
-0.035366412 -0.047017962 0.49955276
-0.024136152 -0.048262373 0.49956304
-0.014735569 -0.047593791 0.4996092
-0.0040573971 -0.044597145 0.49915788
0.0049979487 -0.045029957 0.49675497
0.011129361 -0.043623202 0.49537665
-0.2923713 -0.03334282 0.49345347
-0.28479785 -0.035288051 0.49355194
-0.27498966 -0.034750987 0.49340734
-0.2650454 -0.035232883 0.49297336
-0.25467601 -0.034953889 0.49311939
-0.24504749 -0.034947243 0.49419981
-0.23539452 -0.034792606 0.49482316
-0.22519155 -0.034837697 0.49434069
-0.21520233 -0.03509767 0.49402702
-0.20498987 -0.034964986 0.49450395
-0.19486496 -0.035322733 0.49511582
-0.18495947 -0.035008062 0.49650419
-0.17554215 -0.034910485 0.49786282
-0.16536112 -0.035048913 0.49645597
-0.15479043 -0.034941502 0.49478179
-0.14483522 -0.034976505 0.49477884
-0.13466792 -0.035008289 0.49434984
-0.12486976 -0.034972046 0.49572691
-0.11561958 -0.035139136 0.49838468
-0.1054767 -0.033851858 0.49977684
-0.094471782 -0.036168542 0.4998211
-0.085266821 -0.033744235 0.49959019
-0.073914975 -0.033507068 0.49943882
-0.064844243 -0.035125904 0.49912423
-0.055239487 -0.03534532 0.49922964
-0.048336606 -0.037623394 0.49978223
-0.0024561295 -0.03716819 0.49894106
0.0030261874 -0.037502926 0.49710745
-0.30110249 -0.022033693 0.49313301
-0.29487175 -0.024708424 0.49308187
-0.28525731 -0.025291355 0.49330974
-0.27469441 -0.024899784 0.49306238
-0.2646465 -0.02496659 0.49242046
-0.25463909 -0.024994837 0.49242634
-0.2446976 -0.025129447 0.49353182
-0.23499839 -0.025071088 0.49538833
-0.2255408 -0.024951315 0.49710399
-0.21508172 -0.024808411 0.4974781
-0.20471665 -0.025288066 0.49661797
-0.19498909 -0.025096206 0.49658239
-0.18498003 -0.025148278 0.49675655
-0.17486997 -0.025056904 0.49745017
-0.16504055 -0.024749283 0.49732122
-0.1551044 -0.024971262 0.49618086
-0.14530674 -0.025032813 0.49582729
-0.13489968 -0.025232174 0.4952651
-0.12480778 -0.025055295 0.49600211
-0.11515833 -0.024932014 0.49815929
-0.1058665 -0.024474114 0.49937809
-0.097903505 -0.02323108 0.49983439
-0.08282119 -0.027265429 0.49949077
-0.074636377 -0.02624608 0.49936831
-0.064624257 -0.024985814 0.49926716
-0.056890797 -0.025516747 0.4995515
-0.31099531 -0.010127701 0.49395195
-0.3046428 -0.0144045 0.49361217
-0.29519594 -0.015090976 0.49257347
-0.2850875 -0.015001304 0.49213493
-0.27492145 -0.014948915 0.49277529
-0.26481545 -0.014953242 0.49282676
-0.25491071 -0.015252008 0.49262199
-0.24501942 -0.014889887 0.49331084
-0.23488815 -0.015001332 0.49485025
-0.22537567 -0.015032578 0.49753231
-0.21547917 -0.014808597 0.49853039
-0.2050124 -0.015192123 0.49807212
-0.19481848 -0.014719848 0.49762601
-0.18487409 -0.015067779 0.49718687
-0.17505974 -0.015109222 0.49705768
-0.16493583 -0.014973514 0.49749312
-0.15507101 -0.014959381 0.49791682
-0.14501686 -0.014946502 0.49749866
-0.13505678 -0.015269808 0.49738985
-0.12500907 -0.014987051 0.49799448
-0.11480832 -0.015220591 0.49891981
-0.10498159 -0.015260356 0.49945846
-0.096167281 -0.014930039 0.49971321
-0.086499363 -0.011887582 0.49983609
-0.062863141 -0.01873426 0.49980888
-0.055631619 -0.018736979 0.49978241
-0.03121762 -0.010544037 0.49984044
-0.028213173 -0.011391075 0.49994469
-0.31293982 -0.0036303711 0.49316201
-0.30511329 -0.0047517326 0.49342474
-0.29511034 -0.0049565779 0.4928492
-0.28486744 -0.0050675389 0.4920595
-0.27478725 -0.005011762 0.49233365
-0.26451033 -0.004980234 0.49295175
-0.25495943 -0.004892176 0.49350369
-0.24560784 -0.0050969198 0.49400595
-0.23522219 -0.0049295002 0.49487233
-0.2251002 -0.0052536079 0.49652836
-0.21474478 -0.0048039136 0.49735472
-0.20500064 -0.005250779 0.49761581
-0.19507658 -0.0048835254 0.49790731
-0.18524745 -0.0047619119 0.49867147
-0.17494023 -0.0051362114 0.49756303
-0.16477129 -0.0050791367 0.4963828
-0.15512623 -0.0048223804 0.49658117
-0.14478542 -0.0049643884 0.49745747
-0.13494594 -0.0050764554 0.49887949
-0.12622017 -0.0051869657 0.49968183
-0.11328387 -0.0054088235 0.49971291
-0.10496675 -0.0053146854 0.49955088
-0.095025063 -0.004884548 0.49966636
-0.084874988 -0.0044718287 0.49963632
-0.077626623 -0.0048870598 0.4995977
-0.033249218 -0.0050928188 0.49945796
-0.025141852 -0.0045753699 0.49908093
-0.32159024 0.0079559116 0.49279124
-0.3151252 0.0054623145 0.49308509
-0.30544251 0.0052622487 0.49364495
-0.29521891 0.0048122723 0.49402088
-0.28511912 0.0049450458 0.49406767
-0.2747716 0.0048445724 0.49358246
-0.26507139 0.004839485 0.49341753
-0.25513354 0.0051368182 0.49369538
-0.24484576 0.004851751 0.49383172
-0.23489538 0.0048845639 0.49425882
-0.22532372 0.0049291449 0.49611658
-0.21536413 0.0049397768 0.49722052
-0.20500138 0.0048950906 0.49733302
-0.19479434 0.0052030338 0.49808598
-0.18633322 0.0039913817 0.49931428
-0.17519908 0.0030929188 0.49921539
-0.16495654 0.004555332 0.49852252
-0.15486592 0.0051016831 0.49807146
-0.14482026 0.0048755812 0.49787855
-0.13558167 0.0043922318 0.4990541
-0.12711979 0.0024164417 0.49975175
-0.11135069 0.0013343195 0.49983898
-0.10397285 0.0038154491 0.49970159
-0.0956337 0.0049244803 0.49968803
-0.086355023 0.0027797823 0.49978688
-0.079501569 0.00052397698 0.49980459
-0.031986199 0.004590115 0.49929929
-0.025644984 0.0048026312 0.49844176
-0.33123967 0.019795034 0.49354473
-0.32411593 0.015652439 0.49325323
-0.31506494 0.015266452 0.49413562
-0.30506369 0.01506089 0.49456543
-0.29530486 0.015317822 0.49454322
-0.28530362 0.01482792 0.4941
-0.27519062 0.014943337 0.49410942
-0.26477394 0.015115673 0.49383208
-0.25492629 0.014973206 0.49372095
-0.24531867 0.015246336 0.49354836
-0.23509181 0.015129934 0.49312428
-0.22480714 0.015194219 0.49500439
-0.21499667 0.015023623 0.49759045
-0.20491111 0.014949303 0.49754801
-0.19479659 0.015006712 0.49766824
-0.186306 0.015725754 0.49912021
-0.17719758 0.018826814 0.49982965
-0.1643008 0.013309972 0.49978057
-0.1541497 0.015201734 0.49959779
-0.14457092 0.01489055 0.49884582
-0.13668808 0.015401221 0.4994809
-0.12836632 0.019154523 0.49975458
-0.10261054 0.015007549 0.49980858
-0.094538651 0.01518626 0.49937209
-0.086662509 0.016588638 0.49960396
-0.032423068 0.01469642 0.49922085
-0.026317723 0.015048607 0.49787283
-0.33373365 0.026321242 0.49400586
-0.32515815 0.025289601 0.4943237
-0.31493324 0.025026331 0.4944967
-0.30467868 0.025001947 0.49488011
-0.29474834 0.02508788 0.4951677
-0.285018 0.025287101 0.49494478
-0.27516001 0.02489456 0.4944137
-0.26518366 0.02521266 0.49437425
-0.25493523 0.025147349 0.49454522
-0.24489269 0.024952974 0.49474424
-0.23463252 0.024958774 0.49451315
-0.22497827 0.024807628 0.4954201
-0.21526632 0.024888977 0.49678087
-0.20514099 0.024960877 0.49677271
-0.1949089 0.025276408 0.49637231
-0.18489243 0.025129309 0.49771181
-0.17542394 0.025328226 0.49894854
-0.16790651 0.027980605 0.49950039
-0.15193143 0.022050686 0.49980247
-0.14446174 0.024272827 0.49928769
-0.13495526 0.025089696 0.49938235
-0.12540394 0.025631754 0.49963853
-0.11515116 0.02675773 0.4996345
-0.1064668 0.026281631 0.49984336
-0.093895137 0.022282807 0.49964961
-0.084811449 0.023195073 0.49966031
-0.079659849 0.023005057 0.49983552
-0.03220398 0.023606788 0.49958447
-0.02701425 0.022522343 0.49876839
-0.34097242 0.037258159 0.49230936
-0.33453387 0.034858584 0.49324653
-0.32476139 0.035363421 0.49445632
-0.31477198 0.035119098 0.49459374
-0.30446872 0.035083707 0.49434999
-0.29494989 0.035039339 0.49541751
-0.28520024 0.035116248 0.49607575
-0.27497473 0.034869786 0.49557805
-0.26440832 0.034907132 0.49524474
-0.25482669 0.035101615 0.49602842
-0.24537103 0.035011001 0.49665669
-0.23520045 0.034913283 0.49674651
-0.22488098 0.034761779 0.49668542
-0.21502921 0.034754969 0.49643409
-0.20510514 0.034622718 0.49564466
-0.19486204 0.035118487 0.49560365
-0.18486154 0.035380542 0.49613175
-0.17471579 0.034953501 0.49687403
-0.16614759 0.035216834 0.49869353
-0.14095584 0.030190771 0.4998579
-0.13456242 0.03232789 0.49968851
-0.12453447 0.034592088 0.49960086
-0.11500487 0.034956928 0.49924716
-0.10911928 0.034873765 0.49978334
-0.34380138 0.04525353 0.49201959
-0.33470315 0.044771846 0.49164471
-0.32492331 0.044949055 0.49321991
-0.31508952 0.045601938 0.49478972
-0.30488753 0.04495237 0.49475065
-0.29491928 0.044932257 0.49485773
-0.2852717 0.044807427 0.49575302
-0.27491379 0.045169607 0.49588358
-0.2651765 0.044884939 0.49599677
-0.2553989 0.045188848 0.49676687
-0.2450656 0.044919815 0.49705893
-0.23479347 0.044820048 0.49732047
-0.22495097 0.045087028 0.4981313
-0.21495688 0.045011103 0.4986403
-0.20512259 0.045068916 0.49849072
-0.19472806 0.044926453 0.49751756
-0.18490928 0.045152944 0.49730197
-0.17510803 0.044907369 0.49750829
-0.16571033 0.044953551 0.4987053
-0.13516611 0.048364803 0.49992061
-0.12371354 0.041961767 0.49972004
-0.11415274 0.04380437 0.49951407
-0.1066191 0.045835689 0.49975124
-0.35182112 0.057000332 0.49223393
-0.34520641 0.055464108 0.49225172
-0.33493987 0.054838277 0.49187842
-0.32477105 0.054677673 0.49277985
-0.31512392 0.055350341 0.49552929
-0.30530849 0.055287562 0.49705279
-0.29507878 0.054944701 0.49656731
-0.2854076 0.054653857 0.49624214
-0.27524033 0.054968871 0.49615937
-0.26491639 0.054977436 0.49627277
-0.25515786 0.055001691 0.49724323
-0.24470031 0.054974809 0.49742204
-0.2348799 0.054850109 0.49713257
-0.22496828 0.054900233 0.49697146
-0.21494503 0.054964121 0.49743426
-0.2052803 0.055113371 0.49897635
-0.19480376 0.053294212 0.49935979
-0.18489879 0.054094587 0.49900606
-0.17478605 0.05460744 0.49889416
-0.16493869 0.05464628 0.49919891
-0.15800025 0.055897553 0.49977577
-0.14382483 0.057021137 0.49974316
-0.13484748 0.05538433 0.49931049
-0.12957048 0.055411261 0.49985954
-0.11043942 0.050521322 0.49982485
-0.10262927 0.054114755 0.49987361
-0.098333836 0.055392198 0.49991545
-0.36102742 0.068341076 0.4924584
-0.35440904 0.06531848 0.49220648
-0.34505886 0.065094069 0.49305528
-0.33500606 0.065384313 0.49404541
-0.32487074 0.06485156 0.49512839
-0.31548277 0.064803958 0.49709597
-0.30548051 0.065155543 0.49811131
-0.29531029 0.065005533 0.49824017
-0.28514141 0.064773209 0.49840894
-0.27487603 0.06531553 0.49825209
-0.26476848 0.064772673 0.49745032
-0.25476763 0.064744711 0.49696371
-0.24494846 0.065223023 0.49736127
-0.234823 0.064944662 0.49811894
-0.22515212 0.065103449 0.49865761
-0.21491975 0.064970687 0.49832967
-0.20449649 0.064860962 0.49853706
-0.19715594 0.066359043 0.49955344
-0.17115793 0.061952345 0.499881
-0.16323459 0.060759552 0.49972242
-0.15127522 0.060478121 0.49998212
-0.14281937 0.062705375 0.49972337
-0.13510618 0.065026134 0.4992761
-0.12880805 0.06531965 0.49971655
-0.093728751 0.069906995 0.49995658
-0.3715837 0.079087935 0.49494946
-0.36445808 0.075673722 0.49390975
-0.35486561 0.075002104 0.49343106
-0.34519973 0.074685052 0.49396554
-0.33514333 0.075219512 0.49537092
-0.32490644 0.074980952 0.49668005
-0.3151511 0.074773535 0.49735191
-0.304851 0.074932627 0.49715927
-0.29431969 0.074980251 0.49666512
-0.2850095 0.074660882 0.49775612
-0.27536994 0.075350873 0.49863359
-0.26485696 0.074999891 0.49859893
-0.25485206 0.075011224 0.49794477
-0.24475554 0.074778914 0.49759436
-0.23462075 0.074812137 0.49791855
-0.2256024 0.075184919 0.49919623
-0.21393774 0.071656361 0.49961898
-0.20447624 0.073100545 0.49945325
-0.19624646 0.073292755 0.4995788
-0.18796499 0.07341674 0.49979571
-0.16517264 0.076276973 0.49991789
-0.14161208 0.070732988 0.49998364
-0.13430957 0.072119221 0.49926358
-0.1295436 0.070990458 0.49919105
-0.090736359 0.071084559 0.49996814
-0.38171625 0.087808102 0.49822429
-0.3741796 0.085820198 0.49729148
-0.36456025 0.084871635 0.49628657
-0.35494053 0.084840097 0.49573514
-0.34497979 0.084586978 0.49556288
-0.33472621 0.084953569 0.49591064
-0.32498476 0.0851769 0.49721155
-0.31517446 0.08488597 0.49774304
-0.30523151 0.085022405 0.49734005
-0.29505652 0.084991708 0.49679855
-0.28481886 0.084931716 0.49746889
-0.27476552 0.085191242 0.49880159
-0.26508561 0.084770814 0.49946755
-0.25535357 0.084817201 0.49952295
-0.24512465 0.085084945 0.49854434
-0.23483932 0.084829837 0.49759173
-0.22494327 0.084866501 0.49827522
-0.21565846 0.08651761 0.49927062
-0.19241655 0.086279385 0.4998686
-0.18558063 0.086818777 0.49952009
-0.17970762 0.088022187 0.49978885
-0.15112135 0.086875036 0.49996063
-0.3907043 0.098079003 0.49972457
-0.38390407 0.095462292 0.49920276
-0.37497756 0.095170364 0.4991987
-0.36482754 0.094871499 0.49803609
-0.35485566 0.095075771 0.49691084
-0.3451373 0.094814271 0.49649838
-0.33500049 0.09469597 0.49618438
-0.32531652 0.095087633 0.49704748
-0.31503412 0.095162302 0.49860451
-0.30541441 0.09517628 0.49892423
-0.29540151 0.094962083 0.49821103
-0.28522986 0.094968818 0.49783736
-0.27486563 0.094798759 0.49819621
-0.26492089 0.094996348 0.49839869
-0.25503334 0.095142052 0.49874932
-0.24538191 0.095454618 0.4991461
-0.23514369 0.094438121 0.49892688
-0.22490531 0.094966613 0.49877101
-0.21499218 0.094757147 0.49909675
-0.20717007 0.095182993 0.49978057
-0.19269386 0.092484869 0.49981433
-0.18480854 0.09293326 0.49942711
-0.17799987 0.092946373 0.49976233
-0.39202943 0.10113886 0.49908954
-0.38469249 0.10184299 0.4987601
-0.37460378 0.10221565 0.49873304
-0.36490008 0.10348505 0.49748734
-0.35485962 0.10384504 0.49617717
-0.34513256 0.10493838 0.49634725
-0.33535549 0.10221092 0.4964709
-0.32494459 0.10228895 0.49684447
-0.31478459 0.10464056 0.49804088
-0.30534172 0.10534057 0.499107
-0.295145 0.10519374 0.49901196
-0.28479061 0.10495814 0.4983964
-0.27502224 0.10495649 0.49827814
-0.26502347 0.10497727 0.49767157
-0.25505054 0.10491987 0.49748731
-0.24473524 0.10512159 0.4984749
-0.23611386 0.10477764 0.49964046
-0.22411516 0.10175389 0.49976704
-0.21425027 0.10128541 0.49977693
-0.31230363 0.11243669 0.49582249
-0.30511469 0.11340895 0.49745038
-0.2945227 0.11499806 0.49699721
-0.28484523 0.11485174 0.49683884
-0.27528453 0.11443058 0.49716675
-0.26502228 0.11502542 0.49710339
-0.25501636 0.11479672 0.49682719
-0.24560942 0.11441196 0.49747249
-0.23664725 0.11296748 0.49894801
-0.29266012 0.12067498 0.49573097
-0.28653702 0.12121906 0.49596173
-0.2711291 0.12052733 0.49586332
-0.26499414 0.12118039 0.4960174
-0.25548512 0.12095056 0.49641722
-0.014417599 -0.12097187 0.50013191
-0.009900406 -0.12001815 0.50037378
0.026152372 -0.12039065 0.50012839
0.051743321 -0.12209599 0.50026047
-0.012466922 -0.11510661 0.50048125
-0.0062328717 -0.11361285 0.50052381
0.0020773113 -0.11068355 0.50022149
0.027441328 -0.11584402 0.50022376
0.032115392 -0.11780724 0.50013328
0.052741989 -0.11894298 0.50050128
-0.011790458 -0.10830426 0.50021803
-0.0040166425 -0.10558328 0.50043046
0.004157865 -0.10352717 0.50069755
0.013099217 -0.10141502 0.50048858
0.023275226 -0.10074839 0.50032365
-0.022254433 -0.091102801 0.50032252
-0.013634875 -0.091823444 0.50017768
-0.0036727053 -0.094085246 0.50036067
0.0048648478 -0.095173888 0.5007959
0.014428662 -0.095336363 0.50060141
0.024735382 -0.096397683 0.50015187
0.032258205 -0.096631318 0.50033498
-0.032962415 -0.085279085 0.50018817
-0.024382971 -0.084912144 0.50040632
-0.014870618 -0.084913507 0.501001
-0.0049623018 -0.085065551 0.50151354
0.0047414913 -0.085013941 0.50128931
0.011672397 -0.084883429 0.50023347
0.033044189 -0.084188692 0.50009048
0.13827908 -0.084013723 0.50275087
0.14417185 -0.083267093 0.50452763
0.15170583 -0.081188507 0.5055595
-0.051545903 -0.071261555 0.50013953
-0.045675837 -0.071363635 0.5002262
-0.032971099 -0.076219626 0.50016475
-0.024103802 -0.074968673 0.50059944
-0.015127079 -0.074967757 0.50174266
-0.0052715498 -0.075056277 0.50228816
0.0048981961 -0.07512895 0.50176966
0.012553238 -0.074302986 0.50039989
0.021094209 -0.073893949 0.50011158
0.12971568 -0.070915848 0.5029394
0.13584794 -0.074681424 0.50298399
0.14511524 -0.074929446 0.50453049
0.15490203 -0.074897543 0.50580937
0.16406552 -0.072714061 0.5067398
0.17113978 -0.070644766 0.5075534
-0.043594304 -0.066837214 0.50032657
-0.038409095 -0.065118499 0.50041926
-0.02181132 -0.067678645 0.50043297
-0.014803853 -0.065419011 0.50202459
-0.0048253727 -0.065052196 0.50300425
0.0048011011 -0.064789616 0.50116444
0.012737919 -0.064808421 0.5003137
0.12654948 -0.063972853 0.5043866
0.13482387 -0.065039478 0.50521559
0.14494428 -0.065030292 0.5053913
0.15505429 -0.065089524 0.50636464
0.16510952 -0.06499815 0.50770426
0.17471206 -0.06458009 0.5079599
0.18388163 -0.062208053 0.50720727
-0.11223751 -0.052224994 0.50060409
-0.10586599 -0.051891245 0.50109518
-0.098652571 -0.050119519 0.50011063
-0.081126839 -0.051199466 0.50037229
-0.079149574 -0.052604575 0.50011206
-0.037789077 -0.059264347 0.50000978
-0.012276194 -0.05603433 0.50072438
-0.0055215564 -0.055185221 0.50152987
0.004686221 -0.057267059 0.50072306
0.11922018 -0.051823404 0.50394326
0.12458076 -0.055072963 0.50660723
0.13504826 -0.055111028 0.50682658
0.14504242 -0.055124648 0.50690448
0.15501247 -0.054997839 0.50665617
0.16502197 -0.054832231 0.50746155
0.17499663 -0.05512419 0.50780255
0.18490353 -0.05491998 0.50723839
0.19410615 -0.054610725 0.50869679
0.20343634 -0.051779885 0.50941753
-0.11272991 -0.04614066 0.50082445
-0.10503189 -0.044927251 0.50135809
-0.095246509 -0.044560269 0.50054651
-0.084646709 -0.044087436 0.50033504
-0.076714166 -0.044179644 0.50049597
-0.050105959 -0.044177487 0.50003994
-0.043659378 -0.041093331 0.50020605
-0.034361999 -0.042846866 0.50059217
-0.025090178 -0.043593664 0.50095445
-0.015032691 -0.04366979 0.50064421
-0.0077559454 -0.046013679 0.50034916
0.11699211 -0.044301704 0.50432628
0.12499055 -0.044958573 0.5063777
0.13504937 -0.044925071 0.50641423
0.14513282 -0.044939578 0.50643539
0.15496427 -0.044851396 0.50753736
0.16492786 -0.044942129 0.50759035
0.17503953 -0.044998538 0.50721306
0.18514097 -0.045059782 0.50792718
0.19459434 -0.0447843 0.50919777
0.20532906 -0.04458601 0.50934863
0.21424295 -0.043640006 0.50896633
0.22217751 -0.04132634 0.50928026
-0.11079203 -0.036165331 0.50025731
-0.10451198 -0.035613362 0.50034219
-0.095420398 -0.034592126 0.50033689
-0.08440391 -0.037181266 0.50030446
-0.076639786 -0.037470121 0.50047427
-0.051750351 -0.03181136 0.50030541
-0.044581555 -0.034644525 0.50096726
-0.034867056 -0.035113778 0.50218344
-0.025028128 -0.035142262 0.50301415
-0.014901217 -0.034944221 0.50231093
-0.0072541297 -0.035127021 0.50121379
0.1093541 -0.031544216 0.50229013
0.11508216 -0.034798689 0.50446212
0.12486118 -0.035037674 0.5069322
0.13487196 -0.035133924 0.50662094
0.14493808 -0.034941547 0.50666857
0.15511626 -0.034934476 0.50737733
0.16513738 -0.034978941 0.50865757
0.17507729 -0.034991372 0.50768656
0.18495913 -0.035003778 0.50794268
0.19496901 -0.03496806 0.5088613
0.20506883 -0.034925073 0.50877964
0.21512319 -0.035076715 0.50866568
0.22453347 -0.03494193 0.50924969
0.23417176 -0.032941177 0.5092054
0.24155417 -0.030773181 0.50907612
-0.10245696 -0.026915567 0.50028604
-0.094261497 -0.025350835 0.50051582
-0.085862815 -0.02360568 0.50042903
-0.075854249 -0.02185983 0.50046629
-0.06920588 -0.021034792 0.50036138
-0.052461613 -0.024977462 0.50040084
-0.045140836 -0.024985721 0.50132412
-0.035080817 -0.024933221 0.50220412
-0.025183449 -0.025175858 0.50274116
-0.015875315 -0.025527824 0.50349933
-0.0097798109 -0.02917546 0.50288296
0.099674433 -0.020530194 0.5000717
0.10544765 -0.024293235 0.50467896
0.11513226 -0.025116203 0.50637984
0.12503468 -0.024994344 0.507025
0.13499403 -0.025069134 0.50725323
0.14494915 -0.024920546 0.50726819
0.15481061 -0.025087101 0.50857908
0.16485861 -0.024943676 0.5086689
0.17506102 -0.024959257 0.50799614
0.18507396 -0.025047921 0.50845563
0.19491337 -0.025225526 0.5094831
0.20502909 -0.024954233 0.50886208
0.21473263 -0.025206348 0.50912762
0.22274691 -0.027272547 0.50950795
0.23623629 -0.028323283 0.50939947
0.24529287 -0.025094502 0.50916129
0.25362101 -0.022348654 0.50891948
-0.12256882 -0.010370046 0.50002539
-0.11654343 -0.01089783 0.50018936
-0.10164961 -0.013089387 0.50003809
-0.093875796 -0.015690098 0.50026649
-0.084719799 -0.01563397 0.50058633
-0.074838065 -0.014832874 0.50119096
-0.065006524 -0.014827654 0.50104463
-0.054796014 -0.01438263 0.50067258
-0.044893023 -0.015117955 0.50102037
-0.035073597 -0.015161498 0.50107867
-0.024636373 -0.015161791 0.50130588
-0.018162208 -0.016078254 0.50282484
0.097789437 -0.014520371 0.505885
0.10494302 -0.015168997 0.50698322
0.11487421 -0.015014143 0.50724041
0.12514736 -0.014939097 0.50682133
0.13463007 -0.015429983 0.50856984
0.14577122 -0.015946614 0.5092423
0.15506853 -0.014973027 0.50910896
0.16504623 -0.015018451 0.50866812
0.17493676 -0.015050216 0.50847167
0.18493113 -0.014964959 0.50811529
0.19476351 -0.015007109 0.50917041
0.20503138 -0.015094461 0.5092119
0.2134037 -0.015723711 0.50939894
0.24779616 -0.018464711 0.50951213
0.25379887 -0.017573869 0.50929093
-0.13029683 -0.0040946417 0.50003648
-0.12375159 -0.0047075017 0.50030798
-0.11668022 -0.0044948552 0.5002867
-0.10721716 -0.00053286552 0.50005853
-0.095264927 -0.006115207 0.5000878
-0.085465252 -0.006320125 0.50011891
-0.073888689 -0.0047078389 0.5007413
-0.065004088 -0.0050793071 0.50112337
-0.054851655 -0.0050136698 0.50115049
-0.044993874 -0.0049212095 0.50121653
-0.037025094 -0.0051716804 0.50042087
-0.022236818 -0.0081417356 0.50046068
0.096467607 -0.0048675151 0.50590181
0.10484452 -0.0052016969 0.50869989
0.11514391 -0.0049399612 0.50766623
0.12491699 -0.0051384727 0.50732869
0.1345477 -0.0048618354 0.50896436
0.14526829 -0.0045771189 0.50898534
0.15457532 -0.0051731812 0.50889516
0.16494118 -0.0055269813 0.5090037
0.17510621 -0.0051080026 0.50863934
0.18517709 -0.0049563297 0.5081948
0.19379696 -0.0057352623 0.5091784
0.20477293 -0.0081054009 0.50980467
0.21452248 -0.0089508593 0.50987649
-0.18272895 0.0067741214 0.50044537
-0.17472894 0.0078128846 0.50050527
-0.16667615 0.0089051044 0.50032163
-0.13208927 0.0077999211 0.50026655
-0.12467685 0.0057030572 0.5006997
-0.11535871 0.0050637233 0.50068587
-0.10628207 0.006241641 0.50023633
-0.094164133 0.0052388157 0.50020111
-0.084933996 0.0057340665 0.50064677
-0.074934527 0.0051766634 0.50162101
-0.064905383 0.0051109409 0.50254899
-0.054835387 0.004788063 0.50262433
-0.045303799 0.0050025438 0.5030213
-0.036787871 0.0053373934 0.50100803
-0.02200307 0.001926139 0.50011063
0.089364976 0.0093412399 0.50342834
0.095286936 0.0052397512 0.50591612
0.10494068 0.0049575493 0.50894916
0.11522549 0.0050802482 0.50822711
0.12519291 0.0049548261 0.50756896
0.13491243 0.0048986659 0.5091576
0.14529079 0.004844856 0.50889707
0.15448518 0.0051801461 0.50926107
0.16471222 0.0049590305 0.50978112
0.17670034 0.0041942773 0.50946987
0.18422897 0.0047748899 0.50938427
0.19108003 0.0029419109 0.50975722
-0.18193324 0.013614274 0.50037652
-0.1748447 0.014854547 0.50057036
-0.16527118 0.015240985 0.50039923
-0.15728837 0.015272949 0.50015038
-0.13241403 0.014279161 0.50057477
-0.1250356 0.01467093 0.50121099
-0.1153006 0.015004818 0.50126034
-0.10591511 0.015126906 0.50042289
-0.095459357 0.0147917 0.50009716
-0.083477132 0.013814881 0.50064272
-0.075056441 0.015080856 0.50158215
-0.065305047 0.015106325 0.50299603
-0.055132817 0.015157263 0.50320941
-0.045400329 0.015021988 0.50301373
-0.037250556 0.015434402 0.50105417
0.087295756 0.016253667 0.50417829
0.094923988 0.015024028 0.50684065
0.10480915 0.014951932 0.50857043
0.11485942 0.015019124 0.50855309
0.12501509 0.015082191 0.50839818
0.13392866 0.014553839 0.50939578
0.14612018 0.013277622 0.50950992
0.15513536 0.01443296 0.50931185
0.16279368 0.015857561 0.50981063
0.17947415 0.011582958 0.50962389
0.18534683 0.014974103 0.50961888
0.19314602 0.017033679 0.50956887
0.20048337 0.014069218 0.50997907
-0.1715333 0.022514459 0.50038677
-0.16447811 0.024305848 0.50050527
-0.15557919 0.025561802 0.50066757
-0.14749904 0.027982837 0.5002591
-0.13013157 0.021720503 0.50004458
-0.12332968 0.022810008 0.50021809
-0.11467469 0.022463486 0.50038785
-0.10455343 0.024984634 0.50052196
-0.09552072 0.026340295 0.50089079
-0.085011117 0.027031261 0.50060135
-0.074796751 0.025189819 0.50112629
-0.064983077 0.02504351 0.50262821
-0.054975886 0.024849225 0.50238585
-0.045261826 0.025150018 0.50157791
-0.036466431 0.025837203 0.50086254
-0.029622346 0.027807103 0.50037897
0.079781577 0.02861236 0.50324088
0.084820785 0.025292259 0.50603443
0.094946697 0.025013123 0.50674039
0.10501528 0.025121672 0.50809985
0.11505641 0.024983419 0.50877267
0.12497653 0.02486502 0.50880921
0.133798 0.025319906 0.50964254
0.14265782 0.029522203 0.50988519
0.15654616 0.021442214 0.50978804
0.16358876 0.02121868 0.50987804
0.18690778 0.021898596 0.50967044
0.19527946 0.024370646 0.5096736
0.20122212 0.022148117 0.50990683
-0.16131526 0.034434792 0.50052583
-0.15504403 0.035036851 0.5015021
-0.14514281 0.035065021 0.50127077
-0.13505715 0.036232982 0.5004409
-0.12770523 0.035657194 0.50020331
-0.10438579 0.035014685 0.50095797
-0.095043078 0.034989391 0.50244182
-0.084915563 0.03521961 0.50200182
-0.074900717 0.035077553 0.50229549
-0.065100096 0.035075333 0.50314415
-0.055015977 0.034956377 0.50240308
-0.044942454 0.034899749 0.50161791
-0.034998272 0.035048809 0.5022248
-0.026592204 0.037490018 0.50380528
-0.019309238 0.039756253 0.5037632
0.077339284 0.035007071 0.50628012
0.085199878 0.034718022 0.50896472
0.09514261 0.035158578 0.50791222
0.1050376 0.035052851 0.50901145
0.11503227 0.033606458 0.50957316
0.12507971 0.033760991 0.50968635
0.13581604 0.035070498 0.50944918
0.14478062 0.035657376 0.50896394
0.15275288 0.037744459 0.50940651
0.19923812 0.030766904 0.50985032
-0.16076837 0.043961253 0.50031787
-0.15500075 0.044825014 0.50134397
-0.14505488 0.045331866 0.501266
-0.13500819 0.044646446 0.50053966
-0.1254341 0.046043109 0.50040692
-0.11651925 0.047571618 0.50032681
-0.10370973 0.044385184 0.50057364
-0.095241897 0.045088049 0.50227958
-0.085027061 0.044957843 0.50252712
-0.075037278 0.045088015 0.50264776
-0.064932011 0.045017667 0.50338268
-0.055057313 0.044919655 0.50412941
-0.044892091 0.044976294 0.50389093
-0.035035271 0.044943105 0.50391293
-0.024990112 0.044999585 0.50430447
-0.015274218 0.046457499 0.50505692
-0.0063790288 0.048389681 0.50671875
0.072750419 0.044446025 0.50664216
0.086825334 0.043999083 0.50948769
0.095239587 0.044818167 0.50926679
0.10482022 0.045005985 0.50955194
0.11500955 0.045883868 0.50947124
0.12471263 0.045906264 0.50944936
0.13625346 0.045072176 0.50949752
0.14510179 0.045085769 0.50859207
0.15247831 0.04450579 0.50940573
-0.20178521 0.057269562 0.50026053
-0.1961191 0.057280596 0.50034738
-0.18542917 0.058942374 0.5003162
-0.17557299 0.059555866 0.50018656
-0.16107561 0.055634331 0.50004971
-0.15440281 0.054906707 0.50051999
-0.14545132 0.054178253 0.50041443
-0.13432953 0.050790329 0.50013173
-0.12493348 0.054738648 0.50089538
-0.11516979 0.055260357 0.50150061
-0.10503348 0.055201795 0.50056422
-0.094932221 0.054847863 0.50100821
-0.084942132 0.054961953 0.50208402
-0.07481125 0.055099245 0.50324053
-0.064927988 0.055119812 0.50408268
-0.054931805 0.054634582 0.50443947
-0.045055229 0.05511995 0.50426155
-0.035015292 0.055046923 0.50390434
-0.024922371 0.054965734 0.50426823
-0.014901659 0.055044942 0.50532162
-0.0052158441 0.054870307 0.50713056
0.0045798547 0.055873133 0.5061934
0.015531851 0.056053292 0.50427073
0.024298389 0.057139087 0.50590569
0.032125361 0.058834791 0.50635403
0.059918463 0.059495617 0.50293624
0.066869631 0.056229033 0.50466639
0.072745427 0.05625179 0.50881982
0.086341575 0.055324532 0.50969046
0.094528176 0.054107022 0.50956428
0.10310496 0.05280181 0.50968021
0.11572333 0.053309042 0.50941747
0.12450907 0.054580346 0.50941318
0.13456219 0.052345354 0.5096783
0.14523827 0.052983545 0.50914448
0.15184389 0.052772094 0.5097236
-0.19365276 0.064127319 0.50053018
-0.1847548 0.06508854 0.50051361
-0.17535296 0.065377966 0.5006929
-0.16513146 0.065213233 0.50056148
-0.15511093 0.065282866 0.50063926
-0.14606909 0.065747298 0.500489
-0.13072923 0.063026145 0.5001592
-0.12414318 0.065062255 0.50146663
-0.11504018 0.064944774 0.50304037
-0.10505596 0.064973436 0.50192606
-0.094974257 0.065001741 0.50076878
-0.084883437 0.064953588 0.50177985
-0.075154975 0.064929269 0.50420487
-0.065083124 0.06498687 0.50464571
-0.054819245 0.065116622 0.50461942
-0.044804845 0.064950347 0.50471133
-0.03488085 0.064978816 0.5045855
-0.024966756 0.065069772 0.50471163
-0.014752075 0.06495408 0.50574929
-0.0050955983 0.064971521 0.507312
0.0049800109 0.065066747 0.50643504
0.015020628 0.064915039 0.50498468
0.024930123 0.065016873 0.50588292
0.034657415 0.065387934 0.50683463
0.044859268 0.066300213 0.50499564
0.055650294 0.065609992 0.50465739
0.064929567 0.065058753 0.5070824
0.074955419 0.06497658 0.50864923
0.084904931 0.065357648 0.5095911
0.094205849 0.064616375 0.50974983
0.12534204 0.062738515 0.50980127
-0.22176319 0.074677899 0.50014263
-0.21521533 0.076119646 0.50037903
-0.20596057 0.077664994 0.50046664
-0.19413795 0.076793306 0.50028408
-0.18415621 0.075342722 0.50037682
-0.1750976 0.075241365 0.50066423
-0.16484988 0.074533626 0.50035018
-0.15498821 0.075033732 0.50065869
-0.14525662 0.075283468 0.50109619
-0.13706127 0.076754116 0.50076342
-0.12257223 0.070534199 0.50185043
-0.11406471 0.070638433 0.50319427
-0.10499993 0.071262754 0.50240773
-0.09404844 0.072897561 0.50064957
-0.084641755 0.074733675 0.50147474
-0.075241268 0.074834175 0.50392443
-0.065011658 0.075237066 0.50450003
-0.054904163 0.074981257 0.50495696
-0.045243599 0.075114638 0.50664133
-0.035111316 0.074941389 0.50590432
-0.024959639 0.075007819 0.50528294
-0.01511765 0.074985825 0.50684422
-0.0052382615 0.075057618 0.50784892
0.0049517611 0.074921235 0.50622565
0.015153488 0.075139672 0.50510377
0.02506532 0.074907027 0.50593829
0.035101239 0.075107463 0.50711584
0.044986714 0.075084485 0.50818092
0.054958005 0.075016126 0.50849569
0.064824075 0.074832648 0.50880253
0.074992768 0.074385799 0.5093171
0.084652804 0.072616607 0.50963795
0.094038732 0.073468015 0.50979358
0.10495734 0.070854224 0.50986278
-0.26078877 0.087084003 0.50016516
-0.25381026 0.08857362 0.50006711
-0.21400131 0.082618065 0.50041687
-0.2052353 0.085061252 0.50078058
-0.19521978 0.084816232 0.50039393
-0.18395536 0.083089806 0.50041693
-0.17506209 0.085222267 0.50114912
-0.16506265 0.083566725 0.50100946
-0.15454088 0.082664944 0.5004546
-0.14624874 0.082941763 0.50116158
-0.13794427 0.080841042 0.50146705
-0.081401311 0.084603831 0.50192583
-0.075058341 0.085082926 0.50397247
-0.065164648 0.085066192 0.5054391
-0.054721538 0.084674314 0.50470674
-0.044865664 0.085056826 0.50541091
-0.035143584 0.084977351 0.50581002
-0.024881115 0.085063636 0.50574416
-0.015080463 0.084987499 0.50711805
-0.0051118108 0.084871784 0.50671118
0.0053276182 0.084946983 0.50428665
0.015222879 0.085078031 0.50451177
0.024945175 0.084965765 0.50566792
0.035099659 0.085085146 0.50647038
0.044988126 0.084841318 0.50865209
0.055858206 0.084689781 0.50974673
0.064926043 0.085107453 0.50967467
0.072737738 0.083087042 0.50983888
0.09666048 0.086441375 0.50986433
0.10122109 0.087191999 0.50972384
-0.26067966 0.090607412 0.50005299
-0.23481338 0.099564157 0.50018167
-0.21151689 0.098945625 0.50011116
-0.20467342 0.095095381 0.50054514
-0.19574235 0.095526151 0.50060457
-0.18576173 0.097805299 0.50081599
-0.17671892 0.092732683 0.50044769
-0.080043733 0.091729999 0.50204706
-0.074394666 0.092681974 0.50397992
-0.065775581 0.092163026 0.50662792
-0.054982238 0.092216924 0.50539958
-0.044957455 0.092148498 0.50455821
-0.034605816 0.093584076 0.50497484
-0.025057029 0.095048718 0.50547332
-0.015167153 0.095030427 0.50661457
-0.0048331316 0.095071197 0.50553668
0.0052919532 0.095095761 0.50442451
0.014946357 0.09484566 0.5053162
0.024844699 0.095020957 0.50706899
0.03510477 0.095005564 0.5072391
0.044973399 0.094863728 0.50861585
0.054991029 0.095401466 0.50968921
0.064972788 0.094698891 0.50970393
0.070800655 0.095001571 0.50979036
0.097286761 0.091337159 0.50981176
0.101648 0.091119997 0.50986725
-0.30600119 0.10235846 0.50021738
-0.23356389 0.10581647 0.50029325
-0.22497077 0.10539767 0.50072908
-0.21519528 0.10481103 0.5008359
-0.20460351 0.10349544 0.501064
-0.19567074 0.10228372 0.50176132
-0.18923575 0.1007757 0.5020467
-0.023334559 0.10341322 0.50403488
-0.015634162 0.10431333 0.5058077
-0.0049937172 0.10374169 0.50529695
0.0055192737 0.10409224 0.50553173
0.015004095 0.10473545 0.50709164
0.024884747 0.10495079 0.50804555
0.034942117 0.10508111 0.50782889
0.044968691 0.10483824 0.5084483
0.055016525 0.10514721 0.50924838
0.064735897 0.10531262 0.50963324
0.071833797 0.1060464 0.5098533
0.10930966 0.10912922 0.50984323
-0.2319922 0.11222004 0.50034171
-0.22753809 0.1110675 0.50085539
0.018007819 0.11322733 0.50714111
0.025110971 0.11500253 0.50761175
0.034996547 0.11509655 0.50880647
0.044971008 0.11486141 0.50892383
0.054706641 0.11449495 0.5092904
0.064596452 0.11402222 0.50961506
0.071930125 0.11452476 0.50982612
0.095980585 0.11343616 0.5099597
0.10988954 0.1108105 0.50998962
0.026440762 0.1227508 0.50685048
0.034223843 0.1238817 0.50877815
0.045590237 0.12313418 0.50967264
0.052892089 0.12396126 0.50969791
0.070312679 0.14317721 0.50964725
-0.23478091 0.20944381 0.50931937
-0.23259485 0.21062993 0.50831181
-0.22875006 0.21156378 0.50901335
0.19779606 -0.051426709 0.51020956
0.20177357 -0.050829552 0.51008427
0.19796053 -0.047120892 0.51016074
0.20234677 -0.047749363 0.51027417
0.22602698 -0.040127702 0.51023972
0.22739489 -0.034241594 0.51018018
0.23012097 -0.030354768 0.51029384
0.19640364 -0.024067668 0.51018494
0.21855612 -0.021650394 0.51017332
0.2260212 -0.024200827 0.51081002
0.23466949 -0.023839137 0.51130414
0.24195342 -0.022110632 0.51059276
0.25946704 -0.020981807 0.51029509
0.260883 -0.020263836 0.51079988
0.13830173 -0.012571475 0.51030743
0.14336134 -0.013013265 0.51042473
0.15746635 -0.018956557 0.51011276
0.19730082 -0.016048769 0.51008606
0.20487413 -0.012319326 0.51011574
0.21688606 -0.013686963 0.51047403
0.22495256 -0.01509152 0.51137835
0.23498882 -0.015033094 0.51213217
0.24458583 -0.014479272 0.5116111
0.25569418 -0.013380331 0.51115549
0.26462045 -0.014423652 0.51304442
0.27352339 -0.012112141 0.51433319
0.10699657 -0.0010316148 0.51002085
0.13882138 -0.0080490671 0.51024765
0.14341515 -0.0090299286 0.5102461
0.15791282 -0.0015348742 0.51023632
0.16472164 -0.00079458952 0.51028508
0.17054453 -0.0015545189 0.51002574
0.19741803 -0.0034387405 0.51042986
0.20510104 -0.0043622046 0.51077336
0.21510904 -0.0050673541 0.51104021
0.22504409 -0.005019017 0.51105857
0.23503388 -0.004887308 0.51207697
0.24505158 -0.0049869018 0.51261336
0.25498036 -0.0049354373 0.51216567
0.26498976 -0.0048276768 0.51326334
0.27500653 -0.0050035729 0.51313299
0.28436068 -0.0039403159 0.51258808
0.29282308 -0.0014338362 0.51368058
0.13788621 0.0078473287 0.51009297
0.14078271 0.0075116321 0.51013404
0.15803926 0.0035634935 0.51031184
0.16507021 0.0050443774 0.51035196
0.17278944 0.0057010595 0.5104593
0.18809864 0.0064752572 0.51025808
0.19529757 0.0052837916 0.51070684
0.20505154 0.0050117569 0.51161563
0.21503218 0.005070332 0.51180786
0.22500294 0.0049404344 0.51144272
0.23507532 0.0050166929 0.51230097
0.24513219 0.0048126136 0.51324797
0.25505421 0.0049110982 0.51346201
0.26507628 0.0050376328 0.51364231
0.27498978 0.0050408901 0.51285177
0.28501087 0.0049443864 0.51308799
0.29504481 0.0048935302 0.51407719
0.30095124 0.0045833471 0.51435125
0.13767698 0.016227644 0.51034421
0.14400341 0.017057205 0.51048887
0.15522406 0.017687961 0.51020908
0.16559123 0.014673029 0.51050365
0.17483428 0.01506654 0.51074511
0.18402076 0.015091387 0.51017588
0.19600816 0.014006339 0.51049191
0.20510371 0.015088583 0.51145858
0.21497241 0.014963171 0.51278538
0.22498666 0.014978188 0.51211739
0.23490885 0.014860664 0.51245546
0.24495988 0.01481958 0.51415598
0.25497922 0.01485501 0.51423067
0.26498333 0.014961649 0.51389605
0.27509183 0.014966398 0.51379573
0.28495899 0.014926722 0.51362497
0.29401949 0.01447062 0.51427323
0.1288836 0.029596489 0.51001751
