# .PCD v0.7 - Point Cloud Data file format
VERSION 0.7
FIELDS x y z
SIZE 4 4 4
TYPE F F F
COUNT 1 1 1
WIDTH 1
HEIGHT 759
VIEWPOINT 0 0 0 1 0 0 0
POINTS 759
DATA ascii
-0.032336533 -0.05000931 0.38979223
-0.030907778 -0.046513669 0.38824263
-0.029630274 -0.042966373 0.38855645
-0.025010794 -0.03991425 0.38903728
-0.03117764 -0.051930051 0.39607918
-0.029569775 -0.055111229 0.3960692
-0.032316528 -0.044618964 0.39398998
-0.028694559 -0.040714446 0.39164466
-0.032979269 -0.036555432 0.39633018
-0.026720317 -0.036464389 0.39346021
-0.031883508 -0.053780347 0.40409765
-0.029475382 -0.058369726 0.40254223
-0.033122808 -0.048270438 0.40297782
-0.084701993 -0.10272928 0.41897205
-0.074963503 -0.1023422 0.41738144
-0.066934034 -0.10135232 0.41605622
-0.081597984 -0.098404929 0.41927436
-0.074410632 -0.096959315 0.41890463
-0.064970709 -0.094857775 0.41728941
-0.057490472 -0.093525387 0.41442543
-0.062070828 -0.087115273 0.41798082
-0.05532321 -0.084358022 0.41490036
-0.04925384 -0.081810541 0.41157255
-0.051938388 -0.076444872 0.41691548
-0.046610363 -0.073624581 0.41380903
-0.044507269 -0.065687738 0.41686937
-0.038409159 -0.064075179 0.41379365
-0.04320468 -0.055190727 0.41725671
-0.037179012 -0.055153228 0.41344067
-0.043160271 -0.046592899 0.41739738
-0.039179582 -0.048137028 0.41384676
-0.10117218 -0.10026908 0.42223102
-0.094208106 -0.1016586 0.4210318
-0.088483006 -0.10139653 0.42044693
-0.11261059 -0.091980726 0.4275361
-0.1045092 -0.093705624 0.42422143
-0.094996758 -0.09464512 0.42284286
-0.085345261 -0.09406326 0.42316374
-0.075099893 -0.091880806 0.42391545
-0.068572536 -0.090837091 0.42095071
-0.11339512 -0.085365176 0.4287461
-0.10545052 -0.085730121 0.42746922
-0.095516935 -0.087777741 0.42818618
-0.088756524 -0.089395396 0.42845401
-0.070787206 -0.089858726 0.42622775
-0.064856656 -0.087050892 0.42462048
-0.057623032 -0.081966892 0.42482141
-0.11237255 -0.0792455 0.42951941
-0.10865262 -0.078968957 0.42965472
-0.052437507 -0.075609565 0.42511046
-0.049892288 -0.070853397 0.42588806
-0.050147574 -0.06941738 0.42411909
-0.04855993 -0.06441354 0.42451259
-0.046049707 -0.054989941 0.42445439
-0.044970024 -0.045006994 0.42476615
-0.046001934 -0.035407655 0.428617
-0.052169893 -0.023770403 0.42627719
-0.048827935 -0.029077251 0.42644018
-0.053889941 -0.014919759 0.42696825
-0.048500024 -0.013116095 0.42420495
-0.052699652 -0.0074884132 0.42814904
-0.049731832 -0.0075903684 0.42538664
-0.081761047 -0.090572916 0.43423301
-0.074795514 -0.09112113 0.43460983
-0.068991348 -0.09080556 0.43744016
-0.12184379 -0.082915239 0.43205217
-0.11810964 -0.083770387 0.43076295
-0.10207528 -0.081509195 0.43070847
-0.095181592 -0.083749458 0.43339807
-0.086734243 -0.088449553 0.43495435
-0.064437091 -0.087205082 0.43477631
-0.056704748 -0.082243487 0.43506455
-0.13133174 -0.071573131 0.43667397
-0.12456001 -0.074382119 0.43386391
-0.11533881 -0.074825428 0.43106022
-0.10617301 -0.075692452 0.43127906
-0.09901315 -0.078972653 0.43631333
-0.051472064 -0.077091195 0.43502727
-0.049217153 -0.072576374 0.43638349
-0.13158233 -0.065994136 0.43873075
-0.12485231 -0.065188587 0.43642071
-0.11588986 -0.065421976 0.43321553
-0.046307266 -0.065148011 0.43489099
-0.13046816 -0.057023011 0.43945727
-0.12493585 -0.055138789 0.43780372
-0.11724728 -0.057203077 0.43449226
-0.0440192 -0.055039778 0.4349407
-0.12325338 -0.046629909 0.4391188
-0.11948469 -0.049733683 0.43738845
-0.043492187 -0.044980671 0.43461758
-0.045653161 -0.035043232 0.43549511
-0.053579938 -0.023538975 0.43418172
-0.049111504 -0.029432734 0.43431544
-0.092802286 -0.010165676 0.4392553
-0.084870793 -0.010409985 0.43814996
-0.075146176 -0.010958781 0.43633988
-0.064147815 -0.013454197 0.43467894
-0.058591899 -0.015240848 0.43257916
-0.091550536 -0.0094656004 0.43957415
-0.084077045 -0.0062231817 0.43886533
-0.075085558 -0.0047708205 0.43709907
-0.064972423 -0.0049488358 0.43459994
-0.057445277 -0.0056707263 0.43165839
-0.080699593 0.00019870698 0.43942618
-0.074123256 0.0021902546 0.43929508
-0.067502499 0.0012647875 0.43734312
-0.080578297 -0.090128645 0.44459748
-0.074817173 -0.091133863 0.44464993
-0.068500072 -0.09087047 0.44522527
-0.092454024 -0.083066352 0.44172856
-0.085107826 -0.088178188 0.44168091
-0.063618563 -0.088131681 0.444388
-0.055767786 -0.083143078 0.44514033
-0.096513808 -0.079423979 0.44135109
-0.051301084 -0.078419693 0.44407564
-0.047004115 -0.073557496 0.44568387
-0.13497086 -0.06302724 0.44368964
-0.042454302 -0.065210037 0.44466358
-0.13423364 -0.055132601 0.44372422
-0.12938032 -0.050739489 0.44041884
-0.041353118 -0.054730009 0.44339556
-0.039589133 -0.054281808 0.44827202
-0.13374294 -0.045069952 0.44416097
-0.12671612 -0.044016421 0.44114995
-0.040930908 -0.044777032 0.44313702
-0.039248068 -0.045589071 0.4476403
-0.13374723 -0.035428278 0.44583943
-0.12548132 -0.034823503 0.4428091
-0.044293571 -0.03555306 0.44527844
-0.13135082 -0.02818618 0.44755298
-0.12507255 -0.025091017 0.44617021
-0.11647584 -0.023723816 0.44425687
-0.10905261 -0.020726696 0.44387174
-0.054087747 -0.024764758 0.44325775
-0.049699139 -0.029061005 0.44464335
-0.12220575 -0.018141625 0.44871104
-0.1148372 -0.015132721 0.44666615
-0.10633283 -0.01338409 0.44265577
-0.09752623 -0.011163903 0.44063833
-0.11250129 -0.0077614575 0.44751847
-0.10458761 -0.0055811722 0.44533932
-0.095264718 -0.0045270915 0.44235054
-0.086845055 -0.0021511293 0.44069296
-0.09373448 0.0016713492 0.44615266
-0.085199781 0.0044237855 0.44363996
-0.078596398 0.0041975556 0.44044375
-0.074742757 -0.092395164 0.45440993
-0.065716162 -0.091936745 0.45527714
-0.058987409 -0.090409681 0.45787549
-0.061222501 -0.089161523 0.45235664
-0.054336496 -0.085540287 0.45451102
-0.048650853 -0.081335381 0.45693383
-0.044589534 -0.075249523 0.45452857
-0.03946206 -0.071033336 0.45846954
-0.13552442 -0.060856499 0.45440376
-0.040371101 -0.067928627 0.45217818
-0.038311783 -0.064773269 0.45573375
-0.1339097 -0.05648917 0.45498925
-0.037597459 -0.054868281 0.45498803
-0.134718 -0.045935582 0.45323205
-0.040206909 -0.040655747 0.45099443
-0.038505208 -0.04537186 0.45520511
-0.13274667 -0.031952675 0.45469904
-0.044194192 -0.035438024 0.45524105
-0.1316596 -0.025369262 0.45471069
-0.12890406 -0.021304917 0.45386285
-0.053544074 -0.026582226 0.45649141
-0.04992792 -0.029489875 0.45092633
-0.12418023 -0.016945824 0.45485017
-0.11817795 -0.011797496 0.45442963
-0.11339012 -0.0069048288 0.45456177
-0.10496571 -0.0024960355 0.45472574
-0.099113941 -0.00045183938 0.45502096
-0.094758429 0.001353372 0.45461139
-0.086588249 0.0054621021 0.45476604
-0.072942629 -0.094578192 0.46484265
-0.064658962 -0.093988098 0.46516863
-0.056580901 -0.091308102 0.46596673
-0.051947962 -0.088211201 0.46478167
-0.046918914 -0.083472624 0.46529827
-0.041932281 -0.077278689 0.46453875
-0.038789812 -0.072824053 0.46592632
-0.13064268 -0.063015446 0.46350127
-0.036095299 -0.065497532 0.4650093
-0.035941582 -0.055107247 0.46518108
-0.038295347 -0.044964384 0.46471429
-0.13068758 -0.032580044 0.46270221
-0.12943101 -0.034616936 0.46609551
-0.043360375 -0.035555743 0.46335688
-0.03918837 -0.038994201 0.4685452
-0.13124894 -0.024660371 0.46126869
-0.12955634 -0.028956428 0.46755028
-0.12383526 -0.016485844 0.46359533
-0.11734945 -0.012029038 0.46488735
-0.11249772 -0.0080461577 0.46456203
-0.10434204 -0.0035287784 0.46493924
-0.096322946 -0.00076129806 0.46633384
-0.092506476 0.00056989706 0.46327052
-0.086695746 0.002254267 0.46341157
-0.064437926 -0.095148727 0.47457337
-0.055997729 -0.091614112 0.47503236
-0.05104256 -0.089165986 0.47454688
-0.045486249 -0.084298596 0.47520599
-0.12326871 -0.071176529 0.47932655
-0.040853806 -0.07910388 0.47387436
-0.037157804 -0.074343383 0.47547725
-0.12491448 -0.064162321 0.47536463
-0.034180868 -0.065361969 0.47508532
-0.12465292 -0.056333423 0.47717175
-0.035124183 -0.054998208 0.47491473
-0.12535441 -0.044078384 0.47673649
-0.036932182 -0.044752464 0.47515789
-0.12708488 -0.037114989 0.474139
-0.03688113 -0.039096441 0.47664484
-0.12076262 -0.017059594 0.47141194
-0.11464815 -0.012948501 0.47338605
-0.11119863 -0.0093774684 0.47273666
-0.1046927 -0.0058370749 0.47478959
-0.095918328 -0.0023124933 0.4748517
-0.085999489 -0.0012794517 0.47494486
-0.07632035 -0.0015894622 0.47862777
-0.082561195 0.00058268011 0.47053421
-0.062970661 -0.095680527 0.48443934
-0.055714063 -0.092453793 0.48478669
-0.049741656 -0.090012282 0.48772043
-0.051053286 -0.089828022 0.48401195
-0.045021679 -0.085316941 0.48463053
-0.039972842 -0.080750287 0.48887378
-0.12178592 -0.072430268 0.4868423
-0.040296089 -0.079539508 0.48222002
-0.036212973 -0.075107217 0.48517793
-0.12364908 -0.064821728 0.48545483
-0.032990448 -0.065378897 0.48509365
-0.12544958 -0.054597761 0.48457628
-0.033918213 -0.055416983 0.48473281
-0.12626611 -0.045398664 0.48507041
-0.035941351 -0.044993538 0.48481292
-0.1238801 -0.03817898 0.48451823
-0.036522269 -0.039539404 0.48556614
-0.12141162 -0.025331914 0.48100311
-0.11532109 -0.024544705 0.4886083
-0.1121616 -0.017598167 0.48515475
-0.10653096 -0.013153283 0.48798764
-0.10260649 -0.0071776728 0.48383006
-0.096382543 -0.0045840051 0.48515478
-0.085309707 -0.0035480291 0.48491073
-0.0749458 -0.0034305553 0.48525095
-0.061023381 -0.096492887 0.49509367
-0.054691695 -0.09310317 0.49526948
-0.048907131 -0.090008944 0.49450025
-0.11519861 -0.085336223 0.49808908
-0.04474717 -0.085676752 0.49532729
-0.039376348 -0.080906823 0.4942835
-0.12175524 -0.073836274 0.49479476
-0.11928548 -0.07871294 0.4946349
-0.036256678 -0.074863993 0.49514672
-0.1246436 -0.065354109 0.49406365
-0.032748055 -0.065360397 0.49527398
-0.12678626 -0.055284251 0.49436453
-0.033461053 -0.054952372 0.49512559
-0.12507473 -0.043826498 0.49445888
-0.035506938 -0.046793513 0.49487463
-0.121081 -0.03889633 0.49558169
-0.11893111 -0.036359157 0.49485746
-0.11284068 -0.024487929 0.49602538
-0.10999808 -0.020005286 0.4955582
-0.11049113 -0.019430604 0.49556461
-0.10585596 -0.015621183 0.49556541
-0.097829461 -0.010812372 0.49830768
-0.10029472 -0.0088831186 0.49134588
-0.094443947 -0.0070970492 0.49481714
-0.085178167 -0.00573189 0.49558628
-0.074876048 -0.0055663409 0.49455532
-0.067360491 -0.0058749346 0.49536738
-0.11268079 -0.091353975 0.50812769
-0.10852885 -0.098098233 0.50871503
-0.11621264 -0.085154891 0.50480467
-0.12175649 -0.073135853 0.50197935
-0.11960748 -0.078185812 0.50591141
-0.12368789 -0.064918049 0.50379449
-0.12460274 -0.055251069 0.50386995
-0.1216437 -0.043787282 0.50434047
-0.11938111 -0.042327218 0.5095824
-0.1202574 -0.038935993 0.50300902
-0.11727428 -0.035192002 0.50612628
-0.11249629 -0.025292981 0.50393617
-0.10894235 -0.021180864 0.50724572
-0.10468954 -0.016472707 0.5041014
-0.095778726 -0.012476489 0.50475776
-0.048193783 -0.011163871 0.50923866
-0.091486856 -0.0092269331 0.50362241
-0.084304556 -0.0076216534 0.50481731
-0.074258566 -0.0071489988 0.50454003
-0.065508977 -0.0072183083 0.50590479
-0.055810429 -0.0082999263 0.50857532
-0.10968801 -0.096844792 0.51080418
-0.11757714 -0.085514843 0.51587671
-0.12030575 -0.072303474 0.51434183
-0.11933717 -0.076752312 0.5162499
-0.12136731 -0.064697154 0.51511079
-0.12059829 -0.056307063 0.51568645
-0.11920301 -0.05342374 0.51854485
-0.12026641 -0.046811432 0.51095068
-0.1181998 -0.044186514 0.51586843
-0.11459956 -0.034766849 0.51476645
-0.11130562 -0.0277215 0.51196092
-0.10780274 -0.024632491 0.51610285
-0.10334702 -0.018610079 0.51304197
-0.095785975 -0.015589862 0.51451117
-0.086522974 -0.012164738 0.51657093
-0.082258977 -0.0091464492 0.51337868
-0.075279757 -0.007949356 0.51547575
-0.064677134 -0.0068829139 0.51601946
-0.062791005 -0.10241014 0.4098672
-0.060440063 -0.099869296 0.40961453
-0.054438021 -0.094948061 0.40972644
-0.048979145 -0.090959072 0.40982762
-0.050937071 -0.088294007 0.40992391
-0.045036681 -0.085685194 0.40960643
-0.039415419 -0.080920771 0.40981013
-0.03616298 -0.073500447 0.40955344
-0.034821145 -0.066310875 0.40947905
-0.092687793 -0.10132255 0.41754064
-0.084702037 -0.10271255 0.41636044
-0.074905753 -0.1028639 0.41469279
-0.066292323 -0.10208643 0.4121345
-0.10091446 -0.095082365 0.4190805
-0.095030703 -0.094863594 0.41822249
-0.084976755 -0.094881631 0.41688383
-0.075072147 -0.094971731 0.41487828
-0.064893164 -0.094995946 0.41263726
-0.056262553 -0.09333583 0.41078815
-0.092935219 -0.087570339 0.4192574
-0.085555591 -0.08708214 0.41715473
-0.074908145 -0.087925702 0.4153789
-0.064344727 -0.086501315 0.41547915
-0.055173483 -0.084744908 0.41275284
-0.046366207 -0.083379008 0.41070139
-0.052771136 -0.075864844 0.41384888
-0.045173533 -0.07485655 0.41128042
-0.038407777 -0.074393749 0.41044852
-0.05119681 -0.068030782 0.41414773
-0.044743255 -0.065021574 0.4125849
-0.036608215 -0.064035207 0.41066015
-0.04373705 -0.055309743 0.41430166
-0.03520539 -0.055024549 0.41185033
-0.02960109 -0.051969454 0.41135255
-0.042659 -0.045041751 0.41671962
-0.034823835 -0.045005243 0.41397077
-0.029609356 -0.044562332 0.41262192
-0.04198423 -0.035783499 0.41906634
-0.035193317 -0.03518695 0.41699204
-0.029435679 -0.038419142 0.41507763
-0.040799055 -0.028220385 0.4197228
-0.036070965 -0.026049992 0.41817448
-0.036250029 -0.017210104 0.4192999
-0.11189982 -0.090930581 0.42483997
-0.10549776 -0.09232749 0.42222205
-0.12081344 -0.08164908 0.42927343
-0.11414814 -0.084371164 0.4268786
-0.10491792 -0.085017741 0.42367023
-0.096238069 -0.08415287 0.42118338
-0.089988694 -0.083538696 0.42029887
-0.12218192 -0.078590125 0.42969722
-0.11413594 -0.076046765 0.42867243
-0.10529652 -0.075468287 0.42624047
-0.098005123 -0.078053363 0.42291898
-0.11040694 -0.065664701 0.42976436
-0.10769951 -0.065469109 0.42902139
-0.10829779 -0.059388198 0.42998004
-0.045009576 -0.033618115 0.42077017
-0.052225221 -0.022081496 0.42428997
-0.044950463 -0.024567323 0.42246968
-0.03867523 -0.021866951 0.42051977
-0.062651433 -0.0128463 0.42879587
-0.054792434 -0.014889691 0.42621052
-0.044998225 -0.014980572 0.42370334
-0.03871898 -0.014734647 0.42107701
-0.0626164 -0.0059402459 0.42935464
-0.055231649 -0.0058763181 0.428018
-0.045997828 -0.0077484101 0.42401117
-0.039423116 -0.0093823969 0.42090368
-0.12350944 -0.073694251 0.43179107
-0.117141 -0.07226418 0.43072563
-0.13126469 -0.062266164 0.43608609
-0.12490964 -0.064918578 0.4341723
-0.11517601 -0.06496308 0.43184611
-0.10992113 -0.065993622 0.4302547
-0.13190338 -0.054600436 0.43740383
-0.1250899 -0.054992642 0.43552542
-0.11580499 -0.055606097 0.43314978
-0.10953346 -0.058821525 0.43049309
-0.13287118 -0.045785539 0.43869215
-0.12508883 -0.045044784 0.43761092
-0.11832468 -0.045687161 0.4359628
-0.12330734 -0.036717337 0.43916881
-0.11775085 -0.034353841 0.4380427
-0.12033913 -0.027477264 0.4397198
-0.1153699 -0.024763148 0.43869808
-0.10962357 -0.021351112 0.43801266
-0.11340412 -0.017608639 0.43934199
-0.10573545 -0.014484741 0.43885162
-0.097949564 -0.011546482 0.43681991
-0.073149472 -0.010804267 0.43153057
-0.067539126 -0.011502269 0.43045136
-0.10328332 -0.0066738497 0.43889543
-0.095038347 -0.0050440244 0.43737784
-0.08500322 -0.0047824257 0.43545976
-0.075246505 -0.0049898676 0.43255329
-0.066680223 -0.0043842057 0.43087944
-0.059344895 -0.00080243684 0.43013376
-0.093701296 0.00305837 0.43876338
-0.084961832 0.0038389044 0.43641934
-0.075432472 0.0035670011 0.43408883
-0.066110998 0.0016930671 0.43162331
-0.13349374 -0.041327126 0.440458
-0.13223986 -0.035316125 0.44228905
-0.1265478 -0.033577524 0.44120327
-0.13144565 -0.028021945 0.44385788
-0.125066 -0.025087981 0.44222501
-0.11962473 -0.023617834 0.44026017
-0.12314637 -0.016345913 0.44367197
-0.11599647 -0.013762018 0.44128838
-0.10844861 -0.012334013 0.44023746
-0.12059563 -0.009432435 0.4439449
-0.11418112 -0.0068076616 0.44239435
-0.10654882 -0.0035165751 0.44110671
-0.10241421 0.0020308236 0.44142431
-0.098608166 0.0033553401 0.44045773
-0.071940213 -0.10133126 0.40893012
-0.068628803 -0.1010393 0.4081656
-0.071955912 -0.095684871 0.40879378
-0.065063715 -0.094825767 0.4080871
-0.057824712 -0.09351898 0.40829185
-0.062776469 -0.086882502 0.40868369
-0.05505294 -0.08500693 0.4076961
-0.04755237 -0.082959674 0.40784907
-0.053890176 -0.076257959 0.40835601
-0.045216158 -0.07475058 0.40742981
-0.038956083 -0.071081564 0.40824643
-0.044008214 -0.065893538 0.4079172
-0.037915792 -0.064366601 0.40741143
-0.041726336 -0.05833951 0.4088639
-0.037004706 -0.055689499 0.40852377
-0.035735995 -0.045963779 0.40904349
-0.09291479 -0.10105515 0.4127256
-0.085662946 -0.10181502 0.41122431
-0.076965354 -0.1019031 0.41047719
-0.11168058 -0.091024071 0.41856137
-0.10391472 -0.093702734 0.41655141
-0.094934888 -0.095026568 0.41436097
-0.084863171 -0.095100217 0.41218033
-0.076822154 -0.094851494 0.41060385
-0.053499252 -0.093228616 0.41333684
-0.048739132 -0.091203026 0.41680002
-0.1120856 -0.089143448 0.41906124
-0.10449962 -0.087224126 0.41861525
-0.094872341 -0.086331412 0.416749
-0.084843993 -0.085613735 0.41539741
-0.074923925 -0.085154854 0.41287643
-0.066173241 -0.08380612 0.41049474
-0.050477408 -0.089138567 0.41105014
-0.044438299 -0.084845252 0.41269565
-0.039276585 -0.081524789 0.41729742
-0.083482586 -0.07975208 0.41805524
-0.07186871 -0.079486385 0.41288647
-0.064178668 -0.078417182 0.41071832
-0.056944173 -0.07404469 0.41004995
-0.040637363 -0.078217573 0.41088068
-0.036870632 -0.074438497 0.41431656
-0.052352108 -0.067426823 0.41064849
-0.048065145 -0.063322522 0.41040218
-0.033415396 -0.064906061 0.41416383
-0.044329721 -0.054623351 0.41052133
-0.032702725 -0.054813258 0.41246602
-0.029452572 -0.052651308 0.41691798
-0.042905543 -0.045140062 0.41043362
-0.034434602 -0.044688497 0.41058555
-0.029462228 -0.045028791 0.4166739
-0.043697201 -0.035002325 0.41345575
-0.034915987 -0.034968138 0.41260764
-0.029323233 -0.03704666 0.41770825
-0.050993368 -0.025559656 0.41882217
-0.04517119 -0.025177823 0.41651243
-0.035632621 -0.025574697 0.41581184
-0.044211403 -0.016854379 0.41820905
-0.038235269 -0.017301638 0.41820133
-0.052797258 -0.098075524 0.42449582
-0.045948569 -0.091693319 0.42538294
-0.12128101 -0.080602348 0.42256212
-0.11435593 -0.083770141 0.42099667
-0.10564574 -0.082466945 0.42055947
-0.095998459 -0.081754893 0.42324293
-0.08792311 -0.08169499 0.42105624
-0.042420607 -0.087762803 0.42246523
-0.037719004 -0.083273239 0.42424732
-0.12344836 -0.074359991 0.42620739
-0.11495527 -0.074810661 0.42465827
-0.1056791 -0.07554245 0.42464113
-0.099983469 -0.07942535 0.42805821
-0.033039965 -0.074733511 0.4242526
-0.029730974 -0.071743101 0.4287115
-0.13041121 -0.06506446 0.42906237
-0.12424403 -0.065315165 0.42858306
-0.11483877 -0.064921781 0.42721018
-0.10813985 -0.067332633 0.42745858
-0.030888697 -0.066824093 0.42164454
-0.028441958 -0.064421155 0.42621779
-0.12090293 -0.057936631 0.42906001
-0.11757218 -0.058415323 0.42880943
-0.027481463 -0.055374399 0.42404288
-0.027185412 -0.045107011 0.42467153
-0.027645338 -0.034168363 0.42470768
-0.05284439 -0.021985913 0.42004439
-0.031556845 -0.023257717 0.42339361
-0.028951406 -0.027728353 0.42564058
-0.062940516 -0.012259678 0.4260453
-0.054603525 -0.014614493 0.42201909
-0.045987297 -0.012727724 0.42034227
-0.03651024 -0.014012353 0.42062411
-0.070897207 -0.0058012418 0.42904621
-0.06480594 -0.0047439649 0.42660496
-0.05504832 -0.0047760573 0.42459449
-0.045895871 -0.0069573587 0.42152748
-0.038424361 -0.0089712702 0.42004061
-0.065064803 0.0027973854 0.42752916
-0.05788767 0.0019169719 0.42562643
-0.052122138 -0.101735 0.43465155
-0.051053934 -0.098704793 0.43180114
-0.04662963 -0.095506698 0.43515006
-0.039606333 -0.09178184 0.43904841
-0.096772969 -0.081186399 0.43483555
-0.040009111 -0.08898516 0.43104824
-0.03450758 -0.084280781 0.43549687
-0.10223576 -0.074607395 0.43402487
-0.099305116 -0.079366706 0.43489137
-0.031368516 -0.078012481 0.43249011
-0.027217207 -0.073761597 0.43511111
-0.13108802 -0.062039781 0.4300622
-0.12797385 -0.061355419 0.43006158
-0.11113364 -0.061205551 0.43339193
-0.10641976 -0.066313207 0.43355817
-0.025036912 -0.06514331 0.43447578
-0.13227528 -0.054729365 0.43209398
-0.12544756 -0.055010095 0.43055332
-0.11609457 -0.055142779 0.43348271
-0.023879735 -0.054848477 0.43431997
-0.13300763 -0.045054451 0.43529022
-0.12475641 -0.045208342 0.43402472
-0.11886735 -0.045710787 0.43697846
-0.023321941 -0.044448048 0.43556494
-0.13263626 -0.036103267 0.43883425
-0.12467439 -0.035516746 0.43766132
-0.11888184 -0.035035301 0.43812004
-0.023636436 -0.035714503 0.43464035
-0.13153361 -0.029194785 0.43905926
-0.12442449 -0.025524376 0.43858004
-0.11665372 -0.02410211 0.43838954
-0.031148016 -0.021100352 0.43304038
-0.027461417 -0.026940847 0.43430695
-0.12274703 -0.015922304 0.43736595
-0.11464069 -0.015131313 0.43654197
-0.10588259 -0.012901613 0.43734202
-0.0971196 -0.010691878 0.43871805
-0.072529167 -0.011005365 0.43579698
-0.067870371 -0.012004715 0.4308795
-0.1138196 -0.0065663359 0.43580398
-0.10520066 -0.0047490406 0.43587947
-0.094942741 -0.0047559631 0.43571717
-0.085028581 -0.0046027983 0.43446296
-0.075560473 -0.0043242825 0.43172869
-0.11092589 0.00093286578 0.4360528
-0.10400926 0.0020693736 0.436506
-0.094818518 0.0029928163 0.43449968
-0.084825493 0.0037358247 0.4324277
-0.074847795 0.0037240665 0.43117565
-0.06904202 0.0048346007 0.43004486
-0.05084008 -0.1038048 0.44290873
-0.047964927 -0.10173956 0.4470509
-0.043975111 -0.097539194 0.44471639
-0.037674747 -0.092671394 0.44543278
-0.096121535 -0.081598483 0.44443274
-0.032888677 -0.087005764 0.4442468
-0.027096754 -0.082551971 0.44563624
-0.10152431 -0.074006595 0.44410795
-0.098874956 -0.078306623 0.44596702
-0.023115031 -0.07565131 0.44422823
-0.01943161 -0.071051478 0.44904289
-0.11071693 -0.061301693 0.44430849
-0.10697706 -0.065803409 0.44505829
-0.021326194 -0.06531655 0.44287601
-0.018798891 -0.064640701 0.44704217
-0.1141919 -0.05448591 0.44462517
-0.020809218 -0.054846972 0.44110414
-0.018396564 -0.054349329 0.4460412
-0.11648231 -0.044931971 0.4444533
-0.020680768 -0.047230091 0.44084096
-0.018002814 -0.044758562 0.44524017
-0.13446286 -0.033538476 0.44006023
-0.11560433 -0.03473559 0.44396609
-0.021780113 -0.032594971 0.44345644
-0.018319406 -0.03816402 0.44503966
-0.13145025 -0.027158374 0.4400591
-0.12915523 -0.023717573 0.44005838
-0.1130254 -0.026442414 0.44292754
-0.10778392 -0.022871893 0.44621444
-0.030710991 -0.021588285 0.44304037
-0.026098061 -0.026153635 0.44447747
-0.10419933 -0.017217087 0.44300324
-0.095328726 -0.013747095 0.44444266
-0.086280696 -0.011627447 0.44510508
-0.07335075 -0.012914995 0.44254729
-0.08441475 -0.0093889451 0.44004896
-0.05097438 -0.10825709 0.45538533
-0.044753019 -0.10450411 0.45438382
-0.037416175 -0.10192869 0.45675483
-0.041816607 -0.099470705 0.45054954
-0.034665376 -0.095338903 0.45454782
-0.028548511 -0.091679007 0.45754644
-0.096588552 -0.081424221 0.45480773
-0.030726481 -0.08910159 0.45154658
-0.024460291 -0.085579142 0.45311657
-0.019170433 -0.081805393 0.45679381
-0.10184859 -0.072351903 0.45482716
-0.098208487 -0.076756276 0.45468923
-0.020649664 -0.078835137 0.4500438
-0.017453922 -0.074508615 0.45449108
-0.11077742 -0.061420567 0.4540585
-0.10752418 -0.065884985 0.45530835
-0.01511275 -0.064961843 0.45361295
-0.1126681 -0.054540001 0.45482287
-0.014956373 -0.055577338 0.45464668
-0.11296789 -0.044801828 0.45484003
-0.015028707 -0.045602314 0.4545159
-0.1118137 -0.035494573 0.45402861
-0.10864572 -0.0322216 0.45778272
-0.020821581 -0.031008119 0.45403945
-0.017793417 -0.035697814 0.45478931
-0.11063042 -0.029606812 0.45105553
-0.10500751 -0.025012864 0.45430943
-0.098138571 -0.021224296 0.45687068
-0.025681566 -0.025125457 0.45473212
-0.10041214 -0.018984808 0.45005274
-0.09417285 -0.017820198 0.45373154
-0.085845605 -0.014639476 0.45422363
-0.075477444 -0.015793074 0.45433372
-0.050712265 -0.11104256 0.4620522
-0.045826033 -0.11135706 0.46616241
-0.038643293 -0.1102827 0.46904993
-0.043052167 -0.10854363 0.46230054
-0.034618311 -0.1048978 0.46433446
-0.028780792 -0.10084474 0.46779731
-0.031705383 -0.097993053 0.46154758
-0.025994269 -0.094714858 0.46520749
-0.095871732 -0.083022289 0.46523961
-0.02199468 -0.088564068 0.46204495
-0.01644362 -0.081286654 0.46404326
-0.10202143 -0.07149446 0.46414873
-0.097641155 -0.076217636 0.46434316
-0.01348635 -0.074855313 0.4642922
-0.11050494 -0.061278034 0.46155843
-0.10729198 -0.065264538 0.4656789
-0.011125784 -0.064952202 0.46291578
-0.0092809312 -0.063372947 0.46870697
-0.11077581 -0.055599473 0.4632484
-0.10892297 -0.053221215 0.46736991
-0.011502868 -0.054757308 0.46430081
-0.11038771 -0.046097513 0.46096611
-0.10825189 -0.044716146 0.46590492
-0.012526367 -0.046174463 0.46470603
-0.11008093 -0.039879076 0.46105641
-0.10635493 -0.034620102 0.46481609
-0.017208718 -0.034439381 0.46441412
-0.10231446 -0.027647659 0.46373808
-0.095420331 -0.023760218 0.46516037
-0.08783865 -0.02131113 0.46790782
-0.030542128 -0.020936782 0.4670403
-0.023472289 -0.025679195 0.46475369
-0.091041744 -0.019494133 0.46205106
-0.084521405 -0.018051077 0.46398309
-0.076626137 -0.018435705 0.46559384
-0.053561386 -0.11632477 0.47591037
-0.044527572 -0.11494522 0.4740991
-0.035615757 -0.11246232 0.47567463
-0.031975459 -0.10783117 0.47241214
-0.025544636 -0.10407761 0.47578987
-0.022300852 -0.096962094 0.47341421
-0.018239457 -0.094100408 0.47723225
-0.095012933 -0.084049731 0.47483552
-0.014303762 -0.085077561 0.47492322
-0.009487696 -0.080172889 0.47904193
-0.10117991 -0.071193539 0.4740577
-0.097818106 -0.075681113 0.47405747
-0.011069668 -0.077210002 0.47329196
-0.0087497775 -0.073889367 0.47565657
-0.10464587 -0.064597726 0.47471735
-0.0070780893 -0.064898074 0.47504005
-0.10560639 -0.055278115 0.47459698
-0.010529492 -0.050483644 0.4700394
-0.0081554707 -0.055528004 0.47478947
-0.10517776 -0.044914592 0.47463179
-0.010792593 -0.046657022 0.47270575
-0.0091761658 -0.048167612 0.47623891
-0.10264169 -0.03587658 0.47322717
-0.097644947 -0.032177057 0.47625345
-0.016070405 -0.033916704 0.47403887
-0.094443746 -0.027498022 0.47308949
-0.085023284 -0.02331819 0.47370422
-0.076387629 -0.022019293 0.47478199
-0.030447451 -0.020057429 0.4750402
-0.024926474 -0.022939473 0.47432518
-0.018799286 -0.028960492 0.47483888
-0.076116562 -0.019846234 0.47029844
-0.032303058 -0.019228393 0.47504047
-0.05530443 -0.11881152 0.48160928
-0.093171947 -0.085248537 0.48568711
-0.10043827 -0.070454925 0.48105747
-0.097484618 -0.075022995 0.48523131
-0.10114892 -0.064596049 0.48201153
-0.099161781 -0.06499026 0.48711917
-0.10145392 -0.05476179 0.48245621
-0.099461131 -0.055942837 0.48755595
-0.10194412 -0.045470461 0.48463884
-0.09910161 -0.041781321 0.48788795
-0.0067741047 -0.046028387 0.48553827
-0.10105738 -0.038792007 0.48105466
-0.095860235 -0.035154708 0.48445886
-0.089988604 -0.030834377 0.48905194
-0.013453605 -0.034846514 0.48546711
-0.091164283 -0.028807672 0.48180196
-0.085311927 -0.027049195 0.48424125
-0.076635584 -0.025006302 0.48377621
-0.023241673 -0.022265043 0.48373142
-0.017673148 -0.027209194 0.48534626
-0.033215385 -0.016347131 0.48582608
-0.028288551 -0.018456025 0.48591465
-0.091725305 -0.083097413 0.49285707
-0.085855536 -0.085517451 0.49570432
-0.094602674 -0.075167075 0.4951545
-0.096630812 -0.065337844 0.49438962
-0.097819857 -0.054666158 0.4945913
-0.096282519 -0.044797238 0.49476856
-0.092635334 -0.036276709 0.49442783
-0.086206734 -0.031781357 0.49669415
-0.078088015 -0.030137131 0.49854973
-0.083787493 -0.029248092 0.49235067
-0.077021003 -0.028007669 0.49404934
-0.021031726 -0.021307549 0.49243861
-0.032343447 -0.014117926 0.49359554
-0.024788385 -0.01688052 0.49577218
-0.091577724 -0.073092766 0.5026561
-0.092951082 -0.064790368 0.5047853
-0.094090618 -0.055036515 0.50569588
-0.092177108 -0.045929193 0.50343835
-0.087127849 -0.043097086 0.50787067
-0.090830304 -0.038097825 0.50071937
-0.085153222 -0.036368031 0.50398177
-0.076859489 -0.034557369 0.50411659
-0.032964673 -0.011789788 0.50087315
