# .PCD v0.7 - Point Cloud Data file format
VERSION 0.7
FIELDS x y z
SIZE 4 4 4
TYPE F F F
COUNT 1 1 1
WIDTH 1355
HEIGHT 1
VIEWPOINT 0 0 0 1 0 0 0
POINTS 1355
DATA ascii
0.10642672 -0.065951116 0.45923883
0.11484504 -0.064971112 0.45733342
0.12511933 -0.065003186 0.45511097
0.13467963 -0.065005608 0.45175076
0.14110488 -0.061464246 0.45091471
0.10885707 -0.058295026 0.45991918
0.11596469 -0.056180205 0.45854351
0.12519918 -0.054992791 0.45639929
0.13521338 -0.054727882 0.45358267
0.14483567 -0.054461539 0.45167676
0.15219048 -0.052057516 0.45091414
0.12727474 -0.046124429 0.45883453
0.13465677 -0.044840828 0.45526424
0.14470562 -0.045157265 0.45307812
0.15457605 -0.044879049 0.45169359
0.16042064 -0.043826684 0.45091379
0.12884378 -0.0393061 0.45991829
0.13492687 -0.03522848 0.45820358
0.14514679 -0.034692943 0.45550692
0.15426341 -0.035518471 0.4527947
0.13774374 -0.027609104 0.45985568
0.14534207 -0.025238121 0.45877451
0.15473306 -0.025348784 0.45487329
0.16077548 -0.021534398 0.45191574
0.13889624 -0.01471947 0.45985258
0.14386168 -0.016088352 0.45883337
0.15774141 -0.017534461 0.45434508
0.16225465 -0.017914237 0.45246133
0.13963583 -0.0099240579 0.45991951
0.21638422 0.077624261 0.4599174
0.21638402 0.082421258 0.45991784
0.013953676 -0.17143083 0.46100473
0.016157653 -0.16663785 0.46101919
0.018907294 -0.15327585 0.46106529
0.024817497 -0.15284698 0.46125495
0.032916918 -0.15205425 0.46097624
0.019386776 -0.14717615 0.4615896
0.025299553 -0.14504489 0.4622604
0.032298487 -0.14485359 0.46130374
0.026721112 -0.1352613 0.46238819
0.034870226 -0.1348224 0.46174282
0.044695985 -0.13447134 0.4613387
0.028613875 -0.12531003 0.46159029
0.034923978 -0.12458989 0.46292293
0.044684764 -0.12473503 0.46179309
0.052518137 -0.12221952 0.46167082
0.029204585 -0.11744408 0.46142426
0.035103217 -0.11509424 0.46511126
0.04483439 -0.11524077 0.46443668
0.054574721 -0.11482082 0.46262255
0.062137593 -0.11263967 0.46134898
0.036166459 -0.10565475 0.4647994
0.044983845 -0.10499924 0.46643034
0.05498673 -0.10503455 0.46453542
0.064681552 -0.10491184 0.46237522
0.071483321 -0.1013549 0.4612202
0.04492135 -0.094799705 0.46703199
0.054899566 -0.095244803 0.46699324
0.064862512 -0.094864801 0.46509677
0.074404985 -0.094396159 0.46240431
0.08160232 -0.09079127 0.46131983
0.045558818 -0.085343055 0.46679777
0.054944381 -0.085316151 0.46892381
0.065075062 -0.084974095 0.46704748
0.075100899 -0.084957644 0.46439263
0.082769766 -0.084396362 0.46196285
0.054129798 -0.076496951 0.46972474
0.065656662 -0.076303385 0.46944323
0.074605331 -0.074950367 0.46666884
0.085082673 -0.074905261 0.46284291
0.094192155 -0.072403893 0.46154839
0.051970147 -0.064989999 0.46818691
0.068629622 -0.065019682 0.46992391
0.075175814 -0.064881146 0.46842301
0.084930301 -0.065290257 0.46484596
0.094776452 -0.064781539 0.46273482
0.10239573 -0.063743003 0.46137115
0.068609849 -0.056977306 0.46992457
0.074837714 -0.055092949 0.46959069
0.084533423 -0.055020981 0.46659765
0.094867028 -0.054756802 0.46384737
0.10463857 -0.054798167 0.46262783
0.1130439 -0.052206267 0.46163353
0.060576558 -0.041388839 0.46992704
0.077578165 -0.048586901 0.46992415
0.085892089 -0.04642792 0.46937004
0.094996274 -0.044822603 0.4674691
0.10508882 -0.044996861 0.46558321
0.11501496 -0.045203127 0.46347228
0.12312342 -0.043767661 0.46191862
0.096608616 -0.03626769 0.46937516
0.10500018 -0.035212316 0.46750373
0.11489236 -0.03480994 0.46573207
0.12485 -0.034754273 0.46298864
0.13032545 -0.031579439 0.46091878
0.099786326 -0.029746709 0.46992296
0.10653138 -0.027884606 0.46953762
0.11516924 -0.025381623 0.46745655
0.12504013 -0.025115149 0.46362841
0.13446006 -0.024225209 0.46149036
0.1416225 -0.02172376 0.46091825
0.11740672 -0.016992293 0.46889055
0.12513296 -0.014937731 0.46648729
0.13413151 -0.014989289 0.46265826
0.12628083 -0.0047417092 0.46885279
0.1347089 -0.0048847343 0.46561289
0.12679006 0.0032485188 0.46945813
0.13338715 0.0046772608 0.46860456
0.13459809 0.012708439 0.46992224
0.18868575 0.076587446 0.4699209
0.19481017 0.076568492 0.46861583
0.2048087 0.076863006 0.46757668
0.21336928 0.078898296 0.4636102
0.19685704 0.083926305 0.46965227
0.20533217 0.084630735 0.46842617
0.21346234 0.085091002 0.46482748
0.19841965 0.090951316 0.46992093
0.20581688 0.093458183 0.46958035
0.21276742 0.093780033 0.46872708
-0.071193047 -0.18263923 0.47993156
-0.065434374 -0.18153135 0.47874036
-0.059017606 -0.18090992 0.47593009
-0.063177094 -0.17737058 0.47922724
-0.058406487 -0.17568892 0.4782638
-0.054508451 -0.16803898 0.47993067
-0.051755823 -0.15752719 0.47993127
-0.049451873 -0.1547365 0.47943121
-0.045387588 -0.14383514 0.47774416
-0.041298237 -0.13339083 0.47909871
-0.040744733 -0.12924531 0.47993237
-0.03614163 -0.12613486 0.47749874
-0.030670023 -0.11898537 0.47893196
-0.028923176 -0.1174053 0.47759855
0.056952417 -0.072959803 0.47111699
0.063062795 -0.072300188 0.4710148
0.057252534 -0.065104492 0.47228426
0.064059049 -0.064823911 0.47176453
0.058433421 -0.056358192 0.47187337
0.064510696 -0.054742035 0.47183439
0.071450219 -0.050992902 0.47092474
0.059553564 -0.047064073 0.47152668
0.065420263 -0.045470107 0.47292617
0.074565731 -0.04474666 0.47192484
0.083283 -0.042557657 0.47100732
0.090175696 -0.040861744 0.47092322
0.067511111 -0.036100749 0.47335511
0.075405985 -0.03498821 0.47459233
0.085001998 -0.034860857 0.4728967
0.092605248 -0.033896632 0.47142354
0.068893924 -0.02538492 0.47286493
0.075606219 -0.024536803 0.47583288
0.085306779 -0.024473133 0.47459722
0.095025674 -0.025085121 0.47295097
0.1043603 -0.023265129 0.4720405
0.11055227 -0.020621344 0.47142237
0.06683962 -0.013540248 0.47545049
0.074837863 -0.016303202 0.47857857
0.085258976 -0.014945486 0.47750831
0.094916023 -0.014440907 0.47400078
0.10474895 -0.014522882 0.47297043
0.11337355 -0.013963521 0.47168729
0.064367168 -0.0091075506 0.47992945
0.086404853 -0.0051099043 0.47901991
0.094773434 -0.0046803965 0.47555086
0.10504597 -0.004668341 0.47431526
0.11521041 -0.0046540182 0.4729093
0.12139863 -0.0041103745 0.47092244
0.08873152 0.0031564336 0.47972736
0.094885953 0.0050860909 0.47803432
0.10494173 0.0053511593 0.47602555
0.11523556 0.0050870422 0.47389504
0.12360992 0.0066690808 0.47142306
0.13130918 0.0094849346 0.47092235
0.096974507 0.014886688 0.47909403
0.10489843 0.015101525 0.47711214
0.11527424 0.015303804 0.47640982
0.12502851 0.015020112 0.47300813
0.1312785 0.015228745 0.4712562
0.097620994 0.023141894 0.47970575
0.10478928 0.02364938 0.47899702
0.1155205 0.024292924 0.47940496
0.12464808 0.025105171 0.476008
0.13268779 0.025502095 0.4730815
0.11900958 0.031356301 0.47992596
0.12569411 0.034555066 0.47824189
0.13463393 0.03514415 0.47494012
0.14048268 0.036996864 0.47412366
0.12826984 0.043800976 0.47969055
0.13477385 0.045014262 0.47799972
0.14215419 0.04613718 0.47760281
0.13581115 0.055273063 0.47932971
0.14473063 0.055378962 0.47758144
0.15291044 0.057226591 0.47601908
0.13707612 0.062411457 0.47910285
0.14515343 0.064827397 0.47884488
0.15472367 0.0651628 0.47688031
0.16429584 0.067590185 0.47592339
0.17177677 0.068589583 0.47417241
0.1480242 0.073434211 0.47957298
0.1551061 0.074818708 0.47920844
0.16479278 0.074797109 0.47655404
0.17473568 0.075243451 0.47359389
0.18365997 0.076686308 0.47143373
0.15905198 0.08245638 0.4799253
0.16540819 0.084881596 0.47843221
0.17476949 0.085140824 0.47402349
0.18497971 0.085126422 0.47158876
0.19258873 0.085937247 0.47092125
0.16728742 0.094861232 0.47986647
0.17482919 0.094953962 0.47718832
0.1850625 0.095307358 0.4738923
0.19461752 0.09518683 0.47190678
0.20261046 0.097388089 0.47112098
0.16894309 0.102628 0.47992584
0.17583881 0.10491429 0.47918272
0.18500668 0.10501487 0.47684056
0.19499323 0.10493021 0.47521293
0.20349105 0.10520947 0.47358826
0.17839985 0.11191329 0.47883454
0.18528868 0.11435935 0.4773837
0.19481511 0.11496989 0.47539654
0.2025581 0.11329226 0.47570497
-0.11057393 -0.18687162 0.48993629
-0.10392367 -0.18417937 0.48910812
-0.0952935 -0.18307377 0.48736328
-0.085094661 -0.18240206 0.48427629
-0.075674035 -0.18184413 0.48155728
-0.093224257 -0.17673977 0.48900893
-0.08500772 -0.17515698 0.48693401
-0.075067244 -0.17488469 0.48375532
-0.066619195 -0.17384481 0.48174122
-0.058383871 -0.17089722 0.48093092
-0.083252497 -0.16574621 0.4890427
-0.074761719 -0.16498786 0.48635384
-0.064916 -0.1648811 0.48299688
-0.056870263 -0.16480052 0.48100281
-0.081512883 -0.15780818 0.4899351
-0.074889198 -0.15556049 0.48872757
-0.06496834 -0.15475057 0.48549777
-0.055569887 -0.15496011 0.4817456
-0.049606703 -0.15083291 0.48093158
-0.072108366 -0.14752528 0.48957768
-0.064755537 -0.14495631 0.48747826
-0.054847445 -0.14505106 0.48343274
-0.04835299 -0.14377084 0.48093209
-0.063555814 -0.13582161 0.48885971
-0.054992974 -0.13476935 0.48585683
-0.046269227 -0.13516255 0.48261178
-0.053226691 -0.12634233 0.48844704
-0.04499751 -0.12484898 0.4847666
-0.037460554 -0.12233298 0.48229617
-0.043516815 -0.11583007 0.48822281
-0.035203021 -0.11529714 0.4853566
-0.029748917 -0.11398717 0.48426566
-0.040777855 -0.10906468 0.48933417
-0.034997091 -0.10540152 0.48833764
-0.028289834 -0.10349674 0.4870759
-0.032250296 -0.096723303 0.48936272
-0.025462311 -0.095038399 0.4881835
-0.019399084 -0.091234617 0.48859966
-0.022969166 -0.087933846 0.48943377
-0.017258484 -0.084729545 0.48930004
-0.013491434 -0.075503103 0.48993364
-0.0118311 -0.066530749 0.48993421
-0.0083821518 -0.061676253 0.48993421
-0.0042735762 -0.054719903 0.48932719
-0.0010374286 -0.045068957 0.48993474
0.00055751001 -0.041746393 0.48843485
0.0052503617 -0.03534314 0.48849729
0.0090501383 -0.029233137 0.48860154
0.0107782 -0.023351643 0.48993516
0.014163665 -0.015243049 0.48926878
0.068890341 -0.010380346 0.48092875
0.075077802 -0.011455978 0.48097548
0.081221327 -0.010797843 0.48092711
0.037373621 -0.00035405697 0.48693374
0.046707485 -0.0015143037 0.48920515
0.055372369 -0.0038363624 0.4859924
0.065148026 -0.0045526517 0.48421758
0.07534191 -0.0046819593 0.48266688
0.082037464 -0.0039312285 0.48116571
0.034060504 0.0016112 0.48738891
0.049101043 0.00092167896 0.48993233
0.055501841 0.0048196441 0.48877797
0.064686701 0.0053670937 0.48707122
0.074783459 0.0052021099 0.48501894
0.084304407 0.0058342149 0.48226714
0.090834476 0.0096845077 0.48092771
0.058362208 0.01146111 0.48993206
0.066306472 0.013934438 0.48924556
0.075027131 0.0152302 0.4871636
0.08511398 0.015431176 0.48409563
0.092558838 0.015833167 0.48128513
0.067552947 0.024530413 0.48943204
0.074667551 0.024705609 0.48703119
0.085154787 0.02522202 0.48421335
0.094179831 0.026381856 0.4818871
0.10539543 0.028688924 0.48116562
0.11348405 0.028338643 0.48092639
0.068705261 0.031725444 0.48968256
0.075553291 0.033844355 0.4884896
0.084822528 0.034946259 0.4869476
0.09488 0.035108674 0.48560792
0.10474205 0.034918848 0.48391059
0.11507466 0.035416599 0.48243478
0.12223353 0.038544007 0.48112622
0.086955085 0.043254677 0.48926446
0.095312886 0.044803981 0.48783654
0.10488454 0.044546001 0.4850384
0.11446153 0.044613857 0.48340315
0.12381911 0.045736726 0.48167661
0.089977592 0.055215437 0.48993188
0.095363297 0.055010479 0.48810303
0.1049236 0.054544915 0.48522013
0.11476526 0.054459177 0.48381743
0.12490888 0.054644402 0.48239601
0.13141656 0.055058073 0.48092651
0.089977354 0.060964011 0.48993239
0.095575944 0.06104479 0.48853168
0.10195167 0.06114943 0.48733085
0.13221431 0.061100092 0.4809269
0.15353149 0.079910919 0.48092586
0.15685922 0.084541202 0.48092574
0.16136864 0.088375725 0.48092556
0.15938301 0.09161514 0.48092613
0.16342352 0.094819978 0.48092589
-0.14524563 -0.19045784 0.49934047
-0.14261909 -0.18608597 0.49946234
-0.13512835 -0.18495026 0.49728391
-0.12490213 -0.184448 0.49456987
-0.11515065 -0.18401283 0.49277046
-0.1075033 -0.1820278 0.49156791
-0.13376693 -0.17647478 0.49933499
-0.1250689 -0.17492782 0.49719787
-0.11513612 -0.17483507 0.49468797
-0.10488521 -0.17509116 0.49292076
-0.096641049 -0.17339809 0.4915843
-0.13108054 -0.16982959 0.49994045
-0.12408337 -0.16723654 0.49935913
-0.11491119 -0.16527109 0.49782589
-0.1051226 -0.16483556 0.49576306
-0.09471909 -0.16527848 0.49267766
-0.087461948 -0.1637187 0.49106038
-0.11213929 -0.15587878 0.49954647
-0.10442824 -0.155021 0.49678746
-0.094755493 -0.15494998 0.49288625
-0.085135236 -0.15426369 0.4912217
-0.077945955 -0.15098305 0.4909353
-0.11022501 -0.14558306 0.49993992
-0.10470032 -0.14527377 0.49843934
-0.094869055 -0.14483719 0.49559942
-0.085160516 -0.14488403 0.49413967
-0.075873196 -0.14419441 0.49204665
-0.10332683 -0.13805804 0.4994953
-0.094765879 -0.13510141 0.49852908
-0.084970653 -0.13487186 0.49706259
-0.075139135 -0.13494748 0.49418625
-0.067771994 -0.13359746 0.49153554
-0.093094312 -0.12791614 0.4997628
-0.084326163 -0.12524939 0.49882078
-0.075072654 -0.12531708 0.49649268
-0.064987786 -0.12501985 0.49391925
-0.057293817 -0.12325538 0.49200171
-0.081343636 -0.11505078 0.49951783
-0.074600965 -0.11508712 0.49751994
-0.06469509 -0.11473081 0.49562424
-0.054819036 -0.11525238 0.49354953
-0.047774974 -0.11333057 0.49155372
-0.081060432 -0.10676128 0.49979678
-0.074804328 -0.10497735 0.49840331
-0.064931564 -0.10479598 0.49610451
-0.05474475 -0.10525244 0.49438089
-0.045244262 -0.10485697 0.49268925
-0.038705822 -0.10173283 0.49110126
-0.073421896 -0.096581608 0.49916178
-0.064798839 -0.094764598 0.49758568
-0.055041958 -0.095412597 0.49599078
-0.045218799 -0.095148444 0.49460787
-0.036032245 -0.093752481 0.49223727
-0.028879121 -0.091244534 0.49093422
-0.063686244 -0.087707974 0.49955022
-0.054584458 -0.085817628 0.49871156
-0.045095626 -0.085340932 0.49657017
-0.034806699 -0.084851943 0.49421245
-0.025985176 -0.084104486 0.49173
-0.019919032 -0.081643656 0.49093392
-0.0520395 -0.075505398 0.4994387
-0.044837419 -0.074956104 0.49752694
-0.034955334 -0.074626565 0.49534276
-0.024974857 -0.075138986 0.49251193
-0.017190762 -0.074468426 0.49093422
-0.050917428 -0.069454372 0.49993905
-0.044042751 -0.066715218 0.49897069
-0.035111539 -0.064576872 0.49756238
-0.024985995 -0.065080345 0.49424249
-0.015910715 -0.064882241 0.49132261
-0.033516303 -0.05554742 0.49960476
-0.024608796 -0.05534827 0.49754974
-0.01488881 -0.055062592 0.49368554
-0.0077131614 -0.053094134 0.49130979
-0.032360155 -0.047293577 0.49993867
-0.024510292 -0.045794763 0.49932376
-0.014984363 -0.045052726 0.49684733
-0.005799531 -0.044389706 0.49281043
-0.021154715 -0.038602915 0.49993792
-0.014671631 -0.035257813 0.49863738
-0.0052500879 -0.034546625 0.49482685
0.0019159637 -0.033659291 0.49122956
-0.011588458 -0.02858942 0.49960425
-0.0045763557 -0.025615044 0.49837184
0.0048657982 -0.025280751 0.49421436
0.011456704 -0.021512315 0.49168524
-0.0022445219 -0.016043847 0.4994576
0.005087201 -0.015243441 0.49640545
0.012150692 -0.014004478 0.49383584
-0.00073393097 -0.0088381115 0.49993795
0.0058206441 -0.0056156535 0.49903345
0.013958205 -0.0049417829 0.49783882
0.021705519 -0.00068938988 0.49893576
0.038960785 -0.00035692952 0.49093357
0.042435277 -0.0007225218 0.49093303
0.0096939234 0.00093880109 0.49993747
0.016926128 0.0048942976 0.4996776
0.024592008 0.005246914 0.49722433
0.03469855 0.0062261531 0.49357626
0.044734757 0.0054885824 0.49190152
0.051547792 0.0078573534 0.49093261
0.018157063 0.010710603 0.49968722
0.025380796 0.013602678 0.49863231
0.034844678 0.015169589 0.49620327
0.044949912 0.015085249 0.49350554
0.054755285 0.015296136 0.49152905
0.0629825 0.016713452 0.49097955
0.028811574 0.020927066 0.49993679
0.035434533 0.02466606 0.4988327
0.045212865 0.024883069 0.49638811
0.055263314 0.02474745 0.4936837
0.06267985 0.024621511 0.49124518
0.038276881 0.0338508 0.49962094
0.04548648 0.035202354 0.49801651
0.055416174 0.035114512 0.49569651
0.064806879 0.035481185 0.49267024
0.073368587 0.038506363 0.49134922
0.046909738 0.043798845 0.49918655
0.054649252 0.045187254 0.49748269
0.064539738 0.044881906 0.49571994
0.074827105 0.045161445 0.49373311
0.0834895 0.046883602 0.49179685
0.048586674 0.053008273 0.49927044
0.054865994 0.054396708 0.49755046
0.064658538 0.054673262 0.49662256
0.074713618 0.055065453 0.49514434
0.084789127 0.055174302 0.49223268
0.056431174 0.060872428 0.49665102
0.0646661 0.060507651 0.49668565
0.074798666 0.060325377 0.49518433
0.083988138 0.060790196 0.49229681
-0.19120634 -0.19350499 0.50994623
-0.18529727 -0.19223748 0.50923121
-0.1758786 -0.19206649 0.50790256
-0.16579276 -0.19160919 0.50500184
-0.15563443 -0.19105013 0.50248027
-0.14962775 -0.19106822 0.50094104
-0.18285704 -0.18700024 0.50983459
-0.17489873 -0.18506172 0.50851345
-0.16491666 -0.18491618 0.50602418
-0.15485267 -0.1850218 0.50376678
-0.14691181 -0.18431835 0.50150013
-0.17308937 -0.17851564 0.50958806
-0.16477203 -0.17535296 0.50870907
-0.15500696 -0.1750765 0.50569308
-0.14494857 -0.1750156 0.5028168
-0.13706961 -0.17272761 0.5011149
-0.16243137 -0.16605306 0.50953317
-0.15512182 -0.16505966 0.50743532
-0.14491972 -0.16513655 0.5051524
-0.13464266 -0.16487376 0.50255543
-0.12596846 -0.16276592 0.50120711
-0.1195878 -0.16102581 0.50093979
-0.15389661 -0.15546262 0.50946748
-0.14496413 -0.15501791 0.50754011
-0.13490017 -0.15492108 0.50446022
-0.12510897 -0.1547742 0.50266528
-0.11697908 -0.15439777 0.50111163
-0.15231729 -0.14853437 0.50994521
-0.14479497 -0.14527483 0.50882447
-0.13492049 -0.14500752 0.50672287
-0.12469327 -0.14507017 0.50467515
-0.11497226 -0.14485936 0.50190139
-0.10913954 -0.14012718 0.50094032
-0.14184704 -0.13915551 0.50994462
-0.13423063 -0.13615015 0.50959516
-0.12507091 -0.13495643 0.50745159
-0.11510173 -0.13510542 0.50415581
-0.10624786 -0.13387895 0.50201368
-0.099561542 -0.13141918 0.50093985
-0.13148771 -0.12779805 0.50994432
-0.1253124 -0.12502004 0.50888491
-0.11546563 -0.12498678 0.50574613
-0.104989 -0.12517795 0.50304449
-0.095754273 -0.12416109 0.50157428
-0.088259935 -0.12186442 0.50103927
-0.12253424 -0.11741231 0.5094704
-0.11469623 -0.11497098 0.50776792
-0.10497735 -0.11526761 0.50500751
-0.095272832 -0.11535744 0.50406361
-0.086823478 -0.11485612 0.50174463
-0.11442024 -0.10526536 0.50922072
-0.10509928 -0.10518487 0.50736588
-0.095250688 -0.10485254 0.50485682
-0.08598914 -0.10453785 0.50185347
-0.11110166 -0.098767579 0.50994432
-0.1038446 -0.097541481 0.50919342
-0.094797052 -0.095082708 0.50804955
-0.084906273 -0.094980717 0.50449294
-0.076664068 -0.093430944 0.50149202
-0.10046557 -0.080817521 0.5099445
-0.094996832 -0.085114412 0.50927001
-0.085173607 -0.085137546 0.5067265
-0.075135 -0.084996507 0.50398916
-0.065518312 -0.083470851 0.50193977
-0.058094576 -0.081482105 0.50102985
-0.10046565 -0.078823112 0.50994468
-0.09416157 -0.077963315 0.50940228
-0.084494025 -0.076521918 0.508672
-0.074837968 -0.075121447 0.5074417
-0.065243252 -0.074739501 0.50485116
-0.057508431 -0.07457111 0.50184274
-0.074074142 -0.06532234 0.5093472
-0.065338232 -0.064790092 0.5069043
-0.055027939 -0.065264009 0.503371
-0.046348788 -0.06266585 0.50153911
-0.072535604 -0.056388315 0.50987637
-0.064899877 -0.055224415 0.508313
-0.054816443 -0.05510176 0.50581586
-0.045343112 -0.054807443 0.50311822
-0.038393881 -0.053647 0.50093883
-0.071405664 -0.046341632 0.50994378
-0.064984664 -0.044865981 0.50854617
-0.054899029 -0.044618487 0.5065847
-0.045238715 -0.044940013 0.50423467
-0.036297474 -0.044240911 0.50134969
-0.027416602 -0.041230466 0.50093853
-0.062644213 -0.037800264 0.50961012
-0.054710221 -0.035297491 0.50882632
-0.044985902 -0.035362996 0.50648814
-0.034974754 -0.035255693 0.50497574
-0.025365142 -0.034701005 0.50250775
-0.01814964 -0.031278554 0.50093824
-0.052017838 -0.028287938 0.50980008
-0.044798274 -0.025191832 0.50828117
-0.035089448 -0.024807571 0.50663739
-0.025125997 -0.024746271 0.50543964
-0.015484338 -0.02453362 0.50240904
-0.0085716415 -0.022570569 0.50093782
-0.042067952 -0.017934375 0.5093869
-0.034544483 -0.01585285 0.50859046
-0.025169179 -0.014891078 0.50628
-0.015053736 -0.01501241 0.50346857
-0.0072737955 -0.014946782 0.50137424
-0.03132917 -0.0090161609 0.50994194
-0.024577031 -0.0058497749 0.50825506
-0.015267791 -0.0049832882 0.50629741
-0.0054850793 -0.0048268954 0.50311625
0.0020944115 -0.0018896642 0.50102156
-0.021357559 0.00095626374 0.50994158
-0.013728936 0.004209531 0.50924075
-0.0048164297 0.0048361127 0.5063597
0.0050716107 0.0049526123 0.50268382
0.012445203 0.0048006289 0.50098288
-0.011485181 0.014934126 0.50958151
-0.0047250721 0.01486644 0.50813705
0.005183382 0.01479151 0.50551742
0.014735783 0.015015587 0.50274575
0.022407088 0.017628858 0.50134903
-0.010499988 0.021787144 0.509942
-0.0040687518 0.024047181 0.50909925
0.0052013765 0.024759164 0.50717235
0.01517573 0.025138004 0.50497597
0.02458334 0.025370883 0.50215077
0.031263519 0.028370468 0.50093716
0.0068198889 0.032700133 0.50937402
0.015003525 0.035167497 0.50768495
0.024895119 0.035142217 0.50433141
0.033600859 0.03546517 0.50188345
0.015974287 0.044463955 0.50911558
0.025205066 0.044864468 0.5071767
0.035419427 0.04501361 0.50442249
0.043129388 0.046223786 0.50166792
0.017636247 0.050579946 0.50977427
0.024891719 0.052907817 0.50896955
0.035499878 0.05170111 0.50556362
0.043798044 0.051381905 0.50243759
-0.22403942 -0.19333401 0.51924682
-0.21515815 -0.19302617 0.51689065
-0.20522033 -0.19309138 0.51386476
-0.19599347 -0.19285136 0.51144689
-0.2232762 -0.18834507 0.51986754
-0.214232 -0.18594569 0.51904303
-0.20488189 -0.18536453 0.51628876
-0.19513144 -0.18507756 0.513394
-0.18596733 -0.18392719 0.51135665
-0.17925885 -0.18022878 0.51094586
-0.21164085 -0.17614119 0.5196647
-0.20510237 -0.17501886 0.51750284
-0.19525824 -0.17521593 0.51489079
-0.18538351 -0.17497988 0.51314354
-0.17613849 -0.17411017 0.51167941
-0.16904557 -0.17179103 0.51094526
-0.21088547 -0.16984753 0.51995093
-0.20423788 -0.16642511 0.51903373
-0.19503327 -0.1651101 0.51739192
-0.1848623 -0.16500042 0.51515841
-0.17489226 -0.16497971 0.51355368
-0.16639045 -0.16419303 0.51163125
-0.19246833 -0.15821427 0.51983845
-0.184331 -0.15565531 0.51839769
-0.17458835 -0.15521641 0.51492566
-0.16513918 -0.15508142 0.51218158
-0.15872167 -0.15436088 0.5109455
-0.18220779 -0.14798413 0.51934922
-0.1748465 -0.14523154 0.51751703
-0.16491857 -0.14497919 0.51416028
-0.15565155 -0.14475337 0.51168513
-0.14861962 -0.14102252 0.51094538
-0.17113781 -0.1372713 0.51980579
-0.16505426 -0.13493584 0.51802808
-0.15495861 -0.13513912 0.51428592
-0.14525068 -0.13430145 0.51204354
-0.13765486 -0.13257498 0.51094472
-0.16329232 -0.12557842 0.51909572
-0.15484115 -0.12490297 0.51673615
-0.14520667 -0.12523843 0.51388377
-0.1358972 -0.12472184 0.51158506
-0.12996948 -0.12160956 0.51094466
-0.16166626 -0.11697428 0.51994932
-0.15489909 -0.11493899 0.51831394
-0.14460713 -0.11505658 0.51509529
-0.13498668 -0.11475623 0.51325506
-0.12618595 -0.11394349 0.51166278
-0.15207021 -0.10821307 0.51954877
-0.14486715 -0.10628384 0.51881474
-0.13515002 -0.10496884 0.51735413
-0.12500514 -0.105111 0.5131343
-0.11803201 -0.10152152 0.51116711
-0.13337134 -0.097875118 0.51932228
-0.124732 -0.095345803 0.51713502
-0.11503332 -0.094711259 0.51327842
-0.10598845 -0.093480386 0.51115841
-0.13144657 -0.083216801 0.51994836
-0.12512647 -0.085033998 0.51781529
-0.11447004 -0.084970854 0.51369101
-0.1048773 -0.085177287 0.51127797
-0.099330097 -0.086304761 0.51094389
-0.1309045 -0.078336351 0.51994872
-0.12404765 -0.076236971 0.51850367
-0.11495794 -0.074938662 0.51528615
-0.10508762 -0.074473627 0.51267296
-0.095628813 -0.072825126 0.51214969
-0.086035088 -0.07192748 0.51109719
-0.12005947 -0.069524035 0.51994807
-0.11348464 -0.066635028 0.51894748
-0.10489308 -0.065016329 0.51752341
-0.094682939 -0.06508214 0.51533735
-0.084932506 -0.065178111 0.51246172
-0.078502551 -0.063379303 0.51101458
-0.10331366 -0.056394368 0.51907605
-0.095195651 -0.055015501 0.51741046
-0.085387476 -0.054948609 0.51428449
-0.076604061 -0.054383393 0.51144367
-0.094844066 -0.045344952 0.51882786
-0.085309297 -0.045055628 0.51565731
-0.075931035 -0.044798627 0.51194459
-0.09261997 -0.036692236 0.51962751
-0.084760085 -0.034762055 0.51809204
-0.074855953 -0.034827467 0.51489264
-0.065454572 -0.034149446 0.5120793
-0.058477897 -0.031904545 0.51094347
-0.09023641 -0.02681911 0.51994801
-0.084702753 -0.024752198 0.51925373
-0.075044863 -0.024823597 0.51856631
-0.065307416 -0.025248619 0.51573068
-0.055618688 -0.024429182 0.51202065
-0.048708804 -0.021024436 0.51094311
-0.084077477 -0.018241841 0.51983035
-0.074375436 -0.016922055 0.51994687
-0.065212078 -0.01508946 0.51820993
-0.0547809 -0.015298435 0.51500213
-0.045440517 -0.014408571 0.51274329
-0.037521865 -0.012261014 0.51127577
-0.072908208 -0.0061591282 0.51994759
-0.06506525 -0.0051169498 0.51919669
-0.054785777 -0.0051055918 0.51799887
-0.045150198 -0.0050835866 0.51589048
-0.035292443 -0.0047306269 0.51282209
-0.027252473 -0.0014105575 0.5110532
-0.062138177 0.00220576 0.51994699
-0.054745149 0.0049422788 0.5184046
-0.045234796 0.005013437 0.51688373
-0.034971077 0.0049911798 0.51455069
-0.024935814 0.0051397965 0.51219767
-0.017627595 0.0071764337 0.51100832
-0.053240769 0.012484541 0.51939672
-0.045280717 0.015075602 0.51823682
-0.03503162 0.015079369 0.5154134
-0.024823913 0.015000464 0.5128004
-0.01680848 0.01493186 0.51101911
-0.042379949 0.022556175 0.51966047
-0.034444451 0.025199438 0.51796621
-0.024903908 0.025112106 0.51443398
-0.015008147 0.025162827 0.5118674
-0.0070518376 0.027734315 0.5111239
-0.033019047 0.033760767 0.51930302
-0.025044974 0.034696609 0.51735318
-0.014676008 0.034888037 0.51484358
-0.0047707441 0.035080638 0.51306748
0.0038353065 0.036857288 0.51155913
-0.024399484 0.04435898 0.51859808
-0.015109305 0.045132793 0.51742798
-0.0047917888 0.045297261 0.51518822
0.0052537997 0.045065414 0.5125491
0.011681948 0.046254601 0.51094127
-0.022840185 0.053327248 0.51900893
-0.014672367 0.052657183 0.51748377
-0.0046843779 0.053530019 0.51580524
0.0055756927 0.054876331 0.51385814
0.014969682 0.055536989 0.51198173
0.021329949 0.056358006 0.51108378
0.0056472686 0.061305676 0.51427674
0.014910628 0.062377803 0.51335406
-0.27090016 -0.20075101 0.52995598
-0.26637846 -0.20046675 0.52920538
-0.27055481 -0.19833295 0.5299561
-0.26417869 -0.19548537 0.52908051
-0.25502592 -0.19508061 0.52701318
-0.2451794 -0.19483615 0.52492988
-0.23497479 -0.19443317 0.52226132
-0.22860807 -0.19428432 0.52095103
-0.26157385 -0.18935123 0.5299558
-0.25417909 -0.18564887 0.52903211
-0.24497904 -0.18482029 0.52603245
-0.23493512 -0.1853223 0.52287567
-0.22534622 -0.18361053 0.52148491
-0.21793772 -0.18234774 0.52110457
-0.25104752 -0.17802168 0.52975547
-0.24464189 -0.17550273 0.5289315
-0.23515962 -0.17508955 0.52667779
-0.22503535 -0.17474471 0.52449071
-0.21638595 -0.17481573 0.52172256
-0.23427428 -0.16519314 0.52897763
-0.22484592 -0.16485368 0.52564365
-0.21539249 -0.1648104 0.52258229
-0.20665342 -0.16249175 0.52099866
-0.23241542 -0.1569629 0.52974057
-0.22487025 -0.15513112 0.52750516
-0.21488221 -0.15515439 0.52451879
-0.20500499 -0.15519351 0.52261806
-0.19565289 -0.15398528 0.52163118
-0.18875578 -0.15204221 0.52107459
-0.22358513 -0.14583479 0.52930957
-0.21470091 -0.1453357 0.52689481
-0.2049249 -0.14503177 0.5251931
-0.19480647 -0.14496227 0.52363199
-0.18544346 -0.14435472 0.52171731
-0.17767474 -0.1406302 0.52094924
-0.22092967 -0.13834022 0.52995503
-0.21486223 -0.13472553 0.52870971
-0.20487607 -0.13508093 0.52595323
-0.19488332 -0.13504122 0.5243091
-0.18509042 -0.1349096 0.52345967
-0.17537926 -0.13459568 0.52156842
-0.21274893 -0.12810332 0.52984375
-0.20454359 -0.12638257 0.52908218
-0.19516097 -0.12496916 0.52760732
-0.18494879 -0.12518324 0.52481818
-0.17518511 -0.12506995 0.52262884
-0.16803829 -0.12359535 0.52107447
-0.19465779 -0.1151235 0.52888709
-0.18491548 -0.1148202 0.5257324
-0.17516442 -0.11518995 0.52336425
-0.16609251 -0.11449036 0.52128339
-0.15967879 -0.11040773 0.52094954
-0.19436966 -0.10545821 0.52953994
-0.18481903 -0.10531145 0.52766758
-0.17495048 -0.10506152 0.52556318
-0.16511513 -0.10477412 0.52310455
-0.15570551 -0.10458741 0.52139139
-0.14564358 -0.10157833 0.52094859
-0.1829401 -0.097899109 0.52970374
-0.17496279 -0.094921663 0.52812678
-0.16510171 -0.095034771 0.52549154
-0.15514664 -0.095334403 0.52398598
-0.14518705 -0.095074557 0.52255625
-0.13590021 -0.093490042 0.52129793
-0.1297974 -0.091390602 0.5209474
-0.17214097 -0.086765207 0.52937442
-0.16476873 -0.084826656 0.52780157
-0.15523842 -0.085365154 0.52529901
-0.14528114 -0.084915817 0.52288878
-0.13619052 -0.084947497 0.52115393
-0.16343966 -0.075917639 0.5293324
-0.15500444 -0.075006157 0.52732462
-0.14510901 -0.074945942 0.52473652
-0.13523927 -0.07465224 0.52248806
-0.12724274 -0.072824165 0.52117944
-0.16105688 -0.069480896 0.52995342
-0.15413852 -0.066260688 0.52978146
-0.14505373 -0.065272018 0.52799517
-0.13481633 -0.0649518 0.52512687
-0.12488955 -0.065045737 0.52282178
-0.11617206 -0.062559299 0.52144825
-0.15000334 -0.059117369 0.52995294
-0.14407669 -0.05513116 0.529185
-0.13516158 -0.05545745 0.52663219
-0.12533176 -0.055138923 0.52499092
-0.11534768 -0.054944072 0.52315289
-0.10740718 -0.053409792 0.52146953
-0.14293571 -0.044705171 0.52965915
-0.13461287 -0.044958074 0.52827293
-0.124802 -0.045141511 0.52703708
-0.11474586 -0.044841111 0.52476096
-0.10532041 -0.045366541 0.52210063
-0.09952911 -0.043267436 0.52094775
-0.14136828 -0.038736299 0.52995366
-0.13403276 -0.037626918 0.52990282
-0.12461344 -0.03509409 0.52875614
-0.11464257 -0.034682956 0.52617502
-0.10472045 -0.034988753 0.52342087
-0.096410282 -0.033871308 0.52134216
-0.12190916 -0.028487572 0.52995199
-0.11496274 -0.025390301 0.52888602
-0.10506087 -0.025086354 0.52627659
-0.094911903 -0.024810715 0.52231044
-0.11441188 -0.014965924 0.52861184
-0.10505618 -0.015361309 0.52585095
-0.094908789 -0.015390554 0.52325583
-0.085416958 -0.013762424 0.52129227
-0.076125056 -0.014200633 0.52094728
-0.11265496 -0.0069438308 0.52920276
-0.10491581 -0.0053507113 0.52700955
-0.095232502 -0.0051755463 0.52505767
-0.085374773 -0.0051578367 0.52336007
-0.077198513 -0.0044182832 0.52122116
-0.10251617 0.0020943494 0.5294522
-0.094396286 0.0042922497 0.52845132
-0.084822513 0.0050564772 0.52655011
-0.074674398 0.0050071673 0.52410883
-0.065414682 0.0058869836 0.52197397
-0.059170924 0.0091250036 0.52094722
-0.083390929 0.011352258 0.5298506
-0.075018629 0.014624247 0.52852428
-0.065047972 0.01465931 0.52447909
-0.056023035 0.016238132 0.52139908
-0.049663406 0.019991633 0.52094692
-0.074716881 0.024687111 0.52880484
-0.065214977 0.024980303 0.52584231
-0.055508774 0.025052261 0.52361476
-0.045783337 0.02640054 0.52166128
-0.038797557 0.029500036 0.52094638
-0.073613212 0.033875927 0.52975899
-0.065452352 0.035390604 0.52774638
-0.055318668 0.035343278 0.52504706
-0.04490805 0.034942314 0.52292913
-0.036881756 0.036380652 0.52127999
-0.063840441 0.044057306 0.52949929
-0.054740969 0.044852637 0.5275653
-0.044680487 0.044895966 0.52621388
-0.034901496 0.044665463 0.52351862
-0.028480988 0.047710981 0.52104664
-0.052685156 0.053799074 0.52995038
-0.044920966 0.054786574 0.52903104
-0.034939699 0.054703366 0.52612448
-0.027580319 0.055582628 0.52246726
-0.052881993 0.06275627 0.52953017
-0.044271063 0.0640544 0.52664572
-0.036108982 0.063415639 0.52659619
-0.029571829 0.061323769 0.52594805
-0.30107328 -0.20223969 0.53945982
-0.29425514 -0.20189849 0.53690004
-0.28499672 -0.2014091 0.53395778
-0.27675301 -0.20095015 0.53152812
-0.30064821 -0.19820464 0.53996009
-0.29441512 -0.19525112 0.53861862
-0.28481609 -0.19487566 0.53585833
-0.27519944 -0.19449131 0.53312713
-0.26802123 -0.19175267 0.5314008
-0.29173246 -0.18811494 0.53995985
-0.28440341 -0.18534106 0.53907537
-0.27516744 -0.1850463 0.5368709
-0.26531297 -0.18476698 0.53369582
-0.25803965 -0.18271506 0.53135592
-0.28217155 -0.17620683 0.53995961
-0.27517062 -0.17500362 0.53854579
-0.2650362 -0.17506611 0.53601998
-0.2555137 -0.17485107 0.53263187
-0.2478016 -0.17174985 0.53095555
-0.28094 -0.16934367 0.53996009
-0.27477866 -0.16504395 0.53898591
-0.26544923 -0.16503212 0.53593564
-0.2548829 -0.16491053 0.53307253
-0.2450676 -0.16490206 0.53184038
-0.23888059 -0.16236664 0.53095526
-0.2724224 -0.15670069 0.53948957
-0.26467839 -0.15506278 0.5379594
-0.25511551 -0.15490377 0.53615409
-0.24521561 -0.1549861 0.53461128
-0.23601027 -0.15421131 0.53219092
-0.26227725 -0.14690486 0.53988278
-0.25504324 -0.14508986 0.53877532
-0.24487877 -0.14489688 0.53704453
-0.23536991 -0.14495157 0.53449804
-0.22752017 -0.14335568 0.53142601
-0.2543169 -0.1381613 0.53943312
-0.24471308 -0.13535948 0.53821927
-0.23476456 -0.13495287 0.53609049
-0.22554164 -0.13452965 0.53270602
-0.21950099 -0.13052578 0.53095555
-0.24231878 -0.12688673 0.53977138
-0.23528217 -0.12501305 0.53811723
-0.22507475 -0.12495735 0.53466511
-0.21580116 -0.12426604 0.53198129
-0.20707022 -0.12223543 0.53102612
-0.2339659 -0.11566519 0.53913021
-0.22528644 -0.11474638 0.53644663
-0.21494304 -0.11514491 0.53389978
-0.20491776 -0.11499719 0.53175497
-0.23096505 -0.1088056 0.53995901
-0.22390321 -0.10675254 0.53844112
-0.21544556 -0.10512325 0.53639919
-0.20469621 -0.10493221 0.53244656
-0.19545193 -0.10050323 0.53105509
-0.21309538 -0.096281767 0.53847635
-0.20490921 -0.094763041 0.53623694
-0.19513389 -0.094980113 0.53415954
-0.18585379 -0.093982168 0.53213626
-0.17935646 -0.090377986 0.53095394
-0.20323238 -0.085808292 0.53962409
-0.1949828 -0.085197575 0.53777647
-0.18515688 -0.084850043 0.53524369
-0.17629367 -0.084118932 0.53191692
-0.20069829 -0.078536361 0.53995776
-0.19416992 -0.07611303 0.53947139
-0.18498522 -0.0747431 0.53779697
-0.17537655 -0.074862584 0.53467476
-0.16782643 -0.073777698 0.5315854
-0.18345961 -0.066124819 0.53950846
-0.17509541 -0.064742759 0.53732777
-0.16516198 -0.064750604 0.53354639
-0.15712541 -0.062439427 0.53145355
-0.18098965 -0.059530072 0.53995693
-0.17432001 -0.055711992 0.5391314
-0.16493264 -0.054793235 0.53652346
-0.1548712 -0.05488193 0.53301644
-0.14841819 -0.052491955 0.53107834
-0.17216963 -0.047062017 0.53980309
-0.16480938 -0.045255866 0.53767037
-0.15457314 -0.04493019 0.53378803
-0.14812806 -0.044432409 0.53115398
-0.16458552 -0.035928953 0.5392983
-0.15493234 -0.035155389 0.53615576
-0.14528954 -0.034961253 0.53293073
-0.135886 -0.033211015 0.53212577
-0.12906079 -0.031310312 0.53095263
-0.16280031 -0.026651446 0.53985751
-0.15524672 -0.024968568 0.53854603
-0.14504921 -0.024979975 0.53690088
-0.13478345 -0.025413075 0.53499562
-0.12549624 -0.024950985 0.53211498
-0.11983214 -0.02254238 0.53095227
-0.15249321 -0.016786743 0.53981417
-0.14484663 -0.014828224 0.53879714
-0.13522477 -0.015098954 0.53709787
-0.1252308 -0.014848194 0.53411365
-0.11963467 -0.015422856 0.53095287
-0.1433204 -0.0059611523 0.53971875
-0.13533093 -0.0046689049 0.53868502
-0.12517689 -0.0046762745 0.53641289
-0.11583897 -0.0034299335 0.53285968
-0.10875824 -0.00039231978 0.53095281
-0.13260846 0.0025092077 0.53975618
-0.12441996 0.0051554488 0.53867626
-0.11496501 0.0050075185 0.53577638
-0.10555106 0.0060799536 0.53276885
-0.096650161 0.0086131981 0.53135204
-0.12166791 0.013267088 0.53952712
-0.11483295 0.015025921 0.5376218
-0.10527315 0.014962223 0.53534144
-0.095244408 0.014818209 0.53326494
-0.085802011 0.015753014 0.53187424
-0.07968764 0.0182976 0.53095067
-0.11230023 0.021980291 0.53950077
-0.10440364 0.024702653 0.53793329
-0.094888031 0.024827339 0.53532535
-0.08541093 0.024517084 0.53261864
-0.079687938 0.025565442 0.53095138
-0.10388836 0.034552291 0.53888029
-0.094390571 0.034531262 0.53581119
-0.084801346 0.034947835 0.53308052
-0.077600658 0.036403079 0.53139639
-0.1021122 0.043308318 0.53972059
-0.094743818 0.044479452 0.53781217
-0.084675342 0.045219976 0.53539556
-0.074943401 0.045507561 0.5330776
-0.066929646 0.04727659 0.5316183
-0.093806744 0.052249681 0.53977382
-0.085076787 0.054441184 0.53836775
-0.074845366 0.055497371 0.53589225
-0.064721182 0.055203881 0.53305405
-0.056557491 0.055971008 0.53122026
-0.082547925 0.063214444 0.53963929
-0.075099334 0.065266132 0.53727347
-0.065141343 0.063672118 0.53380585
-0.057861067 0.062367994 0.5313518
-0.30237383 -0.19425955 0.54149908
-0.2988545 -0.19175456 0.54096037
-0.30230513 -0.18483073 0.54325312
-0.29577398 -0.1845174 0.54180682
-0.28891477 -0.18214989 0.54095995
-0.30304626 -0.17512006 0.54541069
-0.29456377 -0.17500688 0.5432725
-0.28658056 -0.17465045 0.54130656
-0.30368054 -0.16489834 0.54768568
-0.29511562 -0.16472593 0.54567075
-0.28502133 -0.16507302 0.54241937
-0.27863967 -0.16189983 0.54096043
-0.30295846 -0.15827189 0.54996395
-0.29470414 -0.15517314 0.54857856
-0.28510588 -0.154892 0.5450334
-0.27637103 -0.15407406 0.54175389
-0.29241753 -0.14826989 0.5498206
-0.28459311 -0.14535244 0.54791403
-0.27485228 -0.14538291 0.54389012
-0.26634622 -0.14425395 0.5413605
-0.28263545 -0.13644834 0.54958832
-0.27484238 -0.13512614 0.54725122
-0.26508579 -0.13465787 0.54458123
-0.25548166 -0.13337964 0.54219341
-0.24855201 -0.13063426 0.54095936
-0.27119085 -0.1257754 0.5499627
-0.26473981 -0.12487482 0.54886448
-0.25518602 -0.12513709 0.54530215
-0.24605475 -0.12406188 0.5417338
-0.27100912 -0.11687619 0.54996353
-0.26478657 -0.11501764 0.54896283
-0.25490424 -0.11484145 0.54626596
-0.2452454 -0.11474208 0.5432049
-0.23798804 -0.11226878 0.54123235
-0.26206788 -0.10774979 0.54983819
-0.25476199 -0.1052358 0.5489862
-0.24490999 -0.10494035 0.54726732
-0.23509464 -0.10450941 0.54441643
-0.22612841 -0.102474 0.54195893
-0.25077617 -0.098872148 0.54996252
-0.24281718 -0.095671557 0.54996169
-0.23485556 -0.094662078 0.54830956
-0.2251783 -0.095171876 0.54491401
-0.2169302 -0.093527272 0.54162526
-0.2429194 -0.084892593 0.54918998
-0.23480594 -0.084595554 0.54726785
-0.22482668 -0.084836788 0.54571044
-0.21524663 -0.085333638 0.54291141
-0.2075911 -0.083580576 0.54114872
-0.24163297 -0.077411197 0.54982036
-0.23440799 -0.075836934 0.54853392
-0.2250371 -0.074632771 0.54700691
-0.21549675 -0.075492568 0.54362667
-0.20562883 -0.075058773 0.54134184
-0.19724189 -0.072233997 0.54095787
-0.23040439 -0.06547375 0.54996276
-0.2246158 -0.06476108 0.54850984
-0.21463443 -0.064725295 0.54548174
-0.2048246 -0.065086186 0.54314828
-0.19479869 -0.065284438 0.54176253
-0.18756753 -0.064044401 0.54101616
-0.22350042 -0.058235336 0.54987925
-0.21442881 -0.055683296 0.54884738
-0.20484106 -0.054562598 0.54693967
-0.19475077 -0.055231657 0.54415518
-0.18533882 -0.055265825 0.54188645
-0.17913106 -0.053214975 0.54095721
-0.21062942 -0.048684549 0.54996175
-0.20431705 -0.045093387 0.5486719
-0.19501111 -0.044512399 0.54569823
-0.18479648 -0.044915281 0.54308605
-0.17617476 -0.04483122 0.54126793
-0.2031249 -0.035311192 0.54921192
-0.19493905 -0.034406878 0.54642773
-0.1848862 -0.03462521 0.54393792
-0.17465441 -0.034844082 0.54164356
-0.16835006 -0.031713445 0.54095775
-0.20083202 -0.028370775 0.54996228
-0.19425781 -0.025235621 0.54833007
-0.18487445 -0.024419082 0.5461607
-0.17491738 -0.024687033 0.54380709
-0.16662282 -0.023484865 0.54165065
-0.19187213 -0.018021008 0.54981917
-0.18430175 -0.016990749 0.54912788
-0.17463818 -0.015074368 0.5480333
-0.16499802 -0.014701778 0.54486585
-0.15588923 -0.013338314 0.54226083
-0.1488871 -0.010274247 0.54095715
-0.17156295 -0.0064611905 0.54984933
-0.16477162 -0.0047877994 0.54782337
-0.15480372 -0.0047544017 0.54398161
-0.14665012 -0.0031010658 0.54152274
-0.16367884 0.0049495855 0.5490573
-0.15505539 0.0054852245 0.54644829
-0.14508036 0.0050845277 0.5435667
-0.13582861 0.0064564878 0.54180986
-0.12867185 0.0090023344 0.54095626
-0.1629855 0.014431287 0.54914308
-0.15494196 0.015368108 0.54674745
-0.14484294 0.015319799 0.54508394
-0.13510551 0.015005589 0.54375756
-0.12627487 0.015865376 0.54178524
-0.11926947 0.019345807 0.54095596
-0.15399881 0.022802092 0.5491187
-0.14494234 0.025284912 0.54734761
-0.13476804 0.025369165 0.54506969
-0.12526266 0.024932148 0.54367465
-0.11600517 0.02590175 0.54216665
-0.1093969 0.028513948 0.54095548
-0.14525186 0.03528012 0.54885656
-0.13492018 0.03526606 0.54722476
-0.12488396 0.035358924 0.54578418
-0.1150488 0.034788676 0.5427568
-0.10908377 0.035644423 0.54095608
-0.14389259 0.04211216 0.54971123
-0.13476132 0.044124473 0.54890299
-0.12495422 0.045261081 0.547306
-0.11501713 0.045002468 0.54417199
-0.10679004 0.045492668 0.54158175
-0.12438869 0.055054553 0.54858482
-0.11471579 0.055175025 0.54568779
-0.104903 0.054680757 0.54263175
-0.096392199 0.056467336 0.54125261
-0.089652233 0.058838807 0.5409556
-0.12339629 0.065182619 0.54899633
-0.1147538 0.064722665 0.54707301
-0.1047046 0.065107815 0.5449369
-0.095201403 0.064585298 0.54316139
-0.08702819 0.065424219 0.54160106
-0.12507918 0.071765266 0.54996145
-0.1031031 0.070640117 0.54495847
-0.092986248 0.070510909 0.54395711
-0.085285768 0.071050823 0.54206729
-0.3049463 -0.15385787 0.55175257
-0.29911301 -0.15172523 0.55096406
-0.30473173 -0.14479592 0.55377495
-0.2954796 -0.14409865 0.55181032
-0.28905797 -0.14166939 0.55096358
-0.31059265 -0.13421811 0.55782425
-0.30495107 -0.1348978 0.55555606
-0.29483253 -0.1344543 0.55280954
-0.28669757 -0.13430896 0.55133438
-0.27948177 -0.13113472 0.55096334
-0.31129929 -0.12792464 0.55996782
-0.30419257 -0.1267526 0.55863357
-0.29509068 -0.1252158 0.55594033
-0.28519523 -0.12514699 0.5527088
-0.27588642 -0.12534535 0.55122519
-0.26942652 -0.12682484 0.55096239
-0.29433647 -0.11558892 0.55784172
-0.28492457 -0.1144771 0.55414057
-0.27621159 -0.11502266 0.55178499
-0.26942715 -0.11102343 0.55096382
-0.29361215 -0.10533667 0.55890089
-0.28476503 -0.10494055 0.5564549
-0.27492198 -0.10498996 0.55442154
-0.26597464 -0.10456663 0.55207509
-0.25889325 -0.10144639 0.55096334
-0.29349062 -0.09566389 0.55934769
-0.2850351 -0.094914995 0.55761021
-0.27526179 -0.094516546 0.55637914
-0.26506713 -0.094905429 0.55398697
-0.25533178 -0.095264301 0.55161452
-0.24706133 -0.094629429 0.55100399
-0.29134819 -0.088748366 0.55996871
-0.28426021 -0.085560769 0.55894315
-0.27472955 -0.084698476 0.55734801
-0.26497468 -0.084467195 0.55624223
-0.25557306 -0.085566774 0.55403745
-0.2481335 -0.085227147 0.55136335
-0.28236827 -0.075813286 0.55969095
-0.27523541 -0.074662544 0.55837262
-0.26518077 -0.074496813 0.55712992
-0.25475183 -0.07531672 0.55508709
-0.2455193 -0.074535228 0.55220646
-0.23705061 -0.071687929 0.55116308
-0.27356422 -0.068208285 0.55969554
-0.26448455 -0.065133475 0.55890858
-0.25540262 -0.065459974 0.55646616
-0.24489082 -0.065290771 0.55373561
-0.23540388 -0.065121613 0.55153495
-0.2615827 -0.056524288 0.55960405
-0.25454858 -0.055297941 0.55773431
-0.24454707 -0.055377267 0.55479896
-0.23471287 -0.054991312 0.55287546
-0.22536917 -0.053999055 0.55190265
-0.21758601 -0.05159796 0.55108744
-0.25255731 -0.048310429 0.55946726
-0.24427386 -0.046660285 0.55854225
-0.23511946 -0.045426432 0.55694151
-0.22526428 -0.045153975 0.55440587
-0.21524812 -0.04491372 0.55182642
-0.20873818 -0.04171022 0.55096215
-0.24061674 -0.038742818 0.55996656
-0.23417489 -0.035942882 0.558716
-0.22469239 -0.035189517 0.55577439
-0.21496132 -0.035021055 0.55310643
-0.20792598 -0.034184888 0.55124044
-0.23282138 -0.025010157 0.55933052
-0.22510616 -0.02509368 0.55679911
-0.21511205 -0.024789821 0.5543645
-0.20522439 -0.024818335 0.55221909
-0.19846809 -0.021670742 0.55096257
-0.23217918 -0.01646653 0.55961031
-0.2248513 -0.015630014 0.55851656
-0.21512543 -0.014881562 0.55756533
-0.20498236 -0.014841371 0.55482459
-0.19533464 -0.014308672 0.55201548
-0.18528463 -0.012216816 0.55109215
-0.1784534 -0.01094412 0.5509609
-0.21280903 -0.0078461245 0.55969298
-0.20493039 -0.0046843342 0.55865389
-0.19490859 -0.0047909608 0.55612642
-0.18505651 -0.0049004909 0.55355328
-0.17585854 -0.0040623988 0.55166382
-0.20341367 0.0052835001 0.55977821
-0.19516976 0.0054059192 0.5583694
-0.18512186 0.0055394056 0.55604839
-0.17482001 0.0051949113 0.55312103
-0.16828026 0.006383732 0.55114299
-0.20180833 0.012235542 0.55996603
-0.19483142 0.014899895 0.55865115
-0.18507151 0.015546239 0.55645406
-0.17491615 0.015483718 0.55415326
-0.16742449 0.016417809 0.55161196
-0.19260831 0.024519878 0.55948973
-0.18483099 0.024924902 0.55750567
-0.17488261 0.025046157 0.55601257
-0.1647779 0.025254365 0.55388546
-0.156248 0.027345786 0.55179489
-0.19110274 0.030728748 0.55996639
-0.1840305 0.033528626 0.55873233
-0.17495055 0.034295917 0.55715621
-0.16528685 0.034663193 0.55521977
-0.15536745 0.035660323 0.55184579
-0.18039683 0.0411922 0.55996591
-0.17455775 0.044400994 0.55872858
-0.16512834 0.044753335 0.55638641
-0.15492503 0.044893716 0.55360389
-0.14550731 0.046366967 0.55200028
-0.1365837 0.04885703 0.55132449
-0.17200252 0.051959701 0.55996579
-0.16444053 0.053190131 0.55889338
-0.15507539 0.054947287 0.557818
-0.14500794 0.054514624 0.55535787
-0.13481614 0.055270251 0.55262786
-0.12865785 0.05848835 0.55096072
-0.15385157 0.064569198 0.55914629
-0.14524782 0.064906694 0.55672544
-0.13516571 0.064643256 0.55369127
-0.12797882 0.065571643 0.55112791
-0.15149647 0.072185673 0.55971491
-0.14487053 0.074660338 0.5583697
-0.13576002 0.072765246 0.55474073
-0.12822387 0.071781874 0.55156183
-0.14389959 0.081342459 0.55996472
-0.31247011 -0.12347564 0.56342983
-0.30662194 -0.12274227 0.56224555
-0.31356609 -0.11532898 0.56696922
-0.30527321 -0.11514067 0.56411105
-0.29958022 -0.11245731 0.56171763
-0.31301436 -0.10492694 0.56635475
-0.30514857 -0.10480797 0.56388324
-0.29911512 -0.10410162 0.56166834
-0.31289437 -0.094521612 0.56562489
-0.30522037 -0.09476117 0.56341445
-0.2983501 -0.094108574 0.56146914
-0.31349406 -0.085707419 0.56847185
-0.3049303 -0.084879033 0.56620902
-0.29543361 -0.085057572 0.5628615
-0.28856456 -0.08209084 0.56136894
-0.30364454 -0.075434327 0.56922162
-0.29523689 -0.075158782 0.56567311
-0.28732497 -0.074751869 0.56215996
-0.3010096 -0.065813944 0.56997204
-0.29478949 -0.065071702 0.56772798
-0.28465953 -0.065127663 0.56406748
-0.27524984 -0.06366919 0.56248498
-0.26838422 -0.062128548 0.56130147
-0.29427749 -0.055807121 0.5691191
-0.28496164 -0.055254668 0.5664959
-0.27528509 -0.054870531 0.56444591
-0.26634559 -0.053902261 0.56225896
-0.25969362 -0.050147627 0.5609681
-0.29137242 -0.04662241 0.56988162
-0.28474259 -0.044900671 0.5686385
-0.27482665 -0.044649366 0.56678444
-0.26484799 -0.044515327 0.56508279
-0.25533864 -0.043501858 0.56315559
-0.24734354 -0.042349387 0.56160349
-0.28335857 -0.037836459 0.56979042
-0.2744773 -0.035163485 0.56915075
-0.26534075 -0.034827091 0.56799579
-0.25540915 -0.035104588 0.5660522
-0.24551657 -0.035175033 0.5630756
-0.23845619 -0.032136664 0.56146687
-0.27243692 -0.0251422 0.56944251
-0.26462933 -0.025222927 0.56720161
-0.25523874 -0.025404669 0.56594646
-0.24490237 -0.025519023 0.56415576
-0.23730935 -0.025644928 0.56150579
-0.27129102 -0.019002907 0.5699724
-0.26426858 -0.017031662 0.56912553
-0.25490683 -0.015389849 0.56769782
-0.24463332 -0.014956596 0.56459421
-0.23612817 -0.014220721 0.56177586
-0.22605631 -0.010657066 0.56096727
-0.25284496 -0.0061527421 0.56954247
-0.244826 -0.0048553864 0.56717533
-0.23489842 -0.0047978451 0.56440067
-0.22513737 -0.0050178105 0.56330091
-0.21613508 -0.0037261867 0.56203109
-0.20996854 -0.00041847225 0.56096607
-0.24375959 0.0047464259 0.56945366
-0.23532128 0.005391119 0.5676527
-0.22532542 0.0056714583 0.56575114
-0.21483254 0.0053512901 0.56298995
-0.20827407 0.0054334402 0.56105727
-0.24082875 0.011461873 0.5699712
-0.2338551 0.014619019 0.56914306
-0.22480366 0.015102193 0.56702489
-0.21517256 0.015050754 0.56502366
-0.20585577 0.01562771 0.56274116
-0.19900005 0.017864008 0.56096625
-0.23235878 0.020972785 0.56997091
-0.22457589 0.023420705 0.5692926
-0.21504031 0.024584688 0.5679462
-0.20482631 0.02462055 0.56491995
-0.19739614 0.025263067 0.56190789
-0.21338385 0.032896586 0.56959456
-0.20498185 0.035007913 0.56789541
-0.19530489 0.035165425 0.56415659
-0.18739106 0.037310924 0.56196648
-0.20265926 0.043530803 0.56988573
-0.19543011 0.045150649 0.56807083
-0.18540239 0.045312196 0.56351686
-0.17905079 0.048256293 0.5614664
-0.20145062 0.050100151 0.56996948
-0.19576672 0.054855876 0.56844413
-0.18494473 0.055223674 0.56459272
-0.175734 0.055892166 0.56272334
-0.16654751 0.058273923 0.56183231
