# .PCD v0.7 - Point Cloud Data file format
VERSION 0.7
FIELDS x y z
SIZE 4 4 4
TYPE F F F
COUNT 1 1 1
WIDTH 1
HEIGHT 437
VIEWPOINT 0 0 0 1 0 0 0
POINTS 437
DATA ascii
-0.023341637 -0.18222386 0.43877992
-0.015777361 -0.1839236 0.43828848
-0.0096816719 -0.18355817 0.43998823
-0.033534799 -0.17228264 0.43799618
-0.025230134 -0.1746731 0.43509459
-0.015158474 -0.17520207 0.43644083
-0.008585115 -0.17166699 0.43907246
-0.042565882 -0.16339609 0.43857101
-0.035002574 -0.16470335 0.43612105
-0.025290221 -0.1650621 0.43382725
-0.016075479 -0.16464497 0.43462363
-0.0073576942 -0.16323629 0.43878454
-0.041657489 -0.15673304 0.43844074
-0.035185441 -0.15464851 0.43646076
-0.024975289 -0.15468557 0.4347713
-0.015939791 -0.1547866 0.43497211
-0.0067223227 -0.15484132 0.43845654
-0.033511724 -0.14727877 0.43872786
-0.025132602 -0.14498632 0.43763465
-0.015432211 -0.14513142 0.43595737
-0.0049483562 -0.14446889 0.4380241
-0.023850996 -0.1353983 0.43853745
-0.015484562 -0.13501221 0.43668389
-0.0065419008 -0.1344429 0.43648064
0.0016608536 -0.13601868 0.43930089
-0.02227496 -0.1261559 0.43937257
-0.015192162 -0.12482481 0.43766659
-0.0056140898 -0.12501283 0.43636602
0.0025446166 -0.12345529 0.43854377
-0.013400238 -0.11570565 0.43866658
-0.0057257097 -0.11511245 0.43723047
0.0014865896 -0.11482995 0.43895838
-0.011730194 -0.10959029 0.4398686
-0.0043852995 -0.10643978 0.43922627
0.00089745224 -0.1046354 0.43934518
-0.0012919967 -0.095541343 0.43936223
0.00098811393 -0.096350268 0.43838114
-0.00013592839 -0.089388251 0.43954334
0.0023404588 -0.084635824 0.43910444
-0.0052952617 -0.20212226 0.44907519
0.0020594199 -0.20169955 0.44894609
-0.020715326 -0.19045275 0.44646665
-0.013780667 -0.19562773 0.44677484
-0.0047522485 -0.19510406 0.44516087
0.0046899659 -0.1947861 0.44786549
-0.033438183 -0.18182641 0.44847631
-0.025354475 -0.18596977 0.44563544
-0.015575677 -0.188308 0.44117522
-0.005457723 -0.18498804 0.44221717
0.004861325 -0.18671635 0.44747934
-0.042710867 -0.17269482 0.44621643
-0.035433721 -0.17687552 0.44411528
-0.029046148 -0.17922875 0.44075412
-0.0034768034 -0.17658491 0.44222447
0.0060462779 -0.17312916 0.44670263
0.011506498 -0.17079148 0.44899073
-0.046665546 -0.164638 0.44445378
-0.002411139 -0.16595089 0.44165325
0.0046256054 -0.16440204 0.44503933
0.011671923 -0.1640799 0.44852132
-0.043760046 -0.1551948 0.44426134
-0.0019319355 -0.1564859 0.44099605
0.0050936816 -0.15484467 0.44429317
0.013830031 -0.15549304 0.44849199
-0.040862944 -0.14833976 0.44569671
-0.036565967 -0.14399421 0.44341761
0.0054651326 -0.14517696 0.44282722
0.014770955 -0.145601 0.44709775
0.020741314 -0.14574701 0.44993046
-0.033731118 -0.13542008 0.44502857
-0.028232647 -0.13405821 0.44097221
0.006789261 -0.135427 0.44162717
0.014603949 -0.13375208 0.44562387
0.021654636 -0.13311261 0.44958466
-0.0320381 -0.12642382 0.44701156
-0.027092906 -0.12391642 0.44299006
-0.019603014 -0.12050679 0.44005466
0.007927577 -0.12672804 0.44150579
0.014071728 -0.12495126 0.44538781
0.0205791 -0.12639868 0.4495413
-0.024354894 -0.11552968 0.44501024
-0.017575404 -0.11356783 0.4411824
0.0067356122 -0.11454275 0.44199905
0.012790293 -0.11559033 0.44578752
-0.021713696 -0.1066229 0.44731885
-0.015247175 -0.10499171 0.44427943
-0.0071616918 -0.10319883 0.44194472
0.0052936291 -0.10680655 0.44132566
-0.014517422 -0.095232263 0.44706565
-0.0059341802 -0.094983429 0.44268489
-0.011531438 -0.085562199 0.44763055
-0.0051532346 -0.084980063 0.4436627
0.00098830031 -0.083019957 0.44059727
-0.010285378 -0.078579962 0.44928682
-0.0050953445 -0.075203851 0.44592187
0.0015845719 -0.075419419 0.44271863
-0.0027458731 -0.068530858 0.44864613
0.001764819 -0.065644927 0.4481363
-0.014281425 -0.20329514 0.45672172
-0.005587548 -0.20648101 0.45296729
0.0062211924 -0.20583975 0.45141199
0.016506597 -0.20500512 0.4544116
-0.031739816 -0.19042683 0.45899957
-0.024253143 -0.1936602 0.45508882
-0.01801222 -0.19736071 0.45287561
0.0093061924 -0.19229323 0.45001096
0.013988939 -0.19513726 0.45268625
-0.035397708 -0.18498145 0.45578718
-0.028741583 -0.18892369 0.45352826
0.014615398 -0.18507014 0.45251161
-0.044113919 -0.17507014 0.45505816
-0.039340287 -0.17873108 0.45060152
0.016854987 -0.1750567 0.45202878
0.024481878 -0.17510501 0.45573339
-0.046432544 -0.1642915 0.45452526
0.016757732 -0.16573696 0.45111382
0.025274524 -0.16492319 0.45520419
-0.042999871 -0.15524189 0.45442235
-0.039823383 -0.1512484 0.45930845
0.025133774 -0.15545206 0.45351997
0.034074742 -0.15375403 0.45764261
-0.040736962 -0.14841652 0.45205575
-0.037912488 -0.14434467 0.4550944
0.02587234 -0.14472298 0.45252797
0.034585267 -0.14514449 0.45695844
0.040393811 -0.14534356 0.45953712
-0.034252461 -0.135217 0.45429608
0.026582202 -0.13419856 0.45257118
0.03481691 -0.13569276 0.45730984
0.041057318 -0.13861766 0.45989084
-0.032218736 -0.12472022 0.45457086
0.025690496 -0.12519647 0.45371237
0.032777797 -0.12642744 0.45852438
-0.030603334 -0.11989926 0.45338291
-0.026240325 -0.11509288 0.45507866
0.023028836 -0.11887944 0.452557
-0.021465436 -0.10694513 0.45425281
-0.018735437 -0.10213015 0.45541832
-0.014787509 -0.095039599 0.45553493
-0.011540392 -0.08611428 0.45322725
-0.0090531306 -0.082725577 0.45747322
-0.010005206 -0.079016596 0.45139179
-0.0077883927 -0.074428171 0.45490372
-0.0033595301 -0.066054098 0.45442873
0.0016538831 -0.061659224 0.45406866
0.020558804 -0.011107266 0.45969072
0.021190494 -0.0098453313 0.45976254
-0.032305188 -0.19460744 0.4672527
-0.026028832 -0.19752122 0.46267885
-0.041042432 -0.18347967 0.4667412
-0.036923524 -0.18816039 0.46428871
-0.043675702 -0.17423534 0.46501651
-0.042688958 -0.16502127 0.46451864
-0.039780498 -0.16077197 0.46805689
-0.041030802 -0.15662414 0.46267429
-0.038024131 -0.15338956 0.46589431
-0.033807591 -0.14513274 0.4644841
-0.031110846 -0.13476184 0.46328756
-0.029445445 -0.1357058 0.46835876
0.038493127 -0.13283734 0.46099907
-0.030826973 -0.12568641 0.46277171
-0.027982803 -0.12350672 0.46685672
0.038470909 -0.1276927 0.46221009
-0.023511792 -0.116212 0.46458963
-0.018768504 -0.11192038 0.46720353
-0.020469517 -0.10903674 0.46033004
-0.016294355 -0.10476846 0.4649083
-0.011948915 -0.096688032 0.46389979
-0.008092056 -0.093358248 0.46734652
-0.0065396382 -0.085246034 0.46527949
-0.0057352325 -0.074905433 0.46473297
-0.0028331119 -0.066245265 0.46377376
0.0019551914 -0.061465938 0.46560097
0.0066838386 -0.057331555 0.46683326
0.010916466 -0.053684115 0.46762061
0.011752635 -0.041986704 0.46856618
0.016764976 -0.038841594 0.46915069
0.020550698 -0.035053477 0.46946895
0.019646168 -0.021795556 0.46980259
0.020022988 -0.02194567 0.46831769
0.01893883 -0.014248121 0.46571723
0.020244263 -0.013299607 0.4606207
0.019501954 -0.0084045595 0.46385369
0.022753779 -0.0074252808 0.46531731
-0.039127707 -0.18938422 0.47157228
-0.041352607 -0.17522441 0.47534022
-0.040629882 -0.16796486 0.47278181
-0.038633574 -0.1639051 0.47534093
-0.034685686 -0.15470271 0.4746584
-0.030813234 -0.14802624 0.47409132
-0.028852446 -0.14387269 0.47560838
-0.027906304 -0.13537048 0.47519398
-0.024286022 -0.1245579 0.47539714
-0.021238029 -0.11911405 0.47359967
-0.017400403 -0.11417993 0.47541982
-0.013148669 -0.10461998 0.47552294
-0.010358423 -0.099417128 0.47618133
-0.0066408226 -0.095168382 0.47578946
-0.0038300394 -0.085165583 0.47549039
-0.0029177344 -0.075197421 0.47492912
-0.00079457462 -0.067982621 0.47302127
0.0019347119 -0.063545354 0.47563428
0.0067265509 -0.054833941 0.4744297
0.0095913848 -0.046925314 0.47496641
0.010761312 -0.043272808 0.47403729
0.015932981 -0.035666224 0.47477415
0.02076886 -0.033167262 0.47190562
0.019645266 -0.025004609 0.47554174
0.020397598 -0.02470565 0.47682014
0.019496858 -0.016459756 0.47216451
0.021930013 -0.014327302 0.47649106
0.04322046 -0.010189086 0.47699854
0.025660327 -0.007851962 0.47395772
0.035386235 -0.0077145789 0.47596547
0.04138121 -0.0093641579 0.47715554
-0.0080136908 -0.093143567 0.48337811
-0.0014856471 -0.076963708 0.48486331
0.00069744315 -0.072319075 0.48584753
0.0027348264 -0.065312184 0.48494175
0.0068781381 -0.054974601 0.48504105
0.0093038725 -0.049133748 0.4868769
0.011424839 -0.044413384 0.48552564
0.015504694 -0.034765858 0.48536915
0.018959144 -0.028795945 0.48498824
0.021844139 -0.024079824 0.48537609
0.025630316 -0.015312561 0.48521912
0.028308248 -0.0092152357 0.48366594
0.034116808 -0.0071724416 0.48532388
0.04469195 -0.0073486539 0.48545823
-0.04255373 -0.16241744 0.42992967
-0.035477806 -0.16190153 0.42779091
-0.025092257 -0.16157448 0.42651999
-0.015418346 -0.16141532 0.42507619
-0.0071160486 -0.16182145 0.42786622
-0.042934231 -0.15616399 0.42989799
-0.035205752 -0.15490091 0.42822814
-0.025112497 -0.15503511 0.42689106
-0.014967065 -0.15506719 0.42576745
-0.0063463682 -0.15469049 0.42763251
-0.040984809 -0.14941335 0.4299306
-0.033840045 -0.14784493 0.42967978
-0.025106056 -0.14514317 0.42826617
-0.01508315 -0.14488602 0.42650783
-0.0053179078 -0.14473292 0.42678151
0.0012763018 -0.14264491 0.4291257
-0.022722151 -0.13587314 0.42947003
-0.015146792 -0.13487981 0.42829525
-0.0051320749 -0.13495255 0.4269639
0.0031479753 -0.1343876 0.42834294
-0.020806963 -0.12923385 0.42992976
-0.014004099 -0.12639189 0.42979875
-0.0051425607 -0.12528338 0.42858663
0.0043214983 -0.12481096 0.42822102
0.010581716 -0.12026428 0.42992648
-0.0044789393 -0.11526152 0.42823446
0.0048884759 -0.11493508 0.42699027
0.012424582 -0.11393973 0.42857197
-0.002494619 -0.10831002 0.42920709
0.0056892927 -0.1060285 0.42864051
0.013558951 -0.1045879 0.42892751
0.0088369446 -0.097345367 0.42992875
0.014927121 -0.094939128 0.42976642
0.016409814 -0.088605948 0.42992854
-0.04594864 -0.16399385 0.43092993
-0.0021569547 -0.16341975 0.4345243
0.00079138245 -0.16226719 0.43892401
-0.043776672 -0.15380606 0.43093055
-0.0014043488 -0.15571177 0.43223739
0.0016440073 -0.15445602 0.43663889
-0.040931661 -0.14716704 0.43278793
-0.035396915 -0.14390126 0.43235895
-0.029469451 -0.14114575 0.43092981
-0.00062891678 -0.14919737 0.43092537
0.0045115333 -0.14521937 0.43500829
-0.03354089 -0.13564512 0.43587726
-0.027157201 -0.13452831 0.43220919
0.0079244338 -0.13585325 0.43388546
0.011273294 -0.13266012 0.43806815
-0.031564154 -0.12776996 0.43734303
-0.024797888 -0.1252736 0.43486479
-0.01696972 -0.12284584 0.43165958
0.0090778116 -0.12722746 0.43167606
0.013065322 -0.12451638 0.43541068
-0.022193098 -0.11584832 0.43786868
-0.014999263 -0.11519712 0.43355522
-0.0091585601 -0.11342078 0.431263
0.016687302 -0.1154884 0.4342809
0.02057812 -0.11216325 0.43992591
-0.020222561 -0.10720081 0.43807453
-0.014770559 -0.10510539 0.4362013
-0.0057868748 -0.10435138 0.43261129
0.0029753374 -0.1020825 0.43126249
0.018691175 -0.10524835 0.43226016
0.021832913 -0.10370582 0.43630156
-0.013167655 -0.095332734 0.43764615
-0.0051421789 -0.09497764 0.43506873
0.0045105391 -0.094584957 0.43205455
0.015998814 -0.095149383 0.43092805
0.022857063 -0.094435185 0.43446779
-0.011759377 -0.08708445 0.43734908
-0.0049807876 -0.084830746 0.43680501
0.0048930654 -0.085094564 0.43490687
0.014679523 -0.083862528 0.4321011
0.024286928 -0.084635392 0.43456119
-0.0027061175 -0.074901596 0.43842003
0.0050967033 -0.075174324 0.43717179
0.015224028 -0.075107545 0.43462127
0.024807632 -0.075085104 0.43522868
0.031807594 -0.07241118 0.43885663
-0.0021108056 -0.067091003 0.43982184
0.0051725851 -0.065391652 0.43862829
0.015320351 -0.065308616 0.43730125
0.024972623 -0.065203339 0.43658236
0.033331584 -0.064670764 0.43735704
0.0065314984 -0.058335867 0.43978447
0.015719734 -0.055620626 0.4390263
0.025015658 -0.055059701 0.43738872
0.034596372 -0.054907393 0.43660417
0.041721717 -0.052685652 0.438366
0.018269971 -0.046751071 0.4396821
0.024760995 -0.044680361 0.43772095
0.034577727 -0.044623565 0.43570793
0.041780706 -0.04475173 0.43732917
0.025527196 -0.03687308 0.43878573
0.034721684 -0.034540236 0.43753612
0.0430145 -0.034121469 0.4383769
0.03543815 -0.0253112 0.43891567
0.04476938 -0.024705209 0.43849787
0.05097279 -0.021540489 0.43993011
0.037472606 -0.017170457 0.4395619
0.045078181 -0.015178251 0.43841285
0.051740676 -0.015091777 0.43902582
0.04518865 -0.0087559978 0.43880704
0.050740536 -0.0094526811 0.43793121
0.0024671939 -0.17071371 0.44858968
0.0027317533 -0.16479194 0.44539964
0.0062960819 -0.15479521 0.44564271
-0.039914146 -0.14007132 0.44293129
0.008991153 -0.14584701 0.44350776
0.011401956 -0.143424 0.44736874
-0.037493002 -0.13696523 0.44159794
0.014033384 -0.13466296 0.44537926
-0.032247759 -0.12567997 0.44393164
-0.02859031 -0.12218111 0.44193143
0.017477363 -0.1261404 0.44460925
0.02077426 -0.12286136 0.44825825
-0.025122266 -0.11615738 0.44226488
0.018900603 -0.11874167 0.44092554
0.022212436 -0.11500454 0.44575876
-0.022642491 -0.10797579 0.44393197
0.025045341 -0.10465405 0.44461021
0.027971301 -0.094903022 0.44492653
0.030948242 -0.091047004 0.44892645
0.029195854 -0.086725168 0.44264135
0.032281484 -0.083739959 0.44618785
0.034919091 -0.075572498 0.44433755
0.040312 -0.071146905 0.44892699
-0.0020265046 -0.062406491 0.44093332
0.00050277467 -0.060106959 0.44093323
0.038519885 -0.065891892 0.44261527
0.041290972 -0.064683028 0.44685051
-0.00064698723 -0.05895729 0.44093347
0.0060471878 -0.054160781 0.44132701
0.011835339 -0.051729996 0.44093251
0.044595789 -0.055399396 0.44488785
0.0081115607 -0.044891439 0.44407648
0.013820427 -0.044668466 0.44166875
0.046284568 -0.045219176 0.44478568
0.0094480552 -0.038808063 0.44726729
0.015510523 -0.035308525 0.44278833
0.023653822 -0.0325737 0.44178271
0.047757421 -0.035742927 0.44288751
0.051641669 -0.033104505 0.44692898
0.017029017 -0.025004363 0.44550925
0.024676705 -0.02471826 0.44345233
0.031212429 -0.022634795 0.44113261
0.049651757 -0.02733808 0.44092974
0.05389474 -0.024789551 0.44504055
0.018320153 -0.017183475 0.44729844
0.025108943 -0.015068274 0.44505909
0.033752974 -0.014312122 0.44174784
0.055530097 -0.016568203 0.44385302
0.025633989 -0.0064735985 0.44638377
0.034663063 -0.0064929812 0.44295171
0.042379901 -0.0075385459 0.44293246
0.006977356 -0.1656312 0.45425621
0.009166101 -0.15711235 0.45209002
0.015563902 -0.1452224 0.45626575
-0.038453098 -0.13614714 0.45293143
0.017859166 -0.13634285 0.45377412
0.021891532 -0.13404723 0.45836124
-0.032054078 -0.12473556 0.45443162
0.019372756 -0.12995228 0.45192444
0.024113467 -0.12526441 0.45631817
0.026645413 -0.11535174 0.45608491
0.028098114 -0.10650259 0.45325875
0.031073114 -0.10382084 0.45792529
0.029976994 -0.09813524 0.45192593
0.033358779 -0.094958171 0.45606861
0.036640927 -0.085474588 0.45492625
0.040810779 -0.082106508 0.45892596
0.039054554 -0.077994376 0.45242655
0.04254381 -0.074517041 0.45606926
0.045227114 -0.065171212 0.45544693
0.048337098 -0.056676883 0.45392728
0.051200844 -0.053059421 0.45807007
0.0048712711 -0.043102115 0.45560083
0.049113017 -0.045790851 0.45092812
0.051387023 -0.044949263 0.45630291
0.012271169 -0.032074858 0.4509342
0.055472996 -0.034882944 0.45563659
0.013585479 -0.025318358 0.45593458
0.058105573 -0.026091095 0.45319539
0.061260831 -0.024240792 0.45838305
0.016973689 -0.016789453 0.45093495
0.05838478 -0.014300791 0.45292974
0.061681453 -0.018003453 0.456929
0.026750831 -0.002691722 0.45422062
0.034459922 -0.0033103493 0.45643386
-0.036143102 -0.12872867 0.46893179
0.037935115 -0.095891602 0.46335986
0.039113604 -0.088960513 0.46242556
0.04742375 -0.075609013 0.4653185
0.048633389 -0.066211954 0.46352634
0.054881051 -0.054421052 0.46700999
0.0041580116 -0.043886911 0.46393418
0.056312531 -0.045050051 0.46658355
0.058468211 -0.036791448 0.46292776
0.062662676 -0.034242488 0.46718827
0.012597822 -0.02689299 0.46293461
0.064678289 -0.025752509 0.46596959
0.06421788 -0.015881188 0.46692884
0.030570157 -0.0015370984 0.46093455
-0.039123107 -0.13113077 0.47543198
0.010514136 -0.029010596 0.47793469
0.033082042 -0.00034909166 0.4799343
0.055819705 -0.0084170643 0.47643062
