# .PCD v0.7 - Point Cloud Data file format
VERSION 0.7
FIELDS x y z
SIZE 4 4 4
TYPE F F F
COUNT 1 1 1
WIDTH 1399
HEIGHT 1
VIEWPOINT 0 0 0 1 0 0 0
POINTS 1399
DATA ascii
0.19159438 0.06329383 0.53300005
0.19298087 0.06329383 0.53300005
0.19436736 0.06329383 0.53300005
0.19575386 0.06329383 0.53300005
0.19677046 0.063175075 0.53200001
0.19815436 0.063175075 0.53200001
0.19953825 0.063175075 0.53200001
0.20092215 0.063175075 0.53200001
0.20230603 0.063175075 0.53200001
0.20368993 0.063175075 0.53200001
0.20468834 0.06305632 0.53100002
0.20606963 0.06305632 0.53100002
0.20745094 0.06305632 0.53100002
0.20883222 0.06305632 0.53100002
0.21021351 0.06305632 0.53100002
0.21159481 0.06305632 0.53100002
0.21297608 0.06305632 0.53100002
0.21476108 0.063175075 0.53200001
0.21614496 0.063175075 0.53200001
0.21752885 0.063175075 0.53200001
0.21932425 0.06329383 0.53300005
0.22071074 0.06329383 0.53300005
0.22251393 0.063412577 0.53400004
0.22390303 0.063412577 0.53400004
0.22571401 0.063531324 0.53500003
0.22710571 0.063531324 0.53500003
0.22849742 0.063531324 0.53500003
0.22988911 0.063531324 0.53500003
0.2312808 0.063531324 0.53500003
0.2326725 0.063531324 0.53500003
0.23406419 0.063531324 0.53500003
0.23501579 0.063412577 0.53400004
0.23640488 0.063412577 0.53400004
0.23779398 0.063412577 0.53400004
0.23918307 0.063412577 0.53400004
0.24012166 0.06329383 0.53300005
0.24150817 0.06329383 0.53300005
0.24289466 0.06329383 0.53300005
0.24428114 0.06329383 0.53300005
0.2452067 0.063175075 0.53200001
0.2465906 0.063175075 0.53200001
0.2479745 0.063175075 0.53200001
0.24935839 0.063175075 0.53200001
0.25074229 0.063175075 0.53200001
0.25212616 0.063175075 0.53200001
0.25351006 0.063175075 0.53200001
0.25489396 0.063175075 0.53200001
0.25627786 0.063175075 0.53200001
0.25814608 0.06329383 0.53300005
-0.28067163 0.061525181 0.50700003
-0.27935275 0.061525181 0.50700003
-0.2785823 0.061646532 0.50800002
-0.27726081 0.061646532 0.50800002
-0.27648252 0.06176788 0.509
-0.27515849 0.06176788 0.509
-0.27383441 0.06176788 0.509
-0.27251038 0.06176788 0.509
-0.27118629 0.06176788 0.509
-0.2698622 0.06176788 0.509
-0.26853818 0.06176788 0.509
-0.26721409 0.06176788 0.509
-0.26589006 0.06176788 0.509
-0.26404622 0.061646532 0.50800002
-0.26272473 0.061646532 0.50800002
-0.26140329 0.061646532 0.50800002
-0.26008183 0.061646532 0.50800002
-0.25926974 0.06176788 0.509
-0.25794566 0.06176788 0.509
-0.2566216 0.06176788 0.509
-0.254796 0.061646532 0.50800002
-0.25397348 0.06176788 0.509
-0.25264943 0.06176788 0.509
-0.25132534 0.06176788 0.509
-0.25000128 0.06176788 0.509
-0.24867722 0.06176788 0.509
-0.24735317 0.06176788 0.509
-0.24602909 0.06176788 0.509
-0.24470504 0.06176788 0.509
-0.24385916 0.061889239 0.51000005
-0.24253248 0.061889239 0.51000005
-0.24120583 0.061889239 0.51000005
-0.23987916 0.061889239 0.51000005
-0.2385525 0.061889239 0.51000005
-0.23769097 0.06201059 0.51100004
-0.2363617 0.06201059 0.51100004
-0.23549238 0.062131938 0.51200002
-0.23416051 0.062131938 0.51200002
-0.23282866 0.062131938 0.51200002
-0.23149678 0.062131938 0.51200002
-0.23016492 0.062131938 0.51200002
-0.22883305 0.062131938 0.51200002
-0.22750118 0.062131938 0.51200002
-0.22661105 0.062253289 0.51300001
-0.22483744 0.062131938 0.51200002
-0.22350559 0.062131938 0.51200002
-0.22217372 0.062131938 0.51200002
-0.22084185 0.062131938 0.51200002
-0.21950999 0.062131938 0.51200002
-0.21817811 0.062131938 0.51200002
-0.21684624 0.062131938 0.51200002
-0.21551438 0.062131938 0.51200002
-0.21418253 0.062131938 0.51200002
-0.21285066 0.062131938 0.51200002
-0.21151878 0.062131938 0.51200002
-0.21018691 0.062131938 0.51200002
-0.20885505 0.062131938 0.51200002
-0.20752318 0.062131938 0.51200002
-0.20619132 0.062131938 0.51200002
-0.20485945 0.062131938 0.51200002
-0.20352758 0.062131938 0.51200002
-0.20219572 0.062131938 0.51200002
-0.20086385 0.062131938 0.51200002
-0.19953197 0.062131938 0.51200002
-0.19820011 0.062131938 0.51200002
-0.19725275 0.062253289 0.51300001
-0.19591829 0.062253289 0.51300001
-0.19458382 0.062253289 0.51300001
-0.19362605 0.062374637 0.514
-0.19228898 0.062374637 0.514
-0.19132343 0.062495995 0.51500005
-0.18998377 0.062495995 0.51500005
-0.1886441 0.062495995 0.51500005
-0.1876681 0.062617347 0.51600003
-0.18632583 0.062617347 0.51600003
-0.18498357 0.062617347 0.51600003
-0.1836413 0.062617347 0.51600003
-0.18229902 0.062617347 0.51600003
-0.18095675 0.062617347 0.51600003
-0.17961448 0.062617347 0.51600003
-0.1782722 0.062617347 0.51600003
-0.17692994 0.062617347 0.51600003
-0.17558765 0.062617347 0.51600003
-0.17424539 0.062617347 0.51600003
-0.17290312 0.062617347 0.51600003
-0.17156085 0.062617347 0.51600003
-0.17021859 0.062617347 0.51600003
-0.16887631 0.062617347 0.51600003
-0.16753402 0.062617347 0.51600003
-0.16619176 0.062617347 0.51600003
-0.16484949 0.062617347 0.51600003
-0.16350722 0.062617347 0.51600003
-0.16216494 0.062617347 0.51600003
-0.16082267 0.062617347 0.51600003
-0.15948041 0.062617347 0.51600003
-0.15813813 0.062617347 0.51600003
-0.15679584 0.062617347 0.51600003
-0.15545358 0.062617347 0.51600003
-0.15411131 0.062617347 0.51600003
-0.15276904 0.062617347 0.51600003
-0.15142678 0.062617347 0.51600003
-0.1500845 0.062617347 0.51600003
-0.14874223 0.062617347 0.51600003
-0.14739995 0.062617347 0.51600003
-0.14605768 0.062617347 0.51600003
-0.14471541 0.062617347 0.51600003
-0.14337313 0.062617347 0.51600003
-0.14203086 0.062617347 0.51600003
-0.1406886 0.062617347 0.51600003
-0.13961637 0.062738694 0.51700002
-0.13827151 0.062738694 0.51700002
-0.13666177 0.062617347 0.51600003
-0.1353195 0.062617347 0.51600003
-0.13397723 0.062617347 0.51600003
-0.13263497 0.062617347 0.51600003
-0.13129269 0.062617347 0.51600003
-0.12995042 0.062617347 0.51600003
-0.12860815 0.062617347 0.51600003
-0.12726587 0.062617347 0.51600003
-0.1259236 0.062617347 0.51600003
-0.12458133 0.062617347 0.51600003
-0.12323906 0.062617347 0.51600003
-0.12189679 0.062617347 0.51600003
-0.12055452 0.062617347 0.51600003
-0.11921224 0.062617347 0.51600003
-0.11786997 0.062617347 0.51600003
-0.1165277 0.062617347 0.51600003
-0.11518543 0.062617347 0.51600003
-0.11406378 0.062738694 0.51700002
-0.1127189 0.062738694 0.51700002
-0.11137404 0.062738694 0.51700002
-0.11002916 0.062738694 0.51700002
-0.10868429 0.062738694 0.51700002
-0.10733941 0.062738694 0.51700002
-0.10599454 0.062738694 0.51700002
-0.10485209 0.062860042 0.51800001
-0.10350461 0.062860042 0.51800001
-0.10215714 0.062860042 0.51800001
-0.10080966 0.062860042 0.51800001
-0.099462181 0.062860042 0.51800001
-0.098114707 0.062860042 0.51800001
-0.096767232 0.062860042 0.51800001
-0.095419765 0.062860042 0.51800001
-0.094072282 0.062860042 0.51800001
-0.092545807 0.062738694 0.51700002
-0.091200933 0.062738694 0.51700002
-0.089856066 0.062738694 0.51700002
-0.088511191 0.062738694 0.51700002
-0.087166317 0.062738694 0.51700002
-0.085821442 0.062738694 0.51700002
-0.084476568 0.062738694 0.51700002
-0.083131701 0.062738694 0.51700002
-0.081786819 0.062738694 0.51700002
-0.080597542 0.062860042 0.51800001
-0.079097077 0.062738694 0.51700002
-0.077902593 0.062860042 0.51800001
-0.076407336 0.062738694 0.51700002
-0.075062454 0.062738694 0.51700002
-0.073860168 0.062860042 0.51800001
-0.072512694 0.062860042 0.51800001
-0.071165219 0.062860042 0.51800001
-0.06995254 0.062981404 0.51900005
-0.068602458 0.062981404 0.51900005
-0.067252383 0.062981404 0.51900005
-0.065902308 0.062981404 0.51900005
-0.064552233 0.062981404 0.51900005
-0.063202158 0.062981404 0.51900005
-0.061971255 0.063102752 0.52000004
-0.060618576 0.063102752 0.52000004
-0.0592659 0.063102752 0.52000004
-0.057801854 0.062981404 0.51900005
-0.056451779 0.062981404 0.51900005
-0.0551017 0.062981404 0.51900005
-0.053751625 0.062981404 0.51900005
-0.05240155 0.062981404 0.51900005
-0.051051475 0.062981404 0.51900005
-0.04960563 0.062860042 0.51800001
-0.048258156 0.062860042 0.51800001
-0.046910681 0.062860042 0.51800001
-0.045563206 0.062860042 0.51800001
-0.044301093 0.062981404 0.51900005
-0.042951018 0.062981404 0.51900005
-0.041600943 0.062981404 0.51900005
0.01516044 0.0632241 0.52100003
0.021978937 0.063345455 0.52200001
0.023381522 0.063466802 0.523
0.024742004 0.063466802 0.523
0.026102485 0.063466802 0.523
0.027462965 0.063466802 0.523
0.032904889 0.063466802 0.523
0.034265369 0.063466802 0.523
0.035625849 0.063466802 0.523
0.036986332 0.063466802 0.523
0.038346812 0.063466802 0.523
0.039707296 0.063466802 0.523
0.041067775 0.063466802 0.523
0.042428255 0.063466802 0.523
0.043872464 0.063588157 0.52400005
0.045235548 0.063588157 0.52400005
0.046598632 0.063588157 0.52400005
0.047961716 0.063588157 0.52400005
0.049324796 0.063588157 0.52400005
0.050687876 0.063588157 0.52400005
0.052050959 0.063588157 0.52400005
0.053414043 0.063588157 0.52400005
0.054777127 0.063588157 0.52400005
0.056140207 0.063588157 0.52400005
0.057393547 0.063466802 0.523
0.058754027 0.063466802 0.523
0.060114507 0.063466802 0.523
0.061474986 0.063466802 0.523
0.06283547 0.063466802 0.523
0.064318702 0.063588157 0.52400005
0.065681778 0.063588157 0.52400005
0.067044869 0.063588157 0.52400005
0.068407945 0.063588157 0.52400005
0.069771037 0.063588157 0.52400005
0.071269862 0.063709505 0.52500004
0.072635546 0.063709505 0.52500004
0.07400123 0.063709505 0.52500004
0.075366914 0.063709505 0.52500004
0.076878756 0.06383086 0.52600002
0.078247041 0.06383086 0.52600002
0.079615325 0.06383086 0.52600002
0.081137568 0.063952208 0.52700001
0.082508452 0.063952208 0.52700001
0.083879344 0.063952208 0.52700001
0.085250221 0.063952208 0.52700001
0.086621113 0.063952208 0.52700001
0.087991998 0.063952208 0.52700001
0.08936289 0.063952208 0.52700001
0.090733774 0.063952208 0.52700001
0.092104651 0.063952208 0.52700001
0.093475543 0.063952208 0.52700001
0.094846427 0.063952208 0.52700001
0.096217319 0.063952208 0.52700001
0.097588204 0.063952208 0.52700001
0.098959081 0.063952208 0.52700001
0.10032997 0.063952208 0.52700001
0.10170086 0.063952208 0.52700001
0.10307175 0.063952208 0.52700001
0.10444263 0.063952208 0.52700001
0.10581353 0.063952208 0.52700001
0.1071844 0.063952208 0.52700001
0.10855529 0.063952208 0.52700001
0.10992618 0.063952208 0.52700001
0.11129706 0.063952208 0.52700001
0.11266796 0.063952208 0.52700001
0.11403883 0.063952208 0.52700001
0.11540972 0.063952208 0.52700001
0.11678061 0.063952208 0.52700001
0.11815149 0.063952208 0.52700001
0.11952239 0.063952208 0.52700001
0.12089326 0.063952208 0.52700001
0.12226415 0.063952208 0.52700001
0.12363504 0.063952208 0.52700001
0.12500592 0.063952208 0.52700001
0.12637681 0.063952208 0.52700001
0.1277477 0.063952208 0.52700001
0.12911859 0.063952208 0.52700001
0.13073707 0.064073555 0.528
0.13211055 0.064073555 0.528
0.13348404 0.064073555 0.528
0.13511297 0.064194918 0.52900004
0.13648905 0.064194918 0.52900004
0.13786514 0.064194918 0.52900004
0.13924122 0.064194918 0.52900004
0.14061733 0.064194918 0.52900004
0.1419934 0.064194918 0.52900004
0.1433695 0.064194918 0.52900004
0.1450192 0.064316265 0.53000003
0.14639789 0.064316265 0.53000003
0.14777659 0.064316265 0.53000003
0.14915527 0.064316265 0.53000003
0.15053396 0.064316265 0.53000003
0.15219927 0.064437613 0.53100002
0.15358056 0.064437613 0.53100002
0.15496187 0.064437613 0.53100002
0.15663758 0.064558968 0.53200001
0.15802146 0.064558968 0.53200001
0.15940535 0.064558968 0.53200001
0.16078925 0.064558968 0.53200001
0.16217315 0.064558968 0.53200001
0.16355704 0.064558968 0.53200001
0.16494094 0.064558968 0.53200001
0.16632482 0.064558968 0.53200001
0.16770872 0.064558968 0.53200001
0.16909261 0.064558968 0.53200001
0.17047651 0.064558968 0.53200001
0.1718604 0.064558968 0.53200001
0.17324428 0.064558968 0.53200001
0.17462818 0.064558968 0.53200001
0.17601208 0.064558968 0.53200001
0.17739597 0.064558968 0.53200001
0.17877986 0.064558968 0.53200001
0.18016374 0.064558968 0.53200001
0.18188892 0.064680323 0.53300005
0.18293154 0.064558968 0.53200001
0.18466191 0.064680323 0.53300005
0.18604839 0.064680323 0.53300005
0.18743488 0.064680323 0.53300005
0.18882139 0.064680323 0.53300005
0.19020788 0.064680323 0.53300005
0.19159438 0.064680323 0.53300005
0.19298087 0.064680323 0.53300005
0.19400269 0.064558968 0.53200001
0.19538657 0.064558968 0.53200001
0.19677046 0.064558968 0.53200001
0.19815436 0.064558968 0.53200001
0.19953825 0.064558968 0.53200001
0.20092215 0.064558968 0.53200001
0.20230603 0.064558968 0.53200001
0.20368993 0.064558968 0.53200001
0.20507382 0.064558968 0.53200001
0.2064577 0.064558968 0.53200001
0.20745094 0.064437613 0.53100002
0.20883222 0.064437613 0.53100002
0.21060939 0.064558968 0.53200001
0.21199328 0.064558968 0.53200001
0.21337716 0.064558968 0.53200001
0.21476108 0.064558968 0.53200001
0.21614496 0.064558968 0.53200001
0.21752885 0.064558968 0.53200001
0.21932425 0.064680323 0.53300005
0.22071074 0.064680323 0.53300005
0.22251393 0.064801671 0.53400004
0.22390303 0.064801671 0.53400004
0.22571401 0.064923018 0.53500003
0.22710571 0.064923018 0.53500003
0.22849742 0.064923018 0.53500003
0.22988911 0.064923018 0.53500003
0.2312808 0.064923018 0.53500003
0.2326725 0.064923018 0.53500003
0.23406419 0.064923018 0.53500003
0.2354559 0.064923018 0.53500003
0.23640488 0.064801671 0.53400004
0.23779398 0.064801671 0.53400004
0.23918307 0.064801671 0.53400004
0.24012166 0.064680323 0.53300005
0.24150817 0.064680323 0.53300005
0.24289466 0.064680323 0.53300005
0.24428114 0.064680323 0.53300005
0.24566764 0.064680323 0.53300005
0.2465906 0.064558968 0.53200001
0.2479745 0.064558968 0.53200001
0.24935839 0.064558968 0.53200001
0.25074229 0.064558968 0.53200001
0.25212616 0.064558968 0.53200001
0.25351006 0.064558968 0.53200001
0.25537312 0.064680323 0.53300005
0.25675958 0.064680323 0.53300005
0.25814608 0.064680323 0.53300005
-0.28067163 0.062844045 0.50700003
-0.27935275 0.062844045 0.50700003
-0.2785823 0.062967993 0.50800002
-0.27726081 0.062967993 0.50800002
-0.27648252 0.063091941 0.509
-0.27515849 0.063091941 0.509
-0.27383441 0.063091941 0.509
-0.27251038 0.063091941 0.509
-0.27118629 0.063091941 0.509
-0.2698622 0.063091941 0.509
-0.26906577 0.063215904 0.51000005
-0.26773909 0.063215904 0.51000005
-0.26589006 0.063091941 0.509
-0.26456597 0.063091941 0.509
-0.26324192 0.063091941 0.509
-0.26191786 0.063091941 0.509
-0.26059377 0.063091941 0.509
-0.25926974 0.063091941 0.509
-0.25794566 0.063091941 0.509
-0.2566216 0.063091941 0.509
-0.25529754 0.063091941 0.509
-0.25397348 0.063091941 0.509
-0.25264943 0.063091941 0.509
-0.25132534 0.063091941 0.509
-0.25000128 0.063091941 0.509
-0.24867722 0.063091941 0.509
-0.24735317 0.063091941 0.509
-0.24651249 0.063215904 0.51000005
-0.24518582 0.063215904 0.51000005
-0.24385916 0.063215904 0.51000005
-0.24253248 0.063215904 0.51000005
-0.24120583 0.063215904 0.51000005
-0.2403495 0.063339852 0.51100004
-0.23902024 0.063339852 0.51100004
-0.23769097 0.063339852 0.51100004
-0.23682424 0.063463807 0.51200002
-0.23549238 0.063463807 0.51200002
-0.23416051 0.063463807 0.51200002
-0.23282866 0.063463807 0.51200002
-0.23149678 0.063463807 0.51200002
-0.23061445 0.063587755 0.51300001
-0.22927998 0.063587755 0.51300001
-0.22794552 0.063587755 0.51300001
-0.22661105 0.063587755 0.51300001
-0.22527657 0.063587755 0.51300001
-0.22394212 0.063587755 0.51300001
-0.22260764 0.063587755 0.51300001
-0.22084185 0.063463807 0.51200002
-0.21950999 0.063463807 0.51200002
-0.21817811 0.063463807 0.51200002
-0.21684624 0.063463807 0.51200002
-0.21551438 0.063463807 0.51200002
-0.21418253 0.063463807 0.51200002
-0.21285066 0.063463807 0.51200002
-0.21151878 0.063463807 0.51200002
-0.21018691 0.063463807 0.51200002
-0.20885505 0.063463807 0.51200002
-0.20752318 0.063463807 0.51200002
-0.20619132 0.063463807 0.51200002
-0.20485945 0.063463807 0.51200002
-0.20352758 0.063463807 0.51200002
-0.20219572 0.063463807 0.51200002
-0.20086385 0.063463807 0.51200002
-0.19953197 0.063463807 0.51200002
-0.19858722 0.063587755 0.51300001
-0.19725275 0.063587755 0.51300001
-0.19591829 0.063587755 0.51300001
-0.19496313 0.06371171 0.514
-0.19362605 0.06371171 0.514
-0.19228898 0.06371171 0.514
-0.19132343 0.063835666 0.51500005
-0.18998377 0.063835666 0.51500005
-0.1886441 0.063835666 0.51500005
-0.1876681 0.063959621 0.51600003
-0.18632583 0.063959621 0.51600003
-0.18498357 0.063959621 0.51600003
-0.1836413 0.063959621 0.51600003
-0.18229902 0.063959621 0.51600003
-0.18095675 0.063959621 0.51600003
-0.17961448 0.063959621 0.51600003
-0.1782722 0.063959621 0.51600003
-0.17692994 0.063959621 0.51600003
-0.17558765 0.063959621 0.51600003
-0.17424539 0.063959621 0.51600003
-0.17290312 0.063959621 0.51600003
-0.17156085 0.063959621 0.51600003
-0.17021859 0.063959621 0.51600003
-0.16887631 0.063959621 0.51600003
-0.16753402 0.063959621 0.51600003
-0.16619176 0.063959621 0.51600003
-0.16484949 0.063959621 0.51600003
-0.16350722 0.063959621 0.51600003
-0.16216494 0.063959621 0.51600003
-0.16082267 0.063959621 0.51600003
-0.15948041 0.063959621 0.51600003
-0.15813813 0.063959621 0.51600003
-0.15679584 0.063959621 0.51600003
-0.15545358 0.063959621 0.51600003
-0.15411131 0.063959621 0.51600003
-0.15276904 0.063959621 0.51600003
-0.15142678 0.063959621 0.51600003
-0.1500845 0.063959621 0.51600003
-0.14874223 0.063959621 0.51600003
-0.14739995 0.063959621 0.51600003
-0.14605768 0.063959621 0.51600003
-0.14471541 0.063959621 0.51600003
-0.14337313 0.063959621 0.51600003
-0.14203086 0.063959621 0.51600003
-0.1406886 0.063959621 0.51600003
-0.13934633 0.063959621 0.51600003
-0.13800406 0.063959621 0.51600003
-0.13666177 0.063959621 0.51600003
-0.1353195 0.063959621 0.51600003
-0.13397723 0.063959621 0.51600003
-0.13263497 0.063959621 0.51600003
-0.13129269 0.063959621 0.51600003
-0.12995042 0.063959621 0.51600003
-0.12860815 0.063959621 0.51600003
-0.12726587 0.063959621 0.51600003
-0.1259236 0.063959621 0.51600003
-0.12458133 0.063959621 0.51600003
-0.12323906 0.063959621 0.51600003
-0.12189679 0.063959621 0.51600003
-0.12055452 0.063959621 0.51600003
-0.11921224 0.063959621 0.51600003
-0.11786997 0.063959621 0.51600003
-0.1165277 0.063959621 0.51600003
-0.11518543 0.063959621 0.51600003
-0.11384316 0.063959621 0.51600003
-0.1127189 0.064083569 0.51700002
-0.11137404 0.064083569 0.51700002
-0.11002916 0.064083569 0.51700002
-0.10868429 0.064083569 0.51700002
-0.10733941 0.064083569 0.51700002
-0.10599454 0.064083569 0.51700002
-0.10464967 0.064083569 0.51700002
-0.10350461 0.064207517 0.51800001
-0.10215714 0.064207517 0.51800001
-0.10080966 0.064207517 0.51800001
-0.099462181 0.064207517 0.51800001
-0.098114707 0.064207517 0.51800001
-0.096767232 0.064207517 0.51800001
-0.095419765 0.064207517 0.51800001
-0.093890682 0.064083569 0.51700002
-0.092545807 0.064083569 0.51700002
-0.091200933 0.064083569 0.51700002
-0.089856066 0.064083569 0.51700002
-0.088511191 0.064083569 0.51700002
-0.087166317 0.064083569 0.51700002
-0.085821442 0.064083569 0.51700002
-0.084476568 0.064083569 0.51700002
-0.083131701 0.064083569 0.51700002
-0.081786819 0.064083569 0.51700002
-0.080441952 0.064083569 0.51700002
-0.079097077 0.064083569 0.51700002
-0.077752203 0.064083569 0.51700002
-0.076407336 0.064083569 0.51700002
-0.075062454 0.064083569 0.51700002
-0.073860168 0.064207517 0.51800001
-0.072512694 0.064207517 0.51800001
-0.071302608 0.064331479 0.51900005
-0.06995254 0.064331479 0.51900005
-0.068602458 0.064331479 0.51900005
-0.067252383 0.064331479 0.51900005
-0.065902308 0.064331479 0.51900005
-0.064676613 0.064455427 0.52000004
-0.06332393 0.064455427 0.52000004
-0.061971255 0.064455427 0.52000004
-0.060618576 0.064455427 0.52000004
-0.0592659 0.064455427 0.52000004
-0.057913225 0.064455427 0.52000004
-0.056560546 0.064455427 0.52000004
-0.055207867 0.064455427 0.52000004
-0.053751625 0.064331479 0.51900005
-0.05240155 0.064331479 0.51900005
-0.051051475 0.064331479 0.51900005
-0.0497014 0.064331479 0.51900005
-0.048258156 0.064207517 0.51800001
-0.046910681 0.064207517 0.51800001
-0.045563206 0.064207517 0.51800001
-0.044301093 0.064331479 0.51900005
-0.042951018 0.064331479 0.51900005
-0.041600943 0.064331479 0.51900005
-0.017299578 0.064331479 0.51900005
-0.015949503 0.064331479 0.51900005
-0.014627554 0.064455427 0.52000004
-0.013274878 0.064455427 0.52000004
-0.011945128 0.064579383 0.52100003
-0.006549058 0.064827286 0.523
0.0016138274 0.064827286 0.523
0.0029743081 0.064827286 0.523
0.0043347892 0.064827286 0.523
0.012449883 0.064579383 0.52100003
0.013805161 0.064579383 0.52100003
0.01516044 0.064579383 0.52100003
0.016515719 0.064579383 0.52100003
0.017870998 0.064579383 0.52100003
0.019263176 0.06470333 0.52200001
0.020621058 0.06470333 0.52200001
0.021978937 0.06470333 0.52200001
0.023336815 0.06470333 0.52200001
0.024694696 0.06470333 0.52200001
0.026102485 0.064827286 0.523
0.027462965 0.064827286 0.523
0.028823446 0.064827286 0.523
0.030183928 0.064827286 0.523
0.031544406 0.064827286 0.523
0.032904889 0.064827286 0.523
0.03433089 0.064951241 0.52400005
0.03569397 0.064951241 0.52400005
0.037057053 0.064951241 0.52400005
0.038420137 0.064951241 0.52400005
0.039783221 0.064951241 0.52400005
0.041146304 0.064951241 0.52400005
0.042509381 0.064951241 0.52400005
0.043872464 0.064951241 0.52400005
0.045235548 0.064951241 0.52400005
0.046598632 0.064951241 0.52400005
0.047961716 0.064951241 0.52400005
0.049324796 0.064951241 0.52400005
0.050687876 0.064951241 0.52400005
0.052050959 0.064951241 0.52400005
0.053414043 0.064951241 0.52400005
0.054777127 0.064951241 0.52400005
0.056140207 0.064951241 0.52400005
0.057393547 0.064827286 0.523
0.058754027 0.064827286 0.523
0.060229454 0.064951241 0.52400005
0.061592538 0.064951241 0.52400005
0.062955618 0.064951241 0.52400005
0.064318702 0.064951241 0.52400005
0.065681778 0.064951241 0.52400005
0.067044869 0.064951241 0.52400005
0.068407945 0.064951241 0.52400005
0.069904186 0.065075189 0.52500004
0.071269862 0.065075189 0.52500004
0.072635546 0.065075189 0.52500004
0.07400123 0.065075189 0.52500004
0.075510465 0.065199144 0.52600002
0.076878756 0.065199144 0.52600002
0.078247041 0.065199144 0.52600002
0.079615325 0.065199144 0.52600002
0.081137568 0.065323092 0.52700001
0.082508452 0.065323092 0.52700001
0.083879344 0.065323092 0.52700001
0.085250221 0.065323092 0.52700001
0.086621113 0.065323092 0.52700001
0.087991998 0.065323092 0.52700001
0.08936289 0.065323092 0.52700001
0.090733774 0.065323092 0.52700001
0.092104651 0.065323092 0.52700001
0.093475543 0.065323092 0.52700001
0.094846427 0.065323092 0.52700001
0.096217319 0.065323092 0.52700001
0.097588204 0.065323092 0.52700001
0.098959081 0.065323092 0.52700001
0.10032997 0.065323092 0.52700001
0.10170086 0.065323092 0.52700001
0.10307175 0.065323092 0.52700001
0.10444263 0.065323092 0.52700001
0.10581353 0.065323092 0.52700001
0.1071844 0.065323092 0.52700001
0.10876127 0.065447047 0.528
0.11013477 0.065447047 0.528
0.11150825 0.065447047 0.528
0.11266796 0.065323092 0.52700001
0.11403883 0.065323092 0.52700001
0.11540972 0.065323092 0.52700001
0.11678061 0.065323092 0.52700001
0.11815149 0.065323092 0.52700001
0.11952239 0.065323092 0.52700001
0.12089326 0.065323092 0.52700001
0.12226415 0.065323092 0.52700001
0.12363504 0.065323092 0.52700001
0.12500592 0.065323092 0.52700001
0.12637681 0.065323092 0.52700001
0.1277477 0.065323092 0.52700001
0.12911859 0.065323092 0.52700001
0.13073707 0.065447047 0.528
0.13211055 0.065447047 0.528
0.13348404 0.065447047 0.528
0.13485754 0.065447047 0.528
0.13648905 0.065571003 0.52900004
0.13786514 0.065571003 0.52900004
0.13924122 0.065571003 0.52900004
0.14061733 0.065571003 0.52900004
0.1419934 0.065571003 0.52900004
0.1433695 0.065571003 0.52900004
0.14474557 0.065571003 0.52900004
0.14639789 0.065694958 0.53000003
0.14777659 0.065694958 0.53000003
0.14915527 0.065694958 0.53000003
0.15053396 0.065694958 0.53000003
0.15191264 0.065694958 0.53000003
0.15329133 0.065694958 0.53000003
0.15496187 0.065818906 0.53100002
0.15634315 0.065818906 0.53100002
0.15772444 0.065818906 0.53100002
0.15910573 0.065818906 0.53100002
0.16048701 0.065818906 0.53100002
0.16217315 0.065942861 0.53200001
0.16355704 0.065942861 0.53200001
0.16494094 0.065942861 0.53200001
0.16632482 0.065942861 0.53200001
0.16770872 0.065942861 0.53200001
0.16909261 0.065942861 0.53200001
0.17047651 0.065942861 0.53200001
0.17218345 0.066066816 0.53300005
0.17356995 0.066066816 0.53300005
0.17462818 0.065942861 0.53200001
0.17601208 0.065942861 0.53200001
0.17739597 0.065942861 0.53200001
0.17877986 0.065942861 0.53200001
0.18016374 0.065942861 0.53200001
0.18154766 0.065942861 0.53200001
0.18293154 0.065942861 0.53200001
0.18431543 0.065942861 0.53200001
0.18569931 0.065942861 0.53200001
0.18708321 0.065942861 0.53200001
0.18846712 0.065942861 0.53200001
0.189851 0.065942861 0.53200001
0.19123489 0.065942861 0.53200001
0.19261879 0.065942861 0.53200001
0.19400269 0.065942861 0.53200001
0.19538657 0.065942861 0.53200001
0.19677046 0.065942861 0.53200001
0.19815436 0.065942861 0.53200001
0.19953825 0.065942861 0.53200001
0.20092215 0.065942861 0.53200001
0.20230603 0.065942861 0.53200001
0.20368993 0.065942861 0.53200001
0.20507382 0.065942861 0.53200001
0.2064577 0.065942861 0.53200001
0.2078416 0.065942861 0.53200001
0.20922551 0.065942861 0.53200001
0.21060939 0.065942861 0.53200001
0.21199328 0.065942861 0.53200001
0.21337716 0.065942861 0.53200001
0.21476108 0.065942861 0.53200001
0.21614496 0.065942861 0.53200001
0.21752885 0.065942861 0.53200001
0.21932425 0.066066816 0.53300005
0.22071074 0.066066816 0.53300005
0.22251393 0.066190764 0.53400004
0.22390303 0.066190764 0.53400004
0.22529212 0.066190764 0.53400004
0.22710571 0.06631472 0.53500003
0.22849742 0.06631472 0.53500003
0.22988911 0.06631472 0.53500003
0.2312808 0.06631472 0.53500003
0.2326725 0.06631472 0.53500003
0.23406419 0.06631472 0.53500003
0.2354559 0.06631472 0.53500003
0.23684759 0.06631472 0.53500003
0.23779398 0.066190764 0.53400004
0.23918307 0.066190764 0.53400004
0.24057217 0.066190764 0.53400004
0.24196127 0.066190764 0.53400004
0.24335036 0.066190764 0.53400004
0.24473946 0.066190764 0.53400004
0.24566764 0.066066816 0.53300005
0.24705413 0.066066816 0.53300005
0.24844064 0.066066816 0.53300005
0.24935839 0.065942861 0.53200001
0.25074229 0.065942861 0.53200001
0.25212616 0.065942861 0.53200001
0.25398663 0.066066816 0.53300005
0.25537312 0.066066816 0.53300005
0.25675958 0.066066816 0.53300005
0.25814608 0.066066816 0.53300005
-0.28067163 0.064162903 0.50700003
-0.27935275 0.064162903 0.50700003
-0.2785823 0.064289458 0.50800002
-0.27726081 0.064289458 0.50800002
-0.27648252 0.064416006 0.509
-0.27515849 0.064416006 0.509
-0.27437243 0.064542569 0.51000005
-0.27304578 0.064542569 0.51000005
-0.2717191 0.064542569 0.51000005
-0.27039242 0.064542569 0.51000005
-0.26906577 0.064542569 0.51000005
-0.26773909 0.064542569 0.51000005
-0.26641247 0.064542569 0.51000005
-0.26508579 0.064542569 0.51000005
-0.26375911 0.064542569 0.51000005
-0.26243246 0.064542569 0.51000005
-0.26110578 0.064542569 0.51000005
-0.25977913 0.064542569 0.51000005
-0.25845245 0.064542569 0.51000005
-0.25712579 0.064542569 0.51000005
-0.25579914 0.064542569 0.51000005
-0.25447246 0.064542569 0.51000005
-0.25314581 0.064542569 0.51000005
-0.25181913 0.064542569 0.51000005
-0.25049248 0.064542569 0.51000005
-0.2491658 0.064542569 0.51000005
-0.24783914 0.064542569 0.51000005
-0.24651249 0.064542569 0.51000005
-0.24518582 0.064542569 0.51000005
-0.24385916 0.064542569 0.51000005
-0.24300803 0.064669117 0.51100004
-0.24167877 0.064669117 0.51100004
-0.2403495 0.064669117 0.51100004
-0.23948799 0.064795673 0.51200002
-0.23815611 0.064795673 0.51200002
-0.23682424 0.064795673 0.51200002
-0.23549238 0.064795673 0.51200002
-0.23461786 0.064922228 0.51300001
-0.23328339 0.064922228 0.51300001
-0.23194891 0.064922228 0.51300001
-0.23061445 0.064922228 0.51300001
-0.22972691 0.065048777 0.514
-0.22838984 0.065048777 0.514
-0.22705278 0.065048777 0.514
-0.2257157 0.065048777 0.514
-0.22437863 0.065048777 0.514
-0.22260764 0.064922228 0.51300001
-0.22127318 0.064922228 0.51300001
-0.21993871 0.064922228 0.51300001
-0.21817811 0.064795673 0.51200002
-0.21684624 0.064795673 0.51200002
-0.21551438 0.064795673 0.51200002
-0.21418253 0.064795673 0.51200002
-0.21285066 0.064795673 0.51200002
-0.21151878 0.064795673 0.51200002
-0.21018691 0.064795673 0.51200002
-0.20885505 0.064795673 0.51200002
-0.20752318 0.064795673 0.51200002
-0.20659402 0.064922228 0.51300001
-0.20525956 0.064922228 0.51300001
-0.20392509 0.064922228 0.51300001
-0.20259063 0.064922228 0.51300001
-0.20125616 0.064922228 0.51300001
-0.19992168 0.064922228 0.51300001
-0.19858722 0.064922228 0.51300001
-0.19725275 0.064922228 0.51300001
-0.19591829 0.064922228 0.51300001
-0.19458382 0.064922228 0.51300001
-0.19362605 0.065048777 0.514
-0.19228898 0.065048777 0.514
-0.19132343 0.06517534 0.51500005
-0.18998377 0.06517534 0.51500005
-0.1886441 0.06517534 0.51500005
-0.18730441 0.06517534 0.51500005
-0.18632583 0.065301888 0.51600003
-0.18498357 0.065301888 0.51600003
-0.1836413 0.065301888 0.51600003
-0.18229902 0.065301888 0.51600003
-0.18095675 0.065301888 0.51600003
-0.17961448 0.065301888 0.51600003
-0.1782722 0.065301888 0.51600003
-0.17692994 0.065301888 0.51600003
-0.17558765 0.065301888 0.51600003
-0.17424539 0.065301888 0.51600003
-0.17290312 0.065301888 0.51600003
-0.17156085 0.065301888 0.51600003
-0.17021859 0.065301888 0.51600003
-0.16887631 0.065301888 0.51600003
-0.16753402 0.065301888 0.51600003
-0.16619176 0.065301888 0.51600003
-0.16484949 0.065301888 0.51600003
-0.16350722 0.065301888 0.51600003
-0.16216494 0.065301888 0.51600003
-0.16082267 0.065301888 0.51600003
-0.15948041 0.065301888 0.51600003
-0.15813813 0.065301888 0.51600003
-0.15679584 0.065301888 0.51600003
-0.15545358 0.065301888 0.51600003
-0.15411131 0.065301888 0.51600003
-0.15276904 0.065301888 0.51600003
-0.15142678 0.065301888 0.51600003
-0.1500845 0.065301888 0.51600003
-0.14874223 0.065301888 0.51600003
-0.14739995 0.065301888 0.51600003
-0.14605768 0.065301888 0.51600003
-0.14471541 0.065301888 0.51600003
-0.14337313 0.065301888 0.51600003
-0.14203086 0.065301888 0.51600003
-0.14096124 0.065428443 0.51700002
-0.13934633 0.065301888 0.51600003
-0.13800406 0.065301888 0.51600003
-0.13666177 0.065301888 0.51600003
-0.1353195 0.065301888 0.51600003
-0.13397723 0.065301888 0.51600003
-0.13263497 0.065301888 0.51600003
-0.13129269 0.065301888 0.51600003
-0.12995042 0.065301888 0.51600003
-0.12835892 0.06517534 0.51500005
-0.12701924 0.06517534 0.51500005
-0.12567957 0.06517534 0.51500005
-0.12458133 0.065301888 0.51600003
-0.12323906 0.065301888 0.51600003
-0.12189679 0.065301888 0.51600003
-0.12055452 0.065301888 0.51600003
-0.11921224 0.065301888 0.51600003
-0.11786997 0.065301888 0.51600003
-0.1165277 0.065301888 0.51600003
-0.11518543 0.065301888 0.51600003
-0.11384316 0.065301888 0.51600003
-0.1127189 0.065428443 0.51700002
-0.11137404 0.065428443 0.51700002
-0.11002916 0.065428443 0.51700002
-0.10868429 0.065428443 0.51700002
-0.10733941 0.065428443 0.51700002
-0.10599454 0.065428443 0.51700002
-0.10464967 0.065428443 0.51700002
-0.10350461 0.065554991 0.51800001
-0.10215714 0.065554991 0.51800001
-0.10080966 0.065554991 0.51800001
-0.099462181 0.065554991 0.51800001
-0.098114707 0.065554991 0.51800001
-0.096767232 0.065554991 0.51800001
-0.095419765 0.065554991 0.51800001
-0.093890682 0.065428443 0.51700002
-0.092545807 0.065428443 0.51700002
-0.091200933 0.065428443 0.51700002
-0.089856066 0.065428443 0.51700002
-0.088511191 0.065428443 0.51700002
-0.087166317 0.065428443 0.51700002
-0.085821442 0.065428443 0.51700002
-0.084476568 0.065428443 0.51700002
-0.083131701 0.065428443 0.51700002
-0.081786819 0.065428443 0.51700002
-0.080441952 0.065428443 0.51700002
-0.079097077 0.065428443 0.51700002
-0.077752203 0.065428443 0.51700002
-0.076407336 0.065428443 0.51700002
-0.075062454 0.065428443 0.51700002
-0.073860168 0.065554991 0.51800001
-0.072512694 0.065554991 0.51800001
-0.071302608 0.065681554 0.51900005
-0.06995254 0.065681554 0.51900005
-0.068602458 0.065681554 0.51900005
-0.067252383 0.065681554 0.51900005
-0.06602928 0.06580811 0.52000004
-0.064676613 0.06580811 0.52000004
-0.06344571 0.065934658 0.52100003
-0.062090427 0.065934658 0.52100003
-0.060735147 0.065934658 0.52100003
-0.059379872 0.065934658 0.52100003
-0.058024596 0.065934658 0.52100003
-0.056560546 0.06580811 0.52000004
-0.055207867 0.06580811 0.52000004
-0.053751625 0.065681554 0.51900005
-0.05240155 0.065681554 0.51900005
-0.051051475 0.065681554 0.51900005
-0.0497014 0.065681554 0.51900005
-0.048258156 0.065554991 0.51800001
-0.047001246 0.065681554 0.51900005
-0.045651171 0.065681554 0.51900005
-0.044301093 0.065681554 0.51900005
-0.042951018 0.065681554 0.51900005
-0.041600943 0.065681554 0.51900005
-0.040250868 0.065681554 0.51900005
-0.038900793 0.065681554 0.51900005
-0.037623066 0.06580811 0.52000004
-0.024003614 0.065554991 0.51800001
-0.022612404 0.065428443 0.51700002
-0.021308666 0.065554991 0.51800001
-0.019961191 0.065554991 0.51800001
-0.018613718 0.065554991 0.51800001
-0.017299578 0.065681554 0.51900005
-0.015949503 0.065681554 0.51900005
-0.014599426 0.065681554 0.51900005
-0.013274878 0.06580811 0.52000004
-0.011922201 0.06580811 0.52000004
-0.010589849 0.065934658 0.52100003
-0.0092522958 0.066061214 0.52200001
-0.0078944163 0.066061214 0.52200001
-0.006549058 0.066187762 0.523
-0.0051885773 0.066187762 0.523
0.0002533464 0.066187762 0.523
0.0016138274 0.066187762 0.523
0.0029743081 0.066187762 0.523
0.0043265009 0.066061214 0.52200001
0.0056843804 0.066061214 0.52200001
0.011094605 0.065934658 0.52100003
0.012449883 0.065934658 0.52100003
0.013805161 0.065934658 0.52100003
0.01516044 0.065934658 0.52100003
0.016515719 0.065934658 0.52100003
0.017870998 0.065934658 0.52100003
0.019263176 0.066061214 0.52200001
0.020621058 0.066061214 0.52200001
0.021978937 0.066061214 0.52200001
0.023336815 0.066061214 0.52200001
0.024694696 0.066061214 0.52200001
0.026102485 0.066187762 0.523
0.027462965 0.066187762 0.523
0.028823446 0.066187762 0.523
0.030183928 0.066187762 0.523
0.031544406 0.066187762 0.523
0.032904889 0.066187762 0.523
0.03433089 0.066314325 0.52400005
0.03569397 0.066314325 0.52400005
0.037057053 0.066314325 0.52400005
0.038420137 0.066314325 0.52400005
0.039783221 0.066314325 0.52400005
0.041146304 0.066314325 0.52400005
0.042509381 0.066314325 0.52400005
0.043872464 0.066314325 0.52400005
0.045235548 0.066314325 0.52400005
0.046598632 0.066314325 0.52400005
0.047961716 0.066314325 0.52400005
0.049324796 0.066314325 0.52400005
0.050687876 0.066314325 0.52400005
0.052050959 0.066314325 0.52400005
0.053414043 0.066314325 0.52400005
0.054777127 0.066314325 0.52400005
0.056140207 0.066314325 0.52400005
0.057393547 0.066187762 0.523
0.058866374 0.066314325 0.52400005
0.060229454 0.066314325 0.52400005
0.061592538 0.066314325 0.52400005
0.062955618 0.066314325 0.52400005
0.064318702 0.066314325 0.52400005
0.065681778 0.066314325 0.52400005
0.067044869 0.066314325 0.52400005
0.068538494 0.06644088 0.52500004
0.069904186 0.06644088 0.52500004
0.071269862 0.06644088 0.52500004
0.072635546 0.06644088 0.52500004
0.07400123 0.06644088 0.52500004
0.075510465 0.066567428 0.52600002
0.076878756 0.066567428 0.52600002
0.078247041 0.066567428 0.52600002
0.079615325 0.066567428 0.52600002
0.081137568 0.066693984 0.52700001
0.082508452 0.066693984 0.52700001
0.083879344 0.066693984 0.52700001
0.085250221 0.066693984 0.52700001
0.086621113 0.066693984 0.52700001
0.087991998 0.066693984 0.52700001
0.08936289 0.066693984 0.52700001
0.090733774 0.066693984 0.52700001
0.092104651 0.066693984 0.52700001
0.093475543 0.066693984 0.52700001
0.094846427 0.066693984 0.52700001
0.096217319 0.066693984 0.52700001
0.097588204 0.066693984 0.52700001
0.098959081 0.066693984 0.52700001
0.10032997 0.066693984 0.52700001
0.10189383 0.066820532 0.528
0.10326733 0.066820532 0.528
0.10464081 0.066820532 0.528
0.1060143 0.066820532 0.528
0.10738779 0.066820532 0.528
0.10876127 0.066820532 0.528
0.11013477 0.066820532 0.528
0.11150825 0.066820532 0.528
0.11288174 0.066820532 0.528
0.11425523 0.066820532 0.528
0.11562871 0.066820532 0.528
0.1170022 0.066820532 0.528
0.11837568 0.066820532 0.528
0.11952239 0.066693984 0.52700001
0.12089326 0.066693984 0.52700001
0.12226415 0.066693984 0.52700001
0.12363504 0.066693984 0.52700001
0.12500592 0.066693984 0.52700001
0.12637681 0.066693984 0.52700001
0.1279901 0.066820532 0.528
0.1293636 0.066820532 0.528
0.13073707 0.066820532 0.528
0.13211055 0.066820532 0.528
0.13348404 0.066820532 0.528
0.13511297 0.066947095 0.52900004
0.13648905 0.066947095 0.52900004
0.13786514 0.066947095 0.52900004
0.13924122 0.066947095 0.52900004
0.14061733 0.066947095 0.52900004
0.1419934 0.066947095 0.52900004
0.1433695 0.066947095 0.52900004
0.14474557 0.066947095 0.52900004
0.14612167 0.066947095 0.52900004
0.14749777 0.066947095 0.52900004
0.14915527 0.067073643 0.53000003
0.15053396 0.067073643 0.53000003
0.15191264 0.067073643 0.53000003
0.15358056 0.067200199 0.53100002
0.15496187 0.067200199 0.53100002
0.15634315 0.067200199 0.53100002
0.15772444 0.067200199 0.53100002
0.15910573 0.067200199 0.53100002
0.16048701 0.067200199 0.53100002
0.16186832 0.067200199 0.53100002
0.16355704 0.067326754 0.53200001
0.16494094 0.067326754 0.53200001
0.16632482 0.067326754 0.53200001
0.16770872 0.067326754 0.53200001
0.16909261 0.067326754 0.53200001
0.17047651 0.067326754 0.53200001
0.17218345 0.06745331 0.53300005
0.17356995 0.06745331 0.53300005
0.17462818 0.067326754 0.53200001
0.17601208 0.067326754 0.53200001
0.17739597 0.067326754 0.53200001
0.17877986 0.067326754 0.53200001
0.18016374 0.067326754 0.53200001
0.18154766 0.067326754 0.53200001
0.18293154 0.067326754 0.53200001
0.18431543 0.067326754 0.53200001
0.18569931 0.067326754 0.53200001
0.18708321 0.067326754 0.53200001
0.18846712 0.067326754 0.53200001
0.189851 0.067326754 0.53200001
0.19123489 0.067326754 0.53200001
0.19261879 0.067326754 0.53200001
0.19400269 0.067326754 0.53200001
0.19538657 0.067326754 0.53200001
0.19677046 0.067326754 0.53200001
0.19815436 0.067326754 0.53200001
0.19953825 0.067326754 0.53200001
0.20092215 0.067326754 0.53200001
0.20230603 0.067326754 0.53200001
0.20368993 0.067326754 0.53200001
0.20507382 0.067326754 0.53200001
0.20684581 0.06745331 0.53300005
0.2078416 0.067326754 0.53200001
0.20922551 0.067326754 0.53200001
0.21060939 0.067326754 0.53200001
0.21199328 0.067326754 0.53200001
0.21337716 0.067326754 0.53200001
0.21476108 0.067326754 0.53200001
0.21614496 0.067326754 0.53200001
0.21752885 0.067326754 0.53200001
0.21932425 0.06745331 0.53300005
0.22071074 0.06745331 0.53300005
0.22251393 0.067579865 0.53400004
0.22390303 0.067579865 0.53400004
0.22529212 0.067579865 0.53400004
0.22710571 0.067706414 0.53500003
0.22849742 0.067706414 0.53500003
0.22988911 0.067706414 0.53500003
0.2312808 0.067706414 0.53500003
0.2326725 0.067706414 0.53500003
0.23406419 0.067706414 0.53500003
0.2354559 0.067706414 0.53500003
0.23684759 0.067706414 0.53500003
0.23779398 0.067579865 0.53400004
0.23918307 0.067579865 0.53400004
0.24057217 0.067579865 0.53400004
0.24196127 0.067579865 0.53400004
0.24335036 0.067579865 0.53400004
0.24473946 0.067579865 0.53400004
0.24612854 0.067579865 0.53400004
0.24705413 0.06745331 0.53300005
0.24844064 0.06745331 0.53300005
0.24982713 0.06745331 0.53300005
0.25121361 0.06745331 0.53300005
0.2526001 0.06745331 0.53300005
0.25398663 0.06745331 0.53300005
0.25537312 0.06745331 0.53300005
0.25675958 0.06745331 0.53300005
0.25814608 0.06745331 0.53300005
-0.28067163 0.06548176 0.50700003
-0.27990374 0.065610915 0.50800002
-0.2785823 0.065610915 0.50800002
-0.27780661 0.065740064 0.509
-0.27648252 0.065740064 0.509
-0.27569911 0.065869227 0.51000005
-0.27437243 0.065869227 0.51000005
-0.27304578 0.065869227 0.51000005
-0.2717191 0.065869227 0.51000005
-0.27039242 0.065869227 0.51000005
-0.26906577 0.065869227 0.51000005
-0.26773909 0.065869227 0.51000005
-0.26641247 0.065869227 0.51000005
-0.26508579 0.065869227 0.51000005
-0.26375911 0.065869227 0.51000005
-0.26243246 0.065869227 0.51000005
-0.26110578 0.065869227 0.51000005
-0.25977913 0.065869227 0.51000005
-0.25845245 0.065869227 0.51000005
-0.25712579 0.065869227 0.51000005
-0.25579914 0.065869227 0.51000005
-0.25447246 0.065869227 0.51000005
-0.25314581 0.065869227 0.51000005
-0.25181913 0.065869227 0.51000005
-0.25049248 0.065869227 0.51000005
-0.2491658 0.065869227 0.51000005
-0.24783914 0.065869227 0.51000005
-0.24651249 0.065869227 0.51000005
-0.24566656 0.065998383 0.51100004
-0.24433731 0.065998383 0.51100004
-0.24300803 0.065998383 0.51100004
-0.24167877 0.065998383 0.51100004
-0.24081986 0.066127539 0.51200002
-0.23948799 0.066127539 0.51200002
-0.23815611 0.066127539 0.51200002
-0.23682424 0.066127539 0.51200002
-0.23595232 0.066256687 0.51300001
-0.23461786 0.066256687 0.51300001
-0.23328339 0.066256687 0.51300001
-0.23240104 0.066385843 0.514
-0.23106398 0.066385843 0.514
-0.22972691 0.066385843 0.514
-0.22838984 0.066385843 0.514
-0.22705278 0.066385843 0.514
-0.2257157 0.066385843 0.514
-0.22437863 0.066385843 0.514
-0.22260764 0.066256687 0.51300001
-0.22127318 0.066256687 0.51300001
-0.21993871 0.066256687 0.51300001
-0.21860424 0.066256687 0.51300001
-0.21726976 0.066256687 0.51300001
-0.21551438 0.066127539 0.51200002
-0.21418253 0.066127539 0.51200002
-0.21285066 0.066127539 0.51200002
-0.21151878 0.066127539 0.51200002
-0.21059743 0.066256687 0.51300001
-0.20926297 0.066256687 0.51300001
-0.20792851 0.066256687 0.51300001
-0.20659402 0.066256687 0.51300001
-0.20525956 0.066256687 0.51300001
-0.20432261 0.066385843 0.514
-0.20298554 0.066385843 0.514
-0.20164847 0.066385843 0.514
-0.20031139 0.066385843 0.514
-0.19897433 0.066385843 0.514
-0.19763726 0.066385843 0.514
-0.19630019 0.066385843 0.514
-0.19496313 0.066385843 0.514
-0.19362605 0.066385843 0.514
-0.19228898 0.066385843 0.514
-0.19132343 0.066515006 0.51500005
-0.18998377 0.066515006 0.51500005
-0.1886441 0.066515006 0.51500005
-0.18730441 0.066515006 0.51500005
-0.18632583 0.066644162 0.51600003
-0.18498357 0.066644162 0.51600003
-0.1836413 0.066644162 0.51600003
-0.18229902 0.066644162 0.51600003
-0.18095675 0.066644162 0.51600003
-0.17961448 0.066644162 0.51600003
-0.1782722 0.066644162 0.51600003
-0.17692994 0.066644162 0.51600003
-0.17558765 0.066644162 0.51600003
-0.17424539 0.066644162 0.51600003
-0.17290312 0.066644162 0.51600003
-0.17122838 0.066515006 0.51500005
-0.16988871 0.066515006 0.51500005
-0.16854902 0.066515006 0.51500005
-0.16720936 0.066515006 0.51500005
-0.16586968 0.066515006 0.51500005
-0.16453002 0.066515006 0.51500005
-0.16319035 0.066515006 0.51500005
-0.16185068 0.066515006 0.51500005
-0.16082267 0.066644162 0.51600003
-0.15948041 0.066644162 0.51600003
-0.15813813 0.066644162 0.51600003
-0.15679584 0.066644162 0.51600003
-0.15545358 0.066644162 0.51600003
-0.15411131 0.066644162 0.51600003
-0.15276904 0.066644162 0.51600003
-0.15142678 0.066644162 0.51600003
-0.1500845 0.066644162 0.51600003
-0.14874223 0.066644162 0.51600003
-0.14739995 0.066644162 0.51600003
-0.14605768 0.066644162 0.51600003
-0.14471541 0.066644162 0.51600003
-0.14337313 0.066644162 0.51600003
-0.14230612 0.06677331 0.51700002
-0.14096124 0.06677331 0.51700002
-0.13934633 0.066644162 0.51600003
-0.13800406 0.066644162 0.51600003
-0.13666177 0.066644162 0.51600003
-0.1353195 0.066644162 0.51600003
-0.13397723 0.066644162 0.51600003
-0.13263497 0.066644162 0.51600003
-0.13129269 0.066644162 0.51600003
-0.12969857 0.066515006 0.51500005
-0.12835892 0.066515006 0.51500005
-0.12701924 0.066515006 0.51500005
-0.12567957 0.066515006 0.51500005
-0.12458133 0.066644162 0.51600003
-0.12323906 0.066644162 0.51600003
-0.12189679 0.066644162 0.51600003
-0.12055452 0.066644162 0.51600003
-0.11921224 0.066644162 0.51600003
-0.11786997 0.066644162 0.51600003
-0.1165277 0.066644162 0.51600003
-0.11518543 0.066644162 0.51600003
-0.11384316 0.066644162 0.51600003
-0.11250088 0.066644162 0.51600003
-0.11137404 0.06677331 0.51700002
-0.11002916 0.06677331 0.51700002
-0.10868429 0.06677331 0.51700002
-0.10733941 0.06677331 0.51700002
-0.10599454 0.06677331 0.51700002
-0.10464967 0.06677331 0.51700002
-0.10350461 0.066902466 0.51800001
-0.10215714 0.066902466 0.51800001
-0.10080966 0.066902466 0.51800001
-0.099462181 0.066902466 0.51800001
-0.098114707 0.066902466 0.51800001
-0.096767232 0.066902466 0.51800001
-0.095235556 0.06677331 0.51700002
-0.093890682 0.06677331 0.51700002
-0.092545807 0.06677331 0.51700002
-0.091200933 0.06677331 0.51700002
-0.089856066 0.06677331 0.51700002
-0.088339992 0.066644162 0.51600003
-0.087166317 0.06677331 0.51700002
-0.085655451 0.066644162 0.51600003
-0.084313169 0.066644162 0.51600003
-0.082970902 0.066644162 0.51600003
-0.081628628 0.066644162 0.51600003
-0.080441952 0.06677331 0.51700002
-0.079097077 0.06677331 0.51700002
-0.077752203 0.06677331 0.51700002
-0.076407336 0.06677331 0.51700002
-0.075207643 0.066902466 0.51800001
-0.073860168 0.066902466 0.51800001
-0.072652683 0.067031629 0.51900005
-0.071302608 0.067031629 0.51900005
-0.06995254 0.067031629 0.51900005
-0.068734638 0.067160778 0.52000004
-0.067381963 0.067160778 0.52000004
-0.06602928 0.067160778 0.52000004
-0.064800985 0.067289934 0.52100003
-0.06344571 0.067289934 0.52100003
-0.062090427 0.067289934 0.52100003
-0.060851723 0.067419089 0.52200001
-0.059379872 0.067289934 0.52100003
-0.058024596 0.067289934 0.52100003
-0.056669317 0.067289934 0.52100003
-0.055207867 0.067160778 0.52000004
-0.053855192 0.067160778 0.52000004
-0.05240155 0.067031629 0.51900005
-0.051051475 0.067031629 0.51900005
-0.0497014 0.067031629 0.51900005
-0.048351321 0.067031629 0.51900005
-0.046910681 0.066902466 0.51800001
-0.045651171 0.067031629 0.51900005
-0.044301093 0.067031629 0.51900005
-0.042951018 0.067031629 0.51900005
-0.041600943 0.067031629 0.51900005
-0.040250868 0.067031629 0.51900005
-0.038900793 0.067031629 0.51900005
-0.037550714 0.067031629 0.51900005
-0.036270387 0.067160778 0.52000004
-0.034917712 0.067160778 0.52000004
-0.024003614 0.066902466 0.51800001
-0.022656141 0.066902466 0.51800001
-0.021308666 0.066902466 0.51800001
-0.019961191 0.066902466 0.51800001
-0.018613718 0.066902466 0.51800001
-0.017299578 0.067031629 0.51900005
-0.015949503 0.067031629 0.51900005
-0.014599426 0.067031629 0.51900005
-0.013274878 0.067160778 0.52000004
-0.011945128 0.067289934 0.52100003
-0.010589849 0.067289934 0.52100003
-0.0092345709 0.067289934 0.52100003
-0.0078944163 0.067419089 0.52200001
-0.0065365359 0.067419089 0.52200001
-0.0051885773 0.067548245 0.523
-0.0038207769 0.067419089 0.52200001
-0.0024628972 0.067419089 0.52200001
-0.0011050176 0.067419089 0.52200001
0.000252862 0.067419089 0.52200001
0.0016107417 0.067419089 0.52200001
0.0029686212 0.067419089 0.52200001
0.0043265009 0.067419089 0.52200001
0.0056734909 0.067289934 0.52100003
0.0070287697 0.067289934 0.52100003
0.01107331 0.067160778 0.52000004
0.012425987 0.067160778 0.52000004
0.013805161 0.067289934 0.52100003
0.01516044 0.067289934 0.52100003
0.016515719 0.067289934 0.52100003
0.017870998 0.067289934 0.52100003
0.019263176 0.067419089 0.52200001
0.020621058 0.067419089 0.52200001
0.021978937 0.067419089 0.52200001
0.023336815 0.067419089 0.52200001
0.024694696 0.067419089 0.52200001
0.026102485 0.067548245 0.523
0.027462965 0.067548245 0.523
0.028823446 0.067548245 0.523
0.030183928 0.067548245 0.523
0.031544406 0.067548245 0.523
0.032904889 0.067548245 0.523
0.03433089 0.067677401 0.52400005
0.03569397 0.067677401 0.52400005
0.037057053 0.067677401 0.52400005
0.038420137 0.067677401 0.52400005
0.039783221 0.067677401 0.52400005
0.041146304 0.067677401 0.52400005
0.042509381 0.067677401 0.52400005
0.043872464 0.067677401 0.52400005
0.045235548 0.067677401 0.52400005
0.046598632 0.067677401 0.52400005
0.047961716 0.067677401 0.52400005
0.049324796 0.067677401 0.52400005
0.050687876 0.067677401 0.52400005
0.052050959 0.067677401 0.52400005
