# .PCD v0.7 - Point Cloud Data file format
VERSION 0.7
FIELDS x y z
SIZE 4 4 4
TYPE F F F
COUNT 1 1 1
WIDTH 1
HEIGHT 780
VIEWPOINT 0 0 0 1 0 0 0
POINTS 780
DATA ascii
-0.23201776 -0.091496788 0.38827589
-0.22427647 -0.093660437 0.38521877
-0.21649198 -0.093973778 0.38370049
-0.23157905 -0.088190846 0.38925478
-0.22448693 -0.085451819 0.38817474
-0.21520261 -0.084909119 0.38544977
-0.2087512 -0.083521582 0.38266838
-0.22193973 -0.079160169 0.38959229
-0.21423107 -0.07530909 0.38700107
-0.20587514 -0.073839709 0.38353336
-0.19764216 -0.071642801 0.38453346
-0.21216309 -0.067049779 0.38906968
-0.20475638 -0.066030294 0.38804212
-0.19720678 -0.065228283 0.38691038
-0.19712508 -0.05965364 0.38866156
-0.23541127 -0.090529226 0.39060003
-0.25011465 -0.080901712 0.39772803
-0.24389154 -0.082598381 0.39537275
-0.23536642 -0.084305502 0.39197424
-0.22816539 -0.082270212 0.3906568
-0.25281218 -0.075307935 0.39886487
-0.24489546 -0.074934885 0.39685589
-0.23506357 -0.07491006 0.39409003
-0.22514114 -0.074729308 0.39176548
-0.21830659 -0.072835147 0.39065665
-0.25118214 -0.067594133 0.39937145
-0.24467072 -0.06554354 0.39868349
-0.23494016 -0.064995714 0.39681318
-0.22508545 -0.064866617 0.39389765
-0.21581739 -0.06425111 0.39158261
-0.20561737 -0.061244812 0.391031
-0.24080142 -0.059559405 0.39973384
-0.23380299 -0.056673549 0.39878428
-0.22505359 -0.054916389 0.39670023
-0.21511172 -0.055138081 0.39507091
-0.20488997 -0.055853147 0.39584666
-0.19868706 -0.057251349 0.39320374
-0.22318731 -0.04839192 0.39894548
-0.21472996 -0.046840269 0.39837664
-0.2076069 -0.047849793 0.39835522
-0.26269943 -0.071658716 0.40244442
-0.25706431 -0.072378732 0.40086576
-0.27346751 -0.062676027 0.40776026
-0.26503932 -0.064763226 0.40465719
-0.2556096 -0.064630054 0.40182701
-0.24711348 -0.061284512 0.40040481
-0.27192867 -0.057065163 0.409141
-0.26492915 -0.054985154 0.40705445
-0.25503117 -0.054924443 0.40390852
-0.24504629 -0.054969642 0.40189683
-0.23613729 -0.052890792 0.40091467
-0.22757609 -0.050338268 0.40005603
-0.26306948 -0.047280207 0.40898833
-0.25492963 -0.045038931 0.40712965
-0.24517106 -0.044886477 0.40432724
-0.2350444 -0.044973075 0.40258691
-0.22546907 -0.044329345 0.40367508
-0.21706283 -0.044113725 0.40450174
-0.2533316 -0.036548033 0.40894961
-0.24513611 -0.035067383 0.40703195
-0.23579325 -0.036676604 0.40581185
-0.22924097 -0.038934764 0.40864506
-0.24622215 -0.029237747 0.40986919
-0.28207326 -0.060672402 0.41321275
-0.27845758 -0.061065357 0.41052717
-0.28194633 -0.05702683 0.41579705
-0.27602783 -0.054504953 0.41266495
-0.26982111 -0.050677299 0.41013923
-0.27397293 -0.045272574 0.41389453
-0.26622179 -0.043897945 0.411596
-0.259785 -0.040125117 0.41037259
-0.22274204 -0.041090719 0.41439593
-0.21850118 -0.041699845 0.41264838
-0.27311525 -0.037504382 0.41458935
-0.26437083 -0.03569955 0.41364655
-0.25671199 -0.033218876 0.41155547
-0.24183239 -0.030960873 0.41254738
-0.23568875 -0.033458885 0.41442028
-0.22769411 -0.038860675 0.41442177
-0.26084703 -0.028542897 0.41759551
-0.25491935 -0.027294917 0.41544992
-0.24630632 -0.028463509 0.41459948
-0.22285677 -0.04097556 0.4247691
-0.24009438 -0.030129425 0.42714989
-0.23521695 -0.033078801 0.42404297
-0.22763036 -0.038634349 0.42444763
-0.26058775 -0.026272118 0.42052305
-0.25538427 -0.024647018 0.42235684
-0.24513368 -0.028060751 0.42478925
-0.22294949 -0.041757405 0.43433264
-0.21891436 -0.043865766 0.43718463
-0.23500845 -0.033219684 0.43517327
-0.22760111 -0.038684994 0.43520379
-0.24435613 -0.028313704 0.43510085
-0.23973757 -0.02994439 0.43971282
-0.22282098 -0.042220909 0.44445422
-0.21732232 -0.045337848 0.44636142
-0.24024534 -0.03009218 0.44963992
-0.23490123 -0.033372626 0.44564116
-0.22774594 -0.038457055 0.44496912
-0.24304195 -0.028142981 0.44348627
-0.21069619 -0.050757602 0.45961699
-0.20528196 -0.056108929 0.45578885
-0.2223614 -0.04208504 0.45404401
-0.21620288 -0.04639069 0.45477033
-0.23380746 -0.03415658 0.45430666
-0.22756976 -0.038344428 0.4546172
-0.19017777 -0.072328359 0.46972218
-0.1833892 -0.072895788 0.46787819
-0.1795907 -0.071918286 0.46891353
-0.2001529 -0.061724052 0.46716303
-0.19927007 -0.063099325 0.46495563
-0.21037683 -0.050494015 0.46738845
-0.20896555 -0.051996674 0.46603751
-0.2228779 -0.042059619 0.4653478
-0.21572386 -0.046603788 0.46437374
-0.23207095 -0.036796916 0.46641481
-0.22802818 -0.038866766 0.46411228
-0.1837924 -0.072379239 0.4748925
-0.17934585 -0.070763454 0.47457927
-0.19790827 -0.063433893 0.47412673
-0.17851961 -0.069847137 0.47465786
-0.21011445 -0.050617546 0.47445294
-0.20519674 -0.054986425 0.47501025
-0.19973147 -0.059922233 0.47964787
-0.22493726 -0.042143814 0.47631389
-0.21577485 -0.046890106 0.47483227
-0.23317075 -0.037362844 0.47079393
-0.22869503 -0.039581742 0.47264349
-0.19025096 -0.070571616 0.48369098
-0.1847689 -0.071829118 0.4848392
-0.17870691 -0.072516821 0.48327437
-0.19457637 -0.064736485 0.48595065
-0.18950501 -0.069472194 0.48847932
-0.21068807 -0.050587151 0.48649788
-0.20497744 -0.054682136 0.48473498
-0.19884789 -0.059880108 0.48761684
-0.22349519 -0.043302294 0.48419434
-0.21589258 -0.047093157 0.48552036
-0.18469213 -0.071994245 0.49426135
-0.17782716 -0.075341016 0.49744481
-0.19430284 -0.064273588 0.4957256
-0.18929376 -0.069074228 0.49535251
-0.21086395 -0.050193116 0.49500817
-0.20573944 -0.054293547 0.49569228
-0.19959755 -0.059379898 0.49549156
-0.22337063 -0.04496881 0.49564126
-0.21561605 -0.046609148 0.49595827
-0.18442106 -0.072340049 0.50410712
-0.17711337 -0.07732036 0.50732821
-0.19416016 -0.06430947 0.50541192
-0.18938974 -0.068769246 0.50439
-0.20481168 -0.054330792 0.50421709
-0.19907993 -0.059640795 0.50598925
-0.22324595 -0.045003515 0.50607932
-0.21537533 -0.045072991 0.5058859
-0.20879278 -0.04902472 0.50691128
-0.17256224 -0.080559567 0.51462638
-0.18313265 -0.073713996 0.51352286
-0.17695023 -0.078168564 0.5156095
-0.19456726 -0.063395783 0.51521409
-0.18866567 -0.068973325 0.51357657
-0.23076808 -0.050369836 0.51869738
-0.22864814 -0.051068 0.51515543
-0.20226862 -0.055497214 0.51353878
-0.19866735 -0.05985868 0.51414311
-0.23039791 -0.048472866 0.51914346
-0.22637179 -0.044086933 0.51429254
-0.21741778 -0.042921226 0.51436043
-0.22652842 -0.039634496 0.51331061
-0.15778592 -0.092910975 0.52344692
-0.17202988 -0.081747018 0.52600205
-0.16847861 -0.083954789 0.52587521
-0.18283343 -0.073325492 0.52424079
-0.17725201 -0.077819325 0.52478296
-0.19266032 -0.06439881 0.52428973
-0.18786989 -0.068560734 0.52559894
-0.23127127 -0.051163014 0.52254707
-0.19787285 -0.059170797 0.52117962
-0.23004469 -0.049058035 0.52296805
-0.22216068 -0.042061165 0.52281541
-0.21554391 -0.044726305 0.52458715
-0.17129217 -0.081367746 0.53538442
-0.16438419 -0.086569697 0.53536147
-0.18213147 -0.072003961 0.53572142
-0.17604338 -0.077264562 0.53572589
-0.19404805 -0.063027501 0.53413308
-0.18666424 -0.068305157 0.53545952
-0.22983779 -0.054519653 0.53062034
-0.20466143 -0.054206416 0.53717375
-0.19909041 -0.059243485 0.53638917
-0.21643658 -0.046223234 0.5341472
-0.2098749 -0.049631387 0.53879786
-0.1926637 -0.065115124 0.54267848
-0.18644765 -0.068703018 0.5458954
-0.2079235 -0.051408075 0.54574847
-0.21221012 -0.048702687 0.54109406
-0.21274638 -0.052198879 0.55598629
-0.20594333 -0.093102373 0.37991419
-0.23189007 -0.11085226 0.38368139
-0.22483018 -0.11250637 0.38227093
-0.2193906 -0.11041251 0.38080335
-0.25124252 -0.10034069 0.38988629
-0.24366225 -0.10285536 0.38800725
-0.2347711 -0.10477466 0.38569424
-0.22497191 -0.10504119 0.38312459
-0.2176367 -0.10383026 0.38110423
-0.25046673 -0.098715633 0.38995993
-0.24309266 -0.097268544 0.38906571
-0.23497307 -0.095028579 0.38776714
-0.2249202 -0.094804846 0.38407212
-0.21512391 -0.094980374 0.38205644
-0.20758656 -0.092525907 0.38091612
-0.23296694 -0.085926741 0.38899979
-0.22491564 -0.085039988 0.38644582
-0.21495476 -0.084898919 0.38300154
-0.20535518 -0.085011654 0.38263705
-0.1983463 -0.083498232 0.38352156
-0.23068669 -0.07863909 0.38944972
-0.22436218 -0.075473711 0.38835263
-0.21516636 -0.075126171 0.38605535
-0.20503426 -0.075018942 0.38346282
-0.19521375 -0.074675024 0.38403013
-0.18726599 -0.072359353 0.38579985
-0.22267576 -0.068168998 0.38972223
-0.21461357 -0.065366603 0.38818163
-0.20507047 -0.064950131 0.38580474
-0.19577132 -0.065801732 0.38582346
-0.18786927 -0.069133386 0.38781697
-0.21267284 -0.058129776 0.38964066
-0.20512582 -0.057959333 0.38871726
-0.1988901 -0.059297573 0.38887101
-0.25036722 -0.10073154 0.39059538
-0.2491477 -0.1007942 0.39018917
-0.27150607 -0.090676121 0.39835554
-0.26407024 -0.092380315 0.39587834
-0.25461876 -0.094385922 0.39243588
-0.24599485 -0.093778551 0.39085388
-0.23977938 -0.09063144 0.39026099
-0.27224961 -0.088100292 0.3991558
-0.26469922 -0.085313283 0.39816463
-0.25499934 -0.084949262 0.39500073
-0.24497624 -0.08504954 0.39217156
-0.23735707 -0.083884314 0.39080635
-0.26210669 -0.076454446 0.39922681
-0.25482491 -0.075099498 0.39763609
-0.24491106 -0.07505624 0.39459917
-0.23510008 -0.074705563 0.39170021
-0.22789918 -0.07194268 0.3903414
-0.26004606 -0.069970518 0.39985469
-0.25251326 -0.066264018 0.39869669
-0.24494089 -0.064813398 0.39650017
-0.23499939 -0.06502115 0.39368534
-0.22551577 -0.064340308 0.39125267
-0.21872021 -0.06207547 0.39030311
-0.19305447 -0.063155726 0.39414623
-0.18625921 -0.067379504 0.39385778
-0.25021458 -0.059264693 0.39935052
-0.24413493 -0.055667374 0.39861929
-0.2350843 -0.055014219 0.39649642
-0.22514205 -0.055010337 0.3936685
-0.21551083 -0.05427438 0.39133954
-0.20502247 -0.053377301 0.39353609
-0.19838515 -0.057751406 0.3953217
-0.24187958 -0.048258323 0.39945227
-0.23438798 -0.045880646 0.39873067
-0.22508177 -0.044982731 0.39631161
-0.21564102 -0.045900393 0.39459759
-0.20789935 -0.048314001 0.39742985
-0.23060863 -0.038859639 0.39976421
-0.22556041 -0.038828067 0.39877579
-0.21887973 -0.039165549 0.39668062
-0.29072446 -0.080217391 0.40878493
-0.28352588 -0.082420535 0.40556324
-0.27515918 -0.083753787 0.40186501
-0.26903874 -0.081937648 0.40037125
-0.29086378 -0.076965787 0.40947834
-0.28494698 -0.075173602 0.40712786
-0.27497295 -0.075045489 0.40329948
-0.26649493 -0.074246489 0.40104562
-0.25874421 -0.070644088 0.40036961
-0.29027772 -0.068521962 0.40990353
-0.28387782 -0.066020019 0.40796387
-0.27509928 -0.064867713 0.40486705
-0.26496428 -0.064917237 0.40185165
-0.25674111 -0.064164571 0.40101507
-0.19234402 -0.062143926 0.40434498
-0.18693902 -0.065596677 0.4040505
-0.2805855 -0.059963234 0.40955094
-0.27319226 -0.055871222 0.40761909
-0.26503864 -0.0549355 0.40442622
-0.25503609 -0.054997958 0.40223604
-0.24818963 -0.052598383 0.40056103
-0.20109284 -0.051244013 0.40156311
-0.19633611 -0.056395777 0.40433931
-0.27096134 -0.048512768 0.40979698
-0.26445121 -0.04518728 0.40736967
-0.25490221 -0.045001026 0.4045206
-0.24535882 -0.044542525 0.40205351
-0.23730287 -0.042099662 0.40049493
-0.21166426 -0.044104498 0.40377343
-0.20538257 -0.048164435 0.40226528
-0.26231474 -0.038733535 0.40920743
-0.2544947 -0.035613362 0.40774822
-0.24496572 -0.034952577 0.40466836
-0.23508312 -0.03481238 0.40255857
-0.22679211 -0.036168769 0.4038575
-0.21980503 -0.038848907 0.40162641
-0.2514275 -0.026084237 0.40903306
-0.24494413 -0.024930466 0.40718704
-0.23688734 -0.025948107 0.40643841
-0.25004321 -0.019677162 0.40986398
-0.24521646 -0.019331131 0.40845111
-0.23960508 -0.019688189 0.40756157
-0.29208547 -0.080070674 0.41032317
-0.29211783 -0.074530646 0.41086552
-0.28971654 -0.071216092 0.41025466
-0.18128204 -0.071088634 0.41413447
-0.29085198 -0.067761958 0.4102405
-0.28329557 -0.06121077 0.41017705
-0.19099844 -0.061272301 0.41159931
-0.18713304 -0.065106712 0.41485438
-0.28101215 -0.059507269 0.41084918
-0.27683863 -0.05379561 0.41135389
-0.19162777 -0.058831498 0.41100574
-0.27470487 -0.048094697 0.41316116
-0.26892498 -0.043071914 0.41022465
-0.26234585 -0.03587915 0.41064927
-0.25807098 -0.031672224 0.41101432
-0.2305977 -0.030621361 0.41466641
-0.22593811 -0.035658352 0.4142127
-0.25516352 -0.026283147 0.41119626
-0.23347917 -0.02629336 0.41468087
-0.18215056 -0.071236856 0.42579412
-0.17945299 -0.074495159 0.42641264
-0.18517248 -0.067763828 0.4227562
-0.22097048 -0.040568683 0.42893395
-0.23076557 -0.030057319 0.42189232
-0.22604123 -0.034858122 0.42541817
-0.23111951 -0.028556021 0.42520911
-0.1813561 -0.07157243 0.43482953
-0.17965706 -0.073879473 0.43587098
-0.18428734 -0.068534166 0.43664917
-0.22054206 -0.040288076 0.43152553
-0.21743219 -0.042606227 0.43652323
-0.22363332 -0.035020813 0.43456528
-0.21922632 -0.039547455 0.43837896
-0.23014915 -0.028163686 0.43169713
-0.22857474 -0.029342473 0.43376145
-0.17345141 -0.080834702 0.44647411
-0.18154046 -0.070505187 0.44606507
-0.17587242 -0.075067125 0.44557923
-0.18444601 -0.069287941 0.44403711
-0.17864355 -0.069746703 0.44902462
-0.21437408 -0.042712595 0.44255421
-0.22100009 -0.036092151 0.44244197
-0.21821073 -0.038870655 0.4460296
-0.18328285 -0.068932846 0.45469567
-0.17873369 -0.068280317 0.45435372
-0.21505173 -0.042033028 0.45667931
-0.18432513 -0.067257069 0.46540844
-0.17923072 -0.06649287 0.46350023
-0.21769589 -0.041561756 0.46671835
-0.21956038 -0.039807275 0.46339187
-0.19309895 -0.064558774 0.47637504
-0.18668157 -0.065089084 0.47370031
-0.22092879 -0.040216744 0.47444779
-0.2166962 -0.042857654 0.47398075
-0.20014489 -0.060197458 0.48942304
-0.19515574 -0.0616019 0.48442385
-0.18826659 -0.063745953 0.48457503
-0.19742386 -0.05946717 0.48842284
-0.21805057 -0.042132892 0.48196042
-0.19174457 -0.061222207 0.49399376
-0.1869339 -0.065556578 0.49745902
-0.21138735 -0.050471913 0.49356604
-0.2033053 -0.056604009 0.49549776
-0.19700432 -0.058184665 0.49451506
-0.21434227 -0.046783648 0.4934729
-0.18168482 -0.070429459 0.50174487
-0.19202432 -0.060800672 0.50432914
-0.18619654 -0.066716902 0.50487769
-0.21078666 -0.051613707 0.5056228
-0.20423315 -0.055472486 0.50582737
-0.1972286 -0.056912579 0.5033468
-0.21408358 -0.046945669 0.5047335
-0.18201332 -0.072316617 0.51751822
-0.1916579 -0.061213218 0.51428956
-0.18654273 -0.066637471 0.51598758
-0.21061333 -0.050645471 0.51360351
-0.20559677 -0.054673925 0.51433444
-0.19587812 -0.058205791 0.51357782
-0.1819009 -0.072766036 0.52594894
-0.19209205 -0.060874671 0.52341038
-0.18737473 -0.06537126 0.52491254
-0.21059406 -0.050791115 0.52675974
-0.20498396 -0.054622304 0.52583748
-0.19692805 -0.058534019 0.52481449
-0.21562722 -0.047491025 0.5274384
-0.18161015 -0.071959309 0.53524101
-0.17683831 -0.076831862 0.53746176
-0.19203188 -0.061005212 0.5339182
-0.186433 -0.065246902 0.53540552
-0.21197265 -0.050259184 0.5337283
-0.20564534 -0.054036859 0.53485399
-0.19754444 -0.058794603 0.53485513
-0.21365277 -0.049463745 0.53549898
-0.18075533 -0.070634574 0.54097831
-0.19251336 -0.060583141 0.54374832
-0.21136756 -0.050976761 0.54494131
-0.20442545 -0.053805355 0.54598647
-0.19594266 -0.058350753 0.54669857
-0.21436279 -0.049882412 0.54313171
-0.2136573 -0.050406028 0.55435097
-0.20371597 -0.051424962 0.5525189
-0.21135993 -0.081822582 0.37991953
-0.20829967 -0.082260035 0.3799192
-0.21111158 -0.079093143 0.37992018
-0.20813397 -0.079093397 0.37991998
-0.22023548 -0.11529887 0.38991141
-0.21903446 -0.11157449 0.38891235
-0.21484309 -0.10421339 0.38665971
-0.20998386 -0.10001369 0.38791463
-0.21278982 -0.095162384 0.38185546
-0.20679498 -0.093794398 0.38539547
-0.21323149 -0.08584065 0.38091859
-0.20395708 -0.085395738 0.38247806
-0.19793855 -0.083032437 0.38699505
-0.21278512 -0.074904822 0.38150966
-0.20478606 -0.074753985 0.38128161
-0.19522914 -0.074774563 0.38469049
-0.18967198 -0.071499318 0.38992047
-0.21343534 -0.064802222 0.38429177
-0.2049288 -0.064650536 0.38342345
-0.19541873 -0.065600172 0.38559452
-0.18967175 -0.06895268 0.38992116
-0.21454556 -0.055606045 0.38817284
-0.20542099 -0.056659605 0.387288
-0.19858044 -0.059005219 0.38882449
-0.22167028 -0.12274637 0.39628461
-0.22075161 -0.11833186 0.39514595
-0.21772285 -0.11343514 0.39560217
-0.21278851 -0.10638215 0.3948715
-0.20865235 -0.10155576 0.39658079
-0.20408489 -0.095350526 0.39545107
-0.19900312 -0.091068961 0.39866611
-0.20088379 -0.089289792 0.39125004
-0.19576293 -0.084940091 0.39544973
-0.19143772 -0.077363536 0.39451164
-0.18808289 -0.073200509 0.39647552
-0.19244471 -0.062677674 0.39431837
-0.18810035 -0.066881202 0.39578822
-0.21383715 -0.05106442 0.39197323
-0.20464469 -0.053102646 0.39472312
-0.19773735 -0.058188524 0.39549121
-0.22182131 -0.044927362 0.39827999
-0.21591067 -0.048136286 0.39649475
-0.20889306 -0.049636774 0.39842772
-0.22130017 -0.12462037 0.40550366
-0.21876591 -0.12188705 0.40857625
-0.22018582 -0.11937174 0.40191036
-0.21477281 -0.11491859 0.40567163
-0.20931929 -0.110904 0.40941173
-0.21125491 -0.10824351 0.40319827
-0.20600057 -0.10443778 0.40618452
-0.19969207 -0.10020895 0.40941375
-0.20207536 -0.097631127 0.40332839
-0.19667402 -0.093846634 0.40663448
-0.19266358 -0.085978806 0.40427414
-0.18769322 -0.082829334 0.40776584
-0.18483783 -0.075320929 0.40525249
-0.19181632 -0.06142658 0.40486777
-0.18699446 -0.066548757 0.40503931
-0.20372173 -0.053042509 0.40551469
-0.19686283 -0.058154419 0.4057866
-0.22159804 -0.041553348 0.40349609
-0.21526505 -0.04501963 0.40506732
-0.20839719 -0.04906692 0.40579453
-0.22455455 -0.037470125 0.40614432
-0.21748242 -0.13045469 0.41790724
-0.22060701 -0.12802887 0.41150808
-0.21696703 -0.12507214 0.41539258
-0.21238829 -0.11748507 0.41430306
-0.20730737 -0.11284523 0.41597158
-0.20275435 -0.10693775 0.41466221
-0.19820267 -0.10255697 0.41651306
-0.19348396 -0.09573289 0.41482186
-0.18846355 -0.091334976 0.41733181
-0.19076169 -0.089304984 0.41091591
-0.18470328 -0.085082352 0.4151012
-0.18195836 -0.07494165 0.41525233
-0.19167653 -0.061736364 0.41525647
-0.18679835 -0.066770889 0.41557941
-0.20331216 -0.052692164 0.41522378
-0.19679281 -0.057335813 0.41552478
-0.2202466 -0.040421266 0.41426441
-0.21502337 -0.043777965 0.41545144
-0.20837826 -0.048414215 0.41576135
-0.23056677 -0.030358264 0.41673452
-0.22535171 -0.03576272 0.41554379
-0.23253547 -0.028090594 0.41864949
-0.21584864 -0.13138421 0.42582354
-0.21443389 -0.12525165 0.42537344
-0.20983236 -0.12038617 0.42790926
-0.21081781 -0.11932551 0.42315963
-0.20491605 -0.11487444 0.42549723
-0.1997703 -0.11032586 0.4279111
-0.20086741 -0.10937686 0.42316145
-0.19615716 -0.10449985 0.42559317
-0.19149512 -0.098149545 0.42360598
-0.18740276 -0.093790174 0.42547688
-0.18185875 -0.085628867 0.42500192
-0.17920005 -0.082128234 0.42818964
-0.18122527 -0.074115902 0.42414987
-0.17892958 -0.076974131 0.42797083
-0.19183855 -0.061436739 0.42545268
-0.18617226 -0.066394843 0.42521882
-0.20259215 -0.052226674 0.42517662
-0.19697547 -0.057127614 0.4251332
-0.21458216 -0.043235492 0.42519307
-0.20772815 -0.048366923 0.42542791
-0.23020267 -0.030614093 0.42326775
-0.22502276 -0.034974243 0.42549661
-0.21913056 -0.039323177 0.42693129
-0.23251404 -0.026214197 0.42526907
-0.22952186 -0.029571101 0.42818463
-0.21349061 -0.13229883 0.43608296
-0.21249826 -0.12685621 0.43452543
-0.20765245 -0.12268733 0.43653816
-0.20264967 -0.11662617 0.43500647
-0.1986804 -0.11185545 0.43605351
-0.19383781 -0.10532713 0.43547961
-0.18942526 -0.10054932 0.43891287
-0.19047636 -0.099842563 0.43091312
-0.18537463 -0.094812609 0.43555033
-0.17967661 -0.09023039 0.43891484
-0.18103355 -0.088573545 0.43291533
-0.17675059 -0.084165893 0.43576801
-0.18110937 -0.071335964 0.4350737
-0.17709458 -0.076238967 0.43570986
-0.19192861 -0.061272603 0.43570906
-0.18613026 -0.066483721 0.43535492
-0.20262472 -0.052376214 0.43564084
-0.19728088 -0.057438795 0.43527254
-0.21422349 -0.043211691 0.43506315
-0.20784464 -0.048044223 0.43537253
-0.22444752 -0.033920888 0.43520969
-0.21898806 -0.039227109 0.43650272
-0.23075971 -0.025337923 0.43133584
-0.22856331 -0.027769966 0.43481505
-0.21065591 -0.13310777 0.44145152
-0.20753396 -0.13361663 0.4462969
-0.21102431 -0.12980217 0.44090691
-0.20439643 -0.12542729 0.44525135
-0.19890653 -0.12138919 0.44865817
-0.20115373 -0.11863117 0.44328406
-0.19712125 -0.11467626 0.44625768
-0.19227719 -0.10689886 0.44533449
-0.18759978 -0.10237224 0.4472456
-0.18311916 -0.096947491 0.44556957
-0.17797917 -0.09251745 0.44624743
-0.17292641 -0.085059211 0.4453873
-0.18068072 -0.070474349 0.44452009
-0.17499839 -0.075190499 0.44530728
-0.19225234 -0.061705712 0.44617328
-0.18565276 -0.066984296 0.44540626
-0.20320892 -0.052841097 0.44542652
-0.19704427 -0.058209661 0.44545794
-0.21427724 -0.043361362 0.44550133
-0.20791721 -0.048338186 0.44483712
-0.22376516 -0.034054637 0.44601414
-0.21913715 -0.039333742 0.44433132
-0.22604039 -0.028736886 0.4442918
-0.2038289 -0.13441455 0.45529538
-0.19969043 -0.13058981 0.4599058
-0.20126873 -0.12853074 0.45265648
-0.19673897 -0.12403162 0.45562834
-0.19302955 -0.11578196 0.45413369
-0.18730599 -0.1124021 0.45726964
-0.19069135 -0.10930879 0.45141071
-0.1841239 -0.10588165 0.45404908
-0.17834742 -0.10256889 0.45757818
-0.18099315 -0.099445783 0.45124587
-0.17495576 -0.095072694 0.45511326
-0.16964969 -0.090943195 0.45991385
-0.17078818 -0.08664757 0.45270079
-0.16898298 -0.084545434 0.45667413
-0.17436436 -0.074694917 0.45486131
-0.16950797 -0.079781383 0.45791677
-0.19244733 -0.061818946 0.45561081
-0.18498887 -0.06675218 0.45513344
-0.17968822 -0.069750451 0.4549202
-0.20377797 -0.053452179 0.45544633
-0.19715515 -0.058230989 0.45548704
-0.21436194 -0.043600343 0.45571107
-0.2086077 -0.048880316 0.45507079
-0.22225294 -0.034637231 0.45538515
-0.21937239 -0.039405417 0.45593128
-0.2037077 -0.1415851 0.46663055
-0.20209621 -0.13672797 0.46486869
-0.19828178 -0.13240916 0.46717188
-0.19369854 -0.12545738 0.4649066
-0.18842137 -0.12120506 0.46774068
-0.19049069 -0.11883348 0.4609082
-0.18466076 -0.11564381 0.46497253
-0.17938465 -0.11110304 0.46807599
-0.18064469 -0.10943839 0.46190989
-0.17648207 -0.1046418 0.46528217
-0.17202678 -0.097068585 0.46391249
-0.16813926 -0.092911743 0.46650419
-0.1673851 -0.085476339 0.46505398
-0.18054117 -0.070520952 0.46792006
-0.17483985 -0.075351112 0.4652662
-0.16991195 -0.079614617 0.46391684
-0.1922535 -0.061774034 0.46585184
-0.1853684 -0.066307776 0.46542156
-0.20390663 -0.053061947 0.46565983
-0.19734031 -0.057728063 0.46545109
-0.21369377 -0.04390667 0.46560615
-0.20881218 -0.049427476 0.4669278
-0.22077379 -0.033998389 0.46247828
-0.21788421 -0.036806621 0.46590409
-0.20125246 -0.14272918 0.47335729
-0.19912916 -0.14139216 0.47745854
-0.20064789 -0.13923985 0.47157034
-0.19629417 -0.1348615 0.47548977
-0.19150037 -0.12795009 0.47444439
-0.18660311 -0.12377317 0.47590664
-0.18157761 -0.11758832 0.47426492
-0.17819199 -0.11345083 0.47633719
-0.17395711 -0.10513376 0.47519171
-0.16950408 -0.10116602 0.47991115
-0.17066717 -0.098999448 0.47157848
-0.16655421 -0.094753049 0.47604591
-0.17069145 -0.080486648 0.47625002
-0.16678026 -0.085538357 0.47533813
-0.18132739 -0.071179695 0.47641996
-0.17540181 -0.076282702 0.47553724
-0.19202377 -0.061679929 0.47517326
-0.18595749 -0.066283926 0.47553274
-0.20347929 -0.052196354 0.47527671
-0.19750516 -0.057508141 0.47510123
-0.21283635 -0.044031717 0.4750675
-0.2081493 -0.048577312 0.47592801
-0.21540044 -0.037987176 0.47493139
-0.20186223 -0.14618795 0.48790193
-0.19589262 -0.14195345 0.48650256
-0.19281381 -0.13617927 0.4847475
-0.18837813 -0.13187604 0.48682764
-0.18380252 -0.12547362 0.48487559
-0.17897663 -0.12151957 0.48865655
-0.17607193 -0.11477891 0.4853406
-0.17223491 -0.10695404 0.48476702
-0.16779801 -0.10249752 0.48685801
-0.1639671 -0.094937831 0.4862282
-0.17086208 -0.080791734 0.48558331
-0.16610335 -0.085970692 0.48567352
-0.18145522 -0.071635231 0.48541984
-0.17594129 -0.076579124 0.48591813
-0.19232738 -0.061731856 0.48534
-0.186075 -0.066836983 0.48557144
-0.20271929 -0.053007957 0.48506927
-0.19722839 -0.05819476 0.48492464
-0.21264715 -0.04346884 0.48542973
-0.20774169 -0.048345041 0.48462805
-0.21500047 -0.038509939 0.48430622
-0.20530215 -0.15108716 0.49990088
-0.20211649 -0.14888276 0.49690121
-0.19391216 -0.14434759 0.4952094
-0.18915364 -0.14094022 0.49865225
-0.1906746 -0.13864197 0.49165303
-0.18627495 -0.13463226 0.49560961
-0.18168513 -0.12791562 0.49498206
-0.17762588 -0.122934 0.49579504
-0.17277731 -0.11551118 0.49468893
-0.16772261 -0.11197797 0.49752352
-0.17082414 -0.10861419 0.49090931
-0.16442676 -0.10542952 0.49484962
-0.15894385 -0.10173267 0.49848157
-0.1614144 -0.095825888 0.49155477
-0.15792255 -0.094749995 0.49610716
-0.17052576 -0.080563813 0.49191666
-0.16460873 -0.084653929 0.49463251
-0.15918219 -0.088611908 0.49691364
-0.1813332 -0.071037211 0.4946343
-0.17538436 -0.076020502 0.49534672
-0.16997007 -0.079923354 0.49591678
-0.19225653 -0.061874412 0.49507713
-0.18611971 -0.066951409 0.49582154
-0.20327386 -0.053450711 0.49518958
-0.19758262 -0.058257576 0.4953413
-0.21204685 -0.043201759 0.4949297
-0.20836405 -0.048273731 0.49510992
-0.21432996 -0.039698225 0.49518082
-0.20324907 -0.15286563 0.50577527
-0.19688669 -0.15116036 0.50727522
-0.19259925 -0.14760591 0.50398409
-0.18672825 -0.1435505 0.50634968
-0.1826137 -0.13603187 0.50501412
-0.17862618 -0.13207152 0.50902879
-0.17519321 -0.12523358 0.50569481
-0.16839765 -0.1214216 0.50847715
-0.17105642 -0.11882378 0.50290668
-0.16465876 -0.11503462 0.50528812
-0.15929422 -0.11071084 0.50940788
-0.16133967 -0.10873091 0.50210857
-0.15724653 -0.10449035 0.50570941
-0.15478107 -0.095291309 0.50527823
-0.16424198 -0.082901411 0.50467747
-0.15834592 -0.08845941 0.50471365
-0.18108015 -0.070498437 0.50452012
-0.17495978 -0.075067848 0.50505644
-0.16882893 -0.079385392 0.50571686
-0.19194365 -0.061789341 0.5050661
-0.18575931 -0.066847801 0.50573963
-0.20385857 -0.053133026 0.50610828
-0.19734831 -0.058084872 0.50563896
-0.21246338 -0.044711724 0.50559598
-0.20881596 -0.048384674 0.50637257
-0.21256001 -0.15912937 0.51756603
-0.2046528 -0.15764056 0.51574528
-0.19484821 -0.15439658 0.5156818
-0.18625051 -0.15184414 0.51789916
-0.18319607 -0.14605674 0.51408225
-0.17824753 -0.14266135 0.5175885
-0.18045411 -0.13839698 0.51090229
-0.17493749 -0.13503215 0.51543218
-0.16857569 -0.13229427 0.51902795
-0.1725376 -0.12818293 0.51226801
-0.16539039 -0.12488536 0.51585811
-0.16166702 -0.11777791 0.51321393
-0.1579964 -0.11382212 0.51681995
-0.1537402 -0.10517389 0.51550263
-0.15336691 -0.095353089 0.51555431
-0.16379994 -0.083704896 0.51522774
-0.15866457 -0.08853054 0.51458031
-0.18039171 -0.07038004 0.51458675
-0.1753073 -0.074475072 0.51544243
-0.16894069 -0.079217657 0.5149169
-0.19151653 -0.06123795 0.51559001
-0.18540116 -0.066304855 0.51536161
-0.20312822 -0.05248449 0.51487106
-0.19670135 -0.057447512 0.51573431
-0.21389358 -0.045539241 0.51555425
-0.20690601 -0.048919182 0.51602781
-0.22105274 -0.16138297 0.52489948
-0.21491106 -0.16321851 0.52535999
-0.19445743 -0.158398 0.52244353
-0.17147949 -0.13845094 0.52115154
-0.15164775 -0.10783025 0.52203298
-0.15305401 -0.093292579 0.5253762
-0.16413917 -0.08372663 0.52573353
-0.15841387 -0.088515647 0.52600443
-0.18023902 -0.070325725 0.52592009
-0.17513815 -0.074766763 0.52583158
-0.16880512 -0.07937517 0.52666682
-0.190888 -0.060824823 0.5257234
-0.18533184 -0.065824203 0.52558833
-0.20202221 -0.051982198 0.52450997
-0.19577333 -0.057031728 0.5255748
-0.22104248 -0.04345398 0.52493036
-0.21419537 -0.04625636 0.5256291
-0.20736106 -0.04854269 0.52559459
-0.17412955 -0.073367752 0.53488857
-0.19048832 -0.060406245 0.53542352
-0.18503748 -0.064914256 0.53556705
-0.17534949 -0.068615347 0.53896368
-0.20194006 -0.051809579 0.53570443
-0.19514348 -0.056580294 0.53528839
-0.21364753 -0.046438564 0.53562909
-0.20655571 -0.048997939 0.53492779
-0.18398641 -0.062450428 0.54304737
-0.20199524 -0.051157627 0.54435539
-0.19463129 -0.054540783 0.54619569
-0.22271092 -0.043899771 0.54759705
-0.21493442 -0.045499496 0.54581821
-0.20604241 -0.048478004 0.54621357
-0.2320099 -0.042601395 0.55559808
-0.22537751 -0.042914826 0.55523086
-0.21452335 -0.044249967 0.55604076
