# .PCD v0.7 - Point Cloud Data file format
VERSION 0.7
FIELDS x y z
SIZE 4 4 4
TYPE F F F
COUNT 1 1 1
WIDTH 1363
HEIGHT 1
VIEWPOINT 0 0 0 1 0 0 0
POINTS 1363
DATA ascii
0.13512404 0.035158649 0.48429424
0.1439815 0.03575008 0.48169783
0.15146452 0.038991608 0.48092258
0.12630142 0.042714871 0.48950246
0.13499148 0.044984657 0.48747548
0.14504349 0.045059897 0.48411587
0.15485053 0.045579012 0.48229495
0.16294563 0.047673233 0.48129237
0.13705735 0.05417436 0.48972186
0.144752 0.055166002 0.48652431
0.15483207 0.055202544 0.48262087
0.16486031 0.055198163 0.48123726
0.17188179 0.058149058 0.48092598
0.13778223 0.064122058 0.4895598
0.14472005 0.064792648 0.4868553
0.15511842 0.065093495 0.48345152
0.16511446 0.065302536 0.48185256
0.17267296 0.065547973 0.48105288
0.1466444 0.073738262 0.48855993
0.15466347 0.075058855 0.48541567
0.16480365 0.07498046 0.48412725
0.17486 0.074805059 0.48273337
0.18409105 0.077408813 0.4816058
0.14907609 0.081423618 0.48993388
0.15613936 0.084303118 0.48851737
0.16518824 0.08502426 0.48670498
0.17503604 0.084623903 0.48464701
0.1851272 0.0852919 0.4823893
0.19173448 0.086708173 0.48093191
0.15910265 0.093538664 0.48993626
0.16532613 0.094804406 0.48877251
0.17488742 0.094879523 0.48620686
0.18477173 0.094976991 0.48375708
0.19496329 0.095163427 0.48203555
0.20306356 0.097762436 0.48113394
0.16819035 0.10241149 0.48993781
0.17526826 0.10507572 0.48841175
0.18494731 0.10500807 0.48556221
0.19509247 0.10466763 0.48295078
0.20378834 0.10523265 0.48139575
0.17656553 0.11411553 0.4896448
0.18470335 0.11424145 0.48739964
0.19514522 0.11220112 0.48332718
0.20294057 0.11228346 0.48101461
0.17830276 0.12066981 0.48994184
0.18022254 0.12066964 0.48994169
-0.12041833 -0.1987624 0.49988168
-0.11402771 -0.19529766 0.49880889
-0.10487185 -0.19423726 0.49629974
-0.095113687 -0.19441289 0.49421412
-0.085212655 -0.19368865 0.492172
-0.077782959 -0.19232716 0.49094251
-0.1117109 -0.18744476 0.49988398
-0.1048374 -0.18526365 0.49816272
-0.094883069 -0.18493696 0.49678332
-0.085040361 -0.18479811 0.49426728
-0.07525076 -0.18490763 0.49152875
-0.069515921 -0.18044081 0.49088249
-0.10289647 -0.1790078 0.49978548
-0.093787156 -0.17675337 0.49935904
-0.084531344 -0.17487751 0.49691686
-0.075081915 -0.17496604 0.49331981
-0.065834157 -0.1734184 0.49144217
-0.058400437 -0.17103706 0.49088407
-0.084076568 -0.16539587 0.49948764
-0.074904613 -0.16507602 0.49669945
-0.064872257 -0.16532035 0.49321368
-0.058041677 -0.16484885 0.4909766
-0.082282402 -0.15634243 0.49971333
-0.0750148 -0.15494698 0.49757707
-0.065076925 -0.15518564 0.49514306
-0.055929579 -0.15447064 0.49226555
-0.048993967 -0.15094599 0.4908886
-0.081234999 -0.14979196 0.49989143
-0.074567564 -0.14580241 0.49912727
-0.065074101 -0.14480218 0.49712482
-0.055040885 -0.14508407 0.49437541
-0.045873057 -0.14398287 0.49178141
-0.038733386 -0.1406872 0.49089047
-0.062740006 -0.13574648 0.4994694
-0.054874253 -0.13533187 0.49685806
-0.044737641 -0.13503361 0.49424535
-0.035384014 -0.13465101 0.49160603
-0.028900361 -0.13128333 0.49089217
-0.060990546 -0.12759225 0.49989566
-0.054672409 -0.1262455 0.4989607
-0.044990387 -0.12498825 0.49698734
-0.035214704 -0.12521826 0.49391142
-0.025673371 -0.12442319 0.49146259
-0.017074589 -0.12175074 0.49094927
-0.043761481 -0.11587919 0.49913555
-0.035186406 -0.11507518 0.4960348
-0.02534127 -0.11510222 0.49372151
-0.015187227 -0.11464403 0.49195993
-0.0092341984 -0.11119313 0.4908959
-0.041492589 -0.1080044 0.49989924
-0.034772627 -0.10512812 0.4982841
-0.0248932 -0.10526746 0.49623793
-0.015030287 -0.10483777 0.49379027
-0.0076384195 -0.1035927 0.49135613
-0.033601291 -0.095943749 0.49936849
-0.024956493 -0.095138438 0.49750853
-0.015149908 -0.094764091 0.49554124
-0.0047864644 -0.09520679 0.49275461
0.0044083381 -0.09380801 0.49176788
0.010517408 -0.091701426 0.49089941
-0.023604559 -0.08659514 0.49920347
-0.015197997 -0.084676526 0.49713764
-0.0048612156 -0.085195951 0.49455401
0.0048906761 -0.085217409 0.49272305
0.011287476 -0.08490444 0.4909012
-0.013717222 -0.076218918 0.49944833
-0.0047259573 -0.075308822 0.4973726
0.0049056113 -0.075175703 0.49442202
0.013476053 -0.073780291 0.49146909
0.023880171 -0.070506997 0.49090394
0.030525686 -0.070157811 0.4909035
-0.010705507 -0.067522034 0.4999074
-0.0045372224 -0.065507405 0.49850744
0.0049261958 -0.065075658 0.49621037
0.014567767 -0.064720497 0.49349993
0.024666149 -0.064627729 0.49166343
0.031060442 -0.065562367 0.49090466
-0.0021433516 -0.058948174 0.49979788
0.0057680365 -0.056448318 0.49907121
0.014651453 -0.05472469 0.49637756
0.024871757 -0.055031803 0.49330795
0.033515174 -0.053602595 0.49125132
0.015441244 -0.04523493 0.49839127
0.025077103 -0.045364853 0.4948782
0.035131518 -0.045300905 0.49256575
0.043796536 -0.043671358 0.4911038
0.016961386 -0.035316367 0.49931374
0.025039289 -0.035289388 0.49658495
0.035259329 -0.035129886 0.49434984
0.045344986 -0.034926508 0.49246714
0.053266708 -0.033027224 0.49103147
0.018210232 -0.028710146 0.49977246
0.025705781 -0.027203582 0.49897057
0.035511233 -0.025233911 0.49788162
0.045450386 -0.024703545 0.49477786
0.05485994 -0.024537051 0.49189508
0.061309002 -0.021426942 0.49091387
0.037922546 -0.015822994 0.49985829
0.0445376 -0.01487819 0.49672645
0.054659724 -0.014959025 0.49308273
0.064266764 -0.014737511 0.49181733
0.072139524 -0.011880671 0.49091551
0.038926598 -0.0067987908 0.49991944
0.045159914 -0.0054228716 0.49830821
0.054737918 -0.0054381723 0.49530923
0.064887747 -0.005424045 0.49376151
0.074985534 -0.005409474 0.4923076
0.083880551 -0.0048172325 0.49124962
0.048487946 0.0012537217 0.4997541
0.05525773 0.0047372589 0.49818346
0.06513577 0.0049141478 0.49565491
0.075120859 0.0048880288 0.49321657
0.082103655 0.0056970902 0.4910194
0.057395112 0.0132177 0.49963155
0.06551151 0.014708237 0.49841377
0.075196281 0.015328162 0.49639928
0.084954806 0.015496535 0.49266768
0.091541931 0.018326741 0.49092188
0.076036632 0.024429377 0.4993093
0.084914126 0.024871865 0.4960258
0.095129937 0.025455184 0.4924998
0.10356333 0.028371641 0.49092355
0.11004702 0.029867288 0.49092346
0.079414882 0.030417811 0.49992597
0.0860928 0.03452995 0.4990246
0.094780639 0.034833901 0.49560332
0.10456862 0.035100635 0.49231809
0.11286862 0.035911676 0.49119753
0.087940291 0.044031028 0.49968892
0.095352449 0.045149297 0.49754766
0.1050892 0.044969629 0.49477145
0.11495281 0.044782743 0.49272379
0.12357489 0.046290655 0.49131542
0.13056806 0.049102433 0.49092686
0.089603283 0.051573623 0.49993071
0.095787257 0.054562308 0.49883103
0.10524357 0.054834321 0.49676681
0.11538303 0.055253897 0.49483594
0.12508768 0.055005703 0.49208507
0.13267846 0.055349085 0.49092838
0.098136455 0.061324116 0.49993262
0.10501407 0.064530924 0.49853638
0.11482721 0.064876065 0.49644786
0.12536806 0.065104835 0.4934482
0.13333084 0.065775104 0.49141824
0.10751361 0.072184555 0.49978092
0.11553439 0.074451387 0.49897316
0.12479213 0.074892402 0.49594975
0.13498591 0.075074062 0.49303171
0.14306147 0.076820105 0.49132445
0.11903387 0.08308845 0.49993667
0.12518258 0.084864981 0.4975794
0.13492297 0.085099116 0.49515474
0.14454481 0.085017078 0.49314824
0.1521332 0.087113447 0.49154621
0.12648173 0.092107929 0.49927184
0.135314 0.095011488 0.49827176
0.14517255 0.095194042 0.49526039
0.1540959 0.095184997 0.49177912
0.16135152 0.099115759 0.49093756
0.13862501 0.10180565 0.49994004
0.14543037 0.10472562 0.4978556
0.15486541 0.1049681 0.49370229
0.16423906 0.10562192 0.49169841
0.17032957 0.10873345 0.49093938
0.14685366 0.11476538 0.49925861
0.15503152 0.11460065 0.49600565
0.16488457 0.11517649 0.49335125
0.17221974 0.11621121 0.49114951
0.1484759 0.1213399 0.49994436
0.15591253 0.12365784 0.49905246
0.16455211 0.12382602 0.49634802
0.17346528 0.12235893 0.49184275
0.20774375 0.17835067 0.49928802
0.21127771 0.17728303 0.49982908
0.203935 0.18104355 0.49975568
0.21177249 0.18041213 0.49945486
-0.16278931 -0.20140187 0.50988436
-0.15408117 -0.2014484 0.50867301
-0.14529866 -0.20143078 0.50771636
-0.13496874 -0.20097573 0.50545371
-0.12639928 -0.20061135 0.50288165
-0.16145694 -0.19840477 0.50988507
-0.15461482 -0.19795123 0.5098846
-0.14467245 -0.19540787 0.5091244
-0.13531528 -0.19485056 0.50648385
-0.12522045 -0.19489178 0.50332946
-0.11820868 -0.19269386 0.501589
-0.14212087 -0.18700948 0.5098151
-0.13460889 -0.18508799 0.50823128
-0.12473527 -0.18492919 0.50520146
-0.11526094 -0.18463092 0.50214589
-0.10844415 -0.18062274 0.50088555
-0.13345033 -0.17482652 0.50936264
-0.12467759 -0.17496662 0.50687015
-0.11496566 -0.17508221 0.50402308
-0.10534678 -0.17434585 0.50264162
-0.096675187 -0.17294328 0.50147289
-0.13244677 -0.16712216 0.50961322
-0.12510921 -0.1651122 0.50863636
-0.11534728 -0.16515788 0.50639921
-0.10505012 -0.16500373 0.50448304
-0.094722882 -0.16502886 0.50225884
-0.088314265 -0.1635686 0.50102174
-0.12279894 -0.15681584 0.50979286
-0.11496959 -0.15503524 0.5076018
-0.10495652 -0.15481792 0.50513798
-0.095094547 -0.15505557 0.50399458
-0.086753592 -0.1543794 0.50196767
-0.11316493 -0.14562005 0.50956178
-0.10518121 -0.14500733 0.50832319
-0.095166959 -0.14481659 0.50695729
-0.084909379 -0.14491384 0.50322068
-0.076999933 -0.14162129 0.50101829
-0.11172044 -0.13857612 0.50989687
-0.10394081 -0.13597614 0.50982714
-0.094870493 -0.13503668 0.50909644
-0.08491604 -0.13516004 0.50625283
-0.075337537 -0.13536227 0.50321674
-0.067372181 -0.13402916 0.50144285
-0.10017483 -0.12880848 0.50989848
-0.093849555 -0.12675565 0.50967979
-0.085166052 -0.12513909 0.5081892
-0.075284153 -0.12490006 0.5049665
-0.06544923 -0.12465144 0.50205749
-0.057079855 -0.12159868 0.50128162
-0.082509391 -0.11516441 0.50961035
-0.074661441 -0.11527053 0.50724483
-0.06490887 -0.11502696 0.50497067
-0.054919448 -0.11486694 0.50288314
-0.047784362 -0.11390473 0.50119239
-0.081523858 -0.10882876 0.50990224
-0.073986247 -0.1072695 0.50966871
-0.065146409 -0.10519534 0.50893575
-0.054941438 -0.1050389 0.5063765
-0.045352034 -0.10480303 0.50245148
-0.070866331 -0.099505074 0.50990385
-0.065445915 -0.094877578 0.5091638
-0.055088636 -0.094946057 0.50639498
-0.04494869 -0.09488178 0.50304586
-0.037905071 -0.092613548 0.50142938
-0.062473979 -0.085419089 0.50946242
-0.054877173 -0.085256383 0.50734699
-0.045157883 -0.08476419 0.50542337
-0.035075888 -0.084922105 0.50340486
-0.026822027 -0.083623514 0.50159681
-0.061006945 -0.077260047 0.50990885
-0.054557331 -0.075064749 0.50904357
-0.045478184 -0.074836209 0.50731218
-0.035142176 -0.075096779 0.50576949
-0.025249014 -0.0752142 0.50335294
-0.017201787 -0.073020041 0.50149274
-0.050882332 -0.068868764 0.50991029
-0.044063557 -0.065390646 0.50897074
-0.034860402 -0.065259591 0.50666851
-0.024806727 -0.0647505 0.50476408
-0.015187088 -0.064627975 0.50244564
-0.0089878859 -0.061591152 0.50124222
-0.042867541 -0.057831757 0.5096494
-0.034305435 -0.056409553 0.50861484
-0.02480115 -0.054640699 0.50770879
-0.014787848 -0.055056702 0.50542086
-0.0052994564 -0.054788388 0.50272864
0.0033962997 -0.052497037 0.50148916
-0.022506505 -0.045706891 0.50944978
-0.014774613 -0.04525844 0.50751358
-0.0048855455 -0.045165237 0.50550663
0.0049945815 -0.044935554 0.50292993
0.01109387 -0.042612094 0.50132895
-0.020241752 -0.039565485 0.50991553
-0.013832805 -0.036324281 0.50931585
-0.0049008676 -0.034711748 0.50716561
0.0048751826 -0.034944907 0.50393438
0.011762605 -0.034702457 0.50152308
-0.0041971575 -0.025098355 0.50918895
0.0051506967 -0.025221907 0.50628763
0.014429424 -0.024785219 0.50312722
0.024603957 -0.022365423 0.50180948
0.031151712 -0.021206073 0.5009163
-0.0022054245 -0.018250681 0.50984275
0.0052547147 -0.015122429 0.50867474
0.014938624 -0.014806455 0.50595051
0.025178537 -0.014905295 0.50378716
0.03358243 -0.013971989 0.50189412
0.0076437946 -0.0067075663 0.50978869
0.014981911 -0.0049080099 0.50743979
0.024779918 -0.0048819128 0.50443119
0.034169666 -0.0047119032 0.50242049
0.04137646 -0.0014477505 0.50112069
0.016358787 0.0039089834 0.50892407
0.024846699 0.0050211237 0.50581652
0.034651566 0.0050047426 0.50423545
0.04466404 0.0053717694 0.502698
0.051219258 0.0091076437 0.50092268
0.025903024 0.012291703 0.50920326
0.035480991 0.014217772 0.50874746
0.045332611 0.014929777 0.50592464
0.05379596 0.015944364 0.50158048
0.061252553 0.018703034 0.50092441
0.039136913 0.024464756 0.50992763
0.045459725 0.024909519 0.5073179
0.055078737 0.024642326 0.50348783
0.06464795 0.024890032 0.5023191
0.07207147 0.026954979 0.50121981
0.045809455 0.034231592 0.5093351
0.054650892 0.034792319 0.50648278
0.065124199 0.034908649 0.50430119
0.075105779 0.035223216 0.50218165
0.081712954 0.036630727 0.50108129
0.049033966 0.042129923 0.5099315
0.055217877 0.044696961 0.50904828
0.065124281 0.044975143 0.50686538
0.075309455 0.045049116 0.50420791
0.083197534 0.045702495 0.50174791
0.057794672 0.052222509 0.50985008
0.065364785 0.054443289 0.50889081
0.074858449 0.055127028 0.50660527
0.084388644 0.054965209 0.50278914
0.091407515 0.057993084 0.50123227
0.068255797 0.061665554 0.50993514
0.074947886 0.064914279 0.50872117
0.084982835 0.065142527 0.50588107
0.094635822 0.065214366 0.5028556
0.10098394 0.068230778 0.50110096
0.077425368 0.074262932 0.50954479
0.085305251 0.075071953 0.507034
0.095177695 0.074884504 0.5042699
0.10445143 0.075880408 0.50172669
0.11207501 0.078401417 0.501136
0.078842901 0.081812479 0.50993955
0.085283048 0.08502201 0.50922292
0.095122382 0.085084423 0.50659972
0.10501913 0.084705219 0.50419742
0.11435968 0.085408702 0.50230139
0.12014486 0.089361288 0.5009383
0.087113857 0.092190944 0.50994164
0.095153846 0.094438732 0.50892204
0.10510549 0.094875999 0.50669897
0.11492633 0.095132373 0.50425595
0.12374074 0.096107461 0.50179267
0.13192293 0.099174634 0.50093991
0.09877041 0.10118154 0.50994307
0.10575879 0.10455945 0.50890076
0.11504386 0.10488182 0.50646996
0.12508351 0.10469187 0.50414521
0.13452484 0.10565735 0.50225616
0.14082637 0.10806118 0.5011915
0.10822285 0.11228144 0.50994527
0.11491436 0.11478197 0.50869983
0.12449922 0.11494529 0.50601029
0.13456537 0.11520495 0.50302458
0.14172916 0.1152385 0.50137669
0.11666972 0.12403491 0.50960475
0.12491278 0.12488776 0.50703639
0.13451965 0.12508777 0.50354302
0.14426845 0.12525252 0.50184768
0.15319365 0.12746331 0.50155669
0.11964238 0.13092969 0.50994921
0.12568656 0.13259096 0.5091992
0.13533363 0.13496991 0.5075528
0.14493123 0.1349609 0.50482082
0.1524836 0.13396524 0.50403064
0.13659871 0.14515555 0.50766897
0.14427345 0.14324652 0.50313801
0.15060668 0.14113897 0.50361603
0.20539445 0.17582113 0.50529963
0.18891573 0.18553931 0.50995809
0.19560722 0.18269484 0.50761461
0.20151384 0.18111643 0.50262254
0.21654277 0.18101875 0.50295466
-0.20174737 -0.20444208 0.51988667
-0.19506802 -0.20282234 0.51891279
-0.1851761 -0.20288919 0.51714498
-0.17518945 -0.2017277 0.51345044
-0.16827978 -0.20163901 0.51105142
-0.19355386 -0.19641496 0.51938808
-0.18483126 -0.19496201 0.51825511
-0.17504205 -0.19525774 0.51525235
-0.16529094 -0.19432598 0.51251608
-0.15523537 -0.1931835 0.51145738
-0.1488073 -0.19216907 0.51088572
-0.18323646 -0.1860553 0.5192337
-0.17461894 -0.18524173 0.51708937
-0.16473129 -0.18490525 0.51567829
-0.15482813 -0.18502341 0.51413804
-0.14556314 -0.18379706 0.51203388
-0.1390821 -0.18111095 0.5108878
-0.18091929 -0.17886432 0.51989174
-0.17447034 -0.17789157 0.51932007
-0.16473529 -0.17523824 0.51879704
-0.15541549 -0.17508996 0.51693243
-0.14539489 -0.17501552 0.51377672
-0.13846526 -0.17516804 0.51107687
-0.16246606 -0.16623835 0.51951867
-0.15470237 -0.16490959 0.51787329
-0.14523889 -0.16518436 0.51487327
-0.13633083 -0.16372722 0.51186657
-0.12973747 -0.16109127 0.51089233
-0.15362203 -0.15685859 0.51944703
-0.144899 -0.15490213 0.51760703
-0.13483031 -0.15471534 0.51437593
-0.12629978 -0.15411425 0.51176232
-0.11905891 -0.1504146 0.5108943
-0.14380729 -0.14512973 0.5193522
-0.13552915 -0.14497887 0.51771843
-0.12514338 -0.14507063 0.51393193
-0.11809034 -0.14398447 0.51126432
-0.14315729 -0.1370354 0.51976341
-0.13477921 -0.13521743 0.51885778
-0.12499369 -0.13500117 0.51572233
-0.11564167 -0.13461784 0.51216346
-0.10723165 -0.13232775 0.5111481
-0.13238804 -0.12807949 0.51956791
-0.12460361 -0.12529209 0.51850921
-0.11493446 -0.12490537 0.51583284
-0.104903 -0.12480833 0.51264983
-0.096498676 -0.12243626 0.51159543
-0.08969295 -0.12105373 0.51089966
-0.12236635 -0.11735881 0.51981235
-0.11523087 -0.11490688 0.51874942
-0.10496205 -0.11494031 0.51668936
-0.095032759 -0.11520955 0.51394016
-0.087643594 -0.11462528 0.51140112
-0.11316651 -0.10824921 0.51955193
-0.10400865 -0.10565433 0.51883501
-0.09441784 -0.10506508 0.51564002
-0.084854595 -0.10453514 0.51217806
-0.075820029 -0.10307788 0.51111156
-0.10100422 -0.096473329 0.51990706
-0.095003404 -0.09499184 0.51801401
-0.084918529 -0.094982825 0.51430237
-0.075201824 -0.095090218 0.51170534
-0.069669768 -0.090357363 0.51090616
-0.093730263 -0.085780755 0.51945758
-0.085059576 -0.085108742 0.51762795
-0.075183772 -0.085041039 0.5149079
-0.067484766 -0.08458396 0.51157403
-0.091721646 -0.079270147 0.51991081
-0.084201157 -0.075592987 0.51934254
-0.074420579 -0.075089425 0.51605338
-0.065167502 -0.074643634 0.51199681
-0.057989433 -0.070671543 0.51091039
-0.081713773 -0.067460425 0.51961315
-0.074450858 -0.065421373 0.5177055
-0.064822696 -0.064812757 0.51480538
-0.055373449 -0.064775981 0.51228422
-0.049053717 -0.063368544 0.51091152
-0.071776725 -0.058427021 0.51974803
-0.064623296 -0.055846967 0.51876086
-0.055171557 -0.05506153 0.51489574
-0.045860652 -0.053952135 0.51234561
-0.036004435 -0.05180306 0.51170301
-0.061385732 -0.049392223 0.51991624
-0.053762209 -0.045881066 0.5184164
-0.044793729 -0.044791799 0.51650536
-0.035342008 -0.04479754 0.51456344
-0.027386114 -0.044198427 0.51180774
-0.051620252 -0.035611805 0.51974255
-0.044968363 -0.03481089 0.51853085
-0.035199698 -0.034870025 0.51625133
-0.025140669 -0.035043791 0.51313937
-0.016744105 -0.032565832 0.51158375
-0.043637965 -0.026542569 0.51940358
-0.035142757 -0.025151415 0.51809365
-0.02492447 -0.02534763 0.51574981
-0.014997649 -0.025046477 0.51267397
-0.0092687709 -0.023627592 0.51091886
-0.041009992 -0.01928705 0.51992249
-0.034300406 -0.015682291 0.51883036
-0.024650382 -0.015148817 0.51660657
-0.015054085 -0.015053843 0.51468945
-0.00564209 -0.014134241 0.5122543
0.00152118 -0.010726425 0.51092142
-0.031483877 -0.0077381269 0.51962483
-0.024528688 -0.0051903301 0.5191164
-0.015165833 -0.0050135897 0.51861811
-0.0049797199 -0.0049799928 0.51517338
0.0039457357 -0.0041619856 0.51156992
-0.021540551 0.0013107453 0.51992643
-0.014764208 0.0045041959 0.51940578
-0.0049970248 0.0051354254 0.51734787
0.0051034153 0.0050999848 0.51363951
0.012562951 0.0072638644 0.51174343
-0.011579455 0.011722807 0.51992828
-0.0042720167 0.014727957 0.5189721
0.0051369369 0.015253106 0.51672381
0.015189503 0.0151849 0.51437366
0.024649369 0.016715636 0.5122816
0.033012658 0.018364482 0.51129019
-0.0011089513 0.022299604 0.51980525
0.0053348187 0.024663435 0.51899415
0.01527362 0.024719056 0.51714385
0.025444735 0.024916155 0.51479423
0.03402577 0.025292523 0.51186824
0.0074012531 0.031919908 0.51971781
0.01483562 0.034826159 0.51886338
0.024685564 0.035181716 0.51647389
0.035220198 0.035208263 0.51253796
0.042587742 0.037449371 0.51118082
0.0092491377 0.043186143 0.51993489
0.014739085 0.045058731 0.51901829
0.024755726 0.045024481 0.5176484
0.035028741 0.04464186 0.51501012
0.044754293 0.045210384 0.51209921
0.050799049 0.048774689 0.5109331
0.017216137 0.051467609 0.51956147
0.02558103 0.05369477 0.51929355
0.035011563 0.054649286 0.51811582
0.044628344 0.05520146 0.51501864
0.054466523 0.055966474 0.51177555
0.062144876 0.058783963 0.51093483
0.028387178 0.065123782 0.51979631
0.034893788 0.064838693 0.51864761
0.044959757 0.065186836 0.51670581
0.055099878 0.064830087 0.51489776
0.064439207 0.065363593 0.51226288
0.0708213 0.068793453 0.51093674
0.029171983 0.071480416 0.51994079
0.035586923 0.072921865 0.51928687
0.045379166 0.074722163 0.51871377
0.055163834 0.074742392 0.5174498
0.064969227 0.075039715 0.51485544
0.072776042 0.07590241 0.51161706
0.048686672 0.082994558 0.51947558
0.055328701 0.084767111 0.51783109
0.064946547 0.08508727 0.5157519
0.074947566 0.085408948 0.51229376
0.081834406 0.089814022 0.51094139
0.056860548 0.092179924 0.51963633
0.065537408 0.094850488 0.51809782
0.075300723 0.094845429 0.51448023
0.084312037 0.09639284 0.51201785
0.091613919 0.09866102 0.51114291
0.066959985 0.10429724 0.51940787
0.074743398 0.10512483 0.51731265
0.085049562 0.1052684 0.51531559
0.094540857 0.10525194 0.51288313
0.10166796 0.10778147 0.51134449
0.068472944 0.11149886 0.51994812
0.075283661 0.11481653 0.51860857
0.084817909 0.11517427 0.5169276
0.094684437 0.11485799 0.51551837
0.10412855 0.11542092 0.51216203
0.11053302 0.11917495 0.51094681
0.079430051 0.12172974 0.51994997
0.085722193 0.12471238 0.51890266
0.095019713 0.12477109 0.51640719
0.10500906 0.12510173 0.51373833
0.11270815 0.12611963 0.51133978
0.087685548 0.13402802 0.51936167
0.095030636 0.13477392 0.51733816
0.10518438 0.13489527 0.51547962
0.11479283 0.13484149 0.51328391
0.12433206 0.13753106 0.51171052
0.13100013 0.13874876 0.51095033
0.089391917 0.14097014 0.5199542
0.095290333 0.14302982 0.51913613
0.10500456 0.14539698 0.51859564
0.1152192 0.14499982 0.51780504
0.12518647 0.14527166 0.51445252
0.1320616 0.14459424 0.51161849
0.10588147 0.15194029 0.51968312
0.11540841 0.15164673 0.51949346
0.1231868 0.1511976 0.51720423
-0.23100598 -0.20191103 0.52988958
-0.22455825 -0.20451938 0.52827728
-0.21469899 -0.20371051 0.52441913
-0.20626512 -0.2032216 0.52178013
-0.23146699 -0.19713178 0.52989095
-0.22466506 -0.19533761 0.52826577
-0.21460481 -0.19473888 0.52507025
-0.20507069 -0.19484046 0.52316719
-0.19636136 -0.19260405 0.52164936
-0.22206965 -0.18762016 0.52976763
-0.21479601 -0.18592928 0.52841419
-0.20504048 -0.18504009 0.52652842
-0.19489859 -0.18487217 0.52375662
-0.18719913 -0.18397678 0.52149081
-0.21070054 -0.17953284 0.52989388
-0.20356986 -0.17578855 0.52892363
-0.19489485 -0.17509849 0.52662963
-0.18525499 -0.1749403 0.52366668
-0.1754711 -0.17301495 0.52192146
-0.16901921 -0.17172483 0.52089262
-0.20450741 -0.16421466 0.52667999
-0.19489346 -0.16547851 0.52824408
-0.18485601 -0.16500664 0.52687675
-0.17502916 -0.1650833 0.52385324
-0.16668807 -0.16381633 0.52158201
-0.18411058 -0.15595926 0.52395856
-0.17515571 -0.1547613 0.52441853
-0.1656765 -0.15481041 0.52315128
-0.15688697 -0.1535721 0.521281
-0.18024909 -0.14955683 0.52189934
-0.17455707 -0.14545344 0.52297688
-0.16489466 -0.14481756 0.52347559
-0.15506695 -0.14496346 0.52212769
-0.14877465 -0.14476535 0.5208981
-0.1642268 -0.13524608 0.52290183
-0.15478683 -0.13470876 0.52270967
-0.14615135 -0.13376381 0.5214563
-0.13862397 -0.13067606 0.52090096
-0.16156572 -0.12710494 0.52263701
-0.15501641 -0.12497166 0.52532321
-0.14497985 -0.12503295 0.52400106
-0.13605914 -0.12421556 0.52197742
-0.12846236 -0.12124193 0.52090269
-0.15340917 -0.11530145 0.52436072
-0.14473248 -0.11485436 0.52599078
-0.13473962 -0.11506691 0.52355927
-0.1260332 -0.11426435 0.52164799
-0.14557709 -0.10492613 0.52644682
-0.13506165 -0.10478641 0.52646101
-0.12456894 -0.10507596 0.52339673
-0.11532452 -0.1037572 0.52206016
-0.10724401 -0.10173721 0.52136767
-0.14603116 -0.097157292 0.5278247
-0.13454017 -0.095782064 0.52896392
-0.12528564 -0.095422737 0.52683383
-0.11549437 -0.095052034 0.52434254
-0.10579345 -0.09476795 0.5218845
-0.13040145 -0.086236157 0.52991199
-0.12464847 -0.084987283 0.52823102
-0.11486401 -0.08510448 0.52497494
-0.10536573 -0.084885009 0.5224461
-0.098305993 -0.083732821 0.52121013
-0.12389942 -0.075403139 0.52900124
-0.11505474 -0.074895963 0.52706265
-0.1052985 -0.07495711 0.5239982
-0.095226392 -0.07475394 0.52196681
-0.087892897 -0.071898594 0.5210374
-0.12070964 -0.068794481 0.52991581
-0.11375754 -0.067623161 0.52899551
-0.10494402 -0.065126859 0.52757007
-0.094982825 -0.064941138 0.52455628
-0.08553686 -0.06435664 0.5221194
-0.078741856 -0.06127945 0.52091449
-0.1031194 -0.055536017 0.52915788
-0.095066778 -0.054940995 0.5267635
-0.085120209 -0.055008672 0.52386314
-0.075663067 -0.054357626 0.52207595
-0.068369024 -0.052078798 0.52137756
-0.10132731 -0.048723422 0.52991956
-0.095015116 -0.045489252 0.52845484
-0.085443087 -0.044913765 0.52585793
-0.075104378 -0.044661261 0.52438146
-0.064778112 -0.044918537 0.52282149
-0.057455223 -0.042428758 0.52122545
-0.092941374 -0.036987528 0.52946752
-0.08476118 -0.035207707 0.52841228
-0.074660726 -0.035429485 0.52656084
-0.064623736 -0.035186693 0.52412421
-0.056368686 -0.034647226 0.52179468
-0.081740178 -0.02832615 0.52959001
-0.074390978 -0.026486479 0.52853298
-0.064916678 -0.025021305 0.52651209
-0.054979589 -0.024885161 0.52356499
-0.046959333 -0.02290988 0.52157587
-0.063003801 -0.016750963 0.52951318
-0.055366568 -0.014732027 0.52725136
-0.045471739 -0.014538853 0.5233407
-0.038694113 -0.011998006 0.52125758
-0.053176768 -0.0060175438 0.52923465
-0.045238946 -0.0051693316 0.52603298
-0.035710808 -0.0045324718 0.52228141
-0.028159477 -0.00095417263 0.5209263
-0.050731886 0.0035619987 0.52992922
-0.044409748 0.0045561092 0.52803117
-0.034553129 0.0045319097 0.52496898
-0.025072599 0.0054690633 0.52213603
-0.017786985 0.0090833567 0.52105308
-0.042576231 0.010498178 0.5297876
-0.033973858 0.01441337 0.52879739
-0.025121897 0.015303855 0.52567548
-0.015519714 0.015664864 0.52260351
-0.0084313061 0.018106539 0.52122974
-0.033190098 0.025085714 0.52927721
-0.025036842 0.02517998 0.52674913
-0.015318502 0.025041914 0.52387094
-0.0056922561 0.025385814 0.52216053
0.0011006972 0.028300911 0.52093166
-0.031721015 0.033003464 0.52984452
-0.025020331 0.034828383 0.52826881
-0.015377398 0.034761529 0.52593464
-0.0050586858 0.03464783 0.52423733
0.0045953128 0.035912689 0.52175385
-0.022575598 0.04140491 0.52968699
-0.014747432 0.043678392 0.52872074
-0.0049072895 0.044710588 0.52659744
0.0048683551 0.045211617 0.52261573
0.010628272 0.049392793 0.52093643
-0.01133742 0.050248157 0.5299384
-0.0044081896 0.054753322 0.52851897
0.0052220072 0.055284515 0.52514249
0.014249383 0.055620275 0.52235246
0.0226875 0.057767034 0.52108049
-0.0016456333 0.062671289 0.52964091
0.005430039 0.065109871 0.5281536
0.014807534 0.0648055 0.52451164
0.02335104 0.064661831 0.52171445
0.0062807179 0.074684508 0.52886438
0.014861452 0.074656963 0.52635092
0.024745438 0.075328924 0.52323848
0.034516919 0.07771156 0.52159411
0.041022483 0.078874581 0.52094173
0.0085018417 0.081573755 0.52961171
0.01537646 0.084188461 0.52857316
0.024817176 0.084706597 0.52667367
0.035234604 0.085380323 0.52464384
0.044014357 0.085471243 0.52229315
0.05009548 0.088853128 0.52094364
0.019121274 0.090390995 0.52994651
0.025600415 0.091490723 0.52924037
0.035229184 0.094926588 0.52814245
0.044965707 0.094973281 0.52465987
0.054145023 0.095843434 0.52232975
0.061436553 0.099285103 0.52094549
0.037393879 0.10414653 0.52950424
0.045221645 0.1051566 0.52762169
0.055308908 0.10486133 0.52437842
0.062776335 0.10596609 0.52159929
0.039887991 0.1111541 0.52995032
0.046887461 0.11428686 0.52928382
0.055336356 0.11503531 0.52555358
0.064811222 0.11531489 0.52215409
0.071530968 0.11844911 0.52094972
0.048812415 0.12409148 0.52972221
0.05476832 0.12465692 0.52723533
0.065082386 0.12503439 0.52461237
0.074597158 0.12503709 0.52290678
0.081344277 0.127436 0.52140582
0.056226261 0.1335704 0.52934891
0.064966008 0.13493934 0.52833456
0.074836336 0.13510811 0.52559531
0.082924455 0.1355532 0.52201205
0.059271101 0.14022328 0.5299564
0.065951705 0.1443366 0.52966285
0.074763067 0.14494674 0.52699202
0.084938474 0.14514057 0.52291864
0.093887493 0.14773174 0.52128899
0.076381065 0.15368128 0.52877676
0.085038923 0.15492371 0.5259583
0.09465228 0.15472527 0.52337742
0.10144252 0.15300274 0.52115643
0.085009575 0.16147326 0.52831709
0.091024622 0.16099098 0.52545935
-0.2728349 -0.21083066 0.53914058
-0.26483405 -0.21087237 0.53617567
-0.25692609 -0.21017413 0.53388947
-0.2719847 -0.20742807 0.53961873
-0.2648972 -0.20529865 0.5380373
-0.25505406 -0.20488842 0.53497237
-0.24496587 -0.20476948 0.53230804
-0.23547325 -0.20550008 0.53141278
-0.26249406 -0.19892952 0.53960717
-0.25466147 -0.19558144 0.53830779
-0.24508226 -0.19497238 0.53524667
-0.23558672 -0.19459873 0.53233093
-0.22866702 -0.19142787 0.53089213
-0.25264233 -0.18531424 0.53952068
-0.24486133 -0.1850237 0.53702551
-0.23534189 -0.18489814 0.53449863
-0.22583547 -0.18447004 0.53189385
-0.21792002 -0.18139365 0.53129393
-0.25134724 -0.17798027 0.5398975
-0.24426241 -0.17621133 0.53892374
-0.23478572 -0.17512144 0.53710103
-0.22497873 -0.17521513 0.5347982
-0.21475852 -0.17509949 0.53267533
-0.20781331 -0.17350172 0.53110951
-0.24053299 -0.16834317 0.53989917
-0.23423448 -0.16815585 0.53826714
-0.2252606 -0.16730459 0.53506494
-0.21502349 -0.16855565 0.53283048
-0.20471369 -0.16763304 0.53103936
-0.15106678 -0.091214575 0.53151238
-0.14472015 -0.092472874 0.53165227
-0.1368026 -0.091980383 0.531111
-0.16305281 -0.082526572 0.53371561
-0.1549855 -0.084977642 0.53434819
-0.14503607 -0.085028917 0.53371733
-0.13550398 -0.084899634 0.53203046
-0.16501163 -0.075412624 0.536614
-0.15467636 -0.075362369 0.53730452
-0.14466859 -0.075133324 0.53629088
-0.13478984 -0.074875303 0.53312474
-0.12861431 -0.072833501 0.53111535
-0.16489978 -0.068462275 0.53923762
-0.15490079 -0.067300975 0.53882802
-0.14479032 -0.065580331 0.53814298
-0.13522537 -0.064849772 0.53600127
-0.12513183 -0.064957529 0.53327137
-0.11605202 -0.063289568 0.53199375
-0.10984115 -0.060603585 0.53091711
-0.14132205 -0.058807097 0.53992003
-0.13411464 -0.055760592 0.53884125
-0.12505345 -0.05494478 0.53666967
-0.11486486 -0.055184606 0.53412294
-0.10749903 -0.054423172 0.53152961
-0.13156541 -0.046701614 0.53992242
-0.12475391 -0.045001358 0.53887224
-0.11514243 -0.045035169 0.53657609
-0.10526244 -0.044740766 0.53302497
-0.098744005 -0.041880868 0.5309211
-0.12169138 -0.036359195 0.53992438
-0.11500368 -0.034853723 0.53781062
-0.10474432 -0.034770895 0.53401959
-0.095904708 -0.033248514 0.53151685
-0.088340938 -0.030092796 0.53092337
-0.11344939 -0.025557471 0.53915238
-0.10497336 -0.024974812 0.53628159
-0.094999611 -0.024649268 0.53325188
-0.085485481 -0.024022844 0.53185338
-0.07641504 -0.021507775 0.53125799
-0.11072477 -0.017665768 0.53976178
-0.10480954 -0.015121315 0.53756279
-0.095233992 -0.014935986 0.53458101
-0.085352123 -0.014918334 0.5339272
-0.075455151 -0.014892031 0.53296721
-0.066740707 -0.013811563 0.53148848
-0.10290573 -0.0064854668 0.53920341
-0.094882958 -0.0051564504 0.53772205
-0.085014887 -0.005174302 0.53620046
-0.075026438 -0.0051585971 0.53417379
-0.064879626 -0.0051721167 0.53267312
-0.057006881 -0.003945502 0.5315944
-0.083190098 0.0037593138 0.53889853
-0.074416675 0.0046210792 0.53550279
-0.064532645 0.0044099377 0.53251749
-0.055750415 0.0050529432 0.53129584
-0.082026996 0.014522625 0.53960121
-0.074630044 0.014456552 0.53705639
-0.064567789 0.014472487 0.53434986
-0.054516055 0.014684877 0.53298801
-0.04504703 0.015660187 0.5322789
-0.038357373 0.01706535 0.53111356
-0.080665983 0.020172643 0.53993595
-0.074074589 0.023093166 0.53923917
-0.064781688 0.024751052 0.53818119
-0.055061106 0.025311949 0.53620458
-0.044863191 0.025501547 0.53344476
-0.038060639 0.025803771 0.53122824
-0.063949771 0.033092204 0.53963369
-0.054937694 0.035385102 0.53804427
-0.044967446 0.035341993 0.53469223
-0.035918921 0.035740424 0.53191018
-0.029389992 0.03924904 0.5309369
-0.05226656 0.042711511 0.53960633
-0.045154963 0.04530865 0.53798145
-0.035181958 0.045110606 0.53459197
-0.025796091 0.045544963 0.5321334
-0.017727554 0.047715764 0.53127152
-0.04420495 0.055019319 0.53926671
-0.035330702 0.055115774 0.53685999
-0.025373921 0.054817028 0.53396118
-0.015641391 0.05470806 0.53206486
-0.0094512478 0.056410681 0.53093982
-0.0428879 0.062781945 0.53971338
-0.035182215 0.06486892 0.53835714
-0.025439471 0.064743735 0.53531063
-0.015571416 0.06442152 0.53265673
-0.0059039798 0.06571468 0.53138888
0.0011252656 0.069065586 0.53094232
-0.032674175 0.072934419 0.53940761
-0.025455093 0.074752688 0.53750849
-0.014931513 0.074443236 0.53465933
-0.0043822606 0.075270332 0.53271526
0.0017565266 0.076455116 0.53103513
-0.02267061 0.082011119 0.53944767
-0.014027313 0.083959661 0.53832847
-0.0046252492 0.084876701 0.53581059
0.0049371039 0.085672468 0.53275585
0.011763536 0.088278644 0.53111321
-0.010701427 0.093650833 0.53994972
-0.0044821221 0.094518252 0.53766376
0.0052353311 0.095237859 0.53444886
0.014955316 0.095111787 0.53261477
0.024217699 0.096420065 0.53169763
0.030715855 0.098419882 0.53094769
-0.0035626634 0.1039978 0.53889924
0.0054414314 0.10499688 0.53678858
0.015103671 0.10519222 0.53480786
0.024806079 0.10486507 0.53315401
0.03290692 0.10584492 0.53132868
-0.0015553152 0.11239818 0.53978729
0.0054610181 0.11425829 0.53890938
0.015322522 0.11494589 0.53690785
0.024875702 0.11493753 0.53464633
0.034457859 0.1147253 0.53256857
0.042590316 0.11688688 0.53138632
0.0089061009 0.12030657 0.53995514
0.016310172 0.12301861 0.53947526
0.025150098 0.12516494 0.53735942
0.034612294 0.12456666 0.53403592
0.043571554 0.12559007 0.53193104
0.01948531 0.13017878 0.53995693
0.025634045 0.13455209 0.53883272
0.034709264 0.13470925 0.5355283
0.04521919 0.13519461 0.53320611
0.052825026 0.13701564 0.5312686
0.0277659 0.14178149 0.53983426
0.035625059 0.14434388 0.53847295
0.044900697 0.14479899 0.53572345
0.055046596 0.14522909 0.53225797
0.061959166 0.14623354 0.53095776
0.038880885 0.15239163 0.53996122
0.044886544 0.15485321 0.53800398
0.055067562 0.15509941 0.53431904
0.064950809 0.15493989 0.53234279
0.072792366 0.1569999 0.53139722
0.04683619 0.16418026 0.53916365
0.054805998 0.16477841 0.53670329
0.065485924 0.16511093 0.53500497
0.074881598 0.16499613 0.53396165
0.081094123 0.16449507 0.53184992
0.049108252 0.17107916 0.53996527
0.055923518 0.17318738 0.5393253
0.06491439 0.17507879 0.53777647
0.073121361 0.17417251 0.53646415
0.058982298 0.18165663 0.5399673
0.064776927 0.1820074 0.53891695
-0.30263084 -0.21204114 0.5458926
-0.29503921 -0.21170866 0.54503495
-0.28470382 -0.21161889 0.54297465
-0.27763623 -0.21074431 0.54109097
-0.30312213 -0.20553799 0.54853725
-0.29521075 -0.20486477 0.54731387
-0.28513554 -0.20525366 0.54463774
-0.27579626 -0.20422405 0.54195136
-0.26806477 -0.20021085 0.54089296
-0.29442397 -0.19777329 0.54963249
-0.28473371 -0.1966393 0.54783809
-0.27519011 -0.19512567 0.54580057
-0.26551989 -0.19464926 0.5426991
-0.25840965 -0.19152109 0.54109448
-0.28303942 -0.18128872 0.54939908
-0.27420172 -0.18515511 0.54849118
-0.26509166 -0.18502127 0.54479146
-0.25774959 -0.1847695 0.54175985
-0.29047891 -0.17552671 0.54990125
-0.28460577 -0.17643856 0.54826427
-0.27465728 -0.17573351 0.54561418
-0.26499578 -0.17471926 0.54404575
-0.25573051 -0.1746092 0.54239875
-0.24706583 -0.17222108 0.54111296
-0.25274286 -0.16975015 0.54289979
-0.24538556 -0.16879071 0.54152441
-0.17506675 -0.063399993 0.54309303
-0.16526952 -0.063235439 0.54276937
-0.15527035 -0.062061861 0.54205662
-0.14700849 -0.060633473 0.54111993
-0.18505871 -0.055902939 0.54832846
-0.17486535 -0.055155825 0.54722166
-0.16475196 -0.055136308 0.54579788
-0.15501294 -0.055247836 0.54474425
-0.1451762 -0.054622713 0.54285628
-0.13796058 -0.052717738 0.54112136
-0.18176782 -0.04935779 0.54992574
-0.17446603 -0.046171106 0.54884911
-0.16465354 -0.045294572 0.54715008
-0.15488088 -0.045157049 0.54544842
-0.14498897 -0.044964287 0.54308724
-0.13569215 -0.044048995 0.5415346
-0.12839366 -0.041018378 0.54092366
-0.17171101 -0.039302703 0.54992753
-0.16436379 -0.037473537 0.54931206
-0.15496084 -0.035276923 0.54792732
-0.14488681 -0.035193518 0.54617655
-0.13503407 -0.035240501 0.5449909
-0.12600239 -0.034349579 0.54218996
-0.1533768 -0.029316738 0.54992872
-0.14425555 -0.026997862 0.54982513
-0.13499515 -0.025356395 0.54860187
-0.12463801 -0.025144713 0.54404664
-0.1175957 -0.023144998 0.54152751
-0.14166075 -0.015482261 0.54993135
-0.13489358 -0.015316543 0.54819632
-0.12493822 -0.015149046 0.54588372
-0.11557925 -0.014893802 0.54283428
-0.10907923 -0.010874811 0.54093003
-0.14171438 -0.006351355 0.54993385
-0.13489136 -0.0052876114 0.54819888
-0.12469288 -0.0052824896 0.54744309
-0.11486844 -0.0052596293 0.54490811
-0.10675158 -0.0038149317 0.54173172
-0.1329598 0.0017552908 0.54960191
-0.12460569 0.0043863845 0.54831302
-0.11483261 0.0048107728 0.54530668
-0.10518128 0.00469905 0.54375017
-0.095237352 0.0046040476 0.54307884
-0.087622143 0.0060886866 0.54161704
-0.12197042 0.010848301 0.54968679
-0.11415437 0.013346942 0.54899943
-0.10483967 0.014762369 0.54832423
-0.094996266 0.014675461 0.54524523
-0.087303452 0.014579221 0.54172075
-0.10380746 0.023830222 0.5493024
-0.095002435 0.024872504 0.54659748
-0.085266486 0.024478536 0.54285049
-0.076992422 0.027120899 0.54137504
-0.10155261 0.030604079 0.54994035
-0.094457082 0.034628913 0.54847419
-0.08497037 0.034593955 0.54491627
-0.075380802 0.034440998 0.54249036
-0.066364653 0.036780909 0.54109913
-0.058911234 0.039990939 0.54093945
-0.092940107 0.044158448 0.54876465
-0.085001826 0.044739448 0.54587305
-0.075451307 0.044367369 0.54365033
-0.065630957 0.044629622 0.5423978
-0.055943269 0.046042852 0.54158944
-0.049725488 0.049881551 0.5409413
-0.090776615 0.050715066 0.54994476
-0.084104374 0.052138843 0.54904455
-0.074300647 0.05325789 0.54785317
-0.064878151 0.05486073 0.54634374
-0.055291023 0.05487781 0.54283196
-0.049018379 0.056593522 0.54094303
-0.063250892 0.064841993 0.54865217
-0.055165842 0.064724632 0.5441764
-0.046352096 0.066318728 0.54163098
-0.039361376 0.069192447 0.54094553
-0.062831126 0.073495544 0.54940307
-0.054699432 0.074848153 0.54736137
-0.045070738 0.075096592 0.54444772
-0.036499213 0.076093301 0.5420354
-0.029940089 0.079554059 0.5409475
-0.051950101 0.08401373 0.54956144
-0.044674039 0.084855169 0.54720008
-0.034488283 0.085262105 0.54414445
-0.025252594 0.086169891 0.54220539
-0.017075984 0.088400133 0.54128212
-0.050549202 0.091653705 0.54995233
-0.043866441 0.094378375 0.54908419
-0.034646925 0.094809644 0.54691017
-0.02435161 0.095129564 0.54450929
-0.015371602 0.095618039 0.54205322
-0.04095887 0.10263594 0.54978782
-0.034338865 0.10470752 0.54850996
-0.024613349 0.10466383 0.54616189
-0.014357351 0.10524445 0.54272389
-0.0077141388 0.10704255 0.54095292
-0.031866498 0.11246209 0.54985631
-0.024368579 0.11475357 0.54826069
-0.014399097 0.11512618 0.54443389
-0.0054659066 0.11575587 0.54165781
0.002563701 0.11911688 0.54095531
-0.021674221 0.12286887 0.54968548
-0.014757705 0.12511729 0.54743654
-0.0045289751 0.12474472 0.54390973
0.0054081446 0.12520556 0.54282331
0.013758043 0.12694165 0.54172927
-0.013735554 0.13376525 0.54925084
-0.0045601036 0.13496833 0.54791921
0.0052872696 0.13523246 0.54702753
0.015407535 0.13518654 0.54343677
0.021412507 0.13729228 0.5411253
-0.002230414 0.14378895 0.54969901
0.0054605459 0.14506191 0.54822713
0.015397935 0.14497818 0.54522198
0.024510408 0.14564946 0.54234517
0.032248583 0.14802036 0.54110342
0.0065857484 0.15303425 0.54950929
0.015418841 0.15513186 0.54805064
0.025528621 0.15515959 0.54516751
0.034618076 0.15516348 0.54221815
0.040719729 0.15867919 0.5409627
0.017881073 0.1649939 0.54956615
0.025304923 0.16495493 0.54711449
0.035324998 0.1650549 0.54363155
0.042867564 0.16617745 0.54132807
0.019370759 0.17305303 0.54996818
0.025596797 0.175026 0.54817659
0.035411522 0.17509858 0.54490364
0.044829883 0.17530634 0.5429213
0.053759415 0.1773202 0.54136652
0.02734575 0.18457039 0.54907769
0.034932714 0.18394414 0.54645544
0.045337405 0.18345277 0.54493433
0.054196652 0.18320304 0.54230148
0.060504757 0.1841125 0.54096776
0.027752206 0.19005166 0.54997194
-0.30511329 -0.20131807 0.55089557
-0.30385834 -0.19476703 0.55170667
-0.29525203 -0.19292575 0.55206847
-0.28615761 -0.19189934 0.55166125
-0.30465573 -0.18505315 0.55478561
-0.29546854 -0.18502612 0.55330813
-0.28545055 -0.18612714 0.55193138
-0.27901497 -0.18736029 0.55089718
-0.30504879 -0.17803819 0.5555017
-0.29532251 -0.17750077 0.55216426
-0.28956825 -0.17944391 0.5509001
-0.19402829 -0.050691105 0.55142629
-0.18833494 -0.051845595 0.55092555
-0.20453675 -0.044939287 0.5560568
-0.19519195 -0.044817973 0.55401498
-0.18536754 -0.045093708 0.55185896
-0.17778015 -0.042251989 0.55092722
-0.20104183 -0.038528871 0.55959678
-0.19417933 -0.035145387 0.55768043
-0.18491298 -0.035022177 0.55432969
-0.17508897 -0.035278056 0.55218482
-0.16573043 -0.032903932 0.55124456
-0.19080822 -0.028297059 0.55959862
-0.1840995 -0.02543263 0.55805343
-0.17507006 -0.025657302 0.55526477
-0.16496441 -0.025554119 0.55299193
-0.15528393 -0.024609096 0.55154127
-0.14709024 -0.023269629 0.55098236
-0.18203619 -0.018064536 0.55960059
-0.17443603 -0.01625526 0.55806202
-0.16493316 -0.015416213 0.55572402
-0.15487789 -0.015546133 0.55341148
-0.14625888 -0.015356482 0.55146515
-0.1718539 -0.0080791237 0.55976909
-0.16475031 -0.0055326573 0.55778694
-0.15455647 -0.0053478749 0.55453026
-0.14618488 -0.0049515213 0.55177331
-0.16298074 0.003064899 0.55925375
-0.15518571 0.0049207988 0.55721688
-0.14500038 0.0047899815 0.55400091
-0.13564897 0.0058944891 0.55184293
-0.12836395 0.0085946647 0.5509367
-0.15274358 0.012626803 0.55940634
-0.14484568 0.014921533 0.55803716
-0.13493857 0.014793666 0.55504525
-0.125433 0.015301101 0.55270135
-0.11709486 0.017550969 0.55129111
-0.14211018 0.023553934 0.55937922
-0.13492867 0.025234288 0.55810827
-0.12505598 0.025040803 0.5558157
-0.11494891 0.025091613 0.55273062
-0.1077998 0.026839452 0.55127317
-0.13277699 0.031697884 0.5596931
-0.12386569 0.035006266 0.55922902
-0.11470024 0.035129093 0.55632037
-0.10505309 0.035293661 0.55246687
-0.099577919 0.037135858 0.55094188
-0.12249873 0.045123186 0.5596658
-0.11443566 0.045125801 0.55744529
-0.10518955 0.045455024 0.5545724
-0.097911909 0.045907594 0.55169404
-0.12209885 0.050804138 0.55994725
-0.11501124 0.051600374 0.5595184
-0.10468291 0.054671694 0.55811357
-0.094927907 0.0554609 0.55424637
-0.085835829 0.057136338 0.55248171
-0.076024286 0.058442123 0.55169559
-0.10322077 0.064988762 0.55960339
-0.09511847 0.065027021 0.5575853
-0.084648654 0.065153301 0.555448
-0.074840002 0.065122046 0.55349493
-0.068547614 0.065445639 0.55141354
-0.10168913 0.071140654 0.55995101
-0.094427504 0.073897615 0.55928445
-0.084648125 0.074629061 0.55686909
-0.074823059 0.074797228 0.55371898
-0.066751011 0.076623067 0.55146813
-0.059277248 0.079588108 0.55094981
-0.090961926 0.080890954 0.55995268
-0.084203333 0.084725559 0.55887997
-0.075083144 0.084939368 0.55633342
-0.065279499 0.084994696 0.55390298
-0.056615658 0.085983075 0.55165124
-0.081948593 0.093591765 0.55987841
-0.074678645 0.095267043 0.55848581
-0.064864069 0.094781958 0.55564469
-0.055452604 0.095015764 0.55268532
-0.047917187 0.097953059 0.55122644
-0.073851369 0.10418797 0.55914491
-0.064579196 0.10522784 0.55769515
-0.055157922 0.10478255 0.55578214
-0.045683291 0.10545585 0.55284441
-0.038166758 0.10884955 0.55095583
-0.070481777 0.11014288 0.55995876
-0.063625254 0.11233632 0.55995876
-0.054811534 0.11506804 0.55881983
-0.045238301 0.11501773 0.55524373
-0.035874724 0.11554545 0.55189693
-0.028571323 0.1194027 0.55095786
-0.053424239 0.12240759 0.55967486
-0.045002799 0.12469695 0.55756581
-0.035010479 0.12491351 0.55410266
-0.025554018 0.12598003 0.55168664
-0.043167256 0.13432695 0.55932295
-0.034944147 0.13514473 0.55611807
-0.024970323 0.13489532 0.55274892
-0.017152721 0.13735075 0.55123436
-0.042080723 0.14312087 0.55966508
-0.03540232 0.14484343 0.55731291
-0.024898307 0.14458768 0.55463076
-0.014564482 0.144742 0.55315483
-0.0062693027 0.14617048 0.55150485
-0.033557087 0.15288219 0.55917752
-0.024874639 0.15476188 0.55837989
-0.014979437 0.15509146 0.55676168
-0.0045432998 0.15497622 0.55326974
0.0042715869 0.15713948 0.55141521
-0.021721063 0.16230775 0.55996853
-0.01445827 0.16483998 0.55871284
-0.0047894027 0.16491652 0.55558151
0.0055095558 0.16509274 0.55296719
0.012967137 0.16551039 0.55115718
-0.012960221 0.17311807 0.55949706
-0.004444276 0.17466448 0.55675322
0.0056216521 0.17492223 0.55399299
0.01479988 0.17537473 0.5519191
-0.0035401264 0.1838295 0.55890387
0.0055521727 0.18472323 0.55709141
0.015810369 0.18513431 0.5539034
0.022512695 0.18577899 0.55140871
0.0081054773 0.19232063 0.55961043
0.015107781 0.19333151 0.55670458
0.023101402 0.19110122 0.5521726
-0.24232483 -0.041653812 0.56773251
-0.23553672 -0.04147714 0.565332
-0.2251211 -0.041540675 0.56339276
-0.21514902 -0.04136185 0.56246895
-0.20835876 -0.041062493 0.56093001
-0.24147737 -0.038988993 0.56993318
-0.23440698 -0.036845885 0.56896764
-0.22500014 -0.035216063 0.56749094
-0.21509582 -0.034840081 0.56577301
-0.20555131 -0.034633957 0.56348413
-0.19846131 -0.032177795 0.56143153
-0.22384612 -0.025646852 0.56948704
-0.21484663 -0.024935808 0.56749028
-0.20490465 -0.024654886 0.56555313
-0.19540571 -0.024241477 0.56301028
-0.18847677 -0.021719355 0.56118351
-0.22063234 -0.01889194 0.56993681
-0.21410769 -0.01667073 0.56917495
-0.20489129 -0.015105071 0.56756812
-0.19500488 -0.015049312 0.56540799
-0.18563271 -0.014437508 0.56266856
-0.17794189 -0.011860897 0.56113529
-0.20293778 -0.0076253731 0.56937587
-0.19524428 -0.0053674607 0.56789184
-0.18498108 -0.005384041 0.56532884
-0.17555502 -0.0049317367 0.56239146
-0.19361007 0.0039632134 0.56942451
-0.18473938 0.0049037528 0.56715441
-0.17500907 0.0048809629 0.56443942
-0.16680923 0.0063261902 0.56198263
-0.19122575 0.011998203 0.56994259
-0.18459815 0.014839808 0.56888866
-0.17496523 0.015263094 0.56669772
-0.16500959 0.015133471 0.5644297
-0.1562189 0.016282709 0.5618338
-0.1492532 0.01900956 0.5609411
-0.18117552 0.021302361 0.5699442
-0.17399558 0.023362858 0.56934416
-0.16509946 0.024921453 0.56755507
-0.1549018 0.0248613 0.56451803
-0.14632164 0.02627974 0.56197983
-0.13948363 0.029754227 0.56094313
-0.16290919 0.03218969 0.56941229
-0.15490784 0.03464371 0.56836021
-0.14503759 0.035166249 0.56544501
-0.13537858 0.035525717 0.56175077
-0.12794377 0.037262876 0.56094426
-0.15290107 0.044661839 0.56932747
-0.14458995 0.044855557 0.56659043
-0.13488889 0.044583131 0.5631609
-0.12783328 0.04425966 0.56094611
-0.15146527 0.052551884 0.56980723
-0.14484861 0.055039223 0.5682835
-0.13516727 0.05514919 0.5648331
-0.12546124 0.055340547 0.56233895
-0.1151815 0.056787014 0.5619483
-0.10822145 0.058569029 0.56094819
-0.14490427 0.064189389 0.56948382
-0.13519876 0.064949155 0.56757104
-0.12463056 0.065063857 0.56621963
-0.11467672 0.065093286 0.56390494
-0.10765884 0.064580232 0.56119978
-0.14134568 0.07080166 0.56995404
-0.13415648 0.072599307 0.56945395
-0.12497503 0.074676424 0.56827295
-0.11456931 0.074921802 0.56453627
-0.10520186 0.075769238 0.56187922
-0.097417124 0.077997968 0.56113434
-0.12278736 0.084703535 0.56943625
-0.1150336 0.084850729 0.5668366
-0.10494306 0.085211582 0.56433594
-0.094899535 0.085368939 0.56205928
-0.089109033 0.087445922 0.56095427
-0.12146823 0.092462048 0.56995809
-0.11498252 0.094886981 0.56847179
-0.10496056 0.094824627 0.56544667
-0.095294252 0.095134832 0.56373179
-0.086687759 0.095502615 0.56170619
-0.11268029 0.10198095 0.56965226
-0.10430508 0.10426123 0.56892276
-0.094849028 0.10472276 0.56700921
-0.084911056 0.10494925 0.5634585
-0.077976592 0.10746761 0.56125867
-0.093476392 0.11425774 0.56913412
-0.085186303 0.11517809 0.56623161
-0.075110659 0.11498614 0.56296039
-0.065654896 0.11664103 0.56137395
-0.058884509 0.11913037 0.56096023
-0.091590248 0.12278143 0.56996375
-0.084817089 0.12507658 0.56840128
-0.074995257 0.12516464 0.56566566
-0.065004416 0.12475393 0.56317645
-0.055560801 0.12654777 0.56158251
-0.048626538 0.12938654 0.56096208
-0.083275162 0.13340491 0.56954479
-0.074738555 0.13488141 0.56833398
-0.064988352 0.13490489 0.56647599
-0.054895833 0.1351399 0.56405717
-0.047454629 0.13612419 0.56137556
-0.07216727 0.14205807 0.56973648
-0.064882614 0.1452549 0.56857872
-0.054744508 0.14493008 0.56555361
