# .PCD v0.7 - Point Cloud Data file format
VERSION 0.7
FIELDS x y z
SIZE 4 4 4
TYPE F F F
COUNT 1 1 1
WIDTH 1359
HEIGHT 1
VIEWPOINT 0 0 0 1 0 0 0
POINTS 1359
DATA ascii
0.0051506576 -0.13499595 0.50702715
0.015127108 -0.13517165 0.50830728
0.025058977 -0.13520691 0.5087111
0.035189699 -0.13534027 0.50901067
0.045059655 -0.13514404 0.50906992
0.055015963 -0.13505679 0.50893158
0.064902946 -0.13513161 0.50887161
0.074456334 -0.1340681 0.50810003
0.083973385 -0.13190503 0.50828111
0.09020263 -0.13000841 0.5083555
-0.091946803 -0.1289918 0.50090957
-0.084788695 -0.12522288 0.503025
-0.075138882 -0.12501581 0.50563926
-0.065151148 -0.1248899 0.50650012
-0.05497409 -0.12503532 0.50650972
-0.044956017 -0.12508173 0.50656825
-0.034976278 -0.12496428 0.50708729
-0.024946688 -0.1249859 0.50767159
-0.01483449 -0.12504137 0.5079633
-0.004725846 -0.12519014 0.50709224
0.0050811083 -0.12493403 0.50682455
0.014934216 -0.12500325 0.50825995
0.025001841 -0.1251011 0.50840873
0.035176497 -0.12501024 0.50754005
0.044911075 -0.12493595 0.50862515
0.055064045 -0.12472363 0.50924724
0.065088592 -0.12475671 0.50863373
0.075048655 -0.12494797 0.50856596
0.084892005 -0.12503308 0.50870764
0.094356366 -0.12418932 0.50915319
0.10277067 -0.12180424 0.50845486
-0.082749732 -0.1156135 0.50257641
-0.07508944 -0.11481693 0.50575495
-0.065090723 -0.11521672 0.50597924
-0.054835051 -0.11491304 0.50563693
-0.044762749 -0.11499985 0.50597686
-0.035094302 -0.11513963 0.50710595
-0.024950219 -0.11485708 0.50780725
-0.014902016 -0.11497501 0.50760126
-0.0049796086 -0.11495677 0.50694048
0.0051034489 -0.11499345 0.50749236
0.01495254 -0.11499351 0.50888067
0.024990134 -0.11516415 0.5085324
0.035119191 -0.1149884 0.50702214
0.045154568 -0.11504918 0.50746065
0.055156447 -0.1147961 0.50846422
0.065039612 -0.11486661 0.50858241
0.075135 -0.11491906 0.50887513
0.085201472 -0.11506581 0.50900996
0.093865037 -0.11542783 0.50941771
0.10530765 -0.11730007 0.50909203
0.11435751 -0.11363804 0.50855201
0.1232291 -0.11105232 0.50863522
-0.081517659 -0.10501023 0.50168329
-0.075388014 -0.10487325 0.50458461
-0.065129615 -0.10510502 0.50572455
-0.054707251 -0.10519143 0.50507879
-0.045113262 -0.10497469 0.50556868
-0.035039566 -0.10494913 0.50629222
-0.02501958 -0.10493963 0.50702912
-0.014976427 -0.10503577 0.50698495
-0.0049049328 -0.10484099 0.50702453
0.0048897406 -0.10491081 0.50825202
0.014234823 -0.10595547 0.50935048
0.026037687 -0.106682 0.50940245
0.035231534 -0.10491265 0.50813639
0.045119282 -0.10503232 0.50802213
0.054022346 -0.10580284 0.50932068
0.066238828 -0.10658915 0.50943387
0.075068399 -0.10495519 0.50886196
0.084515885 -0.10515801 0.50927722
0.093885012 -0.1045792 0.50962436
0.10226293 -0.10223277 0.50981581
0.11628402 -0.10482211 0.50926405
0.1245637 -0.10509434 0.50917429
0.1319432 -0.10609812 0.50974667
-0.081993915 -0.094692461 0.5015586
-0.07493154 -0.095022909 0.50391418
-0.064997256 -0.094895385 0.50523961
-0.054899115 -0.094917774 0.50511348
-0.044928912 -0.09482187 0.50561541
-0.034847777 -0.094951548 0.50596488
-0.024840962 -0.094995402 0.50674355
-0.014618731 -0.094930932 0.50671273
-0.0048428797 -0.095011391 0.50770277
0.0041253716 -0.094830215 0.5089922
0.015732124 -0.093231104 0.50976992
0.026146412 -0.092795126 0.50962555
0.035474624 -0.094975993 0.50945002
0.044880692 -0.0952131 0.50918341
0.052385833 -0.097280383 0.50956142
0.068561271 -0.097105302 0.50978142
0.075032555 -0.096287556 0.50940323
0.083851188 -0.096827187 0.50965619
0.096528947 -0.097005017 0.50965536
0.10305665 -0.097279683 0.50968766
0.116309 -0.098154016 0.50964427
0.12397467 -0.09702947 0.50965893
-0.083467305 -0.084320478 0.50164986
-0.075159065 -0.084983572 0.50379586
-0.065074734 -0.085114881 0.50622898
-0.054956786 -0.084907465 0.50812584
-0.045167387 -0.085253708 0.50869066
-0.034878682 -0.08514367 0.50825238
-0.024844302 -0.085104235 0.5080328
-0.014883566 -0.085149363 0.50770116
-0.0052418574 -0.085250206 0.50857937
0.0037771694 -0.087236673 0.50946206
0.016032819 -0.087429464 0.50956714
0.025002304 -0.086116165 0.50923741
0.034362532 -0.085783452 0.5094623
0.043849424 -0.086217031 0.50977534
0.051156949 -0.084242724 0.50982809
-0.27275476 -0.07319703 0.50802231
-0.26934361 -0.071006157 0.50720668
-0.09334068 -0.073506556 0.50429595
-0.085261777 -0.075401016 0.50564551
-0.074875772 -0.075047322 0.50625098
-0.065005444 -0.075047761 0.50751936
-0.055463415 -0.075146385 0.50900847
-0.044861261 -0.075230226 0.50969386
-0.035076957 -0.075164445 0.50945854
-0.024965169 -0.075010836 0.50841433
-0.014889259 -0.075238414 0.50849062
-0.0060178991 -0.074624307 0.50953025
0.0050091743 -0.071185082 0.50978482
0.011852719 -0.070267774 0.5099169
0.047861613 -0.076872334 0.50976211
0.054198116 -0.075990416 0.50968379
-0.27461269 -0.064581238 0.50704038
-0.26611972 -0.064364903 0.50724798
-0.25965941 -0.060684666 0.50719649
-0.10383917 -0.063508227 0.50489408
-0.095391102 -0.065462306 0.50785428
-0.084699936 -0.065092713 0.50814348
-0.075095885 -0.065014556 0.50889587
-0.065487616 -0.065583266 0.509435
-0.055257186 -0.06738285 0.50970989
-0.043295562 -0.067117818 0.50976676
-0.035736326 -0.065772787 0.50971591
-0.024568385 -0.066357285 0.50930053
-0.014662255 -0.066010967 0.50890791
-0.0049700253 -0.065725818 0.50954562
0.0059441659 -0.065835178 0.50945807
0.014173719 -0.06500826 0.50962144
0.024126513 -0.06196491 0.50972289
0.099030219 -0.064091496 0.5098744
-0.28234863 -0.053697929 0.50739247
-0.27477482 -0.055008225 0.50705951
-0.26468319 -0.055197641 0.50661677
-0.25597081 -0.053865049 0.5062685
-0.15203394 -0.050643127 0.50381631
-0.14561908 -0.051065862 0.50161737
-0.13380449 -0.050932683 0.50367713
-0.12514442 -0.052145969 0.5044325
-0.11397345 -0.054684736 0.50412184
-0.10517462 -0.055001769 0.50731671
-0.095095664 -0.054880343 0.50886112
-0.084997676 -0.055136044 0.50912827
-0.075101927 -0.05542757 0.50928664
-0.065153532 -0.055544782 0.50940382
-0.056359008 -0.054230813 0.50977838
-0.034058511 -0.059665054 0.50980246
-0.025158137 -0.05982767 0.50995457
0.00050729513 -0.059048161 0.5099653
0.017549172 -0.059309475 0.5099808
0.026536318 -0.057780385 0.50976264
0.031625666 -0.056532178 0.50969696
-0.2909683 -0.042081777 0.50670916
-0.28425184 -0.044757009 0.50682408
-0.27480337 -0.045057144 0.50678986
-0.26491168 -0.04475604 0.50619799
-0.25476128 -0.045277026 0.50573152
-0.24588652 -0.042790215 0.50631374
-0.23856562 -0.041069116 0.50787121
-0.18323356 -0.04060163 0.50559753
-0.17159504 -0.041203976 0.50717491
-0.16424063 -0.043267369 0.50649035
-0.15480712 -0.044981413 0.50583088
-0.14473213 -0.045030698 0.50586659
-0.13572071 -0.045429338 0.50790828
-0.12497322 -0.045243241 0.50874823
-0.11463115 -0.045012064 0.50757164
-0.10502486 -0.045077447 0.50839746
-0.095605552 -0.045166098 0.50945276
-0.086568668 -0.047625493 0.50981283
-0.058039188 -0.049783096 0.50996131
-0.300767 -0.031165831 0.50860131
-0.29426432 -0.034100119 0.50801539
-0.28475243 -0.035349458 0.50711006
-0.27474821 -0.034653444 0.5065546
-0.26503199 -0.035079531 0.50612241
-0.25494045 -0.035040393 0.50613761
-0.24504492 -0.034836628 0.50729692
-0.23827845 -0.035605986 0.50925094
-0.21446314 -0.03047521 0.50953847
-0.20234875 -0.030669248 0.5060901
-0.19284254 -0.033427395 0.50524682
-0.18474658 -0.034997627 0.50586349
-0.17515093 -0.035140868 0.50727248
-0.16495185 -0.035118982 0.5083161
-0.15491176 -0.035084307 0.50874954
-0.14481115 -0.035740834 0.50870895
-0.13462156 -0.035619039 0.50923121
-0.12498786 -0.03505541 0.50835598
-0.11493459 -0.034933046 0.50809932
-0.10536376 -0.034870367 0.50911313
-0.095353588 -0.035414349 0.50962687
-0.087908149 -0.037180439 0.50992179
-0.011632132 -0.036989581 0.50977618
-0.0055387281 -0.034181889 0.50970876
0.0014577607 -0.031858969 0.50984985
-0.3030872 -0.024542354 0.50901413
-0.29505214 -0.024783583 0.50905001
-0.28537527 -0.024970997 0.5085054
-0.27509636 -0.024932932 0.50745928
-0.26471081 -0.024972884 0.50713193
-0.25468227 -0.025154106 0.50734293
-0.2447786 -0.024903936 0.50818181
-0.23833829 -0.024911344 0.50947982
-0.2118988 -0.027158506 0.5092904
-0.20472345 -0.025258007 0.50829113
-0.1947934 -0.025181402 0.50737447
-0.18499684 -0.025003465 0.50794989
-0.17508268 -0.025317414 0.50760525
-0.16521041 -0.025111226 0.50785661
-0.15589851 -0.024709059 0.50907153
-0.14889331 -0.02356641 0.50987864
-0.1243932 -0.025362981 0.50894684
-0.11487823 -0.02493926 0.50841254
-0.10501913 -0.025110494 0.50903392
-0.096207745 -0.024511607 0.50954741
-0.0022317618 -0.02917365 0.50976849
-0.31135735 -0.011049315 0.5080111
-0.30459681 -0.014603506 0.50850314
-0.29499057 -0.01481697 0.50891829
-0.28517875 -0.014919894 0.50905973
-0.27489012 -0.015169109 0.5083155
-0.2650485 -0.014711652 0.50782984
-0.25503859 -0.015065325 0.5081647
-0.24492951 -0.015197009 0.50881106
-0.23662147 -0.013678098 0.50968105
-0.2298069 -0.012564559 0.50992739
-0.21025896 -0.011476867 0.50975865
-0.20383731 -0.014652924 0.50944859
-0.194903 -0.015110554 0.50913757
-0.184912 -0.015189434 0.50920373
-0.1748932 -0.014967443 0.50843024
-0.16483717 -0.015169876 0.50763422
-0.1549103 -0.015003924 0.50820047
-0.14605844 -0.013569223 0.50916362
-0.13755237 -0.011485884 0.50965202
-0.12358604 -0.018299939 0.50977248
-0.11448672 -0.01887203 0.50951183
-0.10400975 -0.018049492 0.50960165
-0.096366979 -0.017798217 0.50968063
-0.31366217 -0.003999975 0.5084393
-0.30483511 -0.004940154 0.50888288
-0.29513445 -0.005557531 0.50933856
-0.2846666 -0.0063364329 0.50951993
-0.27501869 -0.0052320827 0.50901103
-0.26490465 -0.0048916605 0.50845367
-0.25526336 -0.0048880726 0.50899136
-0.24513939 -0.0049069687 0.50916368
-0.23502678 -0.0052491948 0.50893772
-0.22498888 -0.0047693374 0.50901395
-0.21509704 -0.0045637852 0.50946754
-0.20532213 -0.0052528856 0.50956464
-0.19534653 -0.00623305 0.50958711
-0.18504989 -0.0072079059 0.50956398
-0.17463961 -0.0064210426 0.5090552
-0.16509779 -0.0050240271 0.50821412
-0.15504615 -0.0050387094 0.50770873
-0.14497651 -0.0047955117 0.50812197
-0.1356353 -0.0046284711 0.50905645
-0.12955453 -0.0031680167 0.50985783
-0.32286683 0.0061059971 0.50856507
-0.31487346 0.0048660659 0.50836837
-0.30587992 0.0051586893 0.50924414
-0.29939508 0.00058741122 0.50987142
-0.27266112 0.0023447326 0.50957364
-0.26431501 0.0048175808 0.50908005
-0.25491935 0.0051118308 0.50928503
-0.24572644 0.0035447974 0.50964314
-0.23506202 0.0018340163 0.50927973
-0.22527602 0.0031935971 0.50936806
-0.21661696 0.003014239 0.50954515
-0.20625755 0.0019509239 0.5097636
-0.16277485 0.00064369012 0.50974143
-0.15416865 0.0016703646 0.50941467
-0.14480376 0.0024901342 0.50945061
-0.1355616 0.002475614 0.50956362
-0.12964213 0.00056550652 0.50966191
-0.33157653 0.017872658 0.50918406
-0.32489783 0.015052312 0.50865221
-0.31511411 0.01481687 0.50806409
-0.3052153 0.014731248 0.50871408
-0.29554412 0.01616448 0.50936937
-0.28731957 0.017573586 0.50975847
-0.26349244 0.01458422 0.50953811
-0.25480664 0.014931399 0.50931299
-0.24889177 0.014399834 0.50984848
-0.21338937 0.019199677 0.50991416
-0.20707925 0.017942848 0.50985104
-0.12139395 0.017976634 0.50987083
-0.11726991 0.017658563 0.50983429
-0.33359042 0.025736088 0.50939924
-0.32557091 0.021175701 0.50949985
-0.31485668 0.021177238 0.50941145
-0.30463362 0.021403011 0.50944912
-0.29448149 0.021998571 0.50971878
-0.28474453 0.023874408 0.50970316
-0.27730012 0.024894804 0.50991642
-0.26050252 0.020945426 0.50973344
-0.25469652 0.022695836 0.5097056
-0.24582724 0.025594139 0.50992632
-0.21297298 0.023407832 0.50981104
-0.20635192 0.024634404 0.50973117
-0.1968638 0.027448148 0.50989842
-0.11752272 0.020927509 0.50977463
-0.34179303 0.036419977 0.50929213
-0.33566716 0.035314471 0.50938326
-0.25052804 0.030144962 0.50988162
-0.24486198 0.035413444 0.50991493
-0.23693782 0.03622441 0.50992405
-0.14794865 0.034254771 0.50985014
-0.34222713 0.042723525 0.50971931
-0.33586815 0.043643557 0.5096814
-0.32862353 0.042062327 0.50988269
-0.24088094 0.041732349 0.50980222
-0.35701522 0.058239631 0.509709
-0.34646356 0.059151802 0.50990164
-0.33322573 0.050675482 0.50991178
-0.36181304 0.065907083 0.50934917
-0.35675511 0.063708536 0.50956833
-0.34892762 0.064842895 0.50979435
-0.28032476 0.069340095 0.50977826
-0.27698892 0.069244176 0.50961334
-0.28167987 0.071551397 0.50970596
-0.27476597 0.074092776 0.50952631
-0.26854315 0.074915551 0.50969607
0.046552926 -0.13022995 0.51010036
0.052077323 -0.13135204 0.51009184
0.048177138 -0.12718305 0.51004463
0.053217422 -0.12818173 0.51016915
0.095712423 -0.12170936 0.51006937
0.020457879 -0.11023138 0.51009047
0.097948454 -0.11381111 0.51045465
0.1045367 -0.1126678 0.51069856
0.11090425 -0.1116632 0.51036388
0.016738044 -0.10276168 0.51031327
0.023802502 -0.10324962 0.51048988
0.030197352 -0.10065123 0.51013356
0.057241689 -0.10326142 0.51041764
0.063582674 -0.10319664 0.51040971
0.070272699 -0.10013913 0.51023781
0.088399328 -0.10427129 0.51016241
0.097304374 -0.10563459 0.51038611
0.10529617 -0.10521714 0.51085985
0.1122478 -0.10554707 0.51035368
0.12941797 -0.10388283 0.51022643
0.13468106 -0.10297462 0.51084012
0.14173979 -0.10140101 0.51128489
0.0087474613 -0.095731907 0.51039296
0.014655923 -0.095859103 0.5103941
0.024299562 -0.096703812 0.51048422
0.03133285 -0.095721811 0.51016796
0.046509601 -0.09082149 0.51023579
0.055841278 -0.094296567 0.51062107
0.064466871 -0.094372042 0.51069522
0.075522624 -0.091943271 0.51038128
0.08588288 -0.093656786 0.51054388
0.094461896 -0.09373986 0.51051646
0.1058939 -0.094057947 0.51073444
0.11463772 -0.094157241 0.51092273
0.12559924 -0.093968213 0.51055944
0.13510901 -0.0950137 0.51115012
0.14493263 -0.09498243 0.51161015
0.15407026 -0.092752896 0.51123714
0.16126218 -0.090657957 0.51095259
-0.042618573 -0.081388265 0.51019907
-0.038657486 -0.080166817 0.51003397
-0.0017466277 -0.081226729 0.51029789
0.0054821712 -0.08347781 0.51086408
0.014357603 -0.083580017 0.51061535
0.024632461 -0.081467703 0.51032585
0.036211986 -0.082332112 0.51030165
0.045352738 -0.084576324 0.51034254
0.05537834 -0.085150279 0.51087105
0.06484209 -0.084923118 0.51196343
0.075051345 -0.085126795 0.51184666
0.084977292 -0.084986597 0.51199335
0.095098339 -0.085003749 0.51158714
0.10493886 -0.085175805 0.5115099
0.11498599 -0.085027121 0.51143515
0.12492976 -0.084874928 0.51093084
0.13511367 -0.085011289 0.51130784
0.14495006 -0.085018769 0.51210892
0.1549066 -0.085015319 0.51208383
0.16483888 -0.084853388 0.51130277
0.17410621 -0.082704023 0.51226526
0.18121515 -0.080370598 0.51303053
-0.051782548 -0.073453516 0.51014322
-0.04552035 -0.074438363 0.51016903
-0.03513319 -0.071568988 0.51018441
-0.0024689862 -0.07558471 0.51025307
0.0048396299 -0.075768515 0.5109778
0.015145672 -0.075151592 0.51130027
0.025064481 -0.075158857 0.51227134
0.035126843 -0.075112037 0.51221329
0.044839498 -0.074643478 0.51091403
0.055621073 -0.074345142 0.51033533
0.064989291 -0.074935757 0.51149774
0.074986286 -0.075004607 0.51248544
0.085021332 -0.075051151 0.51209199
0.095171332 -0.075013459 0.51152557
0.10523254 -0.075080708 0.51122457
0.11520017 -0.074994631 0.51114374
0.12514755 -0.075052775 0.51171702
0.13504197 -0.075018965 0.5127334
0.14499271 -0.075108014 0.51351786
0.15513963 -0.074906513 0.51277095
0.16512866 -0.075062491 0.51224911
0.17504328 -0.074935086 0.51227969
0.18464273 -0.07453423 0.51331174
0.19367555 -0.072124973 0.51326579
-0.063392296 -0.063174017 0.51019245
-0.054704666 -0.063974373 0.51036644
-0.045837294 -0.063872702 0.51044184
-0.034594573 -0.063916422 0.51025659
-0.025776291 -0.061732668 0.51041591
-0.015063796 -0.061207656 0.51052052
-0.004510629 -0.063408762 0.51020342
0.0034246126 -0.062612735 0.51029313
0.015986169 -0.064761721 0.51035905
0.025035741 -0.065630533 0.5110876
0.035002291 -0.06500975 0.51272207
0.045117758 -0.06498874 0.51255363
0.055265196 -0.065054365 0.51109242
0.06520433 -0.064970776 0.51116353
0.075037129 -0.064985387 0.51238829
0.085117742 -0.06509129 0.51188123
0.094871469 -0.065000199 0.51061511
0.10505584 -0.065112814 0.51139957
0.1149901 -0.065047801 0.51250088
0.12498276 -0.065074645 0.51225853
0.13499257 -0.064827926 0.51263183
0.14517267 -0.065019488 0.51322401
0.15496852 -0.064979725 0.51367319
0.1649573 -0.064913198 0.51305276
0.17511022 -0.065052517 0.51312494
0.18509215 -0.064996719 0.51344961
0.19499439 -0.064960949 0.51275629
0.20451319 -0.064238533 0.51247203
0.21339934 -0.061976638 0.51322043
-0.083033174 -0.050659258 0.51020777
-0.073682405 -0.051345229 0.51028508
-0.064162336 -0.052671384 0.5102402
-0.054405559 -0.055404853 0.51035345
-0.045055613 -0.054896176 0.51084208
-0.034798343 -0.054867998 0.51120317
-0.024877625 -0.054906692 0.51124924
-0.014972704 -0.055030242 0.51146621
-0.005041874 -0.05509543 0.51145583
0.0051046493 -0.054952089 0.51145709
0.014885581 -0.055079617 0.51146626
0.024521433 -0.054129105 0.51084596
0.035529848 -0.054844651 0.51114893
0.044690847 -0.054895777 0.51230186
0.054858007 -0.055006761 0.51130265
0.064922981 -0.054964766 0.51132166
0.075054795 -0.055082161 0.51188445
0.08494018 -0.054930855 0.51282704
0.095168486 -0.055038929 0.51152605
0.10499873 -0.05513563 0.5121212
0.11513194 -0.054939494 0.51343524
0.12513109 -0.054961018 0.51256543
0.13504753 -0.054926522 0.51204222
0.14495996 -0.054976836 0.51295394
0.15507467 -0.054942276 0.51355594
0.16513765 -0.054998502 0.51360673
0.17491068 -0.054967739 0.51393038
0.18490815 -0.055044141 0.51353145
0.19508985 -0.055176415 0.51272124
0.20516229 -0.055005759 0.51339751
0.2150847 -0.055029236 0.51398218
0.2244067 -0.053778358 0.51356816
0.2327808 -0.05155215 0.51442081
-0.1324892 -0.044103328 0.51018214
-0.091682635 -0.044093393 0.51017636
-0.084804282 -0.044457525 0.51059943
-0.075037636 -0.045260135 0.51091546
-0.06500826 -0.044971514 0.51147485
-0.055118795 -0.04494866 0.51144767
-0.044981305 -0.044955868 0.51165473
-0.035309382 -0.045143187 0.5126797
-0.025309967 -0.045119461 0.51246405
-0.014860153 -0.04515449 0.51127362
-0.0048932191 -0.045008138 0.51195937
0.0048415968 -0.045160983 0.51284337
0.015013456 -0.044999789 0.51241702
0.025026836 -0.045058444 0.51164162
0.035055526 -0.045032971 0.51195228
0.045127649 -0.044946607 0.5123179
0.05506308 -0.045067471 0.51186067
0.065129466 -0.045055501 0.51178759
0.075081326 -0.045016039 0.51254189
0.084768459 -0.04489211 0.51419777
0.095075764 -0.044999294 0.51260066
0.10507181 -0.04499428 0.51201868
0.11486679 -0.044900641 0.51301295
0.12502001 -0.044922959 0.51319116
0.1351361 -0.044686798 0.51268357
0.14494798 -0.044977807 0.51368797
0.15496965 -0.045047347 0.51413983
0.16498356 -0.045051523 0.51364714
0.17504711 -0.044954266 0.51455313
0.18503726 -0.044995427 0.51416761
0.19498901 -0.045065995 0.5133785
0.20492724 -0.044971451 0.51383847
0.21496415 -0.045026544 0.514539
0.22500741 -0.045024205 0.51405811
0.2349751 -0.044976052 0.51477563
0.24445395 -0.043739028 0.51518577
0.2525202 -0.04148265 0.51513696
-0.23382339 -0.033400021 0.51087409
-0.22660261 -0.031703278 0.51143521
-0.21889955 -0.030396372 0.51053727
-0.15154558 -0.030981965 0.51027244
-0.1447439 -0.030993983 0.51034015
-0.13734686 -0.031453513 0.51029533
-0.10150185 -0.03384763 0.51000202
-0.094010331 -0.034614712 0.51018435
-0.084827058 -0.034869663 0.51069009
-0.074889101 -0.035036799 0.51121604
-0.064990088 -0.035012867 0.51160777
-0.05509606 -0.035222616 0.5116536
-0.044812936 -0.034818038 0.51185316
-0.034799363 -0.035017662 0.51255941
-0.024791928 -0.034819733 0.51182085
-0.015234162 -0.034875035 0.51064825
-0.0044041905 -0.035816617 0.51057673
0.0052268333 -0.035025585 0.51131904
0.014962223 -0.034878921 0.51114833
0.02505566 -0.034975272 0.51138419
0.035105854 -0.034935188 0.51277387
0.045098145 -0.035069261 0.51284468
0.054904651 -0.034949329 0.51231736
0.064923838 -0.03504255 0.51215512
0.074981675 -0.034947809 0.51255995
0.085099086 -0.034918271 0.51391149
0.095131017 -0.035018589 0.51422894
0.10510547 -0.035072971 0.51253581
0.11504443 -0.035061523 0.51283014
0.12495888 -0.035177827 0.51452178
0.13496584 -0.035061911 0.51484948
0.14512579 -0.035042595 0.51434964
0.15499641 -0.034954399 0.51506293
0.16493689 -0.035023235 0.51471466
0.17506267 -0.035098229 0.51498759
0.18501358 -0.035041697 0.51529217
0.19499771 -0.035056911 0.51439512
0.20501243 -0.034983106 0.51465064
0.21496502 -0.034924001 0.51518518
0.2250175 -0.035066798 0.51490796
0.23502262 -0.034918517 0.51530349
0.24498318 -0.034993764 0.5158174
0.25492796 -0.034989115 0.51586008
0.26416901 -0.03305592 0.51653886
0.27217001 -0.031055722 0.51711863
-0.23359789 -0.025006782 0.51085198
-0.22481939 -0.024888674 0.51158953
-0.21601565 -0.024131546 0.51108313
-0.20814514 -0.021341421 0.51027262
-0.15131167 -0.025920043 0.51027334
-0.14455849 -0.024865279 0.51064759
-0.13533477 -0.025154555 0.51077861
-0.1282851 -0.021546461 0.51042527
-0.091952689 -0.02579887 0.51028699
-0.084923536 -0.02485051 0.51119894
-0.075128213 -0.02493572 0.5125255
-0.065094516 -0.025100149 0.51269037
-0.054937951 -0.025052315 0.51206511
-0.044712573 -0.025109921 0.51149374
-0.034951221 -0.024939816 0.51188046
-0.025039829 -0.025022751 0.51133221
-0.015121602 -0.024961289 0.51131964
-0.0050413441 -0.02496838 0.5110718
0.0049853614 -0.024931997 0.51147538
0.014942812 -0.025045283 0.5117197
0.025079114 -0.025024395 0.51204741
0.034865394 -0.024931669 0.51303047
0.044846408 -0.025058048 0.51284927
0.05499595 -0.025045343 0.51272517
0.065141305 -0.024979953 0.51276904
0.075207554 -0.024917796 0.51287115
0.085026875 -0.024914481 0.51336604
0.095010363 -0.024949549 0.51349634
0.10509074 -0.024998769 0.51297027
0.11507536 -0.025024822 0.51288217
0.12496187 -0.025231168 0.51398569
0.13499555 -0.025001191 0.5154177
0.14497231 -0.024945283 0.51531583
0.1550747 -0.024983525 0.51524323
0.16514049 -0.025031593 0.51605737
0.17508647 -0.025072459 0.51551342
0.1849387 -0.025051191 0.51573294
0.19503717 -0.025050148 0.51523739
0.20503575 -0.024952369 0.51520258
0.21502982 -0.025006361 0.51575893
0.22503513 -0.024993096 0.51561064
0.23496391 -0.024899367 0.51633066
0.24503639 -0.025093703 0.51692897
0.25507686 -0.024970585 0.51728475
0.26507664 -0.024940152 0.51725382
0.27496997 -0.02503334 0.5171994
0.28402853 -0.022910055 0.51655209
0.29142579 -0.020752382 0.5163039
-0.23408347 -0.016668288 0.51074672
-0.22526009 -0.015082648 0.51145875
-0.21551809 -0.014767221 0.51112926
-0.20856611 -0.015618069 0.51022077
-0.14332105 -0.017347353 0.51040804
-0.13429092 -0.015249797 0.51067847
-0.12511426 -0.014544927 0.51072395
-0.11528342 -0.013787924 0.5109213
-0.10551284 -0.013773876 0.51086009
-0.094282731 -0.013888756 0.5105809
-0.084825717 -0.015050882 0.51128638
-0.074978895 -0.015126594 0.51285648
-0.064816982 -0.014977417 0.51335132
-0.054995548 -0.014859371 0.51337826
-0.04490561 -0.015071806 0.51205814
-0.034710668 -0.01508438 0.51130801
-0.024857627 -0.014931221 0.51146978
-0.014987149 -0.014943265 0.51252013
-0.0049390788 -0.015038228 0.51264971
0.0049879034 -0.014955091 0.51293772
0.015105379 -0.015197476 0.51308131
0.02508056 -0.015071024 0.51275957
0.034798134 -0.014827509 0.51376075
0.044939287 -0.015021726 0.51309967
0.054908279 -0.01492601 0.51309723
0.065037087 -0.014874152 0.51310009
0.075012766 -0.014893037 0.51330066
0.085108548 -0.015112723 0.51430684
0.09504471 -0.014952924 0.51522994
0.10522039 -0.015227923 0.51422954
0.11496767 -0.015040157 0.51465291
0.12494604 -0.015005932 0.51479161
0.13492219 -0.015101038 0.51554525
0.14509365 -0.014803408 0.51575708
0.15506452 -0.015046469 0.51565081
0.16506571 -0.015041866 0.51626229
0.17495221 -0.014948602 0.51613569
0.18508406 -0.015083288 0.51608133
0.19507499 -0.015043944 0.51653969
0.20491841 -0.015055996 0.51598221
0.21500514 -0.01501703 0.51638013
0.22500868 -0.015018684 0.51703614
0.23498933 -0.014956381 0.51699549
0.24498263 -0.015025218 0.51667279
0.25504008 -0.014910667 0.5173257
0.26508057 -0.01507962 0.51826763
0.27485785 -0.015090018 0.51775932
0.28509134 -0.014999242 0.51787591
0.2946769 -0.014757829 0.51734358
0.30415583 -0.012333232 0.51815051
0.31137776 -0.010660432 0.51803356
-0.30162168 -0.0001867488 0.51013577
-0.29337215 -0.0023757145 0.51028389
-0.28542259 -0.001454338 0.51035285
-0.22433035 -0.0093650352 0.51024693
-0.21551891 -0.0073357122 0.51016295
-0.20156831 -0.0026188418 0.5102402
-0.19389807 -0.0019164857 0.51035285
-0.18512291 -0.0024218385 0.5107187
-0.17588021 -0.0015025183 0.51051211
-0.13150521 -0.0060867071 0.51031971
-0.12466522 -0.0050485344 0.51084304
-0.11514466 -0.0048099533 0.51226926
-0.10498725 -0.0049869195 0.51256806
-0.094816148 -0.0050653191 0.5116986
-0.084821388 -0.0051657781 0.5116902
-0.074784838 -0.0050177639 0.51292801
-0.064876124 -0.0049297088 0.51381743
-0.055121601 -0.0049914354 0.51417983
-0.045111302 -0.0052271863 0.51338345
-0.035161294 -0.0049582585 0.51239568
-0.024829483 -0.0050601377 0.51202917
-0.014836316 -0.004973501 0.51323223
-0.0048809503 -0.0050682873 0.5135774
0.004957831 -0.0050349482 0.51362985
0.014965688 -0.005071694 0.51400584
0.025110805 -0.0049811392 0.51362544
0.035016354 -0.0049285763 0.51418883
0.044997506 -0.004931164 0.51503295
0.055100225 -0.0051804245 0.51471978
0.064951494 -0.005028029 0.51549667
0.075079888 -0.0051308656 0.51522332
0.085059069 -0.0049840105 0.51516789
0.094960548 -0.0051750406 0.5156818
0.1050284 -0.0051305206 0.51480526
0.11492057 -0.004918647 0.51528245
0.12494183 -0.0048635816 0.51539826
0.13501668 -0.005129212 0.51584691
0.14495352 -0.005097481 0.51599747
0.15502161 -0.0049045654 0.51617396
0.16498525 -0.0050398419 0.51689267
0.17504945 -0.004918729 0.51639736
0.18497509 -0.0051142573 0.51678658
0.19489186 -0.0050619445 0.5176366
0.20513047 -0.0049753152 0.51682413
0.21505184 -0.0050465637 0.51626766
0.22497463 -0.0050004316 0.51726168
0.23495592 -0.0049320282 0.51674414
0.24498279 -0.0050886963 0.51686382
0.25502089 -0.0051134694 0.51767367
0.26497909 -0.0049606445 0.51773429
0.2750771 -0.0050240266 0.51791978
0.28494069 -0.0049209343 0.51820326
0.29493883 -0.0049952166 0.51760143
0.30498239 -0.0049401708 0.51775336
0.31108388 -0.0070857559 0.51785594
-0.30107316 0.0055252472 0.51024592
-0.29474199 0.0050701518 0.51076525
-0.28492066 0.0050901058 0.51138532
-0.27574492 0.0057556429 0.51088166
-0.26930088 0.0087639987 0.51015848
-0.25064352 0.0018368848 0.51000404
-0.24455768 0.0064778123 0.51029325
-0.23504423 0.006907206 0.51053798
-0.22551957 0.0080235815 0.51054704
-0.21393849 0.0068261758 0.51050055
-0.204412 0.0057608327 0.51060343
-0.19470455 0.0050788186 0.51141399
-0.18492429 0.0051863519 0.51242751
-0.17501932 0.0051733223 0.5120157
-0.16531916 0.0053033549 0.51116401
-0.1554511 0.0063259527 0.51078242
-0.14522295 0.007251462 0.51047963
-0.13469832 0.0065523698 0.51049024
-0.12490512 0.0052048671 0.51095021
-0.11521304 0.0050654835 0.51269025
-0.10519386 0.0050367108 0.51368755
-0.094841778 0.0049124653 0.51308614
-0.084841475 0.0051358235 0.51280415
-0.075063869 0.0050682039 0.51274341
-0.065354533 0.0049235141 0.51349241
-0.055185039 0.0050234129 0.51343101
-0.045097589 0.0047863582 0.51279628
-0.034913685 0.0049951151 0.51235473
-0.024920855 0.0049529453 0.51223171
-0.015186264 0.0052303248 0.51253378
-0.0049280012 0.0048932494 0.51291043
0.0052858093 0.0050062388 0.51341283
0.014974823 0.0049438425 0.51443362
0.024829553 0.0051294887 0.51501703
0.035115499 0.0051478166 0.51473713
0.044839386 0.0051575378 0.51603031
0.055001661 0.0048564165 0.51569164
0.064943969 0.0048123342 0.51624417
0.075144805 0.0050141057 0.51582259
0.085077234 0.0049660625 0.51533806
0.094928503 0.0049102418 0.51554704
0.10498585 0.0049037277 0.51534897
0.11492115 0.0051412005 0.51574814
0.12513922 0.0051565785 0.51600909
0.13509022 0.0049808808 0.51654619
0.14498802 0.0050397855 0.51702797
0.155073 0.0048937588 0.5170331
0.16509667 0.0049110297 0.51758081
0.1750292 0.0049257027 0.51781189
0.18504024 0.0049851458 0.51740611
0.19503525 0.0050028842 0.51783264
0.20492001 0.0052338419 0.51747048
0.21500918 0.0047342684 0.51696229
0.22508106 0.0049532619 0.51740217
0.23512693 0.0049308743 0.51768708
0.24506734 0.0048729274 0.51780993
0.25500894 0.0048567411 0.51848924
0.26506871 0.0048859464 0.51884681
0.275029 0.005131871 0.5177927
0.28478974 0.0053740866 0.51903468
0.29535347 0.0048298552 0.5190227
0.30436707 0.0046538799 0.51854157
-0.29397154 0.011723003 0.51035947
-0.28491345 0.014166776 0.51089293
-0.27545729 0.014763779 0.51109111
-0.26764065 0.015596803 0.51024818
-0.25159571 0.017387168 0.51003611
-0.24442405 0.014842506 0.51060688
-0.23494142 0.01506519 0.51120293
-0.22497824 0.014966412 0.5111317
-0.21474135 0.014490783 0.5104124
-0.20422877 0.014561259 0.51074678
-0.19519335 0.015043817 0.51219821
-0.18511231 0.014774248 0.51270783
-0.17488034 0.015095455 0.51255512
-0.16496803 0.014765582 0.5123409
-0.15495946 0.014820673 0.511693
-0.14481913 0.014850939 0.51118225
-0.13517596 0.014782967 0.51135331
-0.12525319 0.014739754 0.5107581
-0.11448785 0.014647976 0.51177257
-0.10510094 0.015023659 0.51405197
-0.094979748 0.014922504 0.51401794
-0.085018978 0.014758644 0.51382387
-0.075117901 0.015015039 0.5139069
-0.064866841 0.014951701 0.51317316
-0.054984853 0.014642444 0.51284593
-0.045024194 0.015001477 0.51306093
-0.0349783 0.014795817 0.51329774
-0.024960341 0.014803817 0.51335186
-0.014868467 0.014872667 0.51303607
-0.0049378467 0.014951869 0.51360393
0.0048000808 0.015042261 0.51463264
0.014910842 0.014909095 0.51423824
0.024778413 0.015002931 0.5153026
0.034998499 0.014898336 0.51484472
0.045090735 0.015054941 0.51501399
0.055205215 0.014919985 0.51589304
0.065131582 0.014992812 0.5164606
0.075024955 0.014992043 0.51668382
0.084974304 0.015058956 0.51661354
0.094881214 0.015042496 0.51656872
0.10492658 0.014998903 0.5160948
0.11519384 0.014938973 0.51570654
0.12518436 0.015076006 0.51625597
0.13499504 0.015206677 0.51739478
0.14495258 0.015209602 0.51876366
0.15500811 0.015004989 0.51749527
0.16483557 0.014868866 0.51711768
0.17492171 0.014796483 0.51727867
0.18506461 0.015159971 0.51690716
0.19499701 0.015087589 0.51767945
0.20500655 0.015165523 0.51766843
0.21498489 0.014983213 0.51697189
0.2249959 0.015033435 0.51758486
0.23491533 0.014823924 0.51901907
0.24501674 0.014935565 0.5186376
0.25490192 0.01497414 0.51922846
0.26373285 0.012552505 0.51969492
0.27510822 0.014943145 0.51835567
0.28494927 0.015000989 0.51855767
0.29478094 0.015351383 0.51913959
0.30248323 0.014107588 0.51925439
-0.33070311 0.027594013 0.51044363
-0.32487392 0.026324909 0.51100576
-0.31522432 0.026195554 0.51144761
-0.3050853 0.026451733 0.51111436
-0.29509041 0.026305139 0.51053983
-0.28468758 0.026633944 0.51021212
-0.27470431 0.024884062 0.51055115
-0.26521042 0.02498224 0.51055622
-0.25489789 0.026552645 0.51039732
-0.24460293 0.02467623 0.5104118
-0.23475055 0.024805883 0.51096344
-0.2248601 0.025148811 0.51118147
-0.21534847 0.025618011 0.51050013
-0.20386273 0.024919085 0.51038575
-0.19484472 0.024970494 0.51100498
-0.18517399 0.024939926 0.51198441
-0.17499927 0.02475673 0.51213419
-0.16523385 0.02509594 0.51238233
-0.15501292 0.024785951 0.51199853
-0.14491045 0.024767399 0.51140893
-0.13504589 0.024904609 0.51198757
-0.12489014 0.025203198 0.51215965
-0.11469128 0.025214646 0.51164174
-0.10529756 0.024938682 0.51324254
-0.09503416 0.024915945 0.51365674
-0.085051909 0.024878856 0.51338243
-0.075158946 0.025015436 0.51363969
-0.065012716 0.024799736 0.51305228
-0.055016126 0.02492569 0.51248258
-0.044982456 0.024788568 0.51338053
-0.035030168 0.024917157 0.5152424
-0.025099168 0.025098436 0.5157178
-0.014715143 0.024976023 0.51428437
-0.0048545604 0.024932384 0.51463217
0.004949715 0.024974024 0.51571548
0.015061548 0.024825288 0.51565546
0.024932684 0.024819858 0.51590669
0.035089619 0.024809711 0.51546901
0.045000561 0.024796106 0.51532155
0.054871034 0.024753524 0.51580989
0.065019853 0.025302466 0.51617205
0.075088695 0.025212159 0.51599354
0.085002109 0.025095897 0.51611221
0.095055111 0.025068006 0.51599199
0.10507362 0.02497921 0.51611888
0.11511406 0.024833037 0.51562452
0.12489287 0.024843736 0.51638287
0.13500471 0.025103699 0.51789957
0.14509296 0.025219293 0.5176841
0.15507549 0.025192631 0.51706409
0.16505431 0.025092991 0.51690823
0.17491756 0.024824586 0.51664305
0.18483837 0.024973406 0.51692832
0.19494246 0.025075225 0.51723617
0.20507045 0.025179867 0.51788306
0.2150352 0.025148308 0.51763105
0.22501193 0.02512154 0.51815504
0.23426446 0.025510104 0.51920927
0.24520546 0.024694415 0.51921451
0.2551066 0.024871269 0.51924884
0.26431513 0.026186284 0.51942205
0.27537349 0.025292672 0.51909781
0.2848427 0.025088405 0.51920652
0.29487497 0.024920054 0.51906198
0.30077547 0.022089452 0.51902658
-0.34551156 0.038887765 0.51007521
-0.33108693 0.03406626 0.510373
-0.3247202 0.034966476 0.51187706
-0.31491283 0.035263985 0.5134837
-0.30526346 0.035270758 0.51335603
-0.29463357 0.035038814 0.51233923
-0.28455585 0.034972526 0.51189935
-0.27471825 0.034760632 0.51201987
-0.26481253 0.034691725 0.51186687
-0.25530112 0.035000458 0.51103711
-0.24474055 0.034692664 0.5103308
-0.23422816 0.034814481 0.51047188
-0.22504978 0.03540428 0.51137638
-0.21527509 0.035194237 0.51211923
-0.20492893 0.034913905 0.5115248
-0.19496812 0.034848094 0.51109183
-0.18491034 0.03508671 0.51173794
-0.17488159 0.035325624 0.51221466
-0.16506675 0.034876931 0.51173478
-0.15521823 0.034872472 0.51114833
-0.14471307 0.035011578 0.51067036
-0.13507456 0.034841675 0.51207781
-0.12530333 0.035111487 0.51351982
-0.11517306 0.03516208 0.51448607
-0.10516262 0.035071574 0.51443118
-0.095046781 0.034924135 0.51405835
-0.084765233 0.034914676 0.51395929
-0.074799336 0.035062332 0.51415277
-0.065197498 0.035078257 0.51464468
-0.054973315 0.03498999 0.5141573
-0.044807393 0.03470796 0.5142675
-0.034928508 0.034921896 0.51595277
-0.024861608 0.035286967 0.51741797
-0.015126193 0.035121571 0.51845586
-0.0049357084 0.034872301 0.5174762
0.0049865381 0.034923218 0.51683611
0.015405283 0.035044145 0.51589996
0.025239347 0.034951869 0.51631171
0.035092589 0.035067398 0.51623666
0.045062035 0.034849178 0.51576257
0.055000752 0.034866218 0.51663983
0.065007664 0.035121758 0.51717138
0.075099126 0.035112757 0.51671016
0.085124657 0.035060603 0.51653486
0.09502206 0.034842089 0.51664728
0.10498681 0.035060465 0.51698273
0.1151522 0.035030372 0.51663744
0.12521008 0.034830268 0.51635933
0.13494682 0.034971979 0.51825589
0.14490095 0.035158157 0.51871288
0.15502569 0.035014492 0.51837862
0.16500494 0.035024278 0.51838315
0.17515516 0.034995582 0.51767784
0.18512535 0.035046395 0.51725054
0.19503503 0.03482734 0.51718956
0.20485739 0.034915481 0.5187937
0.21494517 0.03513008 0.51903039
0.22497869 0.035085373 0.51892984
0.23470227 0.0350281 0.5192495
0.24385729 0.034802478 0.51968616
0.25626728 0.034853887 0.51950371
0.26482674 0.034790926 0.51917881
0.27523386 0.034997612 0.51947844
0.28438833 0.034239344 0.51955467
0.29428679 0.034394246 0.51960975
-0.35219881 0.047459733 0.51145953
-0.34562832 0.045530315 0.51061028
-0.33355698 0.046582822 0.51027113
-0.32467553 0.045002654 0.51117516
-0.31519634 0.045073852 0.51267147
-0.30508724 0.045108911 0.51323074
-0.29478106 0.045097567 0.51314342
-0.28495589 0.045218524 0.51350206
-0.2748957 0.044882298 0.51328737
-0.26497048 0.044704515 0.51247954
-0.25485399 0.04497901 0.5113278
-0.24525607 0.045362599 0.51074558
-0.23519793 0.045167346 0.5109247
-0.22509909 0.04493206 0.51174688
-0.21521226 0.044820033 0.51285726
-0.20494172 0.045054749 0.51269799
-0.19462091 0.044929121 0.51246643
-0.18494666 0.045123748 0.5133341
-0.17485239 0.045036122 0.51449019
-0.16496778 0.045212183 0.51514536
-0.15489617 0.044890668 0.51368672
-0.14473216 0.044728056 0.51253599
-0.13495591 0.044830773 0.5133189
-0.1250505 0.045369525 0.51391703
-0.11518891 0.044879161 0.51372296
-0.10518394 0.045062698 0.51385742
-0.095060781 0.04500838 0.51430953
-0.084972039 0.044930719 0.51466966
-0.074939594 0.045071371 0.51498854
-0.064785555 0.04494543 0.51465863
-0.054814193 0.045091521 0.5144738
-0.044935249 0.04488378 0.51468873
-0.035192315 0.04475154 0.51580316
-0.025002552 0.045204923 0.51668161
-0.015314373 0.0450431 0.51822227
-0.0049499287 0.044863816 0.51804507
0.0052037593 0.044961423 0.51695782
0.014768067 0.045133356 0.51638973
0.024706012 0.044980116 0.51664013
0.034763724 0.045130543 0.51664847
0.044897694 0.044937816 0.51628023
0.055046279 0.044802815 0.51683438
0.065060787 0.045192715 0.51799327
0.074974537 0.045072544 0.51844794
0.084875837 0.0449294 0.51760185
0.094797261 0.044920314 0.51734078
0.1050487 0.045085389 0.517609
0.11508399 0.045031603 0.51803112
0.12502554 0.045005567 0.51704681
0.1350359 0.044851825 0.51805711
0.14517044 0.045087647 0.51942182
0.15513343 0.045008145 0.51851463
0.16508251 0.044809151 0.51827598
0.17489843 0.045052301 0.51846045
0.18462324 0.044521168 0.51906013
0.19507609 0.043017153 0.51902831
0.20492357 0.044912081 0.51928854
0.21511148 0.045406409 0.5195387
0.22516212 0.045201886 0.51942855
0.23505817 0.045007903 0.51936656
0.24466212 0.0452023 0.51942414
0.25500008 0.045117635 0.51963848
0.26486436 0.044671606 0.51948339
0.27544272 0.044188932 0.51962054
0.28533074 0.045871932 0.51959419
0.29209673 0.043825012 0.51953852
-0.35356292 0.054730255 0.51075411
-0.34527087 0.054715946 0.51063371
-0.33516246 0.05542174 0.51057923
-0.32481208 0.054959562 0.51150459
-0.31505555 0.05493997 0.51217049
-0.30531642 0.054799624 0.51245058
-0.29502219 0.055193815 0.51273662
-0.28502318 0.0551017 0.51349747
-0.27537709 0.055240955 0.51388055
-0.26543653 0.054934543 0.51353389
-0.25507262 0.054778334 0.51283401
-0.24503283 0.055085734 0.51263386
-0.23510766 0.05499303 0.51279247
-0.2250282 0.05491456 0.51284713
-0.2149124 0.054930754 0.51277703
-0.20479907 0.055072509 0.51300079
-0.19502233 0.054788049 0.51398277
-0.18504274 0.055260099 0.51516515
-0.1749717 0.054727755 0.51591516
-0.16532278 0.055169858 0.51736426
-0.15498739 0.055031285 0.51650351
-0.14479555 0.055002455 0.51451099
-0.13514543 0.054712087 0.51425982
-0.12504077 0.055304639 0.51457953
-0.11486067 0.054861888 0.5144797
-0.10476403 0.055002432 0.5147295
-0.095202856 0.054893836 0.51516628
-0.084999308 0.054903395 0.51488674
-0.075337872 0.055201575 0.51510805
-0.06533169 0.055017944 0.51510948
-0.055187307 0.055017173 0.51582038
-0.045118429 0.054986741 0.51641858
-0.034826335 0.054742735 0.51616615
-0.025097184 0.05511196 0.51670223
-0.015186253 0.055096533 0.51664793
-0.0050486657 0.054799329 0.51669788
0.0050129378 0.055128612 0.51628304
0.014884797 0.054905254 0.51635849
0.024989564 0.055074487 0.51706135
0.034978602 0.054970808 0.51748937
0.045039941 0.055037912 0.51623642
0.055130355 0.054928623 0.51634771
0.065115288 0.055119038 0.51681483
0.075036161 0.05502177 0.51726544
0.085223891 0.054868367 0.51762557
0.094967417 0.055027794 0.5182519
0.10506697 0.054997157 0.51844031
0.11487719 0.055022128 0.51933211
0.12517446 0.05508741 0.51887459
0.13494952 0.054874927 0.51868415
0.14430684 0.054999478 0.51949853
0.15533502 0.054733142 0.51918614
0.16486053 0.05489761 0.51903695
0.1748746 0.054955442 0.51935226
0.1841895 0.055139206 0.51962173
0.19510378 0.056634966 0.51970243
0.20464635 0.053583726 0.51963288
0.21508589 0.05310208 0.51964921
0.2255038 0.05372452 0.51936966
0.23465295 0.053820752 0.51931
0.2455892 0.053237256 0.51951969
0.25398162 0.054299325 0.51952457
0.26621041 0.053689245 0.51972675
0.27506879 0.055046607 0.51977772
0.28469041 0.053428508 0.51966077
-0.36139411 0.06932009 0.51024932
-0.35310748 0.066409625 0.51044285
-0.34450489 0.065094464 0.51072252
-0.33472711 0.064896367 0.5115419
-0.32472649 0.0649461 0.5132044
-0.31480122 0.065210283 0.51352245
-0.30465811 0.064875029 0.51215076
-0.29482418 0.064833686 0.51138723
-0.28519315 0.064487971 0.51144063
-0.27478653 0.064860426 0.51209509
-0.26535255 0.065242611 0.51397967
-0.25500369 0.064950861 0.51467919
-0.24491058 0.065129846 0.5143069
-0.23482011 0.064735703 0.51382715
-0.2249157 0.065134957 0.51392138
-0.21520539 0.065222383 0.51458216
-0.20500228 0.06493064 0.51495141
-0.19494717 0.064778998 0.5150311
-0.18488947 0.064877532 0.51497865
-0.17474398 0.065142795 0.5154894
-0.1649497 0.064787015 0.51679099
-0.15506104 0.065199725 0.51718342
-0.14486665 0.065147907 0.51608032
-0.13493693 0.064672917 0.51544547
-0.12490708 0.065329656 0.51503664
-0.11507735 0.064779468 0.51528162
-0.10499529 0.065060824 0.51489532
-0.094867699 0.065002635 0.51423883
-0.084957987 0.065016828 0.51403373
-0.075054131 0.064996868 0.51435459
-0.064934865 0.065084592 0.51477093
-0.055186082 0.064835854 0.51608312
-0.045046922 0.065072156 0.51685804
-0.034743689 0.064937599 0.51624304
-0.024769748 0.065040559 0.51669514
-0.014980595 0.064982228 0.51715428
-0.0049484163 0.064921565 0.51691562
0.0050767628 0.065088488 0.51642978
0.014913121 0.064936355 0.51666671
0.025023002 0.065080173 0.51710069
0.034932047 0.064911492 0.51714122
0.045296445 0.065045677 0.51617879
0.055051371 0.065086298 0.51720423
0.065179452 0.06499099 0.51719451
0.075028382 0.064964525 0.51777297
0.084880412 0.064987101 0.51861119
0.094956689 0.06481947 0.51914358
0.10474336 0.063791275 0.51942474
0.11540664 0.063931756 0.51950932
0.12515414 0.065089144 0.51931483
0.13495766 0.064696953 0.51932371
0.14519778 0.064694591 0.51931727
0.15510203 0.065062523 0.51931536
0.16500703 0.065052144 0.51917571
0.17509496 0.065019026 0.51818627
0.18493642 0.064999476 0.51895422
0.19499761 0.064783581 0.51933956
0.20225409 0.065341078 0.51971543
0.25645596 0.060346559 0.51990926
0.27613214 0.060384352 0.5198347
0.2817193 0.06078773 0.51978326
-0.37213907 0.078808725 0.51166904
-0.3646023 0.075208977 0.51096916
-0.35504019 0.075340025 0.51159638
-0.34493503 0.074832164 0.51218897
-0.33480677 0.074840471 0.51246578
-0.32528457 0.074903317 0.51329809
-0.31553084 0.075059794 0.51417786
-0.30550405 0.075123996 0.51345611
-0.29503465 0.074957512 0.51190507
-0.28550306 0.075610854 0.5108639
-0.27388579 0.077311262 0.51038599
-0.26396134 0.074763961 0.5113976
-0.25561872 0.075162031 0.51420909
-0.24542131 0.074968837 0.51471412
-0.23488341 0.075030319 0.51385427
-0.22484642 0.074967459 0.51355785
-0.21485361 0.075182088 0.51437622
-0.20477496 0.075024717 0.51579666
-0.1946281 0.07509654 0.51590651
-0.18455359 0.074836664 0.51526314
-0.17487663 0.07476683 0.51468062
-0.16488031 0.074961603 0.51484621
-0.15504189 0.074754275 0.51554227
-0.14493282 0.075239621 0.51537037
-0.13529265 0.074991308 0.51550031
-0.12496581 0.07501211 0.51519895
-0.11476167 0.074839801 0.51507533
-0.10477104 0.075281441 0.51501226
-0.094813287 0.074884877 0.51504958
-0.085122898 0.075153328 0.51542699
-0.074935928 0.074900091 0.51531661
-0.06481339 0.074984163 0.51517987
-0.055016175 0.075078808 0.51656896
-0.045046933 0.075004041 0.51676357
-0.034955252 0.074839979 0.5158211
-0.025071172 0.075059064 0.51644456
-0.015113893 0.074821614 0.51684666
-0.005053346 0.075031437 0.51580346
0.0051543023 0.075080425 0.51499623
0.01487925 0.075061738 0.51611251
0.0251693 0.074798532 0.51670551
0.035005335 0.075166695 0.51714993
0.045040153 0.074851088 0.51664311
0.055001948 0.075117983 0.51762027
0.064935938 0.074927345 0.51793236
0.074277356 0.074487478 0.51916558
0.085119851 0.073156767 0.51967716
0.095410727 0.074845888 0.51907498
0.10420764 0.075648114 0.51925004
0.1159602 0.076215699 0.51983202
0.12505206 0.075188093 0.51930463
0.13280281 0.074907824 0.51951247
0.1486164 0.072064295 0.51967442
0.15599628 0.074605785 0.51926666
0.16509174 0.075045496 0.51888925
0.17509782 0.075028025 0.51879621
0.18406166 0.074279405 0.51929677
0.19488963 0.070566244 0.5197953
0.2014519 0.070715874 0.51976573
-0.38117808 0.088416874 0.51372623
-0.3742162 0.085549787 0.51243424
-0.36505443 0.084952377 0.51167548
-0.35490415 0.08505325 0.51193672
-0.34508875 0.08520294 0.51316464
-0.33550361 0.084954135 0.51356322
-0.32498959 0.084723063 0.51335132
-0.31511593 0.084903248 0.51353824
-0.30511582 0.084866941 0.51338607
-0.29500312 0.085231118 0.51314163
-0.28476933 0.085062586 0.5128442
-0.27496293 0.084949367 0.51210123
-0.26482761 0.085083097 0.51150054
-0.25487089 0.084598169 0.51237512
-0.24519119 0.085485682 0.51335424
-0.2348967 0.08497633 0.51354539
-0.22506745 0.085135885 0.51389968
-0.21496341 0.084878735 0.51465428
-0.20533517 0.084930554 0.51643795
-0.19545892 0.084966153 0.51706016
-0.1853577 0.084845088 0.5164932
-0.1750654 0.085144758 0.5157609
-0.16531488 0.084931791 0.51532286
-0.15491879 0.084950089 0.51529533
-0.14475583 0.084986515 0.51562285
-0.13464446 0.084939048 0.51580459
-0.12467802 0.084989779 0.51623505
-0.11506049 0.085223272 0.51675123
-0.10490656 0.084983945 0.51659846
-0.094945394 0.084891811 0.5167855
-0.084902458 0.084984109 0.51719332
-0.075223081 0.08523985 0.51722914
-0.064809866 0.08484453 0.51648259
-0.054999303 0.08494065 0.51721549
-0.045057081 0.085036241 0.51757491
-0.034639455 0.08508008 0.51685429
-0.024948297 0.084916212 0.51694882
-0.015152521 0.08497072 0.51719362
-0.0049103084 0.085209556 0.51626122
0.0051336712 0.084946662 0.5159229
0.014992538 0.085002318 0.51733613
0.024979267 0.084901899 0.51748741
0.035042297 0.08498197 0.51759678
0.045156352 0.084933832 0.5180161
0.055172708 0.084981412 0.51819628
0.06503243 0.084946528 0.51850867
0.07447882 0.085405089 0.51931852
0.085512929 0.086193256 0.51954991
0.095090598 0.084840991 0.51928395
0.10527454 0.084632382 0.51932901
0.1144274 0.084510364 0.51960564
0.12527776 0.084235676 0.5190748
0.13367587 0.084839441 0.51929587
0.15678127 0.08448562 0.51958841
0.16485696 0.084898576 0.51930112
0.17326832 0.083314881 0.5196088
0.18291532 0.081853397 0.51965237
0.19955155 0.086004958 0.51980853
0.20460248 0.086929403 0.5196659
0.23153643 0.08904092 0.51996279
-0.38359654 0.095703214 0.51363343
-0.37453943 0.095086627 0.51272792
-0.36481395 0.095283173 0.51246232
-0.35476512 0.095136471 0.51280874
-0.34517911 0.094639294 0.51385248
-0.3351717 0.095166348 0.51460469
-0.32484099 0.094978742 0.51475179
-0.31487849 0.095220536 0.51450872
-0.30530551 0.094979651 0.51398247
-0.29485291 0.094982013 0.51361293
-0.28486112 0.095119402 0.51369298
-0.27462327 0.095101036 0.51341671
-0.26463759 0.095291838 0.51274639
-0.25473839 0.094775841 0.51214987
-0.24475317 0.094738543 0.51268089
-0.23524323 0.095190041 0.5142076
-0.22544806 0.095123775 0.5154261
-0.21494041 0.094879888 0.51560676
-0.20516017 0.095010765 0.51640648
-0.19528812 0.094789781 0.51677781
-0.18506694 0.095107414 0.51590264
-0.17532435 0.094802797 0.51527524
-0.16516106 0.094966836 0.51535928
-0.15473323 0.094943926 0.51557809
-0.14553034 0.095079474 0.51685989
-0.13507788 0.09507183 0.51647639
-0.12476025 0.094916165 0.51574272
-0.11501794 0.094924986 0.51688546
-0.10500234 0.095042184 0.51810586
-0.095054127 0.095110618 0.5187704
-0.084828459 0.094728984 0.51818842
-0.074964933 0.09505935 0.51798463
-0.065021731 0.095137499 0.51831686
-0.055486221 0.094245657 0.5189867
-0.044473249 0.09396524 0.51871008
-0.034857169 0.095076859 0.5180698
-0.024954373 0.094879605 0.51850313
-0.015105905 0.09420602 0.51900965
-0.0049637258 0.094894156 0.51901972
0.0051376955 0.094877526 0.51831472
0.015063317 0.094869666 0.51819891
0.024948554 0.095057271 0.51781875
0.035126161 0.094962373 0.51743805
0.044924766 0.094873734 0.51869226
0.055020615 0.095090419 0.51890367
0.065139845 0.094883963 0.51906323
0.074971147 0.094123967 0.51957273
0.085237332 0.094705276 0.5194543
0.09448605 0.094993867 0.51944482
0.1059301 0.091102637 0.51978308
0.11371239 0.090237275 0.5199011
0.12888338 0.090973973 0.51970273
0.13577482 0.093173251 0.51976728
0.14394794 0.098323353 0.5197106
0.157497 0.091456376 0.51976782
0.16548464 0.093494497 0.51956218
0.17250422 0.094283357 0.51968396
0.20559193 0.092896357 0.51968747
0.21152084 0.092651382 0.51975024
0.22898564 0.093664736 0.51986945
0.23214065 0.092796318 0.51969749
-0.39206624 0.10660914 0.51246613
-0.38540614 0.10482526 0.51261491
-0.37511122 0.10503867 0.5121755
-0.36518976 0.10504406 0.51271123
-0.35515025 0.10511333 0.51421142
-0.34487393 0.10509305 0.5149523
-0.33474886 0.10486787 0.51486045
-0.32469338 0.10514627 0.51432818
-0.31484458 0.10513619 0.51465183
-0.30504456 0.10506433 0.51477671
