# .PCD v0.7 - Point Cloud Data file format
VERSION 0.7
FIELDS x y z
SIZE 4 4 4
TYPE F F F
COUNT 1 1 1
WIDTH 1
HEIGHT 830
VIEWPOINT 0 0 0 1 0 0 0
POINTS 830
DATA ascii
-0.081425667 -0.10002979 0.3893857
-0.075678557 -0.10106196 0.38915309
-0.11411063 -0.092126057 0.38887879
-0.10487761 -0.093396463 0.38791466
-0.09514568 -0.09210331 0.38900018
-0.084160171 -0.093882501 0.3886922
-0.074967444 -0.094935611 0.3886674
-0.069995739 -0.093052506 0.38883832
-0.1237893 -0.083413117 0.38798603
-0.11494532 -0.085285738 0.38491052
-0.10506856 -0.084853634 0.38399869
-0.094852626 -0.08496394 0.3880105
-0.084981829 -0.087232485 0.38885635
-0.076820992 -0.088225096 0.38926652
-0.13116911 -0.074727751 0.38926017
-0.12482841 -0.074825473 0.38558933
-0.11502686 -0.075090073 0.38223928
-0.1051317 -0.075045399 0.38374949
-0.096797235 -0.07548248 0.38845661
-0.13116623 -0.06561742 0.38939637
-0.12477734 -0.064878479 0.38558641
-0.11483318 -0.06496571 0.38325474
-0.10508128 -0.06504596 0.38578194
-0.098276675 -0.06559176 0.38908532
-0.1309897 -0.058984734 0.38973051
-0.12426295 -0.056012813 0.38784647
-0.11538202 -0.055472765 0.38673434
-0.10647692 -0.057437971 0.38818151
-0.11282805 -0.10149529 0.39801845
-0.10516962 -0.10287466 0.39598992
-0.095709302 -0.1022567 0.3968814
-0.083924443 -0.10357396 0.39466906
-0.078403421 -0.10418651 0.39101085
-0.13100104 -0.090025023 0.39941195
-0.12339319 -0.093336269 0.39552632
-0.11589514 -0.096324012 0.39363337
-0.10522296 -0.098152503 0.39132324
-0.094265386 -0.096952192 0.3921195
-0.087618902 -0.097602107 0.39135125
-0.14083521 -0.081435613 0.39919519
-0.13441589 -0.083787635 0.39526939
-0.12686877 -0.087009624 0.39209598
-0.090868749 -0.081397019 0.39030001
-0.084556006 -0.082431778 0.39189148
-0.078434773 -0.084462225 0.39168432
-0.14166912 -0.074376836 0.39784029
-0.13608226 -0.075019211 0.39303809
-0.092522845 -0.073769987 0.39096394
-0.08521042 -0.075238846 0.39498127
-0.079045989 -0.075285085 0.39902303
-0.14232339 -0.065238841 0.39760405
-0.13622902 -0.064749636 0.393213
-0.093424797 -0.064674594 0.39234892
-0.086526148 -0.065598108 0.39708084
-0.14343983 -0.05463171 0.39781734
-0.1352451 -0.054774337 0.39401236
-0.12707326 -0.052180212 0.39107496
-0.11433765 -0.050611317 0.39057627
-0.10416716 -0.053114582 0.39254677
-0.095447302 -0.0551234 0.39614895
-0.088283002 -0.057674389 0.39957181
-0.14152284 -0.049014058 0.39913663
-0.13389996 -0.047155362 0.39750242
-0.12491766 -0.045066707 0.39556342
-0.11520895 -0.045361996 0.39476386
-0.1058832 -0.047287971 0.39690837
-0.09817785 -0.04889939 0.39915898
-0.11328738 -0.11033265 0.40865269
-0.10428008 -0.11171275 0.40813714
-0.096129216 -0.11059707 0.40813294
-0.081980839 -0.11162164 0.40729159
-0.12263539 -0.10310061 0.40672019
-0.11546315 -0.10583341 0.40458244
-0.10570106 -0.10821085 0.40291214
-0.094537683 -0.10691509 0.40356222
-0.085684232 -0.10758037 0.40363026
-0.14125116 -0.091256529 0.40870264
-0.13491808 -0.092805117 0.40650237
-0.12677355 -0.096843295 0.40417907
-0.14314941 -0.084581308 0.40561992
-0.13725045 -0.087832548 0.40198183
-0.14593118 -0.0752239 0.40493587
-0.14671271 -0.065003604 0.40426275
-0.083495349 -0.062865585 0.40089369
-0.15043038 -0.05434484 0.40847096
-0.14823854 -0.055039972 0.40292835
-0.091942579 -0.050593168 0.40007347
-0.087475456 -0.056597527 0.40042773
-0.14433281 -0.046851743 0.40545735
-0.13603838 -0.043037646 0.40325865
-0.12575006 -0.040619433 0.40066117
-0.11423341 -0.040738892 0.40108567
-0.10438725 -0.042824484 0.40237227
-0.097208992 -0.046503764 0.40131831
-0.13400561 -0.035425879 0.40690568
-0.1251677 -0.035512526 0.40422118
-0.11515135 -0.037224192 0.4055191
-0.1069579 -0.038021594 0.40527302
-0.13294405 -0.028366186 0.40857646
-0.12698177 -0.027142866 0.40779898
-0.12386049 -0.11149151 0.41452324
-0.11502472 -0.11345637 0.41302881
-0.10565575 -0.11572572 0.41484267
-0.094986625 -0.11516009 0.41541955
-0.085048817 -0.11442668 0.41612726
-0.14197932 -0.10094839 0.41931602
-0.13366799 -0.10272435 0.41712245
-0.12629899 -0.10629007 0.41369841
-0.14437006 -0.094623141 0.41528162
-0.13569541 -0.097611159 0.41296551
-0.12935176 -0.099455044 0.41117457
-0.15064466 -0.080940604 0.41732797
-0.14761646 -0.085528374 0.41415143
-0.15123186 -0.074660018 0.41598746
-0.14915316 -0.075221203 0.41159657
-0.15070768 -0.065725401 0.41584709
-0.14947827 -0.066663243 0.4121846
-0.15107875 -0.0550014 0.41560763
-0.15037145 -0.046481326 0.41930729
-0.14618286 -0.043022439 0.41318583
-0.13998145 -0.040892169 0.41075388
-0.14277807 -0.035879221 0.41508269
-0.13892499 -0.034673013 0.41130775
-0.1350105 -0.025192911 0.41150993
-0.12852898 -0.023076724 0.41106746
-0.084096268 -0.13164435 0.42952105
-0.11075217 -0.1212943 0.42274427
-0.10429984 -0.12285541 0.42482358
-0.094919257 -0.12350514 0.42673028
-0.084811591 -0.12553902 0.42825893
-0.079186298 -0.12557296 0.42794806
-0.14092839 -0.11007208 0.42917103
-0.13289545 -0.11188186 0.42652377
-0.12881805 -0.11284982 0.42364147
-0.10759488 -0.11961582 0.42047715
-0.092623107 -0.11872318 0.42119005
-0.084318317 -0.11865778 0.42294481
-0.15135555 -0.10138648 0.42446995
-0.14513168 -0.10421331 0.42304802
-0.13574876 -0.10698275 0.42292896
-0.15205868 -0.095375262 0.42616168
-0.14850914 -0.096111991 0.4211387
-0.15159102 -0.086161591 0.42472112
-0.14963707 -0.088704795 0.42087728
-0.15399134 -0.073452078 0.42439905
-0.15275958 -0.065863647 0.42487237
-0.15227197 -0.054406628 0.42530459
-0.1516365 -0.04706496 0.42705613
-0.10230435 -0.13027802 0.43545669
-0.094475575 -0.13133214 0.432616
-0.088241644 -0.13138372 0.43052015
-0.12797217 -0.12029135 0.43820691
-0.10311925 -0.12746401 0.43125013
-0.09426342 -0.12851354 0.43128553
-0.087628305 -0.12958044 0.4304083
-0.13561773 -0.11467399 0.43436459
-0.12696716 -0.11813361 0.43315929
-0.15454832 -0.094449155 0.43475258
-0.15338883 -0.087341577 0.43466029
-0.15685903 -0.073553614 0.43653324
-0.16033679 -0.061865866 0.43990982
-0.15652995 -0.064674906 0.43547863
-0.16028447 -0.058317084 0.43996659
-0.15599047 -0.054672193 0.43609989
-0.15424831 -0.048193671 0.43714401
-0.13305204 -0.12153763 0.4455719
-0.12886804 -0.12098624 0.44046524
-0.13418563 -0.11894349 0.441266
-0.15608072 -0.094923325 0.44487149
-0.15501976 -0.087430738 0.44548187
-0.16234431 -0.072136253 0.4469946
-0.15905733 -0.073346876 0.44349274
-0.17372608 -0.062749423 0.44684708
-0.16468634 -0.064948589 0.44334382
-0.15921047 -0.068629228 0.44053608
-0.17389806 -0.055451188 0.44466421
-0.1649937 -0.054636467 0.44144464
-0.15893957 -0.050253369 0.44083026
-0.1713126 -0.048636336 0.44382882
-0.16449293 -0.047866981 0.44220856
-0.15760091 -0.047451854 0.44056401
-0.134414 -0.12565272 0.45610335
-0.12726539 -0.1293163 0.45688894
-0.1584349 -0.10292257 0.45716494
-0.15760389 -0.094972506 0.45552689
-0.16043445 -0.081019364 0.45910105
-0.15711585 -0.086374044 0.45562932
-0.17181258 -0.070927143 0.4589411
-0.16491807 -0.074925683 0.45569712
-0.17458551 -0.066550963 0.45317745
-0.16859195 -0.069271743 0.45100141
-0.13266386 -0.13240044 0.46675143
-0.12580544 -0.13348375 0.46473244
-0.11813742 -0.13411686 0.46720582
-0.13661034 -0.12728132 0.46291637
-0.16154756 -0.10259659 0.46717453
-0.16118369 -0.095426746 0.46669078
-0.15886013 -0.093393736 0.4612588
-0.16280094 -0.083681762 0.46681625
-0.15899831 -0.087563105 0.46339741
-0.17233099 -0.074143261 0.4665451
-0.16740558 -0.077206001 0.4640471
-0.1637461 -0.16145302 0.47628301
-0.15462559 -0.16170271 0.47533062
-0.14947861 -0.16239749 0.47922549
-0.16360946 -0.15514857 0.47757685
-0.15492697 -0.1550483 0.47589156
-0.1465777 -0.15347768 0.47848597
-0.16147856 -0.14771095 0.47913298
-0.15467036 -0.14662462 0.4784767
-0.14519273 -0.1451575 0.47884133
-0.13547903 -0.14397375 0.47777134
-0.12660991 -0.1423481 0.47739065
-0.14195029 -0.13565192 0.47897148
-0.13642494 -0.1358954 0.47466391
-0.1259425 -0.13804285 0.4725492
-0.11554012 -0.13809931 0.47567633
-0.19355612 -0.12148367 0.47844797
-0.1849073 -0.12219387 0.47666961
-0.17757094 -0.12124625 0.47862345
-0.14113562 -0.12911713 0.47873241
-0.13909064 -0.12895775 0.47387391
-0.20214067 -0.1128573 0.47787359
-0.19484356 -0.11472312 0.47409481
-0.1853831 -0.1148632 0.47306868
-0.17567928 -0.11433443 0.47484785
-0.16573688 -0.1135245 0.47613505
-0.15889134 -0.1133601 0.47558406
-0.20325352 -0.10491253 0.47762203
-0.19497424 -0.10507852 0.47444153
-0.1851671 -0.10484977 0.47386625
-0.17530848 -0.10482906 0.47449654
-0.16618356 -0.10523735 0.47292227
-0.20103863 -0.099845804 0.47978354
-0.19422175 -0.098536223 0.47846252
-0.18503036 -0.097715259 0.47733644
-0.17460145 -0.096731275 0.47774777
-0.16631602 -0.094893828 0.4746207
-0.17088172 -0.084352419 0.47902617
-0.16646749 -0.086282454 0.47462621
-0.17387867 -0.077195063 0.47587338
-0.16833214 -0.079512648 0.47028115
-0.17132767 -0.16198742 0.4877542
-0.16879371 -0.16357575 0.48406261
-0.1455317 -0.16391777 0.48455769
-0.1391433 -0.16142477 0.48893717
-0.17183076 -0.15461731 0.48637706
-0.16869998 -0.15356572 0.48158586
-0.14221723 -0.15637028 0.48230103
-0.13536122 -0.15436395 0.48540646
-0.1274574 -0.15183443 0.48752236
-0.17172508 -0.1460218 0.48766565
-0.16592753 -0.1444055 0.48318875
-0.15620029 -0.14225367 0.48135337
-0.14756724 -0.14090157 0.48055863
-0.13462064 -0.14914635 0.48106432
-0.1244125 -0.14654602 0.48332995
-0.11662588 -0.14461669 0.48587644
-0.18532583 -0.1310339 0.48795432
-0.17896691 -0.13099891 0.48879582
-0.16345876 -0.13858667 0.48773393
-0.15414959 -0.13640469 0.48570064
-0.14673898 -0.13475263 0.48256013
-0.20185204 -0.12225775 0.48715171
-0.19522583 -0.12515604 0.48494047
-0.18535867 -0.12705937 0.48275581
-0.17510107 -0.12519127 0.4844586
-0.16515745 -0.12335479 0.48668686
-0.1570562 -0.12318266 0.48793727
-0.14667715 -0.12942299 0.48506939
-0.21124962 -0.11180035 0.48842674
-0.20596863 -0.11521139 0.48436049
-0.19949348 -0.11911872 0.4800649
-0.16395204 -0.11865121 0.48149395
-0.15849777 -0.11774647 0.48191798
-0.21154502 -0.10555585 0.48717967
-0.20810029 -0.10405333 0.48160028
-0.21043953 -0.099595435 0.4882139
-0.20415282 -0.097121246 0.48474351
-0.19490467 -0.09473215 0.48453814
-0.1848492 -0.093170159 0.48402452
-0.17594871 -0.092268579 0.48156753
-0.18077739 -0.088665441 0.48872024
-0.17528749 -0.085831642 0.48428878
-0.17749774 -0.077900819 0.48468146
-0.14209174 -0.17168732 0.49578622
-0.13813454 -0.17105456 0.49930668
-0.17444733 -0.16516502 0.49604401
-0.14193973 -0.16759232 0.49205852
-0.13532276 -0.16487601 0.4957611
-0.12754978 -0.16118847 0.49798989
-0.17648765 -0.1549654 0.49598023
-0.13210407 -0.15862346 0.49193233
-0.12414677 -0.15587428 0.49457783
-0.11559514 -0.15265021 0.49663511
-0.10865847 -0.15176214 0.49827254
-0.18267211 -0.14022629 0.49927503
-0.17559963 -0.1443332 0.49521324
-0.11341784 -0.14834623 0.4926236
-0.10836186 -0.14879979 0.49568796
-0.20178875 -0.13117975 0.49940744
-0.19448109 -0.13317502 0.49600905
-0.1850661 -0.13569233 0.49435419
-0.17418648 -0.13588357 0.49498358
-0.16518126 -0.13466452 0.49386984
-0.15653148 -0.13281994 0.49212292
-0.21206033 -0.12146854 0.49871755
-0.20572977 -0.12479597 0.49529171
-0.19767185 -0.12871766 0.49229717
-0.17148505 -0.1288718 0.49115744
-0.16391964 -0.12787537 0.4917284
-0.1555097 -0.12794065 0.49214473
-0.21433005 -0.1146216 0.49509779
-0.20836978 -0.1191326 0.49179277
-0.21506637 -0.10447568 0.49469975
-0.21264009 -0.097229324 0.49598756
-0.20545098 -0.093558401 0.49479252
-0.19500922 -0.091809481 0.49503043
-0.18768251 -0.090780094 0.49424309
-0.18293886 -0.086852804 0.49527371
-0.17882527 -0.082797363 0.49186379
-0.18098551 -0.077823974 0.49474183
-0.11389846 -0.064039789 0.37976235
-0.11316354 -0.091592915 0.38903382
-0.10459574 -0.092762224 0.38796631
-0.095187895 -0.092957526 0.38766408
-0.084786467 -0.093539402 0.38648304
-0.07483016 -0.093734927 0.38778239
-0.069421567 -0.094699204 0.38974249
-0.13054365 -0.08019489 0.38975558
-0.12344415 -0.082801908 0.38794109
-0.11463486 -0.084969275 0.38575163
-0.10505576 -0.085073829 0.38465881
-0.094964057 -0.084732704 0.38430655
-0.084968872 -0.084698878 0.38580468
-0.076648325 -0.086899921 0.38791078
-0.13297275 -0.074065275 0.3881436
-0.12500373 -0.074980862 0.38487023
-0.11486621 -0.07491491 0.38172385
-0.1050278 -0.075128838 0.38234285
-0.094900735 -0.07486093 0.38544247
-0.087286815 -0.077437602 0.38848981
-0.13275105 -0.06444364 0.38757968
-0.12533256 -0.064978607 0.38427404
-0.11512869 -0.065074146 0.38103071
-0.1051247 -0.064982295 0.38355935
-0.096115842 -0.065604299 0.38747898
-0.1325369 -0.056198139 0.38868234
-0.12494726 -0.054947425 0.3863984
-0.11472286 -0.054808363 0.38362953
-0.10528392 -0.055180348 0.38616061
-0.098502494 -0.05789607 0.38904184
-0.12348206 -0.048494786 0.38919979
-0.11491705 -0.047264352 0.38824171
-0.10751045 -0.048563927 0.38893637
-0.11192753 -0.1017281 0.39865187
-0.10480604 -0.10427354 0.39757723
-0.095569864 -0.1030935 0.39605168
-0.085536994 -0.10188305 0.39562491
-0.07523486 -0.10119915 0.3962397
-0.06685473 -0.10079397 0.39873913
-0.13042866 -0.090384334 0.39875033
-0.12397692 -0.093236342 0.39695516
-0.11527694 -0.095623277 0.39403194
-0.1052051 -0.097757958 0.39251089
-0.095029026 -0.098051377 0.39177763
-0.085649937 -0.098681279 0.39110562
-0.074901521 -0.098168164 0.39128664
-0.06738285 -0.094543241 0.39186147
-0.13393341 -0.083876573 0.39605397
-0.12595628 -0.087085001 0.39265481
-0.11964274 -0.089590043 0.39074975
-0.080836311 -0.080391303 0.39075091
-0.074446186 -0.083733581 0.39371526
-0.068826579 -0.088144809 0.39254579
-0.14130019 -0.070907168 0.39476135
-0.13647294 -0.076322235 0.39215815
-0.090029553 -0.070691004 0.39075673
-0.083862998 -0.074011587 0.39309561
-0.078158982 -0.076072231 0.39706245
-0.14273767 -0.064951576 0.39589271
-0.13791788 -0.06498915 0.39181671
-0.091656268 -0.06344723 0.39157304
-0.086063966 -0.065370783 0.39586022
-0.141931 -0.055287484 0.39788052
-0.13663048 -0.053829107 0.39245266
-0.1008847 -0.051608983 0.39126754
-0.094646767 -0.05461029 0.39452273
-0.087910905 -0.057535905 0.3981919
-0.1411633 -0.047930557 0.39889815
-0.13428625 -0.045136031 0.39546624
-0.12559514 -0.044047274 0.39303759
-0.11463442 -0.042527158 0.39226368
-0.10486601 -0.044520717 0.39459634
-0.097357139 -0.047214847 0.3973445
-0.13128765 -0.039417215 0.39977658
-0.12404722 -0.037636507 0.39788213
-0.11561464 -0.037959069 0.39689839
-0.10800134 -0.038959663 0.39914969
-0.10057772 -0.11187468 0.40873653
-0.097784236 -0.11067033 0.40823692
-0.13118686 -0.10025185 0.40924534
-0.12387509 -0.102529 0.40732247
-0.11589073 -0.10461231 0.40350839
-0.10500147 -0.10845541 0.4011673
-0.095275626 -0.10794453 0.40373805
-0.08490926 -0.10642578 0.40537426
-0.078262806 -0.105398 0.40573779
-0.14108188 -0.091429934 0.4092508
-0.13436547 -0.094046399 0.4058114
-0.12633128 -0.097636767 0.40329629
-0.11955971 -0.099214762 0.4007448
-0.14261518 -0.085896432 0.4062801
-0.13706656 -0.087307297 0.40216923
-0.072791167 -0.0815036 0.40387458
-0.074397631 -0.074665777 0.40485924
-0.15186617 -0.061140947 0.40876734
-0.14769091 -0.061484829 0.40287787
-0.081648089 -0.06385801 0.40263447
-0.077353731 -0.066262484 0.40587106
-0.15094478 -0.05745538 0.40916914
-0.14691286 -0.054841109 0.40441525
-0.090841554 -0.050920449 0.40156692
-0.084714338 -0.054593801 0.40303594
-0.079332046 -0.058547974 0.40496197
-0.15009686 -0.048439529 0.40977371
-0.1450081 -0.044577163 0.40556693
-0.13877168 -0.041443679 0.40117627
-0.10136617 -0.040957455 0.40127304
-0.094006263 -0.044510726 0.40320531
-0.087559789 -0.048200954 0.406068
-0.14049873 -0.038172897 0.40602809
-0.13476807 -0.035457574 0.40514261
-0.12528531 -0.032809086 0.40243983
-0.11487776 -0.033266969 0.40426999
-0.10485479 -0.035216898 0.40431041
-0.097757414 -0.038371742 0.40538517
-0.13344651 -0.02621017 0.40637824
-0.1246851 -0.025045387 0.40545693
-0.11732047 -0.028045062 0.40833673
-0.10834055 -0.029027639 0.40692264
-0.1271306 -0.01989699 0.40653625
-0.12686203 -0.11086822 0.41698948
-0.10066433 -0.11433914 0.41573527
-0.095589586 -0.11374725 0.4169018
-0.084614038 -0.11150991 0.41718978
-0.078052774 -0.11104164 0.41973487
-0.14189045 -0.10176194 0.41874552
-0.13486451 -0.10374586 0.41551054
-0.12591176 -0.10692775 0.41344512
-0.084895864 -0.10919537 0.41187933
-0.077163123 -0.10869987 0.41498601
-0.14381801 -0.094848402 0.41378152
-0.13774413 -0.097936317 0.41254717
-0.14700842 -0.087993175 0.4114804
-0.15560474 -0.060696606 0.41301793
-0.16105205 -0.054431055 0.41877162
-0.15550101 -0.054678053 0.41407713
-0.1545438 -0.046552218 0.41427508
-0.1493215 -0.041834593 0.41117701
-0.14083712 -0.032402508 0.41244778
-0.13892585 -0.03245312 0.41078088
-0.14088541 -0.029579518 0.41311589
-0.12040979 -0.022251319 0.41078442
-0.10145686 -0.12056975 0.42823213
-0.0940402 -0.12439763 0.42836413
-0.085013345 -0.1249757 0.42665589
-0.076472208 -0.12384199 0.42674899
-0.10280547 -0.11787344 0.42456698
-0.093886644 -0.11746252 0.42400229
-0.084440246 -0.11685794 0.42429012
-0.07619822 -0.11613456 0.42743415
-0.14268103 -0.10425381 0.4210777
-0.10261587 -0.12410014 0.43365347
-0.098482519 -0.12602618 0.43072906
-0.10866888 -0.12500603 0.44398054
-0.11298259 -0.13038372 0.45672816
-0.11115343 -0.12836838 0.45172903
-0.1614894 -0.15497585 0.46972004
-0.15758163 -0.15577613 0.46968704
-0.12036293 -0.13395661 0.46922702
-0.11684842 -0.13383812 0.46560177
-0.19183385 -0.11156646 0.46957847
-0.18453442 -0.11336873 0.46899354
-0.1751972 -0.11337093 0.46838364
-0.1688567 -0.11260014 0.46817106
-0.19285338 -0.10517494 0.46923739
-0.18482672 -0.1052448 0.46709308
-0.17553312 -0.10503114 0.46476507
-0.16937366 -0.10923142 0.46574426
-0.19108537 -0.099125147 0.46975145
-0.18405803 -0.097893849 0.4682329
-0.17824398 -0.098274909 0.46575069
-0.16365097 -0.16322957 0.47551596
-0.15474616 -0.16439049 0.47391975
-0.14734027 -0.16287895 0.47639465
-0.17069288 -0.15890306 0.47971883
-0.16547795 -0.15424663 0.47282884
-0.15297137 -0.15442944 0.47103766
-0.14566241 -0.15464939 0.47531021
-0.13935128 -0.15012103 0.47972047
-0.17051682 -0.14934359 0.47922373
-0.16384937 -0.1459458 0.47576407
-0.15520179 -0.14498439 0.47426507
-0.14523888 -0.14509499 0.47551805
-0.1352426 -0.14405105 0.47764623
-0.12585923 -0.1428728 0.47768587
-0.11854374 -0.14178401 0.4783895
-0.15344124 -0.13698629 0.47863173
-0.14497514 -0.13496016 0.47643366
-0.13481505 -0.13487776 0.47420928
-0.12547545 -0.1362015 0.47354212
-0.11779888 -0.13854 0.47272444
-0.19161409 -0.12145934 0.47874001
-0.18435152 -0.1226018 0.4766832
-0.17546228 -0.12224089 0.47633821
-0.16835456 -0.12107573 0.47723806
-0.14502902 -0.12951587 0.47773159
-0.13914365 -0.1299465 0.47473082
-0.20298876 -0.11187484 0.47774598
-0.19487974 -0.11489983 0.4740237
-0.18473275 -0.11791567 0.47155371
-0.17480455 -0.11831044 0.47146231
-0.16835105 -0.11733689 0.47140667
-0.20410749 -0.10474663 0.47532669
-0.19821887 -0.10393375 0.47094971
-0.20294072 -0.097782843 0.47669074
-0.19493096 -0.095904976 0.47379348
-0.18533488 -0.093340471 0.47377715
-0.17946057 -0.093643017 0.47308651
-0.1840184 -0.089402601 0.47850579
-0.16379775 -0.17312694 0.48734725
-0.15534666 -0.17329685 0.48602581
-0.14867188 -0.17137517 0.48811039
-0.17390932 -0.16496657 0.48696601
-0.16424072 -0.16876736 0.48211321
-0.15078518 -0.1698093 0.48221141
-0.14411105 -0.16525325 0.48529938
-0.13822997 -0.16141827 0.48842886
-0.17427132 -0.15224248 0.48383373
-0.14112985 -0.15710442 0.48151702
-0.13566874 -0.15471138 0.48425624
-0.12717567 -0.15203588 0.48741069
-0.17305118 -0.14584151 0.48620576
-0.16670574 -0.14195274 0.48292717
-0.13257869 -0.14912978 0.48114893
-0.1244338 -0.14761277 0.48342031
-0.11872087 -0.14499095 0.48352122
-0.19089353 -0.13022231 0.48973545
-0.17617527 -0.13021953 0.48973408
-0.16433254 -0.13553612 0.48600301
-0.15613511 -0.13335446 0.48157436
-0.20497353 -0.12126602 0.48974136
-0.19343683 -0.12615731 0.48602346
-0.18571591 -0.12782967 0.48495844
-0.17480958 -0.12713414 0.48495302
-0.16630822 -0.12606977 0.48523533
-0.15586816 -0.12939684 0.48258978
-0.14969639 -0.12907805 0.48073226
-0.21221738 -0.11378821 0.48874584
-0.20554845 -0.1134885 0.48207876
-0.21323276 -0.10598534 0.4861944
-0.20907451 -0.10538487 0.48149991
-0.2117893 -0.098590523 0.48775363
-0.2052307 -0.094576381 0.48562464
-0.19578522 -0.091665842 0.48442242
-0.18821831 -0.090232484 0.48125577
-0.18734923 -0.089159578 0.4822562
-0.17482938 -0.17493601 0.4961023
-0.16564216 -0.17748885 0.49362549
-0.15388067 -0.1779106 0.49420756
-0.14571887 -0.17401828 0.49686262
-0.17821437 -0.16675112 0.49271554
-0.14184931 -0.1681138 0.493267
-0.13467494 -0.16492271 0.49613744
-0.13116959 -0.15869436 0.49231535
-0.1253369 -0.15574238 0.49538293
-0.11900895 -0.15202712 0.49688426
-0.17681384 -0.14315331 0.49389413
-0.11817947 -0.14842892 0.49071938
-0.19451955 -0.13367258 0.49645621
-0.18409406 -0.13530675 0.49557596
-0.17475554 -0.13522343 0.49431679
-0.16889535 -0.13426475 0.49115995
-0.20566803 -0.12563904 0.49518362
-0.19765542 -0.12863873 0.49223688
-0.21645033 -0.11628631 0.49480382
-0.2092398 -0.11894949 0.49074295
-0.21837854 -0.10448742 0.49347851
-0.21471323 -0.09515658 0.49610183
-0.20549409 -0.091372058 0.49469009
-0.19939074 -0.090918392 0.49175644
-0.19648097 -0.088543296 0.49467409
-0.091065183 -0.091540687 0.3784841
-0.087881595 -0.09170609 0.37906703
-0.1131807 -0.080857739 0.37952465
-0.09128385 -0.088657945 0.37961286
-0.087944604 -0.088868372 0.37954333
-0.11425211 -0.074512012 0.37925038
-0.10772221 -0.073954046 0.37952602
-0.12237755 -0.062099356 0.37930489
-0.11520259 -0.065302685 0.37948528
-0.10710546 -0.066228367 0.37930849
-0.12305251 -0.056048844 0.37889346
-0.11749077 -0.058722302 0.3799293
-0.084013313 -0.10115244 0.3883343
-0.11390874 -0.092563823 0.38671947
-0.1055152 -0.091525905 0.38480362
-0.084296726 -0.095152423 0.38270086
-0.077034213 -0.093310773 0.38558066
-0.11218438 -0.085419372 0.38221875
-0.10492212 -0.084489875 0.38213363
-0.094767325 -0.084333271 0.38165882
-0.084394976 -0.084464602 0.38367659
-0.077134602 -0.086516149 0.3869251
-0.12424313 -0.071580663 0.38164839
-0.10340305 -0.075656228 0.38099244
-0.094567552 -0.074694656 0.38418046
-0.086930342 -0.076938197 0.38740486
-0.13001767 -0.069047071 0.38314652
-0.12397973 -0.067046128 0.38105622
-0.11399799 -0.061538208 0.3802987
-0.10307031 -0.063885063 0.38157728
-0.095573217 -0.065369338 0.38582009
-0.089701325 -0.069171697 0.38978654
-0.12258834 -0.052490648 0.38164273
-0.11490061 -0.054874215 0.38208476
-0.10491985 -0.055212386 0.38567656
-0.097992852 -0.057845689 0.38871455
-0.12444319 -0.044741418 0.38673267
-0.11492953 -0.045604844 0.38665795
-0.10721066 -0.047352582 0.38813463
-0.12700815 -0.038464319 0.38914898
-0.082314596 -0.10147655 0.39504912
-0.080115438 -0.099854022 0.397946
-0.074259549 -0.093935654 0.39483824
-0.080120265 -0.080129713 0.39066619
-0.074502476 -0.084663257 0.393994
-0.083511248 -0.074064411 0.39325306
-0.078799628 -0.076582015 0.39692289
-0.09128169 -0.063568257 0.39097863
-0.085334703 -0.065274544 0.39528263
-0.079752654 -0.068445057 0.39920744
-0.10039195 -0.051338732 0.39032775
-0.094041564 -0.054205384 0.39291775
-0.087590404 -0.056579601 0.39674795
-0.11299936 -0.040991876 0.39093184
-0.10419002 -0.044077378 0.39440417
-0.096958973 -0.047967236 0.3966023
-0.13077766 -0.030978119 0.39777631
-0.12518215 -0.035466604 0.3946681
-0.11488859 -0.037385046 0.39516112
-0.10758963 -0.038420234 0.39733967
-0.13161841 -0.029087357 0.3989813
-0.091799028 -0.10940908 0.40679502
-0.084548227 -0.10399465 0.40494135
-0.079074383 -0.1004701 0.40585178
-0.074121185 -0.094769359 0.40511632
-0.075355969 -0.08443705 0.40484592
-0.077985734 -0.074771479 0.40510699
-0.081233546 -0.062155332 0.40321323
-0.078690045 -0.066185549 0.40573615
-0.090807937 -0.050554693 0.40139133
-0.085502982 -0.05516924 0.40523487
-0.1011348 -0.041022539 0.40214017
-0.095049649 -0.045055155 0.40465829
-0.089415751 -0.049119662 0.40737906
-0.12476254 -0.031727403 0.40431243
-0.11489376 -0.033908859 0.40442383
-0.10552926 -0.037450295 0.40502265
-0.099681318 -0.039855354 0.40827617
-0.13155559 -0.025207041 0.40586722
-0.12879442 -0.028063234 0.40773413
-0.13076493 -0.019621387 0.40958497
-0.10045111 -0.11763319 0.4188672
-0.09537328 -0.11294211 0.41621539
-0.090822496 -0.10887253 0.4114176
-0.084452555 -0.10593747 0.41524523
-0.078804769 -0.10177997 0.41575506
-0.075932994 -0.094994232 0.41497061
-0.075694829 -0.084818229 0.41416931
-0.076221503 -0.075050406 0.41397241
-0.080641381 -0.061929662 0.41641358
-0.077848136 -0.065761492 0.41325793
-0.090381503 -0.050208889 0.41757968
-0.084800214 -0.055096194 0.41422158
-0.079988718 -0.059296295 0.41119698
-0.10069396 -0.040498346 0.41826141
-0.095224991 -0.044586718 0.41478676
-0.08927156 -0.049104661 0.41196042
-0.12144895 -0.030505445 0.41316906
-0.11501096 -0.032489371 0.41532248
-0.10511052 -0.03673628 0.41523629
-0.12587111 -0.025331456 0.41454756
-0.11975372 -0.02919811 0.41949943
-0.12695859 -0.018543307 0.41412717
-0.092200994 -0.13032897 0.42948171
-0.08682704 -0.13017237 0.42775637
-0.10080308 -0.12459457 0.42973363
-0.094658405 -0.12402944 0.42816204
-0.084934063 -0.12451772 0.42701069
-0.076786235 -0.12310566 0.42742848
-0.10057367 -0.11836145 0.42099184
-0.0943949 -0.11630349 0.42403883
-0.084672466 -0.11472224 0.42627299
-0.076967396 -0.11632079 0.42826939
-0.081915237 -0.10692319 0.4255909
-0.079367913 -0.10321329 0.424934
-0.08044935 -0.096135527 0.42778274
-0.078575678 -0.094938777 0.42306334
-0.080703571 -0.083811477 0.42857507
-0.078318588 -0.084304705 0.42318511
-0.080659099 -0.074049011 0.42839494
-0.078562997 -0.074827068 0.42378265
-0.083231471 -0.064421184 0.42491543
-0.079199076 -0.068509817 0.42152226
-0.092013739 -0.053058967 0.42593041
-0.087831885 -0.057175413 0.42419198
-0.10132657 -0.041495577 0.42623875
-0.097189978 -0.046361893 0.42485717
-0.11314919 -0.031046212 0.42148522
-0.10472214 -0.035404254 0.42409182
-0.12326022 -0.024356306 0.42198834
-0.1164599 -0.029273959 0.42181334
-0.10860445 -0.029693957 0.42372197
-0.12483053 -0.019360811 0.42090055
-0.10295075 -0.13126676 0.43563271
-0.096852213 -0.13076012 0.43149135
-0.10685486 -0.12913841 0.43620783
-0.09689942 -0.12871771 0.43031487
-0.07582593 -0.11371338 0.43246663
-0.08185792 -0.10365405 0.43507451
-0.079362646 -0.10851038 0.4334079
-0.083379805 -0.095230103 0.43419906
-0.083587438 -0.08480221 0.43492395
-0.082675174 -0.074603207 0.43510953
-0.090772815 -0.061446168 0.43717402
-0.086722933 -0.065707423 0.43434048
-0.094841234 -0.054821603 0.43513069
-0.10065795 -0.043582235 0.43513787
-0.099319227 -0.046964202 0.43361351
-0.10093739 -0.03861855 0.43234789
-0.099486895 -0.039108694 0.43541136
-0.11503138 -0.13630046 0.44663033
-0.10536197 -0.13539022 0.44025174
-0.082272686 -0.11280191 0.44514608
-0.079441637 -0.11589572 0.44168076
-0.08462771 -0.10497291 0.44444481
-0.088328935 -0.094930083 0.44553757
-0.08637169 -0.084522881 0.4447346
-0.085042678 -0.074434191 0.44441199
-0.092481926 -0.063902095 0.4459374
-0.088689305 -0.068304524 0.44418937
-0.10120369 -0.051822897 0.44512331
-0.097575426 -0.056351461 0.44444203
-0.10276718 -0.046353128 0.44433668
-0.08672107 -0.11346107 0.45555514
-0.087805122 -0.10428137 0.45495668
-0.089291207 -0.09502802 0.4550437
-0.08788754 -0.085355505 0.45444247
-0.091001868 -0.071005605 0.45718414
-0.088065937 -0.075760178 0.45515311
-0.094975986 -0.064743459 0.45510021
-0.08975172 -0.069704309 0.45182294
-0.10377762 -0.054788411 0.45546427
-0.099121861 -0.059193235 0.45353779
-0.10719898 -0.048394505 0.4535169
-0.093056418 -0.12349107 0.46665069
-0.089674354 -0.12070546 0.46049502
-0.09075366 -0.11700446 0.46817738
-0.088964172 -0.11333702 0.4650006
-0.087065138 -0.10455775 0.46511841
-0.08788193 -0.095094718 0.46528152
-0.0904129 -0.082190469 0.46842891
-0.089354485 -0.085616693 0.46474874
-0.09229999 -0.074641302 0.46595851
-0.089409202 -0.078791358 0.46250904
-0.10188146 -0.062058888 0.46638423
-0.097235292 -0.066471621 0.46501189
-0.11186708 -0.052191373 0.46554229
-0.10659375 -0.056868322 0.46477938
-0.1154018 -0.049546227 0.46587753
-0.094615422 -0.1238903 0.47556382
-0.090722933 -0.11909463 0.47478905
-0.087331042 -0.1140443 0.47465909
-0.083914004 -0.10484698 0.47445932
-0.084370427 -0.094834559 0.47448117
-0.090509295 -0.081683464 0.47161725
-0.088316694 -0.085748859 0.47523209
-0.093023583 -0.074713737 0.4754321
-0.089871965 -0.07898283 0.47856411
-0.10313427 -0.062750526 0.47531131
-0.097229198 -0.068107098 0.47567379
-0.12184885 -0.050950926 0.47687867
-0.11401048 -0.054960907 0.47481677
-0.10797406 -0.058923669 0.47514609
-0.10386119 -0.13361825 0.48610532
-0.099495977 -0.13065024 0.4877097
-0.094367139 -0.12523304 0.48522493
-0.086770423 -0.11508593 0.48487347
-0.083450399 -0.10541332 0.48520854
-0.084075928 -0.09504129 0.48518634
-0.087897152 -0.08481732 0.48496982
-0.092382677 -0.074880145 0.48549607
-0.089675114 -0.079195201 0.48167783
-0.10405662 -0.06294959 0.48515248
-0.097284675 -0.067669086 0.48432365
-0.13330169 -0.051553495 0.48756295
-0.12376928 -0.053172063 0.48578858
-0.11491612 -0.056308877 0.48493156
-0.10867646 -0.058754016 0.48396501
-0.11072445 -0.13958083 0.49189016
-0.10385422 -0.13652098 0.4946267
-0.097666278 -0.13190182 0.49647516
-0.092992209 -0.1262594 0.49464783
-0.088817604 -0.12155931 0.49743277
-0.086175166 -0.11484856 0.49567553
-0.083545513 -0.10528292 0.4957543
-0.084826648 -0.095214888 0.49583492
-0.090140268 -0.08020819 0.49384627
-0.087295987 -0.085187398 0.49551728
-0.093308337 -0.075022876 0.49526712
-0.089530811 -0.079712957 0.49726284
-0.11015248 -0.060029782 0.49719
-0.10521049 -0.063531838 0.49512485
-0.09812054 -0.06873998 0.49471423
-0.14274615 -0.051774506 0.49898735
-0.1345773 -0.051719207 0.49587491
-0.12475492 -0.053803191 0.49552977
-0.11491955 -0.056713905 0.49529371
