# .PCD v0.7 - Point Cloud Data file format
VERSION 0.7
FIELDS x y z
SIZE 4 4 4
TYPE F F F
COUNT 1 1 1
WIDTH 1
HEIGHT 710
VIEWPOINT 0 0 0 1 0 0 0
POINTS 710
DATA ascii
-0.18141423 -0.15111986 0.4597165
-0.17636982 -0.15138158 0.4596324
-0.18274283 -0.14821871 0.45965108
-0.1764136 -0.14763001 0.45944175
-0.15526007 -0.16032179 0.46920392
-0.14959487 -0.16100869 0.46937394
-0.20163265 -0.15288207 0.46885395
-0.19558862 -0.15166543 0.46484792
-0.18488911 -0.15226285 0.46095163
-0.17437625 -0.15335032 0.46072707
-0.16502811 -0.15455356 0.46575129
-0.15518312 -0.15495697 0.46881464
-0.14794159 -0.15387318 0.46902686
-0.19311278 -0.14728665 0.46521404
-0.18515921 -0.14455724 0.46365744
-0.17493516 -0.14350642 0.46150082
-0.16553819 -0.14461327 0.46313876
-0.15518028 -0.14481618 0.46658382
-0.146777 -0.14455497 0.46907404
-0.13659944 -0.14068891 0.46973729
-0.18148771 -0.13914737 0.46808183
-0.17452332 -0.13581863 0.46599108
-0.16516769 -0.13501121 0.46555302
-0.15513223 -0.13533878 0.46786025
-0.14492208 -0.13490871 0.46905282
-0.13445552 -0.1332542 0.46949637
-0.12685612 -0.13107838 0.46905595
-0.17064157 -0.1267018 0.46861321
-0.16495264 -0.1247438 0.46629724
-0.15490678 -0.12510814 0.46739745
-0.14480431 -0.12489441 0.46823695
-0.13472605 -0.12476449 0.46772462
-0.12514862 -0.12411739 0.46717668
-0.11712518 -0.12288041 0.46864396
-0.16178817 -0.11894205 0.46820566
-0.15397419 -0.11629769 0.46818888
-0.14538622 -0.11548551 0.46831802
-0.13445853 -0.11764363 0.46825099
-0.12492369 -0.11513476 0.46849969
-0.11545984 -0.11509938 0.46826679
-0.10696093 -0.11311408 0.46856272
-0.099240884 -0.1109736 0.46958035
-0.15017816 -0.10991722 0.46948132
-0.14764547 -0.10851488 0.46941519
-0.13437892 -0.10274979 0.46911329
-0.12527564 -0.10487492 0.46828383
-0.11522233 -0.10530525 0.46833408
-0.1051224 -0.10571271 0.46848175
-0.096553482 -0.10438398 0.46919248
-0.13422149 -0.097102448 0.4691869
-0.12497533 -0.095834464 0.46924642
-0.11664172 -0.095186234 0.46964088
-0.10762565 -0.099282011 0.46976322
-0.12290727 -0.088164404 0.46982661
-0.11729965 -0.08946377 0.46970463
-0.14473537 -0.16216864 0.47545868
-0.20352294 -0.15383315 0.47566617
-0.19995594 -0.15048011 0.47240698
-0.15283702 -0.15758927 0.47021857
-0.14348198 -0.15547906 0.47264341
-0.13728291 -0.15364891 0.47708607
-0.20000297 -0.14998811 0.47757071
-0.19410573 -0.14600539 0.47441342
-0.18717322 -0.14160568 0.47441804
-0.14230619 -0.14577161 0.4705725
-0.13549103 -0.14475146 0.47274154
-0.12846592 -0.14205462 0.47701606
-0.18234454 -0.13707384 0.47465655
-0.17716476 -0.13209002 0.47403353
-0.14159593 -0.13516426 0.47001544
-0.13547648 -0.13653947 0.47041905
-0.125026 -0.13516921 0.4734962
-0.11690638 -0.13200267 0.47722992
-0.1729701 -0.12668104 0.47436666
-0.16774388 -0.12090017 0.47512811
-0.12155193 -0.12882276 0.47047204
-0.11406125 -0.12561904 0.47313702
-0.10702575 -0.12277634 0.47593269
-0.1626606 -0.11831691 0.47343504
-0.15598284 -0.11318146 0.47370586
-0.1414941 -0.11250439 0.4708899
-0.13545823 -0.11289883 0.47142291
-0.1286709 -0.11202568 0.47045064
-0.11169724 -0.11992346 0.47033787
-0.1033795 -0.11616821 0.4724651
-0.095611423 -0.11392902 0.47552702
-0.088551097 -0.11144359 0.4793489
-0.15166107 -0.10764727 0.47566712
-0.14532225 -0.10453941 0.47241524
-0.13637683 -0.10690072 0.47123396
-0.11145981 -0.10078533 0.47039682
-0.10477799 -0.10141389 0.47019541
-0.093869403 -0.10391556 0.47100037
-0.086454123 -0.10437833 0.47491813
-0.14284885 -0.095872648 0.4750908
-0.13637033 -0.093266495 0.47127399
-0.12636209 -0.092128143 0.47041306
-0.1131845 -0.095251925 0.47035283
-0.10459251 -0.094979055 0.47310078
-0.095253073 -0.09497755 0.4727847
-0.08681076 -0.094882794 0.47343537
-0.14016922 -0.089237221 0.47776839
-0.1345548 -0.085302122 0.47363359
-0.12507229 -0.084267728 0.47099432
-0.11487015 -0.084994681 0.47146794
-0.10539275 -0.085275374 0.475629
-0.095008925 -0.084942758 0.4742969
-0.088210851 -0.086237192 0.47525868
-0.13208707 -0.07789737 0.47592145
-0.12516463 -0.074902967 0.47390085
-0.11535248 -0.075071283 0.47275186
-0.10513899 -0.075131573 0.4735772
-0.096437246 -0.07728646 0.47667083
-0.12241682 -0.069177411 0.47782671
-0.11503451 -0.068951823 0.47548637
-0.10787815 -0.06914717 0.47761127
-0.20892361 -0.16035098 0.48670936
-0.14091781 -0.16639523 0.48398677
-0.13755846 -0.16352326 0.48628807
-0.20462783 -0.15477346 0.48538727
-0.13337414 -0.15624733 0.48423555
-0.12844895 -0.15263754 0.48743427
-0.20008114 -0.14977631 0.48530793
-0.19482736 -0.14630681 0.48509657
-0.18795675 -0.14134964 0.48539132
-0.13006556 -0.14823253 0.48139381
-0.12397799 -0.14495355 0.48531124
-0.11777332 -0.14142717 0.48783389
-0.18369605 -0.13632506 0.48551881
-0.17880426 -0.1314356 0.48457116
-0.12135588 -0.13921002 0.48153678
-0.11542773 -0.13632794 0.48400423
-0.10793637 -0.13244943 0.48744833
-0.17445184 -0.12670311 0.48379526
-0.16823517 -0.12163747 0.48507166
-0.11015183 -0.1284776 0.48008597
-0.10520979 -0.1266681 0.48270679
-0.096333437 -0.12238137 0.48601744
-0.16182545 -0.11791831 0.48703462
-0.15718541 -0.11294397 0.48558953
-0.095579043 -0.11899587 0.48191673
-0.086936571 -0.11313008 0.48333678
-0.15230539 -0.10599297 0.48485404
-0.14899389 -0.10106057 0.4837698
-0.081330411 -0.10516577 0.48236716
-0.078681923 -0.10410875 0.48638082
-0.14538768 -0.095003732 0.48447189
-0.081163242 -0.095914192 0.48287469
-0.078830883 -0.096435241 0.48780045
-0.1414606 -0.087960742 0.4854902
-0.13820118 -0.083096728 0.48402813
-0.086152114 -0.083187066 0.48446694
-0.13237374 -0.07593184 0.48399007
-0.12903036 -0.070891201 0.48368165
-0.10153387 -0.07075654 0.4832575
-0.094632179 -0.074948519 0.48460528
-0.088584855 -0.078503482 0.48719919
-0.12463951 -0.068109401 0.48495588
-0.11511845 -0.06690117 0.48474967
-0.1060345 -0.06820368 0.4853473
-0.13512573 -0.17198178 0.49677372
-0.21149506 -0.16244358 0.49757141
-0.20909387 -0.16025352 0.49292362
-0.13333529 -0.16593632 0.49383336
-0.12776349 -0.16284625 0.49760145
-0.20537721 -0.15396395 0.49571025
-0.12499379 -0.15566704 0.49546042
-0.1189125 -0.15114859 0.49923202
-0.20092292 -0.14896242 0.49735436
-0.19519474 -0.14594051 0.49592441
-0.18934412 -0.14164755 0.49460417
-0.12092541 -0.14928065 0.49460864
-0.11427914 -0.14484812 0.49567157
-0.10859321 -0.14224397 0.49847221
-0.18450285 -0.13523355 0.49566549
-0.17906161 -0.13057604 0.49520969
-0.11077438 -0.13961174 0.49338979
-0.10515624 -0.13578871 0.49468762
-0.096169807 -0.13055807 0.49726164
-0.17393029 -0.12575936 0.49528939
-0.16693045 -0.12169047 0.49518043
-0.10009325 -0.12890273 0.49103546
-0.094344161 -0.12650183 0.4935084
-0.086184636 -0.12306403 0.49706888
-0.16180381 -0.11733035 0.49691525
-0.15827362 -0.11280907 0.49534616
-0.081928931 -0.11701979 0.49369687
-0.076591313 -0.11382635 0.4959754
-0.15368025 -0.10509168 0.49543223
-0.14950678 -0.10036005 0.49007797
-0.073781714 -0.1050678 0.49615765
-0.15078086 -0.099113002 0.49812233
-0.14713566 -0.094423018 0.4951379
-0.075979553 -0.096100472 0.49535131
-0.14286014 -0.086170673 0.49600863
-0.13809358 -0.081446923 0.49467933
-0.083076902 -0.082239598 0.49454749
-0.078944013 -0.086520299 0.49835801
-0.13283136 -0.074422635 0.49567685
-0.12919427 -0.070018291 0.49093807
-0.09441261 -0.072521716 0.49426854
-0.086993523 -0.076909043 0.49629256
-0.13092892 -0.069506869 0.49856427
-0.12536779 -0.066915341 0.49530536
-0.11479145 -0.065686487 0.49506021
-0.10434566 -0.067283593 0.49509382
-0.098941378 -0.069333382 0.49603459
-0.1130307 -0.14907078 0.50146115
-0.1015406 -0.13861157 0.50147921
-0.09138453 -0.1298494 0.50024152
-0.1593509 -0.11136688 0.50096858
-0.072380915 -0.11609756 0.50291198
-0.070798039 -0.10479085 0.50208992
-0.14894526 -0.092881463 0.50174624
-0.072573639 -0.095154069 0.50470102
-0.13870347 -0.080477349 0.50278747
-0.080630392 -0.080915049 0.50170052
-0.092165783 -0.071195692 0.50362957
-0.18160826 -0.18109155 0.45985815
-0.17459939 -0.18148905 0.45985612
-0.16770506 -0.18160053 0.45985422
-0.19258434 -0.1734077 0.45898828
-0.18452896 -0.17507362 0.45763484
-0.17572932 -0.17545366 0.45935819
-0.1671911 -0.17934988 0.45985475
-0.20084088 -0.16067444 0.45986915
-0.19421375 -0.16449705 0.45895329
-0.18479145 -0.16547376 0.45669672
-0.17502934 -0.16478425 0.45800394
-0.16795701 -0.16287361 0.4598597
-0.20084164 -0.15887222 0.45986968
-0.19410031 -0.15541187 0.45836064
-0.18502417 -0.15559521 0.45890579
-0.17640884 -0.15788397 0.45919675
-0.16840112 -0.15945904 0.45986077
-0.15377361 -0.15366244 0.45947757
-0.14713129 -0.15332127 0.45933509
-0.19183432 -0.14985716 0.45986986
-0.18522613 -0.14985433 0.45986801
-0.17156263 -0.1417384 0.45986673
-0.16415894 -0.14398013 0.45906401
-0.15498132 -0.14502402 0.45770746
-0.14559035 -0.14491943 0.45860881
-0.1391729 -0.14062314 0.45985833
-0.17132844 -0.13749017 0.45986789
-0.16468252 -0.13560234 0.45796278
-0.15498516 -0.13453911 0.45439556
-0.14490025 -0.13479838 0.45622396
-0.13607654 -0.13373923 0.45890042
-0.16111788 -0.12844719 0.45961773
-0.15431681 -0.12740123 0.457598
-0.14487785 -0.12738054 0.45821151
-0.13602528 -0.1269629 0.45947254
-0.13878192 -0.1183954 0.45986462
-0.11457235 -0.082109757 0.4595958
-0.10956179 -0.08073613 0.45986757
-0.11488305 -0.078427613 0.45942965
-0.20028672 -0.18135302 0.46986309
-0.19405563 -0.18248039 0.46569443
-0.18575191 -0.18241899 0.46169221
-0.17658386 -0.18268713 0.46085632
-0.16305892 -0.18244201 0.46313053
-0.15892307 -0.18179648 0.46735182
-0.20302618 -0.17347933 0.46751317
-0.19645911 -0.17589891 0.46317613
-0.17177129 -0.17365427 0.46085763
-0.16514777 -0.17475593 0.4612526
-0.15604432 -0.17448053 0.46412244
-0.14995943 -0.17028295 0.46985275
-0.20347147 -0.16495757 0.4640353
-0.1985871 -0.16731624 0.46161667
-0.17117131 -0.16883762 0.46085885
-0.16412927 -0.16605496 0.46117848
-0.15492694 -0.16546935 0.46159792
-0.14783108 -0.1635423 0.46503925
-0.20243201 -0.15684931 0.46429926
-0.19706704 -0.15138923 0.46087083
-0.18081163 -0.15138225 0.46086645
-0.17420579 -0.15333134 0.46119747
-0.16492453 -0.15526737 0.46128133
-0.15641256 -0.1580729 0.46085796
-0.14378612 -0.15568535 0.46278387
-0.13836059 -0.15233675 0.46685475
-0.20030093 -0.14820753 0.46987262
-0.19343318 -0.14643447 0.46430361
-0.18498489 -0.14481737 0.46230882
-0.17575969 -0.14529835 0.46088532
-0.16780214 -0.14757088 0.46092287
-0.14112829 -0.14780678 0.46102348
-0.13577066 -0.1446936 0.46361887
-0.12905149 -0.14112777 0.46818879
-0.18262608 -0.13790332 0.46657676
-0.17512141 -0.13494784 0.46368447
-0.16790791 -0.13196932 0.4617852
-0.13225418 -0.1366761 0.46129239
-0.12583022 -0.13406783 0.46469662
-0.11841863 -0.13070716 0.46885562
-0.17127728 -0.12902907 0.46937031
-0.16435273 -0.12603439 0.46504006
-0.15538748 -0.12267181 0.46200672
-0.14565094 -0.12226675 0.46111536
-0.13374341 -0.12304199 0.46093169
-0.12497149 -0.12508716 0.463099
-0.11564057 -0.12449211 0.46597913
-0.10890164 -0.12140868 0.46742719
-0.1606871 -0.11970031 0.46887013
-0.15367866 -0.11672652 0.46586916
-0.14520332 -0.11477228 0.4627544
-0.13482362 -0.11466152 0.46133435
-0.12493101 -0.11515158 0.46294752
-0.11475454 -0.11512606 0.46381566
-0.10573156 -0.1141216 0.46616733
-0.097654924 -0.11137453 0.46795559
-0.14391248 -0.10568726 0.46632802
-0.13532856 -0.10539983 0.46346116
-0.12471986 -0.10589358 0.46294135
-0.11507986 -0.10470621 0.46379274
-0.10512747 -0.10454179 0.46420327
-0.095394701 -0.10469049 0.4659158
-0.087971561 -0.10263944 0.4686555
-0.14154324 -0.096838251 0.46910235
-0.13561396 -0.094711013 0.467067
-0.12422165 -0.093572497 0.46384653
-0.11498381 -0.094940186 0.46415278
-0.10483087 -0.094994083 0.46527067
-0.094733216 -0.0953376 0.46635169
-0.086927041 -0.094759583 0.46859086
-0.1329121 -0.086155578 0.46765351
-0.12492343 -0.084845401 0.46311614
-0.11518133 -0.086793169 0.46166214
-0.10467867 -0.085028969 0.46414155
-0.094785184 -0.085029744 0.46700129
-0.087250225 -0.085389115 0.46862951
-0.13067357 -0.078965932 0.46954045
-0.12500997 -0.076060317 0.46653095
-0.1125097 -0.07404121 0.46416652
-0.10508469 -0.075320035 0.46601975
-0.095976837 -0.076926507 0.46880788
-0.089231625 -0.079413697 0.46986252
-0.12215471 -0.069056645 0.46947432
-0.11562946 -0.069604129 0.46987242
-0.21122363 -0.18063858 0.47936624
-0.20454003 -0.18452908 0.47619668
-0.19928795 -0.18520626 0.47186172
-0.16173267 -0.18754581 0.47565094
-0.15747163 -0.18284832 0.47485113
-0.21142896 -0.17480449 0.47653461
-0.20780347 -0.17609137 0.47331107
-0.15254472 -0.17638883 0.47520882
-0.14948736 -0.17132957 0.47618565
-0.21021837 -0.16892473 0.47286934
-0.14543843 -0.16504367 0.47475296
-0.20551676 -0.15083613 0.4782066
-0.14071572 -0.15846971 0.47345361
-0.13682033 -0.15406299 0.47538719
-0.2023024 -0.14807039 0.47603986
-0.19535385 -0.14364997 0.47513574
-0.18882816 -0.14020331 0.47187182
-0.13246271 -0.14776766 0.47445446
-0.12781954 -0.1426447 0.4751547
-0.19100267 -0.13915536 0.47887272
-0.18511945 -0.13588668 0.47557798
-0.17650297 -0.13156715 0.47187099
-0.12338838 -0.13742952 0.47321865
-0.11678936 -0.13252757 0.47566718
-0.17335433 -0.12779053 0.4762046
-0.16679408 -0.1231056 0.47363999
-0.11249926 -0.12831593 0.47360474
-0.10702938 -0.12345947 0.47508997
-0.16181934 -0.11841517 0.4752042
-0.15575777 -0.11358096 0.47329912
-0.10214311 -0.11815337 0.47405487
-0.095525272 -0.11376166 0.47485435
-0.08957871 -0.11084585 0.47835356
-0.15144113 -0.10660587 0.47487143
-0.14785257 -0.10340581 0.47201422
-0.090624839 -0.10893026 0.47185442
-0.085764609 -0.10487685 0.47509426
-0.14553884 -0.094270155 0.47440282
-0.082021236 -0.095049813 0.4744015
-0.14290528 -0.087384015 0.4766115
-0.13731584 -0.084030189 0.47326544
-0.083143048 -0.085200414 0.47434404
-0.13331105 -0.075247116 0.47556517
-0.12868834 -0.072793953 0.47162503
-0.10111204 -0.070976235 0.47086811
-0.094776466 -0.073456235 0.47409645
-0.088141195 -0.078494243 0.47513521
-0.13151471 -0.069228105 0.47854343
-0.12495667 -0.067936555 0.4750118
-0.11412606 -0.068438329 0.47482473
-0.10504678 -0.068454295 0.47383961
-0.098519079 -0.069019966 0.47720125
-0.21234585 -0.19140865 0.48819676
-0.20836082 -0.19074692 0.48436257
-0.16204895 -0.19171111 0.48684984
-0.22032472 -0.18587783 0.48986715
-0.21548606 -0.18516253 0.48603269
-0.20902789 -0.18627991 0.4815307
-0.15632364 -0.18522024 0.48651674
-0.21690038 -0.17716259 0.48399374
-0.15148591 -0.17789075 0.48560098
-0.14858513 -0.17296858 0.4864766
-0.14377336 -0.16635808 0.48600605
-0.13903463 -0.16096693 0.48751912
-0.21180412 -0.15308298 0.48937428
-0.20962162 -0.15483314 0.4828732
-0.13457881 -0.15471989 0.48730767
-0.20397227 -0.14657263 0.48658839
-0.19735433 -0.14226109 0.48541901
-0.13077386 -0.14849152 0.48285383
-0.12677856 -0.1448947 0.48510379
-0.19257063 -0.13804531 0.48599845
-0.18478341 -0.13323584 0.48556021
-0.17942558 -0.13107233 0.48137194
-0.12016518 -0.13925406 0.48585364
-0.11496353 -0.13509545 0.48552009
-0.10919143 -0.13090006 0.48785308
-0.18067381 -0.12890752 0.48987287
-0.17510079 -0.12574534 0.48565
-0.16950434 -0.12137209 0.48537204
-0.10467311 -0.12526056 0.4857766
-0.098364092 -0.12069841 0.48785311
-0.16544464 -0.11791265 0.48564973
-0.15854922 -0.11191802 0.4828718
-0.094720989 -0.11690276 0.4844532
-0.087622896 -0.11252393 0.48835257
-0.16020447 -0.109701 0.48987287
-0.1564365 -0.10438401 0.48698458
-0.082992032 -0.10519632 0.48520637
-0.079577789 -0.10070747 0.48985377
-0.15330295 -0.094881229 0.48504201
-0.14973295 -0.091349393 0.48087534
-0.080542773 -0.098850131 0.4828546
-0.079016604 -0.094422378 0.48559225
-0.15111983 -0.088762403 0.48737645
-0.14588636 -0.085328102 0.48479268
-0.13997725 -0.080204517 0.4818759
-0.082032233 -0.085102893 0.48419225
-0.079408221 -0.089365721 0.48619032
-0.14182016 -0.077512458 0.48759145
-0.13794191 -0.074027292 0.48387715
-0.09318538 -0.073061526 0.48593682
-0.088409387 -0.077986829 0.48386267
-0.13390081 -0.068227902 0.4853777
-0.12421846 -0.065726593 0.48522586
-0.11490532 -0.066312142 0.48563504
-0.10499299 -0.065918796 0.48468879
-0.098070994 -0.068822972 0.48543933
-0.21715625 -0.19267718 0.49211437
-0.16169856 -0.19502971 0.4949488
-0.21949032 -0.18946289 0.49086595
-0.15329519 -0.18501085 0.49565709
-0.15036058 -0.17815034 0.4933506
-0.1467983 -0.17413239 0.49611399
-0.21870388 -0.16256171 0.49487346
-0.14189744 -0.1675719 0.49485135
-0.13785842 -0.16334529 0.49706575
-0.13334189 -0.15618861 0.49527335
-0.12891358 -0.15172593 0.4976024
-0.20564404 -0.14366643 0.49620864
-0.19915837 -0.14064988 0.4928745
-0.12462495 -0.14641574 0.49505281
-0.11650515 -0.142066 0.49718517
-0.19444312 -0.13537925 0.49674135
-0.18733013 -0.13212878 0.49427375
-0.11299093 -0.13742529 0.49441475
-0.1076493 -0.13331568 0.49685198
-0.18407172 -0.12732564 0.49711427
-0.17587666 -0.12258942 0.4951365
-0.10302813 -0.12698518 0.49477559
-0.096545763 -0.12271795 0.49601874
-0.16664019 -0.11387981 0.4951534
-0.091903254 -0.11859552 0.49428055
-0.086175248 -0.11407939 0.49626344
-0.16466609 -0.10510615 0.49738762
-0.15867646 -0.10364045 0.49147421
-0.081371054 -0.10703058 0.49474132
-0.078851216 -0.10303616 0.49696404
-0.16259508 -0.095964037 0.49735364
-0.15802735 -0.093162335 0.49271038
-0.077418111 -0.09502881 0.49530488
-0.1605477 -0.089558743 0.49887875
-0.15434164 -0.086474098 0.49621129
-0.14822604 -0.082504719 0.49398857
-0.082959704 -0.083963208 0.49613219
-0.079094723 -0.088450663 0.49600002
-0.1502759 -0.078553773 0.49937916
-0.14607073 -0.075290367 0.49605286
-0.09273883 -0.073094539 0.49586529
-0.088465832 -0.0780233 0.49557701
-0.14272957 -0.068351641 0.4977372
-0.1356177 -0.065776423 0.49599659
-0.12510288 -0.063780315 0.49493915
-0.11561649 -0.064012066 0.49452406
-0.10491328 -0.064522088 0.49531543
-0.097728118 -0.068360455 0.49658224
-0.15427279 -0.17119768 0.45954823
-0.16103563 -0.16163966 0.4592641
-0.1547028 -0.16463216 0.45915729
-0.1482788 -0.16347101 0.45954758
-0.16393538 -0.15663229 0.45965001
-0.1548917 -0.15886545 0.45985389
-0.17135178 -0.14319085 0.45899725
-0.16575277 -0.14334396 0.45911759
-0.15973674 -0.14038579 0.45937318
-0.17247596 -0.13741966 0.45829886
-0.16469401 -0.13526528 0.45828113
-0.15526052 -0.13425297 0.45865589
-0.14938508 -0.13270923 0.45973217
-0.16193363 -0.12760602 0.45866445
-0.15473498 -0.12514967 0.45813861
-0.1459423 -0.12400787 0.45854658
-0.15258931 -0.11814749 0.45870113
-0.14456533 -0.11588035 0.45900464
-0.13608009 -0.11340109 0.45942748
-0.12675343 -0.11135451 0.4597148
-0.14069398 -0.10781522 0.45979434
-0.13467911 -0.10627922 0.45926777
-0.12543872 -0.10553242 0.45944634
-0.11775598 -0.1066707 0.45982635
-0.12606686 -0.098975509 0.45993075
-0.15742955 -0.18195413 0.46844715
-0.15291314 -0.17444694 0.46413383
-0.15228613 -0.16349405 0.46032119
-0.14647032 -0.16440037 0.46392089
-0.1630165 -0.15352301 0.46051696
-0.15506116 -0.15475965 0.46175215
-0.1445215 -0.15526733 0.46243876
-0.13902755 -0.15183361 0.46552432
-0.16387542 -0.1472785 0.46047553
-0.15495117 -0.14503881 0.46188849
-0.14506325 -0.14490107 0.4636133
-0.13625991 -0.14427039 0.46519694
-0.18705927 -0.13993645 0.46938518
-0.17487499 -0.13419171 0.46272594
-0.15219653 -0.1383017 0.46044201
-0.1449938 -0.13495132 0.46233749
-0.1346049 -0.13528071 0.46406573
-0.12787488 -0.13331218 0.46692702
-0.17192671 -0.12797792 0.46681499
-0.16541243 -0.12390862 0.46383467
-0.15810953 -0.12002385 0.46017897
-0.14258181 -0.12698886 0.46109074
-0.13500229 -0.12514307 0.46231103
-0.12503958 -0.12497442 0.46410987
-0.11654073 -0.12268712 0.46660161
-0.16275695 -0.11815247 0.46663648
-0.15479133 -0.11436763 0.46364456
-0.14707451 -0.11120673 0.46128088
-0.13409671 -0.11762485 0.46090192
-0.12456448 -0.1155052 0.46108887
-0.11511656 -0.11515606 0.4621433
-0.10538491 -0.11418032 0.46423164
-0.09710636 -0.11149938 0.46650198
-0.15179095 -0.1065523 0.46793634
-0.14480165 -0.10530454 0.4629266
-0.13627669 -0.10191262 0.46046311
-0.12348113 -0.10106831 0.46037054
-0.11477676 -0.10470236 0.46088552
-0.10516973 -0.10463651 0.46264192
-0.095198996 -0.1047922 0.46352524
-0.086846776 -0.10260241 0.46550635
-0.14344104 -0.096057586 0.46619818
-0.13477701 -0.095133372 0.46231106
-0.12443551 -0.094744563 0.46088567
-0.11477502 -0.095158607 0.46316019
-0.10502362 -0.095213771 0.46651426
-0.09508606 -0.095127992 0.46715215
-0.08493048 -0.095144711 0.46739289
-0.14135979 -0.089168906 0.46907878
-0.13435121 -0.085200004 0.46683347
-0.12468492 -0.085005842 0.46300703
-0.11500778 -0.084852584 0.46366507
-0.10540105 -0.085173264 0.46654347
-0.094856046 -0.0851629 0.46680221
-0.086334735 -0.08523602 0.46778092
-0.1328537 -0.07752233 0.46873409
-0.12437178 -0.075396642 0.46740541
-0.11584036 -0.075673282 0.46795094
-0.10506434 -0.076009631 0.46811023
-0.095144197 -0.075846031 0.46775955
-0.088811852 -0.078638181 0.46831471
-0.12084727 -0.069965176 0.46884626
-0.11736379 -0.069163993 0.46948177
-0.16546904 -0.19107054 0.47864527
-0.16139892 -0.18660307 0.47634953
-0.1584544 -0.18279804 0.4755834
-0.15317166 -0.17531388 0.47479701
-0.1497539 -0.17025858 0.474042
-0.14688864 -0.16496567 0.47546342
-0.14188869 -0.15579647 0.47498253
-0.13874038 -0.15092041 0.47557417
-0.1333849 -0.14427578 0.47490239
-0.12576038 -0.1346617 0.47459286
-0.18037452 -0.12687905 0.47775656
-0.17515343 -0.1239879 0.47448859
-0.16876982 -0.12005109 0.47113803
-0.12076995 -0.12890698 0.47248131
-0.11486088 -0.12545578 0.47440484
-0.10770835 -0.12112308 0.47568926
-0.17166013 -0.11854342 0.47640133
-0.16530019 -0.11414086 0.47468531
-0.15904237 -0.11147735 0.47122338
-0.10383007 -0.11810318 0.47384948
-0.096976727 -0.11316894 0.47341031
-0.16177957 -0.10694522 0.47748354
-0.15590602 -0.10281382 0.47417021
-0.091422819 -0.10890589 0.47268906
-0.085860431 -0.10440574 0.47532806
-0.15339732 -0.093904793 0.47704837
-0.14835861 -0.094133988 0.47190246
-0.081069514 -0.094796881 0.4742333
-0.15152183 -0.086388454 0.47874999
-0.14444454 -0.08503931 0.47330046
-0.13907498 -0.081388056 0.47031713
-0.083346844 -0.084847964 0.47400758
-0.14293458 -0.077147558 0.47677326
-0.13526148 -0.073545851 0.47433403
-0.12798047 -0.070996284 0.4715519
-0.11242746 -0.071834765 0.47041634
-0.1064472 -0.071501262 0.47029415
-0.093248568 -0.072627611 0.47389048
-0.088546976 -0.077622622 0.47365093
-0.13200681 -0.069487795 0.47906092
-0.12402988 -0.067883328 0.47481495
-0.11430904 -0.066260628 0.47289526
-0.10499062 -0.066366136 0.47347841
-0.097714111 -0.068503961 0.47448564
-0.17201047 -0.19839135 0.48879549
-0.16734026 -0.19322172 0.48540032
-0.16240653 -0.18748698 0.48528278
-0.15768062 -0.18212922 0.48575571
-0.15315919 -0.17499231 0.48509902
-0.15043575 -0.16961627 0.48587751
-0.14821625 -0.16509607 0.48525324
-0.14381549 -0.15675931 0.48593262
-0.1389706 -0.15125915 0.48522854
-0.13316855 -0.14512575 0.48516306
-0.12933034 -0.14066224 0.4843792
-0.12499736 -0.1361842 0.48483762
-0.11814628 -0.13114969 0.48639846
-0.18460536 -0.1234139 0.48581728
-0.1138061 -0.12740897 0.48430696
-0.10774327 -0.12306998 0.48599553
-0.18157433 -0.11722296 0.48865262
-0.1753417 -0.11500131 0.48456958
-0.16985594 -0.1120545 0.48214835
-0.10271709 -0.11901052 0.48419952
-0.095880456 -0.11446708 0.48825854
-0.17263804 -0.1081749 0.48806322
-0.1662665 -0.10423996 0.48423293
-0.090313539 -0.10973249 0.4852621
-0.086164519 -0.10464761 0.48547974
-0.1584788 -0.094049498 0.48191428
-0.082897201 -0.094667695 0.48481706
-0.16021655 -0.088182271 0.48581979
-0.15573747 -0.083521903 0.48383009
-0.090640292 -0.081056505 0.48925203
-0.085368901 -0.08511623 0.48492137
-0.15357369 -0.077621013 0.48644054
-0.14551765 -0.074143462 0.48336136
-0.13861528 -0.070614353 0.48250291
-0.094114654 -0.074737847 0.48523375
-0.089324519 -0.079326421 0.48218718
-0.13611591 -0.067709334 0.48732916
-0.12422134 -0.0641734 0.48433003
-0.11558203 -0.062872097 0.48516083
-0.10452919 -0.065251134 0.48496985
-0.098613814 -0.068962179 0.48294902
-0.17067392 -0.1983918 0.49304163
-0.16182856 -0.18881232 0.49114746
-0.15216367 -0.17659217 0.49265644
-0.14494596 -0.16533165 0.4954794
-0.14270912 -0.1573652 0.49419358
-0.13231957 -0.14754105 0.49339715
-0.12600929 -0.14387333 0.49662119
-0.19751997 -0.13197024 0.49237347
-0.12275439 -0.1374297 0.49414241
-0.11833477 -0.13469517 0.49736276
-0.19583252 -0.12447035 0.49523371
-0.18846065 -0.12113827 0.49157536
-0.11339257 -0.12865752 0.49489844
-0.10570867 -0.12261474 0.49528325
-0.18661211 -0.11455189 0.4950273
-0.17850536 -0.1112595 0.49133384
-0.094412133 -0.11452889 0.49537423
-0.088945106 -0.11049226 0.49810815
-0.17691037 -0.10397694 0.49505195
-0.08687599 -0.10494643 0.49546355
-0.17456718 -0.093917154 0.49717966
-0.16745599 -0.090958931 0.49176869
-0.083693221 -0.094733596 0.49581724
-0.17222647 -0.084111519 0.49853858
-0.16670851 -0.082644761 0.49463317
-0.091631487 -0.081168056 0.49565649
-0.084851697 -0.086037196 0.49613276
-0.16357657 -0.077378027 0.49606696
-0.15525255 -0.073250413 0.49460837
-0.14847063 -0.070809804 0.49270284
-0.10056902 -0.070153058 0.49413443
-0.096578754 -0.074928857 0.49523866
-0.15065055 -0.069393843 0.49930692
-0.14443859 -0.067576021 0.4967066
-0.13482638 -0.063564219 0.49629432
-0.12503466 -0.061978195 0.49465394
-0.11508355 -0.06194663 0.49562392
-0.10495315 -0.066332817 0.49547228
-0.12546358 -0.060402405 0.50113124
-0.11291321 -0.060790986 0.50151557
