# .PCD v0.7 - Point Cloud Data file format
VERSION 0.7
FIELDS x y z
SIZE 4 4 4
TYPE F F F
COUNT 1 1 1
WIDTH 1385
HEIGHT 1
VIEWPOINT 0 0 0 1 0 0 0
POINTS 1385
DATA ascii
0.11491871 -0.054968666 0.51331621
0.12489878 -0.054991957 0.51237255
0.13487987 -0.054972764 0.51269782
0.14507356 -0.0548952 0.51382762
0.15503824 -0.055054739 0.5144698
0.16503525 -0.055088069 0.51476216
0.17513269 -0.055041585 0.51408941
0.18502726 -0.054895505 0.51421416
0.19497149 -0.054958008 0.51356024
0.20497638 -0.054940153 0.51380974
0.21497747 -0.055052534 0.51405066
0.22431037 -0.053526573 0.51392043
0.23231384 -0.051438663 0.51490736
-0.18280409 -0.043591097 0.51053864
-0.17581886 -0.043424737 0.51063019
-0.1416743 -0.040172182 0.51018149
-0.1385676 -0.040399916 0.51029307
-0.07341183 -0.042338867 0.51033795
-0.064694069 -0.042781822 0.51053202
-0.054339167 -0.043907497 0.51041985
-0.044931766 -0.045113403 0.5111509
-0.035257384 -0.045078106 0.51142234
-0.025127044 -0.0449057 0.51110166
-0.014934127 -0.045054208 0.51076722
-0.0061015598 -0.045830548 0.51038492
0.0029215254 -0.046665952 0.5101558
0.016582316 -0.045046043 0.51061553
0.025040049 -0.044923749 0.51183444
0.035110619 -0.045065641 0.51178998
0.044927951 -0.04512544 0.51234072
0.055019286 -0.04496083 0.51239461
0.065042615 -0.044953872 0.51203412
0.075141326 -0.045012414 0.51183254
0.084952138 -0.045059029 0.51312488
0.094910607 -0.045009825 0.51306152
0.10509205 -0.044865184 0.51282406
0.11505605 -0.045014549 0.51300842
0.12503193 -0.044986915 0.51332247
0.13519652 -0.045102376 0.51322955
0.14515683 -0.044908315 0.513722
0.15488875 -0.044965696 0.51470929
0.16510808 -0.044958197 0.51437843
0.17507412 -0.045004692 0.51398414
0.18505949 -0.045028865 0.51503897
0.19512515 -0.045042012 0.51477778
0.20498654 -0.044863988 0.51468086
0.21495585 -0.044984072 0.51530832
0.22505267 -0.045010984 0.51570743
0.23489884 -0.045012362 0.51552713
0.24428225 -0.043631479 0.51555312
0.25233927 -0.041189775 0.51525646
-0.28544945 -0.031264625 0.51014256
-0.27566192 -0.03110891 0.51025969
-0.26992553 -0.030151948 0.51059699
-0.19187929 -0.030520417 0.51008356
-0.1841417 -0.034999989 0.51078272
-0.17549518 -0.034890939 0.51129889
-0.16702229 -0.034158323 0.51034403
-0.14309856 -0.035081528 0.51032048
-0.13547491 -0.0347347 0.51045984
-0.12971692 -0.034821898 0.51017404
-0.073578782 -0.037760988 0.51020652
-0.064913385 -0.037019547 0.5104267
-0.054773029 -0.03515688 0.51033711
-0.04475018 -0.034648411 0.51039785
-0.035481751 -0.035260003 0.51034665
-0.024584107 -0.036678895 0.51050806
-0.014888679 -0.034962155 0.51085454
-0.0049112667 -0.03510553 0.51125902
0.0050162114 -0.034694843 0.51162267
0.015484813 -0.034653541 0.51093119
0.024914147 -0.034965083 0.51188171
0.03493727 -0.035064574 0.51336575
0.045099594 -0.035114158 0.51350164
0.055089708 -0.034970764 0.51282704
0.065019101 -0.035003185 0.51288247
0.074990943 -0.035012949 0.51311946
0.085107528 -0.035047103 0.51274127
0.094992734 -0.035050761 0.51307166
0.10501292 -0.034926333 0.51298875
0.11492652 -0.034835756 0.51354986
0.12496097 -0.035038281 0.51426107
0.13479733 -0.03509862 0.51430982
0.1449509 -0.034956317 0.51398546
0.15515757 -0.035075795 0.51517147
0.16495265 -0.035026561 0.51567662
0.17496333 -0.035064399 0.51434302
0.18503657 -0.034952879 0.5150274
0.19501014 -0.0349098 0.51634264
0.2050045 -0.035024654 0.51533455
0.21500173 -0.035125334 0.51633394
0.22496296 -0.034859285 0.51615185
0.23495023 -0.035000425 0.51617146
0.24501465 -0.03514351 0.51669639
0.25488478 -0.034819022 0.51615006
0.2640188 -0.032919385 0.51558948
0.27123827 -0.030618722 0.51608819
-0.3035821 -0.025534783 0.51040792
-0.29502556 -0.024388608 0.51062638
-0.28477484 -0.024708586 0.51056558
-0.27519238 -0.025249084 0.51053435
-0.26699862 -0.024812767 0.51039487
-0.19116864 -0.025087995 0.51026428
-0.18510799 -0.025003258 0.5104202
-0.17625833 -0.027260048 0.51038253
-0.16915993 -0.029142193 0.51002979
-0.14543821 -0.020494059 0.51003277
-0.13439947 -0.02629739 0.51017165
-0.12956066 -0.029894643 0.51001537
-0.060123429 -0.020827226 0.51011837
-0.054193068 -0.024857879 0.51054108
-0.045183081 -0.025087178 0.51131749
-0.035243951 -0.02469594 0.51147592
-0.026953388 -0.023402188 0.51048839
-0.013446052 -0.025041439 0.51058513
-0.0050342949 -0.025190584 0.5112676
0.0048162667 -0.025119765 0.51272345
0.014935775 -0.025014887 0.51247674
0.025175465 -0.025137037 0.51195896
0.034969021 -0.025098188 0.5133307
0.044874623 -0.024909668 0.51376826
0.055110622 -0.025043387 0.5132522
0.065051816 -0.025182042 0.51360422
0.07497941 -0.025025036 0.51395744
0.084982261 -0.024989184 0.51347989
0.095082857 -0.02521386 0.51323199
0.10504756 -0.024897553 0.51352656
0.11505769 -0.025020404 0.5142827
0.12498417 -0.024972223 0.51486397
0.13502146 -0.024988133 0.51556355
0.145089 -0.025096415 0.51512218
0.15498745 -0.024870321 0.51457494
0.16501871 -0.025021294 0.51574421
0.17499195 -0.024912998 0.515598
0.18499309 -0.02501539 0.51506269
0.19498166 -0.02484346 0.51652408
0.20498177 -0.025033116 0.51547581
0.2150356 -0.024922665 0.51573747
0.2250859 -0.025035204 0.51682287
0.23501123 -0.025091002 0.51678705
0.24502736 -0.024964532 0.51722163
0.25505784 -0.025067404 0.51666802
0.26506588 -0.025000669 0.51604193
0.27495539 -0.024797777 0.51655859
0.28427312 -0.022831427 0.5173465
0.29143518 -0.020635607 0.51769847
-0.29343998 -0.016984461 0.51042169
-0.28423792 -0.015765611 0.51036501
-0.27661276 -0.018689897 0.51024407
-0.26958531 -0.019422263 0.5102514
-0.24317026 -0.014028007 0.51012981
-0.23683572 -0.01259827 0.51017261
-0.19020058 -0.017916601 0.51015961
-0.18496324 -0.015198198 0.51055521
-0.17648362 -0.013469615 0.51079595
-0.16716824 -0.010681526 0.51023257
-0.15022375 -0.012656741 0.51002192
-0.14365877 -0.014265273 0.51033121
-0.13506478 -0.01412223 0.51059085
-0.12752017 -0.013065496 0.5104301
-0.10274915 -0.010725906 0.51018357
-0.092721857 -0.012578423 0.51014864
-0.085149355 -0.011895283 0.51037532
-0.075244591 -0.011378609 0.51020485
-0.064820528 -0.014355998 0.51020122
-0.053515274 -0.016443921 0.51058847
-0.044457432 -0.015344574 0.5111298
-0.035012178 -0.015058518 0.51218337
-0.024932873 -0.014976547 0.51214975
-0.014756698 -0.014731695 0.51159662
-0.0048179058 -0.015215358 0.51126832
0.0049784142 -0.01506495 0.5120014
0.014819559 -0.014806557 0.51255983
0.025222024 -0.015214599 0.51193374
0.035049792 -0.015042363 0.51318306
0.045075998 -0.014919182 0.51380652
0.055044692 -0.014970269 0.51332003
0.065081127 -0.01499343 0.51305205
0.075097613 -0.014975737 0.51312655
0.085042953 -0.014970087 0.51386535
0.095075108 -0.015146188 0.51425028
0.10508233 -0.01493611 0.51476353
0.11506054 -0.01512623 0.51462126
0.12517038 -0.014968017 0.51452625
0.13505985 -0.01478174 0.51553726
0.14489245 -0.015139342 0.51614785
0.15509397 -0.015055774 0.51564932
0.16515598 -0.014933333 0.51640207
0.17511003 -0.014939357 0.51702762
0.18503067 -0.014973378 0.51671576
0.19500418 -0.014872173 0.51702207
0.2051651 -0.015041931 0.51636761
0.21503237 -0.014987333 0.51711428
0.2249867 -0.015071264 0.51747888
0.23497793 -0.015104221 0.51711625
0.24512751 -0.014945026 0.51743919
0.2550942 -0.01506124 0.51739538
0.26500475 -0.014964361 0.51642907
0.27496415 -0.014958582 0.51629001
0.28499842 -0.01506557 0.51775068
0.29482684 -0.01450415 0.5184167
0.30415589 -0.012137428 0.51777434
0.31137198 -0.010507111 0.51813459
-0.28256571 -0.0031122891 0.51025349
-0.27626944 -0.0021552145 0.51017803
-0.26534948 -0.0010729432 0.51032448
-0.25406635 -0.0023371438 0.5102362
-0.24394554 -0.0031187271 0.51046097
-0.23522417 -0.0037596037 0.51057726
-0.22590938 -0.0025056652 0.51061124
-0.21517241 -0.0017034399 0.51028091
-0.20413354 -0.0012734393 0.51032281
-0.19374353 -0.002000272 0.51045477
-0.18426941 -0.0048153843 0.5108161
-0.17505541 -0.0051926244 0.51124197
-0.16482808 -0.0047927327 0.51088428
-0.15543275 -0.0044739372 0.51067656
-0.14490429 -0.0047948267 0.510351
-0.13500465 -0.0052498626 0.51077735
-0.12532191 -0.0046565309 0.5110476
-0.11499287 -0.0037335688 0.51085699
-0.10465983 -0.0044489349 0.510939
-0.094880767 -0.00452002 0.51087683
-0.085007094 -0.0047878376 0.51142383
-0.0752386 -0.0049672113 0.51161492
-0.065637916 -0.004298077 0.51099038
-0.056740887 -0.0017524483 0.51028353
-0.042741302 -0.0048277788 0.51036114
-0.035037033 -0.0052296096 0.51203614
-0.025156142 -0.0050055911 0.51359779
-0.015171144 -0.0051394589 0.51358235
-0.0049432879 -0.0050648539 0.51360351
0.00494568 -0.0050909654 0.51461416
0.014796576 -0.0048952256 0.51507038
0.024760317 -0.0052788034 0.51420563
0.034877587 -0.0050970349 0.51392353
0.045029048 -0.0050352355 0.51424688
0.055046257 -0.0048678559 0.5152424
0.064949557 -0.0050934562 0.515122
0.074995406 -0.0049250619 0.51420254
0.085008554 -0.0052257795 0.51434767
0.094979674 -0.0049595283 0.515248
0.10491231 -0.0048896666 0.51583189
0.11502744 -0.0050409362 0.51606369
0.12508662 -0.0051269131 0.51582175
0.13497646 -0.0047951145 0.51540005
0.14501053 -0.0049908096 0.51613402
0.15500368 -0.0051627308 0.51661772
0.16500749 -0.0050236313 0.51711577
0.17500323 -0.0049704523 0.51816863
0.18497626 -0.0049478943 0.51749539
0.19505699 -0.0050667888 0.51742178
0.20496856 -0.0049489513 0.51685709
0.21492592 -0.0049469545 0.51740819
0.22494769 -0.0049278159 0.51781368
0.2350488 -0.0050228885 0.51688033
0.2449958 -0.0050378726 0.51735932
0.25503564 -0.0048789782 0.51806706
0.26497334 -0.0051104641 0.51732343
0.2750254 -0.0049994001 0.51782227
0.28505692 -0.0050203446 0.51866889
0.29498512 -0.0050973431 0.51833409
0.30484527 -0.0050023193 0.51752651
0.31106403 -0.0072471495 0.5182566
-0.32503965 0.007983245 0.51059937
-0.28156316 0.0027013444 0.5103212
-0.27475905 0.003155875 0.51044583
-0.26588386 0.0031045461 0.51029509
-0.25456083 0.0033493766 0.51038742
-0.24525623 0.0050353794 0.51079172
-0.23507336 0.0049695317 0.51160598
-0.22510816 0.0052264375 0.51211762
-0.21476071 0.0050497209 0.51158822
-0.2045828 0.0051302598 0.51140821
-0.19499111 0.004694114 0.51212513
-0.18514961 0.0046828059 0.51275897
-0.17497136 0.004831119 0.51284307
-0.16506691 0.00475054 0.51281244
-0.15509942 0.0051669423 0.51219475
-0.14471194 0.0053110998 0.51086563
-0.13507454 0.0048216721 0.51062858
-0.12521783 0.00499711 0.51158828
-0.11503054 0.004819042 0.51176643
-0.10514626 0.0048009595 0.51220065
-0.094978437 0.0050334628 0.5124166
-0.084990807 0.0050942367 0.51311338
-0.075000361 0.0048513021 0.51341027
-0.064891554 0.0050372467 0.51275593
-0.054923367 0.0052197436 0.51186723
-0.044681296 0.0052592815 0.51134044
-0.034848254 0.004950223 0.51221079
-0.024996579 0.0050511123 0.51393747
-0.015066434 0.004921278 0.5138126
-0.0048140343 0.0048596081 0.51357442
0.0048673758 0.0048805773 0.51463765
0.014877493 0.0050947894 0.51474023
0.025069527 0.0048353914 0.51486123
0.034828518 0.0049902811 0.51456416
0.045028053 0.0050423141 0.51360691
0.054873012 0.0052385442 0.51495337
0.064906247 0.0050665699 0.51630729
0.075018875 0.0049683084 0.51614159
0.08479517 0.0050156354 0.51571083
0.094889328 0.0050002178 0.51484811
0.10489927 0.005070745 0.51545441
0.1150969 0.0048621255 0.51633972
0.1250221 0.004960278 0.51626629
0.13514274 0.00518903 0.51515591
0.14514425 0.0050585708 0.51561207
0.15498728 0.0050305137 0.51699203
0.16497326 0.0049689165 0.51810598
0.17499746 0.0049993689 0.51849985
0.18503167 0.0049750474 0.51774263
0.19503731 0.0047759893 0.51764697
0.2050668 0.0050039366 0.51679677
0.21509148 0.0051916894 0.51685709
0.22509582 0.0050183595 0.51807147
0.23500243 0.0050023692 0.51788563
0.24502863 0.0049872566 0.51787519
0.25500962 0.0050389846 0.5188446
0.26511189 0.0048697088 0.51821339
0.2750994 0.0050387019 0.51822716
0.28504437 0.0050492589 0.51832646
0.29507867 0.0049238564 0.51873255
0.30410001 0.0047441651 0.51790172
-0.33265835 0.016209837 0.51100075
-0.32559246 0.015229127 0.51110232
-0.3159242 0.015576261 0.5107702
-0.30749729 0.017418783 0.51037747
-0.2649892 0.019854419 0.51024914
-0.254549 0.01914772 0.51029378
-0.24359147 0.015289199 0.51022702
-0.2345555 0.014984731 0.51089394
-0.22518046 0.01519977 0.51295197
-0.21505804 0.015070263 0.51357192
-0.20521717 0.014839808 0.5132947
-0.19494618 0.014872689 0.51342249
-0.18463159 0.015074585 0.51401049
-0.17513788 0.014964295 0.51463681
-0.16530746 0.014925513 0.51419145
-0.15476856 0.014877357 0.5125379
-0.14458598 0.015419215 0.51112717
-0.13476844 0.015111391 0.51148885
-0.12500766 0.015195388 0.51274508
-0.11492974 0.014867024 0.5129227
-0.10498871 0.014749922 0.51235878
-0.0949893 0.015044472 0.51262391
-0.085097305 0.014926983 0.5137434
-0.075157814 0.015000637 0.51387793
-0.065024532 0.014972211 0.51351136
-0.054984264 0.015115712 0.5138433
-0.044965696 0.015229095 0.51361763
-0.034949806 0.015050475 0.51349407
-0.025217816 0.01493703 0.51495123
-0.014980433 0.015200474 0.51453143
-0.0049454714 0.014895133 0.51320642
0.0050231959 0.0149973 0.51321435
0.015161294 0.015141375 0.51387185
0.024950385 0.014912475 0.5153138
0.03492967 0.015012831 0.51483089
0.045017332 0.015141218 0.51395416
0.055121053 0.01511527 0.51462936
0.06493631 0.015058544 0.51580697
0.074894622 0.01506869 0.51593637
0.085009478 0.015093465 0.51589972
0.095019929 0.014950434 0.51590568
0.104986 0.014870781 0.51614267
0.11501614 0.015029386 0.51618278
0.12506294 0.014997106 0.51664966
0.13505556 0.014996354 0.51711273
0.14484537 0.014970352 0.51800293
0.15504077 0.015014524 0.5174579
0.16502357 0.015071436 0.51779926
0.17502217 0.015104966 0.51735097
0.18505947 0.014928742 0.51725584
0.1949981 0.014996917 0.51742029
0.20496379 0.015037519 0.51678133
0.21493852 0.015090672 0.51664048
0.2249479 0.015065149 0.51709843
0.23501992 0.015044869 0.51817441
0.244958 0.014959209 0.51778758
0.25504035 0.015020122 0.51865017
0.26498106 0.01478745 0.51879585
0.27496067 0.014973181 0.51889086
0.28493467 0.014983959 0.51859742
0.29495332 0.015106817 0.5186072
0.30240807 0.014232787 0.51913846
-0.3338367 0.022877794 0.51023537
-0.32442692 0.024131281 0.51052457
-0.31509086 0.024794625 0.51120037
-0.30499429 0.02558079 0.51113164
-0.29523447 0.02645673 0.51083159
-0.28510037 0.026928375 0.51091272
-0.27526897 0.026828965 0.51087934
-0.26494241 0.02611753 0.51105982
-0.25506392 0.025175525 0.51154929
-0.24509063 0.025021948 0.51154649
-0.23494716 0.02506265 0.51089686
-0.2248942 0.024734013 0.51130348
-0.21508072 0.025110533 0.51226711
-0.20505197 0.025002412 0.5120784
-0.19507974 0.024955504 0.51180738
-0.18509735 0.024914445 0.51261985
-0.17508893 0.025202794 0.51378691
-0.1650784 0.025078051 0.51380843
-0.15465739 0.025343228 0.51195347
-0.14461255 0.025352124 0.51109427
-0.13483794 0.025045032 0.51247907
-0.12501703 0.024972228 0.51407671
-0.11545621 0.025035279 0.51445079
-0.10501266 0.02491596 0.51283669
-0.094641007 0.025116654 0.5122171
-0.085072227 0.024800811 0.51337898
-0.07527215 0.024994524 0.51381081
-0.064773202 0.0251862 0.51346391
-0.05484952 0.025164699 0.5137943
-0.04510038 0.025038956 0.51383007
-0.035234027 0.025141526 0.51403356
-0.025155358 0.025038123 0.51465553
-0.014989084 0.025118111 0.51466185
-0.0049435091 0.024950568 0.51437694
0.0048799561 0.025019683 0.51454931
0.015017071 0.025024135 0.51492411
0.024995031 0.025196673 0.51592624
0.035044998 0.025114508 0.51557529
0.04507757 0.025103102 0.51460719
0.055046294 0.025088921 0.5147087
0.064873442 0.024979796 0.51584321
0.075108647 0.024974009 0.5156942
0.084971085 0.024992293 0.51599211
0.094908476 0.024778189 0.51685947
0.10487716 0.025166232 0.5173021
0.11499218 0.025152883 0.5167557
0.12500007 0.025015321 0.51752591
0.13505983 0.024957137 0.51729274
0.1450347 0.025044074 0.51808864
0.15506993 0.02493695 0.5176332
0.16505995 0.024903752 0.51741052
0.17531031 0.025047489 0.51698416
0.18513362 0.025075071 0.51733309
0.19507827 0.025031336 0.51762342
0.20498601 0.024888184 0.51849186
0.21538605 0.024498697 0.51894426
0.22506 0.024956327 0.51888585
0.23502162 0.024871521 0.51862121
0.24507435 0.025107969 0.51806915
0.25499758 0.025116131 0.51880425
0.26450512 0.02522802 0.5193392
0.27498367 0.025074396 0.51946026
0.28527796 0.02457135 0.51937342
0.29489598 0.024839805 0.51869142
0.30072555 0.021722406 0.51840258
-0.32040229 0.032358978 0.51020116
-0.31398281 0.034507789 0.51068634
-0.30523682 0.035246558 0.51151168
-0.29485601 0.035084259 0.51180285
-0.28483945 0.034916755 0.51220733
-0.2747936 0.035359096 0.51221234
-0.26498896 0.035057686 0.51179606
-0.25498021 0.035062958 0.5117296
-0.24492046 0.035033364 0.51217496
-0.234861 0.035013761 0.51182622
-0.22489569 0.03471256 0.51109612
-0.21506599 0.035202827 0.51145411
-0.20536293 0.034985438 0.51204872
-0.19495237 0.034869187 0.51187652
-0.18483961 0.034824446 0.512366
-0.17521061 0.03505715 0.51274568
-0.16533123 0.035047136 0.51236522
-0.15480182 0.03514741 0.51196653
-0.14498857 0.03517985 0.51233965
-0.13512485 0.034974456 0.51278675
-0.12509765 0.034915458 0.51358312
-0.11516991 0.03493781 0.51342583
-0.10486279 0.034776863 0.51202142
-0.095027879 0.035295617 0.51222825
-0.08522886 0.034980688 0.51371068
-0.074933261 0.034763679 0.51402032
-0.064847566 0.035079576 0.51427585
-0.055011958 0.034997769 0.51502925
-0.045049392 0.035210516 0.51454413
-0.034785431 0.034913894 0.51364207
-0.024768872 0.0351272 0.5139544
-0.015042406 0.034835208 0.5154413
-0.0048362287 0.034967322 0.51587307
0.0051554446 0.034900378 0.51621944
0.014882305 0.035160359 0.51705068
0.024970364 0.034978371 0.51713663
0.034931514 0.034954187 0.51685649
0.04481411 0.03517279 0.51616114
0.054958679 0.035110109 0.51584309
0.064972363 0.034923483 0.51678193
0.075076245 0.034898121 0.51625174
0.085147321 0.034827281 0.51595497
0.095009536 0.034983482 0.51673841
0.10500775 0.035129491 0.51714969
0.1150311 0.034939095 0.51663953
0.12487503 0.035122294 0.51768738
0.13486481 0.035068788 0.51817453
0.14492631 0.034958646 0.51764554
0.15500413 0.034780454 0.51745182
0.16499384 0.034974784 0.51846343
0.17481239 0.035049595 0.51872319
0.18495625 0.034977809 0.51831746
0.19508401 0.035151649 0.51860356
0.20467626 0.034956884 0.51934057
0.21514925 0.035930824 0.51948905
0.22494473 0.034641132 0.5194481
0.2337213 0.032649357 0.51950032
0.24530476 0.034671869 0.51960146
0.25575274 0.035085518 0.51903796
0.26508844 0.035080913 0.51869535
0.27444857 0.034681972 0.51950693
0.28603846 0.033594381 0.51975006
0.29384786 0.032345843 0.51942992
-0.35383838 0.049875982 0.51072872
-0.34724975 0.049524456 0.51037556
-0.3328492 0.0485157 0.51107967
-0.3243019 0.04631035 0.51150209
-0.31497553 0.045167003 0.5114342
-0.304975 0.044900123 0.51177061
-0.29470089 0.044798706 0.51223207
-0.28522441 0.04494264 0.51268476
-0.2750693 0.044916648 0.51244771
-0.2645686 0.045353778 0.51182628
-0.25483042 0.045086343 0.51155055
-0.24500926 0.044943798 0.51189053
-0.23479187 0.044706203 0.51237845
-0.22459558 0.045152273 0.51239783
-0.21499512 0.045065381 0.5129118
-0.20502815 0.045147408 0.51331669
-0.19485492 0.044731643 0.51278037
-0.18485098 0.045041747 0.51272643
-0.17494704 0.044994257 0.51273352
-0.16498674 0.044637967 0.51246983
-0.15487227 0.04497321 0.51269042
-0.14501013 0.045258854 0.51402843
-0.13483146 0.045181956 0.51428115
-0.12502733 0.044799205 0.51412964
-0.11525845 0.044909202 0.51377922
-0.10501834 0.045007575 0.512299
-0.094767161 0.044942118 0.51213896
-0.084919386 0.044932298 0.51405382
-0.074975409 0.045037225 0.51483744
-0.064854026 0.044912107 0.51396304
-0.054929059 0.045019165 0.51396948
-0.044753872 0.045145985 0.51429135
-0.03492035 0.045121003 0.51430506
-0.024885979 0.044851162 0.51442397
-0.015090298 0.04487564 0.51556921
-0.0050089401 0.04511299 0.51580065
0.0052654478 0.045119543 0.51589692
0.014973124 0.04480014 0.51705992
0.024956776 0.045117702 0.51754737
0.03509099 0.044850864 0.51733285
0.045013979 0.044988897 0.51655924
0.054932293 0.045119446 0.51601136
0.06483607 0.04493314 0.51680559
0.075050905 0.044984628 0.51688188
0.085025787 0.045030355 0.51575798
0.094991922 0.045008425 0.5163362
0.10500143 0.044996481 0.51762211
0.11491996 0.044940446 0.51781744
0.12487411 0.044914685 0.51798236
0.13498692 0.045110382 0.51903909
0.14512281 0.045003366 0.51895809
0.15506113 0.0448705 0.51827037
0.16490315 0.045133501 0.51893806
0.17504683 0.044955991 0.51903641
0.1850902 0.044996765 0.51862067
0.19459991 0.044708434 0.5191794
0.20431171 0.043122094 0.51970953
0.21528141 0.044798929 0.51901597
0.22458775 0.044933833 0.51887912
0.23320198 0.048459273 0.5195787
0.24563745 0.045258183 0.51915914
0.25403133 0.044280693 0.51933265
0.26486766 0.041986171 0.51926458
0.27287233 0.041561201 0.51977336
0.28784564 0.044182725 0.51983905
-0.35439911 0.055953741 0.51100659
-0.34494501 0.054990299 0.51146907
-0.33480105 0.054956768 0.51265645
-0.32509485 0.055093508 0.51450127
-0.31527826 0.054856297 0.51492369
-0.30487543 0.054942086 0.51432914
-0.29476231 0.054919843 0.51348042
-0.28510493 0.055089094 0.51314342
-0.27513754 0.054849211 0.51240641
-0.26508945 0.054874662 0.51129735
-0.25493824 0.055227168 0.510952
-0.24517576 0.054917268 0.51185715
-0.23535293 0.054910604 0.51273084
-0.22481492 0.055014458 0.51252776
-0.21444981 0.054736052 0.51299846
-0.2051035 0.055346038 0.51488417
-0.19504522 0.054928437 0.51500177
-0.18499361 0.054924283 0.51400357
-0.17530645 0.054806896 0.51342458
-0.16541514 0.055036381 0.51220232
-0.1547652 0.054685123 0.51115
-0.14461577 0.055081733 0.51221901
-0.13511835 0.055268481 0.5139941
-0.12521403 0.054871444 0.51504052
-0.11490148 0.055219952 0.51535577
-0.10468324 0.055097077 0.51484424
-0.09486337 0.05486162 0.51414347
-0.084962338 0.054886464 0.51410216
-0.074905209 0.0549854 0.51378644
-0.064931206 0.05510499 0.51304293
-0.055161085 0.054844096 0.51315272
-0.045087352 0.054923881 0.51479357
-0.034854736 0.055285443 0.51609552
-0.024942057 0.054836024 0.51621121
-0.015124847 0.054931663 0.51629353
-0.0050625494 0.055089012 0.51615566
0.0049799667 0.054795563 0.51638877
0.014974623 0.054922827 0.51671213
0.025090471 0.054958135 0.51686698
0.034814034 0.055155329 0.5181061
0.044941116 0.054827865 0.51806623
0.055205181 0.055186231 0.51756942
0.06508927 0.054883879 0.51754779
0.074933365 0.055066686 0.51790547
0.084925033 0.055104632 0.51735276
0.094914958 0.054811321 0.51706797
0.10491963 0.055064406 0.51784134
0.11492145 0.054868519 0.51935357
0.12509766 0.054836232 0.5188027
0.13518943 0.055104297 0.51926428
0.1451364 0.054951962 0.51944947
0.15482207 0.054925125 0.51942968
0.16520829 0.054974463 0.51942617
0.17503187 0.055014949 0.51902699
0.18394591 0.053660356 0.51934564
0.19395696 0.052536681 0.51961225
0.21670642 0.054282378 0.5192619
0.22506261 0.054916494 0.51883084
0.23397003 0.054973684 0.51939893
0.24534263 0.051740322 0.51941204
0.25406098 0.052328885 0.51974761
0.26476866 0.057420049 0.51929069
0.27480897 0.058587279 0.51972169
0.28469652 0.057391938 0.51978761
-0.36227021 0.065625727 0.51049149
-0.35487422 0.064967044 0.510665
-0.34496126 0.065015644 0.51206058
-0.33472028 0.064941891 0.5135262
-0.32471353 0.065123267 0.51536489
-0.31478488 0.064866036 0.51588857
-0.30468917 0.06482099 0.51482409
-0.29475787 0.065141737 0.51388466
-0.28487551 0.06512478 0.51398093
-0.27503183 0.065137126 0.51405174
-0.26488051 0.064905457 0.5130493
-0.2547977 0.065151185 0.5123114
-0.2448815 0.06490577 0.51266134
-0.23501645 0.065046974 0.5138256
-0.22484629 0.064902328 0.51318878
-0.21474671 0.06471426 0.51239401
-0.20510106 0.064981855 0.51417506
-0.19515443 0.065160319 0.51601112
-0.18470383 0.065229207 0.51551169
-0.17470722 0.064879075 0.51448208
-0.16474663 0.065049604 0.51347125
-0.1552314 0.064943008 0.51263469
-0.1452374 0.06500563 0.51258093
-0.13490358 0.06502831 0.51348501
-0.12504634 0.064858682 0.51601744
-0.11511541 0.065050744 0.51784897
-0.10512583 0.06484177 0.51765627
-0.094697684 0.064730331 0.51582795
-0.085018851 0.065193988 0.51511806
-0.075052857 0.065005101 0.51532608
-0.06517034 0.064990744 0.51503927
-0.05494377 0.064882718 0.51409161
-0.044847328 0.064792685 0.5144307
-0.0349296 0.065235481 0.51642513
-0.025184402 0.064992703 0.51822782
-0.014977729 0.065083094 0.51792204
-0.0047968631 0.065010674 0.51699764
0.0051256092 0.065004304 0.51726949
0.014938234 0.065153182 0.51736182
0.025027592 0.064789586 0.51698041
0.034911361 0.064933971 0.51788163
0.044982322 0.065116137 0.51854777
0.054858077 0.06497781 0.51854688
0.065091327 0.064932525 0.51769793
0.074918091 0.065093741 0.51812661
0.084825538 0.065019377 0.5188148
0.094877064 0.065120988 0.51897717
0.10502082 0.064977981 0.51812309
0.11476401 0.065187484 0.51877958
0.12539181 0.063845441 0.51958805
0.13533361 0.06422513 0.51949042
0.14508434 0.064995274 0.51924056
0.15498841 0.064881563 0.5189954
0.16504347 0.06503132 0.51888376
0.17504556 0.065003313 0.51848114
0.18224038 0.065799057 0.5193634
0.21946608 0.061494518 0.51988637
0.22583438 0.064465761 0.51929182
0.23437649 0.064902008 0.51912469
0.26557866 0.062392235 0.51932859
0.27359009 0.061884146 0.51973456
0.28286874 0.061916802 0.51976037
-0.37172428 0.07817395 0.51236326
-0.36470434 0.075605758 0.51154214
-0.35468277 0.074767381 0.51176715
-0.34485188 0.075116336 0.51313508
-0.33506656 0.075049721 0.51474458
-0.32536435 0.074947841 0.51589161
-0.31525537 0.074925825 0.5162968
-0.30486298 0.075021543 0.51524383
-0.29480255 0.075024113 0.51400495
-0.28489685 0.074803926 0.51376438
-0.27513602 0.075156532 0.51440173
-0.26529783 0.074878849 0.51483309
-0.254978 0.075201593 0.51463419
-0.24503224 0.074899286 0.51447797
-0.23520777 0.074822076 0.51469743
-0.22534396 0.075244687 0.51422811
-0.2149892 0.07490705 0.51342052
-0.20496775 0.074950293 0.51430726
-0.19499929 0.075067349 0.51581246
-0.18532516 0.075114347 0.51644528
-0.17518812 0.074994124 0.51609045
-0.16534048 0.075048707 0.51588297
-0.15502813 0.075004742 0.51583743
-0.14482121 0.074969001 0.51502705
-0.13479644 0.075108491 0.5145337
-0.12499408 0.074765593 0.51662916
-0.11481241 0.07510788 0.51855457
-0.10482863 0.075117633 0.518718
-0.094718777 0.075096548 0.51679373
-0.084566571 0.074767135 0.51521343
-0.075112648 0.075009055 0.51583171
-0.064965606 0.075183325 0.51669759
-0.055029981 0.075023659 0.51666325
-0.044838626 0.075195752 0.51545876
-0.034854975 0.074873269 0.51562107
-0.025159618 0.075021319 0.51737088
-0.015130963 0.075057454 0.5177089
-0.0048783296 0.074756689 0.51681554
0.0050035273 0.075173512 0.51695919
0.015075631 0.075058341 0.51804119
0.02497991 0.074878067 0.51863045
0.035048343 0.074965343 0.51841938
0.045100182 0.075110383 0.51777762
0.054864556 0.074937306 0.51770979
0.065074436 0.075015724 0.51733363
0.074886478 0.075082712 0.51784009
0.085107751 0.074850105 0.51763493
0.095013067 0.075104892 0.51856911
0.10484064 0.074809879 0.51901364
0.11508361 0.074976221 0.51862556
0.12352591 0.075574867 0.51941466
0.13170224 0.078846484 0.51973039
0.14639524 0.075024016 0.51952595
0.15512978 0.075029872 0.51889771
0.16471241 0.074598588 0.51924056
0.17562391 0.074305981 0.51930648
0.18368675 0.074971467 0.51941198
0.20596345 0.074612312 0.51992178
0.21322696 0.077290818 0.51983178
0.22726567 0.071798593 0.51951903
0.23319058 0.071653113 0.51956874
-0.38162342 0.088065647 0.51425606
-0.37450409 0.085397989 0.51407152
-0.36469838 0.085137799 0.51373172
-0.35485366 0.084786773 0.51353508
-0.34517819 0.084928036 0.51426727
-0.33496666 0.084960423 0.51511627
-0.32495752 0.084834471 0.51579279
-0.31542131 0.085121758 0.51616579
-0.30522344 0.084933527 0.51560611
-0.29506394 0.084957622 0.51460546
-0.28501087 0.084881514 0.51444781
-0.27491343 0.085315548 0.51495475
-0.26483291 0.08483246 0.51496226
-0.25504184 0.08507818 0.51529282
-0.24498038 0.084834278 0.51521635
-0.23497869 0.085059464 0.51507157
-0.2249541 0.085083961 0.51517892
-0.21480951 0.085025929 0.51451987
-0.20483369 0.084641367 0.51377732
-0.1949966 0.084973738 0.5142144
-0.18444252 0.085064709 0.51477742
-0.17507564 0.085068263 0.51549351
-0.16526991 0.084954821 0.51582301
-0.1550729 0.085024789 0.51545668
-0.14499965 0.085025452 0.51507485
-0.13464846 0.085120723 0.51438594
-0.12464324 0.084789686 0.51455176
-0.1150729 0.084905982 0.51570177
-0.1051373 0.085002929 0.51695764
-0.095116653 0.085237801 0.51690352
-0.084963642 0.085044302 0.51596248
-0.074654251 0.084840611 0.51547015
-0.064813703 0.084987335 0.51634932
-0.054817002 0.085092142 0.51744711
-0.044870224 0.085213676 0.51775855
-0.035040714 0.084936395 0.51762444
-0.024713188 0.08494693 0.51751071
-0.014901171 0.08497294 0.51748407
-0.0051130913 0.084921084 0.51760393
0.0049357167 0.085036986 0.51811326
0.015071058 0.085019052 0.51885509
0.025096683 0.08478006 0.51937169
0.035112284 0.085132957 0.51863521
0.045156859 0.084987678 0.51767647
0.05515008 0.084930994 0.51799935
0.065081842 0.084984131 0.51828969
0.075008593 0.084984489 0.51850682
0.085134916 0.085107014 0.5184412
0.095176555 0.085006148 0.51854378
0.10431431 0.085169807 0.51951772
0.11563311 0.084423818 0.51962423
0.1252539 0.084829822 0.51914829
0.1345567 0.085377663 0.51946962
0.14508717 0.085207283 0.51930088
0.15489255 0.084867842 0.5189991
0.16431575 0.08407943 0.51956213
0.17513259 0.083127491 0.51978368
0.18428367 0.084146403 0.51955569
0.1996785 0.086207986 0.51989281
0.20340534 0.085301399 0.51991153
-0.38352492 0.095427006 0.51357079
-0.37500688 0.095117606 0.5137921
-0.36507186 0.095389105 0.51462692
-0.35513362 0.094816864 0.51520807
-0.34509388 0.09506993 0.51502371
-0.33490899 0.094710723 0.51493317
-0.32499006 0.095248073 0.5147447
-0.31506369 0.094911814 0.51501995
-0.30525777 0.094739079 0.51504701
-0.29518029 0.095056616 0.51432467
-0.28488773 0.095003679 0.51423115
-0.27508801 0.095162749 0.51540047
-0.26482055 0.095101401 0.51654655
-0.2550666 0.095001124 0.51673138
-0.24489787 0.094866 0.51607543
-0.2347299 0.095135584 0.51585674
-0.22496958 0.094936945 0.51620656
-0.21533565 0.095010296 0.51605672
-0.20532683 0.094975337 0.51544446
-0.19503723 0.094768442 0.51464206
-0.18515116 0.095028222 0.51452935
-0.17491804 0.094816178 0.51487261
-0.1651672 0.095109664 0.51541406
-0.15485586 0.094979636 0.5153423
-0.14507805 0.095004216 0.51595783
-0.13533963 0.095071331 0.51580638
-0.12509795 0.094871737 0.51537979
-0.11493275 0.095210955 0.51569909
-0.10487138 0.094844311 0.51621902
-0.094988078 0.094924249 0.51706475
-0.085081629 0.095069446 0.51695555
-0.074946016 0.095097288 0.51585615
-0.064933486 0.094813846 0.51613003
-0.055165496 0.094975509 0.51713562
-0.04539815 0.094905272 0.51806831
-0.035058767 0.095041968 0.51833177
-0.02473823 0.095125616 0.51849461
-0.01493173 0.094677724 0.51884282
-0.0054080929 0.094455466 0.51918018
0.0054619373 0.09221717 0.51948929
0.015809596 0.093387045 0.51965779
0.024910226 0.094805457 0.51910853
0.035133049 0.094975911 0.5178808
0.045093853 0.094955102 0.51796597
0.054900166 0.094785951 0.5185045
0.06491974 0.09393131 0.51907617
0.075010143 0.094832733 0.51873797
0.084870316 0.095026091 0.51834995
0.094934173 0.094975114 0.51825649
0.10496591 0.094929382 0.51866794
0.11450374 0.095154643 0.51903576
0.12483104 0.093870543 0.51965731
0.1334689 0.093342744 0.51961738
0.14556701 0.092067122 0.5196721
0.15214767 0.092021823 0.51963538
-0.39249575 0.10706716 0.51324046
-0.38500318 0.10503919 0.51238525
-0.37464672 0.10464289 0.51139474
-0.3649334 0.10470738 0.51205462
-0.35497648 0.10496751 0.51344848
-0.34508482 0.10516 0.51430172
-0.3351953 0.10518932 0.51420069
-0.324846 0.10487247 0.51363331
-0.31508526 0.10521479 0.51372439
-0.30530301 0.1049679 0.51409912
-0.29466674 0.10484415 0.51340944
-0.28493848 0.10490499 0.5133571
-0.2751779 0.10523707 0.51505041
-0.26525465 0.10490658 0.5171209
-0.2554616 0.10487118 0.51736701
-0.24485417 0.10494151 0.51589912
-0.23442586 0.10517337 0.51546103
-0.22496247 0.10489169 0.51649231
-0.21505256 0.10501914 0.51725739
-0.20473419 0.10507646 0.51733196
-0.19469707 0.10493955 0.51733232
-0.1847114 0.10494825 0.51701868
-0.17495756 0.1050694 0.51623547
-0.1648393 0.10476765 0.51590514
-0.15492745 0.10515513 0.51636958
-0.14544716 0.10507804 0.51734656
-0.13487105 0.10499774 0.51714575
-0.12478472 0.10511936 0.51702374
-0.11494999 0.10507552 0.51690012
-0.10502466 0.10502149 0.51678133
-0.094900101 0.10481799 0.51700008
-0.084832482 0.10523655 0.51676571
-0.074691005 0.10502104 0.51596302
-0.065025225 0.10489173 0.51678556
-0.054922245 0.10497043 0.51814246
-0.044906091 0.10504033 0.51841915
-0.034920577 0.10486643 0.51846415
-0.025968317 0.10428725 0.51926011
-0.014986704 0.1009453 0.51979303
-0.0075933672 0.1013805 0.51970845
0.0064071883 0.1078182 0.51942039
0.015569444 0.10600891 0.5191716
0.025045143 0.10515115 0.51918024
0.034737464 0.10483932 0.51902241
0.044483107 0.10387732 0.51947868
0.05409563 0.10337092 0.51966351
0.077258624 0.10445698 0.51948881
0.084897377 0.10498772 0.51894462
0.094956473 0.10502567 0.51853567
0.10451679 0.10450287 0.51905626
0.11368204 0.10256255 0.51933295
0.13081169 0.10166129 0.5199914
0.17116763 0.10894716 0.51990712
-0.39441076 0.11552051 0.51387703
-0.38463265 0.11510129 0.51367933
-0.37464204 0.11489876 0.51295722
-0.36460713 0.11509295 0.51264542
-0.35450715 0.11473703 0.5127461
-0.34510484 0.11474595 0.51382965
-0.33503646 0.11508494 0.51435989
-0.32474628 0.11525093 0.51410121
-0.31482944 0.1149542 0.51408094
-0.30513209 0.11486815 0.51424652
-0.2949259 0.11499234 0.5136863
-0.28484276 0.11502399 0.51346517
-0.27490467 0.11482966 0.51422495
-0.26495948 0.11494815 0.51533014
-0.25494006 0.11539286 0.51642942
-0.24493682 0.11518686 0.51620698
-0.23492572 0.1150787 0.51581973
-0.2248261 0.11472079 0.51685882
-0.21496931 0.11506264 0.51775658
-0.20503041 0.11492803 0.51778793
-0.19512425 0.11500698 0.51823229
-0.18494748 0.11507209 0.51796472
-0.17468132 0.11523795 0.51671845
-0.16466178 0.1150304 0.51614529
-0.15510567 0.1149125 0.5170995
-0.14491501 0.115066 0.51800668
-0.13492943 0.11517964 0.51813149
-0.12503082 0.11505213 0.51760608
-0.11494694 0.11501432 0.51726913
-0.10488365 0.11520407 0.51730263
-0.094912283 0.11476465 0.51686001
-0.084965572 0.11516374 0.51628065
-0.074844129 0.1150194 0.51625526
-0.064698994 0.11493023 0.51720566
-0.055207562 0.11486124 0.51888645
-0.045822628 0.11280227 0.51969171
-0.034265812 0.11392516 0.51955324
-0.025569886 0.11621401 0.5197109
-0.01455385 0.11856198 0.51971298
-0.0043750717 0.11716268 0.51963621
0.005223677 0.11499144 0.51927817
0.014943928 0.11481582 0.518668
0.024857087 0.11459104 0.51896554
0.03460696 0.11449412 0.51933521
0.045190092 0.1157162 0.51980329
0.055183273 0.11459924 0.51960808
0.061396334 0.11517837 0.51981586
0.078344978 0.11263718 0.51969546
0.085232355 0.114046 0.51955116
0.095023371 0.11434319 0.51943618
0.10422097 0.11467889 0.5197469
0.11254483 0.11796182 0.51987308
-0.40330663 0.12620956 0.51429182
-0.3948161 0.12502481 0.51429659
-0.38497636 0.12512141 0.5150032
-0.37503481 0.12501648 0.5156287
-0.36500871 0.12517837 0.51611656
-0.35484156 0.12513283 0.5157696
-0.34482327 0.12481273 0.51556617
-0.33492446 0.12507479 0.51592344
-0.32490006 0.12515986 0.5159052
-0.31478769 0.12512493 0.51536524
-0.30471841 0.12477284 0.51435667
-0.29476902 0.12492756 0.51335841
-0.28446639 0.12503394 0.51323622
-0.27488455 0.12484924 0.51357096
-0.26468492 0.1250606 0.51334685
-0.25481492 0.12521315 0.51531351
-0.24532512 0.1249603 0.51758277
-0.23520955 0.12517139 0.51763427
-0.22513767 0.12488338 0.51749444
-0.21518865 0.1249283 0.51774246
-0.20480916 0.12480965 0.51735234
-0.19470082 0.12494975 0.51626515
-0.18497141 0.12499419 0.51561767
-0.17533334 0.12499792 0.51514578
-0.16508214 0.12499887 0.5153746
-0.15515751 0.12514862 0.51690555
-0.14543918 0.12484906 0.51829326
-0.13551924 0.12417062 0.51926666
-0.12484553 0.12481282 0.51859701
-0.11480793 0.1249998 0.51794541
-0.10499791 0.12499791 0.51844943
-0.095121935 0.12491167 0.51909322
-0.084760442 0.12489188 0.51786566
-0.07511013 0.12501979 0.517196
-0.06521517 0.1248822 0.51717073
-0.05492916 0.12501147 0.51762825
-0.046521921 0.12565519 0.5193336
-0.033186097 0.12608105 0.51989567
-0.024625549 0.124563 0.5194701
-0.015625188 0.12446269 0.5195207
-0.0057496326 0.12236781 0.51961726
0.0043059043 0.12118959 0.51975352
0.014211491 0.12055685 0.51970041
0.037736967 0.12058194 0.51990342
0.046716627 0.12137657 0.51986605
0.057126921 0.12488028 0.51980263
0.063840032 0.12836811 0.51977241
0.084684238 0.12091408 0.5199368
0.1075124 0.12162113 0.51995373
0.11135787 0.1210339 0.51982474
-0.41137147 0.13715748 0.51406616
-0.40467918 0.13503934 0.51458597
-0.39458919 0.13503069 0.51478159
-0.38496199 0.13471952 0.51496738
-0.37516958 0.13526036 0.51585227
-0.36524531 0.13513668 0.51674628
-0.3550452 0.13517343 0.51640022
-0.34484071 0.13474937 0.51597649
-0.33479485 0.13492456 0.5157963
-0.32511497 0.13518746 0.5157342
-0.31518921 0.13496046 0.51529288
-0.30503929 0.13520104 0.51440197
-0.29477403 0.13506626 0.51410824
-0.28495818 0.13505939 0.51431936
-0.27510977 0.1347487 0.5144161
-0.26452497 0.13496943 0.51468098
-0.25489965 0.13487886 0.5162251
-0.24550113 0.13509302 0.51807344
-0.23498222 0.13493292 0.51776826
-0.22486256 0.13497508 0.51738203
-0.21518296 0.13505785 0.51751733
-0.20532659 0.13512801 0.51684058
-0.19514994 0.13491389 0.51575923
-0.18518838 0.13505322 0.515387
-0.17489648 0.13499641 0.51550061
-0.1648092 0.13504927 0.51645088
-0.15497425 0.13489547 0.51784271
-0.14503567 0.13495675 0.51918924
-0.13818617 0.13127549 0.51996791
-0.12396999 0.13505632 0.51955491
-0.11524371 0.13502438 0.51873237
-0.10489383 0.1347408 0.5185377
-0.096863158 0.13500065 0.51957899
-0.083651841 0.13390839 0.51927072
-0.074724302 0.1349898 0.5181706
-0.0648617 0.13491493 0.51755238
-0.05486669 0.13493295 0.51773214
-0.046101235 0.13511021 0.51915324
-0.023960002 0.13309669 0.51973253
-0.016154204 0.13441633 0.51967102
-0.005510591 0.13926405 0.51988989
0.023791656 0.13264662 0.5199967
0.05812363 0.13433826 0.5195601
0.064886525 0.13512471 0.51927084
0.072776817 0.13605978 0.51952285
-0.41383302 0.14551398 0.51368594
-0.40442726 0.14461018 0.51412636
-0.39513043 0.14527701 0.51448154
-0.38543555 0.1449102 0.5142749
-0.37493119 0.14545311 0.51520228
-0.36545959 0.14473578 0.51747668
-0.35534132 0.14474221 0.51816571
-0.34551474 0.14513001 0.51772982
-0.33502322 0.14470519 0.51653582
-0.32481322 0.14493568 0.51615465
-0.31464875 0.14520483 0.51594257
-0.30470735 0.14514807 0.51600826
-0.2946997 0.14504793 0.51686722
-0.28466803 0.14506109 0.51754433
-0.27463028 0.14500085 0.51754296
-0.26469749 0.14476539 0.51748621
-0.25510025 0.14496496 0.5179584
-0.24514252 0.14474405 0.51739764
-0.23500229 0.14486887 0.51654732
-0.22539218 0.14487611 0.5165478
-0.2153562 0.1451541 0.5171845
-0.20510092 0.14516957 0.51762897
-0.19501315 0.14520364 0.51778662
-0.18519038 0.14498788 0.51768839
-0.17527571 0.14499491 0.51738089
-0.16497904 0.14501528 0.51738495
-0.15498665 0.14490654 0.51838094
-0.14547527 0.14464308 0.51942968
-0.13695069 0.14359957 0.51988935
-0.1233336 0.14479333 0.51952845
-0.11478394 0.14486764 0.51900822
-0.10496309 0.14502494 0.51915842
-0.097656958 0.14426732 0.51969689
-0.073764287 0.14496282 0.51945734
-0.06486623 0.14495829 0.51881713
-0.055169687 0.14427593 0.5190143
-0.046023771 0.14396559 0.51951456
-0.013241813 0.14135492 0.51991391
-0.0044852179 0.14384945 0.51973367
0.065596662 0.14213473 0.5196296
0.072977468 0.14169276 0.51968682
-0.42386869 0.15568127 0.51544863
-0.4150725 0.15495014 0.51453382
-0.40524662 0.15486062 0.51470172
-0.39546472 0.15506734 0.5150857
-0.3848967 0.15506227 0.51543868
-0.37500691 0.15502244 0.5172475
-0.36670306 0.15540482 0.51897395
-0.35638839 0.15920946 0.51991296
-0.34305325 0.15467954 0.51943511
-0.33513519 0.15465294 0.51855004
-0.3250491 0.15499565 0.51770788
-0.31507519 0.15520447 0.51756501
-0.3047834 0.15498772 0.51760501
-0.29471532 0.15496476 0.51831907
-0.2855067 0.15492579 0.51921666
-0.27585548 0.15454902 0.5197624
-0.26461071 0.15134826 0.51955843
-0.25509754 0.15167522 0.5194627
-0.24489984 0.15417092 0.51913339
-0.23497309 0.15507966 0.51850027
-0.2251593 0.15484717 0.51800174
-0.21493135 0.15499106 0.51797396
-0.20479649 0.15498804 0.51831573
-0.19477735 0.15510474 0.51891088
-0.18476169 0.15493828 0.51930809
-0.17457166 0.15522479 0.51871765
-0.16500983 0.15478608 0.51776755
-0.15500963 0.15484016 0.51798713
-0.14575417 0.15557618 0.51910812
-0.13888897 0.15899411 0.51954836
-0.12199273 0.15206514 0.51980573
-0.11477027 0.15437925 0.51915234
-0.10498403 0.1551246 0.51897871
-0.096517816 0.15639542 0.51964158
-0.0828453 0.15708615 0.51963329
-0.074978173 0.15501001 0.51930344
-0.065793633 0.15415655 0.5193432
-0.058767408 0.15210271 0.51983786
-0.40443173 0.16113678 0.51470625
-0.39445123 0.1627883 0.5152477
-0.38463771 0.16446759 0.51582187
-0.37511903 0.16490676 0.51672655
-0.36494029 0.16488811 0.51722014
-0.35522068 0.16503295 0.51788294
-0.34525964 0.1654356 0.51861858
-0.33518165 0.16496392 0.51867563
-0.32500052 0.16515763 0.51869112
-0.31505558 0.16514277 0.51888138
-0.30476931 0.16401352 0.51917619
-0.29496714 0.16458951 0.5193451
-0.2847169 0.16478422 0.51883364
-0.27463585 0.16507117 0.51854062
-0.26478961 0.16599585 0.51901513
-0.25527135 0.16644041 0.5196538
-0.24498607 0.16587108 0.51971853
-0.23676383 0.16189329 0.51996297
-0.22503649 0.16087979 0.51961511
-0.2146848 0.16198334 0.51945728
-0.20493862 0.163509 0.51929033
-0.19566949 0.16312248 0.51941121
-0.1846375 0.16139443 0.51971245
-0.17346293 0.16427319 0.51962465
-0.16471009 0.16508788 0.51891309
-0.15464967 0.16522203 0.51855463
-0.14501262 0.16492946 0.51887274
-0.13683872 0.16581275 0.51941544
-0.12248458 0.16889524 0.51994658
-0.11360047 0.16460791 0.51963413
-0.10507131 0.1646217 0.5193693
-0.095710456 0.16237254 0.51963103
-0.083859541 0.16070147 0.51989353
-0.07640326 0.16100612 0.51974928
-0.06971322 0.1601087 0.51990408
-0.37312388 0.17111506 0.51607364
-0.36405429 0.17301807 0.51679546
-0.35452816 0.17439979 0.51756102
-0.34498456 0.17483193 0.51804525
-0.33504927 0.1749474 0.5188154
-0.3250702 0.17477866 0.51945096
-0.31562498 0.17268208 0.51970899
-0.29299206 0.17582233 0.51975876
-0.28470835 0.17501701 0.51891476
-0.27467242 0.17488162 0.51862276
-0.26501849 0.17370877 0.51906818
-0.2553179 0.17256586 0.51965582
-0.24694042 0.17150344 0.51998091
-0.17394575 0.17489643 0.51921082
-0.1648076 0.17458758 0.51793176
-0.15497965 0.17513938 0.51780838
-0.14526162 0.17508231 0.51889282
-0.13524459 0.1752637 0.51933622
-0.12528557 0.17729001 0.5197084
-0.11447823 0.17243092 0.5198372
-0.10667787 0.17122757 0.51974076
-0.34602109 0.18040572 0.5189628
-0.33469355 0.18171389 0.51907474
-0.32736906 0.18302734 0.51942456
-0.30259693 0.1808489 0.51998079
-0.29453912 0.18352716 0.5198099
-0.28434137 0.18161063 0.51974237
-0.27787688 0.18045813 0.51968968
-0.18451743 0.184477 0.51994145
-0.17328537 0.18257089 0.51944631
-0.16442505 0.18374225 0.51896536
-0.15478474 0.18418418 0.51873815
-0.14542629 0.18399498 0.51934719
-0.13453956 0.18338235 0.51945966
-0.12557453 0.18343039 0.51977992
-0.11790681 0.18477303 0.51990128
-0.22122149 0.19745569 0.51997244
-0.21215835 0.19668153 0.51975572
-0.20527501 0.19544686 0.5199219
-0.18464784 0.19436564 0.51981211
-0.17623776 0.1978026 0.51979989
-0.22297393 0.20777795 0.51992559
-0.21316442 0.20379825 0.51978803
-0.20677908 0.20169538 0.51988119
-0.18267679 0.20091154 0.51990938
-0.17490028 0.20304558 0.51964468
-0.16810413 0.20356947 0.51993716
-0.22257102 0.21201231 0.51962304
-0.21766682 0.21282296 0.51974231
-0.14265271 0.2172579 0.5198347
-0.13092889 0.21908282 0.51989496
-0.14490943 0.22010006 0.5199281
-0.1362914 0.22010081 0.51996779
0.2664997 0.019642081 0.5202111
0.20785235 0.028905528 0.52015686
0.21260327 0.028368643 0.52030754
0.2681534 0.023228504 0.52023035
0.27547571 0.024173947 0.52018559
0.28406367 0.026551494 0.52018028
0.20755859 0.03582586 0.52016824
0.21495232 0.032685306 0.52024794
0.22591537 0.036057264 0.52023208
0.23587617 0.036561973 0.52073425
0.24487166 0.035281364 0.52047855
0.25191087 0.034487803 0.52025992
0.27643842 0.036003135 0.52019721
0.28459963 0.035410989 0.52046293
0.29392251 0.036307398 0.52052337
0.14115447 0.043619312 0.52003598
0.19841421 0.047167219 0.52022374
0.20541193 0.046094343 0.52046102
0.21093778 0.047479752 0.52032119
0.22947061 0.042982638 0.52019674
0.23547444 0.044264685 0.52067405
0.24134734 0.04306411 0.52039158
0.2573562 0.04695465 0.52046055
0.26497072 0.046710715 0.52092153
0.27534732 0.045427091 0.52137893
0.28476793 0.044949837 0.52083778
0.29201213 0.044032078 0.5208745
0.11607456 0.058907297 0.52024651
0.1446217 0.05586997 0.52008873
0.1581157 0.055295181 0.52013791
0.16182174 0.055791944 0.52015811
0.18650274 0.057117634 0.52052921
0.19564442 0.056219645 0.52061653
0.2049534 0.054904971 0.52077287
0.21277925 0.056066964 0.52043474
0.23764133 0.055164453 0.52032036
0.24491107 0.056620825 0.52117813
0.25521746 0.055504575 0.52088237
0.26511678 0.052607451 0.52090776
0.27490732 0.054608729 0.52113658
0.28465009 0.054235481 0.52076286
0.2906498 0.051054101 0.52043974
0.11693278 0.061168153 0.52011359
0.12449124 0.066422723 0.52027601
0.13314112 0.067950986 0.52031636
0.14318001 0.068823248 0.52022111
0.18673123 0.064468995 0.52073723
0.19485921 0.065006837 0.52119702
0.20499302 0.065068543 0.52081895
0.21482567 0.065113991 0.52115601
0.22144713 0.066749066 0.52047235
0.23908408 0.066048004 0.52066249
0.24510579 0.064866416 0.52234268
0.2551018 0.065016404 0.5220499
0.26462883 0.06670092 0.52085012
0.27526903 0.065636255 0.52099627
0.28349504 0.065081447 0.52079046
0.10586857 0.079396822 0.52012938
0.1274811 0.073720947 0.52043509
0.13524558 0.074878514 0.52057952
0.14322928 0.075056501 0.52034068
0.16795765 0.076857321 0.52026731
0.17321232 0.077412933 0.52028799
0.18867004 0.074497022 0.52053899
0.19510223 0.075078458 0.520962
0.20505556 0.074953496 0.52062368
0.21514642 0.074788578 0.52089483
0.22451168 0.075802557 0.52122653
0.23552097 0.075714044 0.52132976
0.24502802 0.074999869 0.52268142
0.25505146 0.074850917 0.52183157
0.2650308 0.074956223 0.52138954
0.27515513 0.07501056 0.52237481
0.28169402 0.073887952 0.5223875
0.024262369 0.087130249 0.52004528
0.10646466 0.084645577 0.52023482
0.11405923 0.086132824 0.52028984
0.12068822 0.087350368 0.52001631
0.13734782 0.08367943 0.52021879
0.14211257 0.08105889 0.52016968
0.16621734 0.086858302 0.52034098
0.17489801 0.085703023 0.5205062
0.18606615 0.086080268 0.52032936
0.19480948 0.085009828 0.52101362
0.20512201 0.08495333 0.52060491
0.21509159 0.085022524 0.52143329
0.22509523 0.085071094 0.5232653
0.23504604 0.084914386 0.52276146
0.24497947 0.085007489 0.52222329
0.25500759 0.08494027 0.52257019
0.26510254 0.085053362 0.521927
0.27452946 0.084672213 0.52260464
0.28044355 0.08040265 0.52385312
-0.013582036 0.099543355 0.52020621
-0.0026744828 0.097495653 0.52026343
0.0048392978 0.096959271 0.5204646
0.013927392 0.096908219 0.52033639
0.025811553 0.099924013 0.52006412
0.057412252 0.099435456 0.52023184
0.064623684 0.098834246 0.52035123
0.071236968 0.099260762 0.52010274
0.11829689 0.094295509 0.52014518
0.12504098 0.096852243 0.52026969
0.13570479 0.096318454 0.52040797
0.14465077 0.096183576 0.52057725
0.15549214 0.095239222 0.52098376
0.16511735 0.095088318 0.52162558
0.175134 0.094903864 0.5215435
0.18513171 0.09505517 0.52156883
0.19506681 0.095171019 0.52247095
0.20500597 0.095046319 0.52165008
0.21487224 0.094973214 0.52169162
0.22495461 0.094963782 0.52331984
0.23501684 0.094973326 0.52263039
0.24503838 0.094932944 0.52178001
0.25504059 0.094983555 0.52280557
0.26490793 0.095046356 0.52209252
0.27289304 0.09461543 0.5221619
-0.022544311 0.10704502 0.52036357
-0.014897941 0.10550232 0.52065027
-0.0045134216 0.10531612 0.52051741
0.0042850147 0.10363485 0.52048075
0.013668896 0.10210159 0.52038234
0.020487174 0.10083501 0.52015615
0.03895038 0.10836935 0.52036542
0.045590267 0.1065576 0.52036339
0.055634443 0.10552851 0.52049941
0.064938769 0.10508674 0.52107614
0.072853811 0.10554889 0.52047902
0.1077621 0.10787545 0.52034932
0.11575904 0.10649499 0.52063721
0.12489128 0.1050244 0.52130949
0.13518213 0.10503496 0.52087605
0.14511639 0.10494529 0.52127057
0.15508358 0.10492557 0.52126217
0.16494995 0.10494352 0.52138662
