# .PCD v0.7 - Point Cloud Data file format
VERSION 0.7
FIELDS x y z
SIZE 4 4 4
TYPE F F F
COUNT 1 1 1
WIDTH 1364
HEIGHT 1
VIEWPOINT 0 0 0 1 0 0 0
POINTS 1364
DATA ascii
-0.095047347 -0.19480407 0.32247797
-0.085219711 -0.19508119 0.32320055
-0.07488136 -0.19492406 0.3242695
-0.06491562 -0.19522649 0.32565522
-0.055105634 -0.19513944 0.32690549
-0.044813171 -0.19495863 0.32786709
-0.034836881 -0.19516768 0.32815108
-0.02519213 -0.19500235 0.32835057
-0.015169309 -0.19518399 0.32843331
-0.0054572611 -0.19585574 0.32920054
0.0030901262 -0.19785349 0.32965726
0.017348498 -0.19939494 0.32992631
0.021259189 -0.19881612 0.32974145
-0.15311697 -0.1809662 0.32021779
-0.14447814 -0.18433368 0.32098043
-0.13508219 -0.18520451 0.32201707
-0.12502746 -0.18529059 0.32324642
-0.11482185 -0.18502486 0.32358864
-0.10491829 -0.18493177 0.32421002
-0.094863214 -0.18490852 0.32581419
-0.084764428 -0.18520303 0.32747996
-0.07500954 -0.18514298 0.32799006
-0.065040641 -0.1848429 0.32833847
-0.054875903 -0.1856133 0.32892102
-0.04659323 -0.18552594 0.32949117
-0.035592906 -0.18884261 0.32972828
-0.023619026 -0.18652059 0.32969823
-0.014769676 -0.18659468 0.32968864
-0.006187873 -0.18628559 0.32964239
-0.1813457 -0.17080818 0.32034025
-0.17396702 -0.17150386 0.3210285
-0.16420999 -0.17261222 0.32106203
-0.15473463 -0.17446539 0.32181844
-0.14495455 -0.17483038 0.32294837
-0.13500893 -0.17496403 0.32339582
-0.12508881 -0.17492391 0.32348928
-0.11485868 -0.17484641 0.32451138
-0.10511874 -0.17473361 0.32607067
-0.09501268 -0.17493947 0.32761624
-0.085153952 -0.17477106 0.32859409
-0.074832752 -0.17508803 0.32894304
-0.064958215 -0.17464551 0.32807511
-0.055092335 -0.1753722 0.32847449
-0.047565941 -0.17514439 0.32940727
-0.19194433 -0.16084251 0.32005784
-0.1839512 -0.16408828 0.32114026
-0.17516984 -0.16505288 0.32258502
-0.16507721 -0.16519824 0.32346717
-0.15504141 -0.16499305 0.32465529
-0.14510149 -0.16509193 0.32561803
-0.13515848 -0.1648453 0.32533878
-0.12522395 -0.16512501 0.32539687
-0.11502954 -0.16493364 0.32651368
-0.10509913 -0.16479486 0.32769576
-0.09512414 -0.16496935 0.3277882
-0.084768765 -0.16487792 0.32843247
-0.07517869 -0.16614309 0.3291803
-0.065182425 -0.16665624 0.32905692
-0.054853711 -0.16692652 0.32909447
-0.048502214 -0.16628061 0.32969895
-0.22341287 -0.1511945 0.32042876
-0.21390714 -0.15178265 0.32076094
-0.20462254 -0.15375382 0.32141998
-0.19494425 -0.15466976 0.3216733
-0.18521596 -0.15516251 0.32204106
-0.17483996 -0.15508707 0.3230876
-0.16511446 -0.15494844 0.32423982
-0.15494983 -0.15488556 0.32518432
-0.14522666 -0.15493377 0.32660782
-0.1350282 -0.1552992 0.32786262
-0.12503546 -0.15517125 0.3285661
-0.11513359 -0.15534446 0.32880852
-0.10501316 -0.15589933 0.32903349
-0.095356204 -0.15642026 0.32907277
-0.086924188 -0.15762678 0.3294172
-0.23294236 -0.14356084 0.32058853
-0.22515732 -0.14500731 0.3211568
-0.21504566 -0.14541091 0.32222468
-0.20497373 -0.14491056 0.32328346
-0.19490862 -0.14492936 0.3236891
-0.18492618 -0.14482199 0.32283187
-0.17500322 -0.14482078 0.32387063
-0.16485354 -0.14482273 0.32558003
-0.15517677 -0.14515986 0.32554328
-0.14480126 -0.14479062 0.32611969
-0.13490403 -0.145377 0.32807621
-0.12650236 -0.14480238 0.32947814
-0.11790803 -0.14910614 0.32974547
-0.26167572 -0.13146918 0.32018414
-0.25962162 -0.13115275 0.32016906
-0.2414467 -0.13191915 0.32058558
-0.23478848 -0.13498949 0.32172292
-0.2250548 -0.13503386 0.32226756
-0.21504569 -0.13497466 0.32262543
-0.2049655 -0.13478652 0.32351166
-0.19506253 -0.13514869 0.32520953
-0.18502691 -0.13516785 0.32633096
-0.17524205 -0.13509892 0.32620808
-0.16499498 -0.13490535 0.32715252
-0.15496425 -0.13517751 0.32705382
-0.14517757 -0.13477689 0.32705137
-0.13516465 -0.13475476 0.32768846
-0.12566893 -0.1350963 0.32903332
-0.29199749 -0.12293835 0.32030261
-0.28525233 -0.12284659 0.3205235
-0.27465805 -0.12331009 0.32102492
-0.26491395 -0.12466075 0.32141903
-0.25538829 -0.12454227 0.32123622
-0.24495924 -0.12469014 0.32123375
-0.23507699 -0.12509398 0.32268068
-0.22482929 -0.12499937 0.32342738
-0.2148214 -0.12490723 0.32362121
-0.20505317 -0.12498521 0.32464555
-0.19501834 -0.12495212 0.32672134
-0.18508404 -0.12509087 0.32738814
-0.17496264 -0.12493888 0.32698211
-0.16492613 -0.12482105 0.32798845
-0.15575546 -0.12676294 0.32921699
-0.14465369 -0.12735249 0.32935533
-0.13498141 -0.12673932 0.32936278
-0.12628342 -0.12687302 0.32926744
-0.31690082 -0.11003591 0.32003608
-0.30864054 -0.11009461 0.32020095
-0.29217035 -0.11437592 0.32044989
-0.2849631 -0.11498657 0.32097688
-0.27487129 -0.11491977 0.32169116
-0.26488104 -0.11497778 0.32248628
-0.25497821 -0.11494264 0.32218674
-0.24502209 -0.11509261 0.32175004
-0.23493034 -0.1148929 0.32343376
-0.22512828 -0.11496204 0.32446808
-0.21509349 -0.11498275 0.32496691
-0.20493965 -0.11500114 0.32674953
-0.19510406 -0.11493436 0.32778504
-0.18498127 -0.11516513 0.32815617
-0.17496693 -0.11520628 0.32868636
-0.16630723 -0.11680253 0.32920748
-0.15936905 -0.11893328 0.32997569
-0.33293042 -0.10104288 0.32043374
-0.32462829 -0.10204635 0.32058808
-0.31440365 -0.10401494 0.3205592
-0.30507347 -0.1042791 0.32059246
-0.2948212 -0.10441616 0.32082352
-0.28487238 -0.10500921 0.32211867
-0.27498955 -0.10504317 0.32345134
-0.26492986 -0.10506504 0.3242833
-0.25486425 -0.10504826 0.32408068
-0.2447785 -0.10496951 0.32370967
-0.23508632 -0.10503686 0.32548746
-0.22509031 -0.10474041 0.3263227
-0.21503572 -0.10490508 0.32696798
-0.20537749 -0.10511065 0.3284595
-0.19476642 -0.10590015 0.32886043
-0.18512972 -0.10517251 0.32883593
-0.17727143 -0.10762436 0.32932481
-0.34244454 -0.091655977 0.32031116
-0.33459353 -0.094716989 0.32095504
-0.3250052 -0.095048308 0.32181868
-0.31504482 -0.095035806 0.32194203
-0.30494037 -0.094800562 0.32122239
-0.29507154 -0.09504129 0.32257262
-0.28510508 -0.095105231 0.32364589
-0.27499166 -0.094981216 0.32475024
-0.26493952 -0.095202483 0.32654303
-0.2549212 -0.095052078 0.32729837
-0.24508893 -0.095051445 0.32708305
-0.23504186 -0.095299363 0.32854706
-0.22549415 -0.096765421 0.32932734
-0.21481943 -0.098015912 0.32932505
-0.2076813 -0.098411195 0.32963645
-0.35174382 -0.082666002 0.32056606
-0.34469369 -0.084616996 0.3215991
-0.33504254 -0.084954761 0.3224045
-0.32506371 -0.084906422 0.32252407
-0.31502098 -0.084906541 0.32282022
-0.30506748 -0.085024066 0.32388422
-0.29513532 -0.085057408 0.32466587
-0.2850441 -0.08485157 0.32506225
-0.27496913 -0.08497294 0.32588148
-0.26515129 -0.085113414 0.32767856
-0.25512937 -0.084934622 0.32885849
-0.24522686 -0.085268646 0.32888842
-0.23607478 -0.08597219 0.3294915
-0.38385606 -0.070645645 0.3203055
-0.37736765 -0.070017666 0.32006145
-0.36330757 -0.070555344 0.32051826
-0.35369989 -0.073996134 0.32090268
-0.34513175 -0.074917294 0.32226813
-0.33504415 -0.075092718 0.32406145
-0.32488182 -0.075037614 0.32506621
-0.31495082 -0.074878566 0.32468858
-0.30508217 -0.07498771 0.32596382
-0.29500893 -0.075036816 0.32713082
-0.28503212 -0.074810803 0.32761765
-0.27514842 -0.075162269 0.32830948
-0.2656492 -0.076147087 0.32891434
-0.25629959 -0.078328572 0.3296636
-0.2476207 -0.0789003 0.32973647
-0.23848295 -0.079319581 0.32999203
-0.3836287 -0.064880505 0.32045707
-0.37457287 -0.064167418 0.32068956
-0.36508709 -0.065150082 0.32235232
-0.3550221 -0.065025166 0.32295471
-0.34501675 -0.064884961 0.32386377
-0.33504888 -0.065048464 0.32474861
-0.32502851 -0.06498909 0.32634735
-0.31502232 -0.065108545 0.32745326
-0.3049072 -0.064974025 0.32804254
-0.29567966 -0.06560456 0.32913157
-0.28494525 -0.068222918 0.32935447
-0.27669775 -0.068733476 0.32963002
-0.38336912 -0.054742165 0.32147527
-0.37491897 -0.054653902 0.32150379
-0.36493909 -0.054932129 0.32301193
-0.35499272 -0.054906595 0.32486323
-0.34503958 -0.054992169 0.32647371
-0.33500868 -0.055059709 0.32698902
-0.32508522 -0.054918364 0.32770941
-0.31506371 -0.055022441 0.32828382
-0.30505812 -0.055080913 0.32899636
-0.29586574 -0.054727215 0.32926965
-0.28982711 -0.054397203 0.32983932
-0.38384289 -0.044843607 0.32488114
-0.3750084 -0.045183029 0.32522872
-0.36502585 -0.045010936 0.32579041
-0.35522643 -0.045151178 0.32780913
-0.34514752 -0.045073237 0.32844672
-0.33523452 -0.045504484 0.32885337
-0.32576826 -0.047043718 0.32939732
-0.31578493 -0.04854054 0.32949805
-0.30633995 -0.048883408 0.32987785
-0.2958369 -0.049044866 0.32964325
-0.38446906 -0.034966197 0.32621998
-0.37489465 -0.034924984 0.3262077
-0.36493471 -0.035007946 0.32748714
-0.35546413 -0.034545362 0.32888395
-0.34490642 -0.035105709 0.32955122
-0.33851653 -0.037761737 0.32960179
-0.38418281 -0.025129655 0.32762852
-0.37524238 -0.025676778 0.32825783
-0.36506826 -0.025526909 0.32838422
-0.35536256 -0.026661579 0.32920796
-0.34746438 -0.028267981 0.32961887
-0.3848561 -0.015256557 0.32898846
-0.37684456 -0.015971728 0.3297779
-0.36749911 -0.019990921 0.3297537
-0.38479054 -0.0091626085 0.3297734
0.25763449 -0.3241556 0.33042234
0.26463383 -0.32553804 0.33070338
0.25650233 -0.31471795 0.33064014
0.26261047 -0.31622663 0.33144271
0.21593666 -0.30220932 0.33072275
0.22201471 -0.30112854 0.33049443
0.23800707 -0.30031317 0.33020556
0.24604461 -0.30288166 0.33036435
0.25487387 -0.30449548 0.33135524
0.26030716 -0.30857471 0.33157045
0.20633699 -0.29300991 0.33084562
0.21523927 -0.2955195 0.33229941
0.2248874 -0.29512545 0.33228329
0.23509046 -0.294579 0.33210173
0.24525537 -0.29517758 0.33192089
0.25303179 -0.29508877 0.3325527
0.17643142 -0.28134957 0.33031121
0.18486035 -0.28174081 0.33046755
0.19540624 -0.28157759 0.33061296
0.20498094 -0.2848824 0.33161163
0.21525633 -0.28500026 0.33353958
0.22517715 -0.28521526 0.33472836
0.23473543 -0.28481814 0.33498043
0.24471244 -0.28499678 0.33464351
0.25118038 -0.28672829 0.33410993
0.16808297 -0.2713601 0.33031312
0.17510571 -0.27450874 0.33073136
0.18491046 -0.27502367 0.33170891
0.19455065 -0.27492312 0.33254215
0.20473884 -0.2753813 0.33396769
0.21460584 -0.27502358 0.33549792
0.22498138 -0.27499792 0.33636525
0.23529154 -0.27537286 0.33617812
0.24522601 -0.27460235 0.33593348
0.14863795 -0.26097786 0.33041489
0.15659991 -0.26303101 0.3304978
0.16552202 -0.2641781 0.33075801
0.17482308 -0.26488408 0.33165294
0.18510751 -0.26503503 0.3334817
0.1954266 -0.26482484 0.33540374
0.20516218 -0.2648454 0.33671567
0.2154281 -0.26511344 0.33707497
0.22557805 -0.26533011 0.33632281
0.2350052 -0.26508522 0.33645537
0.24437933 -0.26525897 0.33787051
0.13712607 -0.2533114 0.33045426
0.14557505 -0.2545819 0.33144808
0.15503964 -0.25490311 0.33270532
0.16478777 -0.25506571 0.33318186
0.17498128 -0.2549856 0.33374256
0.18499921 -0.25497511 0.33516285
0.19491841 -0.254655 0.33687696
0.20502558 -0.25464272 0.33780271
0.21525422 -0.25482953 0.33717284
0.22481944 -0.25533646 0.33611748
0.23459446 -0.25482622 0.33699453
0.24209332 -0.25630087 0.33864659
0.068429023 -0.24021062 0.33023694
0.072049052 -0.24004349 0.33051631
0.083679572 -0.24056554 0.33023882
0.12623583 -0.24263027 0.33056197
0.13541113 -0.24515866 0.33174413
0.14520814 -0.24551786 0.33363906
0.15502864 -0.24481775 0.33580995
0.16513677 -0.24531195 0.33645761
0.1746192 -0.24477656 0.33605355
0.18495147 -0.24461181 0.33617574
0.19509983 -0.24446407 0.33720633
0.2051758 -0.2448415 0.33788115
0.2150896 -0.24493605 0.33784077
0.22493337 -0.2451569 0.33759391
0.23426919 -0.24452005 0.33832288
0.24026629 -0.24947554 0.33876115
0.066278309 -0.2351681 0.33044928
0.075060047 -0.23501407 0.33104137
0.084814616 -0.23486993 0.33118579
0.095021069 -0.23505774 0.33118498
0.10493995 -0.23419887 0.33167839
0.11531116 -0.23460679 0.33245474
0.1251006 -0.23475355 0.33326373
0.13514432 -0.23477918 0.33486825
0.14504325 -0.2352027 0.33618608
0.15549955 -0.23505682 0.33769995
0.1653927 -0.23536852 0.33844337
0.17496814 -0.23501071 0.33780935
0.18454689 -0.23475783 0.33725071
0.19506507 -0.23469508 0.33771619
0.20495522 -0.23523179 0.3387354
0.21432899 -0.23734646 0.33930925
0.22469135 -0.23846638 0.33952674
0.23001173 -0.23879036 0.33975801
0.044114757 -0.22032507 0.33041057
0.055627793 -0.22128808 0.3302708
0.065552063 -0.22417586 0.33095375
0.075069778 -0.22475922 0.33200005
0.084969029 -0.22463143 0.33260012
0.095166177 -0.22522332 0.33291712
0.10490089 -0.22450717 0.33374274
0.11469647 -0.22479025 0.33528629
0.1248088 -0.22479342 0.33685517
0.1351292 -0.22467312 0.33850491
0.14495288 -0.22527286 0.33882946
0.15487365 -0.22511652 0.33910307
0.16466099 -0.22549339 0.33948681
0.17501633 -0.2252281 0.33915001
0.1851725 -0.22463438 0.33839253
0.19498105 -0.22531345 0.33873889
0.20272249 -0.22782254 0.33951688
0.028601624 -0.21270311 0.33017194
0.035284843 -0.21422674 0.33093297
0.045273241 -0.21526425 0.33195737
0.055109844 -0.21510597 0.33246961
0.064716808 -0.21481638 0.33310395
0.07516773 -0.21476947 0.33405474
0.08534532 -0.21522062 0.33485332
0.095005132 -0.21513334 0.33530045
0.10462252 -0.21487191 0.33561724
0.11463489 -0.21474048 0.3359991
0.12481265 -0.21455126 0.33765259
0.13483101 -0.21468517 0.3392337
0.14426035 -0.21552934 0.33966428
0.15483347 -0.2153281 0.33975643
0.16539475 -0.21455443 0.33968624
0.17535804 -0.21514004 0.33961403
0.18456604 -0.21636233 0.33949214
0.19366495 -0.21866243 0.33949873
0.0085696876 -0.20047864 0.33000842
0.013792813 -0.20090079 0.33022669
0.02633463 -0.20423515 0.33038226
0.03486684 -0.20485702 0.33157858
0.044851944 -0.20486099 0.33310223
0.054828074 -0.20463736 0.3348254
0.065401696 -0.20530005 0.33644
0.074990913 -0.20470251 0.33661395
0.085016392 -0.20500015 0.33599398
0.094626956 -0.20496814 0.33593172
0.10501654 -0.20486382 0.33594918
0.11464202 -0.20499338 0.33623073
0.12492887 -0.20503503 0.33772829
0.13409528 -0.20560198 0.33926255
0.1413714 -0.20836979 0.33975047
0.16568944 -0.2078803 0.33962044
0.17257464 -0.20873405 0.33971286
-0.002370283 -0.19254823 0.33032677
0.0056019528 -0.19465873 0.330919
0.015183029 -0.19497211 0.33179906
0.024910565 -0.19444571 0.33109382
0.035080072 -0.19495015 0.33191875
0.044983588 -0.19503438 0.33368754
0.055253729 -0.19447918 0.33628979
0.064960815 -0.19513234 0.33822221
0.075022705 -0.19491751 0.33805695
0.084886767 -0.1950632 0.33677933
0.095107667 -0.194948 0.33697581
0.1049336 -0.19475344 0.3371481
0.1149006 -0.19502334 0.33691445
0.12480682 -0.19513062 0.33790773
0.13309948 -0.19499034 0.33935598
-0.042313781 -0.184182 0.33035868
-0.034812979 -0.18423963 0.33078623
-0.026128836 -0.18363684 0.33042404
-0.014905559 -0.18286772 0.33034664
-0.004231927 -0.1840031 0.33039382
0.0049586464 -0.18539333 0.33182207
0.015103523 -0.1851937 0.33369762
0.02484983 -0.18485241 0.33313191
0.035064183 -0.18504409 0.33348837
0.04496406 -0.18509364 0.33538881
0.054558054 -0.18455437 0.33720234
0.065046869 -0.18509792 0.33784026
0.074913055 -0.184599 0.33820376
0.084514864 -0.1857696 0.33840749
0.094266854 -0.18739076 0.33908367
0.10515302 -0.18787447 0.33936706
0.11518752 -0.18640183 0.33869109
0.12511466 -0.18605627 0.33878875
0.13347055 -0.18710607 0.33960614
-0.042514987 -0.17485942 0.33066055
-0.034705397 -0.17526464 0.33241668
-0.024832379 -0.1750579 0.33283034
-0.014992324 -0.17512988 0.33248416
-0.0050980812 -0.17511892 0.33230031
0.0046015084 -0.17487054 0.33280012
0.014911392 -0.17513564 0.33450744
0.02535365 -0.17522854 0.33629641
0.035054419 -0.17512204 0.33702728
0.045008149 -0.17484432 0.33781683
0.054888994 -0.17496203 0.33827725
0.064395785 -0.17572571 0.33876598
0.072546773 -0.17764299 0.33924949
0.081264049 -0.17989819 0.33976161
-0.074947722 -0.16134074 0.33054984
-0.064682819 -0.16197336 0.33061013
-0.054977536 -0.16189015 0.33069792
-0.044348709 -0.16463019 0.33080843
-0.034967516 -0.16527872 0.33307719
-0.024893934 -0.16511291 0.33482987
-0.015196553 -0.16482186 0.33440733
-0.0051151104 -0.16519505 0.33415273
0.0047043678 -0.16499917 0.33456588
0.014896138 -0.16552044 0.33581692
0.024805479 -0.16512018 0.33703437
0.03510676 -0.16465098 0.33849704
0.044443082 -0.16683421 0.33927912
0.054324206 -0.16821204 0.33940509
0.060176075 -0.16997072 0.33981842
-0.12230341 -0.15028989 0.33009586
-0.11257873 -0.15098028 0.33021751
-0.10418589 -0.15124193 0.33027467
-0.094511151 -0.15175533 0.33047441
-0.084395923 -0.15366742 0.33098152
-0.07495939 -0.15515123 0.33190674
-0.064832509 -0.15514693 0.33293667
-0.054895084 -0.15501672 0.33258462
-0.045024313 -0.15513651 0.33233804
-0.035005122 -0.1550573 0.33449239
-0.025048153 -0.15526074 0.33587515
-0.014996345 -0.1550715 0.33521783
-0.0053092032 -0.15482758 0.33419412
0.004965906 -0.15476909 0.33467469
0.014869614 -0.15499078 0.33577251
0.024959872 -0.15467031 0.33695385
0.034636352 -0.15450516 0.33845887
0.040954389 -0.15701048 0.33973277
-0.12296943 -0.14542696 0.33037388
-0.11476928 -0.14468993 0.33107015
-0.10497122 -0.14516564 0.33140141
-0.094881468 -0.14513665 0.33152387
-0.084994219 -0.1446155 0.33223337
-0.074896038 -0.14519584 0.33335125
-0.065068126 -0.14485055 0.33417037
-0.055173352 -0.14500538 0.33400032
-0.045120448 -0.14499499 0.33473027
-0.03507759 -0.1449784 0.33600256
-0.02492404 -0.14499927 0.33614722
-0.014878964 -0.14489639 0.3359428
-0.0048685684 -0.14504954 0.33676639
0.004768461 -0.14556162 0.33768103
0.014744227 -0.14616168 0.33813044
0.024414271 -0.14621654 0.3386586
0.034738455 -0.14748627 0.33923751
-0.12124163 -0.13645257 0.33018181
-0.11508314 -0.13510741 0.33150858
-0.10518021 -0.13490827 0.33218178
-0.094933175 -0.1350331 0.33250466
-0.085227869 -0.13480464 0.33399662
-0.074993916 -0.1352043 0.3353574
-0.064637035 -0.13498405 0.33529156
-0.054769218 -0.13497271 0.33473504
-0.044943731 -0.13504674 0.33584118
-0.034765407 -0.13506287 0.33720011
-0.025012732 -0.1351265 0.33764115
-0.015277386 -0.13503936 0.33848321
-0.0061176666 -0.13740847 0.3392489
0.0027023852 -0.1396454 0.33988234
-0.15381157 -0.12252957 0.33061877
-0.14522628 -0.12309758 0.33054852
-0.13482854 -0.12227621 0.33044237
-0.12365998 -0.12280523 0.33078098
-0.11506324 -0.12526305 0.33194312
-0.10493007 -0.12489641 0.33359647
-0.094863296 -0.12497884 0.33431101
-0.084783375 -0.12508717 0.33536109
-0.075081944 -0.12504593 0.3360284
-0.065226957 -0.124878 0.33615801
-0.055279721 -0.12493751 0.33621716
-0.045064062 -0.12516469 0.33689106
-0.035003193 -0.1246375 0.33819997
-0.024903607 -0.12509172 0.3389703
-0.017682018 -0.1263319 0.33963814
-0.17130396 -0.11130614 0.33023974
-0.16396737 -0.11290551 0.33068556
-0.15483923 -0.11470227 0.33170277
-0.14503892 -0.11494054 0.33220172
-0.13500178 -0.11491594 0.3320927
-0.12524068 -0.11489114 0.33303875
-0.1149983 -0.11516935 0.33480927
-0.10509601 -0.11495194 0.33570245
-0.095375724 -0.11508248 0.33574048
-0.084935516 -0.11500558 0.33619598
-0.074982181 -0.11502667 0.33662668
-0.064989924 -0.11490973 0.33698297
-0.055190437 -0.11498177 0.33796382
-0.045481667 -0.11703516 0.3387098
-0.035046134 -0.11778726 0.33947662
-0.026913369 -0.11824387 0.33971724
-0.019921035 -0.11972752 0.33965823
-0.20216632 -0.10179069 0.3303231
-0.1955936 -0.10134971 0.33032566
-0.18334098 -0.10058296 0.33031476
-0.17411675 -0.10368123 0.3312743
-0.16499366 -0.10506917 0.33273795
-0.15524688 -0.10513867 0.33454031
-0.14489841 -0.10509055 0.33592573
-0.13492644 -0.10507809 0.33592018
-0.12515435 -0.10489026 0.33537915
-0.11497248 -0.10492633 0.33652142
-0.10483465 -0.10502624 0.33757123
-0.094963051 -0.10517938 0.33786225
-0.085300788 -0.10486701 0.33817345
-0.075092368 -0.10591707 0.33863944
-0.065540954 -0.10624851 0.33861586
-0.057456043 -0.10842495 0.33952364
-0.23081821 -0.091069244 0.33032036
-0.22430094 -0.092895754 0.33054334
-0.21529773 -0.09307199 0.33081901
-0.20466855 -0.094720013 0.33139706
-0.19491866 -0.095011525 0.33245304
-0.18502806 -0.095085427 0.33273679
-0.17510135 -0.094900019 0.33366108
-0.16493022 -0.095230475 0.33464518
-0.15495864 -0.09500207 0.33549243
-0.14492314 -0.09485554 0.33693293
-0.13506573 -0.094944403 0.33782214
-0.12498287 -0.095265649 0.33740324
-0.11490995 -0.094798647 0.33777389
-0.10545509 -0.095462896 0.33895171
-0.096327722 -0.097163253 0.33963913
-0.08577466 -0.099371664 0.33986053
-0.24364589 -0.080599472 0.330219
-0.2337451 -0.083324693 0.33036017
-0.22504126 -0.085060008 0.33119693
-0.21494313 -0.084783427 0.33222929
-0.20495047 -0.084928259 0.33323514
-0.19511239 -0.085008055 0.3342714
-0.18499446 -0.085041568 0.33445758
-0.17490976 -0.084899582 0.33410269
-0.16512945 -0.084865376 0.33477017
-0.15489683 -0.084913105 0.33638132
-0.14505862 -0.084889084 0.33738256
-0.13505012 -0.084940061 0.33861506
-0.12524374 -0.085586615 0.33871964
-0.11552254 -0.085901797 0.33909956
-0.10782838 -0.086913124 0.33952358
-0.093413383 -0.087516367 0.33993
-0.27150878 -0.070507497 0.33033758
-0.26367152 -0.072196074 0.33065405
-0.25484094 -0.074154504 0.33115286
-0.24481899 -0.074624233 0.33135846
-0.23506238 -0.074886888 0.33152163
-0.22500497 -0.074890986 0.33294216
-0.21507125 -0.07491412 0.33406961
-0.20511377 -0.075083464 0.33438802
-0.19494972 -0.074986182 0.33487132
-0.18484157 -0.07502459 0.33491412
-0.17495166 -0.075153545 0.3358075
-0.16489097 -0.074907221 0.33811882
-0.15496933 -0.075099394 0.33890343
-0.1449471 -0.074956179 0.33886904
-0.1368624 -0.075883642 0.33935413
-0.1289565 -0.078503951 0.33986595
-0.29219663 -0.063223809 0.33033323
-0.28495175 -0.06342911 0.33100826
-0.27481064 -0.064501546 0.33128089
-0.26496771 -0.065100409 0.33191222
-0.25486788 -0.064971812 0.3336114
-0.2450434 -0.065037645 0.33369279
-0.23500942 -0.06500829 0.33362329
-0.22514379 -0.06486658 0.33431721
-0.2150221 -0.064990506 0.33531731
-0.20509642 -0.064974122 0.33511764
-0.19497384 -0.06475132 0.33640581
-0.18499571 -0.06500335 0.33701962
-0.17506707 -0.065062322 0.3379384
-0.16499519 -0.064820319 0.33904099
-0.15553407 -0.065749712 0.33947289
-0.14513429 -0.067366444 0.33959424
-0.13680919 -0.067885093 0.33975852
-0.30557182 -0.050835002 0.33016795
-0.29140165 -0.056380078 0.33030254
-0.2850436 -0.054879311 0.33150575
-0.27501315 -0.055086065 0.33279645
-0.26505849 -0.054939985 0.33300772
-0.25489601 -0.054909866 0.3341065
-0.24480769 -0.055017438 0.33529261
-0.23493746 -0.05496056 0.33578947
-0.22498754 -0.054905724 0.33557418
-0.21506304 -0.055194072 0.3374688
-0.20465448 -0.055592168 0.33880803
-0.19514306 -0.05494095 0.33811083
-0.18531603 -0.055132259 0.33860353
-0.17616533 -0.058004901 0.33942354
-0.16409378 -0.05849123 0.33970049
-0.15881903 -0.058013327 0.33996823
-0.35163453 -0.040630352 0.33025253
-0.34194386 -0.040747255 0.33004904
-0.33260238 -0.041053668 0.33034599
-0.32419685 -0.042950414 0.33054236
-0.31479377 -0.04407458 0.33110917
-0.30493176 -0.044628996 0.33104923
-0.29495007 -0.044412509 0.33096504
-0.2849499 -0.045004278 0.33226699
-0.27503324 -0.04495848 0.33375382
-0.26507255 -0.044966787 0.33461392
-0.25518003 -0.045046426 0.33522838
-0.24517621 -0.044926226 0.3364678
-0.2350823 -0.04495227 0.3376869
-0.22507307 -0.044983208 0.33786702
-0.21591325 -0.045169327 0.33904028
-0.20255449 -0.047883943 0.33970693
-0.19494085 -0.046945296 0.33922833
-0.18646297 -0.048181057 0.33951601
-0.35225192 -0.03727315 0.33023101
-0.34476635 -0.034762647 0.33026046
-0.3346065 -0.034696899 0.3310422
-0.32509422 -0.034988873 0.33153737
-0.31509322 -0.03506669 0.33250275
-0.30498579 -0.035069928 0.33346483
-0.29494119 -0.03484441 0.33312428
-0.28506398 -0.034964468 0.33384296
-0.27491382 -0.0350242 0.33487472
-0.2650007 -0.034958601 0.33518928
-0.25500906 -0.034944151 0.33616671
-0.24509399 -0.034930691 0.33736467
-0.23517081 -0.035062529 0.33907104
-0.22521898 -0.035382286 0.33926216
-0.21622895 -0.03652399 0.33969653
-0.37394652 -0.021531196 0.33028609
-0.36464778 -0.02081774 0.33031777
-0.35448161 -0.022182267 0.33060992
-0.34450659 -0.024365157 0.33143067
-0.33505005 -0.025063476 0.33281821
-0.32499972 -0.02482475 0.33373359
-0.31502348 -0.025107678 0.33450672
-0.30508193 -0.024972696 0.33557597
-0.29501557 -0.024844814 0.33440965
-0.28496656 -0.024914347 0.33530557
-0.2750231 -0.025043162 0.33691755
-0.26501125 -0.024952671 0.33676285
-0.25515938 -0.025337767 0.33820006
-0.24587391 -0.027338509 0.33919233
-0.23586677 -0.028146841 0.33959621
-0.22692785 -0.029047091 0.33980486
-0.38200685 -0.012015196 0.3301459
-0.37439677 -0.014608095 0.33049196
-0.36493772 -0.015039215 0.33108082
-0.35502899 -0.014951792 0.33189321
-0.34514746 -0.015012214 0.33321697
-0.33504629 -0.015040623 0.33521834
-0.32499915 -0.014905675 0.33601683
-0.31506237 -0.014918907 0.33647421
-0.30494896 -0.015024941 0.33703446
-0.29500106 -0.014960224 0.33706897
-0.2849896 -0.015037105 0.33759508
-0.2753213 -0.015258094 0.33887777
-0.26531532 -0.017302841 0.33904654
-0.2577571 -0.018510666 0.33951044
-0.38517991 -0.0045498158 0.33101451
-0.37496313 -0.0048932363 0.33133808
-0.3649379 -0.0050460151 0.33236977
-0.35493922 -0.0049376627 0.33344147
-0.34492734 -0.0050360411 0.33472386
-0.33503184 -0.0048852526 0.33578932
-0.32502866 -0.0049001295 0.33665365
-0.31507269 -0.0048840814 0.33729941
-0.30511189 -0.0050590108 0.33836696
-0.29495892 -0.0054935925 0.33926627
-0.28604558 -0.0062810075 0.33949864
-0.27672392 -0.0093057472 0.33964366
-0.39008385 0.00464842 0.33215591
-0.38492915 0.0049473615 0.33283737
-0.37500796 0.0051089972 0.33365858
-0.36498791 0.0049873297 0.33395657
-0.35499394 0.005097779 0.33492094
-0.34509975 0.0048990743 0.3368504
-0.33510906 0.005022171 0.3383956
-0.32495657 0.0050239246 0.33846185
-0.31476429 0.0042760577 0.33913532
-0.30534828 0.0049602808 0.33951145
-0.29523626 0.005507817 0.33951035
-0.28820133 0.0024246541 0.33980659
-0.39069971 0.015524801 0.33651453
-0.38496107 0.014753768 0.33623815
-0.37497094 0.015219952 0.33550596
-0.36502972 0.0149065 0.33594763
-0.35510346 0.015014184 0.33753708
-0.3449403 0.014858925 0.33820754
-0.33496299 0.015009807 0.33892059
-0.3254734 0.014344579 0.33929983
-0.31449085 0.013306544 0.33954203
-0.30589226 0.012875895 0.33975756
-0.29538959 0.011872875 0.33965036
-0.39103699 0.025187744 0.33628863
-0.3850835 0.025097646 0.33679569
-0.37499782 0.025015362 0.33589333
-0.36508194 0.024984645 0.33706349
-0.3550452 0.025086703 0.33817926
-0.34517899 0.024802484 0.33867231
-0.33505723 0.023143986 0.33923471
-0.3289561 0.022441192 0.33978808
-0.39102525 0.034730792 0.33706117
-0.38490507 0.035067834 0.3377634
-0.37558535 0.034289215 0.33864841
-0.36483875 0.033236496 0.33875051
-0.35570037 0.033104192 0.33928508
-0.34663761 0.031531546 0.33946365
-0.39109415 0.043392319 0.3379958
-0.38587502 0.042916507 0.33893111
-0.37892574 0.041261759 0.33956799
0.20884421 -0.23100284 0.34013078
0.21618374 -0.23307166 0.34077963
0.22517209 -0.23401722 0.34121811
0.23354551 -0.2346921 0.34164545
0.15237847 -0.22096613 0.34004748
0.16735883 -0.22244322 0.3402437
0.19814643 -0.22011402 0.34021655
0.20600861 -0.22398856 0.34087938
0.21486558 -0.22497636 0.3421388
0.22486906 -0.225226 0.34286565
0.23213966 -0.2248785 0.34344381
0.14622286 -0.21382406 0.34024528
0.15545748 -0.21447778 0.34023485
0.16365945 -0.2165021 0.34018138
0.17447467 -0.21469422 0.34013113
0.1857682 -0.21197326 0.34059712
0.19571528 -0.21397609 0.34079003
0.20497531 -0.21450597 0.34179223
0.21490274 -0.21529305 0.34278631
0.22494605 -0.2151559 0.34360939
0.23109634 -0.21718144 0.34390309
0.13860163 -0.20362803 0.34021953
0.14538157 -0.20487542 0.34082538
0.15501301 -0.20496328 0.34112996
0.16462882 -0.20347451 0.340909
0.17531006 -0.20456897 0.34125113
0.18506387 -0.20450532 0.34237579
0.19464739 -0.20477049 0.34259486
0.20463267 -0.20479575 0.34255737
0.21469204 -0.20497805 0.34361726
0.22408342 -0.20491704 0.34540105
0.13786338 -0.19509374 0.34056443
0.14489213 -0.19506086 0.34182635
0.1550554 -0.19518717 0.34332547
0.16492416 -0.19516313 0.34376159
0.1751004 -0.1949908 0.34426075
0.18526909 -0.19455263 0.34538877
0.19542794 -0.19526973 0.3461751
0.20497166 -0.19494018 0.34694684
0.2151701 -0.19502744 0.34746096
0.22261707 -0.19502285 0.3481859
0.079757154 -0.18023127 0.34000266
0.087619051 -0.18146315 0.34060839
0.095868297 -0.18272662 0.34057117
0.10462728 -0.18312588 0.3407059
0.11492927 -0.18153335 0.34084228
0.12624268 -0.18150964 0.34066278
0.13620991 -0.18349706 0.34118587
0.14534946 -0.18463887 0.34304526
0.15533985 -0.1844946 0.34567121
0.16507685 -0.18504944 0.34666625
0.17451458 -0.18486075 0.34653345
0.18487786 -0.18422234 0.34745413
0.19444771 -0.18627115 0.34854594
0.20388348 -0.18860617 0.34947813
0.21548842 -0.18901335 0.34979689
0.066131406 -0.1713113 0.34033769
0.075380504 -0.17417262 0.34117702
0.085086226 -0.17469355 0.3419883
0.094474934 -0.17497931 0.34114611
0.10511657 -0.17543234 0.34178826
0.11518697 -0.17506184 0.34286082
0.12518954 -0.17493759 0.34374276
0.13491151 -0.1749692 0.34494457
0.14520238 -0.17516772 0.34689531
0.1551922 -0.17487451 0.3482843
0.16512364 -0.17543715 0.34917706
0.17430444 -0.17707378 0.34922993
0.18252766 -0.17859109 0.34919479
0.046870071 -0.16245452 0.34068614
0.055518344 -0.16397102 0.341039
0.065000989 -0.16496889 0.34170198
0.075109199 -0.16535287 0.34302801
0.085004091 -0.16500485 0.34328094
0.094777912 -0.16498324 0.34253311
0.10494105 -0.16510502 0.3440069
0.11479676 -0.16499731 0.34574583
0.12485982 -0.16496781 0.34717622
0.13479899 -0.16482936 0.34783193
0.14488129 -0.16502884 0.34825191
0.15474907 -0.16462137 0.34895107
0.16383375 -0.16649911 0.34946543
0.045148659 -0.15492965 0.34101319
0.054998703 -0.15541111 0.34256133
0.064915769 -0.15492103 0.34286413
0.074631616 -0.15506342 0.34270936
0.084943764 -0.1549305 0.34270591
0.094595335 -0.15468034 0.34389418
0.10504989 -0.15491763 0.34643659
0.115251 -0.15487963 0.34824812
0.12503722 -0.15506779 0.34867749
0.13505825 -0.1550907 0.34846956
0.14448033 -0.1550511 0.34906405
0.15316494 -0.15718466 0.34965116
0.16098872 -0.15944543 0.34995207
0.007057935 -0.14088064 0.3401902
0.01502718 -0.14131543 0.34054086
0.025941219 -0.14198123 0.34078747
0.035078947 -0.1425903 0.34135816
0.045136143 -0.14511688 0.34228814
0.054744765 -0.14490606 0.34343943
0.064862534 -0.14481694 0.34294385
0.074948572 -0.14494812 0.34225127
0.084818624 -0.14454485 0.34252015
0.095188424 -0.14508577 0.34411201
0.10523253 -0.1448901 0.34649566
0.11478049 -0.14485849 0.34876642
0.12503406 -0.14645845 0.34928069
0.1349358 -0.14622085 0.34907719
0.14468305 -0.146423 0.34939566
-0.011089399 -0.13174978 0.3401494
-0.0038959344 -0.13323055 0.3411133
0.0051872991 -0.13508293 0.34167498
0.015181297 -0.13516416 0.34186649
0.024657732 -0.13501458 0.34217364
0.034801222 -0.13492769 0.34343755
0.045241848 -0.13551909 0.3451125
0.055189721 -0.13515441 0.34547603
0.064787313 -0.13494715 0.34456223
0.074735127 -0.13518384 0.34438598
0.08468128 -0.13441452 0.34488988
0.094838411 -0.13537607 0.34612826
0.10417243 -0.13562867 0.34828147
0.1111116 -0.13754195 0.3494128
-0.022718042 -0.12034577 0.34010565
-0.013514745 -0.12452895 0.34087554
-0.0048166611 -0.12509647 0.34263277
0.0048626438 -0.12496481 0.34362802
0.014756421 -0.12525216 0.3430742
0.02507801 -0.12500429 0.34289989
0.035118528 -0.12442594 0.34326559
0.045113128 -0.12540783 0.34469461
0.055121046 -0.12498616 0.34663078
0.064625531 -0.12502976 0.34760913
0.074665688 -0.12573694 0.34841976
0.084530182 -0.12729771 0.34887952
0.095010072 -0.12735224 0.34898418
0.10248265 -0.12570544 0.34974846
-0.051075082 -0.11080746 0.34031996
-0.044369884 -0.11238495 0.34086883
-0.034564633 -0.11313783 0.34092164
-0.024431812 -0.11396149 0.34097853
-0.01486454 -0.11501969 0.3417874
-0.0053450293 -0.11499001 0.3433637
0.0053056143 -0.11508761 0.34496337
0.014883663 -0.11490473 0.34482634
0.024882127 -0.11477382 0.34461287
0.034905892 -0.11518428 0.34514228
0.045022562 -0.11507311 0.34641898
0.054726738 -0.11496672 0.34785566
0.064799353 -0.1149107 0.34896871
0.07176625 -0.11681837 0.34971142
0.10712269 -0.11818063 0.34993678
-0.086940557 -0.10019992 0.34019911
-0.07452213 -0.10110603 0.34035361
-0.063845374 -0.10184325 0.34047121
-0.054555863 -0.104293 0.34154296
-0.044956025 -0.10483567 0.34273204
-0.034986757 -0.10520656 0.34222978
-0.025139352 -0.10480435 0.34301642
-0.015185183 -0.10520027 0.34440678
-0.0050081881 -0.105175 0.3466807
0.0051997546 -0.10536914 0.34856391
0.015060345 -0.10497747 0.34818289
0.024902506 -0.10504027 0.34677061
0.035184119 -0.10501064 0.34672782
0.045061015 -0.10487048 0.34802127
0.055083688 -0.10509405 0.34926108
0.063577399 -0.10440619 0.34949359
0.070589811 -0.10972594 0.34990472
-0.10207873 -0.092263103 0.3402606
-0.094132602 -0.093959577 0.34049121
-0.084867753 -0.094768666 0.3408013
-0.075002886 -0.094961807 0.34139985
-0.065057807 -0.095125288 0.34211969
-0.054890271 -0.094951905 0.34330595
-0.044862427 -0.094808005 0.34384578
-0.035167132 -0.095009863 0.34418565
-0.025150128 -0.094854042 0.34544733
-0.015259382 -0.095075853 0.34693709
-0.0049632937 -0.094987743 0.34801963
0.004878154 -0.094831683 0.34795222
0.014928824 -0.095138356 0.34815493
0.025063163 -0.094909854 0.34859553
0.03498172 -0.095292903 0.34891933
0.045158777 -0.095401525 0.34943095
0.055075448 -0.094915271 0.3493087
0.062735923 -0.096578613 0.34955394
-0.13091111 -0.081845015 0.34018847
-0.12449185 -0.080836453 0.34028551
-0.11392453 -0.081852958 0.34036195
-0.10400931 -0.084230453 0.34062231
-0.094929598 -0.084904611 0.34074685
-0.08498501 -0.085068628 0.34145069
-0.074870057 -0.084916443 0.34317663
-0.064783409 -0.084834635 0.3440913
-0.055031192 -0.084918782 0.34492776
-0.04509965 -0.085158922 0.34580719
-0.035035837 -0.0847302 0.34724057
-0.025068142 -0.084972963 0.34748238
-0.015135748 -0.084716938 0.3474786
-0.0050530164 -0.084712081 0.34762532
0.0047373772 -0.084830664 0.34803873
0.013870519 -0.087492868 0.34918815
0.02549389 -0.089466125 0.34978259
0.03432098 -0.089476652 0.34982806
0.04589586 -0.089322075 0.34981632
0.055788733 -0.088997036 0.34972864
0.061124235 -0.089484051 0.34989554
-0.13276273 -0.074056894 0.34035707
-0.12492039 -0.074919477 0.34101203
-0.11499806 -0.075005516 0.34132293
-0.10490961 -0.074853055 0.3414391
-0.095144555 -0.074907899 0.3417446
-0.08512184 -0.074953564 0.34333351
-0.074873559 -0.075075582 0.3453801
-0.0652925 -0.074878275 0.34558642
-0.055394445 -0.075016983 0.34612042
-0.045051128 -0.075256534 0.34791857
-0.036754988 -0.076371342 0.34944424
-0.023485009 -0.078661323 0.34937492
-0.015055833 -0.078051955 0.34921291
-0.005016204 -0.07788495 0.34919882
0.0031114779 -0.078253634 0.34953779
-0.15349096 -0.062490758 0.34054628
-0.14510137 -0.063010439 0.34061745
-0.13482438 -0.064254321 0.34089407
-0.12517475 -0.064992696 0.34201658
-0.11508447 -0.065000609 0.34327254
-0.10475086 -0.06504935 0.34454811
-0.095042482 -0.064862803 0.34379387
-0.08486452 -0.064792275 0.34394646
-0.074948676 -0.064936489 0.34510994
-0.064745359 -0.064911515 0.34663033
-0.054795358 -0.064888157 0.34787804
-0.04500265 -0.0650267 0.34913042
-0.037960995 -0.064722992 0.3496711
-0.2108784 -0.050902069 0.34046236
-0.20784691 -0.051498715 0.34032604
-0.18041247 -0.051603708 0.34047771
-0.17441776 -0.053609066 0.34091496
-0.1651828 -0.054134879 0.34104133
-0.15479165 -0.054917209 0.34109348
-0.1448817 -0.054962806 0.34230059
-0.13486485 -0.055081856 0.34290627
-0.12491523 -0.055045221 0.34313291
-0.11507341 -0.05476604 0.34411675
-0.10512862 -0.055214025 0.3466754
-0.095223948 -0.054977417 0.34698924
-0.085165091 -0.055191815 0.3461614
-0.074914165 -0.055026334 0.34746587
-0.065955371 -0.056890376 0.34898618
-0.054712266 -0.057986408 0.34954193
-0.046990473 -0.057776939 0.34972489
-0.039990425 -0.058452174 0.34985596
-0.21176258 -0.044202644 0.34036011
-0.20529975 -0.044492692 0.34059119
-0.19522515 -0.042392466 0.34055659
-0.18467847 -0.044137839 0.34101179
-0.17509069 -0.044939093 0.34174797
-0.16495919 -0.044967007 0.342125
-0.15499458 -0.044975929 0.3426564
-0.1449156 -0.044807401 0.34355429
-0.13502467 -0.0447165 0.34402469
-0.12500292 -0.045075983 0.34381047
-0.1149664 -0.04511727 0.34487048
-0.1052221 -0.045337599 0.34798309
-0.094412953 -0.046349205 0.34921089
-0.0850017 -0.044943158 0.3485496
-0.074870192 -0.04522251 0.34889552
-0.068398476 -0.046183083 0.3496871
-0.23356703 -0.031369686 0.34011033
-0.22391875 -0.031116197 0.34023765
-0.2142746 -0.03384741 0.34051594
-0.20494401 -0.034976613 0.34178573
-0.19502313 -0.035061378 0.34242085
-0.18500803 -0.035008486 0.34202397
-0.17479554 -0.035034761 0.34312376
-0.1650659 -0.035063993 0.34413004
-0.15511361 -0.035110202 0.34573251
-0.14519611 -0.035051279 0.34624317
-0.13498518 -0.035020407 0.34672621
-0.12500492 -0.035002146 0.34600604
-0.11511577 -0.034962572 0.34645626
-0.10656136 -0.035043117 0.34910047
-0.083041027 -0.038984839 0.34976351
-0.076540604 -0.038970672 0.3495613
-0.25189313 -0.021165563 0.34025759
-0.24418788 -0.022958705 0.34057859
-0.23461854 -0.024327908 0.34090489
-0.22480062 -0.024728449 0.34135866
-0.21510212 -0.025008027 0.34272638
-0.20515004 -0.025017291 0.3440434
-0.19499575 -0.025162546 0.34479147
-0.18503876 -0.024973003 0.34423113
-0.17525348 -0.024888666 0.34451258
-0.16506615 -0.025094921 0.34615871
-0.1549215 -0.025003342 0.34719774
-0.14509048 -0.024934204 0.34780329
-0.13506053 -0.025007129 0.34867397
-0.12532985 -0.025126541 0.3490369
-0.11508129 -0.025721399 0.34918624
-0.10823075 -0.026462836 0.34944561
-0.27218157 -0.012062761 0.34025094
-0.26467803 -0.012476227 0.34064937
-0.25471827 -0.01450458 0.34104916
-0.24501798 -0.01492075 0.34145373
-0.23494804 -0.015009961 0.34251544
-0.22491422 -0.0150551 0.34329951
-0.21482581 -0.015022955 0.34439835
-0.20495117 -0.014918282 0.34485179
-0.19502027 -0.015058064 0.34479237
-0.18493845 -0.014919388 0.34542048
-0.17501202 -0.015063317 0.34576902
-0.16498145 -0.014853688 0.3463816
-0.15475202 -0.015036479 0.34846812
-0.1457205 -0.016488705 0.34953839
-0.13392608 -0.017725078 0.34965843
-0.12510166 -0.016290635 0.34964237
-0.1159266 -0.016803717 0.34969658
-0.10925564 -0.018736608 0.34971216
-0.30067068 -0.0012958422 0.3402257
-0.29490554 -0.0019757731 0.34015572
-0.28360507 -0.0032212751 0.34045547
-0.27481237 -0.0044637029 0.34087932
-0.26502454 -0.0049845637 0.34123442
-0.25502273 -0.0049570827 0.34285319
-0.24512294 -0.0050089704 0.34369045
-0.23511836 -0.0049789231 0.34433803
-0.22500895 -0.004918999 0.34517685
-0.21501018 -0.0049644718 0.34601218
-0.20490588 -0.0049123014 0.34589219
-0.1949567 -0.0049089212 0.34543273
-0.18502332 -0.0051179738 0.34593171
-0.17499332 -0.0050580688 0.34707329
-0.16558379 -0.0057012658 0.34803319
-0.15605067 -0.0076151723 0.34912056
-0.14911735 -0.0098576993 0.34955055
-0.31615815 0.0073754964 0.34020793
-0.30432868 0.0056076678 0.34014526
-0.29452333 0.0038456267 0.34023568
-0.28456783 0.005284335 0.34138963
-0.27502847 0.0050188815 0.34254181
-0.26500455 0.0048852102 0.34272861
-0.2549684 0.0050048199 0.34450927
-0.24483824 0.0051815696 0.34513932
-0.23490159 0.0049718493 0.34589675
-0.22496703 0.0051237196 0.34723693
-0.21493356 0.0049237981 0.34837854
-0.20494804 0.0049247006 0.34885904
-0.19501029 0.0043638535 0.34877768
-0.18501116 0.0048408639 0.34842524
-0.17583525 0.0038487962 0.34897032
-0.16857162 0.0014822632 0.349738
-0.32298478 0.018375555 0.34050357
-0.31544754 0.017338883 0.34061503
-0.3047381 0.015649257 0.34089175
-0.29488432 0.016114663 0.34129533
-0.2849592 0.015094069 0.34214014
-0.27495277 0.014944968 0.34359315
-0.26508951 0.015004491 0.34517926
-0.25497973 0.014887214 0.34736028
-0.24503869 0.015015656 0.34802178
-0.23510857 0.014951212 0.34721518
-0.22511661 0.015081795 0.34739709
-0.21504521 0.01503935 0.3479737
-0.20523006 0.01504124 0.34914035
-0.19618401 0.01426706 0.34970537
-0.18497375 0.011713063 0.34969825
-0.17864403 0.011054743 0.3497287
-0.34165311 0.02856905 0.3402251
-0.33488607 0.027632717 0.34057677
-0.32482284 0.02522889 0.34126782
-0.31498978 0.02496429 0.3422085
-0.30495203 0.024885379 0.34334973
-0.29502702 0.024910957 0.34399787
-0.28509647 0.025031181 0.34538209
-0.27502698 0.024849217 0.34675661
-0.26492959 0.025019102 0.34721068
-0.25505081 0.02493258 0.34742489
-0.24507201 0.025006672 0.34842533
-0.23505536 0.024974911 0.34886798
-0.22549236 0.024289154 0.34873855
-0.21550116 0.022936538 0.3491233
-0.2067069 0.021904055 0.34959871
-0.1993335 0.020085812 0.349902
-0.37253255 0.037664451 0.34053913
-0.3652027 0.038116854 0.34078526
-0.35399556 0.037333112 0.34068608
-0.34446692 0.035798084 0.3415556
-0.33491495 0.034975354 0.34264681
-0.32504541 0.035072297 0.34323698
-0.31505901 0.035018433 0.34377491
-0.30503654 0.034964953 0.34510893
-0.29498792 0.034865815 0.3459256
-0.28505006 0.035053905 0.34628722
-0.27502587 0.034972314 0.34810665
-0.26499498 0.035015211 0.34812221
-0.25496435 0.034942549 0.34818769
-0.24583484 0.033367544 0.34913576
-0.23581992 0.031265493 0.34969595
-0.22776261 0.030178688 0.34961089
-0.38202891 0.0451064 0.34037563
-0.37446848 0.04461237 0.34162861
-0.36504954 0.045057017 0.34285897
-0.35500875 0.045032244 0.34246501
-0.34507734 0.044996448 0.3440991
-0.33507136 0.044998363 0.34573728
-0.32500109 0.045040898 0.34569374
-0.31508201 0.045043066 0.346389
-0.30505607 0.045009717 0.34677699
-0.29499495 0.045001537 0.34712529
-0.28497565 0.044964943 0.34741646
-0.27499038 0.045078833 0.3481459
-0.26512936 0.044877049 0.3483817
-0.25525859 0.044265263 0.34863696
-0.2486781 0.044258494 0.34971476
-0.36291796 0.05068038 0.34319508
-0.35432139 0.051659517 0.34361088
-0.3446323 0.052147377 0.3453528
-0.33476758 0.053413 0.34611067
-0.32477048 0.05436217 0.34713125
-0.31508964 0.055008739 0.34862095
-0.30509487 0.05503593 0.34821507
-0.29546279 0.05471224 0.34882772
-0.28524444 0.052230455 0.34913608
-0.27493224 0.052046146 0.34941822
-0.26753521 0.051461264 0.3494218
-0.31361422 0.060487945 0.34857321
-0.30403954 0.061204106 0.34873313
-0.29651642 0.06194685 0.34926024
0.22128543 -0.19046256 0.35004041
0.1958119 -0.1814362 0.35068744
0.20552586 -0.18382715 0.35149309
0.21470408 -0.18488471 0.35195613
0.22138701 -0.18524231 0.35196197
0.17613488 -0.17287983 0.35042587
0.18517655 -0.1744384 0.35153362
0.19492014 -0.17483269 0.35315043
0.20465994 -0.17466918 0.35399514
0.21488121 -0.17491442 0.3540304
0.22073212 -0.17839628 0.35412574
0.16711789 -0.16312231 0.35037908
0.17498976 -0.16498259 0.35106084
0.18499407 -0.16516095 0.35268456
0.19524179 -0.16520241 0.35414174
0.2048538 -0.16467993 0.35435271
0.21333538 -0.16536954 0.35376555
0.14864737 -0.15197001 0.35025814
0.15589568 -0.15424603 0.35051048
0.16515285 -0.15480435 0.35118607
0.17474881 -0.15435661 0.35156301
0.18523891 -0.15510379 0.35265049
0.19514386 -0.15458676 0.35401431
0.20541491 -0.15486354 0.35423756
0.21112962 -0.15592358 0.35349622
0.11812279 -0.14241454 0.35027456
0.12489891 -0.14168851 0.35062265
0.1349213 -0.14142418 0.35053962
0.14559968 -0.14231092 0.35049379
0.15506555 -0.14537264 0.35120121
0.16524981 -0.14494036 0.35308668
0.17488609 -0.14489348 0.3536329
0.18504205 -0.14505689 0.35466683
0.19518964 -0.14450073 0.35618514
0.20490149 -0.14546092 0.35666066
0.10807192 -0.131969 0.35047609
0.11565774 -0.13444638 0.35150295
0.12524603 -0.13527656 0.35233784
0.13517521 -0.13511473 0.35287583
0.14508729 -0.13540451 0.3530055
0.15511118 -0.13482925 0.35405171
0.16477837 -0.13520242 0.35523432
0.17475504 -0.13490841 0.35649285
0.18481597 -0.13512591 0.35745558
0.19524935 -0.13465434 0.35851511
0.20414865 -0.1357877 0.35903659
0.077638015 -0.12204911 0.35016865
0.085238151 -0.12237749 0.35090804
0.094455913 -0.12255861 0.35077274
0.10617472 -0.12403814 0.35043222
0.11467849 -0.12483941 0.35140151
0.12471406 -0.12516467 0.35295334
0.13514854 -0.12468494 0.35469955
0.14523947 -0.12533996 0.35557529
0.15480886 -0.12486603 0.35613337
0.16494761 -0.12498806 0.35693154
0.17490007 -0.12491325 0.35819784
0.18375602 -0.12634715 0.35923585
0.19358699 -0.12864128 0.35966414
0.20226827 -0.12973638 0.35977837
0.069524944 -0.11090001 0.35027227
0.075835258 -0.11500917 0.35066253
0.084973916 -0.11454117 0.3516725
0.09475334 -0.11524314 0.35148609
0.10453722 -0.11464007 0.35103911
0.11452203 -0.11496122 0.35216254
0.12466527 -0.11539542 0.35434651
0.13507853 -0.11465967 0.35634661
0.14525148 -0.11494254 0.35740694
0.15524757 -0.11488895 0.35781538
0.16450742 -0.11480034 0.35774058
0.1745543 -0.11495458 0.35872233
0.18092363 -0.11700497 0.35957479
0.068319336 -0.1048077 0.35037333
0.07504686 -0.10474632 0.35138005
0.085205339 -0.10504644 0.3526777
0.094948977 -0.10493983 0.35259178
0.10470738 -0.1049949 0.35304394
0.11464722 -0.10482044 0.35443538
0.12503682 -0.10566871 0.35631528
0.13499486 -0.10528407 0.35825425
0.14421989 -0.10520697 0.35956195
0.15526831 -0.10664003 0.35959446
0.1651455 -0.10617 0.35961327
0.1734643 -0.10794726 0.35974345
0.03598411 -0.090676792 0.350072
0.044973157 -0.092041075 0.35012075
0.066250093 -0.093751803 0.35082418
0.07467746 -0.09484338 0.35322204
0.085094541 -0.095330454 0.35576883
0.095051676 -0.094956987 0.35570961
0.10508765 -0.094724029 0.35487929
0.11526489 -0.09489657 0.35509893
0.1249818 -0.095384583 0.35629576
0.1350935 -0.09484227 0.35846391
0.14190233 -0.096664518 0.35974327
0.15429571 -0.098732889 0.35998121
0.016016413 -0.083357029 0.35112864
0.025291732 -0.084599242 0.35195139
0.035240877 -0.084754281 0.35176608
0.045140535 -0.084880553 0.3516686
0.054875147 -0.084554754 0.35154861
0.06486515 -0.084865592 0.3523992
0.074611805 -0.08475586 0.35488945
0.084988281 -0.084811792 0.35712925
0.095042638 -0.085427798 0.35811353
0.10459818 -0.085628547 0.3584033
0.11443697 -0.086631618 0.35820603
0.12456147 -0.085392877 0.35846624
0.13352388 -0.086143039 0.3593446
-0.033668514 -0.074141018 0.35064077
-0.02547078 -0.074283771 0.35113555
-0.015348942 -0.073305294 0.35095078
-0.0050540227 -0.073058911 0.35111877
0.0056104586 -0.07421124 0.35131469
0.015204933 -0.075338982 0.35316548
0.025028583 -0.075030819 0.35494861
0.03489935 -0.074833229 0.35417166
0.045029581 -0.075010709 0.35336444
0.0550569 -0.075338237 0.35421431
0.064602762 -0.074916258 0.3550595
0.074964441 -0.074867032 0.35587859
0.08501222 -0.074739277 0.35688752
0.09481506 -0.075124539 0.35830104
0.10274013 -0.074471071 0.3595691
0.12578811 -0.079395197 0.35987249
-0.033463046 -0.065000422 0.35062546
-0.024874007 -0.065246888 0.35185385
-0.015144953 -0.065019898 0.35260966
-0.0049410295 -0.064987972 0.35305667
0.0049970979 -0.064943612 0.35318303
0.014885136 -0.064849809 0.35373673
0.025068896 -0.064958043 0.3544144
0.034855459 -0.064661115 0.35407728
0.044542857 -0.065024972 0.35392195
0.054946337 -0.064893275 0.35525689
0.065131627 -0.064806148 0.35607594
0.075097784 -0.06494043 0.35629249
0.085014984 -0.065119572 0.35717985
0.094904363 -0.065092981 0.35855898
0.10235292 -0.065648802 0.35955074
-0.06329938 -0.053051271 0.35073349
-0.055432841 -0.053155106 0.35068288
-0.044735551 -0.054155614 0.35059649
-0.034978293 -0.054931041 0.35109809
-0.025034072 -0.055105604 0.35228899
-0.014903743 -0.05488487 0.35371506
-0.0047915783 -0.054882981 0.35471889
0.0049127764 -0.054945447 0.3545562
0.014974461 -0.054951403 0.3549172
0.025125254 -0.05503051 0.35635698
0.034806468 -0.055679217 0.35762414
0.045666672 -0.057009909 0.35782358
0.05524319 -0.056696214 0.35819876
0.065107405 -0.055714872 0.35835162
0.074830204 -0.055796366 0.35803837
0.084896579 -0.057088241 0.35844779
0.094199546 -0.057460196 0.3593584
-0.10169824 -0.040834103 0.35022154
-0.095544651 -0.041816965 0.3504917
-0.08643195 -0.040775798 0.35019124
-0.072499782 -0.040511936 0.35019618
-0.064342439 -0.044561058 0.35091436
-0.054897759 -0.045006342 0.35191533
-0.045063525 -0.044999879 0.35185981
-0.035134573 -0.04494939 0.35259482
-0.024995992 -0.045168657 0.35440519
-0.014987614 -0.044937421 0.35613906
-0.0050894716 -0.044961173 0.35639796
0.0049319314 -0.045006566 0.3559221
0.014931999 -0.044953052 0.35681248
0.0247338 -0.044840973 0.35843757
0.034612194 -0.044321019 0.35942537
0.04487966 -0.042670336 0.35915166
0.05497206 -0.043281287 0.35938722
0.062424991 -0.044793595 0.35977438
0.07169801 -0.049673282 0.35998589
-0.10202713 -0.034700122 0.35064888
-0.094749317 -0.034977932 0.35147169
-0.085041665 -0.034628972 0.35132512
-0.074861184 -0.034579244 0.35143816
-0.064939804 -0.034746375 0.35270211
-0.055109385 -0.034928255 0.35353503
-0.045064744 -0.035087898 0.3536019
-0.035101756 -0.034870356 0.35383895
-0.024873596 -0.034954224 0.35512266
-0.014694131 -0.034936938 0.35648754
