# .PCD v0.7 - Point Cloud Data file format
VERSION 0.7
FIELDS x y z
SIZE 4 4 4
TYPE F F F
COUNT 1 1 1
WIDTH 1364
HEIGHT 1
VIEWPOINT 0 0 0 1 0 0 0
POINTS 1364
DATA ascii
-0.065265924 -0.19256085 0.48583663
-0.055050034 -0.19236462 0.48256046
-0.045972977 -0.19207966 0.48037726
-0.039177515 -0.19122767 0.48012716
-0.071427643 -0.18709143 0.48897189
-0.065098293 -0.18484661 0.48688808
-0.055234104 -0.18495429 0.48320031
-0.044788718 -0.18512087 0.48092574
-0.035428539 -0.18408215 0.48059008
-0.028276522 -0.18236318 0.48022562
-0.063227348 -0.17559698 0.48832864
-0.055090845 -0.17511991 0.48572972
-0.045157865 -0.17496547 0.48370689
-0.034899388 -0.17483366 0.48159271
-0.026871152 -0.17534555 0.48038134
-0.060774252 -0.16884339 0.48912218
-0.053362794 -0.16640541 0.48859698
-0.04511274 -0.16515705 0.48689213
-0.035177376 -0.16500488 0.48348418
-0.025340043 -0.16442795 0.4807719
-0.016095493 -0.16288942 0.48019072
-0.043973111 -0.15621428 0.48844486
-0.035240758 -0.15514345 0.48664159
-0.025096763 -0.15502518 0.48385918
-0.015050015 -0.15481277 0.48080781
-0.0084629012 -0.15110697 0.48011959
-0.034209281 -0.14726129 0.48864764
-0.024678173 -0.14577895 0.48705155
-0.014969722 -0.1449803 0.4837704
-0.0071457643 -0.14420092 0.48070645
-0.021092357 -0.13621412 0.48884362
-0.014911828 -0.13494104 0.48567873
-0.0046444312 -0.13508496 0.48245972
0.0039575673 -0.13370085 0.48075917
-0.020755872 -0.129673 0.489115
-0.013503929 -0.12724069 0.48758531
-0.0049016471 -0.12518816 0.48575217
0.0054815426 -0.12484827 0.48184597
0.013179667 -0.12302251 0.48035571
-0.011233401 -0.11362782 0.48902103
-0.0046352521 -0.1147817 0.48717192
0.0053025056 -0.11503393 0.48434323
0.015575884 -0.11500669 0.48246568
0.023653317 -0.11358608 0.48096967
-0.0032388498 -0.10832001 0.48868245
0.0058546504 -0.10550611 0.48732021
0.015489512 -0.10502066 0.48440763
0.025395744 -0.10498332 0.48169544
0.031027382 -0.10095603 0.48011014
0.0090711778 -0.097380161 0.48847264
0.015475629 -0.095125727 0.4864572
0.025618449 -0.095039606 0.48312446
0.034872834 -0.093507633 0.4816182
0.04366143 -0.092440024 0.48053724
0.016540783 -0.085625343 0.48841232
0.024471261 -0.085221745 0.48693481
0.034570571 -0.08489769 0.48469159
0.044739351 -0.084890544 0.48144999
0.054708105 -0.081800789 0.48010668
0.017555136 -0.078565501 0.48900533
0.025134912 -0.076140538 0.48839921
0.034597062 -0.074954763 0.48630801
0.044800688 -0.074980885 0.48344791
0.054974925 -0.075148135 0.48111928
0.061652958 -0.072656214 0.48010495
0.029053709 -0.069002047 0.48910362
0.034881938 -0.065077908 0.48725042
0.044583436 -0.064542711 0.4844155
0.055073038 -0.065216392 0.48213121
0.063152112 -0.064886227 0.48028526
0.036336232 -0.055837125 0.4884088
0.044804167 -0.054690339 0.48681971
0.054608062 -0.055061735 0.48383257
0.064416416 -0.055080239 0.4813078
0.073014162 -0.052003801 0.48027745
0.046251092 -0.047882255 0.48864967
0.055650201 -0.045531712 0.48697427
0.064596705 -0.04525109 0.48380098
0.074643314 -0.045116007 0.48125118
0.081735067 -0.041503318 0.48024192
0.058834195 -0.038120881 0.48893127
0.065445498 -0.035400409 0.48671409
0.07483077 -0.035391901 0.48369139
0.084576502 -0.035033967 0.48187193
0.093498386 -0.032475404 0.48075125
0.067755498 -0.026096269 0.48843929
0.075171486 -0.025404738 0.48590809
0.084859014 -0.025268868 0.48325217
0.095019586 -0.025204271 0.48150176
0.10163838 -0.024336895 0.48027241
0.069923103 -0.019187994 0.48909426
0.075856209 -0.01569094 0.4873744
0.084985763 -0.015191446 0.48398426
0.095213525 -0.015111233 0.48138559
0.10148313 -0.013191837 0.48009363
0.078075871 -0.0083200419 0.48847678
0.085470796 -0.0052990005 0.48669484
0.095084958 -0.005077498 0.48391998
0.10436673 -0.0047217179 0.48143095
0.11248236 -0.0029005406 0.48017505
0.087952659 0.0017702929 0.48863581
0.095413603 0.0047621983 0.4872438
0.10514259 0.005101284 0.48409006
0.11441907 0.00519564 0.48102453
0.12298366 0.0079971449 0.48008981
0.097583853 0.012819667 0.48890075
0.10516907 0.01482162 0.48700988
0.11489301 0.015281852 0.48360279
0.12480316 0.015068577 0.4815571
0.13394678 0.016038658 0.48033324
0.1405981 0.018403878 0.48008794
0.10784085 0.023641085 0.48850733
0.11500277 0.025182618 0.48661625
0.12495026 0.025378294 0.48372406
0.13487668 0.025129853 0.4816021
0.14289483 0.025758136 0.48043641
0.11756381 0.034396384 0.48852876
0.12522027 0.035091326 0.48547831
0.13511044 0.03541325 0.48305392
0.14485605 0.035261098 0.48156074
0.152132 0.037304737 0.48048431
0.11903287 0.040823769 0.48883301
0.12580702 0.044219971 0.48778453
0.13529691 0.045211151 0.48469436
0.14532694 0.045373119 0.48289496
0.15346344 0.04516913 0.48072863
0.12846941 0.052209411 0.48831162
0.13522239 0.054506082 0.48622805
0.14517623 0.055016041 0.48392817
0.15451838 0.055629723 0.48141405
0.16140828 0.058273397 0.48008022
0.13800573 0.061832905 0.48838675
0.14524163 0.064623408 0.48680884
0.15485463 0.064881556 0.48361859
0.16462393 0.065617368 0.4813244
0.17178066 0.068211295 0.48016176
0.1474389 0.072384097 0.4885771
0.1551944 0.074945271 0.48726788
0.1650776 0.074924245 0.48448318
0.17453218 0.075570211 0.4813315
0.18151397 0.078668132 0.48020148
0.1570407 0.084146239 0.48844638
0.16501713 0.085118316 0.48616302
0.17470175 0.084712662 0.48359084
0.18477733 0.085368387 0.48173606
0.19282353 0.087888755 0.48040813
0.1586863 0.09001971 0.48907375
0.16571344 0.092364438 0.48857343
0.17550176 0.094861455 0.4869636
0.18495955 0.094773486 0.48402712
0.19478358 0.095145434 0.48180658
0.20360123 0.097751401 0.48043016
0.17546751 0.10470003 0.4881784
0.18491186 0.10470325 0.48568413
0.1948179 0.10481754 0.4836598
0.20467074 0.10531768 0.48144647
0.17764817 0.11176008 0.48878399
0.18475963 0.11392073 0.48801178
0.1944558 0.1125557 0.48510009
0.20330393 0.11167369 0.48192024
-0.12088361 -0.19880015 0.49912715
-0.11375295 -0.19531444 0.49777374
-0.10470995 -0.19394855 0.49631935
-0.095110841 -0.19474725 0.4953343
-0.085454099 -0.19402164 0.49297461
-0.078135081 -0.19239157 0.49042073
-0.10333706 -0.1863606 0.49839765
-0.095057875 -0.18509322 0.4966076
-0.085445583 -0.18501329 0.49389291
-0.076224282 -0.18440047 0.49087027
-0.10089976 -0.17707665 0.49912313
-0.095172659 -0.17510349 0.49792284
-0.084959202 -0.17470153 0.49492604
-0.074929647 -0.17503656 0.4919135
-0.067734919 -0.17382288 0.49044308
-0.094073296 -0.16541073 0.4982709
-0.085249662 -0.16469526 0.49651143
-0.075276107 -0.16491525 0.49443153
-0.065373853 -0.16482385 0.49151525
-0.056494102 -0.16289645 0.49019796
-0.091747276 -0.15830776 0.49884674
-0.084370084 -0.15702574 0.49811935
-0.074842952 -0.15508303 0.49694723
-0.064829975 -0.15516478 0.49420419
-0.054961149 -0.15483209 0.49173909
-0.046738658 -0.15241368 0.49036917
-0.072855718 -0.14559764 0.49845055
-0.065154038 -0.14524624 0.49651009
-0.055144437 -0.14476548 0.49456364
-0.045088083 -0.14499034 0.49170381
-0.036250681 -0.14292622 0.49038208
-0.027197015 -0.1410633 0.49011719
-0.070707008 -0.13884352 0.49911591
-0.064021714 -0.13582151 0.49799293
-0.054883868 -0.13481602 0.49580508
-0.044760682 -0.13526814 0.49322516
-0.035021354 -0.13496795 0.49213359
-0.026232567 -0.13465789 0.49090421
-0.06124305 -0.12838376 0.49898902
-0.054571215 -0.12529096 0.49789348
-0.04502178 -0.12504251 0.49609947
-0.035058569 -0.12505595 0.49390334
-0.025282791 -0.12489629 0.49169204
-0.016275302 -0.12355968 0.49050775
-0.052135058 -0.11896652 0.49911222
-0.044334814 -0.11584647 0.49831626
-0.034732353 -0.11524647 0.49612725
-0.0247989 -0.11484469 0.49321908
-0.015841719 -0.11560851 0.4905839
-0.033997137 -0.10553111 0.49762845
-0.0248098 -0.10479058 0.49479407
-0.015266337 -0.10513142 0.49243379
-0.0052482211 -0.10414866 0.49103001
0.0019180747 -0.10180612 0.49023473
-0.032703295 -0.096301556 0.4983893
-0.024966696 -0.094688781 0.49655411
-0.015075468 -0.09514036 0.49420649
-0.0048278896 -0.095211051 0.4925459
0.0047785845 -0.094395548 0.49090454
0.011196222 -0.090261437 0.4901076
-0.023861 -0.08711043 0.49831459
-0.015319527 -0.085128598 0.49618068
-0.0048417808 -0.085155591 0.49391884
0.0054490319 -0.084764153 0.49163759
0.012219826 -0.083990134 0.49010628
-0.01347527 -0.077132553 0.4982422
-0.0047118333 -0.075771205 0.49754503
0.0054114233 -0.075054355 0.49489811
0.014536241 -0.074039385 0.49154437
0.022323433 -0.072157308 0.49018103
-0.00098047673 -0.069762543 0.49910319
0.0058814115 -0.065955348 0.49817759
0.01460852 -0.064777404 0.49522564
0.024438608 -0.06518814 0.4915247
0.030392721 -0.062103909 0.4901022
0.0082354723 -0.05514593 0.49910048
0.01446134 -0.054668255 0.49682617
0.024886901 -0.05522339 0.49282652
0.032396466 -0.05356691 0.49022052
0.0087937787 -0.048908412 0.49909914
0.015799718 -0.045980889 0.49800342
0.024898009 -0.045311976 0.49547374
0.035019659 -0.045016419 0.49225512
0.044569153 -0.043409362 0.4905532
0.052847337 -0.041276276 0.49009845
0.018694907 -0.037039462 0.49899691
0.024999917 -0.035105851 0.49748728
0.035199493 -0.034912802 0.49478421
0.045293216 -0.034726441 0.49212822
0.055042833 -0.034254752 0.49073496
0.06161968 -0.031130174 0.49009651
0.026699828 -0.028690891 0.49884537
0.036314666 -0.026152009 0.49780932
0.045476932 -0.024522388 0.49512565
0.055443935 -0.02491192 0.49216411
0.063246168 -0.024360066 0.49038091
0.038769633 -0.018278208 0.49909347
0.0449722 -0.015253192 0.49741292
0.05463418 -0.015281184 0.49383083
0.064483486 -0.015427549 0.4914684
0.071170837 -0.01307766 0.49024683
0.047029197 -0.0055704219 0.49833345
0.054711249 -0.005206448 0.49595061
0.064819872 -0.005185578 0.49402863
0.074166931 -0.0045660869 0.49153575
0.081157394 -0.001522136 0.49009085
0.048761178 0.001055356 0.49908975
0.055483822 0.002341473 0.49830392
0.0654139 0.0049640476 0.4970237
0.075104393 0.0051319944 0.49380818
0.084309168 0.0056925793 0.4907932
0.091566369 0.0090584094 0.49008894
0.066384882 0.015002947 0.49763268
0.075326107 0.014919356 0.49473655
0.0851219 0.015395604 0.49207193
0.094171546 0.016173011 0.4905251
0.10174072 0.019489627 0.49008697
0.067085609 0.022892708 0.49775231
0.075143963 0.024503104 0.4967128
0.08504311 0.025283173 0.49644923
0.095029049 0.025109125 0.49394771
0.10360684 0.025741767 0.49091068
0.086387314 0.034738459 0.49861696
0.094865151 0.034944896 0.49599004
0.10506123 0.03467812 0.4921813
0.11322806 0.03561997 0.4904173
0.087922722 0.042204078 0.49899119
0.095722668 0.044307217 0.49776927
0.10514276 0.045065511 0.49483195
0.11474535 0.045061924 0.49150392
0.12213396 0.047517989 0.49039418
0.098680891 0.050912566 0.49888054
0.10504954 0.054825984 0.49738491
0.11518697 0.05500038 0.49435583
0.12431061 0.055615406 0.49159804
0.13111317 0.058653217 0.49024627
0.10732596 0.062015578 0.49853998
0.11484546 0.064706251 0.49692652
0.12509514 0.065274142 0.49414474
0.13452157 0.065518282 0.4913075
0.14130723 0.068872221 0.4900777
0.11692191 0.073736772 0.49869698
0.12494701 0.075053342 0.49643978
0.13494004 0.074935749 0.49326745
0.14431106 0.075977601 0.49043992
0.15111892 0.07953807 0.49007571
0.11957338 0.080780461 0.49907488
0.12574328 0.08478687 0.49771997
0.13510966 0.08467117 0.49440777
0.14482576 0.085045099 0.49142838
0.15242416 0.085739084 0.49015787
0.12799004 0.091940917 0.4985013
0.13557407 0.093998492 0.49745545
0.14505212 0.094926268 0.49431452
0.15498118 0.095184125 0.49120694
0.1649034 0.09693943 0.49047247
0.17116906 0.098523378 0.49007225
0.1458706 0.10450522 0.49744794
0.15488288 0.10529453 0.49418917
0.16537765 0.10492999 0.49133548
0.17135164 0.10428269 0.49007106
0.14725085 0.11220039 0.49885473
0.15551947 0.11441947 0.49688682
0.16504042 0.11500023 0.49434006
0.17434725 0.11580157 0.49141499
0.18044709 0.11868141 0.49006832
0.1580234 0.12291362 0.498667
0.16469166 0.12417132 0.49740717
0.17425105 0.12256883 0.49316117
0.18012702 0.12092113 0.49006784
0.20715372 0.17821687 0.49780673
0.21135013 0.17779547 0.49880689
0.20229921 0.1811277 0.49865603
0.2116822 0.1801296 0.49805641
-0.15487061 -0.20119236 0.50762701
-0.14611727 -0.20083968 0.50562704
-0.13775611 -0.2005935 0.50362718
-0.15229565 -0.19697002 0.50865561
-0.14484707 -0.1951147 0.50734258
-0.13492279 -0.19521396 0.50509596
-0.12509674 -0.19477434 0.50286824
-0.11692614 -0.19244686 0.50094408
-0.15056042 -0.18882555 0.50912452
-0.14467478 -0.18625222 0.50859785
-0.13518101 -0.1846085 0.5075475
-0.12479054 -0.18505338 0.50560766
-0.11454209 -0.18513671 0.50273162
-0.10662436 -0.18371743 0.50049943
-0.13312195 -0.17659464 0.5088411
-0.12489931 -0.17495993 0.50747931
-0.11506129 -0.17491414 0.50441062
-0.1054787 -0.17490579 0.50088727
-0.099578582 -0.17046626 0.50012177
-0.13061914 -0.16954727 0.509121
-0.12389406 -0.16678146 0.5087992
-0.11552885 -0.16510752 0.50715673
-0.10539613 -0.16514581 0.50269949
-0.098603636 -0.16343643 0.500238
-0.11412941 -0.1554524 0.50784922
-0.10480135 -0.15483052 0.50466394
-0.095383912 -0.154293 0.50162804
-0.086132437 -0.15245906 0.5007391
-0.079989888 -0.15152885 0.50011832
-0.11214639 -0.14873667 0.50899214
-0.10447562 -0.14533462 0.50733232
-0.09514831 -0.14489116 0.50429523
-0.085026458 -0.14496966 0.50204802
-0.077560045 -0.14433894 0.50027686
-0.10222373 -0.1368053 0.50880235
-0.094840035 -0.13514854 0.50691819
-0.084902778 -0.1353306 0.50374389
-0.075083248 -0.13489787 0.50173336
-0.068351701 -0.13281807 0.50031471
-0.092379898 -0.12838346 0.50884062
-0.084684193 -0.12550539 0.50724494
-0.075220898 -0.12501182 0.50433713
-0.065338723 -0.1245264 0.50139642
-0.058225054 -0.12170827 0.50011271
-0.08165516 -0.11773907 0.50866699
-0.074515305 -0.11566957 0.50692928
-0.064991027 -0.11478513 0.50435185
-0.055359073 -0.1148156 0.50150025
-0.047068253 -0.11224017 0.50027752
-0.071931802 -0.10569227 0.50863296
-0.065129176 -0.10487072 0.50635916
-0.054935262 -0.10528908 0.50384367
-0.044897895 -0.10488956 0.50193101
-0.039071638 -0.10385919 0.50010937
-0.070795879 -0.097752929 0.50910759
-0.064931586 -0.095136128 0.507927
-0.055081256 -0.095213287 0.50583756
-0.045008529 -0.094635002 0.50316101
-0.037225202 -0.093978994 0.50090164
-0.062497325 -0.088037893 0.50888354
-0.05449485 -0.085263498 0.50798988
-0.045143358 -0.084581897 0.50672591
-0.035042044 -0.085345648 0.50363803
-0.026091412 -0.083198152 0.5010429
-0.051519293 -0.079139426 0.50910413
-0.043361634 -0.075875357 0.50842786
-0.034629174 -0.075284183 0.50612187
-0.025278589 -0.074859537 0.50271094
-0.016453803 -0.072955847 0.50061649
-0.0068591861 -0.071208559 0.50010335
-0.041313596 -0.065852106 0.50865161
-0.03471598 -0.064823367 0.50633371
-0.024872882 -0.064866982 0.5042851
-0.014771424 -0.065001741 0.50261217
-0.0050408728 -0.065336056 0.50129575
0.0023641123 -0.063142814 0.50022691
-0.040219631 -0.059196789 0.50910026
-0.033864569 -0.056172714 0.5080089
-0.02459079 -0.055181306 0.50564981
-0.014807435 -0.055289414 0.50383216
-0.0049249735 -0.055124275 0.50230312
0.0037756669 -0.054800913 0.50048113
-0.030913707 -0.049890045 0.50909859
-0.023766905 -0.046583038 0.50807369
-0.014904862 -0.045057122 0.5071336
-0.0049497094 -0.044811685 0.50437921
0.0048342017 -0.044482812 0.50162548
0.012080077 -0.042900119 0.50028545
-0.013233406 -0.037589103 0.50880229
-0.0048908577 -0.035197146 0.50713247
0.0049281605 -0.034917146 0.5041371
0.013958963 -0.035015758 0.50098532
-0.0030626454 -0.025863763 0.50860697
0.0049532554 -0.025168644 0.50664777
0.014771428 -0.024991583 0.5031569
0.024812516 -0.023990162 0.50120997
0.033576649 -0.022211876 0.50033218
-0.0013712072 -0.0178336 0.50909263
0.0053817299 -0.015255987 0.50790483
0.014852172 -0.015220679 0.50584233
0.025320996 -0.01515999 0.50386053
0.03484885 -0.014947615 0.50139064
0.040588424 -0.012655538 0.50009233
0.0089687584 -0.0086745312 0.50909096
0.015572501 -0.0057087829 0.50778145
0.025255069 -0.0054390365 0.50554234
0.034953911 -0.0051486245 0.50310808
0.042135391 -0.0049013393 0.5006392
0.017209599 0.0024502266 0.50866777
0.02521923 0.0048247371 0.50760859
0.034647606 0.0052566333 0.50560421
0.044678789 0.0054225251 0.50192481
0.054836806 0.0074170027 0.50069976
0.061482951 0.0093291868 0.50008827
0.028245281 0.011268457 0.50908726
0.035685178 0.0146782 0.50842011
0.045203079 0.01515398 0.50553322
0.055367731 0.015044776 0.50192636
0.061591551 0.014661897 0.5000872
0.038798094 0.022491112 0.50897413
0.045543026 0.024923569 0.50701934
0.055403616 0.024834765 0.50360125
0.063556254 0.026415616 0.50111425
0.070841514 0.029354449 0.5000844
0.047710858 0.032386377 0.50853783
0.055115048 0.034852568 0.50706297
0.064855151 0.034878328 0.50435102
0.075050257 0.035165682 0.5012123
0.081804477 0.03615972 0.50008321
0.057778005 0.044143885 0.50856107
0.065062433 0.044898108 0.50597179
0.074984148 0.045068804 0.50252956
0.084580258 0.045743052 0.50059253
0.092552423 0.048128698 0.50008094
0.059486207 0.051154111 0.50907975
0.065727107 0.054770499 0.50778502
0.075233907 0.054624669 0.50565618
0.085032277 0.055096295 0.50385922
0.094390661 0.055297535 0.50145239
0.10055102 0.058413558 0.50007904
0.067048892 0.06312371 0.50873262
0.074860364 0.065102026 0.50757736
0.084722161 0.065113947 0.50599265
0.094992697 0.06506519 0.50352401
0.10439093 0.065836318 0.50088602
0.11067177 0.069841228 0.50007689
0.076955765 0.072764613 0.50885344
0.085491844 0.074635305 0.50790256
0.095545158 0.074840002 0.50556713
0.10502993 0.075013921 0.5020591
0.11310635 0.076286048 0.50014973
0.087847032 0.081290163 0.50907415
0.095204458 0.08416231 0.50815368
0.10479078 0.084896058 0.50453937
0.11514207 0.08503668 0.50158989
0.12158069 0.087709814 0.5001846
0.09862268 0.094182692 0.50891787
0.10510847 0.094932623 0.50710571
0.11469229 0.095085286 0.50418848
0.1239451 0.095436975 0.50118059
0.133329 0.09837231 0.50015497
0.10663927 0.10410368 0.50828606
0.11526851 0.10501873 0.50594485
0.12543543 0.10508256 0.50379586
0.13509598 0.10510278 0.50172025
0.1413604 0.1066709 0.50006998
0.10867418 0.1109827 0.50906849
0.11558266 0.1139698 0.50761914
0.12519953 0.11528172 0.50506794
0.13560617 0.11503156 0.5023393
0.14461918 0.11611301 0.50091922
0.15167704 0.11842507 0.50006783
0.11825385 0.12056275 0.50881678
0.12573634 0.12454942 0.5068962
0.13493761 0.12512077 0.50397533
0.14497231 0.1255655 0.50354856
0.15405214 0.12585072 0.50119978
0.16029593 0.12991796 0.50006562
0.12747599 0.13272133 0.50843292
0.13515541 0.13431582 0.50753939
0.14487645 0.13544738 0.50661993
0.15304533 0.13396737 0.50446469
0.13887075 0.14536048 0.50906211
0.14460245 0.14488563 0.50764126
0.15123172 0.14274789 0.50720567
0.13925037 0.15086833 0.50906098
0.14284214 0.15045352 0.50766116
0.19968495 0.17953913 0.50555634
0.20521952 0.1761367 0.50397545
0.19660711 0.18252565 0.50557292
0.20104474 0.18065663 0.50072271
0.21769781 0.18120576 0.50330633
-0.20096311 -0.20541532 0.51912701
-0.19464986 -0.20344904 0.51847458
-0.18514571 -0.20238611 0.51659095
-0.17527764 -0.20169663 0.51389939
-0.16502927 -0.20141096 0.51069832
-0.1588482 -0.20051964 0.51012683
-0.19170015 -0.19954066 0.519126
-0.18419316 -0.19603263 0.51858693
-0.17493832 -0.19502844 0.51694506
-0.16514522 -0.19565529 0.51400298
-0.15628293 -0.1943936 0.51099741
-0.17316209 -0.18690309 0.51871467
-0.16503502 -0.18470834 0.51641983
-0.15497674 -0.18476436 0.51212364
-0.14633559 -0.18199506 0.51047623
-0.16436613 -0.17528868 0.5186621
-0.15537226 -0.17531759 0.51657778
-0.14503442 -0.17508516 0.51290524
-0.13683791 -0.17308642 0.51041335
-0.16319045 -0.16603614 0.51861966
-0.15489735 -0.16513696 0.51770997
-0.1448233 -0.16476627 0.51657432
-0.13505238 -0.16520961 0.51256442
-0.12684642 -0.16340092 0.51037902
-0.15381426 -0.15752211 0.51907259
-0.14471321 -0.15572987 0.51839697
-0.13479914 -0.15500145 0.51534218
-0.12469029 -0.15477233 0.51145732
-0.11855467 -0.15222967 0.51011771
-0.14190051 -0.14566968 0.51911598
-0.13556603 -0.14473453 0.51755232
-0.12516232 -0.14498736 0.51427978
-0.11572292 -0.1446269 0.51135141
-0.10880233 -0.14190555 0.51011586
-0.1333658 -0.13569582 0.51887882
-0.12470926 -0.13499573 0.51658785
-0.11480626 -0.13514622 0.51275253
-0.10641494 -0.13405047 0.51051909
-0.098907292 -0.13124843 0.51011389
-0.13132282 -0.12797387 0.51911259
-0.12458461 -0.12485223 0.51834273
-0.11497732 -0.1248301 0.51511222
-0.10486713 -0.12511267 0.51211238
-0.095620103 -0.12459653 0.51089031
-0.088724315 -0.12151871 0.5102787
-0.12221923 -0.11692844 0.51911056
-0.11503829 -0.115307 0.51861024
-0.10514372 -0.11480872 0.51621217
-0.095163628 -0.11536968 0.51372468
-0.085479483 -0.11437394 0.51116937
-0.078424945 -0.1115757 0.51031029
-0.1114981 -0.10838947 0.51910907
-0.10451709 -0.10507788 0.51848841
-0.094677761 -0.10515226 0.51607287
-0.084898397 -0.10480233 0.51305211
-0.076586887 -0.10474919 0.51043236
-0.10364338 -0.095690116 0.51883817
-0.095013328 -0.0947574 0.51721758
-0.084849447 -0.095084876 0.51460677
-0.075424612 -0.094738722 0.51133764
-0.069603093 -0.091950521 0.51010644
-0.10110608 -0.088377833 0.51910514
-0.093978852 -0.086350396 0.51872987
-0.085289486 -0.085024431 0.51746672
-0.075230487 -0.084833369 0.51375937
-0.065831907 -0.084303275 0.5106827
-0.057947807 -0.080960281 0.51010442
-0.083075561 -0.077067785 0.51901978
-0.074491724 -0.075197026 0.51716179
-0.064694084 -0.075106747 0.51338881
-0.055205598 -0.074630976 0.5113067
-0.047932811 -0.073365197 0.51034111
-0.073474452 -0.065042138 0.51860094
-0.065014884 -0.064706564 0.51594019
-0.055431549 -0.064833425 0.51329726
-0.046510227 -0.064814292 0.51072037
-0.072469227 -0.057310883 0.51886857
-0.064939745 -0.055332374 0.51809889
-0.054986484 -0.054913744 0.51567537
-0.044863231 -0.055007368 0.51261669
-0.037031744 -0.052538306 0.51094902
-0.061795544 -0.049063832 0.51909786
-0.054403353 -0.046241179 0.51812059
-0.04491625 -0.044885553 0.5163089
-0.035116721 -0.045141708 0.51329362
-0.027019775 -0.042808756 0.5108363
-0.043011442 -0.03520567 0.51896644
-0.035426646 -0.035113942 0.51666683
-0.025108397 -0.034833238 0.51258004
-0.015755676 -0.03337888 0.51050574
-0.0096618291 -0.030671824 0.51009512
-0.042559955 -0.02724435 0.51909381
-0.034820538 -0.025191758 0.51793015
-0.02488667 -0.025087692 0.51547831
-0.015051417 -0.024767028 0.51201218
-0.0079422882 -0.024179509 0.51013553
-0.030166272 -0.019691207 0.5190925
-0.023107229 -0.016857676 0.51859206
-0.015148744 -0.014826491 0.51519889
-0.0056111584 -0.014196522 0.5113464
0.0024926011 -0.010856479 0.5100913
-0.020677911 -0.0013902483 0.51908898
-0.015222603 -0.0047666295 0.51778358
-0.005041393 -0.0047254744 0.51348275
0.0049104118 -0.0046168077 0.51075673
0.010910314 -0.0030670932 0.51008987
-0.02067806 0.0019987402 0.51908827
-0.014745623 0.0035767183 0.51825458
-0.0050613857 0.0046852711 0.51560587
0.0050097709 0.004655363 0.51247597
0.014180479 0.0063462057 0.51090199
0.021862505 0.0090701915 0.51008767
-0.0030163093 0.013923218 0.51850277
0.0050455555 0.01480182 0.5162468
0.014940018 0.015211661 0.5136379
0.02486743 0.015485099 0.51093739
0.031509675 0.017587908 0.51008606
-0.00079684827 0.02142982 0.51908469
0.0058318526 0.024424089 0.51841754
0.015134524 0.024875788 0.51553082
0.02509471 0.024740035 0.51269674
0.03448128 0.025596499 0.51065052
0.041398894 0.029496402 0.51008385
0.0083285663 0.032630607 0.51898259
0.015402135 0.0348958 0.51745921
0.025193363 0.034921914 0.51474309
0.034957457 0.035225973 0.5120998
0.044321783 0.035999391 0.51072353
0.050811935 0.038199794 0.51008224
0.018333836 0.043135218 0.51886642
0.025385624 0.045113236 0.51695532
0.035228964 0.044944759 0.51406252
0.045146372 0.044791874 0.5123257
0.053152833 0.045483373 0.51065224
0.027474245 0.052120034 0.51869434
0.035230521 0.054267164 0.5174973
0.044873528 0.054885637 0.51501322
0.054856569 0.055141225 0.51177382
0.061201364 0.057648741 0.51007849
0.037745379 0.064019807 0.5190767
0.044703655 0.065172888 0.51695806
0.055200197 0.064891808 0.51255906
0.063571833 0.066277951 0.51026201
0.038965095 0.071136735 0.51907533
0.045586064 0.074769698 0.51797259
0.055138487 0.074509948 0.51532501
0.064695098 0.075239137 0.51232058
0.073909976 0.076363862 0.51036441
0.081914395 0.078896455 0.51007456
0.048197724 0.083070703 0.51889658
0.055141564 0.084871702 0.51709133
0.064717606 0.085177772 0.51437122
0.075163968 0.084838852 0.51175195
0.084680766 0.085247196 0.51029563
0.092186414 0.088554546 0.51007277
0.056305256 0.093492545 0.5184173
0.065081008 0.095086813 0.51658887
0.075169787 0.094504908 0.51426357
0.08474496 0.095163681 0.51200241
0.093763031 0.095520675 0.51037383
0.066501148 0.10236792 0.51886952
0.074766248 0.10467455 0.51766914
0.085163206 0.10524111 0.51505065
0.095351182 0.10504695 0.51251584
0.10309311 0.10661674 0.51059312
0.075694643 0.11484372 0.5185765
0.084771499 0.11499852 0.51704878
0.094862781 0.11515351 0.5156129
0.10459417 0.11518879 0.51195848
0.1114502 0.11751928 0.51015818
0.077923395 0.12274457 0.51898223
0.085295185 0.12470973 0.5184375
0.094773225 0.12478273 0.51665461
0.10494797 0.12501125 0.51380241
0.11483403 0.12506475 0.51112354
0.12137536 0.12768592 0.51006544
0.088441715 0.13078512 0.51906419
0.09612336 0.13370541 0.51828879
0.10526865 0.13471654 0.51583284
0.1151278 0.13469139 0.51299232
0.12372967 0.13641815 0.5108586
0.1323646 0.13867612 0.51006335
0.099963821 0.14095259 0.51906228
0.10591262 0.14443819 0.5185737
0.11487144 0.14502937 0.51640713
0.12507865 0.1452065 0.51306188
0.13457032 0.14505871 0.51048052
0.10757473 0.15192568 0.51872689
0.11515901 0.15196188 0.51731032
0.12492529 0.15161066 0.5136106
0.13426408 0.15186487 0.51032746
-0.23108736 -0.20799242 0.52912694
-0.22477578 -0.20426986 0.52802372
-0.21505727 -0.20365544 0.52559686
-0.20550838 -0.20335624 0.52249789
-0.1981065 -0.20159732 0.52026916
-0.22416236 -0.19626081 0.52850699
-0.21481743 -0.19506697 0.52679735
-0.2048938 -0.19493364 0.52443087
-0.19521993 -0.19491753 0.52195197
-0.1872084 -0.19201005 0.52068704
-0.21323676 -0.18619519 0.52853948
-0.20519152 -0.18504949 0.5264799
-0.19479205 -0.18474622 0.52419561
-0.18501577 -0.18504643 0.52252316
-0.17629911 -0.18356571 0.52084172
-0.21082349 -0.17851496 0.52912134
-0.20378491 -0.17586723 0.52797383
-0.19528922 -0.1748244 0.52615947
-0.18503547 -0.17503139 0.52434754
-0.17511007 -0.17492387 0.52240431
-0.1685849 -0.17457086 0.52012134
-0.20115191 -0.16884251 0.52911955
-0.19446018 -0.16526242 0.52809513
-0.18535183 -0.16505015 0.52594268
-0.1750067 -0.16493191 0.52302307
-0.16707268 -0.16319342 0.52094519
-0.19205606 -0.15928525 0.52911776
-0.18464877 -0.15525219 0.52760422
-0.17521462 -0.15513922 0.52429378
-0.16494514 -0.15533274 0.52257031
-0.15558359 -0.1532416 0.52108794
-0.14721698 -0.15140232 0.52031702
-0.18271773 -0.14559875 0.52815366
-0.17469785 -0.1449697 0.52572244
-0.16473725 -0.14525346 0.52461547
-0.15474831 -0.1448781 0.52325833
-0.14633654 -0.14467494 0.52088231
-0.18134865 -0.13890448 0.52911383
-0.17439669 -0.13574919 0.52813828
-0.16540858 -0.13498446 0.52624542
-0.15491205 -0.1347739 0.52380735
-0.144876 -0.13504204 0.52187741
-0.13749819 -0.1334383 0.52038026
-0.17195347 -0.1281267 0.52911192
-0.16412058 -0.12607461 0.52791154
-0.15508011 -0.12517183 0.52573901
-0.14511782 -0.12500754 0.52301365
-0.13554767 -0.12464553 0.52090353
-0.12902945 -0.12125947 0.52011126
-0.16062388 -0.11748698 0.5291099
-0.15505849 -0.11487546 0.52735949
-0.14514843 -0.115036 0.52395862
-0.13528123 -0.11452615 0.52232039
-0.12624577 -0.11424226 0.5206362
-0.11884336 -0.11107247 0.52010942
-0.15418546 -0.10756332 0.52825612
-0.14471 -0.10642476 0.52729213
-0.13495024 -0.10472926 0.52616441
-0.12466898 -0.10508231 0.52285331
-0.11520678 -0.10444877 0.52067071
-0.13251881 -0.095798112 0.52851772
-0.12531327 -0.094787002 0.52585596
-0.11482783 -0.095077649 0.52249831
-0.10781297 -0.092964843 0.52050591
-0.13091831 -0.087778814 0.52910441
-0.12440245 -0.085314013 0.52797902
-0.11513176 -0.08518032 0.52558565
-0.10556966 -0.08477474 0.52216673
-0.097129591 -0.082767822 0.52047247
-0.12101641 -0.079027511 0.5291028
-0.11420109 -0.075720511 0.52822429
-0.10452414 -0.074980028 0.52488661
-0.094901003 -0.074896127 0.52147985
-0.086537197 -0.073724277 0.52027887
-0.1119124 -0.068251409 0.52887863
-0.10510039 -0.06491264 0.52713734
-0.094640441 -0.06494806 0.52330452
-0.0845965 -0.065016977 0.52133143
-0.078438692 -0.065231197 0.52010083
-0.10345297 -0.055372167 0.52834076
-0.095138036 -0.054981552 0.52604479
-0.085237153 -0.054970305 0.52334374
-0.076059371 -0.054278187 0.52109861
-0.068048686 -0.051438626 0.52026492
-0.10190403 -0.048398659 0.52909696
-0.094733179 -0.045595385 0.5282281
-0.085306808 -0.044968192 0.5256927
-0.075146355 -0.044951294 0.52331334
-0.065103725 -0.044743951 0.52144885
-0.055907812 -0.041325852 0.52053386
-0.04923835 -0.040103067 0.52009624
-0.091865443 -0.037853334 0.52897
-0.084575698 -0.035407964 0.52759463
-0.074585065 -0.035121545 0.52489877
-0.0645632 -0.034875896 0.52319694
-0.054843873 -0.034777287 0.52170724
-0.047833733 -0.034553267 0.52028567
-0.081384115 -0.028814098 0.52892667
-0.074004203 -0.025499649 0.52771503
-0.064727217 -0.025373941 0.52450126
-0.054948781 -0.025286231 0.52270532
-0.046253316 -0.024346989 0.52097887
-0.038713064 -0.021427255 0.52009267
-0.071846604 -0.017143752 0.52875781
-0.064868003 -0.015426716 0.52733618
-0.055326611 -0.015148951 0.52630514
-0.045409601 -0.014998928 0.52396846
-0.035103504 -0.015023251 0.52192992
-0.026237117 -0.01331885 0.52089125
-0.062250577 -0.0084653543 0.52908957
-0.054822028 -0.0055713258 0.52821738
-0.045025092 -0.0047617112 0.5253073
-0.03460671 -0.0048980992 0.52306938
-0.025019314 -0.0049432307 0.52113205
-0.051794797 0.0025536395 0.52883756
-0.044658583 0.0045446795 0.5272637
-0.03459543 0.004764 0.52451605
-0.02514869 0.0049173529 0.52189189
-0.016664753 0.0078635551 0.52070248
-0.042113606 0.012680295 0.52890921
-0.034759406 0.015051764 0.52815813
-0.025063941 0.015070163 0.52567482
-0.015371098 0.014989197 0.52287143
-0.0077768527 0.016137941 0.52065712
-0.033970654 0.024304394 0.52880216
-0.025128428 0.025430409 0.52702212
-0.015414215 0.025301315 0.52432859
-0.0053642578 0.025382327 0.52174419
0.0020997804 0.027418673 0.52038348
-0.02359648 0.031954739 0.52874881
-0.014949179 0.034767117 0.52771813
-0.0050628176 0.034831349 0.52460915
0.0042579356 0.035177208 0.52136403
0.010519308 0.038675595 0.5200814
-0.012188132 0.044348389 0.5287227
-0.0044834213 0.044687409 0.52687573
0.0051999371 0.044529475 0.52370018
0.01385537 0.04592859 0.5216037
0.020491891 0.04912072 0.52041274
-0.010577081 0.051503349 0.52907836
-0.0040336503 0.053913087 0.52836376
0.0052016168 0.054911349 0.52681381
0.014705212 0.055416424 0.52424139
0.024003675 0.055947654 0.52147335
0.031797033 0.058144171 0.52007788
-0.00035276846 0.060070425 0.52907681
0.0059530032 0.064914659 0.52802593
0.014709686 0.06502074 0.52442312
0.024888396 0.064775728 0.52243334
0.033470538 0.065271616 0.52060771
0.007276366 0.073067717 0.5284273
0.015056671 0.074626967 0.52687418
0.025014419 0.074711032 0.52509207
0.034991644 0.07513386 0.52215439
0.040797334 0.077310637 0.520217
0.018299472 0.080796972 0.529073
0.025622249 0.084625356 0.52793509
0.035096005 0.085299052 0.52409196
0.043874227 0.085753471 0.52127743
0.025954315 0.093676277 0.52830297
0.035347719 0.095461935 0.52625388
0.044927564 0.094756797 0.52295297
0.053356271 0.096880898 0.52088517
0.028661478 0.10014144 0.52906924
0.036359768 0.10361189 0.52839011
0.044946462 0.10499671 0.52568072
0.054966334 0.1051494 0.52303302
0.064151689 0.10657062 0.52095085
0.070277326 0.10930501 0.52006817
0.046134692 0.11432239 0.52789998
0.055096999 0.11509699 0.52441746
0.065048441 0.11510731 0.52174038
0.070446841 0.11524718 0.52006698
0.048520058 0.12298658 0.52866495
0.055035155 0.1246618 0.52671069
0.065188318 0.12499557 0.5235343
0.074280605 0.12568918 0.52094579
0.082726665 0.12922592 0.52006429
0.057639156 0.13168609 0.52873009
0.065259129 0.13486511 0.52746665
0.074824043 0.13478212 0.52360475
0.084705725 0.1357238 0.52151573
0.092804253 0.13753882 0.52025032
0.067128569 0.14225993 0.52879471
0.075094335 0.14509602 0.52700216
0.085321538 0.14529534 0.52361888
0.094973236 0.14500861 0.52144897
0.10155911 0.14667067 0.52029186
0.076258525 0.15497199 0.52847362
0.085011855 0.15474495 0.52620208
0.094944604 0.15496635 0.52344698
0.10251354 0.1526062 0.52065992
0.079782248 0.16093914 0.52905786
0.084657617 0.16169032 0.52805769
0.091418684 0.16085123 0.52605808
-0.28120989 -0.21051815 0.53912652
-0.27787775 -0.21012749 0.53812647
-0.26473773 -0.21113898 0.53712696
-0.25560811 -0.21054889 0.53562695
-0.28050601 -0.20911029 0.53912622
-0.27375844 -0.20672797 0.53831339
-0.26494005 -0.20512991 0.53767478
-0.2551223 -0.20529625 0.5363059
-0.24509645 -0.20508857 0.53389198
-0.23527107 -0.20450668 0.53133076
-0.26205924 -0.19773617 0.5388242
-0.25472009 -0.19488131 0.53765333
-0.24485941 -0.19505517 0.53525448
-0.23476876 -0.19477309 0.5325582
-0.22623771 -0.19188191 0.53106821
-0.26441711 -0.18383144 0.53723675
-0.25490198 -0.18507615 0.53682911
-0.24479078 -0.18495347 0.53618443
-0.23535818 -0.18523692 0.53556216
-0.22495918 -0.18494116 0.53357136
-0.21746033 -0.18410833 0.53102708
-0.24493264 -0.17523269 0.53692371
-0.23491772 -0.17511497 0.53731638
-0.22522163 -0.17513849 0.53545374
-0.21518804 -0.174748 0.53272921
-0.20762166 -0.17291211 0.5305869
-0.23536949 -0.16511123 0.53841203
-0.22486763 -0.16480625 0.53707665
-0.21506649 -0.16512845 0.53475857
-0.20516853 -0.16476423 0.53171867
-0.19876374 -0.16223991 0.53011829
-0.23466462 -0.15576757 0.53525913
-0.22486883 -0.15505752 0.53689629
-0.21496306 -0.15471786 0.53613865
-0.20516866 -0.15497029 0.53396857
-0.19543654 -0.15502951 0.53201056
-0.1888102 -0.15281287 0.5301165
-0.21512096 -0.14488114 0.53474492
-0.20494683 -0.14457743 0.53504175
-0.19503497 -0.1452557 0.53394812
-0.18740772 -0.14413236 0.53081477
-0.20490931 -0.13494597 0.53482163
-0.19472656 -0.13478124 0.53492123
-0.1852029 -0.1349348 0.53232121
-0.17814222 -0.13248034 0.53036261
-0.20265587 -0.12764314 0.5329237
-0.19508246 -0.12500729 0.53499955
-0.18491863 -0.12497972 0.53483427
-0.17556845 -0.1247721 0.53224438
-0.1674809 -0.12194659 0.5308606
-0.19274071 -0.11566802 0.53353322
-0.18541841 -0.11555967 0.53656894
-0.1749396 -0.11526749 0.5348438
-0.16501023 -0.11461481 0.53149945
-0.18397659 -0.10623436 0.53363216
-0.17508167 -0.10543094 0.53494722
-0.16492975 -0.1049172 0.53288496
-0.15549542 -0.10292645 0.53114271
-0.14555314 -0.10166734 0.53075403
-0.13877898 -0.10040399 0.53010684
-0.17395072 -0.095627449 0.53302002
-0.16501029 -0.094928503 0.53435516
-0.15512761 -0.094859228 0.53396255
-0.14529049 -0.094844282 0.53339648
-0.13703591 -0.094471447 0.53118253
-0.16530113 -0.084614828 0.53528684
-0.15505733 -0.084365569 0.53371543
-0.14520793 -0.084470809 0.53368342
-0.13561766 -0.084596545 0.53198135
-0.12773998 -0.081835806 0.53024614
-0.1541989 -0.075105816 0.5319308
-0.14501674 -0.074463725 0.53267282
-0.13524348 -0.074733458 0.53306252
-0.12542926 -0.074710198 0.53129047
-0.11865559 -0.072577424 0.5302127
-0.14392053 -0.065285645 0.53112525
-0.13510868 -0.064692967 0.53286439
-0.12544255 -0.064820603 0.53299338
-0.115994 -0.064477734 0.53116512
-0.13494784 -0.055269044 0.53269774
-0.12537676 -0.055890936 0.53149271
-0.11561482 -0.054895125 0.53179187
-0.10848294 -0.053835683 0.53048682
-0.11351857 -0.046521802 0.53129637
-0.10531469 -0.044453062 0.53113943
-0.097898178 -0.042282876 0.5303815
-0.11260239 -0.033998657 0.53293759
-0.10496468 -0.034902867 0.53411186
-0.095643356 -0.034502197 0.5318259
-0.088484801 -0.031646885 0.53009379
-0.11513007 -0.026798351 0.53675896
-0.1051539 -0.024763614 0.53695881
-0.095021755 -0.024947582 0.53381455
-0.085433863 -0.024552984 0.53165245
-0.078317061 -0.022267981 0.53054661
-0.10471777 -0.015000299 0.53778243
-0.095381603 -0.014708839 0.53511053
-0.085448623 -0.014682936 0.53417188
-0.076053992 -0.014029011 0.53186548
-0.069105148 -0.01088113 0.53008991
-0.1024992 -0.0055020261 0.53862667
-0.094756722 -0.0048574926 0.537301
-0.084828265 -0.0049621393 0.53588855
-0.074948795 -0.004914165 0.53389281
-0.065760173 -0.0046271002 0.53154111
-0.058525972 -0.002113926 0.53038836
-0.10101637 0.00066490541 0.539087
-0.093960382 0.0019982797 0.53877103
-0.084062472 0.0039577698 0.53798139
-0.074616931 0.004870594 0.53651524
-0.064565703 0.0048525427 0.534495
-0.055337559 0.0055189328 0.53158683
-0.048802562 0.0089617819 0.53008628
-0.080603212 0.010520644 0.53908539
-0.073645562 0.01383228 0.53841829
-0.064805232 0.014675009 0.53647262
-0.054673724 0.014589075 0.53328907
-0.045978907 0.015461575 0.53042877
-0.071900241 0.022598416 0.53891641
-0.064816736 0.024364991 0.53780603
-0.054889295 0.024434673 0.53538913
-0.044799976 0.024965974 0.53179741
-0.036821827 0.027432326 0.53030497
-0.062077072 0.03260931 0.53900433
-0.054930445 0.034551114 0.53712028
-0.044977613 0.035522744 0.53391767
-0.035090692 0.03539744 0.53202009
-0.025836244 0.036372114 0.5309189
-0.018810116 0.038495407 0.53008085
-0.053812016 0.042515136 0.53862941
-0.045171201 0.045482662 0.53726643
-0.035296269 0.045389179 0.53512007
-0.025395276 0.045172855 0.53260988
-0.017566858 0.045472573 0.53032947
-0.043636486 0.054842979 0.53907704
-0.035351139 0.05530845 0.53822601
-0.025519721 0.055175807 0.53517938
-0.01536179 0.055118982 0.53172469
-0.0072749211 0.058008332 0.5300771
-0.031800553 0.061674099 0.53907591
-0.024919622 0.064549387 0.53774202
-0.015019329 0.064877763 0.53450418
-0.0046081827 0.064595893 0.53147173
0.0017228338 0.066413574 0.53007555
-0.021043176 0.073132075 0.53877378
-0.014378992 0.07494206 0.53660411
-0.0045360173 0.074440137 0.53301257
0.0041183508 0.076276563 0.53110588
0.011763709 0.079256579 0.53032315
-0.01346858 0.084286615 0.53823376
-0.0045574065 0.084586345 0.53554124
0.0052482407 0.085126489 0.53390181
0.014759288 0.085500121 0.53143364
0.020410361 0.086487129 0.53007185
-0.010778228 0.091896541 0.53907019
-0.0041632433 0.094476528 0.53811508
0.0052287369 0.095026858 0.53528982
0.014920239 0.095134057 0.531968
0.022034789 0.097377561 0.53031969
-0.0020359852 0.10381892 0.53859168
0.0050517777 0.10469768 0.53635675
0.014972034 0.10520769 0.53372085
0.024559716 0.10494185 0.5319224
0.03299965 0.10670782 0.53124189
0.0068560638 0.11165734 0.53839976
0.015491627 0.11464965 0.53736335
0.025010217 0.1151462 0.53582704
0.035045072 0.11489609 0.53304815
0.042582333 0.11775761 0.53037363
0.018500902 0.12426313 0.53899747
0.024893293 0.12518662 0.537884
0.034687236 0.12497033 0.53514439
0.044071361 0.12579565 0.53169227
0.050863657 0.12940259 0.53006369
0.018744301 0.132001 0.53906256
0.025316291 0.13401292 0.5385766
0.034732264 0.13501815 0.53620809
0.044713344 0.13483244 0.53349382
0.054488033 0.13584308 0.53101248
0.060553551 0.13840115 0.53006208
0.029202143 0.14004624 0.53906113
0.035758883 0.14470981 0.53814143
0.045113813 0.14480747 0.53582823
0.055366382 0.14525101 0.53264385
0.06374754 0.145788 0.53056049
0.070243381 0.14878403 0.53006011
0.03795338 0.15284236 0.53894764
0.045184333 0.15457518 0.53735018
0.055100679 0.15541247 0.53453934
0.064905733 0.15480933 0.53173226
0.071281336 0.15544613 0.5300588
0.047590241 0.16305865 0.53872347
0.054795932 0.16509418 0.53674275
0.065333098 0.16487981 0.53373069
0.074703008 0.16500653 0.53182966
0.081367552 0.16550048 0.53039026
0.055931769 0.17541827 0.53659815
0.064521633 0.17358327 0.53345972
0.073423803 0.17225392 0.53364366
0.048909932 0.18298604 0.53905272
-0.30302685 -0.21205018 0.5481264
-0.29520607 -0.21141958 0.54459304
-0.28696513 -0.21082757 0.54112649
-0.30004939 -0.20868842 0.54912579
-0.29410622 -0.20547239 0.54766816
-0.28506029 -0.20502017 0.54363596
-0.27632964 -0.20235065 0.54131538
-0.26974314 -0.20103505 0.54012477
-0.30340344 -0.19043493 0.54612201
-0.29326689 -0.19583459 0.54869473
-0.28485665 -0.1955473 0.5464654
-0.27494985 -0.19552077 0.54369175
-0.26603067 -0.19442026 0.54100931
-0.28213814 -0.18956214 0.54362226
-0.27490911 -0.18779114 0.54212195
-0.26552099 -0.1886135 0.54045564
-0.12213926 -0.021426093 0.54146606
-0.11513788 -0.022357689 0.54121643
-0.13082843 -0.011109362 0.54108882
-0.124873 -0.014588949 0.5436579
-0.11516348 -0.014919347 0.54270214
-0.10896063 -0.012028194 0.54008943
-0.13439709 -0.0042712768 0.54538268
-0.1250269 -0.0050348397 0.54690403
-0.11488617 -0.0051689427 0.54367882
-0.10733943 -0.0041454374 0.54063326
-0.12368499 0.0042581223 0.54852706
-0.11500748 0.0049492279 0.54532397
-0.10525481 0.0051006409 0.54200077
-0.095480971 0.006748612 0.54121912
-0.087094836 0.0081096031 0.54044932
-0.12129287 0.011192322 0.54908448
-0.11433154 0.014615893 0.54777616
-0.1047862 0.014926615 0.54561442
-0.09510541 0.014727473 0.5442434
-0.085377999 0.0149155 0.54200101
-0.077713184 0.016633222 0.54039669
-0.11234854 0.0218635 0.54897141
-0.10437767 0.024543233 0.54803568
-0.094706975 0.025082916 0.54629475
-0.085093267 0.024658043 0.54383242
-0.076277517 0.025351325 0.54129857
-0.068764716 0.028876513 0.54008186
-0.10145737 0.03079056 0.54908085
-0.093746372 0.032980207 0.54870564
-0.084824763 0.035112079 0.54695278
-0.075049691 0.034552209 0.54308057
-0.066416308 0.035227552 0.54071945
-0.083925448 0.044624463 0.54825789
-0.075035281 0.044935882 0.54545051
-0.065428793 0.04449293 0.54234964
-0.056724258 0.046053652 0.54056007
-0.081621945 0.051822752 0.54907697
-0.074027985 0.054312203 0.54782021
-0.065011621 0.054863859 0.54500693
-0.055465918 0.054358438 0.54186863
-0.047673345 0.056124698 0.54007673
-0.039146721 0.05990763 0.54007614
-0.071106702 0.061382908 0.54907519
-0.064102568 0.064516284 0.54724151
-0.054706872 0.064770393 0.54376382
-0.045176599 0.064934231 0.5419082
-0.035482261 0.065297194 0.5412544
-0.028216127 0.068194494 0.54007459
-0.062161479 0.07360357 0.54877877
-0.0546542 0.074967243 0.54701161
-0.044497345 0.074706405 0.5451138
-0.034503475 0.07453645 0.54323995
-0.025209215 0.076078407 0.54086792
-0.052771688 0.082736485 0.54882115
-0.044597242 0.084938549 0.54740423
-0.034474708 0.084520973 0.5441528
-0.024213776 0.085220121 0.54133219
-0.017406441 0.087543659 0.54015422
-0.041996598 0.0944736 0.54871905
-0.034602385 0.094817363 0.54615068
-0.024517894 0.09493009 0.54332465
-0.014914861 0.095713906 0.54113746
-0.0082596419 0.098273136 0.54006892
-0.040875975 0.10213241 0.5490675
-0.034585152 0.10493159 0.54729629
-0.024714693 0.1047637 0.54500329
-0.01438921 0.10514998 0.54309028
-0.0065164329 0.10587607 0.54071021
-0.032954998 0.11312318 0.54846537
-0.024515869 0.11485226 0.54732066
-0.014764106 0.11480951 0.54538453
-0.0046207728 0.11482517 0.54294664
0.0046919421 0.11641663 0.54145932
0.012049887 0.11858445 0.54006517
-0.021518458 0.12149165 0.54906392
-0.013594377 0.12404776 0.54791206
-0.0046480726 0.12474422 0.54602277
0.005368385 0.12529458 0.543522
0.013675546 0.12508549 0.5407992
-0.010405805 0.13260527 0.54906195
-0.0043822518 0.13491301 0.54753977
0.0053165182 0.13501602 0.54432249
0.014581385 0.13541439 0.54144275
0.022839963 0.13816893 0.54028356
-0.0025179128 0.14422442 0.5484764
0.0051870104 0.14504835 0.54661286
0.015257935 0.14486825 0.54394084
0.025025288 0.14516477 0.54205996
0.031665213 0.14684907 0.54025972
-0.00036895243 0.15124711 0.54905826
0.006262654 0.15368281 0.54819125
0.015325264 0.15479037 0.54636407
0.025384853 0.15511337 0.54383576
0.033950519 0.1555393 0.54125243
0.041244358 0.15864241 0.54005754
0.017085148 0.16476244 0.54815269
0.025122842 0.16502468 0.54625171
0.035297785 0.16495095 0.54382885
0.043689039 0.16568421 0.54099566
0.019227507 0.17180133 0.54905444
0.026639532 0.17384697 0.54844707
0.035167288 0.17470933 0.54526252
0.044905078 0.17490599 0.54174823
0.050613046 0.17456071 0.54005456
0.035926051 0.1839081 0.54696417
0.044189773 0.18240565 0.54246193
-0.30562383 -0.21050531 0.55012602
-0.30443984 -0.20501098 0.55158216
-0.298352 -0.20278397 0.5502246
-0.30404058 -0.19646646 0.55137318
-0.29844159 -0.19613934 0.55012321
-0.16112711 0.0094141215 0.55708408
-0.15444653 0.0078556761 0.55514002
-0.14472389 0.0061594015 0.55305886
-0.13517994 0.0048361868 0.55117649
-0.12832901 0.00661655 0.55015182
-0.15308133 0.012457666 0.55868357
-0.1447932 0.014931132 0.55672425
-0.13506593 0.015327938 0.55343121
-0.12546973 0.015146334 0.5512265
-0.11872793 0.017741658 0.55020815
-0.14168519 0.023168413 0.55833167
-0.13470919 0.025289619 0.55647159
-0.12492123 0.025425222 0.55374098
-0.11560068 0.025769001 0.55116725
-0.10858542 0.028452085 0.55008119
-0.13248707 0.032789543 0.55871624
-0.12467282 0.034812272 0.55694449
-0.1150748 0.035548728 0.55357957
-0.10547011 0.03528247 0.55147994
-0.096462041 0.037220467 0.55083966
-0.12227523 0.043345429 0.55877024
-0.11480725 0.044830415 0.556283
-0.10446385 0.045453366 0.5540778
-0.094741568 0.045347393 0.55169708
-0.088713743 0.046936769 0.5500778
-0.11400412 0.053994883 0.55804557
-0.10496887 0.054993678 0.55572706
-0.094844289 0.055125825 0.55318123
-0.085755378 0.055845775 0.55112255
-0.077983007 0.0581747 0.5503757
-0.11165186 0.06162069 0.55882442
-0.10492253 0.064539365 0.55698884
-0.094948791 0.06483794 0.55482405
-0.085153066 0.064825661 0.55320573
-0.075336531 0.065363236 0.55152673
-0.068536147 0.068234637 0.55035955
-0.10308756 0.07174474 0.55867243
-0.094381832 0.073190086 0.55780578
-0.084944032 0.074995331 0.55644166
-0.075332351 0.074510753 0.55350101
-0.066447526 0.076226003 0.55081421
-0.082976609 0.08399573 0.55843037
-0.075055718 0.085034147 0.55614001
-0.065353684 0.084957302 0.55292767
-0.05587342 0.086345889 0.55079454
-0.049210075 0.089748167 0.55006987
-0.073734462 0.094696648 0.55817652
-0.064954318 0.095021233 0.55568749
-0.0554315 0.094825737 0.55289483
-0.046742089 0.095825635 0.55043918
-0.071015224 0.10256831 0.55886686
-0.064267963 0.10459153 0.55794531
-0.054976579 0.10470422 0.55529928
-0.045638334 0.10519608 0.55196679
-0.039155003 0.10986052 0.55006593
-0.060722921 0.11068413 0.55906534
-0.054408215 0.11449115 0.55775219
-0.045219433 0.11496496 0.55388111
-0.036531121 0.1163594 0.55083746
-0.028381206 0.11991696 0.55006409
-0.052803196 0.12378439 0.55850726
-0.045194183 0.12475842 0.55626279
-0.035079315 0.12505318 0.55369556
-0.025212379 0.12568516 0.55179983
-0.016841542 0.12759604 0.55029356
-0.043298598 0.13335505 0.55848968
-0.035286244 0.13523762 0.55694169
-0.024834035 0.13514902 0.55435884
-0.015291793 0.13515344 0.55151373
-0.0089883646 0.13787487 0.55006087
-0.034287378 0.14314002 0.55824441
-0.025237419 0.14499532 0.55619544
-0.014717154 0.14491238 0.55258018
-0.0072694505 0.14564076 0.55035931
-0.022904774 0.15414102 0.55801564
-0.014866138 0.15498161 0.55471635
-0.0048801787 0.15500064 0.55165309
0.0031031854 0.15748473 0.55039042
-0.021181565 0.1623968 0.55905563
-0.014650447 0.16464168 0.55705529
-0.0046172687 0.1650866 0.55419499
0.0053937105 0.16509621 0.55219835
0.01226011 0.16601907 0.55048412
-0.012053838 0.17210457 0.55891097
-0.0043618465 0.17485768 0.55693436
0.0054061972 0.17492056 0.55362499
0.015153701 0.17523445 0.55144393
0.023503728 0.17740622 0.5507201
-0.0038791839 0.18523604 0.55850828
0.0054368451 0.18459341 0.55662298
0.015571193 0.18512371 0.55509937
0.02569616 0.18511181 0.55255187
0.032062303 0.18748724 0.55019438
-0.00037676501 0.1905041 0.55905026
0.0066273464 0.19158141 0.55878353
0.015336972 0.19388761 0.55814368
0.024262201 0.19193126 0.55505043
0.031346835 0.19100337 0.55205083
-0.18094754 0.016304351 0.56908226
-0.17514861 0.016266776 0.56608248
-0.1649435 0.015775893 0.56182677
-0.15612163 0.016423365 0.5607602
-0.14907612 0.019216694 0.56008226
-0.1802046 0.020019867 0.56908154
-0.17415747 0.024837701 0.56767434
-0.16480425 0.025153546 0.56516182
-0.15503992 0.02504131 0.56361955
-0.1458372 0.025703421 0.56100965
-0.13932535 0.029943477 0.56008029
-0.17240256 0.030795103 0.56907946
-0.1644029 0.034287959 0.56820095
-0.15482651 0.034692116 0.56593621
-0.1454145 0.034749009 0.56325424
-0.13611619 0.036057647 0.5611124
-0.12908694 0.038720042 0.56007868
-0.16182874 0.041806202 0.56891078
-0.15437873 0.04442649 0.56783462
-0.14488845 0.044839539 0.56537497
-0.13495061 0.044822633 0.56317276
-0.12647641 0.045548312 0.56104517
-0.15097755 0.051726591 0.56907564
-0.14436334 0.054242626 0.56838566
-0.13466609 0.054953698 0.56632531
-0.1245905 0.055087477 0.56286126
-0.1181068 0.057120305 0.56040847
