# .PCD v0.7 - Point Cloud Data file format
VERSION 0.7
FIELDS x y z
SIZE 4 4 4
TYPE F F F
COUNT 1 1 1
WIDTH 1
HEIGHT 976
VIEWPOINT 0 0 0 1 0 0 0
POINTS 976
DATA ascii
0.079874143 -0.19025651 0.49900001
0.08572831 -0.19025649 0.49900004
0.090281546 -0.19025651 0.49900001
0.07725472 -0.18669778 0.49849999
0.081923082 -0.18887933 0.49880004
0.076928601 -0.18155348 0.50323802
0.084950157 -0.18582439 0.50368625
0.092492849 -0.18711361 0.50582612
0.074541807 -0.1798975 0.50400001
0.077586807 -0.18078558 0.514
0.085642681 -0.18207636 0.51413333
0.095076531 -0.18261495 0.51265109
0.1036861 -0.181973 0.51145452
0.11110359 -0.18017751 0.51100004
0.097936161 -0.17973733 0.51685721
0.10565345 -0.17757133 0.51514995
0.11473436 -0.17458215 0.51477367
0.12387194 -0.17200433 0.51553333
0.13127804 -0.17016242 0.51700002
0.12570961 -0.16889869 0.51850003
0.13470346 -0.16678968 0.51825005
0.14406425 -0.16414481 0.51875007
0.15396944 -0.16174601 0.51790917
0.15764901 -0.15812142 0.51812506
0.16103372 -0.1559646 0.51820004
0.015028144 -0.044482071 0.51652384
0.10568092 -0.030053472 0.51816672
0.098428339 -0.023066316 0.51647055
0.10488839 -0.024442403 0.51309252
0.1113988 -0.025384229 0.51360005
0.098376311 -0.018436229 0.51714289
0.1045704 -0.017981477 0.51300013
0.077269159 -0.18186188 0.5255
0.085189611 -0.18143091 0.52474999
0.091186963 -0.18065478 0.52342856
0.09627942 -0.17904636 0.52461904
0.10519728 -0.17519967 0.52441943
0.11348649 -0.17112339 0.52324998
0.1174438 -0.16918719 0.5255
0.12535745 -0.16666983 0.52399999
0.13516468 -0.16308771 0.5238139
0.14456673 -0.16168693 0.5215556
0.15210859 -0.16072044 0.52025002
0.14613606 -0.15832697 0.52632147
0.15456392 -0.15464345 0.52441931
0.16110678 -0.15194674 0.5225715
0.15572786 -0.14577879 0.52764875
0.1606836 -0.14884311 0.52500004
0.14947346 -0.13142627 0.52649999
0.15275945 -0.13435324 0.52599996
0.14722431 -0.12416393 0.52564001
0.15133204 -0.12661935 0.52225
0.14645085 -0.11952959 0.52550006
0.11915462 -0.061022814 0.52900004
0.12159045 -0.0615514 0.52880007
0.015676107 -0.052172679 0.52524996
0.021627849 -0.051665854 0.52733332
0.11823113 -0.054652855 0.52740908
0.12172191 -0.055655904 0.52631247
0.0076883682 -0.04538735 0.52679998
0.013603959 -0.045170303 0.52226663
0.023819363 -0.044283636 0.52494454
0.11774998 -0.047692161 0.52757138
0.12091752 -0.04857995 0.52866668
0.016316338 -0.038992897 0.52460003
0.022533024 -0.038806725 0.52700001
0.099323094 -0.030867087 0.52625006
0.10570259 -0.032588184 0.52305883
0.11313186 -0.03340403 0.52504998
0.096350364 -0.024923394 0.52395236
0.11573625 -0.027762562 0.52600002
0.095379725 -0.016513087 0.52525932
0.10252477 -0.015572129 0.52457148
0.11025099 -0.016794644 0.52600002
0.077466488 -0.18213744 0.53640002
0.084189735 -0.18100284 0.53395659
0.087373167 -0.17958526 0.53712505
0.095176764 -0.17808904 0.53482765
0.10487419 -0.17377408 0.53400004
0.1111559 -0.17042671 0.53414285
0.11628751 -0.16844414 0.53452635
0.12502271 -0.16487111 0.53399998
0.13261734 -0.16142944 0.53325003
0.13697076 -0.15769577 0.53542304
0.14452043 -0.15396686 0.53316367
0.15115996 -0.15164238 0.53000003
0.14810395 -0.14655644 0.53600007
0.15194045 -0.14431348 0.53180772
0.16161706 -0.1475431 0.53183335
0.14819758 -0.1342798 0.53547055
0.15131696 -0.13758518 0.53055555
0.14339325 -0.12493511 0.53456664
0.1537125 -0.12342902 0.53649998
0.14756948 -0.11948325 0.5345
0.12912901 -0.10180136 0.53800005
0.13534695 -0.10334503 0.53427774
0.14131443 -0.10614539 0.53633332
0.028177256 -0.090693086 0.53866673
0.033087794 -0.091147542 0.5385834
0.12891197 -0.096231736 0.53758341
0.13360067 -0.096933581 0.53282142
0.14029473 -0.098859727 0.53600001
0.027789973 -0.08500132 0.53789479
0.034965176 -0.083844118 0.53577793
0.016487142 -0.072324403 0.53823531
0.024144467 -0.07445056 0.53627503
0.034061588 -0.075715199 0.53550005
0.11728237 -0.072012529 0.5370909
0.12536484 -0.074686281 0.53288895
0.13152665 -0.076081589 0.53633332
0.014797748 -0.064591877 0.53567344
0.023670759 -0.065000623 0.5338788
0.11551541 -0.064732954 0.53383684
0.12474573 -0.066200346 0.5323143
0.014950249 -0.057071999 0.53196776
0.025254622 -0.055072639 0.53394741
0.031430654 -0.051916432 0.53825003
0.10996103 -0.05084021 0.53800005
0.11344687 -0.054966029 0.53374422
0.12606256 -0.055919774 0.53430003
0.0037021402 -0.044697385 0.53518426
0.028541723 -0.04569938 0.53146672
0.033992179 -0.044482894 0.53637505
0.10937572 -0.044996247 0.53800005
0.11432137 -0.044237934 0.53265226
0.12306564 -0.04669353 0.53474998
0.014691385 -0.036307842 0.53457147
0.025467999 -0.036221709 0.53490001
0.035145886 -0.037674095 0.53748
0.043066759 -0.03670698 0.53900003
0.097928137 -0.032281514 0.53550005
0.10554142 -0.037258305 0.53488237
0.11539296 -0.037148278 0.53170002
0.12043101 -0.037045818 0.53466672
0.087682091 -0.020020138 0.53900003
0.093857676 -0.025201714 0.53420007
0.086931854 -0.016012628 0.53620702
0.093302555 -0.014186845 0.53362507
0.10483946 -0.014095457 0.53425002
0.074449643 -0.20069094 0.54500002
0.069270954 -0.19142932 0.54900002
0.072021261 -0.19409263 0.54814291
0.058178551 -0.18105252 0.54900002
0.065029211 -0.18310235 0.54811108
0.073105261 -0.18288554 0.5430001
0.055851907 -0.17475072 0.54807693
0.064743713 -0.17490543 0.54595464
0.074563429 -0.17785247 0.54586667
0.085028335 -0.1784156 0.5448333
0.095141247 -0.17594463 0.54461294
0.1045853 -0.17203765 0.54427588
0.055163696 -0.16510376 0.54752785
0.062996656 -0.16613741 0.54622579
0.1086311 -0.1692445 0.54900002
0.11477002 -0.16816515 0.54475003
0.12513867 -0.16428727 0.54434788
0.13108306 -0.16071562 0.54516673
0.05383667 -0.15347373 0.54464513
0.060918283 -0.15550169 0.54683334
0.13596721 -0.15630831 0.54385006
0.14148018 -0.15133373 0.5438
0.044807438 -0.14512922 0.54630429
0.054534551 -0.14508812 0.54636544
0.060628019 -0.14835507 0.54850006
0.14668261 -0.1455528 0.5445357
0.16508056 -0.14784771 0.54400003
0.044922296 -0.13508797 0.54611516
0.05300846 -0.13510349 0.5473125
0.13914965 -0.13036211 0.54800004
0.14537862 -0.13455123 0.54485714
0.053826809 -0.12357537 0.54821742
0.062114563 -0.1234436 0.54900002
0.13871288 -0.12567322 0.54666668
0.14111957 -0.12425187 0.54356241
0.044769034 -0.11491142 0.54688376
0.054015461 -0.11431278 0.54882348
0.060683291 -0.11390174 0.54900002
0.12938462 -0.11056209 0.54900002
0.135746 -0.11217213 0.54725003
0.034584988 -0.10524693 0.54371434
0.044718217 -0.10511991 0.54622453
0.054936871 -0.10479517 0.54877543
0.060683288 -0.10913082 0.54900002
0.12752886 -0.10459605 0.54483336
0.13229096 -0.10790782 0.54283333
0.14427795 -0.10245439 0.54400003
0.034519378 -0.096405938 0.54135293
0.045280676 -0.09560281 0.54572493
0.054156184 -0.094662271 0.54809535
0.12736067 -0.096192241 0.54427278
0.1399339 -0.093263634 0.54000002
0.14512868 -0.09911187 0.54900002
0.022799278 -0.085263155 0.54080653
0.045400597 -0.084758945 0.54414994
0.054852013 -0.084629349 0.54789817
0.061542057 -0.0827953 0.54899997
0.12403468 -0.081356138 0.54750001
0.020269677 -0.079185486 0.54000002
0.037637655 -0.073077656 0.54350001
0.044854596 -0.074693762 0.54548001
0.054835092 -0.07460998 0.54775536
0.061963905 -0.075156786 0.54899991
0.11560039 -0.074442513 0.54518747
0.12169851 -0.07828179 0.54350007
0.13432638 -0.075026251 0.54388893
0.028716562 -0.061587811 0.54000002
0.044804379 -0.064563356 0.5473268
0.053619321 -0.065691881 0.54856253
0.060683288 -0.069055028 0.54900002
0.10887428 -0.063363962 0.54664284
0.11121353 -0.066461541 0.54241669
0.13208503 -0.065039769 0.54537505
0.028716562 -0.058772184 0.54000002
0.034833346 -0.055633184 0.54297435
0.044866402 -0.054801915 0.54575551
0.051861692 -0.054955721 0.54810524
0.10768533 -0.05447235 0.54528564
0.11036979 -0.058068275 0.54000002
0.12873536 -0.053449351 0.54325002
0.13200629 -0.058928546 0.54800004
0.038148958 -0.046513546 0.54066664
0.044441167 -0.045510706 0.54284096
0.052849948 -0.043869939 0.54725003
0.10562566 -0.044842031 0.54483789
0.035139278 -0.032582961 0.54209381
0.045292128 -0.034193568 0.54095668
0.054805204 -0.034522336 0.54449999
0.064103201 -0.032713328 0.54699999
0.071136393 -0.030869147 0.54866672
0.096218109 -0.034018453 0.54599994
0.10256522 -0.03844567 0.5434444
0.045405149 -0.026283611 0.54630315
0.054625724 -0.024576463 0.5448125
0.064366817 -0.024450896 0.54383665
0.073954135 -0.02370546 0.54628956
0.085201055 -0.022571506 0.54548275
0.092059709 -0.026630444 0.54386675
0.057820734 -0.018960292 0.54900002
0.06540212 -0.018315868 0.54758328
0.075683244 -0.01635021 0.54491186
0.083982632 -0.013384758 0.54300004
0.094791003 -0.010268707 0.54350001
0.10303017 -0.011338252 0.54400003
0.088511869 -0.0089332014 0.54850006
0.09417624 -0.0089277728 0.54816669
0.073478475 -0.21113136 0.55375004
0.072513752 -0.20496145 0.55190003
0.07145609 -0.19694023 0.55040002
0.063049331 -0.18676817 0.55092865
0.076385714 -0.17406972 0.55464286
0.084959492 -0.17542283 0.55526483
0.094914474 -0.17324865 0.55490911
0.10186648 -0.17110181 0.55269998
0.066650324 -0.16555156 0.551
0.10605308 -0.16865021 0.55563635
0.11475874 -0.16677918 0.55470836
0.12465567 -0.16392781 0.55482602
0.13098168 -0.16074429 0.55425006
0.13603009 -0.15603554 0.55409092
0.14087869 -0.15102835 0.55483335
0.059359934 -0.14159201 0.55000001
0.084833682 -0.1447183 0.55765855
0.092244387 -0.14228815 0.55883336
0.14482547 -0.14507964 0.55497062
0.058806598 -0.13676567 0.55077779
0.074743576 -0.13509616 0.55491132
0.084628813 -0.13518047 0.55643731
0.093158044 -0.13466093 0.55853838
0.13684787 -0.13301525 0.55580002
0.14320794 -0.1373108 0.5536471
0.059359934 -0.12366845 0.55000001
0.065124445 -0.12515451 0.55048925
0.074925706 -0.12456609 0.55251288
0.08467745 -0.12504901 0.55614293
0.092319347 -0.12573551 0.55855
0.13453209 -0.12437209 0.55482006
0.14075531 -0.12040928 0.55150002
0.058036346 -0.11627841 0.55000007
0.065448835 -0.11524903 0.55058688
0.074890167 -0.11493555 0.55395466
0.084698178 -0.1153363 0.55751055
0.091421388 -0.11937693 0.55900002
0.12725905 -0.1137149 0.55600005
0.13465175 -0.11698024 0.55519998
0.14345044 -0.1181763 0.55450004
0.15014777 -0.11943387 0.55700004
0.065531142 -0.10502961 0.55167997
0.075055026 -0.10473035 0.55532563
0.084108032 -0.10516548 0.55778039
0.12409887 -0.10499363 0.55481255
0.1476278 -0.10199395 0.55299997
0.059359934 -0.094990745 0.55000001
0.065182619 -0.095149621 0.55197877
0.075286828 -0.094915882 0.55528945
0.082925126 -0.095097594 0.5581724
0.12541607 -0.095707528 0.55567867
0.14592174 -0.098214366 0.55200005
0.066034704 -0.08554177 0.55046147
0.07467892 -0.085198894 0.55297512
0.083586343 -0.084346659 0.55741179
0.11670086 -0.081598781 0.55755556
0.12421338 -0.083993182 0.55514294
0.13005094 -0.089098722 0.55800003
0.067044824 -0.074716829 0.55030006
0.074836217 -0.075331748 0.55307156
0.083713591 -0.074954212 0.55741024
0.10772295 -0.073005319 0.55666667
0.11337727 -0.07700859 0.5536316
0.13712306 -0.074622609 0.55133337
0.057566889 -0.063089401 0.55058831
0.065098174 -0.065262675 0.55247742
0.099679694 -0.060111418 0.55900002
0.10498255 -0.065032773 0.55510265
0.1359594 -0.066314049 0.55480003
0.097764827 -0.053792398 0.55835295
0.10313427 -0.055450093 0.5538789
0.057809643 -0.045886774 0.55147618
0.084860072 -0.042538773 0.55889475
0.09543702 -0.045002259 0.55702174
0.10124765 -0.045618951 0.55211121
0.059359934 -0.039069217 0.55000001
0.066222996 -0.03760286 0.5516001
0.075261272 -0.035351399 0.55443591
0.084818572 -0.035089254 0.55636001
0.092984825 -0.036182806 0.55330002
0.077453159 -0.027659655 0.55120003
0.084582657 -0.027642893 0.5521363
0.090905406 -0.029032024 0.55000001
0.07405144 -0.011890029 0.55319053
0.082302101 -0.010391517 0.55000001
0.10726523 -0.010448199 0.55300003
0.11301874 -0.013053607 0.55650002
0.085099049 -0.0078443009 0.5550589
0.09486483 -0.0070161098 0.55560005
0.10367546 -0.0085645737 0.55566669
0.11487261 -0.16310035 0.565
0.12446424 -0.16189489 0.56461293
0.13086668 -0.16065314 0.56150001
0.12607001 -0.15835626 0.56864297
0.13463056 -0.15466923 0.56558698
0.14002293 -0.15007596 0.56300002
0.095690742 -0.14581707 0.5609287
0.12964782 -0.14129139 0.56900001
0.1356189 -0.14482279 0.5668838
0.14147857 -0.14526922 0.56173688
0.097705737 -0.13472712 0.56021422
0.10448489 -0.13494577 0.56456089
0.12601458 -0.13391455 0.56774199
0.13347468 -0.13620175 0.56350005
0.09693715 -0.12417559 0.56113642
0.1251408 -0.12501861 0.5649423
0.13051707 -0.12810689 0.56
0.15323293 -0.12072041 0.56300002
0.089638315 -0.11204738 0.56
0.11499733 -0.11497919 0.56797785
0.12298608 -0.11587174 0.56319994
0.15268859 -0.1115162 0.56100005
0.089455821 -0.1049301 0.56
0.10520601 -0.10498314 0.5651837
0.11526509 -0.10509099 0.56474471
0.12090337 -0.10558396 0.56055558
0.15258889 -0.10536373 0.56333333
0.11534932 -0.094805606 0.56409997
0.12289112 -0.093987226 0.56154549
0.15163216 -0.099580348 0.56800002
0.11455072 -0.085638791 0.56279421
0.12402916 -0.088188387 0.56194746
0.088989243 -0.073635429 0.5600909
0.095077597 -0.075076737 0.56192875
0.10364725 -0.075975358 0.56252772
0.11007769 -0.079198375 0.56
0.1414907 -0.075219326 0.56300002
0.095356129 -0.064731821 0.56168097
0.10113408 -0.068046004 0.56033337
0.13929346 -0.061600655 0.56599998
0.14027165 -0.069471389 0.56400001
0.093838386 -0.055967059 0.56068015
0.13978566 -0.059598412 0.56800002
0.09146326 -0.048904296 0.56
0.11513702 -0.011647035 0.56450003
0.10492156 -0.0064973212 0.565
0.11189792 -0.0092100753 0.56550002
0.12518834 -0.15361539 0.57008326
0.13136171 -0.15194191 0.57000005
0.12527697 -0.14490762 0.57054323
0.13136171 -0.14748383 0.57000005
0.12310033 -0.13724598 0.57016677
0.15717371 -0.11270863 0.57200003
0.16038474 -0.11372815 0.57819998
0.15675338 -0.10546809 0.5735715
0.14763288 -0.082140014 0.57550001
0.14594567 -0.074920885 0.57475001
0.14350905 -0.064751446 0.57433337
0.14163186 -0.056128029 0.57550007
0.087977201 -0.1905223 0.48824883
0.084795348 -0.18628544 0.48889542
0.09080106 -0.18818712 0.48950452
0.085121229 -0.18331586 0.49397439
0.095224604 -0.18494636 0.49391866
0.10441329 -0.18267879 0.49667391
0.11164255 -0.1809251 0.49684501
0.098805346 -0.17956786 0.49992135
0.10550807 -0.17769217 0.49814606
0.1148269 -0.17724876 0.4978734
0.12204625 -0.17605713 0.49915463
0.085541993 -0.18458098 0.50428247
0.093470454 -0.1828806 0.50452459
0.0992558 -0.17890404 0.50361788
0.10688522 -0.17550671 0.50316161
0.1150251 -0.17484304 0.50390679
0.12491959 -0.17282739 0.5028677
0.13176654 -0.17104399 0.50232673
0.12802912 -0.16821253 0.50291508
0.13198899 -0.16763596 0.50201732
0.079025984 -0.18583952 0.51893973
0.08504241 -0.18619576 0.51533693
0.093095399 -0.18386243 0.51576239
0.11623149 -0.17515829 0.51533365
0.12178459 -0.17239022 0.51524758
0.018866941 -0.050677724 0.51884645
0.021792524 -0.050939754 0.51903659
0.018002812 -0.045186132 0.51806521
0.025088206 -0.044700626 0.51734698
0.031497274 -0.042359706 0.51911926
0.026577739 -0.038924634 0.51896238
0.031834118 -0.038267743 0.51954883
0.077530503 -0.18741129 0.52683365
0.083661817 -0.18762395 0.52460229
0.10450735 -0.1802637 0.52803445
0.11433899 -0.17655517 0.52459902
0.12024415 -0.17386526 0.52501452
0.016024621 -0.085288398 0.52942091
0.0043136808 -0.053671252 0.52903682
0.01540937 -0.054659687 0.52519518
0.024700159 -0.053417556 0.52527732
0.032372378 -0.050952654 0.52840006
0.0059260502 -0.045801654 0.52695262
0.012704387 -0.045318156 0.52188379
0.028335446 -0.04886283 0.52142644
0.035510462 -0.045121968 0.52385402
0.043341465 -0.042610496 0.52749997
0.0090119764 -0.039429523 0.52864939
0.016791319 -0.037368041 0.52622783
0.025060238 -0.035542414 0.52444971
0.03581997 -0.03523637 0.52364278
0.044956412 -0.03470299 0.52591366
0.052875068 -0.032912977 0.52805048
0.047250401 -0.028334983 0.52888328
0.05573225 -0.02774635 0.52844322
0.062525555 -0.025759267 0.52933186
0.07575354 -0.18865377 0.53735453
0.082436681 -0.1883311 0.53659219
0.10608489 -0.18117487 0.53596783
0.10966501 -0.17919593 0.53439367
0.11409555 -0.17757799 0.53557521
0.045506671 -0.13456297 0.53992474
0.054761574 -0.12761058 0.53997242
0.042450026 -0.11017939 0.53983378
0.045152631 -0.10433862 0.53835201
0.051224366 -0.10391459 0.5393489
0.034970365 -0.096034288 0.53833294
0.045021851 -0.095389016 0.53785598
0.05114321 -0.096176617 0.53920645
0.015206455 -0.085354649 0.53099626
0.023501799 -0.085143939 0.53478658
0.045689695 -0.082574971 0.53991306
0.025005253 -0.07493908 0.53459269
0.034701191 -0.074860267 0.53664631
0.044787414 -0.074900687 0.53807205
0.051306717 -0.07526955 0.53934163
0.017583929 -0.062469821 0.53312397
0.024770107 -0.064939119 0.53468901
0.034922861 -0.065148599 0.53602189
0.043729521 -0.066730723 0.53812367
0.018642724 -0.059932381 0.53128028
0.026059177 -0.057899754 0.53333145
0.03520431 -0.055501513 0.53574657
0.043657824 -0.053318471 0.53824741
0.052055426 -0.050728843 0.53938758
0.038637083 -0.049243227 0.53143924
0.046280183 -0.046192806 0.53302282
0.05347098 -0.04389517 0.53646451
0.024525503 -0.031028055 0.53325695
0.034296047 -0.030273195 0.53146976
0.049487799 -0.038867723 0.53010046
0.056321822 -0.036417581 0.53288364
0.064022101 -0.03405555 0.53617179
0.071135074 -0.031270515 0.5392738
0.035457082 -0.027371321 0.53643203
0.04528312 -0.025398916 0.53495669
0.054622244 -0.02304065 0.53347701
0.066058628 -0.025525879 0.53210592
0.074483573 -0.024531776 0.53599906
0.082965575 -0.021592937 0.53831774
0.056943346 -0.019435935 0.53800297
0.065467127 -0.018300047 0.53668272
0.075306311 -0.01791228 0.53705692
0.08548256 -0.016030351 0.53743768
0.09457586 -0.014379023 0.53700542
0.10032713 -0.015397307 0.53915209
0.094033614 -0.0091468869 0.53802639
0.065632313 -0.18418369 0.54533756
0.075054847 -0.18430211 0.54484457
0.084540799 -0.18559742 0.54657406
0.094962083 -0.18397924 0.54811484
0.10303298 -0.18166277 0.5463686
0.073962182 -0.17595337 0.5487414
0.10832996 -0.17932807 0.54680216
0.1132036 -0.17794245 0.54663539
0.065575458 -0.16480277 0.54596639
0.065200843 -0.15508352 0.54435432
0.073912628 -0.15492621 0.5480274
0.055070259 -0.14479814 0.54352337
0.065212317 -0.14517057 0.54437572
0.074387081 -0.1451285 0.54743463
0.055052307 -0.13499095 0.54178232
0.065217301 -0.13474861 0.54372907
0.075023532 -0.13480927 0.54720175
0.082712315 -0.13302028 0.54933923
0.054991718 -0.12454436 0.54102451
0.065216973 -0.12475311 0.54326582
0.075174145 -0.12490618 0.54587978
0.085058339 -0.12462869 0.54831845
0.091364235 -0.12401309 0.54970348
0.054650955 -0.11533146 0.54265845
0.064638503 -0.11538397 0.54475462
0.074884742 -0.11535773 0.54653782
0.083712451 -0.11589801 0.54883856
0.046354752 -0.10918876 0.54023838
0.055527844 -0.10561126 0.54178351
0.064575821 -0.10525044 0.5445205
0.074689776 -0.10507271 0.5467453
0.082441218 -0.10476017 0.54931855
0.044760745 -0.09071058 0.54007721
0.055470251 -0.094645582 0.54135805
0.064633183 -0.094819881 0.54366136
0.074519515 -0.094755068 0.54682958
0.082615301 -0.094680503 0.54919976
0.044821732 -0.084971167 0.54093862
0.054801255 -0.084904864 0.54083627
0.064435095 -0.084840804 0.54317605
0.074557081 -0.084989056 0.5460155
0.083411098 -0.084880494 0.54839736
0.056539807 -0.074938565 0.54193699
0.065350734 -0.075258799 0.54447258
0.075177118 -0.075296 0.54670334
0.083064124 -0.076362967 0.548774
0.046975836 -0.063350908 0.54124349
0.054925896 -0.065342978 0.54324728
0.064930372 -0.06521558 0.54605758
0.074846953 -0.065024324 0.547966
0.080884054 -0.069499001 0.5494135
0.046200044 -0.056963403 0.54135901
0.05478048 -0.05536304 0.54312503
0.064892307 -0.054748613 0.54731363
0.072888315 -0.055915434 0.54911566
0.057931382 -0.046117608 0.5414471
0.064852156 -0.045148496 0.54560435
0.07294257 -0.043956239 0.54849994
0.066717297 -0.037927534 0.54231727
0.074693888 -0.034943249 0.54562217
0.080851451 -0.031532805 0.54854482
0.050330564 -0.020663863 0.54029626
0.077643685 -0.028358396 0.54189271
0.085274369 -0.025362527 0.5443849
0.094461426 -0.022457059 0.54574466
0.10257205 -0.020674512 0.54919994
0.054845493 -0.015805153 0.5453763
0.065259635 -0.013986748 0.54521984
0.074954301 -0.013038346 0.54443985
0.083043359 -0.011453953 0.5420143
0.097078413 -0.016574122 0.54113555
0.10153565 -0.013661583 0.54386991
0.077989638 -0.0094827674 0.54802346
0.085621938 -0.0075715929 0.54566568
0.095174603 -0.0069662509 0.54505199
0.1002079 -0.0098678097 0.5469197
0.086072139 -0.18150876 0.55077517
0.092413083 -0.18073472 0.55097079
0.10474631 -0.17629585 0.5556733
0.11550003 -0.1745678 0.5571779
0.12069445 -0.17629278 0.5592683
0.079150498 -0.14482217 0.55019647
0.086293623 -0.13602012 0.55134416
0.094893456 -0.13511764 0.55401212
0.1029127 -0.13457316 0.55787748
0.088836893 -0.12874445 0.55020225
0.095739305 -0.12519924 0.55241483
0.10319392 -0.1247551 0.5575788
0.087828144 -0.11364273 0.55052048
0.095048182 -0.11510691 0.55315042
0.10263189 -0.11551201 0.55836171
0.087408371 -0.10534416 0.55051655
0.095048718 -0.10506637 0.55399752
0.087655537 -0.094605297 0.55040497
0.094734021 -0.094800368 0.55497301
0.0883471 -0.084605969 0.55048496
0.094694845 -0.085102372 0.5549075
0.087461077 -0.074360274 0.55115825
0.095137522 -0.07525681 0.55486053
0.079316847 -0.065361731 0.55025804
0.084942661 -0.064827561 0.55367601
0.07686545 -0.053735215 0.55103797
0.07714387 -0.045634776 0.55076694
0.079043314 -0.037964784 0.55093956
0.085230634 -0.035119426 0.55460811
0.10186483 -0.03144699 0.55897141
0.087630332 -0.028696554 0.55140752
0.095663831 -0.027025308 0.55323929
0.10236418 -0.026202727 0.55653948
0.10206815 -0.011527839 0.55150479
0.084076554 -0.0031178736 0.55398327
0.09539938 -0.0035898292 0.55525154
0.10109522 -0.0084499558 0.55585057
0.116678 -0.17098078 0.56051922
0.12553385 -0.17363121 0.56293684
0.13477208 -0.17274326 0.56680506
0.14201376 -0.17089219 0.56848389
0.14458051 -0.16651186 0.56906319
0.15254796 -0.16711754 0.56937379
0.155798 -0.16341582 0.5724898
0.045427293 -0.091973923 0.46965387
0.043746594 -0.084708385 0.46906829
0.038532645 -0.073072091 0.46821254
0.041082576 -0.07610058 0.46937102
0.035948254 -0.065141052 0.46864906
0.033414435 -0.058196526 0.46900827
0.0850811 -0.18356059 0.47800863
0.083184719 -0.17470486 0.47701833
0.078155443 -0.16379037 0.47641134
0.081153303 -0.16618563 0.47849125
0.074846715 -0.15520981 0.47646746
0.068708584 -0.1430815 0.47544083
0.071580641 -0.14606285 0.47741398
0.066793978 -0.13475733 0.47652847
0.070174918 -0.1395883 0.47905833
0.058766119 -0.12235699 0.47294697
0.063218869 -0.12490597 0.47667179
0.058647059 -0.11408217 0.4728162
0.061022781 -0.11550514 0.47643548
0.037496984 -0.10526429 0.4783895
0.047937572 -0.10289452 0.47347331
0.054806955 -0.10548653 0.47517353
0.048486006 -0.093618065 0.47340059
0.050983939 -0.096833892 0.47668383
0.046022858 -0.085132383 0.47439167
0.038999259 -0.070114397 0.47001365
0.042496026 -0.07503701 0.47409818
0.038109861 -0.064383596 0.47448128
0.040691946 -0.068806149 0.473638
0.033545967 -0.055929806 0.47521421
0.087915443 -0.1831224 0.48469386
0.090684235 -0.1846046 0.48905849
0.084777988 -0.17536265 0.48479563
0.079923481 -0.16049525 0.48997095
0.081967384 -0.16479638 0.48444068
0.077208169 -0.15460174 0.48408085
0.08024212 -0.15898205 0.48444796
0.069405958 -0.14189854 0.4882715
0.072074011 -0.14568734 0.48392352
0.068007588 -0.13494237 0.48482135
0.070206642 -0.13878843 0.48084655
0.064252675 -0.1251349 0.48460466
0.058785688 -0.11177234 0.48645908
0.061673302 -0.11639564 0.48388481
0.055343691 -0.10513842 0.48428291
0.049014509 -0.093370683 0.48590448
0.051086042 -0.097747348 0.4838455
0.045708615 -0.085140876 0.48464987
0.038815837 -0.074038088 0.48650017
0.041155037 -0.076299109 0.48248473
0.036530975 -0.06479764 0.48490247
0.040110677 -0.069864042 0.48043415
0.028801661 -0.050732367 0.48575443
0.031966217 -0.055472672 0.48469409
0.028907239 -0.049692102 0.48431069
0.088026054 -0.18221571 0.49478728
0.090699382 -0.1844901 0.49524704
0.079676285 -0.1708294 0.49890187
0.082824275 -0.17586236 0.4947938
0.078657314 -0.16364035 0.49685156
0.081039324 -0.16615099 0.4926182
0.074593268 -0.15494686 0.49454445
0.06814874 -0.14424177 0.49558198
0.071015865 -0.14873835 0.49243775
0.064509414 -0.1350956 0.49493909
0.058987245 -0.12268787 0.49766615
0.061670572 -0.12588544 0.49363104
0.056495667 -0.11453938 0.49495557
0.060551912 -0.11857682 0.49162102
0.049283825 -0.10183106 0.49876785
0.052091178 -0.10520232 0.49422997
0.047963858 -0.094847344 0.49479148
0.050424535 -0.099056393 0.49122524
0.038448982 -0.080970824 0.49583378
0.044525869 -0.08567518 0.49407279
0.035557274 -0.074944586 0.49493435
0.034490149 -0.064689785 0.49481121
0.01836127 -0.050182864 0.49593914
0.029877186 -0.051089093 0.49049968
0.031554516 -0.055024602 0.49481955
0.019057959 -0.049439557 0.49757707
0.026330642 -0.048517738 0.49504572
0.031203803 -0.047839724 0.49785876
0.08514104 -0.18290913 0.5050469
0.090243489 -0.18525067 0.5021103
0.07856749 -0.1734017 0.50556648
0.081119351 -0.17793909 0.50412518
0.076017439 -0.16496947 0.50512302
0.068769179 -0.152969 0.50556654
0.072248161 -0.15725029 0.50375336
0.065949172 -0.14510255 0.5049634
0.058600958 -0.13330525 0.50671095
0.061776113 -0.13743597 0.50401425
0.056572326 -0.12548871 0.50509512
0.04922447 -0.11147227 0.50810683
0.052415643 -0.11534569 0.50445759
0.047762964 -0.10468052 0.50557518
0.050685316 -0.10878399 0.50086749
0.13892466 -0.10108367 0.50846356
0.14212665 -0.1059824 0.50853258
0.045549985 -0.09469609 0.50486636
0.13504396 -0.093428887 0.50909573
0.036891825 -0.082103796 0.50528592
0.042703502 -0.086949818 0.50391978
0.13216685 -0.084166564 0.50907028
0.032956611 -0.075180069 0.50504005
0.12896442 -0.072905287 0.50853974
0.13107367 -0.077472784 0.50865859
0.032322831 -0.064846464 0.50502777
0.12910184 -0.061348174 0.50644171
0.13012838 -0.061594218 0.50836372
0.0093556941 -0.050812364 0.50196576
0.032074742 -0.054721367 0.50485438
0.12698171 -0.057549842 0.5061838
0.0093412995 -0.048042361 0.50662845
0.014849772 -0.047161683 0.50466686
0.025663631 -0.044147581 0.50458723
0.034358028 -0.046010286 0.50525564
0.11476889 -0.034277078 0.50679749
0.10492849 -0.021853171 0.5085696
0.10293511 -0.01957483 0.50953871
0.079454727 -0.18134756 0.51814771
0.081937805 -0.18482752 0.51489109
0.076681815 -0.17499846 0.51509762
0.080250226 -0.17925413 0.51150131
0.06919191 -0.16145021 0.51814133
0.072325312 -0.16528101 0.51513773
0.067258351 -0.15440109 0.51488805
0.071020231 -0.15899119 0.51045942
0.059583768 -0.14095894 0.51763564
0.063048914 -0.14531447 0.51504385
0.057524718 -0.1350043 0.51524371
0.060412884 -0.13960445 0.51176286
0.053155217 -0.12497362 0.51522559
0.1488208 -0.1216164 0.51824349
0.049170572 -0.11314052 0.51513004
0.050557237 -0.11687593 0.51608431
0.14625312 -0.11488546 0.51407474
0.15013529 -0.11682892 0.51440775
0.046152331 -0.10541704 0.51524323
0.13950671 -0.10044981 0.51265234
0.14330144 -0.10492702 0.51367205
0.042978156 -0.095185339 0.51525521
0.13758051 -0.094446808 0.51416886
0.14041278 -0.098326467 0.51744121
0.036811151 -0.083934836 0.515571
0.041012034 -0.088980898 0.5143435
0.13441764 -0.085298754 0.51493651
0.031980447 -0.075289004 0.51542693
0.1292657 -0.070499495 0.51134431
0.13184123 -0.07518895 0.51425409
0.031516995 -0.064705439 0.51524454
0.12766837 -0.066793352 0.51436353
0.13055372 -0.069476239 0.51397175
-0.0074038059 -0.050648779 0.51659763
0.034973629 -0.054827943 0.514759
0.041350029 -0.051109664 0.51886165
0.11672327 -0.05372772 0.51653528
0.12458664 -0.058043089 0.51406747
-0.004396081 -0.04692347 0.5178079
0.0054002674 -0.04530533 0.51390833
0.012597449 -0.040845111 0.51808298
0.025555579 -0.041011319 0.51390761
0.036645483 -0.044375002 0.51287067
0.044717103 -0.044590663 0.51578122
0.052551609 -0.041921075 0.5185535
0.11194116 -0.047985401 0.51697421
0.017802626 -0.039700713 0.51852149
0.025482945 -0.039753322 0.51889759
0.035815109 -0.039309148 0.51862335
0.045690261 -0.038068015 0.51738542
0.054629065 -0.036807369 0.51812118
0.061739665 -0.034559172 0.51959592
0.11221764 -0.035633173 0.51368892
0.086075187 -0.023664329 0.51972169
0.095954418 -0.021104775 0.51336414
0.10404947 -0.023269076 0.51398867
0.097901471 -0.017318597 0.51578128
0.10369285 -0.017689342 0.51431543
0.079333521 -0.19087903 0.52852726
0.081454761 -0.19093409 0.52402061
0.078624256 -0.18469831 0.52542663
0.080452323 -0.18845004 0.52197909
0.074349068 -0.17515343 0.52507108
0.068710022 -0.16332059 0.5258947
0.071176261 -0.16828981 0.52529603
0.066694371 -0.15495026 0.52498412
0.059595533 -0.14082828 0.52265787
0.062685244 -0.14525093 0.52544188
0.05797971 -0.13436767 0.52438629
0.060790759 -0.13695651 0.52842259
0.054804023 -0.12498782 0.5253396
0.14679489 -0.12284371 0.52460706
0.049468242 -0.11148308 0.5215041
0.053089041 -0.11494838 0.52552086
0.14722043 -0.11946711 0.52348077
0.047206935 -0.10435547 0.5242334
0.052371114 -0.10607134 0.52828723
0.13945368 -0.10191958 0.52773178
0.14167069 -0.10461419 0.52284527
0.043502524 -0.095246479 0.52575535
0.13892685 -0.094155617 0.52481937
0.1402905 -0.098354891 0.5220325
0.038228225 -0.083680607 0.5236885
0.040971238 -0.086024322 0.52761352
0.13551377 -0.085153542 0.52473623
0.03572927 -0.074860461 0.52527076
0.042678833 -0.073768124 0.52961087
0.052379608 -0.0703547 0.52993792
0.12791911 -0.073354349 0.52663815
0.13122557 -0.076609604 0.52323127
0.035401076 -0.065351687 0.5253163
0.044583432 -0.065928131 0.52940661
0.054421641 -0.064830296 0.52933836
0.061331898 -0.061897874 0.52985388
0.11947958 -0.061540134 0.52896547
0.12317466 -0.063651502 0.52313077
0.037751928 -0.057619486 0.52298057
0.044246979 -0.054385271 0.52620661
0.052613232 -0.053538866 0.52947867
0.093253314 -0.051622979 0.52871263
0.10860331 -0.052850578 0.52771056
0.11664166 -0.057294887 0.52657944
0.12097755 -0.058620442 0.52214062
0.048058752 -0.04850769 0.52235007
0.055261631 -0.045409027 0.52529216
0.063825876 -0.042393383 0.52821642
0.074069411 -0.041525934 0.52959889
0.10858375 -0.04832663 0.52318698
0.024665339 -0.036972042 0.52569401
0.035154812 -0.035274372 0.52475101
0.044576216 -0.033210341 0.52396345
0.056206781 -0.033524502 0.52216417
0.065296896 -0.035451449 0.52297813
0.074789464 -0.034774084 0.52582705
0.082468599 -0.032888521 0.52780294
0.10522435 -0.034863722 0.52573639
0.047107749 -0.029412279 0.52901602
0.055684198 -0.0286393 0.52755743
0.065408148 -0.026742779 0.52599096
0.0755146 -0.026172543 0.52288485
0.083021946 -0.02634955 0.5221203
0.099355176 -0.028786294 0.52299666
0.1020712 -0.022001185 0.52079785
0.085527033 -0.017538683 0.52593601
0.095289119 -0.01428675 0.52547055
0.1026098 -0.015810879 0.52381295
0.079198189 -0.1915696 0.53428608
0.07814388 -0.18434946 0.53521162
0.074833244 -0.17526551 0.53546768
0.069385484 -0.16215681 0.53112316
0.073767222 -0.1648756 0.53512752
0.068632632 -0.15382759 0.53166342
0.074809089 -0.15504967 0.53633362
0.06650611 -0.14471094 0.53328115
0.05970487 -0.13135713 0.53014398
0.065133318 -0.13503011 0.53352034
0.058457717 -0.12358158 0.53124547
0.064972065 -0.12508665 0.53389984
0.074702285 -0.12529491 0.53802389
0.057808477 -0.11506415 0.5314976
0.064804152 -0.11506435 0.53522539
0.056829464 -0.10412718 0.53155607
0.064997815 -0.1050242 0.53504598
0.073488042 -0.10493923 0.53834617
0.13730414 -0.1042143 0.53572345
0.05494478 -0.095183372 0.53329319
0.064979427 -0.095016181 0.53596169
0.073617108 -0.095090188 0.53848296
0.137095 -0.095227756 0.53461313
0.065102302 -0.085237555 0.53648567
0.07457833 -0.084708326 0.53864181
0.080212414 -0.083974734 0.53997725
0.12867562 -0.081488371 0.53732705
0.13354634 -0.085519351 0.53397733
0.046265513 -0.076228574 0.53116816
0.055531144 -0.074942566 0.5329144
0.064969122 -0.0747912 0.53701365
0.073043019 -0.076332927 0.53948706
0.1252477 -0.074110314 0.5353027
0.13020831 -0.079233401 0.53006184
0.045606069 -0.062122576 0.5302856
0.057409149 -0.065702848 0.53036988
0.065247439 -0.065103538 0.53300053
0.074724123 -0.06444782 0.53680217
0.082558684 -0.06176253 0.53769988
0.11699159 -0.06369625 0.5366047
0.047767881 -0.057733048 0.53057891
0.055525016 -0.055057958 0.53057265
0.065007158 -0.055074949 0.53081483
0.075005315 -0.055144981 0.5318023
0.084603235 -0.0547457 0.53265536
0.10570902 -0.053647418 0.5373916
0.11321905 -0.057752118 0.53559709
0.05889824 -0.048385248 0.5306083
0.065633744 -0.047004364 0.53081459
0.075549304 -0.045894228 0.530509
0.082598761 -0.046541557 0.53101057
0.099158019 -0.041108474 0.5393433
0.100043 -0.047752161 0.53913736
0.040047824 -0.030230224 0.53002155
0.07892134 -0.039087772 0.5303241
0.08196865 -0.036947396 0.53053385
0.097033374 -0.03222838 0.539298
0.10155119 -0.038217194 0.5347414
0.054948758 -0.024111081 0.53474283
0.064404942 -0.021378245 0.53472316
0.071134739 -0.020962402 0.53240877
0.095086619 -0.025695806 0.53550911
0.067006342 -0.018503187 0.53861958
0.075668395 -0.01548627 0.53666645
0.084977508 -0.012482791 0.53483641
0.096588723 -0.013621152 0.53557688
0.10061687 -0.01538403 0.5303002
0.086043596 -0.0099147949 0.53943801
0.090265006 -0.0097928625 0.53866565
0.14283836 -0.1527282 0.54748553
0.13531661 -0.13279928 0.54791605
0.1377881 -0.12864423 0.54587227
0.13442384 -0.1138877 0.54702437
0.13515207 -0.10507439 0.54580522
0.13341337 -0.095268629 0.54550666
0.078930326 -0.085562386 0.5404135
0.085032366 -0.085213356 0.54285169
0.12702288 -0.083846822 0.54613042
0.13161202 -0.088023297 0.54319638
0.076666191 -0.074079245 0.54051882
0.083105817 -0.076138325 0.54194218
0.11922796 -0.070398517 0.54264438
0.12286235 -0.07443013 0.54557633
0.077974401 -0.068432346 0.5406068
0.082002632 -0.06629277 0.54167461
0.11608586 -0.065747291 0.54550976
0.10601884 -0.052801132 0.54513276
0.11170787 -0.057219069 0.54637003
0.098183841 -0.044506513 0.54583085
0.10229514 -0.047600657 0.54809076
0.098511048 -0.034797613 0.54414445
0.10153624 -0.03429364 0.54815775
0.096517295 -0.025061268 0.54457122
0.10144281 -0.027930271 0.54847199
0.072576657 -0.011913287 0.54269218
0.080681786 -0.010366391 0.54066628
0.096158713 -0.014943028 0.54529274
0.085102141 -0.00755237 0.54580635
0.091537416 -0.0089991856 0.54541099
0.14610854 -0.15149572 0.55462253
0.14433742 -0.14575294 0.55660695
0.12966448 -0.13819952 0.55142617
0.13622846 -0.13543165 0.55481267
0.13638605 -0.12502234 0.55526197
0.13667636 -0.11511724 0.55506521
0.13525552 -0.10506201 0.55528343
0.1320173 -0.096385382 0.55519491
0.10908425 -0.050562847 0.55109286
