# .PCD v0.7 - Point Cloud Data file format
VERSION 0.7
FIELDS x y z rgb
SIZE 4 4 4 4
TYPE F F F U
COUNT 1 1 1 1
WIDTH 992
HEIGHT 1
VIEWPOINT 0 0 0 1 0 0 0
POINTS 992
DATA ascii
-0.038242184 -0.012719629 0.074315332 4278190080
-0.038470291 -0.014 0.074581869 4278190080
-0.037905045 -0.013600303 0.073951602 4278190080
-0.03788827 -0.013644125 0.073933505 4278190080
-0.037777178 -0.014000106 0.073824599 4278190080
-0.037779346 -0.013876604 0.07382264 4278190080
-0.037721481 -0.014000114 0.073763743 4278190080
-0.019021377 -0.014 0.081942677 4278190080
-0.019000001 -0.014 0.081599995 4278190080
-0.019000001 -0.0082 0.081599995 4278190080
-0.019022178 -0.0082 0.081942588 4278190080
-0.019085288 -0.014 0.082967132 4278190080
-0.019091811 -0.0082 0.083018251 4278190080
-0.019389451 -0.014 0.084428288 4278190080
-0.019389823 -0.0082 0.084428146 4278190080
-0.019446399 -0.014 0.084701851 4278190080
-0.01945091 -0.0082 0.084717162 4278190080
-0.020081345 -0.014 0.086356074 4278190080
-0.020072889 -0.0082 0.086338401 4278190080
-0.020315986 -0.014 0.086758621 4278190080
-0.020315986 -0.0082 0.086758725 4278190080
-0.020973656 -0.014 0.0878869 4278190080
-0.020942245 -0.0082 0.087841555 4278190080
-0.021744628 -0.014 0.088822924 4278190080
-0.021741789 -0.0082 0.088825494 4278190080
-0.022100177 -0.014 0.089254588 4278190080
-0.022037316 -0.0082 0.089189179 4278190080
-0.023431674 -0.014 0.090423666 4278190080
-0.023330811 -0.0082 0.090347677 4278190080
-0.023589529 -0.014 0.090522476 4278190080
-0.023593366 -0.0082 0.09051685 4278190080
-0.024933606 -0.014 0.091363788 4278190080
-0.024790503 -0.0082 0.091288194 4278190080
-0.025793329 -0.014 0.091725275 4278190080
-0.025792398 -0.0082 0.091728844 4278190080
-0.026566993 -0.014 0.092050575 4278190080
-0.02638001 -0.0082 0.091987282 4278190080
-0.028059725 -0.0082 0.092427522 4278190080
-0.028198972 -0.014 0.092444353 4278190080
-0.028198298 -0.0082 0.092441194 4278190080
-0.028289463 -0.014 0.09246619 4278190080
-0.029787794 -0.0082 0.092597954 4278190080
-0.030056313 -0.014 0.092599854 4278190080
-0.040892053 -0.014 0.08303801 4278190080
-0.04058481 -0.014 0.084593631 4278190080
-0.040845357 -0.0082 0.083437994 4278190080
-0.040880956 -0.0082 0.083038457 4278190080
-0.040928137 -0.014 0.082855314 4278190080
-0.030706488 -0.014 0.092543967 4278190080
-0.030707292 -0.0082 0.092542976 4278190080
-0.031821705 -0.014 0.092448108 4278190080
-0.031521145 -0.0082 0.092494316 4278190080
-0.033178475 -0.014 0.092105992 4278190080
-0.033183716 -0.0082 0.092126474 4278190080
-0.033539824 -0.014 0.092014872 4278190080
-0.033216596 -0.0082 0.092119195 4278190080
-0.035166096 -0.014 0.09131141 4278190080
-0.034831889 -0.0082 0.091481946 4278190080
-0.03547994 -0.014 0.09111046 4278190080
-0.035475623 -0.0082 0.091101483 4278190080
-0.036658324 -0.014 0.090355955 4278190080
-0.036326773 -0.0082 0.090598442 4278190080
-0.037491843 -0.014 0.089608863 4278190080
-0.037504852 -0.0082 0.089622535 4278190080
-0.037977785 -0.014 0.089173302 4278190080
-0.037663996 -0.0082 0.089490697 4278190080
-0.039090242 -0.014 0.087794147 4278190080
-0.038810238 -0.0082 0.088186324 4278190080
-0.039136294 -0.014 0.087713256 4278190080
-0.039116781 -0.0082 0.087700561 4278190080
-0.039966833 -0.014 0.086254276 4278190080
-0.039736934 -0.0082 0.086717822 4278190080
-0.04025954 -0.014 0.085467704 4278190080
-0.040271368 -0.0082 0.085470885 4278190080
-0.04042099 -0.0082 0.085121788 4278190080
-0.040987913 -0.014 0.081084423 4278190080
-0.040999465 -0.0082 0.081708394 4278190080
-0.040916793 -0.014 0.08052972 4278190080
-0.040917691 -0.0082 0.080527849 4278190080
-0.040762577 -0.014 0.079326905 4278190080
-0.040879473 -0.0082 0.079976097 4278190080
-0.04039067 -0.014 0.078075022 4278190080
-0.04048837 -0.0082 0.078284264 4278190080
-0.040402718 -0.0082 0.07807301 4278190080
-0.040257983 -0.014 0.077628374 4278190080
-0.03948722 -0.014 0.076032892 4278190080
-0.018517543 -0.0082 0.078863837 4278190080
-0.018517543 -0.014 0.078863837 4278190080
-0.016098976 -0.014 0.072218888 4278190080
-0.018784359 -0.014 0.079755075 4278190080
-0.018878464 -0.0082 0.080210812 4278190080
-0.018865135 -0.014 0.080213167 4278190080
-0.018945906 -0.014 0.080671258 4278190080
-0.026825 -0.0071999999 0.081599995 4278190080
-0.026894383 -0.016000001 0.080939882 4278190080
-0.026825 -0.016000001 0.081599995 4278190080
-0.026894383 -0.0071999999 0.082260117 4278190080
-0.026894383 -0.0071999999 0.080939882 4278190080
-0.027431373 -0.0071999999 0.079733782 4278190080
-0.027431373 -0.016000001 0.079733782 4278190080
-0.028412502 -0.0071999999 0.078850366 4278190080
-0.028412502 -0.016000001 0.078850366 4278190080
-0.029668123 -0.0071999999 0.078442395 4278190080
-0.029668123 -0.016000001 0.078442395 4278190080
-0.030981131 -0.0071999999 0.078580394 4278190080
-0.030981131 -0.016000001 0.078580394 4278190080
-0.03212449 -0.0071999999 0.079240516 4278190080
-0.03212449 -0.016000001 0.079240516 4278190080
-0.032900508 -0.0071999999 0.080308609 4278190080
-0.032900508 -0.016000001 0.080308609 4278190080
-0.033174999 -0.0071999999 0.081599995 4278190080
-0.033174999 -0.016000001 0.081599995 4278190080
-0.032900508 -0.0071999999 0.08289139 4278190080
-0.032900508 -0.016000001 0.08289139 4278190080
-0.03212449 -0.0071999999 0.083959483 4278190080
-0.03212449 -0.016000001 0.083959483 4278190080
-0.030981131 -0.0071999999 0.084619604 4278190080
-0.030981131 -0.016000001 0.084619604 4278190080
-0.029668123 -0.0071999999 0.084757604 4278190080
-0.029668123 -0.016000001 0.084757604 4278190080
-0.028412502 -0.0071999999 0.084349632 4278190080
-0.028412502 -0.016000001 0.084349632 4278190080
-0.027431373 -0.0071999999 0.083466217 4278190080
-0.027431373 -0.016000001 0.083466217 4278190080
-0.026894383 -0.016000001 0.082260117 4278190080
-0.036930237 -0.016000001 0.075857893 4278190080
-0.036320586 -0.016000001 0.075191163 4278190080
-0.017563917 -0.016000001 0.070600003 4278190080
-0.031490486 -0.016000001 0.090475723 4278190080
-0.032896221 -0.016000001 0.090121262 4278190080
-0.030046076 -0.016000001 0.09059988 4278190080
-0.028600469 -0.016000001 0.09049052 4278190080
-0.028880596 -0.016000001 0.070600003 4278190080
-0.029624231 -0.016000001 0.070923038 4278190080
-0.037437469 -0.016000001 0.08666794 4278190080
-0.027191177 -0.016000001 0.090150468 4278190080
-0.025854766 -0.016000001 0.089588553 4278190080
-0.034863479 -0.016000001 0.073797412 4278190080
-0.034415174 -0.016000001 0.073402815 4278190080
-0.03352404 -0.016000001 0.072701678 4278190080
-0.037762269 -0.016000001 0.077045098 4278190080
-0.038392894 -0.016000001 0.078350484 4278190080
-0.038805746 -0.016000001 0.079740196 4278190080
-0.03899011 -0.016000001 0.081178166 4278190080
-0.034226809 -0.016000001 0.089545697 4278190080
-0.03544772 -0.016000001 0.08876396 4278190080
-0.036527276 -0.016000001 0.087796338 4278190080
-0.032679077 -0.016000001 0.072160579 4278190080
-0.031763248 -0.016000001 0.07170976 4278190080
-0.030671403 -0.016000001 0.071294196 4278190080
-0.03815468 -0.016000001 0.085408039 4278190080
-0.038660299 -0.016000001 0.084049337 4278190080
-0.038941205 -0.016000001 0.082627073 4278190080
-0.024625916 -0.016000001 0.088819362 4278190080
-0.023536507 -0.016000001 0.087862849 4278190080
-0.021884736 -0.016000001 0.085491337 4278190080
-0.022614811 -0.016000001 0.086743824 4278190080
-0.02106978 -0.016000001 0.082718566 4278190080
-0.021365233 -0.016000001 0.084137872 4278190080
-0.017978363 -0.016000001 0.07153485 4278190080
-0.020396926 -0.016000001 0.078179799 4278190080
-0.020730451 -0.016000001 0.07929384 4278190080
-0.020932384 -0.016000001 0.080439068 4278190080
-0.021000002 -0.016000001 0.081599995 4278190080
-0.03743631 0.016000001 0.086669646 4278190080
-0.032900508 0.016000001 0.08289139 4278190080
-0.038153753 0.016000001 0.085410029 4278190080
-0.032900508 0.016000001 0.080308609 4278190080
-0.038393922 0.016000001 0.078353144 4278190080
-0.038806304 0.016000001 0.079742849 4278190080
-0.033174999 0.016000001 0.081599995 4278190080
-0.037763778 0.016000001 0.077047661 4278190080
-0.03212449 0.016000001 0.079240516 4278190080
-0.036932219 0.016000001 0.075860284 4278190080
-0.030981131 0.016000001 0.078580394 4278190080
-0.033554479 0.016000001 0.07271906 4278190080
-0.034442317 0.016000001 0.073421948 4278190080
-0.034969747 0.016000001 0.073891766 4278190080
-0.036322273 0.016000001 0.075193048 4278190080
-0.029668123 0.016000001 0.084757604 4278190080
-0.027190212 0.016000001 0.090150148 4278190080
-0.028412502 0.016000001 0.084349632 4278190080
-0.03212449 0.016000001 0.083959483 4278190080
-0.029668123 0.016000001 0.078442395 4278190080
-0.029626124 0.016000001 0.070917577 4278190080
-0.030683678 0.016000001 0.071289256 4278190080
-0.031777214 0.016000001 0.071711086 4278190080
-0.032700922 0.016000001 0.07217057 4278190080
-0.021884579 0.016000001 0.085491009 4278190080
-0.027431373 0.016000001 0.083466217 4278190080
-0.022614527 0.016000001 0.086743422 4278190080
-0.030981131 0.016000001 0.084619604 4278190080
-0.032894764 0.016000001 0.090121754 4278190080
-0.031489097 0.016000001 0.090475954 4278190080
-0.030044798 0.016000001 0.090599887 4278190080
-0.028599337 0.016000001 0.090490341 4278190080
-0.03652595 0.016000001 0.087797739 4278190080
-0.035446286 0.016000001 0.088765047 4278190080
-0.034225333 0.016000001 0.089546479 4278190080
-0.038990229 0.016000001 0.081180744 4278190080
-0.038940925 0.016000001 0.082629509 4278190080
-0.038659666 0.016000001 0.084051572 4278190080
-0.020730451 0.016000001 0.07929384 4278190080
-0.027431373 0.016000001 0.079733782 4278190080
-0.026894383 0.016000001 0.080939882 4278190080
-0.026894383 0.016000001 0.082260117 4278190080
-0.025853984 0.016000001 0.08958815 4278190080
-0.024625313 0.016000001 0.088818915 4278190080
-0.023536075 0.016000001 0.087862395 4278190080
-0.020396926 0.016000001 0.078179799 4278190080
-0.017978363 0.016000001 0.07153485 4278190080
-0.028412502 0.016000001 0.078850366 4278190080
-0.017563917 0.016000001 0.070600003 4278190080
-0.028885424 0.016000001 0.070600003 4278190080
-0.021365169 0.016000001 0.084137656 4278190080
-0.021069769 0.016000001 0.082718462 4278190080
-0.026825 0.016000001 0.081599995 4278190080
-0.021000002 0.016000001 0.081599995 4278190080
-0.020932384 0.016000001 0.080439068 4278190080
-0.016098976 0.014 0.072218888 4278190080
-0.018517543 0.014 0.078863837 4278190080
-0.018517543 0.0082 0.078863837 4278190080
-0.018784359 0.014 0.079755075 4278190080
-0.018878464 0.0082 0.080210812 4278190080
-0.018945906 0.014 0.080671258 4278190080
-0.018865135 0.014 0.080213167 4278190080
-0.030000001 0.0071999999 0.084775001 4278190080
-0.029668123 0.0071999999 0.084757604 4278190080
-0.028412502 0.0071999999 0.084349632 4278190080
-0.027431373 0.0071999999 0.083466217 4278190080
-0.026894383 0.0071999999 0.082260117 4278190080
-0.026894383 0.0071999999 0.080939882 4278190080
-0.027431373 0.0071999999 0.079733782 4278190080
-0.028412502 0.0071999999 0.078850366 4278190080
-0.029668123 0.0071999999 0.078442395 4278190080
-0.030981131 0.0071999999 0.078580394 4278190080
-0.03212449 0.0071999999 0.079240516 4278190080
-0.032900508 0.0071999999 0.080308609 4278190080
-0.033174999 0.0071999999 0.081599995 4278190080
-0.032900508 0.0071999999 0.08289139 4278190080
-0.03212449 0.0071999999 0.083959483 4278190080
-0.030981131 0.0071999999 0.084619604 4278190080
-0.0312429 -0.0071999999 0.070167363 4278190080
-0.033325177 -0.0071999999 0.070591219 4278190080
-0.02702358 -0.0071999999 0.07049185 4278190080
-0.029118188 -0.0071999999 0.070133857 4278190080
-0.038009308 -0.0071999999 0.087587565 4278190080
-0.03696727 -0.0071999999 0.088773362 4278190080
-0.038851757 -0.0071999999 0.08625257 4278190080
-0.039534882 -0.0071999999 0.078585692 4278190080
-0.039890431 -0.0071999999 0.080123723 4278190080
-0.020975355 -0.0071999999 0.085907638 4278190080
-0.021765675 -0.0071999999 0.087274142 4278190080
-0.028236113 -0.0071999999 0.091443203 4278190080
-0.026709098 -0.0071999999 0.091042981 4278190080
-0.029807083 -0.0071999999 0.091598138 4278190080
-0.031382862 -0.0071999999 0.091503926 4278190080
-0.035751611 -0.0071999999 0.089780398 4278190080
-0.034392625 -0.0071999999 0.090583585 4278190080
-0.032924179 -0.0071999999 0.091162905 4278190080
-0.039999515 -0.0071999999 0.081698537 4278190080
-0.039859418 -0.0071999999 0.0832709 4278190080
-0.039473627 -0.0071999999 0.084801629 4278190080
-0.019457232 -0.0071999999 0.078521818 4278190080
-0.035293918 -0.0071999999 0.071390964 4278190080
-0.025264092 -0.0071999999 0.090407446 4278190080
-0.023937102 -0.0071999999 0.08955244 4278190080
-0.022761196 -0.0071999999 0.088499255 4278190080
-0.037886146 -0.0071999999 0.075383045 4278190080
-0.038289838 -0.0071999999 0.076007269 4278190080
-0.038941726 -0.0071999999 0.077122778 4278190080
-0.020409919 -0.0071999999 0.084433787 4278190080
-0.020083465 -0.0071999999 0.082889318 4278190080
-0.02 -0.0071999999 0.081599995 4278190080
-0.01986327 -0.0071999999 0.080037169 4278190080
-0.021765538 0.0071999999 0.08727394 4278190080
-0.022760984 0.0071999999 0.088499032 4278190080
-0.023936804 0.0071999999 0.089552209 4278190080
-0.025263708 0.0071999999 0.090407245 4278190080
-0.026708629 0.0071999999 0.091042817 4278190080
-0.028235558 0.0071999999 0.091443107 4278190080
-0.020975277 0.0071999999 0.085907474 4278190080
-0.020409886 0.0071999999 0.084433675 4278190080
-0.020083461 0.0071999999 0.082889266 4278190080
-0.02 0.0071999999 0.081599995 4278190080
-0.038851257 0.0071999999 0.086253516 4278190080
-0.039473262 0.0071999999 0.084802702 4278190080
-0.039859217 0.0071999999 0.083272085 4278190080
-0.038008701 0.0071999999 0.087588377 4278190080
-0.036966592 0.0071999999 0.088774025 4278190080
-0.037500739 0.0071999999 0.074733466 4278190080
-0.039890628 0.0071999999 0.080125041 4278190080
-0.039535303 0.0071999999 0.078587025 4278190080
-0.039999504 0.0071999999 0.081699803 4278190080
-0.035750888 0.0071999999 0.089780912 4278190080
-0.034391891 0.0071999999 0.090583943 4278190080
-0.029806457 0.0071999999 0.091598123 4278190080
-0.031382177 0.0071999999 0.091504015 4278190080
-0.032923456 0.0071999999 0.091163129 4278190080
-0.019457232 0.0071999999 0.078521818 4278190080
-0.01986327 0.0071999999 0.080037169 4278190080
-0.03332508 0.0071999999 0.070591189 4278190080
-0.031242836 0.0071999999 0.070167355 4278190080
-0.029118154 0.0071999999 0.070133857 4278190080
-0.02702358 0.0071999999 0.07049185 4278190080
-0.035293803 0.0071999999 0.071390904 4278190080
-0.038942382 0.0071999999 0.077124082 4278190080
-0.038290683 0.0071999999 0.076008521 4278190080
-0.03828989 0.0071999999 0.07600724 4278190080
-0.025500502 -0.016928807 0.063000001 4278190080
-0.025259208 -0.017005315 0.067850694 4278190080
-0.025499281 -0.016925141 0.067932643 4278190080
-0.027934995 0.015933482 0.068631589 4278190080
-0.027800001 0.016000001 0.068659768 4278190080
-0.028434861 0.0156746 0.063000001 4278190080
-0.028121427 0.015835304 0.068572365 4278190080
-0.026034407 0.016745923 0.068116501 4278190080
-0.025499307 0.016925236 0.067932479 4278190080
-0.025500502 0.016928807 0.063000001 4278190080
-0.026673455 0.016501667 0.068418019 4278190080
-0.027201407 0.016278198 0.068758361 4278190080
-0.030518107 0.014359993 0.067406878 4278190080
-0.030041263 0.014684717 0.067688175 4278190080
-0.029508062 0.015047817 0.068002716 4278190080
-0.029090364 0.015295622 0.068198211 4278190080
-0.028648961 0.01555749 0.068404794 4278190080
-0.028433062 0.015671186 0.068473369 4278190080
-0.032738782 0.012424058 0.06607271 4278190080
-0.033404674 0.01171131 0.063000001 4278190080
-0.033306364 0.011822889 0.065779381 4278190080
-0.03109812 0.0139166 0.063000001 4278190080
-0.031886492 0.013236489 0.066562429 4278190080
-0.031612668 0.013490216 0.066723742 4278190080
-0.031089593 0.013905872 0.067050204 4278190080
-0.030977543 0.013994909 0.067120135 4278190080
-0.032567583 0.012605391 0.066161186 4278190080
-0.035280388 0.0091296071 0.063000001 4278190080
-0.035369013 0.008967909 0.065402754 4278190080
-0.03527553 0.009126748 0.065381713 4278190080
-0.035100441 0.0094242617 0.065342315 4278190080
-0.034828793 0.0098346965 0.06535247 4278190080
-0.034575779 0.010216981 0.065361924 4278190080
-0.034210742 0.010707483 0.065452114 4278190080
-0.033971895 0.011028427 0.06551113 4278190080
-0.033514407 0.011574543 0.065695532 4278190080
-0.033401832 0.011708926 0.065740906 4278190080
-0.036664981 0.0062544718 0.063000001 4278190080
-0.036589477 0.0064361212 0.066341087 4278190080
-0.036399711 0.0069202208 0.066062152 4278190080
-0.0362418 0.0072678733 0.06591171 4278190080
-0.03600134 0.0077972524 0.065682627 4278190080
-0.03583771 0.0081118131 0.065593578 4278190080
-0.035570286 0.008625905 0.065448046 4278190080
-0.037513949 0.0031783127 0.063000001 4278190080
-0.037629306 0.0024591945 0.06762974 4278190080
-0.037511934 0.0031779835 0.06773629 4278190080
-0.037495852 0.0032764631 0.067750886 4278190080
-0.037037119 0.0051552504 0.067206606 4278190080
-0.036882788 0.0056196353 0.066874161 4278190080
-0.036733821 0.0060678823 0.066553265 4278190080
-0.036661252 0.0062530148 0.066446595 4278190080
-0.037513949 -0.0031783127 0.063000001 4278190080
-0.037509643 -0.0031775637 0.067742065 4278190080
-0.037603386 -0.0026383463 0.067648202 4278190080
-0.037708633 -0.0018011904 0.067599997 4278190080
-0.037799999 1.0608596e-16 0.063000001 4278190080
-0.037799999 1.1674721e-16 0.067599997 4278190080
-0.037708633 0.0018011904 0.067599997 4278190080
-0.036876626 -0.0056323647 0.066863708 4278190080
-0.037058908 -0.0050826864 0.067250736 4278190080
-0.037460949 -0.0034576405 0.067790814 4278190080
-0.036664981 -0.0062544718 0.063000001 4278190080
-0.036237411 -0.0072792266 0.06590499 4278190080
-0.036392599 -0.0069370512 0.066052407 4278190080
-0.035280388 -0.0091296071 0.063000001 4278190080
-0.035370976 -0.0089647351 0.065411754 4278190080
-0.035600856 -0.0085704932 0.065466143 4278190080
-0.035835471 -0.0081162909 0.065595813 4278190080
-0.036018323 -0.0077623026 0.065696873 4278190080
-0.036584046 -0.0064515136 0.066330686 4278190080
-0.036662176 -0.0062533696 0.066444248 4278190080
-0.036715731 -0.0061175432 0.066522099 4278190080
-0.034834784 -0.0098265177 0.065364562 4278190080
-0.035142925 -0.009355844 0.065357804 4278190080
-0.035276249 -0.0091271931 0.065389343 4278190080
-0.03351621 -0.011574569 0.065701008 4278190080
-0.033404674 -0.01171131 0.063000001 4278190080
-0.033403512 -0.011710346 0.065744326 4278190080
-0.03401465 -0.010974043 0.065509394 4278190080
-0.034216329 -0.010700376 0.065463506 4278190080
-0.034631573 -0.010136916 0.065369025 4278190080
-0.031892374 -0.0132335 0.066568591 4278190080
-0.03109812 -0.0139166 0.063000001 4278190080
-0.031663794 -0.013446038 0.066704355 4278190080
-0.032563336 -0.012609625 0.066170067 4278190080
-0.032738239 -0.012423464 0.066080481 4278190080
-0.033367716 -0.011753477 0.065758087 4278190080
-0.028434861 -0.0156746 0.063000001 4278190080
-0.028118026 -0.015835928 0.068569146 4278190080
-0.028433993 -0.015672915 0.068479121 4278190080
-0.028518073 -0.015629537 0.06845516 4278190080
-0.02909296 -0.015295238 0.068201557 4278190080
-0.029370863 -0.015133637 0.068078965 4278190080
-0.030049611 -0.014677281 0.067691006 4278190080
-0.030478586 -0.014388858 0.067445815 4278190080
-0.030988328 -0.013983362 0.067126922 4278190080
-0.031088095 -0.013904001 0.067064509 4278190080
-0.026014611 -0.016753042 0.068108544 4278190080
-0.026657511 -0.016508106 0.068409257 4278190080
-0.027195282 -0.016280906 0.068753712 4278190080
-0.027800001 -0.016000001 0.068659753 4278190080
-0.022389352 -0.017638905 0.063000001 4278190080
-0.021958966 -0.017691875 0.067324564 4278190080
-0.022387993 -0.017629536 0.067365363 4278190080
-0.023157202 -0.017517764 0.06743852 4278190080
-0.02426314 -0.017281946 0.067612492 4278190080
-0.019201405 -0.017782077 0.063000001 4278190080
-0.019201513 -0.017780693 0.067270741 4278190080
-0.019242261 -0.017783863 0.067268819 4278190080
-0.020507399 -0.017792767 0.067263581 4278190080
-0.021784324 -0.017710341 0.067313135 4278190080
-0.016039129 -0.017353717 0.063000001 4278190080
-0.015856873 -0.017311109 0.067589641 4278190080
-0.016040053 -0.017349279 0.06756179 4278190080
-0.016884081 -0.017525155 0.067433447 4278190080
-0.017997149 -0.017686961 0.067327626 4278190080
-0.013926361 -0.016731733 0.067563839 4278190080
-0.014550462 -0.01694528 0.067908123 4278190080
-0.014902767 -0.017054565 0.067805216 4278190080
-0.013004154 -0.016367594 0.063000001 4278190080
-0.011441782 -0.01560759 0.066746011 4278190080
-0.01235253 -0.016073462 0.066955321 4278190080
-0.013005488 -0.016364604 0.067173325 4278190080
-0.013154354 -0.016430981 0.067223027 4278190080
-0.0106098 -0.015121644 0.066636026 4278190080
-0.010194033 -0.014855403 0.063000001 4278190080
-0.010197837 -0.014849645 0.066618085 4278190080
-0.0076990849 -0.012865748 0.063000001 4278190080
-0.008112248 -0.013248446 0.066600002 4278190080
-0.0097826514 -0.01457552 0.066600002 4278190080
-0.0055994983 -0.010462577 0.063000001 4278190080
-0.0053052804 -0.010045161 0.066600002 4278190080
-0.0056179012 -0.010448307 0.066600002 4278190080
-0.0066126096 -0.011731061 0.066600002 4278190080
-0.0077167614 -0.012848279 0.066600002 4278190080
-0.0042090411 -0.0082149617 0.066600002 4278190080
-0.0039627547 -0.0077231308 0.063000001 4278190080
-0.0039851046 -0.0077131563 0.066600002 4278190080
-0.0033396347 -0.006266756 0.066600002 4278190080
-0.002841461 -0.0047354558 0.063000001 4278190080
-0.0028640977 -0.0047284584 0.066600002 4278190080
-0.002709554 -0.0042285291 0.066600002 4278190080
-0.0022716573 -0.0015955797 0.063000001 4278190080
-0.0023278478 -0.0021295601 0.066600002 4278190080
-0.002841461 0.0047354558 0.063000001 4278190080
-0.0028640977 0.0047284584 0.066600002 4278190080
-0.002709554 0.0042285291 0.066600002 4278190080
-0.0023278478 0.0021295601 0.066600002 4278190080
-0.0022716573 0.0015955797 0.063000001 4278190080
-0.0022957041 0.0015941361 0.066600002 4278190080
-0.0021999995 9.9546349e-17 0.063000001 4278190080
-0.0021999995 4.9437422e-17 0.066600002 4278190080
-0.0022957041 -0.0015941361 0.066600002 4278190080
-0.0033396347 0.006266756 0.066600002 4278190080
-0.0039627547 0.0077231308 0.063000001 4278190080
-0.0039851046 0.0077131563 0.066600002 4278190080
-0.0055994983 0.010462577 0.063000001 4278190080
-0.0053052804 0.010045161 0.066600002 4278190080
-0.0042090411 0.0082149617 0.066600002 4278190080
-0.0076990849 0.012865748 0.063000001 4278190080
-0.0066126096 0.011731061 0.066600002 4278190080
-0.0056179012 0.010448307 0.066600002 4278190080
-0.010194033 0.014855403 0.063000001 4278190080
-0.010197837 0.014849645 0.066618085 4278190080
-0.0097826514 0.01457552 0.066600002 4278190080
-0.008112248 0.013248446 0.066600002 4278190080
-0.0077167614 0.012848279 0.066600002 4278190080
-0.013004154 0.016367594 0.063000001 4278190080
-0.013005488 0.016364604 0.067173325 4278190080
-0.01235253 0.016073462 0.066955321 4278190080
-0.011441782 0.01560759 0.066746011 4278190080
-0.0106098 0.015121644 0.066636026 4278190080
-0.016039129 0.017353717 0.063000001 4278190080
-0.016039941 0.017349791 0.067561209 4278190080
-0.015883002 0.017317342 0.067584813 4278190080
-0.014926892 0.017061757 0.067798696 4278190080
-0.013154354 0.016430981 0.067223027 4278190080
-0.013926361 0.016731733 0.067563839 4278190080
-0.014550462 0.01694528 0.067908123 4278190080
-0.019201405 0.017782077 0.063000001 4278190080
-0.01927045 0.017785043 0.067268126 4278190080
-0.01920158 0.01777979 0.067271307 4278190080
-0.018023841 0.017689964 0.067325749 4278190080
-0.016911883 0.017530074 0.067430086 4278190080
-0.022389352 0.017638905 0.063000001 4278190080
-0.022388015 0.01762978 0.067365199 4278190080
-0.021980975 0.017689425 0.067326091 4278190080
-0.021813937 0.017707333 0.06731499 4278190080
-0.020536546 0.017791912 0.06726408 4278190080
-0.025274117 0.017000698 0.06785503 4278190080
-0.024280969 0.017277537 0.067615978 4278190080
-0.023177415 0.01751411 0.067441039 4278190080
-0.023559961 -0.014674354 0.063000001 4278190080
-0.020718489 -0.015082897 0.063000001 4278190080
-0.026272766 -0.013735443 0.063000001 4278190080
-0.028758861 -0.012300096 0.063000001 4278190080
-0.030928385 -0.010420193 0.063000001 4278190080
-0.03270293 -0.0081636766 0.063000001 4278190080
-0.034018356 -0.0056121033 0.063000001 4278190080
-0.034827124 -0.0028576937 0.063000001 4278190080
-0.035100002 1.110223e-16 0.063000001 4278190080
-0.034827124 0.0028576937 0.063000001 4278190080
-0.034018356 0.0056121033 0.063000001 4278190080
-0.03270293 0.0081636766 0.063000001 4278190080
-0.030928385 0.010420193 0.063000001 4278190080
-0.028758861 0.012300096 0.063000001 4278190080
-0.026272766 0.013735443 0.063000001 4278190080
-0.023559961 0.014674354 0.063000001 4278190080
-0.020718489 0.015082897 0.063000001 4278190080
-0.017851047 0.014946303 0.063000001 4278190080
-0.015061274 0.014269512 0.063000001 4278190080
-0.012450002 0.013076983 0.063000001 4278190080
-0.010111604 0.011411819 0.063000001 4278190080
-0.0081305988 0.009334201 0.063000001 4278190080
-0.0065785847 0.0069192206 0.063000001 4278190080
-0.0055116559 0.0042541614 0.063000001 4278190080
-0.0049683745 0.0014353462 0.063000001 4278190080
-0.0049000005 1.0917308e-16 0.063000001 4278190080
-0.0049683745 -0.0014353462 0.063000001 4278190080
-0.0055116559 -0.0042541614 0.063000001 4278190080
-0.0065785847 -0.0069192206 0.063000001 4278190080
-0.0081305988 -0.009334201 0.063000001 4278190080
-0.010111604 -0.011411819 0.063000001 4278190080
-0.012450002 -0.013076983 0.063000001 4278190080
-0.015061274 -0.014269512 0.063000001 4278190080
-0.017851047 -0.014946303 0.063000001 4278190080
-0.0049000005 1.0815426e-16 0.064099997 4278190080
-0.0049683745 -0.0014353462 0.064099997 4278190080
-0.0049683745 0.0014353462 0.064099997 4278190080
-0.0055116559 0.0042541614 0.064099997 4278190080
-0.0065785847 0.0069192206 0.064099997 4278190080
-0.0081305988 0.009334201 0.064099997 4278190080
-0.010111604 0.011411819 0.064099997 4278190080
-0.012450002 0.013076983 0.064099997 4278190080
-0.015061274 0.014269512 0.064099997 4278190080
-0.017851047 0.014946303 0.064099997 4278190080
-0.020718489 0.015082897 0.064099997 4278190080
-0.023559961 0.014674354 0.064099997 4278190080
-0.026272766 0.013735443 0.064099997 4278190080
-0.028758861 0.012300096 0.064099997 4278190080
-0.030928385 0.010420193 0.064099997 4278190080
-0.03270293 0.0081636766 0.064099997 4278190080
-0.034018356 0.0056121033 0.064099997 4278190080
-0.034827124 0.0028576937 0.064099997 4278190080
-0.035100002 1.1740034e-16 0.064099997 4278190080
-0.034827124 -0.0028576937 0.064099997 4278190080
-0.034018356 -0.0056121033 0.064099997 4278190080
-0.03270293 -0.0081636766 0.064099997 4278190080
-0.030928385 -0.010420193 0.064099997 4278190080
-0.028758861 -0.012300096 0.064099997 4278190080
-0.026272766 -0.013735443 0.064099997 4278190080
-0.023559961 -0.014674354 0.064099997 4278190080
-0.020718489 -0.015082897 0.064099997 4278190080
-0.017851047 -0.014946303 0.064099997 4278190080
-0.015061274 -0.014269512 0.064099997 4278190080
-0.012450002 -0.013076983 0.064099997 4278190080
-0.010111604 -0.011411819 0.064099997 4278190080
-0.0081305988 -0.009334201 0.064099997 4278190080
-0.0065785847 -0.0069192206 0.064099997 4278190080
-0.0055116559 -0.0042541614 0.064099997 4278190080
-0.034013864 0.011106592 0.066493094 4278190080
-0.032596312 0.012677998 0.066939443 4278190080
-0.033338647 0.011903589 0.066659145 4278190080
-0.031787969 0.013422441 0.067314513 4278190080
-0.030030608 0.014761168 0.068219192 4278190080
-0.029111486 0.015337042 0.068645023 4278190080
-0.030068003 0.014915179 0.06875477 4278190080
-0.029168107 0.015450112 0.069086842 4278190080
-0.032629702 0.013490438 0.068690702 4278190080
-0.033539932 0.01347324 0.069518462 4278190080
-0.032823794 0.014038867 0.069497027 4278190080
-0.035156958 0.010690337 0.068842381 4278190080
-0.035866451 0.010566811 0.070205122 4278190080
-0.035360113 0.011398559 0.069944434 4278190080
-0.031033121 0.014640778 0.069037005 4278190080
-0.029433813 0.015579589 0.069502652 4278190080
-0.029374853 0.015591767 0.069487005 4278190080
-0.028163951 0.015857307 0.068963349 4278190080
-0.028015997 0.015944645 0.06905371 4278190080
-0.027919415 0.015983304 0.069017373 4278190080
-0.036789652 0.0065829773 0.06907174 4278190080
-0.037239052 0.012833392 0.07316044 4278190080
-0.037107486 0.014121222 0.073185287 4278190080
-0.036758129 0.013727684 0.072771125 4278190080
-0.03765215 0.011813469 0.073537707 4278190080
-0.038702358 0.0082257232 0.074776798 4278190080
-0.0382975 0.009422631 0.074225292 4278190080
-0.038369417 0.0082462663 0.07424026 4278190080
-0.03851926 0.008237021 0.074481733 4278190080
-0.037803881 0.0088320645 0.073285379 4278190080
-0.037051864 0.0093465447 0.071933575 4278190080
-0.037401088 0.0082459934 0.072288848 4278190080
-0.036734115 0.0087007796 0.070863962 4278190080
-0.036529314 0.0080788238 0.069753416 4278190080
-0.036439456 0.0074888756 0.068617143 4278190080
-0.036790717 0.0060812896 0.067965321 4278190080
-0.027413141 0.016185945 0.068826906 4278190080
-0.028597154 0.015768062 0.069262736 4278190080
-0.028343674 0.015835833 0.069177903 4278190080
-0.02819011 0.015886826 0.069119699 4278190080
-0.029255051 0.01561651 0.069455206 4278190080
-0.028854821 0.015699172 0.069348969 4278190080
-0.031209085 0.015036234 0.069612883 4278190080
-0.031321418 0.015261034 0.069874406 4278190080
-0.031189755 0.015282245 0.069840208 4278190080
-0.030553419 0.015386614 0.069721296 4278190080
-0.030108236 0.015459632 0.069638103 4278190080
-0.032045439 0.014557465 0.06952998 4278190080
-0.032345686 0.01509603 0.070140406 4278190080
-0.032322425 0.015099777 0.070134372 4278190080
-0.033132087 0.014657813 0.0702115 4278190080
-0.033866618 0.014153692 0.070338152 4278190080
-0.033588286 0.014875854 0.070606776 4278190080
-0.033284631 0.014930106 0.0704896 4278190080
-0.032449834 0.015079252 0.07016746 4278190080
-0.034536138 0.01357488 0.070509411 4278190080
-0.034604009 0.014662047 0.071154103 4278190080
-0.03421573 0.014743779 0.070944875 4278190080
-0.034657903 0.014650702 0.071183145 4278190080
-0.03499867 0.014338079 0.071311906 4278190080
-0.035137013 0.014541782 0.071523882 4278190080
-0.035717707 0.014409767 0.071936868 4278190080
-0.035618268 0.013693588 0.071609117 4278190080
-0.036078531 0.014329514 0.072239436 4278190080
-0.036309965 0.014278039 0.072433509 4278190080
-0.036172137 0.012934301 0.071928211 4278190080
-0.036379304 0.014264405 0.072498865 4278190080
-0.038003307 0.010673911 0.073895328 4278190080
-0.037477531 0.010007282 0.072948158 4278190080
-0.037098408 0.011086491 0.072604671 4278190080
-0.036664322 0.012063637 0.072262399 4278190080
-0.036652591 0.010367125 0.071592093 4278190080
-0.036202874 0.011303312 0.071272016 4278190080
-0.03570145 0.012152114 0.070980236 4278190080
-0.035146557 0.012910097 0.070723951 4278190080
-0.034602318 0.011463126 0.068681337 4278190080
-0.034804445 0.012160091 0.069740079 4278190080
-0.035662439 0.0098680025 0.069080785 4278190080
-0.036324322 0.0096669523 0.070514135 4278190080
-0.03462413 0.010291842 0.066451073 4278190080
-0.034543496 0.010836083 0.067575328 4278190080
-0.033937577 0.011599703 0.067559086 4278190080
-0.033997677 0.012185263 0.068605006 4278190080
-0.034198496 0.012849873 0.069598593 4278190080
-0.035094861 0.010042193 0.067698501 4278190080
-0.035593368 0.0092193689 0.067920163 4278190080
-0.035170674 0.0094659226 0.066538297 4278190080
-0.035656832 0.0086312806 0.066745237 4278190080
-0.036086533 0.0077884779 0.067059904 4278190080
-0.036463439 0.0069381362 0.067470752 4278190080
-0.036041025 0.0083681 0.068229698 4278190080
-0.036119718 0.0089971889 0.069387324 4278190080
-0.03334149 0.012859288 0.06860999 4278190080
-0.030925523 0.014122591 0.067754559 4278190080
-0.031858653 0.014084201 0.06883736 4278190080
-0.030939069 0.014333394 0.068406016 4278190080
-0.031773813 0.013702326 0.068086781 4278190080
-0.032555208 0.013032728 0.067826077 4278190080
-0.033275872 0.012331665 0.067645274 4278190080
-0.036456972 -0.0069540888 0.067461066 4278190080
-0.036785647 -0.0060956716 0.067955911 4278190080
-0.036432546 -0.0075057368 0.068608269 4278190080
-0.036784191 -0.0065983897 0.069063231 4278190080
-0.029112674 -0.015336283 0.068646364 4278190080
-0.032629646 -0.013489546 0.068693362 4278190080
-0.032050278 -0.014551299 0.069532804 4278190080
-0.032823607 -0.014037309 0.069498762 4278190080
-0.038293131 -0.0094447583 0.074220136 4278190080
-0.038670365 -0.0082268929 0.074741609 4278190080
-0.038520899 -0.0082373368 0.074479952 4278190080
-0.037798915 -0.0088527407 0.073279835 4278190080
-0.037395701 -0.0082652401 0.072282739 4278190080
-0.036727 -0.0087199612 0.070856556 4278190080
-0.036522184 -0.0080967713 0.069745325 4278190080
-0.037044991 -0.0093670683 0.071926735 4278190080
-0.037117377 -0.014119952 0.073198907 4278190080
-0.036759678 -0.013718749 0.072772227 4278190080
-0.03619023 -0.014303873 0.07233201 4278190080
-0.036355469 -0.014271094 0.072486512 4278190080
-0.037237138 -0.012837294 0.073158354 4278190080
-0.03609262 -0.014325524 0.072251394 4278190080
-0.036174234 -0.012926463 0.071930058 4278190080
-0.035623688 -0.013677725 0.071613312 4278190080
-0.035003774 -0.014323666 0.071315564 4278190080
-0.034599319 -0.014659511 0.071151555 4278190080
-0.034623697 -0.014654335 0.071164601 4278190080
-0.035147998 -0.014536561 0.071535125 4278190080
-0.035684306 -0.014416092 0.071914136 4278190080
-0.034218792 -0.014740309 0.070947945 4278190080
-0.034541924 -0.013562037 0.070514157 4278190080
-0.033867843 -0.014148601 0.070340075 4278190080
-0.03233147 -0.015099133 0.070141055 4278190080
-0.033131648 -0.01465552 0.070212394 4278190080
-0.032332413 -0.01509539 0.07013347 4278190080
-0.032426145 -0.015084116 0.070165329 4278190080
-0.03328605 -0.014929423 0.070491701 4278190080
-0.033561565 -0.01487986 0.07059627 4278190080
-0.031220738 -0.015024966 0.069616258 4278190080
-0.03054937 -0.015384646 0.069725111 4278190080
-0.031175908 -0.015282435 0.069844767 4278190080
-0.031336091 -0.015257026 0.069885843 4278190080
-0.032329265 -0.015099484 0.070140488 4278190080
-0.03011385 -0.015455695 0.069641933 4278190080
-0.031045139 -0.014630268 0.069041319 4278190080
-0.029434804 -0.015577745 0.069502927 4278190080
-0.028783321 -0.015715847 0.069326922 4278190080
-0.029169254 -0.015449276 0.069087878 4278190080
-0.028596733 -0.015767751 0.069262862 4278190080
-0.02900257 -0.015665244 0.069391929 4278190080
-0.029256344 -0.015613872 0.069457099 4278190080
-0.029375844 -0.015589681 0.06948778 4278190080
-0.028271917 -0.015858106 0.069151342 4278190080
-0.028188024 -0.01588829 0.069118954 4278190080
-0.034019914 -0.011098401 0.066504143 4278190080
-0.033340093 -0.011901656 0.066665612 4278190080
-0.033277512 -0.012329123 0.067650527 4278190080
-0.03394394 -0.011590694 0.067568406 4278190080
-0.033343159 -0.012856003 0.068614058 4278190080
-0.034004107 -0.012175182 0.06861265 4278190080
-0.033541463 -0.013469095 0.069521405 4278190080
-0.034204729 -0.012838496 0.069604687 4278190080
-0.031863742 -0.014078778 0.068841167 4278190080
-0.032555155 -0.013032414 0.067829713 4278190080
-0.031779025 -0.01369745 0.068091676 4278190080
-0.032596137 -0.012678158 0.06694407 4278190080
-0.031793188 -0.013417901 0.067320541 4278190080
-0.030938033 -0.014112734 0.067761138 4278190080
-0.03007732 -0.014908142 0.068758048 4278190080
-0.030951373 -0.014323358 0.068411432 4278190080
-0.030040096 -0.014754247 0.068223238 4278190080
-0.028161608 -0.015858509 0.068963937 4278190080
-0.027922362 -0.015983868 0.069016382 4278190080
-0.027743738 -0.016048135 0.068947412 4278190080
-0.036318794 -0.0096807601 0.070509113 4278190080
-0.034609046 -0.011451855 0.068689711 4278190080
-0.034810998 -0.012147441 0.069746837 4278190080
-0.036114208 -0.0090102702 0.069382057 4278190080
-0.035864707 -0.010571086 0.070204392 4278190080
-0.036035683 -0.0083805472 0.068224147 4278190080
-0.035660755 -0.009872348 0.069080509 4278190080
-0.035362899 -0.011392753 0.069948226 4278190080
-0.035591751 -0.0092237722 0.067920357 4278190080
-0.036081504 -0.0078004068 0.067054056 4278190080
-0.035655282 -0.0086357342 0.066745915 4278190080
-0.03515986 -0.010685405 0.068847328 4278190080
-0.035097722 -0.01003801 0.067704678 4278190080
-0.03455013 -0.01082597 0.067585438 4278190080
-0.035173338 -0.0094623435 0.066545732 4278190080
-0.034630414 -0.010282629 0.066462979 4278190080
-0.038735956 -0.0082223099 0.07485643 4278190080
-0.037997521 -0.010697276 0.073889039 4278190080
-0.037647422 -0.011829684 0.073532753 4278190080
-0.036662467 -0.012067697 0.072260767 4278190080
-0.037093297 -0.0111019 0.072599828 4278190080
-0.037471108 -0.010029214 0.072941698 4278190080
-0.035152663 -0.012895894 0.0707293 4278190080
-0.035703965 -0.012145328 0.070982978 4278190080
-0.036201075 -0.011307494 0.071270838 4278190080
-0.036647201 -0.01038172 0.07158722 4278190080
-0.028201342 0.01600932 0.070407145 4278190080
-0.016036011 0.01626779 0.069606856 4278190080
-0.01824588 0.016851163 0.068962879 4278190080
-0.019352421 0.016893363 0.068934061 4278190080
-0.020476259 0.01689641 0.068932042 4278190080
-0.021610122 0.016858872 0.068957493 4278190080
-0.021758392 0.016850924 0.068963043 4278190080
-0.022820402 0.016773116 0.069020517 4278190080
-0.023799963 0.01666812 0.069107987 4278190080
-0.02468152 0.016545253 0.069227517 4278190080
-0.025356382 0.016432179 0.069358252 4278190080
-0.025923628 0.016323773 0.069509007 4278190080
-0.026191246 0.016267108 0.069606364 4278190080
-0.015610021 0.016385632 0.069419399 4278190080
-0.01516277 0.016520659 0.069254063 4278190080
-0.015496902 0.016572352 0.069199346 4278190080
-0.016345587 0.016685786 0.069092408 4278190080
-0.017258864 0.016780201 0.069015041 4278190080
-0.027588919 0.016042355 0.070190579 4278190080
-0.02639734 0.01622347 0.069681339 4278190080
-0.026594091 0.016182188 0.069766 4278190080
-0.027212534 0.016080948 0.070036761 4278190080
-0.017257895 0.01601743 0.070336536 4278190080
-0.016901914 0.016068526 0.070080958 4278190080
-0.016632602 0.016121358 0.069913916 4278190080
-0.01614989 0.016236285 0.069656968 4278190080
-0.016632602 -0.016121358 0.069913916 4278190080
-0.026191909 -0.016266972 0.069606513 4278190080
-0.01614989 -0.016236285 0.069656968 4278190080
-0.028376553 -0.016004801 0.070461519 4278190080
-0.028113689 -0.016012242 0.070379056 4278190080
-0.027504586 -0.016049596 0.070157371 4278190080
-0.026918989 -0.016123157 0.069909014 4278190080
-0.016901914 -0.016068526 0.070080958 4278190080
-0.017257895 -0.01601743 0.070336536 4278190080
-0.026386373 -0.016225895 0.06967666 4278190080
-0.015610021 -0.016385632 0.069419399 4278190080
-0.015475489 -0.016569162 0.069202609 4278190080
-0.01516277 -0.016520659 0.069254063 4278190080
-0.01603638 -0.016267687 0.069607019 4278190080
-0.022802461 -0.016774738 0.069019258 4278190080
-0.021738857 -0.016852012 0.068962283 4278190080
-0.025338814 -0.01643534 0.069354273 4278190080
-0.024668287 -0.016547302 0.069225349 4278190080
-0.023784135 -0.016670076 0.069106244 4278190080
-0.025909476 -0.016326632 0.069504626 4278190080
-0.02158384 -0.016860208 0.068956569 4278190080
-0.020450387 -0.01689679 0.068931788 4278190080
-0.019327402 -0.016892839 0.068934411 4278190080
-0.01822219 -0.016849831 0.068963811 4278190080
-0.017234184 -0.016778018 0.069016725 4278190080
-0.016322393 -0.01668302 0.069094822 4278190080
-0.011159301 0.0019702029 0.068604752 4278190080
-0.012579456 0.0036485682 0.06886714 4278190080
-0.011469088 0.013422583 0.068626419 4278190080
-0.012010656 0.013853928 0.068707079 4278190080
-0.012584276 0.014254049 0.068855591 4278190080
-0.013671841 0.0049395664 0.069331773 4278190080
-0.012464225 0.0035123846 0.068818122 4278190080
-0.014084183 0.015000171 0.069596238 4278190080
-0.013627961 0.014851764 0.069306813 4278190080
-0.014034208 0.015041316 0.069559291 4278190080
-0.014063951 0.0054029692 0.069623671 4278190080
-0.012603495 0.014267455 0.068860568 4278190080
-0.013125435 0.014584804 0.069056883 4278190080
-0.014712181 0.0061690598 0.070106231 4278190080
-0.014362194 0.014771264 0.069801785 4278190080
-0.014758099 0.014472571 0.070150219 4278190080
-0.015112087 0.014242717 0.070527084 4278190080
-0.015269149 0.0068272976 0.070772462 4278190080
-0.015293591 0.014145607 0.070752233 4278190080
-0.015531413 0.0071372436 0.071086176 4278190080
-0.01530958 0.014137051 0.070772067 4278190080
-0.015795052 0.014 0.07153333 4278190080
-0.015570637 0.014034859 0.071146913 4278190080
-0.015451349 -0.0070426222 0.070967354 4278190080
-0.015293591 -0.014145607 0.070752233 4278190080
-0.015274931 -0.0068341275 0.07076852 4278190080
-0.016060024 -0.007761965 0.072115131 4278190080
-0.015795052 -0.014 0.07153333 4278190080
-0.015570637 -0.014034859 0.071146913 4278190080
-0.01530958 -0.014137051 0.070772067 4278190080
-0.014579181 -0.0060118777 0.069984376 4278190080
-0.015112087 -0.014242717 0.070527084 4278190080
-0.014758099 -0.014472571 0.070150219 4278190080
-0.014362194 -0.014771264 0.069801785 4278190080
-0.014084183 -0.015000171 0.069596238 4278190080
-0.014062654 -0.0054014372 0.069627419 4278190080
-0.014034208 -0.015041316 0.069559291 4278190080
-0.013627961 -0.014851764 0.069306813 4278190080
-0.013125435 -0.014584804 0.069056883 4278190080
-0.012603495 -0.014267455 0.068860568 4278190080
-0.013490472 -0.0047252243 0.069232002 4278190080
-0.012584276 -0.014254049 0.068855591 4278190080
-0.012573823 -0.0036419111 0.06888371 4278190080
-0.012010656 -0.013853928 0.068707079 4278190080
-0.011469088 -0.013422583 0.068626419 4278190080
-0.012249343 -0.0032584348 0.068760425 4278190080
-0.012327526 -0.0031771227 0.068773091 4278190080
-0.012407791 -0.0030968583 0.068773091 4278190080
-0.016222019 -0.0073275538 0.072220542 4278190080
-0.016558222 -0.0069913487 0.072220542 4278190080
-0.015924159 -0.0064032045 0.071082808 4278190080
-0.015633874 -0.0066934931 0.071082808 4278190080
-0.014757372 -0.0057558483 0.070072174 4278190080
-0.013632115 -0.0045592035 0.069278367 4278190080
-0.014986515 -0.0055267056 0.070072174 4278190080
-0.01378987 -0.0044014463 0.069278367 4278190080
-0.018987387 -0.0073339748 0.078692831 4278190080
-0.018643435 -0.0077 0.078818016 4278190080
-0.019661617 -0.0072906697 0.081599995 4278190080
-0.019370865 -0.0073339748 0.080123991 4278190080
-0.019500002 -0.0073339748 0.081599995 4278190080
-0.019316986 -0.0075169872 0.081599995 4278190080
-0.019010402 -0.0077 0.080187552 4278190080
-0.019090671 -0.0078616161 0.081599995 4278190080
-0.019133974 -0.0077 0.081599995 4278190080
-0.019382261 -0.0074928934 0.082980491 4278190080
-0.019740239 -0.0072618085 0.082933947 4278190080
-0.039574005 -0.0074928934 0.076806188 4278190080
-0.038607076 -0.0072761206 0.075793244 4278190080
-0.038876019 -0.0074928929 0.075611807 4278190080
-0.039780632 -0.0078538833 0.076702729 4278190080
-0.03905572 -0.0078173159 0.075490572 4278190080
-0.039062019 -0.0078552291 0.075486422 4278190080
-0.019153107 -0.0078538833 0.083010279 4278190080
-0.019510187 -0.0078538833 0.084699653 4278190080
-0.020128667 -0.0078538833 0.086311772 4278190080
-0.023368284 -0.0078538833 0.090298526 4278190080
-0.022082057 -0.0078538833 0.089146532 4278190080
-0.02099314 -0.0078538833 0.087806486 4278190080
-0.024819773 -0.0078538833 0.091233753 4278190080
-0.02640035 -0.0078538833 0.091928914 4278190080
-0.028070629 -0.0078538833 0.092366688 4278190080
-0.029788986 -0.0078538833 0.092536151 4278190080
-0.031512599 -0.0078538833 0.092433102 4278190080
-0.033198521 -0.0078538833 0.092060089 4278190080
-0.034804739 -0.0078538833 0.091426417 4278190080
-0.038760733 -0.0078538833 0.088149317 4278190080
-0.037620936 -0.0078538833 0.089446358 4278190080
-0.036291223 -0.0078538833 0.090547882 4278190080
-0.039682221 -0.0078538833 0.08668907 4278190080
-0.040362433 -0.0078538833 0.085101999 4278190080
-0.040784419 -0.0078538833 0.083427668 4278190080
-0.040429436 -0.0078538833 0.07830289 4278190080
-0.040818341 -0.0078538833 0.079985216 4278190080
-0.040937662 -0.0078538833 0.081707783 4278190080
-0.038575646 -0.0072685787 0.075814448 4278190080
-0.039251216 -0.0072618085 0.076967813 4278190080
-0.039864901 -0.0072618085 0.078481361 4278190080
-0.040232755 -0.0072618085 0.080072626 4278190080
-0.040345617 -0.0072618085 0.081701949 4278190080
-0.040200669 -0.0072618085 0.083328731 4278190080
-0.039801523 -0.0072618085 0.084912442 4278190080
-0.039158132 -0.0072618085 0.0864136 4278190080
-0.038286526 -0.0072618085 0.087794811 4278190080
-0.037208419 -0.0072618085 0.089021645 4278190080
-0.035950687 -0.0072618085 0.090063535 4278190080
-0.034544662 -0.0072618085 0.09089452 4278190080
-0.033025388 -0.0072618085 0.091493897 4278190080
-0.031430725 -0.0072618085 0.091846712 4278190080
-0.029800408 -0.0072618085 0.091944188 4278190080
-0.028175063 -0.0072618085 0.091783896 4278190080
-0.026595194 -0.0072618085 0.091369823 4278190080
-0.025100175 -0.0072618085 0.090712287 4278190080
-0.023727253 -0.0072618085 0.089827687 4278190080
-0.022510648 -0.0072618085 0.088738047 4278190080
-0.021480672 -0.0072618085 0.087470531 4278190080
-0.020662993 -0.0072618085 0.086056732 4278190080
-0.020077992 -0.0072618085 0.084531866 4278190080
-0.019731797 -0.0074928934 0.084634162 4278190080
-0.020337213 -0.0074928934 0.086212233 4278190080
-0.021183424 -0.0074928934 0.087675363 4278190080
-0.022249334 -0.0074928934 0.088987105 4278190080
-0.023508389 -0.0074928934 0.090114757 4278190080
-0.024929214 -0.0074928934 0.091030233 4278190080
-0.026476398 -0.0074928934 0.091710702 4278190080
-0.028111387 -0.0074928934 0.092139222 4278190080
-0.029793441 -0.0074928934 0.092305116 4278190080
-0.031480644 -0.0074928934 0.092204235 4278190080
-0.033130948 -0.0074928934 0.091839105 4278190080
-0.034703232 -0.0074928934 0.091218822 4278190080
-0.036158312 -0.0074928934 0.090358838 4278190080
-0.037459932 -0.0074928934 0.089280598 4278190080
-0.038575653 -0.0074928934 0.088010952 4278190080
-0.039477672 -0.0074928934 0.086581551 4278190080
-0.040143512 -0.0074928934 0.085028015 4278190080
-0.040556584 -0.0074928934 0.083389051 4278190080
-0.040706586 -0.0074928934 0.081705511 4278190080
-0.040589791 -0.0074928934 0.080019332 4278190080
-0.0402091 -0.0074928934 0.078372546 4278190080
-0.038676798 -0.0078328289 0.074893087 4278190080
-0.038215809 -0.0072782696 0.075178757 4278190080
-0.038493868 -0.0075008254 0.075006448 4278190080
-0.036866378 -0.0031143536 0.068701036 4278190080
-0.037399884 -0.0033508106 0.068173133 4278190080
-0.03719043 -0.0032298793 0.068493783 4278190080
-0.036997061 -0.0024345308 0.068570428 4278190080
-0.037094485 -0.0017387239 0.068523876 4278190080
-0.037201762 -0.0017496354 0.068451829 4278190080
-0.037320111 -0.0025091511 0.068356477 4278190080
-0.037561223 -0.001786197 0.068090513 4278190080
-0.037632905 -0.0017934878 0.067982681 4278190080
-0.037533283 -0.0025808087 0.068032235 4278190080
-0.037417244 -0.0017715525 0.068307109 4278190080
-0.037666027 1.1792214e-16 0.068099998 4278190080
-0.037417244 0.0017715525 0.068307109 4278190080
-0.037561223 0.001786197 0.068090513 4278190080
-0.037632905 0.0017934878 0.067982681 4278190080
-0.037094485 0.0017387239 0.068523876 4278190080
-0.037201762 0.0017496354 0.068451829 4278190080
-0.037300002 1.1869605e-16 0.068466023 4278190080
-0.037557703 0.0024123488 0.068013735 4278190080
-0.037020959 0.0022856968 0.068553194 4278190080
-0.037343889 0.0023513702 0.068338297 4278190080
-0.037432473 0.0031806056 0.068133861 4278190080
-0.037222084 0.0030706448 0.068455614 4278190080
-0.036898319 0.0029641606 0.068664692 4278190080
-0.038315218 0.0078496104 0.074271031 4278190080
-0.038875684 0.0074933888 0.075612001 4278190080
-0.039051283 0.0078214314 0.075495556 4278190080
-0.039045341 0.0078225462 0.075490445 4278190080
-0.039068505 0.0078538833 0.075483941 4278190080
