# .PCD v0.7 - Point Cloud Data file format
VERSION 0.7
FIELDS x y z
SIZE 4 4 4
TYPE F F F
COUNT 1 1 1
WIDTH 1373
HEIGHT 1
VIEWPOINT 0 0 0 1 0 0 0
POINTS 1373
DATA ascii
-0.25723225 -0.085847162 0.505
-0.25642538 -0.086017169 0.50600004
-0.2551091 -0.086017169 0.50600004
-0.25379285 -0.086017169 0.50600004
-0.2524766 -0.086017169 0.50600004
-0.25116035 -0.086017169 0.50600004
-0.24984409 -0.086017169 0.50600004
-0.24852782 -0.086017169 0.50600004
-0.24721156 -0.086017169 0.50600004
-0.2458953 -0.086017169 0.50600004
-0.24457905 -0.086017169 0.50600004
-0.24278201 -0.085847162 0.505
-0.24146836 -0.085847162 0.505
-0.24015468 -0.085847162 0.505
-0.23884103 -0.085847162 0.505
-0.23752739 -0.085847162 0.505
-0.23621373 -0.085847162 0.505
-0.23490006 -0.085847162 0.505
-0.2335864 -0.085847162 0.505
-0.23227274 -0.085847162 0.505
-0.23095909 -0.085847162 0.505
-0.22964543 -0.085847162 0.505
-0.22833177 -0.085847162 0.505
-0.22746767 -0.086017169 0.50600004
-0.22615142 -0.086017169 0.50600004
-0.22483516 -0.086017169 0.50600004
-0.22351891 -0.086017169 0.50600004
-0.22220264 -0.086017169 0.50600004
-0.22088638 -0.086017169 0.50600004
-0.21957013 -0.086017169 0.50600004
-0.21825387 -0.086017169 0.50600004
-0.21693762 -0.086017169 0.50600004
-0.21562134 -0.086017169 0.50600004
-0.21430509 -0.086017169 0.50600004
-0.21298884 -0.086017169 0.50600004
-0.21167257 -0.086017169 0.50600004
-0.21077204 -0.086187154 0.50700003
-0.20945317 -0.086187154 0.50700003
-0.20813431 -0.086187154 0.50700003
-0.20681545 -0.086187154 0.50700003
-0.20549659 -0.086187154 0.50700003
-0.20417772 -0.086187154 0.50700003
-0.20285887 -0.086187154 0.50700003
-0.20193753 -0.086357147 0.50800002
-0.20061606 -0.086357147 0.50800002
-0.1992946 -0.086357147 0.50800002
-0.19758342 -0.086187154 0.50700003
-0.19626456 -0.086187154 0.50700003
-0.19494571 -0.086187154 0.50700003
-0.19362685 -0.086187154 0.50700003
-0.19230799 -0.086187154 0.50700003
-0.19098912 -0.086187154 0.50700003
-0.18967026 -0.086187154 0.50700003
-0.18835141 -0.086187154 0.50700003
-0.18703255 -0.086187154 0.50700003
-0.18571369 -0.086187154 0.50700003
-0.18439482 -0.086187154 0.50700003
-0.18307596 -0.086187154 0.50700003
-0.18175711 -0.086187154 0.50700003
-0.18079415 -0.086357147 0.50800002
-0.17947267 -0.086357147 0.50800002
-0.17815121 -0.086357147 0.50800002
-0.17682976 -0.086357147 0.50800002
-0.17550829 -0.086357147 0.50800002
-0.17452972 -0.086527139 0.509
-0.17320564 -0.086527139 0.509
-0.17188159 -0.086527139 0.509
-0.17055753 -0.086527139 0.509
-0.16956596 -0.086697146 0.51000005
-0.1682393 -0.086697146 0.51000005
-0.16691263 -0.086697146 0.51000005
-0.16558596 -0.086697146 0.51000005
-0.1642593 -0.086697146 0.51000005
-0.16293265 -0.086697146 0.51000005
-0.16160598 -0.086697146 0.51000005
-0.1602793 -0.086697146 0.51000005
-0.15895264 -0.086697146 0.51000005
-0.15762599 -0.086697146 0.51000005
-0.15629932 -0.086697146 0.51000005
-0.15497264 -0.086697146 0.51000005
-0.15364599 -0.086697146 0.51000005
-0.15231933 -0.086697146 0.51000005
-0.15099266 -0.086697146 0.51000005
-0.14937253 -0.086527139 0.509
-0.14833933 -0.086697146 0.51000005
-0.14672439 -0.086527139 0.509
-0.14540033 -0.086527139 0.509
-0.14407627 -0.086527139 0.509
-0.14275222 -0.086527139 0.509
-0.14142814 -0.086527139 0.509
-0.14010409 -0.086527139 0.509
-0.13878003 -0.086527139 0.509
-0.13745596 -0.086527139 0.509
-0.1361319 -0.086527139 0.509
-0.13480783 -0.086527139 0.509
-0.13348377 -0.086527139 0.509
-0.13215971 -0.086527139 0.509
-0.13083565 -0.086527139 0.509
-0.12925713 -0.086357147 0.50800002
-0.12793568 -0.086357147 0.50800002
-0.12661421 -0.086357147 0.50800002
-0.12529276 -0.086357147 0.50800002
-0.12372726 -0.086187154 0.50700003
-0.1224084 -0.086187154 0.50700003
-0.12108954 -0.086187154 0.50700003
-0.12000691 -0.086357147 0.50800002
-0.11868545 -0.086357147 0.50800002
-0.11736399 -0.086357147 0.50800002
-0.11604253 -0.086357147 0.50800002
-0.11494689 -0.086527139 0.509
-0.11384606 -0.086697146 0.51000005
-0.11251941 -0.086697146 0.51000005
-0.11119274 -0.086697146 0.51000005
-0.11008149 -0.086867139 0.51100004
-0.10875223 -0.086867139 0.51100004
-0.10742296 -0.086867139 0.51100004
-0.10630132 -0.087037131 0.51200002
-0.10496945 -0.087037131 0.51200002
-0.10363758 -0.087037131 0.51200002
-0.10230572 -0.087037131 0.51200002
-0.10097385 -0.087037131 0.51200002
-0.099641979 -0.087037131 0.51200002
-0.098310113 -0.087037131 0.51200002
-0.096978247 -0.087037131 0.51200002
-0.095646381 -0.087037131 0.51200002
-0.094314516 -0.087037131 0.51200002
-0.09316425 -0.087207124 0.51300001
-0.091829784 -0.087207124 0.51300001
-0.090495318 -0.087207124 0.51300001
-0.089160852 -0.087207124 0.51300001
-0.087826386 -0.087207124 0.51300001
-0.086491913 -0.087207124 0.51300001
-0.085157447 -0.087207124 0.51300001
-0.083822973 -0.087207124 0.51300001
-0.082649305 -0.087377116 0.514
-0.081312232 -0.087377116 0.514
-0.079975165 -0.087377116 0.514
-0.078791097 -0.087547116 0.51500005
-0.077451423 -0.087547116 0.51500005
-0.076111756 -0.087547116 0.51500005
-0.074917272 -0.087717108 0.51600003
-0.073574997 -0.087717108 0.51600003
-0.072232723 -0.087717108 0.51600003
-0.070890456 -0.087717108 0.51600003
-0.06954819 -0.087717108 0.51600003
-0.068073727 -0.087547116 0.51500005
-0.066734061 -0.087547116 0.51500005
-0.065394387 -0.087547116 0.51500005
-0.06405472 -0.087547116 0.51500005
-0.062593266 -0.087377116 0.514
-0.061256196 -0.087377116 0.514
-0.059802555 -0.087207124 0.51300001
-0.058468089 -0.087207124 0.51300001
-0.057133619 -0.087207124 0.51300001
-0.055799153 -0.087207124 0.51300001
-0.054464683 -0.087207124 0.51300001
-0.05323378 -0.087377116 0.514
-0.05189671 -0.087377116 0.514
-0.050559644 -0.087377116 0.514
-0.049222574 -0.087377116 0.514
-0.047978673 -0.087547116 0.51500005
-0.046638999 -0.087547116 0.51500005
-0.045387287 -0.087717108 0.51600003
-0.044045016 -0.087717108 0.51600003
-0.042702742 -0.087717108 0.51600003
-0.041360475 -0.087717108 0.51600003
-0.040018201 -0.087717108 0.51600003
-0.03867593 -0.087717108 0.51600003
-0.037333656 -0.087717108 0.51600003
-0.035991386 -0.087717108 0.51600003
-0.034649111 -0.087717108 0.51600003
-0.033306845 -0.087717108 0.51600003
-0.03196457 -0.087717108 0.51600003
-0.030622298 -0.087717108 0.51600003
-0.029280026 -0.087717108 0.51600003
-0.027937753 -0.087717108 0.51600003
-0.026595483 -0.087717108 0.51600003
-0.02525321 -0.087717108 0.51600003
-0.023910938 -0.087717108 0.51600003
-0.022568667 -0.087717108 0.51600003
-0.021226395 -0.087717108 0.51600003
-0.019884123 -0.087717108 0.51600003
-0.018541852 -0.087717108 0.51600003
-0.01719958 -0.087717108 0.51600003
-0.015857307 -0.087717108 0.51600003
-0.014515035 -0.087717108 0.51600003
-0.013172763 -0.087717108 0.51600003
-0.011830492 -0.087717108 0.51600003
-0.01048822 -0.087717108 0.51600003
-0.0091459481 -0.087717108 0.51600003
-0.0077885524 -0.087547116 0.51500005
-0.0064488817 -0.087547116 0.51500005
-0.0051092114 -0.087547116 0.51500005
-0.0037695407 -0.087547116 0.51500005
-0.00242987 -0.087547116 0.51500005
-0.0010901995 -0.087547116 0.51500005
0.0073541459 -0.077687435 0.45700002
0.008542941 -0.077687435 0.45700002
0.0097530307 -0.077857435 0.45800003
0.010944427 -0.077857435 0.45800003
0.012135823 -0.077857435 0.45800003
0.013356319 -0.078027427 0.45900002
0.014550316 -0.078027427 0.45900002
0.015778616 -0.07819742 0.46000001
0.016975213 -0.07819742 0.46000001
0.018171813 -0.07819742 0.46000001
0.019368412 -0.07819742 0.46000001
0.020565011 -0.07819742 0.46000001
0.021761609 -0.07819742 0.46000001
0.022958208 -0.07819742 0.46000001
0.024154807 -0.07819742 0.46000001
0.025351405 -0.07819742 0.46000001
0.026548006 -0.07819742 0.46000001
0.027744602 -0.07819742 0.46000001
0.028941205 -0.07819742 0.46000001
0.030203318 -0.078367412 0.46100003
0.048571747 -0.087717108 0.51600003
0.049914014 -0.087717108 0.51600003
0.051256288 -0.087717108 0.51600003
0.052598558 -0.087717108 0.51600003
0.053940833 -0.087717108 0.51600003
0.055390239 -0.087887101 0.51700002
0.056844853 -0.088057093 0.51800001
0.058192328 -0.088057093 0.51800001
0.059654746 -0.088227093 0.51900005
0.061004821 -0.088227093 0.51900005
0.062475041 -0.088397086 0.52000004
0.063950464 -0.088567078 0.52100003
0.06530574 -0.088567078 0.52100003
0.066788964 -0.088737071 0.52200001
0.068146847 -0.088737071 0.52200001
0.06950473 -0.088737071 0.52200001
0.070862606 -0.088737071 0.52200001
0.072220482 -0.088737071 0.52200001
0.073578365 -0.088737071 0.52200001
0.074936241 -0.088737071 0.52200001
0.076147974 -0.088567078 0.52100003
0.077503242 -0.088567078 0.52100003
0.078858525 -0.088567078 0.52100003
0.0802138 -0.088567078 0.52100003
0.081569076 -0.088567078 0.52100003
0.082924359 -0.088567078 0.52100003
0.084279634 -0.088567078 0.52100003
0.085470557 -0.088397086 0.52000004
0.086823232 -0.088397086 0.52000004
0.088175908 -0.088397086 0.52000004
0.089528583 -0.088397086 0.52000004
0.090881258 -0.088397086 0.52000004
0.092233941 -0.088397086 0.52000004
0.093586616 -0.088397086 0.52000004
0.095121868 -0.088567078 0.52100003
0.096477143 -0.088567078 0.52100003
0.097832419 -0.088567078 0.52100003
0.099187702 -0.088567078 0.52100003
0.10035 -0.088397086 0.52000004
0.10170268 -0.088397086 0.52000004
0.10305535 -0.088397086 0.52000004
0.10440803 -0.088397086 0.52000004
0.10576071 -0.088397086 0.52000004
0.10711338 -0.088397086 0.52000004
0.10846607 -0.088397086 0.52000004
0.10981874 -0.088397086 0.52000004
0.11117142 -0.088397086 0.52000004
0.11252409 -0.088397086 0.52000004
0.11409576 -0.088567078 0.52100003
0.11545105 -0.088567078 0.52100003
0.11680632 -0.088567078 0.52100003
0.1181616 -0.088567078 0.52100003
0.11951687 -0.088567078 0.52100003
0.12087215 -0.088567078 0.52100003
0.12246203 -0.088737071 0.52200001
0.12381991 -0.088737071 0.52200001
0.12517779 -0.088737071 0.52200001
0.12653567 -0.088737071 0.52200001
0.12789355 -0.088737071 0.52200001
0.12925144 -0.088737071 0.52200001
0.1306093 -0.088737071 0.52200001
0.13196719 -0.088737071 0.52200001
0.13332507 -0.088737071 0.52200001
0.13468295 -0.088737071 0.52200001
0.13604082 -0.088737071 0.52200001
0.1373987 -0.088737071 0.52200001
0.13849078 -0.088567078 0.52100003
0.13984606 -0.088567078 0.52100003
0.14120133 -0.088567078 0.52100003
0.14255661 -0.088567078 0.52100003
0.14363566 -0.088397086 0.52000004
0.14498836 -0.088397086 0.52000004
0.14634103 -0.088397086 0.52000004
0.14769369 -0.088397086 0.52000004
0.14904638 -0.088397086 0.52000004
0.15039904 -0.088397086 0.52000004
0.15175174 -0.088397086 0.52000004
0.15310441 -0.088397086 0.52000004
0.15445709 -0.088397086 0.52000004
0.15580976 -0.088397086 0.52000004
0.15746467 -0.088567078 0.52100003
0.15881996 -0.088567078 0.52100003
0.16048266 -0.088737071 0.52200001
0.16184054 -0.088737071 0.52200001
0.16351105 -0.088907063 0.523
0.16487154 -0.088907063 0.523
0.16623202 -0.088907063 0.523
0.1675925 -0.088907063 0.523
0.16895299 -0.088907063 0.523
0.17031346 -0.088907063 0.523
0.17167395 -0.088907063 0.523
0.17303443 -0.088907063 0.523
0.17439491 -0.088907063 0.523
0.17575538 -0.088907063 0.523
0.17711586 -0.088907063 0.523
0.17847635 -0.088907063 0.523
0.17983684 -0.088907063 0.523
0.18119732 -0.088907063 0.523
0.18255779 -0.088907063 0.523
0.18391827 -0.088907063 0.523
0.18527876 -0.088907063 0.523
0.18663923 -0.088907063 0.523
0.18799971 -0.088907063 0.523
0.18936019 -0.088907063 0.523
0.19072069 -0.088907063 0.523
0.19208117 -0.088907063 0.523
0.19344164 -0.088907063 0.523
0.19480212 -0.088907063 0.523
0.1961626 -0.088907063 0.523
0.19752309 -0.088907063 0.523
0.19888356 -0.088907063 0.523
0.20062694 -0.089077063 0.52400005
0.20199002 -0.089077063 0.52400005
0.20335309 -0.089077063 0.52400005
0.20510687 -0.089247055 0.52500004
0.20647255 -0.089247055 0.52500004
0.2082341 -0.089417048 0.52600002
0.20960239 -0.089417048 0.52600002
0.21097067 -0.089417048 0.52600002
0.21233897 -0.089417048 0.52600002
0.21411353 -0.08958704 0.52700001
0.21507552 -0.089417048 0.52600002
0.21644381 -0.089417048 0.52600002
0.21781209 -0.089417048 0.52600002
0.21918039 -0.089417048 0.52600002
0.22054867 -0.089417048 0.52600002
0.22149506 -0.089247055 0.52500004
0.22286074 -0.089247055 0.52500004
0.22422643 -0.089247055 0.52500004
0.22559212 -0.089247055 0.52500004
0.2269578 -0.089247055 0.52500004
0.22832347 -0.089247055 0.52500004
0.22968917 -0.089247055 0.52500004
0.23105486 -0.089247055 0.52500004
0.23197784 -0.089077063 0.52400005
0.23378621 -0.089247055 0.52500004
0.2351519 -0.089247055 0.52500004
0.23651758 -0.089247055 0.52500004
0.23788327 -0.089247055 0.52500004
0.23924895 -0.089247055 0.52500004
0.24061464 -0.089247055 0.52500004
0.24198031 -0.089247055 0.52500004
0.24334599 -0.089247055 0.52500004
0.24517781 -0.089417048 0.52600002
0.24701479 -0.08958704 0.52700001
0.24838568 -0.08958704 0.52700001
0.24975656 -0.08958704 0.52700001
0.25112745 -0.08958704 0.52700001
0.25249833 -0.08958704 0.52700001
0.25386924 -0.08958704 0.52700001
0.25524011 -0.08958704 0.52700001
-0.27956441 -0.084533505 0.505
-0.27825075 -0.084533505 0.505
-0.27693713 -0.084533505 0.505
-0.27562344 -0.084533505 0.505
-0.27430978 -0.084533505 0.505
-0.27299613 -0.084533505 0.505
-0.27168247 -0.084533505 0.505
-0.27036881 -0.084533505 0.505
-0.26905516 -0.084533505 0.505
-0.2677415 -0.084533505 0.505
-0.26642784 -0.084533505 0.505
-0.26511419 -0.084533505 0.505
-0.26380053 -0.084533505 0.505
-0.26248688 -0.084533505 0.505
-0.26117319 -0.084533505 0.505
-0.25985956 -0.084533505 0.505
-0.25854591 -0.084533505 0.505
-0.25774166 -0.084700912 0.50600004
-0.25642538 -0.084700912 0.50600004
-0.2551091 -0.084700912 0.50600004
-0.25379285 -0.084700912 0.50600004
-0.2524766 -0.084700912 0.50600004
-0.25116035 -0.084700912 0.50600004
-0.24984409 -0.084700912 0.50600004
-0.24852782 -0.084700912 0.50600004
-0.24721156 -0.084700912 0.50600004
-0.2458953 -0.084700912 0.50600004
-0.24457905 -0.084700912 0.50600004
-0.24326278 -0.084700912 0.50600004
-0.24194653 -0.084700912 0.50600004
-0.24063027 -0.084700912 0.50600004
-0.239314 -0.084700912 0.50600004
-0.23752739 -0.084533505 0.505
-0.23621373 -0.084533505 0.505
-0.23490006 -0.084533505 0.505
-0.2335864 -0.084533505 0.505
-0.23227274 -0.084533505 0.505
-0.23095909 -0.084533505 0.505
-0.22964543 -0.084533505 0.505
-0.22833177 -0.084533505 0.505
-0.22746767 -0.084700912 0.50600004
-0.22615142 -0.084700912 0.50600004
-0.22483516 -0.084700912 0.50600004
-0.22351891 -0.084700912 0.50600004
-0.22220264 -0.084700912 0.50600004
-0.22088638 -0.084700912 0.50600004
-0.21957013 -0.084700912 0.50600004
-0.21825387 -0.084700912 0.50600004
-0.21693762 -0.084700912 0.50600004
-0.21562134 -0.084700912 0.50600004
-0.21430509 -0.084700912 0.50600004
-0.21298884 -0.084700912 0.50600004
-0.21209089 -0.084868297 0.50700003
-0.21077204 -0.084868297 0.50700003
-0.20945317 -0.084868297 0.50700003
-0.20813431 -0.084868297 0.50700003
-0.20681545 -0.084868297 0.50700003
-0.20549659 -0.084868297 0.50700003
-0.20458044 -0.085035689 0.50800002
-0.20325898 -0.085035689 0.50800002
-0.20193753 -0.085035689 0.50800002
-0.20061606 -0.085035689 0.50800002
-0.1992946 -0.085035689 0.50800002
-0.19797313 -0.085035689 0.50800002
-0.19665167 -0.085035689 0.50800002
-0.19533022 -0.085035689 0.50800002
-0.19400875 -0.085035689 0.50800002
-0.19230799 -0.084868297 0.50700003
-0.19098912 -0.084868297 0.50700003
-0.18967026 -0.084868297 0.50700003
-0.18835141 -0.084868297 0.50700003
-0.18703255 -0.084868297 0.50700003
-0.18571369 -0.084868297 0.50700003
-0.18439482 -0.084868297 0.50700003
-0.18307596 -0.084868297 0.50700003
-0.18175711 -0.084868297 0.50700003
-0.18043825 -0.084868297 0.50700003
-0.17947267 -0.085035689 0.50800002
-0.17815121 -0.085035689 0.50800002
-0.17682976 -0.085035689 0.50800002
-0.17550829 -0.085035689 0.50800002
-0.17452972 -0.085203081 0.509
-0.17320564 -0.085203081 0.509
-0.17188159 -0.085203081 0.509
-0.17055753 -0.085203081 0.509
-0.16956596 -0.085370481 0.51000005
-0.1682393 -0.085370481 0.51000005
-0.16691263 -0.085370481 0.51000005
-0.16558596 -0.085370481 0.51000005
-0.1642593 -0.085370481 0.51000005
-0.16293265 -0.085370481 0.51000005
-0.16160598 -0.085370481 0.51000005
-0.1602793 -0.085370481 0.51000005
-0.15895264 -0.085370481 0.51000005
-0.15762599 -0.085370481 0.51000005
-0.15629932 -0.085370481 0.51000005
-0.15497264 -0.085370481 0.51000005
-0.15364599 -0.085370481 0.51000005
-0.15231933 -0.085370481 0.51000005
-0.15099266 -0.085370481 0.51000005
-0.149666 -0.085370481 0.51000005
-0.14833933 -0.085370481 0.51000005
-0.14701267 -0.085370481 0.51000005
-0.145686 -0.085370481 0.51000005
-0.14407627 -0.085203081 0.509
-0.14275222 -0.085203081 0.509
-0.14142814 -0.085203081 0.509
-0.14010409 -0.085203081 0.509
-0.13878003 -0.085203081 0.509
-0.13745596 -0.085203081 0.509
-0.1361319 -0.085203081 0.509
-0.13480783 -0.085203081 0.509
-0.13348377 -0.085203081 0.509
-0.13190007 -0.085035689 0.50800002
-0.13057861 -0.085035689 0.50800002
-0.12925713 -0.085035689 0.50800002
-0.12793568 -0.085035689 0.50800002
-0.12661421 -0.085035689 0.50800002
-0.12504612 -0.084868297 0.50700003
-0.12372726 -0.084868297 0.50700003
-0.1224084 -0.084868297 0.50700003
-0.12108954 -0.084868297 0.50700003
-0.12000691 -0.085035689 0.50800002
-0.11868545 -0.085035689 0.50800002
-0.11736399 -0.085035689 0.50800002
-0.11627096 -0.085203081 0.509
-0.11494689 -0.085203081 0.509
-0.11384606 -0.085370481 0.51000005
-0.11251941 -0.085370481 0.51000005
-0.11119274 -0.085370481 0.51000005
-0.11008149 -0.085537873 0.51100004
-0.10875223 -0.085537873 0.51100004
-0.10763318 -0.085705265 0.51200002
-0.10630132 -0.085705265 0.51200002
-0.10496945 -0.085705265 0.51200002
-0.10363758 -0.085705265 0.51200002
-0.10230572 -0.085705265 0.51200002
-0.10097385 -0.085705265 0.51200002
-0.099836588 -0.085872658 0.51300001
-0.098310113 -0.085705265 0.51200002
-0.097167656 -0.085872658 0.51300001
-0.09583319 -0.085872658 0.51300001
-0.094498724 -0.085872658 0.51300001
-0.09316425 -0.085872658 0.51300001
-0.091829784 -0.085872658 0.51300001
-0.090495318 -0.085872658 0.51300001
-0.089160852 -0.085872658 0.51300001
-0.087826386 -0.085872658 0.51300001
-0.086491913 -0.085872658 0.51300001
-0.085323445 -0.08604005 0.514
-0.083986372 -0.08604005 0.514
-0.082649305 -0.08604005 0.514
-0.081312232 -0.08604005 0.514
-0.080130763 -0.086207449 0.51500005
-0.078791097 -0.086207449 0.51500005
-0.077451423 -0.086207449 0.51500005
-0.076259546 -0.086374842 0.51600003
-0.074917272 -0.086374842 0.51600003
-0.073574997 -0.086374842 0.51600003
-0.072232723 -0.086374842 0.51600003
-0.070890456 -0.086374842 0.51600003
-0.06954819 -0.086374842 0.51600003
-0.068205908 -0.086374842 0.51600003
-0.066863641 -0.086374842 0.51600003
-0.065521367 -0.086374842 0.51600003
-0.06405472 -0.086207449 0.51500005
-0.062715046 -0.086207449 0.51500005
-0.061256196 -0.08604005 0.514
-0.059919126 -0.08604005 0.514
-0.05858206 -0.08604005 0.514
-0.05724499 -0.08604005 0.514
-0.05590792 -0.08604005 0.514
-0.05457085 -0.08604005 0.514
-0.05323378 -0.08604005 0.514
-0.05189671 -0.08604005 0.514
-0.050559644 -0.08604005 0.514
-0.049222574 -0.08604005 0.514
-0.047978673 -0.086207449 0.51500005
-0.046638999 -0.086207449 0.51500005
-0.045299329 -0.086207449 0.51500005
-0.044045016 -0.086374842 0.51600003
-0.042702742 -0.086374842 0.51600003
-0.041360475 -0.086374842 0.51600003
-0.040018201 -0.086374842 0.51600003
-0.03867593 -0.086374842 0.51600003
-0.037333656 -0.086374842 0.51600003
-0.035991386 -0.086374842 0.51600003
-0.034649111 -0.086374842 0.51600003
-0.033306845 -0.086374842 0.51600003
-0.03196457 -0.086374842 0.51600003
-0.030622298 -0.086374842 0.51600003
-0.029280026 -0.086374842 0.51600003
-0.027937753 -0.086374842 0.51600003
-0.026595483 -0.086374842 0.51600003
-0.02525321 -0.086374842 0.51600003
-0.023910938 -0.086374842 0.51600003
-0.022568667 -0.086374842 0.51600003
-0.021226395 -0.086374842 0.51600003
-0.019884123 -0.086374842 0.51600003
-0.018541852 -0.086374842 0.51600003
-0.01719958 -0.086374842 0.51600003
-0.015857307 -0.086374842 0.51600003
-0.014515035 -0.086374842 0.51600003
-0.013172763 -0.086374842 0.51600003
-0.011830492 -0.086374842 0.51600003
-0.01048822 -0.086374842 0.51600003
-0.0091459481 -0.086374842 0.51600003
-0.0077885524 -0.086207449 0.51500005
-0.0064614038 -0.086374842 0.51600003
-0.0051092114 -0.086207449 0.51500005
-0.0037695407 -0.086207449 0.51500005
-0.00242987 -0.086207449 0.51500005
-0.0010901995 -0.086207449 0.51500005
0.0073541459 -0.076498643 0.45700002
0.008542941 -0.076498643 0.45700002
0.0097317351 -0.076498643 0.45700002
0.010944427 -0.076666042 0.45800003
0.012135823 -0.076666042 0.45800003
0.01332722 -0.076666042 0.45800003
0.014550316 -0.076833434 0.45900002
0.015744314 -0.076833434 0.45900002
0.016975213 -0.077000819 0.46000001
0.018171813 -0.077000819 0.46000001
0.019368412 -0.077000819 0.46000001
0.020565011 -0.077000819 0.46000001
0.021761609 -0.077000819 0.46000001
0.022958208 -0.077000819 0.46000001
0.024154807 -0.077000819 0.46000001
0.025351405 -0.077000819 0.46000001
0.026548006 -0.077000819 0.46000001
0.027744602 -0.077000819 0.46000001
0.028941205 -0.077000819 0.46000001
0.0301378 -0.077000819 0.46000001
0.0313344 -0.077000819 0.46000001
0.032531001 -0.077000819 0.46000001
0.033727597 -0.077000819 0.46000001
0.034848277 -0.076833434 0.45900002
0.048571747 -0.086374842 0.51600003
0.049914014 -0.086374842 0.51600003
0.051256288 -0.086374842 0.51600003
0.052598558 -0.086374842 0.51600003
0.053940833 -0.086374842 0.51600003
0.055390239 -0.086542226 0.51700002
0.056844853 -0.086709619 0.51800001
0.058192328 -0.086709619 0.51800001
0.059654746 -0.086877018 0.51900005
0.061004821 -0.086877018 0.51900005
0.062475041 -0.08704441 0.52000004
0.063827716 -0.08704441 0.52000004
0.06530574 -0.087211803 0.52100003
0.066661023 -0.087211803 0.52100003
0.068146847 -0.087379195 0.52200001
0.06950473 -0.087379195 0.52200001
0.070862606 -0.087379195 0.52200001
0.072220482 -0.087379195 0.52200001
0.073578365 -0.087379195 0.52200001
0.074936241 -0.087379195 0.52200001
0.076294124 -0.087379195 0.52200001
0.077652 -0.087379195 0.52200001
0.078858525 -0.087211803 0.52100003
0.0802138 -0.087211803 0.52100003
0.081569076 -0.087211803 0.52100003
0.082924359 -0.087211803 0.52100003
0.084279634 -0.087211803 0.52100003
0.085634917 -0.087211803 0.52100003
0.086990193 -0.087211803 0.52100003
0.088345475 -0.087211803 0.52100003
0.089700751 -0.087211803 0.52100003
0.091056027 -0.087211803 0.52100003
0.092411309 -0.087211803 0.52100003
0.093766585 -0.087211803 0.52100003
0.095121868 -0.087211803 0.52100003
0.096477143 -0.087211803 0.52100003
0.097832419 -0.087211803 0.52100003
0.099187702 -0.087211803 0.52100003
0.10054298 -0.087211803 0.52100003
0.10189826 -0.087211803 0.52100003
0.10305535 -0.08704441 0.52000004
0.10440803 -0.08704441 0.52000004
0.10576071 -0.08704441 0.52000004
0.10731937 -0.087211803 0.52100003
0.10867465 -0.087211803 0.52100003
0.11002993 -0.087211803 0.52100003
0.11138521 -0.087211803 0.52100003
0.11274049 -0.087211803 0.52100003
0.11409576 -0.087211803 0.52100003
0.11545105 -0.087211803 0.52100003
0.11680632 -0.087211803 0.52100003
0.1181616 -0.087211803 0.52100003
0.11974627 -0.087379195 0.52200001
0.12110416 -0.087379195 0.52200001
0.12246203 -0.087379195 0.52200001
0.12381991 -0.087379195 0.52200001
0.12517779 -0.087379195 0.52200001
0.12653567 -0.087379195 0.52200001
0.12789355 -0.087379195 0.52200001
0.12925144 -0.087379195 0.52200001
0.1306093 -0.087379195 0.52200001
0.13196719 -0.087379195 0.52200001
0.13332507 -0.087379195 0.52200001
0.13468295 -0.087379195 0.52200001
0.13604082 -0.087379195 0.52200001
0.1373987 -0.087379195 0.52200001
0.13875659 -0.087379195 0.52200001
0.13984606 -0.087211803 0.52100003
0.14120133 -0.087211803 0.52100003
0.14255661 -0.087211803 0.52100003
0.14391188 -0.087211803 0.52100003
0.14526717 -0.087211803 0.52100003
0.14662245 -0.087211803 0.52100003
0.14769369 -0.08704441 0.52000004
0.14904638 -0.08704441 0.52000004
0.15039904 -0.08704441 0.52000004
0.15175174 -0.08704441 0.52000004
0.15310441 -0.08704441 0.52000004
0.15475412 -0.087211803 0.52100003
0.15610939 -0.087211803 0.52100003
0.15746467 -0.087211803 0.52100003
0.15912479 -0.087379195 0.52200001
0.16048266 -0.087379195 0.52200001
0.16215058 -0.087546587 0.523
0.16351105 -0.087546587 0.523
0.16487154 -0.087546587 0.523
0.16623202 -0.087546587 0.523
0.1675925 -0.087546587 0.523
0.16895299 -0.087546587 0.523
0.17031346 -0.087546587 0.523
0.17167395 -0.087546587 0.523
0.17303443 -0.087546587 0.523
0.17439491 -0.087546587 0.523
0.17575538 -0.087546587 0.523
0.17711586 -0.087546587 0.523
0.17847635 -0.087546587 0.523
0.17983684 -0.087546587 0.523
0.18119732 -0.087546587 0.523
0.18255779 -0.087546587 0.523
0.18391827 -0.087546587 0.523
0.18527876 -0.087546587 0.523
0.18663923 -0.087546587 0.523
0.18799971 -0.087546587 0.523
0.18936019 -0.087546587 0.523
0.19072069 -0.087546587 0.523
0.19208117 -0.087546587 0.523
0.19344164 -0.087546587 0.523
0.19480212 -0.087546587 0.523
0.1961626 -0.087546587 0.523
0.19752309 -0.087546587 0.523
0.19888356 -0.087546587 0.523
0.20062694 -0.087713987 0.52400005
0.20199002 -0.087713987 0.52400005
0.20335309 -0.087713987 0.52400005
0.20510687 -0.087881379 0.52500004
0.20647255 -0.087881379 0.52500004
0.20783822 -0.087881379 0.52500004
0.20960239 -0.088048771 0.52600002
0.21097067 -0.088048771 0.52600002
0.21233897 -0.088048771 0.52600002
0.21411353 -0.088216156 0.52700001
0.21507552 -0.088048771 0.52600002
0.21685529 -0.088216156 0.52700001
0.21781209 -0.088048771 0.52600002
0.21918039 -0.088048771 0.52600002
0.22054867 -0.088048771 0.52600002
0.22191694 -0.088048771 0.52600002
0.22286074 -0.087881379 0.52500004
0.22422643 -0.087881379 0.52500004
0.22559212 -0.087881379 0.52500004
0.2269578 -0.087881379 0.52500004
0.22832347 -0.087881379 0.52500004
0.22968917 -0.087881379 0.52500004
0.23105486 -0.087881379 0.52500004
0.23242053 -0.087881379 0.52500004
0.23378621 -0.087881379 0.52500004
0.2351519 -0.087881379 0.52500004
0.23651758 -0.087881379 0.52500004
0.23788327 -0.087881379 0.52500004
0.23924895 -0.087881379 0.52500004
0.24061464 -0.087881379 0.52500004
0.24244122 -0.088048771 0.52600002
0.24380951 -0.088048771 0.52600002
0.24564391 -0.088216156 0.52700001
0.24701479 -0.088216156 0.52700001
0.24838568 -0.088216156 0.52700001
0.24975656 -0.088216156 0.52700001
0.25112745 -0.088216156 0.52700001
0.25249833 -0.088216156 0.52700001
0.25386924 -0.088216156 0.52700001
0.25524011 -0.088216156 0.52700001
-0.27956441 -0.083219849 0.505
-0.27825075 -0.083219849 0.505
-0.27693713 -0.083219849 0.505
-0.27562344 -0.083219849 0.505
-0.27430978 -0.083219849 0.505
-0.27299613 -0.083219849 0.505
-0.27168247 -0.083219849 0.505
-0.27036881 -0.083219849 0.505
-0.26905516 -0.083219849 0.505
-0.2677415 -0.083219849 0.505
-0.26642784 -0.083219849 0.505
-0.26511419 -0.083219849 0.505
-0.26380053 -0.083219849 0.505
-0.26248688 -0.083219849 0.505
-0.26117319 -0.083219849 0.505
-0.25985956 -0.083219849 0.505
-0.25854591 -0.083219849 0.505
-0.25774166 -0.083384648 0.50600004
-0.25642538 -0.083384648 0.50600004
-0.2551091 -0.083384648 0.50600004
-0.25379285 -0.083384648 0.50600004
-0.2524766 -0.083384648 0.50600004
-0.25116035 -0.083384648 0.50600004
-0.24984409 -0.083384648 0.50600004
-0.24852782 -0.083384648 0.50600004
-0.24721156 -0.083384648 0.50600004
-0.2458953 -0.083384648 0.50600004
-0.24457905 -0.083384648 0.50600004
-0.24326278 -0.083384648 0.50600004
-0.24194653 -0.083384648 0.50600004
-0.24063027 -0.083384648 0.50600004
-0.239314 -0.083384648 0.50600004
-0.23799776 -0.083384648 0.50600004
-0.23668149 -0.083384648 0.50600004
-0.23536523 -0.083384648 0.50600004
-0.23404896 -0.083384648 0.50600004
-0.23273271 -0.083384648 0.50600004
-0.23141646 -0.083384648 0.50600004
-0.2301002 -0.083384648 0.50600004
-0.22878394 -0.083384648 0.50600004
-0.22746767 -0.083384648 0.50600004
-0.22615142 -0.083384648 0.50600004
-0.22483516 -0.083384648 0.50600004
-0.22351891 -0.083384648 0.50600004
-0.22220264 -0.083384648 0.50600004
-0.22088638 -0.083384648 0.50600004
-0.21957013 -0.083384648 0.50600004
-0.21825387 -0.083384648 0.50600004
-0.21693762 -0.083384648 0.50600004
-0.21562134 -0.083384648 0.50600004
-0.21430509 -0.083384648 0.50600004
-0.21340975 -0.083549432 0.50700003
-0.21209089 -0.083549432 0.50700003
-0.21077204 -0.083549432 0.50700003
-0.20945317 -0.083549432 0.50700003
-0.20813431 -0.083549432 0.50700003
-0.20681545 -0.083549432 0.50700003
-0.20590191 -0.083714224 0.50800002
-0.20458044 -0.083714224 0.50800002
-0.20325898 -0.083714224 0.50800002
-0.20193753 -0.083714224 0.50800002
-0.20061606 -0.083714224 0.50800002
-0.1992946 -0.083714224 0.50800002
-0.19797313 -0.083714224 0.50800002
-0.19665167 -0.083714224 0.50800002
-0.19533022 -0.083714224 0.50800002
-0.19400875 -0.083714224 0.50800002
-0.19230799 -0.083549432 0.50700003
-0.19098912 -0.083549432 0.50700003
-0.18967026 -0.083549432 0.50700003
-0.18835141 -0.083549432 0.50700003
-0.18703255 -0.083549432 0.50700003
-0.18571369 -0.083549432 0.50700003
-0.18439482 -0.083549432 0.50700003
-0.18307596 -0.083549432 0.50700003
-0.18175711 -0.083549432 0.50700003
-0.18043825 -0.083549432 0.50700003
-0.17947267 -0.083714224 0.50800002
-0.17815121 -0.083714224 0.50800002
-0.17682976 -0.083714224 0.50800002
-0.17550829 -0.083714224 0.50800002
-0.17418684 -0.083714224 0.50800002
-0.17320564 -0.083879016 0.509
-0.17188159 -0.083879016 0.509
-0.17055753 -0.083879016 0.509
-0.16923347 -0.083879016 0.509
-0.1682393 -0.084043816 0.51000005
-0.16691263 -0.084043816 0.51000005
-0.16558596 -0.084043816 0.51000005
-0.1642593 -0.084043816 0.51000005
-0.16293265 -0.084043816 0.51000005
-0.16160598 -0.084043816 0.51000005
-0.1602793 -0.084043816 0.51000005
-0.15926431 -0.084208608 0.51100004
-0.15793505 -0.084208608 0.51100004
-0.1566058 -0.084208608 0.51100004
-0.15527651 -0.084208608 0.51100004
-0.15394725 -0.084208608 0.51100004
-0.15231933 -0.084043816 0.51000005
-0.15099266 -0.084043816 0.51000005
-0.149666 -0.084043816 0.51000005
-0.14833933 -0.084043816 0.51000005
-0.14701267 -0.084043816 0.51000005
-0.145686 -0.084043816 0.51000005
-0.14435935 -0.084043816 0.51000005
-0.14303268 -0.084043816 0.51000005
-0.14142814 -0.083879016 0.509
-0.14010409 -0.083879016 0.509
-0.13878003 -0.083879016 0.509
-0.13745596 -0.083879016 0.509
-0.1361319 -0.083879016 0.509
-0.13480783 -0.083879016 0.509
-0.13348377 -0.083879016 0.509
-0.13215971 -0.083879016 0.509
-0.13057861 -0.083714224 0.50800002
-0.12925713 -0.083714224 0.50800002
-0.12793568 -0.083714224 0.50800002
-0.12661421 -0.083714224 0.50800002
-0.12529276 -0.083714224 0.50800002
-0.12372726 -0.083549432 0.50700003
-0.1224084 -0.083549432 0.50700003
-0.12108954 -0.083549432 0.50700003
-0.11977068 -0.083549432 0.50700003
-0.11868545 -0.083714224 0.50800002
-0.11736399 -0.083714224 0.50800002
-0.11604253 -0.083714224 0.50800002
-0.11494689 -0.083879016 0.509
-0.11384606 -0.084043816 0.51000005
-0.11251941 -0.084043816 0.51000005
-0.11119274 -0.084043816 0.51000005
-0.11008149 -0.084208608 0.51100004
-0.10896505 -0.084373392 0.51200002
-0.10763318 -0.084373392 0.51200002
-0.10630132 -0.084373392 0.51200002
-0.10496945 -0.084373392 0.51200002
-0.10363758 -0.084373392 0.51200002
-0.10230572 -0.084373392 0.51200002
-0.10097385 -0.084373392 0.51200002
-0.099836588 -0.084538184 0.51300001
-0.098502129 -0.084538184 0.51300001
-0.097167656 -0.084538184 0.51300001
-0.09583319 -0.084538184 0.51300001
-0.094498724 -0.084538184 0.51300001
-0.09316425 -0.084538184 0.51300001
-0.091829784 -0.084538184 0.51300001
-0.090495318 -0.084538184 0.51300001
-0.089160852 -0.084538184 0.51300001
-0.087826386 -0.084538184 0.51300001
-0.086660512 -0.084702976 0.514
-0.085323445 -0.084702976 0.514
-0.083986372 -0.084702976 0.514
-0.082649305 -0.084702976 0.514
-0.081470437 -0.084867775 0.51500005
-0.080130763 -0.084867775 0.51500005
-0.078944087 -0.08503256 0.51600003
-0.077601813 -0.08503256 0.51600003
-0.076259546 -0.08503256 0.51600003
-0.074917272 -0.08503256 0.51600003
-0.073574997 -0.08503256 0.51600003
-0.072372705 -0.085197352 0.51700002
-0.071027838 -0.085197352 0.51700002
-0.069682971 -0.085197352 0.51700002
-0.068338089 -0.085197352 0.51700002
-0.066863641 -0.08503256 0.51600003
-0.065521367 -0.08503256 0.51600003
-0.064179093 -0.08503256 0.51600003
-0.062836826 -0.08503256 0.51600003
-0.061375376 -0.084867775 0.51500005
-0.060035706 -0.084867775 0.51500005
-0.05858206 -0.084702976 0.514
-0.05724499 -0.084702976 0.514
-0.05590792 -0.084702976 0.514
-0.05457085 -0.084702976 0.514
-0.05323378 -0.084702976 0.514
-0.051997684 -0.084867775 0.51500005
-0.050559644 -0.084702976 0.514
-0.049222574 -0.084702976 0.514
-0.047978673 -0.084867775 0.51500005
-0.046638999 -0.084867775 0.51500005
-0.045299329 -0.084867775 0.51500005
-0.044045016 -0.08503256 0.51600003
-0.042702742 -0.08503256 0.51600003
-0.041360475 -0.08503256 0.51600003
-0.040018201 -0.08503256 0.51600003
-0.03867593 -0.08503256 0.51600003
-0.037333656 -0.08503256 0.51600003
-0.035991386 -0.08503256 0.51600003
-0.034649111 -0.08503256 0.51600003
-0.033306845 -0.08503256 0.51600003
-0.03196457 -0.08503256 0.51600003
-0.030622298 -0.08503256 0.51600003
-0.029280026 -0.08503256 0.51600003
-0.027937753 -0.08503256 0.51600003
-0.026595483 -0.08503256 0.51600003
-0.02525321 -0.08503256 0.51600003
-0.023910938 -0.08503256 0.51600003
-0.022568667 -0.08503256 0.51600003
-0.021226395 -0.08503256 0.51600003
-0.019884123 -0.08503256 0.51600003
-0.018541852 -0.08503256 0.51600003
-0.01719958 -0.08503256 0.51600003
-0.015857307 -0.08503256 0.51600003
-0.014515035 -0.08503256 0.51600003
-0.013172763 -0.08503256 0.51600003
-0.011830492 -0.08503256 0.51600003
-0.01048822 -0.08503256 0.51600003
-0.0091459481 -0.08503256 0.51600003
-0.0078036757 -0.08503256 0.51600003
-0.0064614038 -0.08503256 0.51600003
-0.0051191323 -0.08503256 0.51600003
-0.0037695407 -0.084867775 0.51500005
0.007338054 -0.075145058 0.45600003
0.0085242474 -0.075145058 0.45600003
0.0097317351 -0.075309843 0.45700002
0.010920531 -0.075309843 0.45700002
0.012109325 -0.075309843 0.45700002
0.01332722 -0.075474642 0.45800003
0.014518617 -0.075474642 0.45800003
0.015744314 -0.075639427 0.45900002
0.01693831 -0.075639427 0.45900002
0.018132308 -0.075639427 0.45900002
0.019326307 -0.075639427 0.45900002
0.020520303 -0.075639427 0.45900002
0.021714302 -0.075639427 0.45900002
0.0229083 -0.075639427 0.45900002
0.024102297 -0.075639427 0.45900002
0.025296295 -0.075639427 0.45900002
0.026490293 -0.075639427 0.45900002
0.02768429 -0.075639427 0.45900002
0.02887829 -0.075639427 0.45900002
0.030072285 -0.075639427 0.45900002
0.031266283 -0.075639427 0.45900002
0.03246028 -0.075639427 0.45900002
0.03365428 -0.075639427 0.45900002
0.034848277 -0.075639427 0.45900002
0.036042277 -0.075639427 0.45900002
0.037155148 -0.075474642 0.45800003
0.03843027 -0.075639427 0.45900002
0.039624266 -0.075639427 0.45900002
0.048571747 -0.08503256 0.51600003
0.049914014 -0.08503256 0.51600003
0.051256288 -0.08503256 0.51600003
0.052598558 -0.08503256 0.51600003
0.054045368 -0.085197352 0.51700002
0.055390239 -0.085197352 0.51700002
0.056844853 -0.085362144 0.51800001
0.058192328 -0.085362144 0.51800001
0.059654746 -0.085526943 0.51900005
0.061004821 -0.085526943 0.51900005
0.062475041 -0.085691728 0.52000004
0.063827716 -0.085691728 0.52000004
0.06530574 -0.08585652 0.52100003
0.066661023 -0.08585652 0.52100003
0.068146847 -0.086021312 0.52200001
0.06950473 -0.086021312 0.52200001
0.070862606 -0.086021312 0.52200001
0.072220482 -0.086021312 0.52200001
0.073578365 -0.086021312 0.52200001
0.074936241 -0.086021312 0.52200001
0.076294124 -0.086021312 0.52200001
0.077652 -0.086021312 0.52200001
0.079009883 -0.086021312 0.52200001
0.080367759 -0.086021312 0.52200001
0.081569076 -0.08585652 0.52100003
0.082924359 -0.08585652 0.52100003
0.084279634 -0.08585652 0.52100003
0.085634917 -0.08585652 0.52100003
0.086990193 -0.08585652 0.52100003
0.088345475 -0.08585652 0.52100003
0.089700751 -0.08585652 0.52100003
0.091056027 -0.08585652 0.52100003
0.092411309 -0.08585652 0.52100003
0.093766585 -0.08585652 0.52100003
0.095304444 -0.086021312 0.52200001
0.09666232 -0.086021312 0.52200001
0.098020196 -0.086021312 0.52200001
0.099378079 -0.086021312 0.52200001
0.10054298 -0.08585652 0.52100003
0.10189826 -0.08585652 0.52100003
0.10325354 -0.08585652 0.52100003
0.10460882 -0.08585652 0.52100003
0.10596409 -0.08585652 0.52100003
0.10731937 -0.08585652 0.52100003
0.10867465 -0.08585652 0.52100003
0.11002993 -0.08585652 0.52100003
0.11138521 -0.08585652 0.52100003
0.11274049 -0.08585652 0.52100003
0.11409576 -0.08585652 0.52100003
0.11545105 -0.08585652 0.52100003
0.11703051 -0.086021312 0.52200001
0.11838839 -0.086021312 0.52200001
0.11974627 -0.086021312 0.52200001
0.12110416 -0.086021312 0.52200001
0.12246203 -0.086021312 0.52200001
0.12381991 -0.086021312 0.52200001
0.12517779 -0.086021312 0.52200001
0.12653567 -0.086021312 0.52200001
0.12789355 -0.086021312 0.52200001
0.12925144 -0.086021312 0.52200001
0.1306093 -0.086021312 0.52200001
0.13196719 -0.086021312 0.52200001
0.13332507 -0.086021312 0.52200001
0.13468295 -0.086021312 0.52200001
0.13604082 -0.086021312 0.52200001
0.1373987 -0.086021312 0.52200001
0.13875659 -0.086021312 0.52200001
0.13984606 -0.08585652 0.52100003
0.14120133 -0.08585652 0.52100003
0.14255661 -0.08585652 0.52100003
0.14391188 -0.08585652 0.52100003
0.14526717 -0.08585652 0.52100003
0.14662245 -0.08585652 0.52100003
0.14797772 -0.08585652 0.52100003
0.149333 -0.08585652 0.52100003
0.15068828 -0.08585652 0.52100003
0.15204357 -0.08585652 0.52100003
0.15339884 -0.08585652 0.52100003
0.15475412 -0.08585652 0.52100003
0.15610939 -0.08585652 0.52100003
0.15776689 -0.086021312 0.52200001
0.15912479 -0.086021312 0.52200001
0.1607901 -0.086186104 0.523
0.16215058 -0.086186104 0.523
0.16351105 -0.086186104 0.523
0.16487154 -0.086186104 0.523
0.16623202 -0.086186104 0.523
0.1675925 -0.086186104 0.523
0.16895299 -0.086186104 0.523
0.17031346 -0.086186104 0.523
0.17167395 -0.086186104 0.523
0.17303443 -0.086186104 0.523
0.17439491 -0.086186104 0.523
0.17575538 -0.086186104 0.523
0.17711586 -0.086186104 0.523
0.17847635 -0.086186104 0.523
0.17983684 -0.086186104 0.523
0.18119732 -0.086186104 0.523
0.18255779 -0.086186104 0.523
0.18391827 -0.086186104 0.523
0.18527876 -0.086186104 0.523
0.18663923 -0.086186104 0.523
0.18799971 -0.086186104 0.523
0.18936019 -0.086186104 0.523
0.19072069 -0.086186104 0.523
0.19208117 -0.086186104 0.523
0.19344164 -0.086186104 0.523
0.19480212 -0.086186104 0.523
0.1961626 -0.086186104 0.523
0.19752309 -0.086186104 0.523
0.19888356 -0.086186104 0.523
0.20062694 -0.086350903 0.52400005
0.20199002 -0.086350903 0.52400005
0.20335309 -0.086350903 0.52400005
0.20510687 -0.086515687 0.52500004
0.20647255 -0.086515687 0.52500004
0.20783822 -0.086515687 0.52500004
0.20960239 -0.086680479 0.52600002
0.21097067 -0.086680479 0.52600002
0.21233897 -0.086680479 0.52600002
0.21411353 -0.086845271 0.52700001
0.21507552 -0.086680479 0.52600002
0.21685529 -0.086845271 0.52700001
0.21822618 -0.086845271 0.52700001
0.21918039 -0.086680479 0.52600002
0.22054867 -0.086680479 0.52600002
0.22191694 -0.086680479 0.52600002
0.22328523 -0.086680479 0.52600002
0.22465353 -0.086680479 0.52600002
0.22602181 -0.086680479 0.52600002
0.2273901 -0.086680479 0.52600002
0.22875838 -0.086680479 0.52600002
0.22968917 -0.086515687 0.52500004
0.23105486 -0.086515687 0.52500004
0.23242053 -0.086515687 0.52500004
0.23378621 -0.086515687 0.52500004
0.2351519 -0.086515687 0.52500004
0.23651758 -0.086515687 0.52500004
0.23788327 -0.086515687 0.52500004
0.23970465 -0.086680479 0.52600002
0.24107294 -0.086680479 0.52600002
0.24244122 -0.086680479 0.52600002
0.24380951 -0.086680479 0.52600002
0.24564391 -0.086845271 0.52700001
0.24701479 -0.086845271 0.52700001
0.24838568 -0.086845271 0.52700001
0.25023046 -0.087010056 0.528
0.25160396 -0.087010056 0.528
0.25297746 -0.087010056 0.528
0.25435093 -0.087010056 0.528
0.25572443 -0.087010056 0.528
-0.27956441 -0.081906192 0.505
-0.27825075 -0.081906192 0.505
-0.27693713 -0.081906192 0.505
-0.27562344 -0.081906192 0.505
-0.27430978 -0.081906192 0.505
-0.27299613 -0.081906192 0.505
-0.27168247 -0.081906192 0.505
-0.27036881 -0.081906192 0.505
-0.26905516 -0.081906192 0.505
-0.2677415 -0.081906192 0.505
-0.26642784 -0.081906192 0.505
-0.26511419 -0.081906192 0.505
-0.26380053 -0.081906192 0.505
-0.26248688 -0.081906192 0.505
-0.26117319 -0.081906192 0.505
-0.25985956 -0.081906192 0.505
-0.25854591 -0.081906192 0.505
-0.25774166 -0.082068391 0.50600004
-0.25642538 -0.082068391 0.50600004
-0.2551091 -0.082068391 0.50600004
-0.25379285 -0.082068391 0.50600004
-0.2524766 -0.082068391 0.50600004
-0.25116035 -0.082068391 0.50600004
-0.24984409 -0.082068391 0.50600004
-0.24852782 -0.082068391 0.50600004
-0.24721156 -0.082068391 0.50600004
-0.24638125 -0.082230575 0.50700003
-0.2450624 -0.082230575 0.50700003
-0.24374354 -0.082230575 0.50700003
-0.24242468 -0.082230575 0.50700003
-0.24110581 -0.082230575 0.50700003
-0.23978695 -0.082230575 0.50700003
-0.23799776 -0.082068391 0.50600004
-0.23668149 -0.082068391 0.50600004
-0.23536523 -0.082068391 0.50600004
-0.23404896 -0.082068391 0.50600004
-0.23273271 -0.082068391 0.50600004
-0.23141646 -0.082068391 0.50600004
-0.2301002 -0.082068391 0.50600004
-0.22878394 -0.082068391 0.50600004
-0.22791721 -0.082230575 0.50700003
-0.22615142 -0.082068391 0.50600004
-0.2252795 -0.082230575 0.50700003
-0.22351891 -0.082068391 0.50600004
-0.22220264 -0.082068391 0.50600004
-0.22088638 -0.082068391 0.50600004
-0.21957013 -0.082068391 0.50600004
-0.21825387 -0.082068391 0.50600004
-0.21693762 -0.082068391 0.50600004
-0.21604747 -0.082230575 0.50700003
-0.21430509 -0.082068391 0.50600004
-0.21340975 -0.082230575 0.50700003
-0.21209089 -0.082230575 0.50700003
-0.21077204 -0.082230575 0.50700003
-0.20945317 -0.082230575 0.50700003
-0.20813431 -0.082230575 0.50700003
-0.20681545 -0.082230575 0.50700003
-0.20590191 -0.082392767 0.50800002
-0.20458044 -0.082392767 0.50800002
-0.20325898 -0.082392767 0.50800002
-0.20193753 -0.082392767 0.50800002
-0.20061606 -0.082392767 0.50800002
-0.1992946 -0.082392767 0.50800002
-0.19797313 -0.082392767 0.50800002
-0.19665167 -0.082392767 0.50800002
-0.19533022 -0.082392767 0.50800002
-0.19400875 -0.082392767 0.50800002
-0.19230799 -0.082230575 0.50700003
-0.19098912 -0.082230575 0.50700003
-0.18967026 -0.082230575 0.50700003
-0.18835141 -0.082230575 0.50700003
-0.18703255 -0.082230575 0.50700003
-0.18571369 -0.082230575 0.50700003
-0.18439482 -0.082230575 0.50700003
-0.18307596 -0.082230575 0.50700003
-0.18175711 -0.082230575 0.50700003
-0.18043825 -0.082230575 0.50700003
-0.17911938 -0.082230575 0.50700003
-0.17815121 -0.082392767 0.50800002
-0.17682976 -0.082392767 0.50800002
-0.17550829 -0.082392767 0.50800002
-0.17418684 -0.082392767 0.50800002
-0.17286536 -0.082392767 0.50800002
-0.17188159 -0.082554959 0.509
-0.17055753 -0.082554959 0.509
-0.16923347 -0.082554959 0.509
-0.1679094 -0.082554959 0.509
-0.16691263 -0.08271715 0.51000005
-0.16558596 -0.08271715 0.51000005
-0.1642593 -0.08271715 0.51000005
-0.16293265 -0.08271715 0.51000005
-0.16160598 -0.08271715 0.51000005
-0.16059357 -0.082879342 0.51100004
-0.15926431 -0.082879342 0.51100004
-0.15793505 -0.082879342 0.51100004
-0.1566058 -0.082879342 0.51100004
-0.15527651 -0.082879342 0.51100004
-0.15394725 -0.082879342 0.51100004
-0.15261799 -0.082879342 0.51100004
-0.15128872 -0.082879342 0.51100004
-0.149666 -0.08271715 0.51000005
-0.14833933 -0.08271715 0.51000005
-0.14701267 -0.08271715 0.51000005
-0.145686 -0.08271715 0.51000005
-0.14435935 -0.08271715 0.51000005
-0.14303268 -0.08271715 0.51000005
-0.141706 -0.08271715 0.51000005
-0.14037934 -0.08271715 0.51000005
-0.13905269 -0.08271715 0.51000005
-0.13772602 -0.08271715 0.51000005
-0.13639936 -0.08271715 0.51000005
-0.13480783 -0.082554959 0.509
-0.13348377 -0.082554959 0.509
-0.13215971 -0.082554959 0.509
-0.13083565 -0.082554959 0.509
-0.12925713 -0.082392767 0.50800002
-0.12793568 -0.082392767 0.50800002
-0.12661421 -0.082392767 0.50800002
-0.12529276 -0.082392767 0.50800002
-0.12372726 -0.082230575 0.50700003
-0.1224084 -0.082230575 0.50700003
-0.12108954 -0.082230575 0.50700003
-0.11977068 -0.082230575 0.50700003
-0.11868545 -0.082392767 0.50800002
-0.11736399 -0.082392767 0.50800002
-0.11627096 -0.082554959 0.509
-0.11494689 -0.082554959 0.509
-0.11384606 -0.08271715 0.51000005
-0.11251941 -0.08271715 0.51000005
-0.11119274 -0.08271715 0.51000005
-0.11008149 -0.082879342 0.51100004
-0.10875223 -0.082879342 0.51100004
-0.10763318 -0.083041534 0.51200002
-0.10630132 -0.083041534 0.51200002
-0.10496945 -0.083041534 0.51200002
-0.10363758 -0.083041534 0.51200002
-0.10230572 -0.083041534 0.51200002
-0.10097385 -0.083041534 0.51200002
-0.099641979 -0.083041534 0.51200002
-0.098502129 -0.083203718 0.51300001
-0.097167656 -0.083203718 0.51300001
-0.09583319 -0.083203718 0.51300001
-0.094498724 -0.083203718 0.51300001
-0.09316425 -0.083203718 0.51300001
-0.091829784 -0.083203718 0.51300001
-0.090495318 -0.083203718 0.51300001
-0.089160852 -0.083203718 0.51300001
-0.087826386 -0.083203718 0.51300001
-0.086660512 -0.08336591 0.514
-0.085323445 -0.08336591 0.514
-0.083986372 -0.08336591 0.514
-0.082810111 -0.083528109 0.51500005
-0.081470437 -0.083528109 0.51500005
-0.080130763 -0.083528109 0.51500005
-0.078791097 -0.083528109 0.51500005
-0.077601813 -0.083690293 0.51600003
-0.076259546 -0.083690293 0.51600003
-0.074917272 -0.083690293 0.51600003
-0.073717587 -0.083852485 0.51700002
-0.072372705 -0.083852485 0.51700002
-0.071027838 -0.083852485 0.51700002
-0.069682971 -0.083852485 0.51700002
-0.068338089 -0.083852485 0.51700002
-0.066993222 -0.083852485 0.51700002
-0.065521367 -0.083690293 0.51600003
-0.064179093 -0.083690293 0.51600003
-0.062836826 -0.083690293 0.51600003
-0.061494552 -0.083690293 0.51600003
-0.060035706 -0.083528109 0.51500005
-0.058696039 -0.083528109 0.51500005
-0.057356369 -0.083528109 0.51500005
-0.056016695 -0.083528109 0.51500005
-0.054677024 -0.083528109 0.51500005
-0.05323378 -0.08336591 0.514
-0.051997684 -0.083528109 0.51500005
-0.050658014 -0.083528109 0.51500005
-0.049222574 -0.08336591 0.514
-0.047978673 -0.083528109 0.51500005
-0.046638999 -0.083528109 0.51500005
-0.045299329 -0.083528109 0.51500005
-0.044045016 -0.083690293 0.51600003
-0.042619988 -0.083528109 0.51500005
-0.041280318 -0.083528109 0.51500005
-0.040018201 -0.083690293 0.51600003
-0.03867593 -0.083690293 0.51600003
-0.037333656 -0.083690293 0.51600003
-0.035991386 -0.083690293 0.51600003
-0.034649111 -0.083690293 0.51600003
-0.033306845 -0.083690293 0.51600003
-0.03196457 -0.083690293 0.51600003
-0.030622298 -0.083690293 0.51600003
-0.029280026 -0.083690293 0.51600003
-0.027937753 -0.083690293 0.51600003
-0.026595483 -0.083690293 0.51600003
-0.02525321 -0.083690293 0.51600003
-0.023910938 -0.083690293 0.51600003
-0.022568667 -0.083690293 0.51600003
-0.021226395 -0.083690293 0.51600003
-0.019884123 -0.083690293 0.51600003
-0.018541852 -0.083690293 0.51600003
-0.01719958 -0.083690293 0.51600003
-0.015857307 -0.083690293 0.51600003
-0.014515035 -0.083690293 0.51600003
-0.013172763 -0.083690293 0.51600003
-0.011830492 -0.083690293 0.51600003
-0.01048822 -0.083690293 0.51600003
-0.0091459481 -0.083690293 0.51600003
-0.0078036757 -0.083690293 0.51600003
-0.0064614038 -0.083690293 0.51600003
-0.0051191323 -0.083690293 0.51600003
-0.0037768602 -0.083690293 0.51600003
0.007338054 -0.073958866 0.45600003
0.0085242474 -0.073958866 0.45600003
0.0097104404 -0.073958866 0.45600003
0.010896635 -0.073958866 0.45600003
0.012109325 -0.074121051 0.45700002
0.013298121 -0.074121051 0.45700002
0.014486916 -0.074121051 0.45700002
0.015710013 -0.07428325 0.45800003
0.016901409 -0.07428325 0.45800003
0.018092806 -0.07428325 0.45800003
0.019284202 -0.07428325 0.45800003
0.020475598 -0.07428325 0.45800003
0.021666994 -0.07428325 0.45800003
0.022858392 -0.07428325 0.45800003
0.024049787 -0.07428325 0.45800003
0.025241183 -0.07428325 0.45800003
0.026490293 -0.074445434 0.45900002
