# .PCD v0.7 - Point Cloud Data file format
VERSION 0.7
FIELDS x y z
SIZE 4 4 4
TYPE F F F
COUNT 1 1 1
WIDTH 1451
HEIGHT 1
VIEWPOINT 0 0 0 1 0 0 0
POINTS 1451
DATA ascii
0.091422454 0.13626476 0.53100002
0.092978515 0.13652137 0.53200001
0.094362408 0.13652137 0.53200001
0.095746301 0.13652137 0.53200001
0.097130194 0.13652137 0.53200001
0.098514087 0.13652137 0.53200001
0.099897973 0.13652137 0.53200001
0.10128187 0.13652137 0.53200001
0.10266576 0.13652137 0.53200001
0.10404966 0.13652137 0.53200001
0.10523537 0.13626476 0.53100002
0.10681745 0.13652137 0.53200001
0.10820133 0.13652137 0.53200001
0.10958523 0.13652137 0.53200001
0.11096912 0.13652137 0.53200001
0.11235301 0.13652137 0.53200001
0.11373691 0.13652137 0.53200001
0.1151208 0.13652137 0.53200001
0.11650468 0.13652137 0.53200001
0.11811019 0.13677801 0.53300005
0.11949668 0.13677801 0.53300005
0.12088317 0.13677801 0.53300005
0.12226967 0.13677801 0.53300005
0.12388816 0.13703462 0.53400004
0.12527725 0.13703462 0.53400004
0.12666635 0.13703462 0.53400004
0.12805545 0.13703462 0.53400004
0.12944454 0.13703462 0.53400004
0.13083364 0.13703462 0.53400004
0.13222273 0.13703462 0.53400004
0.13361183 0.13703462 0.53400004
0.13500091 0.13703462 0.53400004
0.13613461 0.13677801 0.53300005
0.1375211 0.13677801 0.53300005
0.1389076 0.13677801 0.53300005
0.14029409 0.13677801 0.53300005
0.1416806 0.13677801 0.53300005
0.14306709 0.13677801 0.53300005
0.14445357 0.13677801 0.53300005
0.14584006 0.13677801 0.53300005
0.14722656 0.13677801 0.53300005
0.14861307 0.13677801 0.53300005
0.14999956 0.13677801 0.53300005
0.15138605 0.13677801 0.53300005
0.15277253 0.13677801 0.53300005
0.15386978 0.13652137 0.53200001
0.15525369 0.13652137 0.53200001
0.15663758 0.13652137 0.53200001
0.15802146 0.13652137 0.53200001
0.15940535 0.13652137 0.53200001
0.16078925 0.13652137 0.53200001
0.16217315 0.13652137 0.53200001
0.16386449 0.13677801 0.53300005
0.16525099 0.13677801 0.53300005
0.16663748 0.13677801 0.53300005
0.16802399 0.13677801 0.53300005
0.16972831 0.13703462 0.53400004
0.17111741 0.13703462 0.53400004
0.1725065 0.13703462 0.53400004
0.17389558 0.13703462 0.53400004
0.1752847 0.13703462 0.53400004
0.17700464 0.13729124 0.53500003
0.17839633 0.13729124 0.53500003
0.17978802 0.13729124 0.53500003
0.18151836 0.13754785 0.53600001
0.18291268 0.13754785 0.53600001
0.18430696 0.13754785 0.53600001
0.18570127 0.13754785 0.53600001
0.18744461 0.13780446 0.537
0.18884151 0.13780446 0.537
0.19023842 0.13780446 0.537
0.19163531 0.13780446 0.537
0.19303221 0.13780446 0.537
0.1944291 0.13780446 0.537
0.19582602 0.13780446 0.537
0.19722292 0.13780446 0.537
0.19861981 0.13780446 0.537
0.20001671 0.13780446 0.537
0.2014136 0.13780446 0.537
0.20281051 0.13780446 0.537
0.2045877 0.13806111 0.53800005
0.2059872 0.13806111 0.53800005
0.2073867 0.13806111 0.53800005
0.20878619 0.13806111 0.53800005
0.21018571 0.13806111 0.53800005
0.21158521 0.13806111 0.53800005
0.2129847 0.13806111 0.53800005
0.2143842 0.13806111 0.53800005
0.2157837 0.13806111 0.53800005
0.2171832 0.13806111 0.53800005
0.2185827 0.13806111 0.53800005
0.21998221 0.13806111 0.53800005
0.22097018 0.13780446 0.537
0.22236709 0.13780446 0.537
0.223764 0.13780446 0.537
0.2251609 0.13780446 0.537
0.22655779 0.13780446 0.537
0.2275302 0.13754785 0.53600001
0.2289245 0.13754785 0.53600001
0.2303188 0.13754785 0.53600001
0.2317131 0.13754785 0.53600001
0.2326725 0.13729124 0.53500003
0.23406419 0.13729124 0.53500003
0.2354559 0.13729124 0.53500003
0.23684759 0.13729124 0.53500003
0.23823929 0.13729124 0.53500003
0.23963097 0.13729124 0.53500003
0.24102266 0.13729124 0.53500003
0.24286748 0.13754785 0.53600001
0.24426177 0.13754785 0.53600001
0.24611437 0.13780446 0.537
0.24751127 0.13780446 0.537
0.24890818 0.13780446 0.537
0.25077122 0.13806111 0.53800005
0.25263944 0.13831772 0.53900003
0.25404152 0.13831772 0.53900003
0.25544363 0.13831772 0.53900003
0.25732225 0.13857433 0.54000002
0.25872695 0.13857433 0.54000002
0.26013166 0.13857433 0.54000002
0.26202068 0.13883094 0.54100001
-0.28320968 0.13323931 0.514
-0.28187263 0.13323931 0.514
-0.28053555 0.13323931 0.514
-0.27919847 0.13323931 0.514
-0.27786142 0.13323931 0.514
-0.27652434 0.13323931 0.514
-0.27465191 0.13298009 0.51300001
-0.27331743 0.13298009 0.51300001
-0.27198294 0.13298009 0.51300001
-0.27064851 0.13298009 0.51300001
-0.26931402 0.13298009 0.51300001
-0.26797956 0.13298009 0.51300001
-0.26664507 0.13298009 0.51300001
-0.26531062 0.13298009 0.51300001
-0.26397616 0.13298009 0.51300001
-0.26264167 0.13298009 0.51300001
-0.26130724 0.13298009 0.51300001
-0.26047951 0.13323931 0.514
-0.25914243 0.13323931 0.514
-0.25780538 0.13323931 0.514
-0.2564683 0.13323931 0.514
-0.25513124 0.13323931 0.514
-0.25379416 0.13323931 0.514
-0.25245711 0.13323931 0.514
-0.25112003 0.13323931 0.514
-0.24978295 0.13323931 0.514
-0.24892926 0.13349855 0.51500005
-0.2475896 0.13349855 0.51500005
-0.24624993 0.13349855 0.51500005
-0.24491026 0.13349855 0.51500005
-0.24357058 0.13349855 0.51500005
-0.24223091 0.13349855 0.51500005
-0.24089125 0.13349855 0.51500005
-0.23955156 0.13349855 0.51500005
-0.2382119 0.13349855 0.51500005
-0.23687223 0.13349855 0.51500005
-0.2359899 0.13375776 0.51600003
-0.23464763 0.13375776 0.51600003
-0.23330535 0.13375776 0.51600003
-0.23196308 0.13375776 0.51600003
-0.23062082 0.13375776 0.51600003
-0.22927855 0.13375776 0.51600003
-0.22793627 0.13375776 0.51600003
-0.22659399 0.13375776 0.51600003
-0.22525172 0.13375776 0.51600003
-0.22390945 0.13375776 0.51600003
-0.22256719 0.13375776 0.51600003
-0.22122492 0.13375776 0.51600003
-0.21988264 0.13375776 0.51600003
-0.21854036 0.13375776 0.51600003
-0.21719809 0.13375776 0.51600003
-0.21585582 0.13375776 0.51600003
-0.21451356 0.13375776 0.51600003
-0.21317127 0.13375776 0.51600003
-0.21182901 0.13375776 0.51600003
-0.21048674 0.13375776 0.51600003
-0.20914447 0.13375776 0.51600003
-0.20780218 0.13375776 0.51600003
-0.20645991 0.13375776 0.51600003
-0.20511764 0.13375776 0.51600003
-0.20377538 0.13375776 0.51600003
-0.20243311 0.13375776 0.51600003
-0.20109083 0.13375776 0.51600003
-0.19974856 0.13375776 0.51600003
-0.19840628 0.13375776 0.51600003
-0.19706401 0.13375776 0.51600003
-0.19572175 0.13375776 0.51600003
-0.19437946 0.13375776 0.51600003
-0.1930372 0.13375776 0.51600003
-0.19169493 0.13375776 0.51600003
-0.19035266 0.13375776 0.51600003
-0.1890104 0.13375776 0.51600003
-0.1876681 0.13375776 0.51600003
-0.18632583 0.13375776 0.51600003
-0.18498357 0.13375776 0.51600003
-0.18399718 0.13401698 0.51700002
-0.18265231 0.13401698 0.51700002
-0.18130744 0.13401698 0.51700002
-0.17996256 0.13401698 0.51700002
-0.1786177 0.13401698 0.51700002
-0.17727283 0.13401698 0.51700002
-0.17626822 0.1342762 0.51800001
-0.17458306 0.13401698 0.51700002
-0.1732382 0.13401698 0.51700002
-0.1722258 0.1342762 0.51800001
-0.17087834 0.1342762 0.51800001
-0.16953085 0.1342762 0.51800001
-0.16818337 0.1342762 0.51800001
-0.1668359 0.1342762 0.51800001
-0.16548844 0.1342762 0.51800001
-0.16414097 0.1342762 0.51800001
-0.16279347 0.1342762 0.51800001
-0.16144601 0.1342762 0.51800001
-0.16009854 0.1342762 0.51800001
-0.15875107 0.1342762 0.51800001
-0.15740357 0.1342762 0.51800001
-0.15635739 0.13453543 0.51900005
-0.15500732 0.13453543 0.51900005
-0.15365724 0.13453543 0.51900005
-0.15230717 0.13453543 0.51900005
-0.15095708 0.13453543 0.51900005
-0.149607 0.13453543 0.51900005
-0.14825694 0.13453543 0.51900005
-0.14690687 0.13453543 0.51900005
-0.14555679 0.13453543 0.51900005
-0.1442067 0.13453543 0.51900005
-0.14285663 0.13453543 0.51900005
-0.14150655 0.13453543 0.51900005
-0.14015648 0.13453543 0.51900005
-0.13880642 0.13453543 0.51900005
-0.13745633 0.13453543 0.51900005
-0.13610625 0.13453543 0.51900005
-0.13475618 0.13453543 0.51900005
-0.1334061 0.13453543 0.51900005
-0.13205601 0.13453543 0.51900005
-0.13070595 0.13453543 0.51900005
-0.12935588 0.13453543 0.51900005
-0.1280058 0.13453543 0.51900005
-0.12665571 0.13453543 0.51900005
-0.12530565 0.13453543 0.51900005
-0.12395557 0.13453543 0.51900005
-0.12236925 0.1342762 0.51800001
-0.12102178 0.1342762 0.51800001
-0.1196743 0.1342762 0.51800001
-0.11832683 0.1342762 0.51800001
-0.11720519 0.13453543 0.51900005
-0.11585511 0.13453543 0.51900005
-0.11450505 0.13453543 0.51900005
-0.11315496 0.13453543 0.51900005
-0.11180489 0.13453543 0.51900005
-0.11045481 0.13453543 0.51900005
-0.10910474 0.13453543 0.51900005
-0.10775466 0.13453543 0.51900005
-0.10640459 0.13453543 0.51900005
-0.10505451 0.13453543 0.51900005
-0.10370443 0.13453543 0.51900005
-0.10235436 0.13453543 0.51900005
-0.10100428 0.13453543 0.51900005
-0.099654205 0.13453543 0.51900005
-0.098304123 0.13453543 0.51900005
-0.096954055 0.13453543 0.51900005
-0.09560398 0.13453543 0.51900005
-0.094253898 0.13453543 0.51900005
-0.09290383 0.13453543 0.51900005
-0.091553748 0.13453543 0.51900005
-0.090203673 0.13453543 0.51900005
-0.088853605 0.13453543 0.51900005
-0.087503523 0.13453543 0.51900005
-0.086153448 0.13453543 0.51900005
-0.084966764 0.13479465 0.52000004
-0.083614089 0.13479465 0.52000004
-0.082261406 0.13479465 0.52000004
-0.081064329 0.13505386 0.52100003
-0.079709053 0.13505386 0.52100003
-0.07835377 0.13505386 0.52100003
-0.076998495 0.13505386 0.52100003
-0.075788394 0.13531308 0.52200001
-0.074430518 0.13531308 0.52200001
-0.073072635 0.13531308 0.52200001
-0.07185214 0.1355723 0.523
-0.070491664 0.1355723 0.523
-0.069131181 0.1355723 0.523
-0.067770705 0.1355723 0.523
-0.066410214 0.1355723 0.523
-0.065049738 0.1355723 0.523
-0.063689254 0.1355723 0.523
-0.062328774 0.1355723 0.523
-0.060968295 0.1355723 0.523
-0.059607815 0.1355723 0.523
-0.058247335 0.1355723 0.523
-0.056886852 0.1355723 0.523
-0.055526372 0.1355723 0.523
-0.054165889 0.1355723 0.523
-0.052704442 0.13531308 0.52200001
-0.051346567 0.13531308 0.52200001
-0.049988687 0.13531308 0.52200001
-0.048630808 0.13531308 0.52200001
-0.047272928 0.13531308 0.52200001
-0.045915045 0.13531308 0.52200001
-0.044557165 0.13531308 0.52200001
-0.043199286 0.13531308 0.52200001
-0.04184141 0.13531308 0.52200001
-0.040561084 0.1355723 0.523
-0.0392006 0.1355723 0.523
-0.03784012 0.1355723 0.523
-0.036479637 0.1355723 0.523
-0.035186309 0.13583153 0.52400005
-0.033823229 0.13583153 0.52400005
-0.032460146 0.13583153 0.52400005
-0.031097064 0.13583153 0.52400005
-0.02973398 0.13583153 0.52400005
-0.028370898 0.13583153 0.52400005
-0.027007816 0.13583153 0.52400005
-0.025644735 0.13583153 0.52400005
-0.024281651 0.13583153 0.52400005
-0.022918569 0.13583153 0.52400005
-0.021555487 0.13583153 0.52400005
-0.020192403 0.13583153 0.52400005
-0.018829323 0.13583153 0.52400005
-0.017499572 0.13609074 0.52500004
-0.016133888 0.13609074 0.52500004
-0.014768205 0.13609074 0.52500004
-0.013402521 0.13609074 0.52500004
-0.012036838 0.13609074 0.52500004
-0.010671154 0.13609074 0.52500004
-0.0093054706 0.13609074 0.52500004
-0.0079246629 0.13583153 0.52400005
-0.0065615806 0.13583153 0.52400005
-0.0051984987 0.13583153 0.52400005
-0.0038354162 0.13583153 0.52400005
-0.0024723338 0.13583153 0.52400005
-0.0011092515 0.13583153 0.52400005
0.00025383083 0.13583153 0.52400005
0.0016169132 0.13583153 0.52400005
0.0029799955 0.13583153 0.52400005
0.0043513658 0.13609074 0.52500004
0.0057170498 0.13609074 0.52500004
0.0070827333 0.13609074 0.52500004
0.0084484173 0.13609074 0.52500004
0.0098141003 0.13609074 0.52500004
0.011201078 0.13634996 0.52600002
0.012569364 0.13634996 0.52600002
0.013937648 0.13634996 0.52600002
0.015305934 0.13634996 0.52600002
0.016705917 0.13660918 0.52700001
0.018076805 0.13660918 0.52700001
0.01944769 0.13660918 0.52700001
0.020818576 0.13660918 0.52700001
0.022231568 0.1368684 0.528
0.023605054 0.1368684 0.528
0.024978543 0.1368684 0.528
0.026352029 0.1368684 0.528
0.027725516 0.1368684 0.528
0.029099004 0.1368684 0.528
0.030530209 0.13712762 0.52900004
0.031906296 0.13712762 0.52900004
0.033282388 0.13712762 0.52900004
0.034658473 0.13712762 0.52900004
0.036034562 0.13712762 0.52900004
0.037481371 0.13738684 0.53000003
0.03886006 0.13738684 0.53000003
0.040238753 0.13738684 0.53000003
0.041617442 0.13738684 0.53000003
0.042996131 0.13738684 0.53000003
0.044458546 0.13764606 0.53100002
0.045753513 0.13738684 0.53000003
0.047132201 0.13738684 0.53000003
0.048510894 0.13738684 0.53000003
0.049889583 0.13738684 0.53000003
0.051268268 0.13738684 0.53000003
0.052646961 0.13738684 0.53000003
0.05402565 0.13738684 0.53000003
0.055404343 0.13738684 0.53000003
0.056783032 0.13738684 0.53000003
0.058161724 0.13738684 0.53000003
0.059540413 0.13738684 0.53000003
0.060919102 0.13738684 0.53000003
0.062297791 0.13738684 0.53000003
0.063796625 0.13764606 0.53100002
0.065177917 0.13764606 0.53100002
0.066559203 0.13764606 0.53100002
0.067940503 0.13764606 0.53100002
0.069321789 0.13764606 0.53100002
0.070703089 0.13764606 0.53100002
0.072084375 0.13764606 0.53100002
0.07346566 0.13764606 0.53100002
0.074846961 0.13764606 0.53100002
0.076228246 0.13764606 0.53100002
0.077609539 0.13764606 0.53100002
0.078990832 0.13764606 0.53100002
0.080372125 0.13764606 0.53100002
0.08175341 0.13764606 0.53100002
0.083134703 0.13764606 0.53100002
0.084515996 0.13764606 0.53100002
0.085897289 0.13764606 0.53100002
0.087278582 0.13764606 0.53100002
0.088659868 0.13764606 0.53100002
0.090041168 0.13764606 0.53100002
0.091422454 0.13764606 0.53100002
0.092978515 0.13790528 0.53200001
0.094362408 0.13790528 0.53200001
0.095746301 0.13790528 0.53200001
0.097130194 0.13790528 0.53200001
0.098514087 0.13790528 0.53200001
0.099897973 0.13790528 0.53200001
0.10128187 0.13790528 0.53200001
0.10266576 0.13790528 0.53200001
0.10404966 0.13790528 0.53200001
0.10543355 0.13790528 0.53200001
0.10681745 0.13790528 0.53200001
0.10820133 0.13790528 0.53200001
0.10958523 0.13790528 0.53200001
0.11096912 0.13790528 0.53200001
0.11235301 0.13790528 0.53200001
0.11373691 0.13790528 0.53200001
0.1151208 0.13790528 0.53200001
0.11650468 0.13790528 0.53200001
0.11811019 0.13816452 0.53300005
0.11949668 0.13816452 0.53300005
0.12088317 0.13816452 0.53300005
0.12249906 0.13842373 0.53400004
0.12388816 0.13842373 0.53400004
0.12527725 0.13842373 0.53400004
0.12666635 0.13842373 0.53400004
0.12805545 0.13842373 0.53400004
0.12944454 0.13842373 0.53400004
0.13083364 0.13842373 0.53400004
0.13222273 0.13842373 0.53400004
0.13361183 0.13842373 0.53400004
0.13500091 0.13842373 0.53400004
0.13639003 0.13842373 0.53400004
0.13777912 0.13842373 0.53400004
0.1389076 0.13816452 0.53300005
0.14029409 0.13816452 0.53300005
0.1416806 0.13816452 0.53300005
0.14306709 0.13816452 0.53300005
0.14445357 0.13816452 0.53300005
0.14584006 0.13816452 0.53300005
0.14722656 0.13816452 0.53300005
0.14861307 0.13816452 0.53300005
0.14999956 0.13816452 0.53300005
0.15138605 0.13816452 0.53300005
0.15277253 0.13816452 0.53300005
0.15415902 0.13816452 0.53300005
0.15525369 0.13790528 0.53200001
0.15663758 0.13790528 0.53200001
0.15802146 0.13790528 0.53200001
0.15940535 0.13790528 0.53200001
0.16078925 0.13790528 0.53200001
0.16217315 0.13790528 0.53200001
0.16386449 0.13816452 0.53300005
0.16525099 0.13816452 0.53300005
0.16663748 0.13816452 0.53300005
0.16802399 0.13816452 0.53300005
0.16972831 0.13842373 0.53400004
0.17111741 0.13842373 0.53400004
0.1725065 0.13842373 0.53400004
0.17389558 0.13842373 0.53400004
0.1752847 0.13842373 0.53400004
0.17700464 0.13868295 0.53500003
0.17839633 0.13868295 0.53500003
0.17978802 0.13868295 0.53500003
0.18151836 0.13894217 0.53600001
0.18291268 0.13894217 0.53600001
0.18430696 0.13894217 0.53600001
0.18570127 0.13894217 0.53600001
0.18744461 0.13920139 0.537
0.18884151 0.13920139 0.537
0.19023842 0.13920139 0.537
0.19163531 0.13920139 0.537
0.19303221 0.13920139 0.537
0.1944291 0.13920139 0.537
0.19582602 0.13920139 0.537
0.19722292 0.13920139 0.537
0.19861981 0.13920139 0.537
0.20001671 0.13920139 0.537
0.2014136 0.13920139 0.537
0.20281051 0.13920139 0.537
0.20420741 0.13920139 0.537
0.2056043 0.13920139 0.537
0.2073867 0.13946061 0.53800005
0.20878619 0.13946061 0.53800005
0.21018571 0.13946061 0.53800005
0.21158521 0.13946061 0.53800005
0.2129847 0.13946061 0.53800005
0.2143842 0.13946061 0.53800005
0.2157837 0.13946061 0.53800005
0.2171832 0.13946061 0.53800005
0.2185827 0.13946061 0.53800005
0.21998221 0.13946061 0.53800005
0.22138169 0.13946061 0.53800005
0.22236709 0.13920139 0.537
0.223764 0.13920139 0.537
0.2251609 0.13920139 0.537
0.22655779 0.13920139 0.537
0.22795469 0.13920139 0.537
0.2289245 0.13894217 0.53600001
0.2303188 0.13894217 0.53600001
0.2317131 0.13894217 0.53600001
0.23310739 0.13894217 0.53600001
0.23450169 0.13894217 0.53600001
0.2354559 0.13868295 0.53500003
0.23684759 0.13868295 0.53500003
0.23823929 0.13868295 0.53500003
0.23963097 0.13868295 0.53500003
0.24102266 0.13868295 0.53500003
0.24286748 0.13894217 0.53600001
0.24426177 0.13894217 0.53600001
0.24611437 0.13920139 0.537
0.24751127 0.13920139 0.537
0.24890818 0.13920139 0.537
0.25077122 0.13946061 0.53800005
0.25263944 0.13971983 0.53900003
0.25404152 0.13971983 0.53900003
0.25544363 0.13971983 0.53900003
0.25732225 0.13997905 0.54000002
0.25872695 0.13997905 0.54000002
0.26013166 0.13997905 0.54000002
0.26202068 0.14023827 0.54100001
-0.28320968 0.13457638 0.514
-0.28187263 0.13457638 0.514
-0.28053555 0.13457638 0.514
-0.27919847 0.13457638 0.514
-0.27786142 0.13457638 0.514
-0.27598634 0.13431455 0.51300001
-0.27465191 0.13431455 0.51300001
-0.27331743 0.13431455 0.51300001
-0.27198294 0.13431455 0.51300001
-0.27064851 0.13431455 0.51300001
-0.26931402 0.13431455 0.51300001
-0.26797956 0.13431455 0.51300001
-0.26612532 0.13405274 0.51200002
-0.26531062 0.13431455 0.51300001
-0.26397616 0.13431455 0.51300001
-0.26264167 0.13431455 0.51300001
-0.26130724 0.13431455 0.51300001
-0.25997275 0.13431455 0.51300001
-0.25914243 0.13457638 0.514
-0.25780538 0.13457638 0.514
-0.2564683 0.13457638 0.514
-0.25513124 0.13457638 0.514
-0.25379416 0.13457638 0.514
-0.25245711 0.13457638 0.514
-0.25160861 0.13483821 0.51500005
-0.25026894 0.13483821 0.51500005
-0.24892926 0.13483821 0.51500005
-0.2475896 0.13483821 0.51500005
-0.24624993 0.13483821 0.51500005
-0.24491026 0.13483821 0.51500005
-0.24357058 0.13483821 0.51500005
-0.24223091 0.13483821 0.51500005
-0.24089125 0.13483821 0.51500005
-0.23955156 0.13483821 0.51500005
-0.2382119 0.13483821 0.51500005
-0.23687223 0.13483821 0.51500005
-0.23553257 0.13483821 0.51500005
-0.23464763 0.13510004 0.51600003
-0.23330535 0.13510004 0.51600003
-0.23196308 0.13510004 0.51600003
-0.23062082 0.13510004 0.51600003
-0.22927855 0.13510004 0.51600003
-0.22793627 0.13510004 0.51600003
-0.22659399 0.13510004 0.51600003
-0.22568825 0.13536185 0.51700002
-0.22390945 0.13510004 0.51600003
-0.22256719 0.13510004 0.51600003
-0.22122492 0.13510004 0.51600003
-0.21988264 0.13510004 0.51600003
-0.21854036 0.13510004 0.51600003
-0.21719809 0.13510004 0.51600003
-0.21585582 0.13510004 0.51600003
-0.21492927 0.13536185 0.51700002
-0.21358439 0.13536185 0.51700002
-0.21182901 0.13510004 0.51600003
-0.21048674 0.13510004 0.51600003
-0.20914447 0.13510004 0.51600003
-0.20780218 0.13510004 0.51600003
-0.20645991 0.13510004 0.51600003
-0.20511764 0.13510004 0.51600003
-0.20377538 0.13510004 0.51600003
-0.20243311 0.13510004 0.51600003
-0.20109083 0.13510004 0.51600003
-0.19974856 0.13510004 0.51600003
-0.19840628 0.13510004 0.51600003
-0.19706401 0.13510004 0.51600003
-0.19572175 0.13510004 0.51600003
-0.19437946 0.13510004 0.51600003
-0.1930372 0.13510004 0.51600003
-0.19169493 0.13510004 0.51600003
-0.19035266 0.13510004 0.51600003
-0.1890104 0.13510004 0.51600003
-0.18803179 0.13536185 0.51700002
-0.18668693 0.13536185 0.51700002
-0.18534206 0.13536185 0.51700002
-0.18399718 0.13536185 0.51700002
-0.18265231 0.13536185 0.51700002
-0.18130744 0.13536185 0.51700002
-0.17996256 0.13536185 0.51700002
-0.1786177 0.13536185 0.51700002
-0.17727283 0.13536185 0.51700002
-0.17592794 0.13536185 0.51700002
-0.17458306 0.13536185 0.51700002
-0.1732382 0.13536185 0.51700002
-0.1722258 0.13562366 0.51800001
-0.17087834 0.13562366 0.51800001
-0.16953085 0.13562366 0.51800001
-0.16818337 0.13562366 0.51800001
-0.1668359 0.13562366 0.51800001
-0.16548844 0.13562366 0.51800001
-0.16414097 0.13562366 0.51800001
-0.16279347 0.13562366 0.51800001
-0.16144601 0.13562366 0.51800001
-0.16009854 0.13562366 0.51800001
-0.15875107 0.13562366 0.51800001
-0.15770745 0.13588551 0.51900005
-0.15635739 0.13588551 0.51900005
-0.15500732 0.13588551 0.51900005
-0.15365724 0.13588551 0.51900005
-0.15230717 0.13588551 0.51900005
-0.15095708 0.13588551 0.51900005
-0.149607 0.13588551 0.51900005
-0.14825694 0.13588551 0.51900005
-0.14690687 0.13588551 0.51900005
-0.14555679 0.13588551 0.51900005
-0.1442067 0.13588551 0.51900005
-0.14285663 0.13588551 0.51900005
-0.14150655 0.13588551 0.51900005
-0.14015648 0.13588551 0.51900005
-0.13880642 0.13588551 0.51900005
-0.13745633 0.13588551 0.51900005
-0.13610625 0.13588551 0.51900005
-0.13475618 0.13588551 0.51900005
-0.1334061 0.13588551 0.51900005
-0.13205601 0.13588551 0.51900005
-0.13070595 0.13588551 0.51900005
-0.12935588 0.13588551 0.51900005
-0.1280058 0.13588551 0.51900005
-0.12665571 0.13588551 0.51900005
-0.12530565 0.13588551 0.51900005
-0.12395557 0.13588551 0.51900005
-0.1226055 0.13588551 0.51900005
-0.12125542 0.13588551 0.51900005
-0.11990534 0.13588551 0.51900005
-0.11855527 0.13588551 0.51900005
-0.11720519 0.13588551 0.51900005
-0.11585511 0.13588551 0.51900005
-0.11450505 0.13588551 0.51900005
-0.11315496 0.13588551 0.51900005
-0.11180489 0.13588551 0.51900005
-0.11045481 0.13588551 0.51900005
-0.10910474 0.13588551 0.51900005
-0.10775466 0.13588551 0.51900005
-0.10640459 0.13588551 0.51900005
-0.10505451 0.13588551 0.51900005
-0.10370443 0.13588551 0.51900005
-0.10235436 0.13588551 0.51900005
-0.10100428 0.13588551 0.51900005
-0.099654205 0.13588551 0.51900005
-0.098304123 0.13588551 0.51900005
-0.096954055 0.13588551 0.51900005
-0.09560398 0.13588551 0.51900005
-0.094253898 0.13588551 0.51900005
-0.09290383 0.13588551 0.51900005
-0.091553748 0.13588551 0.51900005
-0.090203673 0.13588551 0.51900005
-0.088853605 0.13588551 0.51900005
-0.087503523 0.13588551 0.51900005
-0.086153448 0.13588551 0.51900005
-0.084803365 0.13588551 0.51900005
-0.083614089 0.13614732 0.52000004
-0.082261406 0.13614732 0.52000004
-0.080908738 0.13614732 0.52000004
-0.079709053 0.13640913 0.52100003
-0.07835377 0.13640913 0.52100003
-0.076998495 0.13640913 0.52100003
-0.075788394 0.13667096 0.52200001
-0.074430518 0.13667096 0.52200001
-0.073072635 0.13667096 0.52200001
-0.071714759 0.13667096 0.52200001
-0.070491664 0.13693278 0.523
-0.069131181 0.13693278 0.523
-0.067770705 0.13693278 0.523
-0.066410214 0.13693278 0.523
-0.065049738 0.13693278 0.523
-0.063689254 0.13693278 0.523
-0.062328774 0.13693278 0.523
-0.060968295 0.13693278 0.523
-0.059607815 0.13693278 0.523
-0.058135964 0.13667096 0.52200001
-0.056886852 0.13693278 0.523
-0.055526372 0.13693278 0.523
-0.054062326 0.13667096 0.52200001
-0.052704442 0.13667096 0.52200001
-0.051346567 0.13667096 0.52200001
-0.049988687 0.13667096 0.52200001
-0.048630808 0.13667096 0.52200001
-0.047272928 0.13667096 0.52200001
-0.045915045 0.13667096 0.52200001
-0.044557165 0.13667096 0.52200001
-0.043199286 0.13667096 0.52200001
-0.041921563 0.13693278 0.523
-0.040561084 0.13693278 0.523
-0.0392006 0.13693278 0.523
-0.03784012 0.13693278 0.523
-0.036479637 0.13693278 0.523
-0.035186309 0.1371946 0.52400005
-0.033823229 0.1371946 0.52400005
-0.032460146 0.1371946 0.52400005
-0.031097064 0.1371946 0.52400005
-0.02973398 0.1371946 0.52400005
-0.028370898 0.1371946 0.52400005
-0.027007816 0.1371946 0.52400005
-0.025644735 0.1371946 0.52400005
-0.02432799 0.13745643 0.52500004
-0.022962308 0.13745643 0.52500004
-0.021596622 0.13745643 0.52500004
-0.020230938 0.13745643 0.52500004
-0.018865256 0.13745643 0.52500004
-0.017499572 0.13745643 0.52500004
-0.016133888 0.13745643 0.52500004
-0.014768205 0.13745643 0.52500004
-0.013376993 0.1371946 0.52400005
-0.012036838 0.13745643 0.52500004
-0.010671154 0.13745643 0.52500004
-0.0092877457 0.1371946 0.52400005
-0.0079246629 0.1371946 0.52400005
-0.0065615806 0.1371946 0.52400005
-0.0051984987 0.1371946 0.52400005
-0.0038354162 0.1371946 0.52400005
-0.0024723338 0.1371946 0.52400005
-0.0011092515 0.1371946 0.52400005
0.00025383083 0.1371946 0.52400005
0.0016169132 0.1371946 0.52400005
0.0029799955 0.1371946 0.52400005
0.0043513658 0.13745643 0.52500004
0.0057170498 0.13745643 0.52500004
0.0070827333 0.13745643 0.52500004
0.0084484173 0.13745643 0.52500004
0.0098141003 0.13745643 0.52500004
0.011201078 0.13771825 0.52600002
0.012569364 0.13771825 0.52600002
0.013937648 0.13771825 0.52600002
0.015305934 0.13771825 0.52600002
0.016705917 0.13798006 0.52700001
0.018076805 0.13798006 0.52700001
0.01944769 0.13798006 0.52700001
0.020818576 0.13798006 0.52700001
0.022231568 0.13824189 0.528
0.023605054 0.13824189 0.528
0.024978543 0.13824189 0.528
0.026352029 0.13824189 0.528
0.027725516 0.13824189 0.528
0.029154118 0.13850372 0.52900004
0.030530209 0.13850372 0.52900004
0.031906296 0.13850372 0.52900004
0.033282388 0.13850372 0.52900004
0.034658473 0.13850372 0.52900004
0.036034562 0.13850372 0.52900004
0.03741065 0.13850372 0.52900004
0.03886006 0.13876553 0.53000003
0.040238753 0.13876553 0.53000003
0.041617442 0.13876553 0.53000003
0.042996131 0.13876553 0.53000003
0.04437482 0.13876553 0.53000003
0.045753513 0.13876553 0.53000003
0.047132201 0.13876553 0.53000003
0.048510894 0.13876553 0.53000003
0.049889583 0.13876553 0.53000003
0.051268268 0.13876553 0.53000003
0.052646961 0.13876553 0.53000003
0.05402565 0.13876553 0.53000003
0.055404343 0.13876553 0.53000003
0.056783032 0.13876553 0.53000003
0.058161724 0.13876553 0.53000003
0.059540413 0.13876553 0.53000003
0.060919102 0.13876553 0.53000003
0.062415335 0.13902736 0.53100002
0.063796625 0.13902736 0.53100002
0.065177917 0.13902736 0.53100002
0.066559203 0.13902736 0.53100002
0.068068445 0.13928917 0.53200001
0.069452338 0.13928917 0.53200001
0.070836231 0.13928917 0.53200001
0.072084375 0.13902736 0.53100002
0.07346566 0.13902736 0.53100002
0.074846961 0.13902736 0.53100002
0.076228246 0.13902736 0.53100002
0.077609539 0.13902736 0.53100002
0.078990832 0.13902736 0.53100002
0.080372125 0.13902736 0.53100002
0.08175341 0.13902736 0.53100002
0.083134703 0.13902736 0.53100002
0.084515996 0.13902736 0.53100002
0.085897289 0.13902736 0.53100002
0.087278582 0.13902736 0.53100002
0.088659868 0.13902736 0.53100002
0.090041168 0.13902736 0.53100002
0.091422454 0.13902736 0.53100002
0.092978515 0.13928917 0.53200001
0.094362408 0.13928917 0.53200001
0.095746301 0.13928917 0.53200001
0.097130194 0.13928917 0.53200001
0.098514087 0.13928917 0.53200001
0.099897973 0.13928917 0.53200001
0.10128187 0.13928917 0.53200001
0.10266576 0.13928917 0.53200001
0.10404966 0.13928917 0.53200001
0.10543355 0.13928917 0.53200001
0.10681745 0.13928917 0.53200001
0.10820133 0.13928917 0.53200001
0.10958523 0.13928917 0.53200001
0.11096912 0.13928917 0.53200001
0.11235301 0.13928917 0.53200001
0.11373691 0.13928917 0.53200001
0.1151208 0.13928917 0.53200001
0.11650468 0.13928917 0.53200001
0.11811019 0.139551 0.53300005
0.11949668 0.139551 0.53300005
0.12088317 0.139551 0.53300005
0.12249906 0.13981283 0.53400004
0.12388816 0.13981283 0.53400004
0.12527725 0.13981283 0.53400004
0.12666635 0.13981283 0.53400004
0.12805545 0.13981283 0.53400004
0.12944454 0.13981283 0.53400004
0.13083364 0.13981283 0.53400004
0.13222273 0.13981283 0.53400004
0.13361183 0.13981283 0.53400004
0.13500091 0.13981283 0.53400004
0.13639003 0.13981283 0.53400004
0.13777912 0.13981283 0.53400004
0.1391682 0.13981283 0.53400004
0.14029409 0.139551 0.53300005
0.1416806 0.139551 0.53300005
0.14333551 0.13981283 0.53400004
0.14472459 0.13981283 0.53400004
0.14611368 0.13981283 0.53400004
0.14750278 0.13981283 0.53400004
0.14889188 0.13981283 0.53400004
0.14999956 0.139551 0.53300005
0.15138605 0.139551 0.53300005
0.15277253 0.139551 0.53300005
0.15415902 0.139551 0.53300005
0.15554553 0.139551 0.53300005
0.15693203 0.139551 0.53300005
0.15831852 0.139551 0.53300005
0.15970501 0.139551 0.53300005
0.16109149 0.139551 0.53300005
0.162478 0.139551 0.53300005
0.16386449 0.139551 0.53300005
0.16525099 0.139551 0.53300005
0.16663748 0.139551 0.53300005
0.16833922 0.13981283 0.53400004
0.16972831 0.13981283 0.53400004
0.17111741 0.13981283 0.53400004
0.1725065 0.13981283 0.53400004
0.17389558 0.13981283 0.53400004
0.17561294 0.14007464 0.53500003
0.17700464 0.14007464 0.53500003
0.17839633 0.14007464 0.53500003
0.18012407 0.14033645 0.53600001
0.18151836 0.14033645 0.53600001
0.18291268 0.14033645 0.53600001
0.18430696 0.14033645 0.53600001
0.18604772 0.14059828 0.537
0.18744461 0.14059828 0.537
0.18884151 0.14059828 0.537
0.19023842 0.14059828 0.537
0.19163531 0.14059828 0.537
0.19303221 0.14059828 0.537
0.1944291 0.14059828 0.537
0.19582602 0.14059828 0.537
0.19722292 0.14059828 0.537
0.19861981 0.14059828 0.537
0.20001671 0.14059828 0.537
0.2014136 0.14059828 0.537
0.20281051 0.14059828 0.537
0.20420741 0.14059828 0.537
0.2056043 0.14059828 0.537
0.20700119 0.14059828 0.537
0.2083981 0.14059828 0.537
0.21018571 0.14086011 0.53800005
0.21158521 0.14086011 0.53800005
0.2129847 0.14086011 0.53800005
0.2143842 0.14086011 0.53800005
0.2157837 0.14086011 0.53800005
0.2171832 0.14086011 0.53800005
0.2185827 0.14086011 0.53800005
0.21998221 0.14086011 0.53800005
0.22138169 0.14086011 0.53800005
0.22236709 0.14059828 0.537
0.223764 0.14059828 0.537
0.2251609 0.14059828 0.537
0.22655779 0.14059828 0.537
0.22795469 0.14059828 0.537
0.2293516 0.14059828 0.537
0.2303188 0.14033645 0.53600001
0.2317131 0.14033645 0.53600001
0.23310739 0.14033645 0.53600001
0.23450169 0.14033645 0.53600001
0.2354559 0.14007464 0.53500003
0.23684759 0.14007464 0.53500003
0.23823929 0.14007464 0.53500003
0.24007888 0.14033645 0.53600001
0.24147317 0.14033645 0.53600001
0.24286748 0.14033645 0.53600001
0.24426177 0.14033645 0.53600001
0.24611437 0.14059828 0.537
0.24751127 0.14059828 0.537
0.24937171 0.14086011 0.53800005
0.25077122 0.14086011 0.53800005
0.25263944 0.14112192 0.53900003
0.25404152 0.14112192 0.53900003
0.25544363 0.14112192 0.53900003
0.25732225 0.14138375 0.54000002
0.25872695 0.14138375 0.54000002
0.26013166 0.14138375 0.54000002
0.26153636 0.14138375 0.54000002
-0.28320968 0.13591345 0.514
-0.28187263 0.13591345 0.514
-0.28053555 0.13591345 0.514
-0.27919847 0.13591345 0.514
-0.27786142 0.13591345 0.514
-0.27652434 0.13591345 0.514
-0.27518728 0.13591345 0.514
-0.27331743 0.13564903 0.51300001
-0.27198294 0.13564903 0.51300001
-0.27064851 0.13564903 0.51300001
-0.26931402 0.13564903 0.51300001
-0.26797956 0.13564903 0.51300001
-0.26664507 0.13564903 0.51300001
-0.26531062 0.13564903 0.51300001
-0.26397616 0.13564903 0.51300001
-0.26264167 0.13564903 0.51300001
-0.26130724 0.13564903 0.51300001
-0.26047951 0.13591345 0.514
-0.25914243 0.13591345 0.514
-0.25780538 0.13591345 0.514
-0.2564683 0.13591345 0.514
-0.25513124 0.13591345 0.514
-0.25428796 0.13617788 0.51500005
-0.25294828 0.13617788 0.51500005
-0.25160861 0.13617788 0.51500005
-0.25026894 0.13617788 0.51500005
-0.24892926 0.13617788 0.51500005
-0.2475896 0.13617788 0.51500005
-0.24624993 0.13617788 0.51500005
-0.24491026 0.13617788 0.51500005
-0.24357058 0.13617788 0.51500005
-0.24223091 0.13617788 0.51500005
-0.24089125 0.13617788 0.51500005
-0.23955156 0.13617788 0.51500005
-0.2382119 0.13617788 0.51500005
-0.23687223 0.13617788 0.51500005
-0.23553257 0.13617788 0.51500005
-0.23464763 0.1364423 0.51600003
-0.23330535 0.1364423 0.51600003
-0.23196308 0.1364423 0.51600003
-0.23062082 0.1364423 0.51600003
-0.22927855 0.1364423 0.51600003
-0.22793627 0.1364423 0.51600003
-0.22659399 0.1364423 0.51600003
-0.22568825 0.13670672 0.51700002
-0.22434337 0.13670672 0.51700002
-0.22256719 0.1364423 0.51600003
-0.22165364 0.13670672 0.51700002
-0.22030875 0.13670672 0.51700002
-0.21896389 0.13670672 0.51700002
-0.21761902 0.13670672 0.51700002
-0.21627414 0.13670672 0.51700002
-0.21492927 0.13670672 0.51700002
-0.21358439 0.13670672 0.51700002
-0.21223952 0.13670672 0.51700002
-0.21089464 0.13670672 0.51700002
-0.20914447 0.1364423 0.51600003
-0.20780218 0.1364423 0.51600003
-0.20645991 0.1364423 0.51600003
-0.20511764 0.1364423 0.51600003
-0.20377538 0.1364423 0.51600003
-0.20243311 0.1364423 0.51600003
-0.20109083 0.1364423 0.51600003
-0.19974856 0.1364423 0.51600003
-0.19840628 0.1364423 0.51600003
-0.19706401 0.1364423 0.51600003
-0.19572175 0.1364423 0.51600003
-0.19437946 0.1364423 0.51600003
-0.19341129 0.13670672 0.51700002
-0.19206643 0.13670672 0.51700002
-0.19072156 0.13670672 0.51700002
-0.18937668 0.13670672 0.51700002
-0.18803179 0.13670672 0.51700002
-0.18668693 0.13670672 0.51700002
-0.18534206 0.13670672 0.51700002
-0.18399718 0.13670672 0.51700002
-0.18265231 0.13670672 0.51700002
-0.18130744 0.13670672 0.51700002
-0.17996256 0.13670672 0.51700002
-0.1786177 0.13670672 0.51700002
-0.17727283 0.13670672 0.51700002
-0.17592794 0.13670672 0.51700002
-0.17458306 0.13670672 0.51700002
-0.1732382 0.13670672 0.51700002
-0.1722258 0.13697113 0.51800001
-0.17054845 0.13670672 0.51700002
-0.16953085 0.13697113 0.51800001
-0.16818337 0.13697113 0.51800001
-0.1668359 0.13697113 0.51800001
-0.16548844 0.13697113 0.51800001
-0.16414097 0.13697113 0.51800001
-0.16279347 0.13697113 0.51800001
-0.16144601 0.13697113 0.51800001
-0.16009854 0.13697113 0.51800001
-0.15905754 0.13723557 0.51900005
-0.15770745 0.13723557 0.51900005
-0.15635739 0.13723557 0.51900005
-0.15500732 0.13723557 0.51900005
-0.15365724 0.13723557 0.51900005
-0.15230717 0.13723557 0.51900005
-0.15095708 0.13723557 0.51900005
-0.149607 0.13723557 0.51900005
-0.1485426 0.13749999 0.52000004
-0.14718992 0.13749999 0.52000004
-0.14583725 0.13749999 0.52000004
-0.14448455 0.13749999 0.52000004
-0.14313188 0.13749999 0.52000004
-0.1417792 0.13749999 0.52000004
-0.14042653 0.13749999 0.52000004
-0.13880642 0.13723557 0.51900005
-0.13745633 0.13723557 0.51900005
-0.13610625 0.13723557 0.51900005
-0.13475618 0.13723557 0.51900005
-0.1334061 0.13723557 0.51900005
-0.13205601 0.13723557 0.51900005
-0.13070595 0.13723557 0.51900005
-0.12935588 0.13723557 0.51900005
-0.1280058 0.13723557 0.51900005
-0.12665571 0.13723557 0.51900005
-0.12530565 0.13723557 0.51900005
-0.12395557 0.13723557 0.51900005
-0.1226055 0.13723557 0.51900005
-0.12125542 0.13723557 0.51900005
-0.11990534 0.13723557 0.51900005
-0.11855527 0.13723557 0.51900005
-0.11720519 0.13723557 0.51900005
-0.11585511 0.13723557 0.51900005
-0.11450505 0.13723557 0.51900005
-0.11315496 0.13723557 0.51900005
-0.11180489 0.13723557 0.51900005
-0.11066763 0.13749999 0.52000004
-0.10910474 0.13723557 0.51900005
-0.10775466 0.13723557 0.51900005
-0.1066096 0.13749999 0.52000004
-0.10525693 0.13749999 0.52000004
-0.10370443 0.13723557 0.51900005
-0.10235436 0.13723557 0.51900005
-0.10100428 0.13723557 0.51900005
-0.099654205 0.13723557 0.51900005
-0.098304123 0.13723557 0.51900005
-0.096954055 0.13723557 0.51900005
-0.09560398 0.13723557 0.51900005
-0.094253898 0.13723557 0.51900005
-0.09290383 0.13723557 0.51900005
-0.091553748 0.13723557 0.51900005
-0.090203673 0.13723557 0.51900005
-0.088853605 0.13723557 0.51900005
-0.087503523 0.13723557 0.51900005
-0.086153448 0.13723557 0.51900005
-0.084803365 0.13723557 0.51900005
-0.083614089 0.13749999 0.52000004
-0.082261406 0.13749999 0.52000004
-0.080908738 0.13749999 0.52000004
-0.079709053 0.13776441 0.52100003
-0.07835377 0.13776441 0.52100003
-0.076998495 0.13776441 0.52100003
-0.075788394 0.13802883 0.52200001
-0.074430518 0.13802883 0.52200001
-0.073072635 0.13802883 0.52200001
-0.071714759 0.13802883 0.52200001
-0.070491664 0.13829325 0.523
-0.069131181 0.13829325 0.523
-0.067770705 0.13829325 0.523
-0.066410214 0.13829325 0.523
-0.065049738 0.13829325 0.523
-0.063689254 0.13829325 0.523
-0.062328774 0.13829325 0.523
-0.060851723 0.13802883 0.52200001
-0.059493843 0.13802883 0.52200001
-0.058135964 0.13802883 0.52200001
-0.056778084 0.13802883 0.52200001
-0.055420205 0.13802883 0.52200001
-0.054062326 0.13802883 0.52200001
-0.052704442 0.13802883 0.52200001
-0.051346567 0.13802883 0.52200001
-0.049988687 0.13802883 0.52200001
-0.048630808 0.13802883 0.52200001
-0.047272928 0.13802883 0.52200001
-0.045915045 0.13802883 0.52200001
-0.044557165 0.13802883 0.52200001
-0.043282043 0.13829325 0.523
-0.041921563 0.13829325 0.523
-0.040561084 0.13829325 0.523
-0.0392006 0.13829325 0.523
-0.03784012 0.13829325 0.523
-0.036549393 0.13855769 0.52400005
-0.035186309 0.13855769 0.52400005
-0.033823229 0.13855769 0.52400005
-0.032460146 0.13855769 0.52400005
-0.031097064 0.13855769 0.52400005
-0.029790724 0.13882211 0.52500004
-0.02842504 0.13882211 0.52500004
-0.027059358 0.13882211 0.52500004
-0.025693674 0.13882211 0.52500004
-0.02432799 0.13882211 0.52500004
-0.022962308 0.13882211 0.52500004
-0.021596622 0.13882211 0.52500004
-0.020230938 0.13882211 0.52500004
-0.018865256 0.13882211 0.52500004
-0.017499572 0.13882211 0.52500004
-0.016133888 0.13882211 0.52500004
-0.014768205 0.13882211 0.52500004
-0.013376993 0.13855769 0.52400005
-0.01201391 0.13855769 0.52400005
-0.010650828 0.13855769 0.52400005
-0.0092877457 0.13855769 0.52400005
-0.0079246629 0.13855769 0.52400005
-0.0065615806 0.13855769 0.52400005
-0.0051984987 0.13855769 0.52400005
-0.0038354162 0.13855769 0.52400005
-0.0024723338 0.13855769 0.52400005
-0.0011092515 0.13855769 0.52400005
0.00025383083 0.13855769 0.52400005
0.0016169132 0.13855769 0.52400005
0.0029856823 0.13882211 0.52500004
0.0043513658 0.13882211 0.52500004
0.0057170498 0.13882211 0.52500004
0.0070827333 0.13882211 0.52500004
0.0084484173 0.13882211 0.52500004
0.0098141003 0.13882211 0.52500004
0.011201078 0.13908653 0.52600002
0.012569364 0.13908653 0.52600002
0.013937648 0.13908653 0.52600002
0.015335033 0.13935095 0.52700001
0.016705917 0.13935095 0.52700001
0.018076805 0.13935095 0.52700001
0.01944769 0.13935095 0.52700001
0.020858079 0.13961537 0.528
0.022231568 0.13961537 0.528
0.023605054 0.13961537 0.528
0.024978543 0.13961537 0.528
0.026352029 0.13961537 0.528
0.027778029 0.13987981 0.52900004
0.029154118 0.13987981 0.52900004
0.030530209 0.13987981 0.52900004
0.031906296 0.13987981 0.52900004
0.033282388 0.13987981 0.52900004
0.034658473 0.13987981 0.52900004
0.036034562 0.13987981 0.52900004
0.03741065 0.13987981 0.52900004
0.038786743 0.13987981 0.52900004
0.040162832 0.13987981 0.52900004
0.04153892 0.13987981 0.52900004
0.042915005 0.13987981 0.52900004
0.04437482 0.14014421 0.53000003
0.045667186 0.13987981 0.52900004
0.047043275 0.13987981 0.52900004
0.048510894 0.14014421 0.53000003
0.049889583 0.14014421 0.53000003
0.051268268 0.14014421 0.53000003
0.052646961 0.14014421 0.53000003
0.05402565 0.14014421 0.53000003
0.055404343 0.14014421 0.53000003
0.056783032 0.14014421 0.53000003
0.058161724 0.14014421 0.53000003
0.059540413 0.14014421 0.53000003
0.060919102 0.14014421 0.53000003
0.062415335 0.14040864 0.53100002
0.063796625 0.14040864 0.53100002
0.065177917 0.14040864 0.53100002
0.066684552 0.14067306 0.53200001
0.068068445 0.14067306 0.53200001
0.069452338 0.14067306 0.53200001
0.070836231 0.14067306 0.53200001
0.072084375 0.14040864 0.53100002
0.07346566 0.14040864 0.53100002
0.074846961 0.14040864 0.53100002
0.076228246 0.14040864 0.53100002
0.077609539 0.14040864 0.53100002
0.078990832 0.14040864 0.53100002
0.080372125 0.14040864 0.53100002
0.08175341 0.14040864 0.53100002
0.083134703 0.14040864 0.53100002
0.084515996 0.14040864 0.53100002
0.085897289 0.14040864 0.53100002
0.087278582 0.14040864 0.53100002
0.088659868 0.14040864 0.53100002
0.090210736 0.14067306 0.53200001
0.091594622 0.14067306 0.53200001
0.092978515 0.14067306 0.53200001
0.094362408 0.14067306 0.53200001
0.095746301 0.14067306 0.53200001
0.097130194 0.14067306 0.53200001
0.098514087 0.14067306 0.53200001
0.099897973 0.14067306 0.53200001
0.10147226 0.14093749 0.53300005
0.10266576 0.14067306 0.53200001
0.10404966 0.14067306 0.53200001
0.10543355 0.14067306 0.53200001
0.10681745 0.14067306 0.53200001
0.10820133 0.14067306 0.53200001
0.10958523 0.14067306 0.53200001
0.11096912 0.14067306 0.53200001
0.11235301 0.14067306 0.53200001
0.11373691 0.14067306 0.53200001
0.1151208 0.14067306 0.53200001
0.11672369 0.14093749 0.53300005
0.11811019 0.14093749 0.53300005
0.11949668 0.14093749 0.53300005
0.12088317 0.14093749 0.53300005
0.12249906 0.14120191 0.53400004
0.12388816 0.14120191 0.53400004
0.12527725 0.14120191 0.53400004
0.12666635 0.14120191 0.53400004
0.12805545 0.14120191 0.53400004
0.12944454 0.14120191 0.53400004
0.13083364 0.14120191 0.53400004
0.13222273 0.14120191 0.53400004
0.13361183 0.14120191 0.53400004
0.13500091 0.14120191 0.53400004
0.13639003 0.14120191 0.53400004
0.13777912 0.14120191 0.53400004
0.1391682 0.14120191 0.53400004
0.1405573 0.14120191 0.53400004
0.14194641 0.14120191 0.53400004
0.14333551 0.14120191 0.53400004
0.14472459 0.14120191 0.53400004
0.14611368 0.14120191 0.53400004
0.14750278 0.14120191 0.53400004
0.14889188 0.14120191 0.53400004
0.15028098 0.14120191 0.53400004
0.15167007 0.14120191 0.53400004
0.15305915 0.14120191 0.53400004
0.15444826 0.14120191 0.53400004
0.15583736 0.14120191 0.53400004
0.15693203 0.14093749 0.53300005
0.15831852 0.14093749 0.53300005
0.15970501 0.14093749 0.53300005
0.16109149 0.14093749 0.53300005
0.162478 0.14093749 0.53300005
0.16386449 0.14093749 0.53300005
0.16525099 0.14093749 0.53300005
0.16695011 0.14120191 0.53400004
0.16833922 0.14120191 0.53400004
0.16972831 0.14120191 0.53400004
0.17111741 0.14120191 0.53400004
0.1725065 0.14120191 0.53400004
0.17389558 0.14120191 0.53400004
0.17561294 0.14146633 0.53500003
0.17700464 0.14146633 0.53500003
0.17839633 0.14146633 0.53500003
0.18012407 0.14173076 0.53600001
0.18151836 0.14173076 0.53600001
0.18291268 0.14173076 0.53600001
0.18430696 0.14173076 0.53600001
0.18604772 0.14199518 0.537
0.18744461 0.14199518 0.537
0.18884151 0.14199518 0.537
0.19023842 0.14199518 0.537
0.19163531 0.14199518 0.537
0.19303221 0.14199518 0.537
0.1944291 0.14199518 0.537
0.19582602 0.14199518 0.537
0.19722292 0.14199518 0.537
0.19861981 0.14199518 0.537
0.20001671 0.14199518 0.537
0.2014136 0.14199518 0.537
0.20281051 0.14199518 0.537
0.20420741 0.14199518 0.537
0.2056043 0.14199518 0.537
0.20700119 0.14199518 0.537
0.2083981 0.14199518 0.537
0.20979501 0.14199518 0.537
0.21158521 0.14225961 0.53800005
0.2129847 0.14225961 0.53800005
0.2143842 0.14225961 0.53800005
0.2157837 0.14225961 0.53800005
0.2171832 0.14225961 0.53800005
0.2185827 0.14225961 0.53800005
0.21998221 0.14225961 0.53800005
0.22138169 0.14225961 0.53800005
0.22236709 0.14199518 0.537
0.223764 0.14199518 0.537
0.2251609 0.14199518 0.537
0.22655779 0.14199518 0.537
0.22795469 0.14199518 0.537
0.2293516 0.14199518 0.537
0.23074849 0.14199518 0.537
0.2317131 0.14173076 0.53600001
0.23310739 0.14173076 0.53600001
0.23450169 0.14173076 0.53600001
0.23589599 0.14173076 0.53600001
0.23729029 0.14173076 0.53600001
0.23868458 0.14173076 0.53600001
0.24007888 0.14173076 0.53600001
0.24147317 0.14173076 0.53600001
0.24286748 0.14173076 0.53600001
0.24471748 0.14199518 0.537
0.24611437 0.14199518 0.537
0.24751127 0.14199518 0.537
0.24937171 0.14225961 0.53800005
0.25077122 0.14225961 0.53800005
0.25263944 0.14252403 0.53900003
0.25404152 0.14252403 0.53900003
0.25544363 0.14252403 0.53900003
0.25684574 0.14252403 0.53900003
0.25872695 0.14278845 0.54000002
0.26013166 0.14278845 0.54000002
0.26153636 0.14278845 0.54000002
-0.28320968 0.13725051 0.514
-0.28187263 0.13725051 0.514
-0.28053555 0.13725051 0.514
-0.27919847 0.13725051 0.514
-0.27786142 0.13725051 0.514
-0.27652434 0.13725051 0.514
-0.27518728 0.13725051 0.514
-0.2738502 0.13725051 0.514
-0.27198294 0.13698348 0.51300001
-0.27064851 0.13698348 0.51300001
-0.26931402 0.13698348 0.51300001
-0.26797956 0.13698348 0.51300001
-0.26664507 0.13698348 0.51300001
-0.26531062 0.13698348 0.51300001
-0.26397616 0.13698348 0.51300001
-0.26264167 0.13698348 0.51300001
-0.26181659 0.13725051 0.514
-0.26047951 0.13725051 0.514
-0.25914243 0.13725051 0.514
-0.25780538 0.13725051 0.514
-0.25696728 0.13751754 0.51500005
-0.25562763 0.13751754 0.51500005
-0.25428796 0.13751754 0.51500005
-0.25294828 0.13751754 0.51500005
-0.25160861 0.13751754 0.51500005
-0.25026894 0.13751754 0.51500005
-0.24892926 0.13751754 0.51500005
-0.2475896 0.13751754 0.51500005
-0.24624993 0.13751754 0.51500005
-0.24491026 0.13751754 0.51500005
-0.24357058 0.13751754 0.51500005
-0.24223091 0.13751754 0.51500005
-0.24089125 0.13751754 0.51500005
-0.23955156 0.13751754 0.51500005
-0.2382119 0.13751754 0.51500005
-0.23687223 0.13751754 0.51500005
-0.23553257 0.13751754 0.51500005
-0.23419289 0.13751754 0.51500005
-0.23330535 0.13778457 0.51600003
-0.23196308 0.13778457 0.51600003
-0.23062082 0.13778457 0.51600003
-0.22927855 0.13778457 0.51600003
-0.22793627 0.13778457 0.51600003
-0.22703312 0.13805158 0.51700002
-0.22568825 0.13805158 0.51700002
-0.22434337 0.13805158 0.51700002
-0.22299851 0.13805158 0.51700002
-0.22165364 0.13805158 0.51700002
-0.22030875 0.13805158 0.51700002
-0.21896389 0.13805158 0.51700002
-0.21761902 0.13805158 0.51700002
-0.21627414 0.13805158 0.51700002
-0.21492927 0.13805158 0.51700002
-0.21358439 0.13805158 0.51700002
-0.21223952 0.13805158 0.51700002
-0.21089464 0.13805158 0.51700002
-0.20954978 0.13805158 0.51700002
-0.2082049 0.13805158 0.51700002
-0.20645991 0.13778457 0.51600003
-0.20511764 0.13778457 0.51600003
-0.20377538 0.13778457 0.51600003
-0.20243311 0.13778457 0.51600003
-0.20109083 0.13778457 0.51600003
-0.19974856 0.13778457 0.51600003
-0.19840628 0.13778457 0.51600003
-0.19706401 0.13778457 0.51600003
-0.19610105 0.13805158 0.51700002
-0.19475617 0.13805158 0.51700002
-0.19341129 0.13805158 0.51700002
-0.19206643 0.13805158 0.51700002
-0.19072156 0.13805158 0.51700002
-0.18937668 0.13805158 0.51700002
-0.18803179 0.13805158 0.51700002
-0.18668693 0.13805158 0.51700002
-0.18534206 0.13805158 0.51700002
-0.18399718 0.13805158 0.51700002
-0.18265231 0.13805158 0.51700002
-0.18130744 0.13805158 0.51700002
-0.17996256 0.13805158 0.51700002
-0.1786177 0.13805158 0.51700002
-0.17727283 0.13805158 0.51700002
-0.17592794 0.13805158 0.51700002
-0.17458306 0.13805158 0.51700002
-0.1732382 0.13805158 0.51700002
-0.1722258 0.13831861 0.51800001
-0.17054845 0.13805158 0.51700002
-0.16953085 0.13831861 0.51800001
-0.16818337 0.13831861 0.51800001
-0.1668359 0.13831861 0.51800001
-0.16548844 0.13831861 0.51800001
-0.16414097 0.13831861 0.51800001
-0.16279347 0.13831861 0.51800001
-0.16144601 0.13831861 0.51800001
-0.16009854 0.13831861 0.51800001
-0.15905754 0.13858564 0.51900005
-0.15770745 0.13858564 0.51900005
-0.15635739 0.13858564 0.51900005
-0.15500732 0.13858564 0.51900005
-0.15365724 0.13858564 0.51900005
-0.15230717 0.13858564 0.51900005
-0.15124793 0.13885267 0.52000004
-0.14989527 0.13885267 0.52000004
-0.1485426 0.13885267 0.52000004
-0.14718992 0.13885267 0.52000004
-0.14583725 0.13885267 0.52000004
-0.14448455 0.13885267 0.52000004
-0.14313188 0.13885267 0.52000004
-0.1417792 0.13885267 0.52000004
-0.14042653 0.13885267 0.52000004
-0.13907386 0.13885267 0.52000004
-0.13745633 0.13858564 0.51900005
-0.13610625 0.13858564 0.51900005
-0.13475618 0.13858564 0.51900005
-0.1334061 0.13858564 0.51900005
-0.13205601 0.13858564 0.51900005
-0.13070595 0.13858564 0.51900005
-0.12935588 0.13858564 0.51900005
-0.1280058 0.13858564 0.51900005
-0.12665571 0.13858564 0.51900005
-0.12530565 0.13858564 0.51900005
-0.12395557 0.13858564 0.51900005
-0.1226055 0.13858564 0.51900005
-0.12125542 0.13858564 0.51900005
-0.11990534 0.13858564 0.51900005
-0.11855527 0.13858564 0.51900005
-0.11720519 0.13858564 0.51900005
-0.11585511 0.13858564 0.51900005
-0.11450505 0.13858564 0.51900005
-0.11337298 0.13885267 0.52000004
-0.11202031 0.13885267 0.52000004
-0.11066763 0.13885267 0.52000004
-0.10931496 0.13885267 0.52000004
-0.10796227 0.13885267 0.52000004
