# .PCD v0.7 - Point Cloud Data file format
VERSION 0.7
FIELDS x y z
SIZE 4 4 4
TYPE F F F
COUNT 1 1 1
WIDTH 1346
HEIGHT 1
VIEWPOINT 0 0 0 1 0 0 0
POINTS 1346
DATA ascii
-0.042907435 -0.058920156 0.36900002
-0.042172775 -0.059239507 0.37100002
-0.041427687 -0.059558857 0.37300003
-0.040672172 -0.059878208 0.37500003
-0.039800372 -0.060037881 0.37600002
-0.03892336 -0.060197555 0.377
-0.038141772 -0.060516905 0.37900001
-0.037349757 -0.060836256 0.38100001
-0.036547314 -0.06115561 0.38300002
-0.035632819 -0.063071713 0.39500001
-0.035041045 -0.063870087 0.40000001
-0.034338199 -0.064508788 0.40400001
-0.033614501 -0.065147489 0.40800002
-0.032790162 -0.065626517 0.41100001
-0.031873006 -0.065945864 0.41300002
-0.031019993 -0.066424891 0.41600001
-0.030079376 -0.066744238 0.41800001
-0.029128326 -0.067063592 0.42000002
-0.028100107 -0.067223266 0.42100003
-0.027066672 -0.067382939 0.42200002
-0.025966492 -0.067382939 0.42200002
-0.024866311 -0.067382939 0.42200002
-0.02376613 -0.067382939 0.42200002
-0.02266595 -0.067382939 0.42200002
-0.021565769 -0.067382939 0.42200002
-0.020465586 -0.067382939 0.42200002
-0.019319518 -0.067223266 0.42100003
-0.018221945 -0.067223266 0.42100003
-0.01712437 -0.067223266 0.42100003
-0.015988726 -0.067063592 0.42000002
-0.01489376 -0.067063592 0.42000002
-0.01376594 -0.066903919 0.41900003
-0.012673579 -0.066903919 0.41900003
-0.01158122 -0.066903919 0.41900003
-0.010463826 -0.066744238 0.41800001
-0.0093740746 -0.066744238 0.41800001
-0.008284322 -0.066744238 0.41800001
-0.0071773571 -0.066584565 0.41700003
-0.0060902117 -0.066584565 0.41700003
-0.0050030658 -0.066584565 0.41700003
-0.0039159204 -0.066584565 0.41700003
-0.002828775 -0.066584565 0.41700003
-0.0017416292 -0.066584565 0.41700003
-0.00065448368 -0.066584565 0.41700003
0.00043266194 -0.066584565 0.41700003
0.0015161629 -0.066424891 0.41600001
0.0026007013 -0.066424891 0.41600001
0.0036852399 -0.066424891 0.41600001
0.0047697783 -0.066424891 0.41600001
0.0058402442 -0.066265218 0.41500002
0.0069221756 -0.066265218 0.41500002
0.0080041066 -0.066265218 0.41500002
0.0090641445 -0.066105545 0.41400003
0.010143469 -0.066105545 0.41400003
0.011195685 -0.065945864 0.41300002
0.012272403 -0.065945864 0.41300002
0.013316797 -0.06578619 0.41200003
0.014390907 -0.06578619 0.41200003
0.015427481 -0.065626517 0.41100001
0.016498985 -0.065626517 0.41100001
0.017570486 -0.065626517 0.41100001
0.018596634 -0.065466844 0.41000003
0.01966553 -0.065466844 0.41000003
0.020734426 -0.065466844 0.41000003
0.021803323 -0.065466844 0.41000003
0.022816431 -0.065307163 0.40900001
0.023882721 -0.065307163 0.40900001
0.02494901 -0.065307163 0.40900001
0.026015297 -0.065307163 0.40900001
0.027081588 -0.065307163 0.40900001
0.028079057 -0.065147489 0.40800002
0.029142739 -0.065147489 0.40800002
0.03020642 -0.065147489 0.40800002
0.031270102 -0.065147489 0.40800002
0.032333784 -0.065147489 0.40800002
0.03331561 -0.064987808 0.40700001
0.034376685 -0.064987808 0.40700001
0.035437759 -0.064987808 0.40700001
0.036498833 -0.064987808 0.40700001
0.037559908 -0.064987808 0.40700001
0.038526092 -0.064828135 0.40600002
0.039584558 -0.064828135 0.40600002
0.040643029 -0.064828135 0.40600002
0.041598786 -0.064668462 0.40500003
0.042654645 -0.064668462 0.40500003
0.043710504 -0.064668462 0.40500003
0.044766366 -0.064668462 0.40500003
0.045709085 -0.064508788 0.40400001
0.04676234 -0.064508788 0.40400001
0.047815591 -0.064508788 0.40400001
0.048747886 -0.064349115 0.40300003
0.04979853 -0.064349115 0.40300003
0.050849177 -0.064349115 0.40300003
0.051771037 -0.064189434 0.40200001
0.052819077 -0.064189434 0.40200001
0.053733122 -0.064029761 0.40100002
0.054778554 -0.064029761 0.40100002
0.055823985 -0.064029761 0.40100002
0.056727599 -0.063870087 0.40000001
0.057770427 -0.063870087 0.40000001
0.058813252 -0.063870087 0.40000001
0.059856076 -0.063870087 0.40000001
0.060746655 -0.063710414 0.39900002
0.061786875 -0.063710414 0.39900002
0.062669635 -0.06355074 0.39800003
0.06370724 -0.06355074 0.39800003
0.064744852 -0.06355074 0.39800003
0.065617181 -0.06339106 0.39700001
0.066652186 -0.06339106 0.39700001
0.067687191 -0.06339106 0.39700001
0.068549089 -0.063231386 0.39600003
0.069581494 -0.063231386 0.39600003
0.070613891 -0.063231386 0.39600003
0.071646288 -0.063231386 0.39600003
0.072678685 -0.063231386 0.39600003
0.073711082 -0.063231386 0.39600003
0.074743479 -0.063231386 0.39600003
0.075584516 -0.063071713 0.39500001
0.076614305 -0.063071713 0.39500001
0.077644095 -0.063071713 0.39500001
0.078474715 -0.062912039 0.39400002
0.079501897 -0.062912039 0.39400002
0.080529079 -0.062912039 0.39400002
0.081349261 -0.062752359 0.39300001
0.082373843 -0.062752359 0.39300001
0.083398417 -0.062752359 0.39300001
0.084208183 -0.062592685 0.39200002
0.085230149 -0.062592685 0.39200002
0.086252116 -0.062592685 0.39200002
0.087274089 -0.062592685 0.39200002
0.088296056 -0.062592685 0.39200002
0.089318022 -0.062592685 0.39200002
0.090339996 -0.062592685 0.39200002
0.091361962 -0.062592685 0.39200002
0.092148259 -0.062433012 0.39100003
0.093167618 -0.062433012 0.39100003
0.094186984 -0.062433012 0.39100003
0.09496285 -0.062273335 0.39000002
0.095979609 -0.062273335 0.39000002
0.09699636 -0.062273335 0.39000002
0.097761795 -0.062113661 0.38900003
0.098775953 -0.062113661 0.38900003
0.099790089 -0.062113661 0.38900003
0.1005451 -0.061953984 0.38800001
0.10155665 -0.061953984 0.38800001
0.10230383 -0.061794311 0.38700002
0.10331278 -0.061794311 0.38700002
0.1043217 -0.061794311 0.38700002
0.10533064 -0.061794311 0.38700002
0.10633957 -0.061794311 0.38700002
0.10734851 -0.061794311 0.38700002
0.10807744 -0.061634634 0.38600001
0.10908377 -0.061634634 0.38600001
0.11009009 -0.061634634 0.38600001
0.11109642 -0.061634634 0.38600001
0.11210274 -0.061634634 0.38600001
0.11281605 -0.06147496 0.38500002
0.11381977 -0.06147496 0.38500002
0.11482349 -0.06147496 0.38500002
0.11582721 -0.06147496 0.38500002
0.11652746 -0.061315283 0.384
0.11752858 -0.061315283 0.384
0.11852968 -0.061315283 0.384
0.11921953 -0.06115561 0.38300002
0.12021803 -0.06115561 0.38300002
0.12121654 -0.06115561 0.38300002
0.12221504 -0.06115561 0.38300002
0.12289185 -0.060995936 0.38200003
0.12388774 -0.060995936 0.38200003
0.12488364 -0.060995936 0.38200003
0.12587954 -0.060995936 0.38200003
0.12687545 -0.060995936 0.38200003
0.12753659 -0.060836256 0.38100001
0.12852988 -0.060836256 0.38100001
0.12952317 -0.060836256 0.38100001
0.13017391 -0.060676586 0.38000003
0.1311646 -0.060676586 0.38000003
0.13180749 -0.060516905 0.37900001
0.13279557 -0.060516905 0.37900001
0.13378364 -0.060516905 0.37900001
0.13441613 -0.060357232 0.37800002
0.13540159 -0.060357232 0.37800002
0.13638707 -0.060357232 0.37800002
0.13737255 -0.060357232 0.37800002
0.13835801 -0.060357232 0.37800002
0.13897485 -0.060197555 0.377
0.1399577 -0.060197555 0.377
0.14094058 -0.060197555 0.377
0.14154698 -0.060037881 0.37600002
0.14252724 -0.060037881 0.37600002
0.14312583 -0.059878208 0.37500003
0.14410348 -0.059878208 0.37500003
0.14469424 -0.059718531 0.37400001
0.14566928 -0.059718531 0.37400001
0.14664431 -0.059718531 0.37400001
0.14761937 -0.059718531 0.37400001
0.1481971 -0.059558857 0.37300003
0.14916953 -0.059558857 0.37300003
0.15014197 -0.059558857 0.37300003
0.1511144 -0.059558857 0.37300003
0.15208684 -0.059558857 0.37300003
0.15305927 -0.059558857 0.37300003
0.15361875 -0.05939918 0.37200001
0.15458857 -0.05939918 0.37200001
0.15555841 -0.05939918 0.37200001
0.15610746 -0.059239507 0.37100002
0.15707467 -0.059239507 0.37100002
0.15804189 -0.059239507 0.37100002
0.15900913 -0.059239507 0.37100002
0.15997635 -0.059239507 0.37100002
0.16094357 -0.059239507 0.37100002
0.16191079 -0.059239507 0.37100002
0.16287801 -0.059239507 0.37100002
0.16384523 -0.059239507 0.37100002
0.1643682 -0.05907983 0.37
0.16533281 -0.05907983 0.37
0.16629742 -0.05907983 0.37
0.16680999 -0.058920156 0.36900002
0.167772 -0.058920156 0.36900002
0.168734 -0.058920156 0.36900002
0.169696 -0.058920156 0.36900002
-0.27823368 -0.077748738 0.49500003
-0.27694318 -0.077748738 0.49500003
-0.27565268 -0.077748738 0.49500003
-0.27380791 -0.077591665 0.49400002
-0.27252004 -0.077591665 0.49400002
-0.27068305 -0.077434599 0.49300003
-0.2693978 -0.077434599 0.49300003
-0.26811251 -0.077434599 0.49300003
-0.26628599 -0.077277534 0.49200001
-0.26500329 -0.077277534 0.49200001
-0.26318464 -0.077120468 0.49100003
-0.26190457 -0.077120468 0.49100003
-0.2606245 -0.077120468 0.49100003
-0.25881621 -0.076963395 0.49000001
-0.25701317 -0.076806329 0.48900002
-0.25573832 -0.076806329 0.48900002
-0.25394312 -0.076649264 0.48800004
-0.25267085 -0.076649264 0.48800004
-0.25088343 -0.07649219 0.48700002
-0.24910125 -0.076335125 0.48600003
-0.24783421 -0.076335125 0.48600003
-0.24656717 -0.076335125 0.48600003
-0.24479541 -0.076178052 0.48500001
-0.24353099 -0.076178052 0.48500001
-0.24226657 -0.076178052 0.48500001
-0.24050522 -0.076020986 0.48400003
-0.2392434 -0.076020986 0.48400003
-0.23748988 -0.07586392 0.48300001
-0.23623067 -0.07586392 0.48300001
-0.23497145 -0.07586392 0.48300001
-0.060694024 -0.047120448 0.30000001
-0.060111616 -0.047277518 0.30100003
-0.059721079 -0.047591649 0.303
-0.059320126 -0.047905788 0.30500001
-0.05871686 -0.048062857 0.30600002
-0.058108374 -0.048219923 0.30700001
-0.057681348 -0.048534062 0.30900002
-0.057059828 -0.048691127 0.31
-0.056614552 -0.049005263 0.31200001
-0.056158848 -0.049319401 0.31400001
-0.055692717 -0.049633536 0.31600001
-0.055926371 -0.051361289 0.32700002
-0.055579126 -0.05183249 0.33000001
-0.054122329 -0.052931968 0.33700001
-0.053401746 -0.053089038 0.33800003
-0.052831326 -0.053403173 0.34
-0.052250486 -0.053717308 0.34200001
-0.051509045 -0.053874377 0.34300002
-0.050614823 -0.053874377 0.34300002
-0.049865555 -0.054031447 0.34400001
-0.048968725 -0.054031447 0.34400001
-0.048211642 -0.054188516 0.34500003
-0.047312208 -0.054188516 0.34500003
-0.046547297 -0.054345582 0.34600002
-0.045909099 -0.054659721 0.34800002
-0.044223975 -0.057172809 0.36400002
-0.043750554 -0.057801083 0.36800003
-0.043139994 -0.058272287 0.37100002
-0.042400122 -0.058586422 0.37300003
-0.041538753 -0.058743488 0.37400001
-0.04078063 -0.059057627 0.37600002
-0.039906226 -0.059214693 0.377
-0.039026607 -0.059371762 0.37800002
-0.038141772 -0.059528828 0.37900001
-0.037447792 -0.060000036 0.38200003
-0.036642738 -0.060314171 0.384
-0.036174081 -0.062984332 0.40100002
-0.035479058 -0.063612603 0.40500003
-0.034848172 -0.064397946 0.41000003
-0.033189069 -0.065340348 0.41600001
-0.032181706 -0.065497421 0.41700003
-0.031243697 -0.06581156 0.41900003
-0.030223295 -0.065968625 0.42000002
-0.029197682 -0.066125698 0.42100003
-0.028166853 -0.066282764 0.42200002
-0.027130811 -0.06643983 0.42300001
-0.026028024 -0.06643983 0.42300001
-0.024925236 -0.06643983 0.42300001
-0.023822447 -0.06643983 0.42300001
-0.02266595 -0.066282764 0.42200002
-0.021565769 -0.066282764 0.42200002
-0.020465586 -0.066282764 0.42200002
-0.019365406 -0.066282764 0.42200002
-0.018221945 -0.066125698 0.42100003
-0.01712437 -0.066125698 0.42100003
-0.016026795 -0.066125698 0.42100003
-0.01489376 -0.065968625 0.42000002
-0.013798794 -0.065968625 0.42000002
-0.012673579 -0.06581156 0.41900003
-0.01158122 -0.06581156 0.41900003
-0.01048886 -0.06581156 0.41900003
-0.0093740746 -0.065654486 0.41800001
-0.008284322 -0.065654486 0.41800001
-0.0071945684 -0.065654486 0.41800001
-0.0060902117 -0.065497421 0.41700003
-0.0050030658 -0.065497421 0.41700003
-0.0039159204 -0.065497421 0.41700003
-0.002828775 -0.065497421 0.41700003
-0.0017416292 -0.065497421 0.41700003
-0.00065448368 -0.065497421 0.41700003
0.00043266194 -0.065497421 0.41700003
0.0015198075 -0.065497421 0.41700003
0.002606953 -0.065497421 0.41700003
0.0036852399 -0.065340348 0.41600001
0.0047697783 -0.065340348 0.41600001
0.0058543165 -0.065340348 0.41600001
0.0069221756 -0.065183282 0.41500002
0.0080041066 -0.065183282 0.41500002
0.0090641445 -0.065026216 0.41400003
0.010143469 -0.065026216 0.41400003
0.011195685 -0.064869151 0.41300002
0.012272403 -0.064869151 0.41300002
0.013316797 -0.064712085 0.41200003
0.014390907 -0.064712085 0.41200003
0.015427481 -0.064555012 0.41100001
0.016498985 -0.064555012 0.41100001
0.017570486 -0.064555012 0.41100001
0.018641992 -0.064555012 0.41100001
0.01966553 -0.064397946 0.41000003
0.020734426 -0.064397946 0.41000003
0.021803323 -0.064397946 0.41000003
0.022872219 -0.064397946 0.41000003
0.023882721 -0.064240873 0.40900001
0.02494901 -0.064240873 0.40900001
0.026015297 -0.064240873 0.40900001
0.027081588 -0.064240873 0.40900001
0.028147878 -0.064240873 0.40900001
0.029142739 -0.064083807 0.40800002
0.03020642 -0.064083807 0.40800002
0.031270102 -0.064083807 0.40800002
0.032333784 -0.064083807 0.40800002
0.033397466 -0.064083807 0.40800002
0.034376685 -0.063926734 0.40700001
0.035437759 -0.063926734 0.40700001
0.036498833 -0.063926734 0.40700001
0.037559908 -0.063926734 0.40700001
0.038620982 -0.063926734 0.40700001
0.039584558 -0.063769668 0.40600002
0.040643029 -0.063769668 0.40600002
0.041701496 -0.063769668 0.40600002
0.042654645 -0.063612603 0.40500003
0.043710504 -0.063612603 0.40500003
0.044766366 -0.063612603 0.40500003
0.045709085 -0.063455537 0.40400001
0.04676234 -0.063455537 0.40400001
0.047815591 -0.063455537 0.40400001
0.048747886 -0.063298471 0.40300003
0.04979853 -0.063298471 0.40300003
0.050849177 -0.063298471 0.40300003
0.051771037 -0.063141398 0.40200001
0.052819077 -0.063141398 0.40200001
0.053867117 -0.063141398 0.40200001
0.054778554 -0.062984332 0.40100002
0.055823985 -0.062984332 0.40100002
0.056869421 -0.062984332 0.40100002
0.057770427 -0.062827259 0.40000001
0.058813252 -0.062827259 0.40000001
0.059856076 -0.062827259 0.40000001
0.0608989 -0.062827259 0.40000001
0.061786875 -0.062670194 0.39900002
0.062827088 -0.062670194 0.39900002
0.06370724 -0.062513128 0.39800003
0.064744852 -0.062513128 0.39800003
0.065782465 -0.062513128 0.39800003
0.066652186 -0.062356059 0.39700001
0.067687191 -0.062356059 0.39700001
0.068722188 -0.062356059 0.39700001
0.069757201 -0.062356059 0.39700001
0.070792206 -0.062356059 0.39700001
0.07182721 -0.062356059 0.39700001
0.072678685 -0.062198993 0.39600003
0.073711082 -0.062198993 0.39600003
0.074743479 -0.062198993 0.39600003
0.075775877 -0.062198993 0.39600003
0.076614305 -0.06204192 0.39500001
0.077644095 -0.06204192 0.39500001
0.078673884 -0.06204192 0.39500001
0.079501897 -0.061884854 0.39400002
0.080529079 -0.061884854 0.39400002
0.081556261 -0.061884854 0.39400002
0.082373843 -0.061727785 0.39300001
0.083398417 -0.061727785 0.39300001
0.084422998 -0.061727785 0.39300001
0.085230149 -0.061570719 0.39200002
0.086252116 -0.061570719 0.39200002
0.087274089 -0.061570719 0.39200002
0.088296056 -0.061570719 0.39200002
0.089318022 -0.061570719 0.39200002
0.090339996 -0.061570719 0.39200002
0.091361962 -0.061570719 0.39200002
0.092383929 -0.061570719 0.39200002
0.093167618 -0.061413649 0.39100003
0.094186984 -0.061413649 0.39100003
0.09520635 -0.061413649 0.39100003
0.095979609 -0.06125658 0.39000002
0.09699636 -0.06125658 0.39000002
0.09801311 -0.06125658 0.39000002
0.098775953 -0.061099514 0.38900003
0.099790089 -0.061099514 0.38900003
0.10080425 -0.061099514 0.38900003
0.10155665 -0.060942445 0.38800001
0.10256819 -0.060942445 0.38800001
0.10357973 -0.060942445 0.38800001
0.1043217 -0.060785376 0.38700002
0.10533064 -0.060785376 0.38700002
0.10633957 -0.060785376 0.38700002
0.10734851 -0.060785376 0.38700002
0.10835744 -0.060785376 0.38700002
0.10908377 -0.060628306 0.38600001
0.11009009 -0.060628306 0.38600001
0.11109642 -0.060628306 0.38600001
0.11210274 -0.060628306 0.38600001
0.11310907 -0.060628306 0.38600001
0.11381977 -0.06047124 0.38500002
0.11482349 -0.06047124 0.38500002
0.11582721 -0.06047124 0.38500002
0.11683092 -0.06047124 0.38500002
0.11752858 -0.060314171 0.384
0.11852968 -0.060314171 0.384
0.1195308 -0.060314171 0.384
0.12053191 -0.060314171 0.384
0.12121654 -0.060157102 0.38300002
0.12221504 -0.060157102 0.38300002
0.12321355 -0.060157102 0.38300002
0.12421205 -0.060157102 0.38300002
0.12488364 -0.060000036 0.38200003
0.12587954 -0.060000036 0.38200003
0.12687545 -0.060000036 0.38200003
0.12753659 -0.059842966 0.38100001
0.12852988 -0.059842966 0.38100001
0.12952317 -0.059842966 0.38100001
0.13017391 -0.059685901 0.38000003
0.1311646 -0.059685901 0.38000003
0.13215527 -0.059685901 0.38000003
0.13279557 -0.059528828 0.37900001
0.13378364 -0.059528828 0.37900001
0.13477172 -0.059528828 0.37900001
0.13540159 -0.059371762 0.37800002
0.13638707 -0.059371762 0.37800002
0.13737255 -0.059371762 0.37800002
0.13835801 -0.059371762 0.37800002
0.13897485 -0.059214693 0.377
0.1399577 -0.059214693 0.377
0.14094058 -0.059214693 0.377
0.14154698 -0.059057627 0.37600002
0.14252724 -0.059057627 0.37600002
0.14312583 -0.058900561 0.37500003
0.14410348 -0.058900561 0.37500003
0.14508112 -0.058900561 0.37500003
0.14566928 -0.058743488 0.37400001
0.14664431 -0.058743488 0.37400001
0.14761937 -0.058743488 0.37400001
0.1481971 -0.058586422 0.37300003
0.14916953 -0.058586422 0.37300003
0.15014197 -0.058586422 0.37300003
0.1511144 -0.058586422 0.37300003
0.15208684 -0.058586422 0.37300003
0.15305927 -0.058586422 0.37300003
0.15403171 -0.058586422 0.37300003
0.15458857 -0.058429353 0.37200001
0.15555841 -0.058429353 0.37200001
0.15652822 -0.058429353 0.37200001
0.15707467 -0.058272287 0.37100002
0.15804189 -0.058272287 0.37100002
0.15900913 -0.058272287 0.37100002
0.15997635 -0.058272287 0.37100002
0.16094357 -0.058272287 0.37100002
0.16191079 -0.058272287 0.37100002
0.16287801 -0.058272287 0.37100002
0.16384523 -0.058272287 0.37100002
0.1643682 -0.058115214 0.37
0.16533281 -0.058115214 0.37
0.16629742 -0.058115214 0.37
0.16680999 -0.057958148 0.36900002
0.167772 -0.057958148 0.36900002
0.168734 -0.057958148 0.36900002
0.169696 -0.057958148 0.36900002
-0.27694318 -0.076458246 0.49500003
-0.27565268 -0.076458246 0.49500003
-0.27436218 -0.076458246 0.49500003
-0.27252004 -0.07630378 0.49400002
-0.2712321 -0.07630378 0.49400002
-0.2693978 -0.076149322 0.49300003
-0.26811251 -0.076149322 0.49300003
-0.26682726 -0.076149322 0.49300003
-0.26500329 -0.075994857 0.49200001
-0.26372063 -0.075994857 0.49200001
-0.26190457 -0.075840399 0.49100003
-0.2606245 -0.075840399 0.49100003
-0.25881621 -0.075685933 0.49000001
-0.25701317 -0.075531475 0.48900002
-0.25573832 -0.075531475 0.48900002
-0.25394312 -0.075377017 0.48800004
-0.25267085 -0.075377017 0.48800004
-0.25088343 -0.075222552 0.48700002
-0.24961381 -0.075222552 0.48700002
-0.24783421 -0.075068094 0.48600003
-0.24656717 -0.075068094 0.48600003
-0.24530014 -0.075068094 0.48600003
-0.24353099 -0.074913628 0.48500001
-0.24226657 -0.074913628 0.48500001
-0.24050522 -0.07475917 0.48400003
-0.2392434 -0.07475917 0.48400003
-0.23798159 -0.07475917 0.48400003
-0.23623067 -0.074604705 0.48300001
-0.23497145 -0.074604705 0.48300001
-0.23371224 -0.074604705 0.48300001
-0.23245303 -0.074604705 0.48300001
-0.061476145 -0.046338327 0.30000001
-0.060896341 -0.046492793 0.30100003
-0.060511023 -0.046801709 0.303
-0.060115278 -0.047110632 0.30500001
-0.059514619 -0.047265097 0.30600002
-0.058908742 -0.047419555 0.30700001
-0.058486931 -0.047728479 0.30900002
-0.057868015 -0.047882937 0.31
-0.057243895 -0.048037402 0.31100002
-0.05651655 -0.048809707 0.31600001
-0.056397691 -0.04942755 0.32000002
-0.056778878 -0.050508779 0.32700002
-0.056439456 -0.05097216 0.33000001
-0.056084387 -0.051435541 0.333
-0.055164121 -0.05220785 0.33800003
-0.054443531 -0.052362312 0.33900002
-0.053717729 -0.05251677 0.34
-0.053142101 -0.052825693 0.34200001
-0.052403267 -0.052980155 0.34300002
-0.051659215 -0.053134616 0.34400001
-0.050762385 -0.053134616 0.34400001
-0.050010517 -0.053289078 0.34500003
-0.049111079 -0.053289078 0.34500003
-0.048351385 -0.05344354 0.34600002
-0.047449339 -0.05344354 0.34600002
-0.046681825 -0.053597998 0.347
-0.045108244 -0.054988146 0.35600001
-0.044676542 -0.055605993 0.36000001
-0.044345468 -0.056378298 0.36500001
-0.04386944 -0.056996144 0.36900002
-0.043256275 -0.057459526 0.37200001
-0.042513791 -0.057768449 0.37400001
-0.041649818 -0.057922911 0.37500003
-0.04078063 -0.058077373 0.37600002
-0.040012076 -0.058386292 0.37800002
-0.039026607 -0.058386292 0.37800002
-0.038242411 -0.058695216 0.38000003
-0.037447792 -0.059004139 0.38200003
-0.036738165 -0.059467521 0.38500002
-0.035528135 -0.064564735 0.41800001
-0.033348631 -0.064564735 0.41800001
-0.032413229 -0.064873658 0.42000002
-0.031392831 -0.065028124 0.42100003
-0.030367216 -0.065182582 0.42200002
-0.029336385 -0.06533704 0.42300001
-0.028300345 -0.065491505 0.42400002
-0.027130811 -0.06533704 0.42300001
-0.026028024 -0.06533704 0.42300001
-0.024925236 -0.06533704 0.42300001
-0.023822447 -0.06533704 0.42300001
-0.022719659 -0.06533704 0.42300001
-0.021565769 -0.065182582 0.42200002
-0.020465586 -0.065182582 0.42200002
-0.019365406 -0.065182582 0.42200002
-0.018265225 -0.065182582 0.42200002
-0.01712437 -0.065028124 0.42100003
-0.016026795 -0.065028124 0.42100003
-0.01489376 -0.064873658 0.42000002
-0.013798794 -0.064873658 0.42000002
-0.012703827 -0.064873658 0.42000002
-0.01158122 -0.0647192 0.41900003
-0.01048886 -0.0647192 0.41900003
-0.0093965009 -0.0647192 0.41900003
-0.008284322 -0.064564735 0.41800001
-0.0071945684 -0.064564735 0.41800001
-0.0061048162 -0.064564735 0.41800001
-0.0050030658 -0.064410277 0.41700003
-0.0039159204 -0.064410277 0.41700003
-0.002828775 -0.064410277 0.41700003
-0.0017416292 -0.064410277 0.41700003
-0.00065448368 -0.064410277 0.41700003
0.00043266194 -0.064410277 0.41700003
0.0015198075 -0.064410277 0.41700003
0.002606953 -0.064410277 0.41700003
0.0036852399 -0.064255811 0.41600001
0.0047697783 -0.064255811 0.41600001
0.0058543165 -0.064255811 0.41600001
0.0069221756 -0.064101353 0.41500002
0.0080041066 -0.064101353 0.41500002
0.0090641445 -0.063946895 0.41400003
0.010143469 -0.063946895 0.41400003
0.011195685 -0.06379243 0.41300002
0.012272403 -0.06379243 0.41300002
0.013316797 -0.063637972 0.41200003
0.014390907 -0.063637972 0.41200003
0.015465018 -0.063637972 0.41200003
0.016498985 -0.063483506 0.41100001
0.017570486 -0.063483506 0.41100001
0.018641992 -0.063483506 0.41100001
0.01966553 -0.063329048 0.41000003
0.020734426 -0.063329048 0.41000003
0.021803323 -0.063329048 0.41000003
0.022872219 -0.063329048 0.41000003
0.023941115 -0.063329048 0.41000003
0.02494901 -0.063174583 0.40900001
0.026015297 -0.063174583 0.40900001
0.027081588 -0.063174583 0.40900001
0.028147878 -0.063174583 0.40900001
0.029142739 -0.063020125 0.40800002
0.03020642 -0.063020125 0.40800002
0.031270102 -0.063020125 0.40800002
0.032333784 -0.063020125 0.40800002
0.033397466 -0.063020125 0.40800002
0.034461148 -0.063020125 0.40800002
0.035437759 -0.06286566 0.40700001
0.036498833 -0.06286566 0.40700001
0.037559908 -0.06286566 0.40700001
0.038620982 -0.06286566 0.40700001
0.039584558 -0.062711202 0.40600002
0.040643029 -0.062711202 0.40600002
0.041701496 -0.062711202 0.40600002
0.042759962 -0.062711202 0.40600002
0.043710504 -0.062556744 0.40500003
0.044766366 -0.062556744 0.40500003
0.045822226 -0.062556744 0.40500003
0.04676234 -0.062402282 0.40400001
0.047815591 -0.062402282 0.40400001
0.048868846 -0.062402282 0.40400001
0.04979853 -0.06224782 0.40300003
0.050849177 -0.06224782 0.40300003
0.051899824 -0.06224782 0.40300003
0.052819077 -0.062093358 0.40200001
0.053867117 -0.062093358 0.40200001
0.054915156 -0.062093358 0.40200001
0.055823985 -0.061938901 0.40100002
0.056869421 -0.061938901 0.40100002
0.057914853 -0.061938901 0.40100002
0.058813252 -0.061784435 0.40000001
0.059856076 -0.061784435 0.40000001
0.0608989 -0.061784435 0.40000001
0.061786875 -0.061629977 0.39900002
0.062827088 -0.061629977 0.39900002
0.063867308 -0.061629977 0.39900002
0.064744852 -0.061475515 0.39800003
0.065782465 -0.061475515 0.39800003
0.066820078 -0.061475515 0.39800003
0.067687191 -0.061321054 0.39700001
0.068722188 -0.061321054 0.39700001
0.069757201 -0.061321054 0.39700001
0.070792206 -0.061321054 0.39700001
0.07182721 -0.061321054 0.39700001
0.072862215 -0.061321054 0.39700001
0.073711082 -0.061166596 0.39600003
0.074743479 -0.061166596 0.39600003
0.075775877 -0.061166596 0.39600003
0.076808266 -0.061166596 0.39600003
0.077644095 -0.06101213 0.39500001
0.078673884 -0.06101213 0.39500001
0.079703674 -0.06101213 0.39500001
0.080529079 -0.060857672 0.39400002
0.081556261 -0.060857672 0.39400002
0.08258345 -0.060857672 0.39400002
0.083398417 -0.060703207 0.39300001
0.084422998 -0.060703207 0.39300001
0.085447572 -0.060703207 0.39300001
0.086252116 -0.060548749 0.39200002
0.087274089 -0.060548749 0.39200002
0.088296056 -0.060548749 0.39200002
0.089318022 -0.060548749 0.39200002
0.090339996 -0.060548749 0.39200002
0.091361962 -0.060548749 0.39200002
0.092383929 -0.060548749 0.39200002
0.093405895 -0.060548749 0.39200002
0.094186984 -0.060394291 0.39100003
0.09520635 -0.060394291 0.39100003
0.096225709 -0.060394291 0.39100003
0.09699636 -0.060239825 0.39000002
0.09801311 -0.060239825 0.39000002
0.098775953 -0.060085367 0.38900003
0.099790089 -0.060085367 0.38900003
0.10080425 -0.060085367 0.38900003
0.1018184 -0.060085367 0.38900003
0.10256819 -0.059930902 0.38800001
0.10357973 -0.059930902 0.38800001
0.10459127 -0.059930902 0.38800001
0.10533064 -0.059776444 0.38700002
0.10633957 -0.059776444 0.38700002
0.10734851 -0.059776444 0.38700002
0.10835744 -0.059776444 0.38700002
0.10936637 -0.059776444 0.38700002
0.11009009 -0.059621979 0.38600001
0.11109642 -0.059621979 0.38600001
0.11210274 -0.059621979 0.38600001
0.11310907 -0.059621979 0.38600001
0.1141154 -0.059621979 0.38600001
0.11482349 -0.059467521 0.38500002
0.11582721 -0.059467521 0.38500002
0.11683092 -0.059467521 0.38500002
0.11783465 -0.059467521 0.38500002
0.11852968 -0.059313059 0.384
0.1195308 -0.059313059 0.384
0.12053191 -0.059313059 0.384
0.12153303 -0.059313059 0.384
0.12221504 -0.059158597 0.38300002
0.12321355 -0.059158597 0.38300002
0.12421205 -0.059158597 0.38300002
0.12488364 -0.059004139 0.38200003
0.12587954 -0.059004139 0.38200003
0.12687545 -0.059004139 0.38200003
0.12787135 -0.059004139 0.38200003
0.12852988 -0.058849674 0.38100001
0.12952317 -0.058849674 0.38100001
0.13017391 -0.058695216 0.38000003
0.1311646 -0.058695216 0.38000003
0.13215527 -0.058695216 0.38000003
0.13279557 -0.058540754 0.37900001
0.13378364 -0.058540754 0.37900001
0.13477172 -0.058540754 0.37900001
0.13540159 -0.058386292 0.37800002
0.13638707 -0.058386292 0.37800002
0.13737255 -0.058386292 0.37800002
0.13835801 -0.058386292 0.37800002
0.13934349 -0.058386292 0.37800002
0.1399577 -0.058231831 0.377
0.14094058 -0.058231831 0.377
0.14154698 -0.058077373 0.37600002
0.14252724 -0.058077373 0.37600002
0.14312583 -0.057922911 0.37500003
0.14410348 -0.057922911 0.37500003
0.14508112 -0.057922911 0.37500003
0.14566928 -0.057768449 0.37400001
0.14664431 -0.057768449 0.37400001
0.14761937 -0.057768449 0.37400001
0.14859441 -0.057768449 0.37400001
0.14916953 -0.057613987 0.37300003
0.15014197 -0.057613987 0.37300003
0.1511144 -0.057613987 0.37300003
0.15208684 -0.057613987 0.37300003
0.15305927 -0.057613987 0.37300003
0.15403171 -0.057613987 0.37300003
0.15458857 -0.057459526 0.37200001
0.15555841 -0.057459526 0.37200001
0.15652822 -0.057459526 0.37200001
0.15707467 -0.057305068 0.37100002
0.15804189 -0.057305068 0.37100002
0.15900913 -0.057305068 0.37100002
0.15997635 -0.057305068 0.37100002
0.16094357 -0.057305068 0.37100002
0.16191079 -0.057305068 0.37100002
0.16287801 -0.057305068 0.37100002
0.16384523 -0.057305068 0.37100002
0.16481245 -0.057305068 0.37100002
0.16533281 -0.057150602 0.37
0.16629742 -0.057150602 0.37
0.16726205 -0.057150602 0.37
0.167772 -0.056996144 0.36900002
0.168734 -0.056996144 0.36900002
0.169696 -0.056996144 0.36900002
0.17065801 -0.056996144 0.36900002
-0.27750266 -0.075319596 0.49600002
-0.27565268 -0.075167745 0.49500003
-0.27436218 -0.075167745 0.49500003
-0.27307168 -0.075167745 0.49500003
-0.2712321 -0.075015888 0.49400002
-0.26994422 -0.075015888 0.49400002
-0.26811251 -0.074864037 0.49300003
-0.26682726 -0.074864037 0.49300003
-0.26500329 -0.07471218 0.49200001
-0.26372063 -0.07471218 0.49200001
-0.26190457 -0.074560329 0.49100003
-0.2606245 -0.074560329 0.49100003
-0.25881621 -0.074408472 0.49000001
-0.25701317 -0.074256621 0.48900002
-0.25573832 -0.074256621 0.48900002
-0.25446349 -0.074256621 0.48900002
-0.25267085 -0.074104771 0.48800004
-0.25139859 -0.074104771 0.48800004
-0.24961381 -0.073952913 0.48700002
-0.24834414 -0.073952913 0.48700002
-0.24656717 -0.073801063 0.48600003
-0.24530014 -0.073801063 0.48600003
-0.24353099 -0.073649205 0.48500001
-0.24226657 -0.073649205 0.48500001
-0.24100213 -0.073649205 0.48500001
-0.2392434 -0.073497355 0.48400003
-0.23798159 -0.073497355 0.48400003
-0.23671977 -0.073497355 0.48400003
-0.23497145 -0.073345497 0.48300001
-0.23371224 -0.073345497 0.48300001
-0.23245303 -0.073345497 0.48300001
-0.061681069 -0.045708064 0.30100003
-0.061098654 -0.045859918 0.30200002
-0.060710732 -0.046163626 0.30400002
-0.060312379 -0.046467334 0.30600002
-0.059709109 -0.046619188 0.30700001
-0.059292514 -0.046922896 0.30900002
-0.058676206 -0.047074746 0.31
-0.058054689 -0.047226604 0.31100002
-0.057427954 -0.047378458 0.31200001
-0.057768498 -0.049048852 0.32300001
-0.056589656 -0.051022954 0.33600003
-0.056045312 -0.051326666 0.33800003
-0.055327326 -0.051478516 0.33900002
-0.054604128 -0.05163037 0.34
-0.053875726 -0.051782224 0.34100002
-0.05329749 -0.052085932 0.34300002
-0.052556045 -0.052237786 0.34400001
-0.051659215 -0.052237786 0.34400001
-0.050909951 -0.052389644 0.34500003
-0.050155472 -0.052541494 0.34600002
-0.049253426 -0.052541494 0.34600002
-0.048491128 -0.052693348 0.347
-0.047723614 -0.052845202 0.34800002
-0.046816356 -0.052845202 0.34800002
-0.045234956 -0.054211888 0.35700002
-0.044800643 -0.054819308 0.36100003
-0.043988325 -0.056185991 0.37
-0.043372557 -0.056641556 0.37300003
-0.042627469 -0.056945264 0.37500003
-0.041760884 -0.057097115 0.37600002
-0.04078063 -0.057097115 0.37600002
-0.040012076 -0.057400823 0.37800002
-0.039026607 -0.057400823 0.37800002
-0.038242411 -0.057704534 0.38000003
-0.036793098 -0.063778691 0.42000002
-0.035783123 -0.063930549 0.42100003
-0.034685552 -0.063930549 0.42100003
-0.033587977 -0.063930549 0.42100003
-0.032567579 -0.064082399 0.42200002
-0.031541962 -0.064234257 0.42300001
-0.030511137 -0.064386107 0.42400002
-0.029405739 -0.064386107 0.42400002
-0.028300345 -0.064386107 0.42400002
-0.027194951 -0.064386107 0.42400002
-0.026089557 -0.064386107 0.42400002
-0.024984162 -0.064386107 0.42400002
-0.023822447 -0.064234257 0.42300001
-0.022719659 -0.064234257 0.42300001
-0.021616872 -0.064234257 0.42300001
-0.020514082 -0.064234257 0.42300001
-0.019365406 -0.064082399 0.42200002
-0.018265225 -0.064082399 0.42200002
-0.017165044 -0.064082399 0.42200002
-0.016026795 -0.063930549 0.42100003
-0.014929222 -0.063930549 0.42100003
-0.013798794 -0.063778691 0.42000002
-0.012703827 -0.063778691 0.42000002
-0.01160886 -0.063778691 0.42000002
-0.01048886 -0.063626841 0.41900003
-0.0093965009 -0.063626841 0.41900003
-0.0083041405 -0.063626841 0.41900003
-0.0071945684 -0.063474983 0.41800001
-0.0061048162 -0.063474983 0.41800001
-0.0050150636 -0.063474983 0.41800001
-0.0039253109 -0.063474983 0.41800001
-0.0028355585 -0.063474983 0.41800001
-0.0017416292 -0.063323133 0.41700003
-0.00065448368 -0.063323133 0.41700003
0.00043266194 -0.063323133 0.41700003
0.0015198075 -0.063323133 0.41700003
0.002606953 -0.063323133 0.41700003
0.0036940989 -0.063323133 0.41700003
0.0047697783 -0.063171275 0.41600001
0.0058543165 -0.063171275 0.41600001
0.0069221756 -0.063019425 0.41500002
0.0080041066 -0.063019425 0.41500002
0.0090860389 -0.063019425 0.41500002
0.010143469 -0.062867574 0.41400003
0.011195685 -0.062715717 0.41300002
0.012272403 -0.062715717 0.41300002
0.01334912 -0.062715717 0.41300002
0.014390907 -0.062563859 0.41200003
0.015465018 -0.062563859 0.41200003
0.016498985 -0.062412005 0.41100001
0.017570486 -0.062412005 0.41100001
0.018641992 -0.062412005 0.41100001
0.019713493 -0.062412005 0.41100001
0.020784996 -0.062412005 0.41100001
0.021803323 -0.062260155 0.41000003
0.022872219 -0.062260155 0.41000003
0.023941115 -0.062260155 0.41000003
0.02501001 -0.062260155 0.41000003
0.026015297 -0.062108297 0.40900001
0.027081588 -0.062108297 0.40900001
0.028147878 -0.062108297 0.40900001
0.029214166 -0.062108297 0.40900001
0.030280454 -0.062108297 0.40900001
0.031346742 -0.062108297 0.40900001
0.032333784 -0.061956447 0.40800002
0.033397466 -0.061956447 0.40800002
0.034461148 -0.061956447 0.40800002
0.03552483 -0.061956447 0.40800002
0.036498833 -0.061804589 0.40700001
0.037559908 -0.061804589 0.40700001
0.038620982 -0.061804589 0.40700001
0.039682057 -0.061804589 0.40700001
0.040643029 -0.061652735 0.40600002
0.041701496 -0.061652735 0.40600002
0.042759962 -0.061652735 0.40600002
0.043710504 -0.061500885 0.40500003
0.044766366 -0.061500885 0.40500003
0.045822226 -0.061500885 0.40500003
0.04676234 -0.061349027 0.40400001
0.047815591 -0.061349027 0.40400001
0.048868846 -0.061349027 0.40400001
0.04979853 -0.061197177 0.40300003
0.050849177 -0.061197177 0.40300003
0.051899824 -0.061197177 0.40300003
0.052950472 -0.061197177 0.40300003
0.053867117 -0.061045319 0.40200001
0.054915156 -0.061045319 0.40200001
0.055963196 -0.061045319 0.40200001
0.056869421 -0.060893469 0.40100002
0.057914853 -0.060893469 0.40100002
0.058960285 -0.060893469 0.40100002
0.059856076 -0.060741611 0.40000001
0.0608989 -0.060741611 0.40000001
0.061941724 -0.060741611 0.40000001
0.062827088 -0.060589757 0.39900002
0.063867308 -0.060589757 0.39900002
0.064907528 -0.060589757 0.39900002
0.065782465 -0.060437907 0.39800003
0.066820078 -0.060437907 0.39800003
0.06785769 -0.060437907 0.39800003
0.068895295 -0.060437907 0.39800003
0.069757201 -0.060286049 0.39700001
0.070792206 -0.060286049 0.39700001
0.07182721 -0.060286049 0.39700001
0.072862215 -0.060286049 0.39700001
0.073897213 -0.060286049 0.39700001
0.074932218 -0.060286049 0.39700001
0.075775877 -0.060134199 0.39600003
0.076808266 -0.060134199 0.39600003
0.077840663 -0.060134199 0.39600003
0.078673884 -0.059982341 0.39500001
0.079703674 -0.059982341 0.39500001
0.080733463 -0.059982341 0.39500001
0.081556261 -0.05983049 0.39400002
0.08258345 -0.05983049 0.39400002
0.083398417 -0.059678633 0.39300001
0.084422998 -0.059678633 0.39300001
0.085447572 -0.059678633 0.39300001
0.086472146 -0.059678633 0.39300001
0.08749672 -0.059678633 0.39300001
0.088521294 -0.059678633 0.39300001
0.089545876 -0.059678633 0.39300001
0.090339996 -0.059526779 0.39200002
0.091361962 -0.059526779 0.39200002
0.092383929 -0.059526779 0.39200002
0.093405895 -0.059526779 0.39200002
0.094186984 -0.059374928 0.39100003
0.09520635 -0.059374928 0.39100003
0.096225709 -0.059374928 0.39100003
0.09699636 -0.059223071 0.39000002
0.09801311 -0.059223071 0.39000002
0.099029869 -0.059223071 0.39000002
0.099790089 -0.05907122 0.38900003
0.10080425 -0.05907122 0.38900003
0.1018184 -0.05907122 0.38900003
0.10256819 -0.058919363 0.38800001
0.10357973 -0.058919363 0.38800001
0.10459127 -0.058919363 0.38800001
0.10560281 -0.058919363 0.38800001
0.10633957 -0.058767512 0.38700002
0.10734851 -0.058767512 0.38700002
0.10835744 -0.058767512 0.38700002
0.10936637 -0.058767512 0.38700002
0.1103753 -0.058767512 0.38700002
0.11138424 -0.058767512 0.38700002
0.11239317 -0.058767512 0.38700002
0.11310907 -0.058615655 0.38600001
0.1141154 -0.058615655 0.38600001
0.11512172 -0.058615655 0.38600001
0.11612806 -0.058615655 0.38600001
0.11683092 -0.058463801 0.38500002
0.11783465 -0.058463801 0.38500002
0.11883836 -0.058463801 0.38500002
0.11984209 -0.058463801 0.38500002
0.12053191 -0.058311947 0.384
0.12153303 -0.058311947 0.384
0.12253413 -0.058311947 0.384
0.12321355 -0.058160093 0.38300002
0.12421205 -0.058160093 0.38300002
0.12521055 -0.058160093 0.38300002
0.12587954 -0.058008242 0.38200003
0.12687545 -0.058008242 0.38200003
0.12787135 -0.058008242 0.38200003
0.12886724 -0.058008242 0.38200003
0.12952317 -0.057856385 0.38100001
0.13051647 -0.057856385 0.38100001
0.1311646 -0.057704534 0.38000003
0.13215527 -0.057704534 0.38000003
0.13279557 -0.057552677 0.37900001
0.13378364 -0.057552677 0.37900001
0.13477172 -0.057552677 0.37900001
0.13540159 -0.057400823 0.37800002
0.13638707 -0.057400823 0.37800002
0.13737255 -0.057400823 0.37800002
0.13835801 -0.057400823 0.37800002
0.13897485 -0.057248969 0.377
0.1399577 -0.057248969 0.377
0.14094058 -0.057248969 0.377
0.14192343 -0.057248969 0.377
0.14252724 -0.057097115 0.37600002
0.1435075 -0.057097115 0.37600002
0.14410348 -0.056945264 0.37500003
0.14508112 -0.056945264 0.37500003
0.14605878 -0.056945264 0.37500003
0.14664431 -0.056793407 0.37400001
0.14761937 -0.056793407 0.37400001
0.14859441 -0.056793407 0.37400001
0.14956945 -0.056793407 0.37400001
0.15014197 -0.056641556 0.37300003
0.1511144 -0.056641556 0.37300003
0.15208684 -0.056641556 0.37300003
0.15305927 -0.056641556 0.37300003
0.15403171 -0.056641556 0.37300003
0.15500414 -0.056641556 0.37300003
0.15555841 -0.056489699 0.37200001
0.15652822 -0.056489699 0.37200001
0.15749806 -0.056489699 0.37200001
0.15804189 -0.056337845 0.37100002
0.15900913 -0.056337845 0.37100002
0.15997635 -0.056337845 0.37100002
0.16094357 -0.056337845 0.37100002
0.16191079 -0.056337845 0.37100002
0.16287801 -0.056337845 0.37100002
0.16384523 -0.056337845 0.37100002
0.16481245 -0.056337845 0.37100002
0.16533281 -0.056185991 0.37
0.16629742 -0.056185991 0.37
0.16726205 -0.056185991 0.37
0.167772 -0.056034137 0.36900002
0.168734 -0.056034137 0.36900002
0.169696 -0.056034137 0.36900002
0.17065801 -0.056034137 0.36900002
-0.27750266 -0.074026488 0.49600002
-0.27620953 -0.074026488 0.49600002
-0.27436218 -0.073877245 0.49500003
-0.27307168 -0.073877245 0.49500003
-0.27178118 -0.073877245 0.49500003
-0.26994422 -0.073727995 0.49400002
-0.26811251 -0.073578753 0.49300003
-0.26682726 -0.073578753 0.49300003
-0.26554194 -0.073578753 0.49300003
-0.26372063 -0.073429503 0.49200001
-0.26190457 -0.073280253 0.49100003
-0.2606245 -0.073280253 0.49100003
-0.25881621 -0.073131002 0.49000001
-0.25753877 -0.073131002 0.49000001
-0.25573832 -0.07298176 0.48900002
-0.25446349 -0.07298176 0.48900002
-0.25267085 -0.072832517 0.48800004
-0.25139859 -0.072832517 0.48800004
-0.25012636 -0.072832517 0.48800004
-0.24834414 -0.072683267 0.48700002
-0.24656717 -0.072534017 0.48600003
-0.24530014 -0.072534017 0.48600003
-0.24403313 -0.072534017 0.48600003
-0.24226657 -0.072384767 0.48500001
-0.24100213 -0.072384767 0.48500001
-0.2392434 -0.072235525 0.48400003
-0.23798159 -0.072235525 0.48400003
-0.23671977 -0.072235525 0.48400003
-0.23545794 -0.072235525 0.48400003
-0.23419613 -0.072235525 0.48400003
-0.23245303 -0.072086275 0.48300001
-0.22993462 -0.072086275 0.48300001
-0.2286754 -0.072086275 0.48300001
-0.062258262 -0.044774085 0.30000001
-0.061885986 -0.045072582 0.30200002
-0.06150328 -0.045371074 0.30400002
-0.060910437 -0.045520321 0.30500001
-0.060706582 -0.045968063 0.30800003
-0.060098093 -0.046117309 0.30900002
-0.059484396 -0.046266552 0.31
-0.058865488 -0.046415802 0.31100002
-0.05824136 -0.046565048 0.31200001
-0.058515236 -0.050296221 0.33700001
-0.057807688 -0.050445471 0.33800003
-0.05709492 -0.050594717 0.33900002
-0.056211125 -0.050594717 0.33900002
-0.055490531 -0.050743964 0.34
-0.054764733 -0.05089321 0.34100002
-0.054033715 -0.051042456 0.34200001
-0.053452872 -0.051340953 0.34400001
-0.052708827 -0.051490199 0.34500003
-0.051809389 -0.051490199 0.34500003
-0.051057514 -0.051639445 0.34600002
-0.050155472 -0.051639445 0.34600002
-0.049395777 -0.051788691 0.347
-0.048491128 -0.051788691 0.347
-0.042627469 -0.05596761 0.37500003
-0.041760884 -0.056116853 0.37600002
-0.040889088 -0.056266099 0.377
-0.040012076 -0.056415349 0.37800002
-0.039026607 -0.056415349 0.37800002
-0.039354298 -0.063280709 0.42400002
-0.038248904 -0.063280709 0.42400002
-0.037143506 -0.063280709 0.42400002
-0.036038112 -0.063280709 0.42400002
-0.034932714 -0.063280709 0.42400002
-0.03382732 -0.063280709 0.42400002
-0.032721926 -0.063280709 0.42400002
-0.031691097 -0.063429952 0.42500001
-0.030583097 -0.063429952 0.42500001
-0.029475093 -0.063429952 0.42500001
-0.028367091 -0.063429952 0.42500001
-0.027259089 -0.063429952 0.42500001
-0.026089557 -0.063280709 0.42400002
-0.024984162 -0.063280709 0.42400002
-0.023878766 -0.063280709 0.42400002
-0.022719659 -0.063131459 0.42300001
-0.021616872 -0.063131459 0.42300001
-0.020514082 -0.063131459 0.42300001
-0.019365406 -0.062982216 0.42200002
-0.018265225 -0.062982216 0.42200002
-0.017165044 -0.062982216 0.42200002
-0.016064864 -0.062982216 0.42200002
-0.014929222 -0.062832966 0.42100003
-0.013831649 -0.062832966 0.42100003
-0.012703827 -0.062683716 0.42000002
-0.01160886 -0.062683716 0.42000002
-0.010513892 -0.062683716 0.42000002
-0.0093965009 -0.062534474 0.41900003
-0.0083041405 -0.062534474 0.41900003
-0.0072117806 -0.062534474 0.41900003
-0.0061048162 -0.062385224 0.41800001
-0.0050150636 -0.062385224 0.41800001
-0.0039253109 -0.062385224 0.41800001
-0.0028355585 -0.062385224 0.41800001
-0.0017458057 -0.062385224 0.41800001
-0.00065448368 -0.062235981 0.41700003
0.00043266194 -0.062235981 0.41700003
0.0015198075 -0.062235981 0.41700003
0.002606953 -0.062235981 0.41700003
0.0036940989 -0.062235981 0.41700003
0.0047697783 -0.062086731 0.41600001
0.0058543165 -0.062086731 0.41600001
0.0069388556 -0.062086731 0.41600001
0.0080041066 -0.061937485 0.41500002
0.0090860389 -0.061937485 0.41500002
0.010143469 -0.061788242 0.41400003
0.011195685 -0.061638992 0.41300002
0.012272403 -0.061638992 0.41300002
0.01334912 -0.061638992 0.41300002
0.014425836 -0.061638992 0.41300002
0.015465018 -0.061489746 0.41200003
0.016539128 -0.061489746 0.41200003
0.017570486 -0.061340496 0.41100001
0.018641992 -0.061340496 0.41100001
0.019713493 -0.061340496 0.41100001
0.020784996 -0.061340496 0.41100001
0.021803323 -0.061191253 0.41000003
0.022872219 -0.061191253 0.41000003
0.023941115 -0.061191253 0.41000003
0.02501001 -0.061191253 0.41000003
0.026078906 -0.061191253 0.41000003
0.027081588 -0.061042003 0.40900001
0.028147878 -0.061042003 0.40900001
0.029214166 -0.061042003 0.40900001
0.030280454 -0.061042003 0.40900001
0.031346742 -0.061042003 0.40900001
0.032413032 -0.061042003 0.40900001
0.033397466 -0.060892757 0.40800002
0.034461148 -0.060892757 0.40800002
0.03552483 -0.060892757 0.40800002
0.036588512 -0.060892757 0.40800002
0.037559908 -0.060743507 0.40700001
0.038620982 -0.060743507 0.40700001
0.039682057 -0.060743507 0.40700001
0.040743135 -0.060743507 0.40700001
0.041701496 -0.060594264 0.40600002
0.042759962 -0.060594264 0.40600002
0.043818433 -0.060594264 0.40600002
0.044766366 -0.060445018 0.40500003
0.045822226 -0.060445018 0.40500003
0.046878088 -0.060445018 0.40500003
0.047815591 -0.060295768 0.40400001
0.048868846 -0.060295768 0.40400001
0.049922097 -0.060295768 0.40400001
0.050849177 -0.060146522 0.40300003
0.051899824 -0.060146522 0.40300003
0.052950472 -0.060146522 0.40300003
0.054001115 -0.060146522 0.40300003
0.054915156 -0.059997275 0.40200001
0.055963196 -0.059997275 0.40200001
0.056869421 -0.059848029 0.40100002
0.057914853 -0.059848029 0.40100002
0.058960285 -0.059848029 0.40100002
0.060005717 -0.059848029 0.40100002
0.0608989 -0.059698779 0.40000001
0.061941724 -0.059698779 0.40000001
0.062984549 -0.059698779 0.40000001
0.063867308 -0.059549533 0.39900002
0.064907528 -0.059549533 0.39900002
0.065947749 -0.059549533 0.39900002
0.066820078 -0.05940029 0.39800003
0.06785769 -0.05940029 0.39800003
0.068895295 -0.05940029 0.39800003
0.069932915 -0.05940029 0.39800003
0.070970528 -0.05940029 0.39800003
0.07182721 -0.05925104 0.39700001
0.072862215 -0.05925104 0.39700001
0.073897213 -0.05925104 0.39700001
0.074932218 -0.05925104 0.39700001
0.075775877 -0.059101794 0.39600003
0.076808266 -0.059101794 0.39600003
0.077840663 -0.059101794 0.39600003
0.078673884 -0.058952544 0.39500001
0.079703674 -0.058952544 0.39500001
0.080733463 -0.058952544 0.39500001
0.081556261 -0.058803301 0.39400002
0.08258345 -0.058803301 0.39400002
0.083610632 -0.058803301 0.39400002
0.084422998 -0.058654051 0.39300001
0.085447572 -0.058654051 0.39300001
0.086472146 -0.058654051 0.39300001
0.08749672 -0.058654051 0.39300001
0.088521294 -0.058654051 0.39300001
0.089545876 -0.058654051 0.39300001
0.09057045 -0.058654051 0.39300001
0.091595024 -0.058654051 0.39300001
0.092383929 -0.058504805 0.39200002
0.093405895 -0.058504805 0.39200002
0.094427869 -0.058504805 0.39200002
0.09520635 -0.058355562 0.39100003
0.096225709 -0.058355562 0.39100003
0.097245075 -0.058355562 0.39100003
0.09801311 -0.058206312 0.39000002
0.099029869 -0.058206312 0.39000002
0.099790089 -0.058057066 0.38900003
0.10080425 -0.058057066 0.38900003
0.1018184 -0.058057066 0.38900003
0.10283254 -0.058057066 0.38900003
0.10357973 -0.057907816 0.38800001
0.10459127 -0.057907816 0.38800001
0.10560281 -0.057907816 0.38800001
0.10633957 -0.057758573 0.38700002
0.10734851 -0.057758573 0.38700002
0.10835744 -0.057758573 0.38700002
0.10936637 -0.057758573 0.38700002
0.1103753 -0.057758573 0.38700002
0.11138424 -0.057758573 0.38700002
0.11239317 -0.057758573 0.38700002
0.11340211 -0.057758573 0.38700002
0.11441105 -0.057758573 0.38700002
0.11512172 -0.057609323 0.38600001
0.11612806 -0.057609323 0.38600001
0.11713438 -0.057609323 0.38600001
0.11783465 -0.057460077 0.38500002
0.11883836 -0.057460077 0.38500002
0.11984209 -0.057460077 0.38500002
0.12053191 -0.057310827 0.384
0.12153303 -0.057310827 0.384
0.12253413 -0.057310827 0.384
0.12321355 -0.057161584 0.38300002
0.12421205 -0.057161584 0.38300002
0.12521055 -0.057161584 0.38300002
0.12620907 -0.057161584 0.38300002
0.12687545 -0.057012338 0.38200003
0.12787135 -0.057012338 0.38200003
0.12886724 -0.057012338 0.38200003
0.12952317 -0.056863088 0.38100001
0.13051647 -0.056863088 0.38100001
0.1311646 -0.056713842 0.38000003
0.13215527 -0.056713842 0.38000003
0.13314596 -0.056713842 0.38000003
0.13378364 -0.056564596 0.37900001
0.13477172 -0.056564596 0.37900001
0.1357598 -0.056564596 0.37900001
0.13638707 -0.056415349 0.37800002
0.13737255 -0.056415349 0.37800002
0.13835801 -0.056415349 0.37800002
0.13934349 -0.056415349 0.37800002
0.1399577 -0.056266099 0.377
0.14094058 -0.056266099 0.377
0.14192343 -0.056266099 0.377
0.14252724 -0.056116853 0.37600002
0.1435075 -0.056116853 0.37600002
0.14448775 -0.056116853 0.37600002
0.14508112 -0.05596761 0.37500003
0.14605878 -0.05596761 0.37500003
0.14703642 -0.05596761 0.37500003
0.14761937 -0.05581836 0.37400001
0.14859441 -0.05581836 0.37400001
0.14956945 -0.05581836 0.37400001
0.15054449 -0.05581836 0.37400001
0.1511144 -0.055669114 0.37300003
0.15208684 -0.055669114 0.37300003
0.15305927 -0.055669114 0.37300003
0.15403171 -0.055669114 0.37300003
0.15500414 -0.055669114 0.37300003
0.15555841 -0.055519864 0.37200001
0.15652822 -0.055519864 0.37200001
0.15749806 -0.055519864 0.37200001
0.15804189 -0.055370621 0.37100002
0.15900913 -0.055370621 0.37100002
0.15997635 -0.055370621 0.37100002
0.16094357 -0.055370621 0.37100002
0.16191079 -0.055370621 0.37100002
0.16287801 -0.055370621 0.37100002
0.16384523 -0.055370621 0.37100002
0.1643682 -0.055221371 0.37
0.16533281 -0.055221371 0.37
0.16629742 -0.055221371 0.37
0.16726205 -0.055221371 0.37
0.16822664 -0.055221371 0.37
0.168734 -0.055072125 0.36900002
0.169696 -0.055072125 0.36900002
0.17065801 -0.055072125 0.36900002
-0.27806213 -0.072880022 0.49700001
-0.27620953 -0.072733387 0.49600002
-0.27491644 -0.072733387 0.49600002
-0.27307168 -0.072586745 0.49500003
-0.27178118 -0.072586745 0.49500003
-0.26994422 -0.072440103 0.49400002
-0.26865634 -0.072440103 0.49400002
-0.26682726 -0.072293468 0.49300003
-0.26554194 -0.072293468 0.49300003
-0.26372063 -0.072146825 0.49200001
-0.26190457 -0.072000183 0.49100003
-0.2606245 -0.072000183 0.49100003
-0.25934443 -0.072000183 0.49100003
-0.25753877 -0.071853541 0.49000001
-0.25573832 -0.071706906 0.48900002
-0.25446349 -0.071706906 0.48900002
