# .PCD v0.7 - Point Cloud Data file format
VERSION 0.7
FIELDS x y z
SIZE 4 4 4
TYPE F F F
COUNT 1 1 1
WIDTH 1338
HEIGHT 1
VIEWPOINT 0 0 0 1 0 0 0
POINTS 1338
DATA ascii
0.048351187 -0.020458598 0.48300001
0.049610399 -0.020458598 0.48300001
0.05086961 -0.020458598 0.48300001
0.052128822 -0.020458598 0.48300001
0.053388033 -0.020458598 0.48300001
0.054647245 -0.020458598 0.48300001
0.05590646 -0.020458598 0.48300001
0.057165671 -0.020458598 0.48300001
0.058424883 -0.020458598 0.48300001
0.059684094 -0.020458598 0.48300001
0.060943305 -0.020458598 0.48300001
0.062202517 -0.020458598 0.48300001
0.063461728 -0.020458598 0.48300001
0.064854935 -0.020500956 0.48400003
0.066116758 -0.020500956 0.48400003
0.067378573 -0.020500956 0.48400003
0.068498582 -0.020458598 0.48300001
0.069757789 -0.020458598 0.48300001
0.071017005 -0.020458598 0.48300001
0.072276212 -0.020458598 0.48300001
0.07353542 -0.020458598 0.48300001
0.074794635 -0.020458598 0.48300001
0.076053843 -0.020458598 0.48300001
0.077313058 -0.020458598 0.48300001
0.078572266 -0.020458598 0.48300001
0.079831481 -0.020458598 0.48300001
0.081090689 -0.020458598 0.48300001
0.082349904 -0.020458598 0.48300001
0.083609112 -0.020458598 0.48300001
0.084868334 -0.020458598 0.48300001
0.086127542 -0.020458598 0.48300001
0.087205835 -0.020416241 0.48200002
0.088278905 -0.020373885 0.48100004
0.089532904 -0.020373885 0.48100004
0.090598151 -0.020331526 0.48000002
0.091849543 -0.020331526 0.48000002
0.092906974 -0.02028917 0.47900003
0.094155759 -0.02028917 0.47900003
0.095205359 -0.020246811 0.47800002
0.096451536 -0.020246811 0.47800002
0.097902104 -0.02028917 0.47900003
0.099357881 -0.020331526 0.48000002
0.10060928 -0.020331526 0.48000002
0.10186066 -0.020331526 0.48000002
0.10311206 -0.020331526 0.48000002
0.094917752 -0.014359141 0.33900002
0.095801555 -0.014359141 0.33900002
0.096400134 -0.014316783 0.33800003
0.097281329 -0.014316783 0.33800003
0.09816251 -0.014316783 0.33800003
0.098750673 -0.014274426 0.33700001
0.099629253 -0.014274426 0.33700001
0.10050783 -0.014274426 0.33700001
0.10138641 -0.014274426 0.33700001
0.10226499 -0.014274426 0.33700001
0.10314357 -0.014274426 0.33700001
0.10402215 -0.014274426 0.33700001
0.10490073 -0.014274426 0.33700001
0.10577931 -0.014274426 0.33700001
0.10665789 -0.014274426 0.33700001
0.10753647 -0.014274426 0.33700001
0.10841505 -0.014274426 0.33700001
0.1106504 -0.013893209 0.32800001
0.11116557 -0.013850853 0.32700002
0.1116755 -0.013808494 0.32600001
0.11218024 -0.013766138 0.32500002
0.11267975 -0.013723779 0.324
0.11308024 -0.013469636 0.31800002
0.11319286 -0.013384921 0.31600001
0.11329508 -0.013300207 0.31400001
0.11375029 -0.01325785 0.31300002
0.11456629 -0.01325785 0.31300002
0.11501367 -0.013215492 0.31200001
0.11545583 -0.013173135 0.31100002
0.11589278 -0.013130777 0.31
0.11670096 -0.013130777 0.31
0.1171301 -0.01308842 0.30900002
0.11755401 -0.013046063 0.30800003
0.118357 -0.013046063 0.30800003
0.11915996 -0.013046063 0.30800003
0.11996295 -0.013046063 0.30800003
0.12076592 -0.013046063 0.30800003
0.1215689 -0.013046063 0.30800003
0.12276918 -0.01308842 0.30900002
0.12357476 -0.01308842 0.30900002
0.12438034 -0.01308842 0.30900002
0.12518592 -0.01308842 0.30900002
0.12639925 -0.013130777 0.31
0.12720743 -0.013130777 0.31
0.12801562 -0.013130777 0.31
0.1288238 -0.013130777 0.31
0.129632 -0.013130777 0.31
0.13044019 -0.013130777 0.31
0.130825 -0.01308842 0.30900002
0.13163058 -0.01308842 0.30900002
0.13243617 -0.01308842 0.30900002
0.13324176 -0.01308842 0.30900002
0.13404733 -0.01308842 0.30900002
0.13485292 -0.01308842 0.30900002
0.1356585 -0.01308842 0.30900002
0.13646409 -0.01308842 0.30900002
0.13726966 -0.01308842 0.30900002
0.13807525 -0.01308842 0.30900002
0.13888082 -0.01308842 0.30900002
-0.26924026 -0.019040387 0.47900003
-0.26799148 -0.019040387 0.47900003
-0.26674268 -0.019040387 0.47900003
-0.2654939 -0.019040387 0.47900003
-0.26424512 -0.019040387 0.47900003
-0.26299632 -0.019040387 0.47900003
-0.26174754 -0.019040387 0.47900003
-0.26049876 -0.019040387 0.47900003
-0.25924999 -0.019040387 0.47900003
-0.25800118 -0.019040387 0.47900003
-0.25675243 -0.019040387 0.47900003
-0.25550365 -0.019040387 0.47900003
-0.25425488 -0.019040387 0.47900003
-0.25300607 -0.019040387 0.47900003
-0.25175729 -0.019040387 0.47900003
-0.25050852 -0.019040387 0.47900003
-0.24925974 -0.019040387 0.47900003
-0.24801093 -0.019040387 0.47900003
-0.24676216 -0.019040387 0.47900003
-0.24551338 -0.019040387 0.47900003
-0.24426457 -0.019040387 0.47900003
-0.2430158 -0.019040387 0.47900003
-0.24176702 -0.019040387 0.47900003
-0.24051824 -0.019040387 0.47900003
-0.23926945 -0.019040387 0.47900003
-0.23802066 -0.019040387 0.47900003
-0.2367719 -0.019040387 0.47900003
-0.2355231 -0.019040387 0.47900003
-0.23427433 -0.019040387 0.47900003
-0.23302554 -0.019040387 0.47900003
-0.23129286 -0.019000635 0.47800002
-0.23004669 -0.019000635 0.47800002
-0.22880051 -0.019000635 0.47800002
-0.22755434 -0.019000635 0.47800002
-0.22678161 -0.019040387 0.47900003
-0.22553283 -0.019040387 0.47900003
-0.22428404 -0.019040387 0.47900003
-0.22303528 -0.019040387 0.47900003
-0.22178648 -0.019040387 0.47900003
-0.22099811 -0.019080136 0.48000002
-0.21974671 -0.019080136 0.48000002
-0.21849532 -0.019080136 0.48000002
-0.21724394 -0.019080136 0.48000002
-0.21599254 -0.019080136 0.48000002
-0.21474116 -0.019080136 0.48000002
-0.21348976 -0.019080136 0.48000002
-0.21223837 -0.019080136 0.48000002
-0.21098697 -0.019080136 0.48000002
-0.20973559 -0.019080136 0.48000002
-0.2084842 -0.019080136 0.48000002
-0.20723282 -0.019080136 0.48000002
-0.20598142 -0.019080136 0.48000002
-0.20473003 -0.019080136 0.48000002
-0.20347863 -0.019080136 0.48000002
-0.20222725 -0.019080136 0.48000002
-0.20097585 -0.019080136 0.48000002
-0.19972445 -0.019080136 0.48000002
-0.19847308 -0.019080136 0.48000002
-0.19722168 -0.019080136 0.48000002
-0.1959703 -0.019080136 0.48000002
-0.1947189 -0.019080136 0.48000002
-0.19346751 -0.019080136 0.48000002
-0.19221611 -0.019080136 0.48000002
-0.19096473 -0.019080136 0.48000002
-0.18971334 -0.019080136 0.48000002
-0.18846196 -0.019080136 0.48000002
-0.18721056 -0.019080136 0.48000002
-0.18595918 -0.019080136 0.48000002
-0.18470778 -0.019080136 0.48000002
-0.18383859 -0.019119887 0.48100004
-0.1825846 -0.019119887 0.48100004
-0.18133059 -0.019119887 0.48100004
-0.1800766 -0.019119887 0.48100004
-0.17882259 -0.019119887 0.48100004
-0.17756861 -0.019119887 0.48100004
-0.17631461 -0.019119887 0.48100004
-0.17506061 -0.019119887 0.48100004
-0.17344525 -0.019080136 0.48000002
-0.17219387 -0.019080136 0.48000002
-0.17094249 -0.019080136 0.48000002
-0.1696911 -0.019080136 0.48000002
-0.1684397 -0.019080136 0.48000002
-0.1671883 -0.019080136 0.48000002
-0.16593692 -0.019080136 0.48000002
-0.16468552 -0.019080136 0.48000002
-0.16343413 -0.019080136 0.48000002
-0.16218275 -0.019080136 0.48000002
-0.16093136 -0.019080136 0.48000002
-0.15967996 -0.019080136 0.48000002
-0.15842858 -0.019080136 0.48000002
-0.15717718 -0.019080136 0.48000002
-0.1559258 -0.019080136 0.48000002
-0.1546744 -0.019080136 0.48000002
-0.15342303 -0.019080136 0.48000002
-0.15217163 -0.019080136 0.48000002
-0.15092023 -0.019080136 0.48000002
-0.14966884 -0.019080136 0.48000002
-0.14841744 -0.019080136 0.48000002
-0.14716606 -0.019080136 0.48000002
-0.14591466 -0.019080136 0.48000002
-0.14496467 -0.019119887 0.48100004
-0.14371066 -0.019119887 0.48100004
-0.14245668 -0.019119887 0.48100004
-0.14120267 -0.019119887 0.48100004
-0.13994868 -0.019119887 0.48100004
-0.13869467 -0.019119887 0.48100004
-0.13744068 -0.019119887 0.48100004
-0.13618669 -0.019119887 0.48100004
-0.13493268 -0.019119887 0.48100004
-0.13367869 -0.019119887 0.48100004
-0.13242468 -0.019119887 0.48100004
-0.13117069 -0.019119887 0.48100004
-0.12991668 -0.019119887 0.48100004
-0.12866271 -0.019119887 0.48100004
-0.1274087 -0.019119887 0.48100004
-0.12589243 -0.019080136 0.48000002
-0.12464103 -0.019080136 0.48000002
-0.12338965 -0.019080136 0.48000002
-0.12213825 -0.019080136 0.48000002
-0.12088686 -0.019080136 0.48000002
-0.11963547 -0.019080136 0.48000002
-0.11838408 -0.019080136 0.48000002
-0.11713269 -0.019080136 0.48000002
-0.11588129 -0.019080136 0.48000002
-0.11462991 -0.019080136 0.48000002
-0.11337852 -0.019080136 0.48000002
-0.11212713 -0.019080136 0.48000002
-0.11087573 -0.019080136 0.48000002
-0.10962434 -0.019080136 0.48000002
-0.10837295 -0.019080136 0.48000002
-0.10712156 -0.019080136 0.48000002
-0.10587017 -0.019080136 0.48000002
-0.10461878 -0.019080136 0.48000002
-0.10336739 -0.019080136 0.48000002
-0.102116 -0.019080136 0.48000002
-0.10086461 -0.019080136 0.48000002
-0.099613219 -0.019080136 0.48000002
-0.098361827 -0.019080136 0.48000002
-0.097312756 -0.019119887 0.48100004
-0.096058756 -0.019119887 0.48100004
-0.094804756 -0.019119887 0.48100004
-0.093550757 -0.019119887 0.48100004
-0.092296764 -0.019119887 0.48100004
-0.091042764 -0.019119887 0.48100004
-0.089788765 -0.019119887 0.48100004
-0.088534772 -0.019119887 0.48100004
-0.087462224 -0.019159637 0.48200002
-0.086205624 -0.019159637 0.48200002
-0.084949017 -0.019159637 0.48200002
-0.083692417 -0.019159637 0.48200002
-0.082435809 -0.019159637 0.48200002
-0.081179209 -0.019159637 0.48200002
-0.079922602 -0.019159637 0.48200002
-0.078502782 -0.019119887 0.48100004
-0.077248789 -0.019119887 0.48100004
-0.07599479 -0.019119887 0.48100004
-0.074740797 -0.019119887 0.48100004
-0.073486798 -0.019119887 0.48100004
-0.072232798 -0.019119887 0.48100004
-0.070978805 -0.019119887 0.48100004
-0.069724806 -0.019119887 0.48100004
-0.068470806 -0.019119887 0.48100004
-0.067216814 -0.019119887 0.48100004
-0.065962814 -0.019119887 0.48100004
-0.064708814 -0.019119887 0.48100004
-0.063454822 -0.019119887 0.48100004
-0.062200814 -0.019119887 0.48100004
-0.060946818 -0.019119887 0.48100004
-0.059692826 -0.019119887 0.48100004
-0.058438826 -0.019119887 0.48100004
-0.057184827 -0.019119887 0.48100004
-0.055930831 -0.019119887 0.48100004
-0.054676831 -0.019119887 0.48100004
-0.053422835 -0.019119887 0.48100004
-0.052168839 -0.019119887 0.48100004
-0.050914843 -0.019119887 0.48100004
-0.049660839 -0.019119887 0.48100004
-0.048406843 -0.019119887 0.48100004
-0.047152847 -0.019119887 0.48100004
-0.045898847 -0.019119887 0.48100004
-0.044644851 -0.019119887 0.48100004
-0.043390855 -0.019119887 0.48100004
-0.042136859 -0.019119887 0.48100004
-0.040882856 -0.019119887 0.48100004
-0.03962886 -0.019119887 0.48100004
-0.038374864 -0.019119887 0.48100004
-0.037120864 -0.019119887 0.48100004
-0.035866868 -0.019119887 0.48100004
-0.034612872 -0.019119887 0.48100004
-0.033358872 -0.019119887 0.48100004
-0.032104872 -0.019119887 0.48100004
-0.030850876 -0.019119887 0.48100004
-0.029596878 -0.019119887 0.48100004
-0.028342882 -0.019119887 0.48100004
-0.027088882 -0.019119887 0.48100004
-0.025834886 -0.019119887 0.48100004
-0.024580888 -0.019119887 0.48100004
-0.023326891 -0.019119887 0.48100004
-0.022118781 -0.019159637 0.48200002
-0.020862177 -0.019159637 0.48200002
-0.019605571 -0.019159637 0.48200002
-0.018310899 -0.019119887 0.48100004
-0.017056903 -0.019119887 0.48100004
-0.015802905 -0.019119887 0.48100004
-0.014548906 -0.019119887 0.48100004
-0.013294909 -0.019119887 0.48100004
-0.012040911 -0.019119887 0.48100004
-0.010786914 -0.019119887 0.48100004
-0.0095329154 -0.019119887 0.48100004
-0.0082789175 -0.019119887 0.48100004
-0.0070249201 -0.019119887 0.48100004
-0.0057709226 -0.019119887 0.48100004
-0.0045169252 -0.019119887 0.48100004
-0.0032629275 -0.019119887 0.48100004
-0.0020089296 -0.019119887 0.48100004
-0.000754932 -0.019119887 0.48100004
0.00049906567 -0.019119887 0.48100004
0.001756708 -0.019159637 0.48200002
0.0030133126 -0.019159637 0.48200002
0.0042699175 -0.019159637 0.48200002
0.0055265222 -0.019159637 0.48200002
0.0067831269 -0.019159637 0.48200002
0.0080397315 -0.019159637 0.48200002
0.0092963362 -0.019159637 0.48200002
0.010552941 -0.019159637 0.48200002
0.011809547 -0.019159637 0.48200002
0.01306615 -0.019159637 0.48200002
0.014322755 -0.019159637 0.48200002
0.01557936 -0.019159637 0.48200002
0.016835963 -0.019159637 0.48200002
0.018130105 -0.019199386 0.48300001
0.019389316 -0.019199386 0.48300001
0.020648528 -0.019199386 0.48300001
0.021907741 -0.019199386 0.48300001
0.023166953 -0.019199386 0.48300001
0.024426164 -0.019199386 0.48300001
0.025685376 -0.019199386 0.48300001
0.026944587 -0.019199386 0.48300001
0.028203798 -0.019199386 0.48300001
0.029463012 -0.019199386 0.48300001
0.030722221 -0.019199386 0.48300001
0.031981435 -0.019199386 0.48300001
0.033240646 -0.019199386 0.48300001
0.034499858 -0.019199386 0.48300001
0.035759069 -0.019199386 0.48300001
0.03701828 -0.019199386 0.48300001
0.038277492 -0.019199386 0.48300001
0.039536707 -0.019199386 0.48300001
0.040795919 -0.019199386 0.48300001
0.04205513 -0.019199386 0.48300001
0.043314341 -0.019199386 0.48300001
0.044573553 -0.019199386 0.48300001
0.045832764 -0.019199386 0.48300001
0.047091972 -0.019199386 0.48300001
0.048351187 -0.019199386 0.48300001
0.049610399 -0.019199386 0.48300001
0.05086961 -0.019199386 0.48300001
0.052128822 -0.019199386 0.48300001
0.053388033 -0.019199386 0.48300001
0.054647245 -0.019199386 0.48300001
0.05590646 -0.019199386 0.48300001
0.057165671 -0.019199386 0.48300001
0.058424883 -0.019199386 0.48300001
0.059684094 -0.019199386 0.48300001
0.060943305 -0.019199386 0.48300001
0.062202517 -0.019199386 0.48300001
0.063461728 -0.019199386 0.48300001
0.064854935 -0.019239137 0.48400003
0.066116758 -0.019239137 0.48400003
0.067378573 -0.019239137 0.48400003
0.068498582 -0.019199386 0.48300001
0.069757789 -0.019199386 0.48300001
0.071017005 -0.019199386 0.48300001
0.072276212 -0.019199386 0.48300001
0.07353542 -0.019199386 0.48300001
0.074794635 -0.019199386 0.48300001
0.076053843 -0.019199386 0.48300001
0.077313058 -0.019199386 0.48300001
0.078572266 -0.019199386 0.48300001
0.079831481 -0.019199386 0.48300001
0.081090689 -0.019199386 0.48300001
0.082349904 -0.019199386 0.48300001
0.083609112 -0.019199386 0.48300001
0.084868334 -0.019199386 0.48300001
0.086127542 -0.019199386 0.48300001
0.087205835 -0.019159637 0.48200002
0.088278905 -0.019119887 0.48100004
0.089532904 -0.019119887 0.48100004
0.090786897 -0.019119887 0.48100004
0.091849543 -0.019080136 0.48000002
0.093100928 -0.019080136 0.48000002
0.094155759 -0.019040387 0.47900003
0.095404536 -0.019040387 0.47900003
0.09665332 -0.019040387 0.47900003
0.098106489 -0.019080136 0.48000002
0.099357881 -0.019080136 0.48000002
0.10081889 -0.019119887 0.48100004
0.10186066 -0.019080136 0.48000002
0.10332688 -0.019119887 0.48100004
0.094033964 -0.013475346 0.33900002
0.094917752 -0.013475346 0.33900002
0.095518954 -0.013435597 0.33800003
0.096400134 -0.013435597 0.33800003
0.097281329 -0.013435597 0.33800003
0.09816251 -0.013435597 0.33800003
0.098750673 -0.013395846 0.33700001
0.099629253 -0.013395846 0.33700001
0.10050783 -0.013395846 0.33700001
0.10138641 -0.013395846 0.33700001
0.10196154 -0.013356096 0.33600003
0.10314357 -0.013395846 0.33700001
0.10402215 -0.013395846 0.33700001
0.10490073 -0.013395846 0.33700001
0.10577931 -0.013395846 0.33700001
0.10665789 -0.013395846 0.33700001
0.10753647 -0.013395846 0.33700001
0.10809335 -0.013356096 0.33600003
0.11031305 -0.012998343 0.32700002
0.11082561 -0.012958592 0.32600001
0.1116755 -0.012958592 0.32600001
0.11218024 -0.012918842 0.32500002
0.11233198 -0.012839342 0.32300001
0.11282369 -0.012799592 0.32200003
0.11308024 -0.012640591 0.31800002
0.11319286 -0.012561089 0.31600001
0.11329508 -0.012481589 0.31400001
0.1141137 -0.012481589 0.31400001
0.11456629 -0.012441839 0.31300002
0.11501367 -0.012402088 0.31200001
0.11582707 -0.012402088 0.31200001
0.11626663 -0.012362339 0.31100002
0.11670096 -0.012322588 0.31
0.1171301 -0.012282838 0.30900002
0.11793567 -0.012282838 0.30900002
0.11874127 -0.012282838 0.30900002
0.11915996 -0.012243088 0.30800003
0.11996295 -0.012243088 0.30800003
0.12076592 -0.012243088 0.30800003
0.12196359 -0.012282838 0.30900002
0.12276918 -0.012282838 0.30900002
0.12357476 -0.012282838 0.30900002
0.12438034 -0.012282838 0.30900002
0.12559105 -0.012322588 0.31
0.12639925 -0.012322588 0.31
0.12720743 -0.012322588 0.31
0.12801562 -0.012322588 0.31
0.1288238 -0.012322588 0.31
0.129632 -0.012322588 0.31
0.13044019 -0.012322588 0.31
0.130825 -0.012282838 0.30900002
0.13163058 -0.012282838 0.30900002
0.13243617 -0.012282838 0.30900002
0.13324176 -0.012282838 0.30900002
0.13404733 -0.012282838 0.30900002
0.13485292 -0.012282838 0.30900002
0.1356585 -0.012282838 0.30900002
0.13646409 -0.012282838 0.30900002
0.13726966 -0.012282838 0.30900002
0.13807525 -0.012282838 0.30900002
0.13888082 -0.012282838 0.30900002
-0.26924026 -0.017791603 0.47900003
-0.26799148 -0.017791603 0.47900003
-0.26674268 -0.017791603 0.47900003
-0.2654939 -0.017791603 0.47900003
-0.26424512 -0.017791603 0.47900003
-0.26299632 -0.017791603 0.47900003
-0.26174754 -0.017791603 0.47900003
-0.26049876 -0.017791603 0.47900003
-0.25924999 -0.017791603 0.47900003
-0.25800118 -0.017791603 0.47900003
-0.25675243 -0.017791603 0.47900003
-0.25550365 -0.017791603 0.47900003
-0.25425488 -0.017791603 0.47900003
-0.25300607 -0.017791603 0.47900003
-0.25175729 -0.017791603 0.47900003
-0.25050852 -0.017791603 0.47900003
-0.24925974 -0.017791603 0.47900003
-0.24801093 -0.017791603 0.47900003
-0.24676216 -0.017791603 0.47900003
-0.24551338 -0.017791603 0.47900003
-0.24426457 -0.017791603 0.47900003
-0.2430158 -0.017791603 0.47900003
-0.24176702 -0.017791603 0.47900003
-0.24051824 -0.017791603 0.47900003
-0.23926945 -0.017791603 0.47900003
-0.23802066 -0.017791603 0.47900003
-0.2367719 -0.017791603 0.47900003
-0.2355231 -0.017791603 0.47900003
-0.23427433 -0.017791603 0.47900003
-0.23302554 -0.017791603 0.47900003
-0.23129286 -0.01775446 0.47800002
-0.23004669 -0.01775446 0.47800002
-0.22880051 -0.01775446 0.47800002
-0.2280304 -0.017791603 0.47900003
-0.22678161 -0.017791603 0.47900003
-0.22553283 -0.017791603 0.47900003
-0.22428404 -0.017791603 0.47900003
-0.22303528 -0.017791603 0.47900003
-0.22178648 -0.017791603 0.47900003
-0.22099811 -0.017828746 0.48000002
-0.21974671 -0.017828746 0.48000002
-0.21849532 -0.017828746 0.48000002
-0.21724394 -0.017828746 0.48000002
-0.21599254 -0.017828746 0.48000002
-0.21474116 -0.017828746 0.48000002
-0.21348976 -0.017828746 0.48000002
-0.21223837 -0.017828746 0.48000002
-0.21098697 -0.017828746 0.48000002
-0.20973559 -0.017828746 0.48000002
-0.2084842 -0.017828746 0.48000002
-0.20723282 -0.017828746 0.48000002
-0.20598142 -0.017828746 0.48000002
-0.20473003 -0.017828746 0.48000002
-0.20347863 -0.017828746 0.48000002
-0.20222725 -0.017828746 0.48000002
-0.20097585 -0.017828746 0.48000002
-0.19972445 -0.017828746 0.48000002
-0.19847308 -0.017828746 0.48000002
-0.19722168 -0.017828746 0.48000002
-0.1959703 -0.017828746 0.48000002
-0.1947189 -0.017828746 0.48000002
-0.19346751 -0.017828746 0.48000002
-0.19221611 -0.017828746 0.48000002
-0.19096473 -0.017828746 0.48000002
-0.18971334 -0.017828746 0.48000002
-0.18885459 -0.017865891 0.48100004
-0.18760058 -0.017865891 0.48100004
-0.18634659 -0.017865891 0.48100004
-0.18470778 -0.017828746 0.48000002
-0.18383859 -0.017865891 0.48100004
-0.1825846 -0.017865891 0.48100004
-0.18095361 -0.017828746 0.48000002
-0.17970222 -0.017828746 0.48000002
-0.17882259 -0.017865891 0.48100004
-0.17756861 -0.017865891 0.48100004
-0.17594804 -0.017828746 0.48000002
-0.17469665 -0.017828746 0.48000002
-0.17344525 -0.017828746 0.48000002
-0.17219387 -0.017828746 0.48000002
-0.17094249 -0.017828746 0.48000002
-0.1696911 -0.017828746 0.48000002
-0.1684397 -0.017828746 0.48000002
-0.1671883 -0.017828746 0.48000002
-0.16593692 -0.017828746 0.48000002
-0.16468552 -0.017828746 0.48000002
-0.16343413 -0.017828746 0.48000002
-0.16218275 -0.017828746 0.48000002
-0.16093136 -0.017828746 0.48000002
-0.15967996 -0.017828746 0.48000002
-0.15842858 -0.017828746 0.48000002
-0.15717718 -0.017828746 0.48000002
-0.1559258 -0.017828746 0.48000002
-0.1546744 -0.017828746 0.48000002
-0.15342303 -0.017828746 0.48000002
-0.15217163 -0.017828746 0.48000002
-0.15092023 -0.017828746 0.48000002
-0.14966884 -0.017828746 0.48000002
-0.14841744 -0.017828746 0.48000002
-0.14716606 -0.017828746 0.48000002
-0.14591466 -0.017828746 0.48000002
-0.14466329 -0.017828746 0.48000002
-0.14371066 -0.017865891 0.48100004
-0.14245668 -0.017865891 0.48100004
-0.14120267 -0.017865891 0.48100004
-0.13994868 -0.017865891 0.48100004
-0.13869467 -0.017865891 0.48100004
-0.13744068 -0.017865891 0.48100004
-0.13618669 -0.017865891 0.48100004
-0.13493268 -0.017865891 0.48100004
-0.13367869 -0.017865891 0.48100004
-0.13242468 -0.017865891 0.48100004
-0.13117069 -0.017865891 0.48100004
-0.12991668 -0.017865891 0.48100004
-0.12866271 -0.017865891 0.48100004
-0.1271438 -0.017828746 0.48000002
-0.12589243 -0.017828746 0.48000002
-0.12464103 -0.017828746 0.48000002
-0.12338965 -0.017828746 0.48000002
-0.12213825 -0.017828746 0.48000002
-0.12088686 -0.017828746 0.48000002
-0.11963547 -0.017828746 0.48000002
-0.11838408 -0.017828746 0.48000002
-0.11713269 -0.017828746 0.48000002
-0.11588129 -0.017828746 0.48000002
-0.11486872 -0.017865891 0.48100004
-0.11337852 -0.017828746 0.48000002
-0.11212713 -0.017828746 0.48000002
-0.11087573 -0.017828746 0.48000002
-0.10962434 -0.017828746 0.48000002
-0.10837295 -0.017828746 0.48000002
-0.10712156 -0.017828746 0.48000002
-0.10587017 -0.017828746 0.48000002
-0.10461878 -0.017828746 0.48000002
-0.10336739 -0.017828746 0.48000002
-0.102116 -0.017828746 0.48000002
-0.10086461 -0.017828746 0.48000002
-0.099613219 -0.017828746 0.48000002
-0.098361827 -0.017828746 0.48000002
-0.097312756 -0.017865891 0.48100004
-0.096058756 -0.017865891 0.48100004
-0.094804756 -0.017865891 0.48100004
-0.093550757 -0.017865891 0.48100004
-0.092296764 -0.017865891 0.48100004
-0.091042764 -0.017865891 0.48100004
-0.089788765 -0.017865891 0.48100004
-0.088534772 -0.017865891 0.48100004
-0.087462224 -0.017903032 0.48200002
-0.086205624 -0.017903032 0.48200002
-0.084949017 -0.017903032 0.48200002
-0.083692417 -0.017903032 0.48200002
-0.082435809 -0.017903032 0.48200002
-0.081179209 -0.017903032 0.48200002
-0.079922602 -0.017903032 0.48200002
-0.078665994 -0.017903032 0.48200002
-0.077248789 -0.017865891 0.48100004
-0.07599479 -0.017865891 0.48100004
-0.074740797 -0.017865891 0.48100004
-0.073486798 -0.017865891 0.48100004
-0.072232798 -0.017865891 0.48100004
-0.070978805 -0.017865891 0.48100004
-0.069724806 -0.017865891 0.48100004
-0.068470806 -0.017865891 0.48100004
-0.067216814 -0.017865891 0.48100004
-0.065962814 -0.017865891 0.48100004
-0.064708814 -0.017865891 0.48100004
-0.063454822 -0.017865891 0.48100004
-0.062200814 -0.017865891 0.48100004
-0.060946818 -0.017865891 0.48100004
-0.059692826 -0.017865891 0.48100004
-0.058438826 -0.017865891 0.48100004
-0.057184827 -0.017865891 0.48100004
-0.055930831 -0.017865891 0.48100004
-0.054676831 -0.017865891 0.48100004
-0.053422835 -0.017865891 0.48100004
-0.052168839 -0.017865891 0.48100004
-0.050914843 -0.017865891 0.48100004
-0.049764086 -0.017903032 0.48200002
-0.048406843 -0.017865891 0.48100004
-0.047152847 -0.017865891 0.48100004
-0.045898847 -0.017865891 0.48100004
-0.044644851 -0.017865891 0.48100004
-0.043390855 -0.017865891 0.48100004
-0.042136859 -0.017865891 0.48100004
-0.040882856 -0.017865891 0.48100004
-0.03962886 -0.017865891 0.48100004
-0.038374864 -0.017865891 0.48100004
-0.037120864 -0.017865891 0.48100004
-0.035866868 -0.017865891 0.48100004
-0.034612872 -0.017865891 0.48100004
-0.033358872 -0.017865891 0.48100004
-0.032104872 -0.017865891 0.48100004
-0.030850876 -0.017865891 0.48100004
-0.029596878 -0.017865891 0.48100004
-0.028342882 -0.017865891 0.48100004
-0.027088882 -0.017865891 0.48100004
-0.025834886 -0.017865891 0.48100004
-0.024580888 -0.017865891 0.48100004
-0.023375386 -0.017903032 0.48200002
-0.022118781 -0.017903032 0.48200002
-0.020862177 -0.017903032 0.48200002
-0.019605571 -0.017903032 0.48200002
-0.018310899 -0.017865891 0.48100004
-0.017056903 -0.017865891 0.48100004
-0.015802905 -0.017865891 0.48100004
-0.014548906 -0.017865891 0.48100004
-0.013294909 -0.017865891 0.48100004
-0.012040911 -0.017865891 0.48100004
-0.010786914 -0.017865891 0.48100004
-0.0095329154 -0.017865891 0.48100004
-0.0082789175 -0.017865891 0.48100004
-0.0070249201 -0.017865891 0.48100004
-0.0057709226 -0.017865891 0.48100004
-0.0045169252 -0.017865891 0.48100004
-0.0032629275 -0.017865891 0.48100004
-0.0020089296 -0.017865891 0.48100004
-0.000754932 -0.017865891 0.48100004
0.00049906567 -0.017865891 0.48100004
0.001756708 -0.017903032 0.48200002
0.0030133126 -0.017903032 0.48200002
0.0042699175 -0.017903032 0.48200002
0.0055265222 -0.017903032 0.48200002
0.0067831269 -0.017903032 0.48200002
0.0080397315 -0.017903032 0.48200002
0.0092963362 -0.017903032 0.48200002
0.010552941 -0.017903032 0.48200002
0.011809547 -0.017903032 0.48200002
0.01306615 -0.017903032 0.48200002
0.014322755 -0.017903032 0.48200002
0.01557936 -0.017903032 0.48200002
0.016870894 -0.017940175 0.48300001
0.018130105 -0.017940175 0.48300001
0.019389316 -0.017940175 0.48300001
0.020648528 -0.017940175 0.48300001
0.021907741 -0.017940175 0.48300001
0.023166953 -0.017940175 0.48300001
0.024426164 -0.017940175 0.48300001
0.025685376 -0.017940175 0.48300001
0.026944587 -0.017940175 0.48300001
0.028203798 -0.017940175 0.48300001
0.029463012 -0.017940175 0.48300001
0.030722221 -0.017940175 0.48300001
0.031981435 -0.017940175 0.48300001
0.033240646 -0.017940175 0.48300001
0.034499858 -0.017940175 0.48300001
0.035759069 -0.017940175 0.48300001
0.03701828 -0.017940175 0.48300001
0.038277492 -0.017940175 0.48300001
0.039536707 -0.017940175 0.48300001
0.040795919 -0.017940175 0.48300001
0.04205513 -0.017940175 0.48300001
0.043314341 -0.017940175 0.48300001
0.044573553 -0.017940175 0.48300001
0.045832764 -0.017940175 0.48300001
0.047091972 -0.017940175 0.48300001
0.048351187 -0.017940175 0.48300001
0.049610399 -0.017940175 0.48300001
0.05086961 -0.017940175 0.48300001
0.052128822 -0.017940175 0.48300001
0.053388033 -0.017940175 0.48300001
0.054647245 -0.017940175 0.48300001
0.05590646 -0.017940175 0.48300001
0.057165671 -0.017940175 0.48300001
0.058424883 -0.017940175 0.48300001
0.059684094 -0.017940175 0.48300001
0.060943305 -0.017940175 0.48300001
0.062202517 -0.017940175 0.48300001
0.063461728 -0.017940175 0.48300001
0.064720936 -0.017940175 0.48300001
0.066116758 -0.01797732 0.48400003
0.067378573 -0.01797732 0.48400003
0.068640403 -0.01797732 0.48400003
0.069902219 -0.01797732 0.48400003
0.071164034 -0.01797732 0.48400003
0.072425857 -0.01797732 0.48400003
0.073687673 -0.01797732 0.48400003
0.074794635 -0.017940175 0.48300001
0.076053843 -0.017940175 0.48300001
0.077313058 -0.017940175 0.48300001
0.078572266 -0.017940175 0.48300001
0.079831481 -0.017940175 0.48300001
0.081090689 -0.017940175 0.48300001
0.082349904 -0.017940175 0.48300001
0.083609112 -0.017940175 0.48300001
0.084868334 -0.017940175 0.48300001
0.086127542 -0.017940175 0.48300001
0.087205835 -0.017903032 0.48200002
0.088462435 -0.017903032 0.48200002
0.089532904 -0.017865891 0.48100004
0.090786897 -0.017865891 0.48100004
0.091849543 -0.017828746 0.48000002
0.093100928 -0.017828746 0.48000002
0.09435232 -0.017828746 0.48000002
0.095603712 -0.017828746 0.48000002
0.096855104 -0.017828746 0.48000002
0.098106489 -0.017828746 0.48000002
0.09956488 -0.017865891 0.48100004
0.10081889 -0.017865891 0.48100004
0.10207288 -0.017865891 0.48100004
0.10332688 -0.017865891 0.48100004
0.10458088 -0.017865891 0.48100004
0.094033964 -0.012591552 0.33900002
0.094637759 -0.012554409 0.33800003
0.095518954 -0.012554409 0.33800003
0.096400134 -0.012554409 0.33800003
0.097281329 -0.012554409 0.33800003
0.097872086 -0.012517265 0.33700001
0.098750673 -0.012517265 0.33700001
0.099629253 -0.012517265 0.33700001
0.10020959 -0.012480123 0.33600003
0.10108557 -0.012480123 0.33600003
0.10196154 -0.012480123 0.33600003
0.10283752 -0.012480123 0.33600003
0.10371348 -0.012480123 0.33600003
0.10458946 -0.012480123 0.33600003
0.10546543 -0.012480123 0.33600003
0.10634141 -0.012480123 0.33600003
0.10721738 -0.012480123 0.33600003
0.10809335 -0.012480123 0.33600003
0.1099757 -0.01210869 0.32600001
0.11082561 -0.01210869 0.32600001
0.1116755 -0.01210869 0.32600001
0.11218024 -0.012071547 0.32500002
0.11233198 -0.01199726 0.32300001
0.11282369 -0.011960117 0.32200003
0.11295717 -0.011885831 0.32000002
0.11308024 -0.011811544 0.31800002
0.11319286 -0.011737258 0.31600001
0.11365589 -0.011700115 0.31500003
0.1141137 -0.011662971 0.31400001
0.11456629 -0.011625828 0.31300002
0.11538231 -0.011625828 0.31300002
0.11582707 -0.011588684 0.31200001
0.11626663 -0.011551542 0.31100002
0.11707743 -0.011551542 0.31100002
0.11750916 -0.011514398 0.31
0.11793567 -0.011477255 0.30900002
0.11874127 -0.011477255 0.30900002
0.11954684 -0.011477255 0.30900002
0.12035242 -0.011477255 0.30900002
0.121158 -0.011477255 0.30900002
0.12196359 -0.011477255 0.30900002
0.12276918 -0.011477255 0.30900002
0.12357476 -0.011477255 0.30900002
0.12438034 -0.011477255 0.30900002
0.12559105 -0.011514398 0.31
0.12639925 -0.011514398 0.31
0.12720743 -0.011514398 0.31
0.12801562 -0.011514398 0.31
0.1288238 -0.011514398 0.31
0.129632 -0.011514398 0.31
0.13044019 -0.011514398 0.31
0.130825 -0.011477255 0.30900002
0.13163058 -0.011477255 0.30900002
0.13243617 -0.011477255 0.30900002
0.13324176 -0.011477255 0.30900002
0.13404733 -0.011477255 0.30900002
0.13485292 -0.011477255 0.30900002
0.1356585 -0.011477255 0.30900002
0.13646409 -0.011477255 0.30900002
0.13726966 -0.011477255 0.30900002
0.13807525 -0.011477255 0.30900002
0.13933027 -0.011514398 0.31
0.14013846 -0.011514398 0.31
0.14094666 -0.011514398 0.31
-0.26924026 -0.016542818 0.47900003
-0.26799148 -0.016542818 0.47900003
-0.26674268 -0.016542818 0.47900003
-0.2654939 -0.016542818 0.47900003
-0.26424512 -0.016542818 0.47900003
-0.26299632 -0.016542818 0.47900003
-0.26174754 -0.016542818 0.47900003
-0.26049876 -0.016542818 0.47900003
-0.25924999 -0.016542818 0.47900003
-0.25800118 -0.016542818 0.47900003
-0.25675243 -0.016542818 0.47900003
-0.25550365 -0.016542818 0.47900003
-0.25425488 -0.016542818 0.47900003
-0.25300607 -0.016542818 0.47900003
-0.25175729 -0.016542818 0.47900003
-0.24998552 -0.016508281 0.47800002
-0.24873935 -0.016508281 0.47800002
-0.24801093 -0.016542818 0.47900003
-0.24676216 -0.016542818 0.47900003
-0.24551338 -0.016542818 0.47900003
-0.24426457 -0.016542818 0.47900003
-0.2430158 -0.016542818 0.47900003
-0.24176702 -0.016542818 0.47900003
-0.24051824 -0.016542818 0.47900003
-0.23926945 -0.016542818 0.47900003
-0.23802066 -0.016542818 0.47900003
-0.2367719 -0.016542818 0.47900003
-0.2355231 -0.016542818 0.47900003
-0.23427433 -0.016542818 0.47900003
-0.23302554 -0.016542818 0.47900003
-0.23177674 -0.016542818 0.47900003
-0.23052797 -0.016542818 0.47900003
-0.22927918 -0.016542818 0.47900003
-0.2280304 -0.016542818 0.47900003
-0.22678161 -0.016542818 0.47900003
-0.22553283 -0.016542818 0.47900003
-0.22428404 -0.016542818 0.47900003
-0.22303528 -0.016542818 0.47900003
-0.22178648 -0.016542818 0.47900003
-0.22099811 -0.016577354 0.48000002
-0.21974671 -0.016577354 0.48000002
-0.21849532 -0.016577354 0.48000002
-0.21724394 -0.016577354 0.48000002
-0.21599254 -0.016577354 0.48000002
-0.21474116 -0.016577354 0.48000002
-0.21348976 -0.016577354 0.48000002
-0.21223837 -0.016577354 0.48000002
-0.21098697 -0.016577354 0.48000002
-0.20973559 -0.016577354 0.48000002
-0.2084842 -0.016577354 0.48000002
-0.20723282 -0.016577354 0.48000002
-0.20598142 -0.016577354 0.48000002
-0.20473003 -0.016577354 0.48000002
-0.20347863 -0.016577354 0.48000002
-0.20222725 -0.016577354 0.48000002
-0.20097585 -0.016577354 0.48000002
-0.19972445 -0.016577354 0.48000002
-0.19847308 -0.016577354 0.48000002
-0.19722168 -0.016577354 0.48000002
-0.1959703 -0.016577354 0.48000002
-0.1947189 -0.016577354 0.48000002
-0.19346751 -0.016577354 0.48000002
-0.19221611 -0.016577354 0.48000002
-0.19096473 -0.016577354 0.48000002
-0.19010858 -0.016611891 0.48100004
-0.18885459 -0.016611891 0.48100004
-0.18760058 -0.016611891 0.48100004
-0.18634659 -0.016611891 0.48100004
-0.1850926 -0.016611891 0.48100004
-0.18383859 -0.016611891 0.48100004
-0.1825846 -0.016611891 0.48100004
-0.18095361 -0.016577354 0.48000002
-0.17970222 -0.016577354 0.48000002
-0.17882259 -0.016611891 0.48100004
-0.17756861 -0.016611891 0.48100004
-0.17594804 -0.016577354 0.48000002
-0.17469665 -0.016577354 0.48000002
-0.17344525 -0.016577354 0.48000002
-0.17219387 -0.016577354 0.48000002
-0.17094249 -0.016577354 0.48000002
-0.1696911 -0.016577354 0.48000002
-0.1684397 -0.016577354 0.48000002
-0.1671883 -0.016577354 0.48000002
-0.16593692 -0.016577354 0.48000002
-0.16468552 -0.016577354 0.48000002
-0.16343413 -0.016577354 0.48000002
-0.16218275 -0.016577354 0.48000002
-0.16093136 -0.016577354 0.48000002
-0.15967996 -0.016577354 0.48000002
-0.15842858 -0.016577354 0.48000002
-0.15717718 -0.016577354 0.48000002
-0.1559258 -0.016577354 0.48000002
-0.1546744 -0.016577354 0.48000002
-0.15342303 -0.016577354 0.48000002
-0.15217163 -0.016577354 0.48000002
-0.15092023 -0.016577354 0.48000002
-0.14966884 -0.016577354 0.48000002
-0.14841744 -0.016577354 0.48000002
-0.14716606 -0.016577354 0.48000002
-0.14591466 -0.016577354 0.48000002
-0.14466329 -0.016577354 0.48000002
-0.14341189 -0.016577354 0.48000002
-0.14245668 -0.016611891 0.48100004
-0.14120267 -0.016611891 0.48100004
-0.13994868 -0.016611891 0.48100004
-0.13869467 -0.016611891 0.48100004
-0.13744068 -0.016611891 0.48100004
-0.13618669 -0.016611891 0.48100004
-0.13493268 -0.016611891 0.48100004
-0.13367869 -0.016611891 0.48100004
-0.13242468 -0.016611891 0.48100004
-0.13117069 -0.016611891 0.48100004
-0.12991668 -0.016611891 0.48100004
-0.1283952 -0.016577354 0.48000002
-0.1271438 -0.016577354 0.48000002
-0.12589243 -0.016577354 0.48000002
-0.12464103 -0.016577354 0.48000002
-0.12338965 -0.016577354 0.48000002
-0.12213825 -0.016577354 0.48000002
-0.12088686 -0.016577354 0.48000002
-0.11963547 -0.016577354 0.48000002
-0.11838408 -0.016577354 0.48000002
-0.11713269 -0.016577354 0.48000002
-0.11612272 -0.016611891 0.48100004
-0.11486872 -0.016611891 0.48100004
-0.11361472 -0.016611891 0.48100004
-0.11236073 -0.016611891 0.48100004
-0.11110672 -0.016611891 0.48100004
-0.10962434 -0.016577354 0.48000002
-0.10837295 -0.016577354 0.48000002
-0.10712156 -0.016577354 0.48000002
-0.10587017 -0.016577354 0.48000002
-0.10461878 -0.016577354 0.48000002
-0.10336739 -0.016577354 0.48000002
-0.102116 -0.016577354 0.48000002
-0.10086461 -0.016577354 0.48000002
-0.099613219 -0.016577354 0.48000002
-0.098361827 -0.016577354 0.48000002
-0.097312756 -0.016611891 0.48100004
-0.096058756 -0.016611891 0.48100004
-0.094804756 -0.016611891 0.48100004
-0.093550757 -0.016611891 0.48100004
-0.092296764 -0.016611891 0.48100004
-0.091042764 -0.016611891 0.48100004
-0.089788765 -0.016611891 0.48100004
-0.088534772 -0.016611891 0.48100004
-0.087280773 -0.016611891 0.48100004
-0.086026773 -0.016611891 0.48100004
-0.084772781 -0.016611891 0.48100004
-0.083518781 -0.016611891 0.48100004
-0.082264781 -0.016611891 0.48100004
-0.081010789 -0.016611891 0.48100004
-0.079756789 -0.016611891 0.48100004
-0.078502782 -0.016611891 0.48100004
-0.077248789 -0.016611891 0.48100004
-0.07599479 -0.016611891 0.48100004
-0.074740797 -0.016611891 0.48100004
-0.073486798 -0.016611891 0.48100004
-0.072232798 -0.016611891 0.48100004
-0.070978805 -0.016611891 0.48100004
-0.069724806 -0.016611891 0.48100004
-0.068470806 -0.016611891 0.48100004
-0.067216814 -0.016611891 0.48100004
-0.065962814 -0.016611891 0.48100004
-0.064708814 -0.016611891 0.48100004
-0.063454822 -0.016611891 0.48100004
-0.062200814 -0.016611891 0.48100004
-0.060946818 -0.016611891 0.48100004
-0.059692826 -0.016611891 0.48100004
-0.058438826 -0.016611891 0.48100004
-0.057184827 -0.016611891 0.48100004
-0.055930831 -0.016611891 0.48100004
-0.054676831 -0.016611891 0.48100004
-0.053422835 -0.016611891 0.48100004
-0.052168839 -0.016611891 0.48100004
-0.050914843 -0.016611891 0.48100004
-0.049764086 -0.016646426 0.48200002
-0.048507478 -0.016646426 0.48200002
-0.047250874 -0.016646426 0.48200002
-0.045898847 -0.016611891 0.48100004
-0.044644851 -0.016611891 0.48100004
-0.043390855 -0.016611891 0.48100004
-0.042136859 -0.016611891 0.48100004
-0.040882856 -0.016611891 0.48100004
-0.03962886 -0.016611891 0.48100004
-0.038374864 -0.016611891 0.48100004
-0.037120864 -0.016611891 0.48100004
-0.035866868 -0.016611891 0.48100004
-0.034612872 -0.016611891 0.48100004
-0.033358872 -0.016611891 0.48100004
-0.032104872 -0.016611891 0.48100004
-0.030850876 -0.016611891 0.48100004
-0.029596878 -0.016611891 0.48100004
-0.028342882 -0.016611891 0.48100004
-0.027145199 -0.016646426 0.48200002
-0.025834886 -0.016611891 0.48100004
-0.024580888 -0.016611891 0.48100004
-0.023326891 -0.016611891 0.48100004
-0.022118781 -0.016646426 0.48200002
-0.020862177 -0.016646426 0.48200002
-0.019605571 -0.016646426 0.48200002
-0.018310899 -0.016611891 0.48100004
-0.017056903 -0.016611891 0.48100004
-0.015802905 -0.016611891 0.48100004
-0.014548906 -0.016611891 0.48100004
-0.013294909 -0.016611891 0.48100004
-0.012040911 -0.016611891 0.48100004
-0.010786914 -0.016611891 0.48100004
-0.0095329154 -0.016611891 0.48100004
-0.0082789175 -0.016611891 0.48100004
-0.0070249201 -0.016611891 0.48100004
-0.0057709226 -0.016611891 0.48100004
-0.0045169252 -0.016611891 0.48100004
-0.0032629275 -0.016611891 0.48100004
-0.0020089296 -0.016611891 0.48100004
-0.000754932 -0.016611891 0.48100004
0.00049906567 -0.016611891 0.48100004
0.001756708 -0.016646426 0.48200002
0.0030133126 -0.016646426 0.48200002
0.0042699175 -0.016646426 0.48200002
0.0055265222 -0.016646426 0.48200002
0.0067831269 -0.016646426 0.48200002
0.0080397315 -0.016646426 0.48200002
0.0092963362 -0.016646426 0.48200002
0.010552941 -0.016646426 0.48200002
0.011809547 -0.016646426 0.48200002
0.01306615 -0.016646426 0.48200002
0.014322755 -0.016646426 0.48200002
0.01557936 -0.016646426 0.48200002
0.016870894 -0.016680961 0.48300001
0.018130105 -0.016680961 0.48300001
0.019389316 -0.016680961 0.48300001
0.020648528 -0.016680961 0.48300001
0.021907741 -0.016680961 0.48300001
0.023166953 -0.016680961 0.48300001
0.024426164 -0.016680961 0.48300001
0.025685376 -0.016680961 0.48300001
0.026944587 -0.016680961 0.48300001
0.028203798 -0.016680961 0.48300001
0.029463012 -0.016680961 0.48300001
0.030722221 -0.016680961 0.48300001
0.031981435 -0.016680961 0.48300001
0.033240646 -0.016680961 0.48300001
0.034499858 -0.016680961 0.48300001
0.035759069 -0.016680961 0.48300001
0.03701828 -0.016680961 0.48300001
0.038277492 -0.016680961 0.48300001
0.039536707 -0.016680961 0.48300001
0.040795919 -0.016680961 0.48300001
0.04205513 -0.016680961 0.48300001
0.043314341 -0.016680961 0.48300001
0.044573553 -0.016680961 0.48300001
0.045832764 -0.016680961 0.48300001
0.047091972 -0.016680961 0.48300001
0.048351187 -0.016680961 0.48300001
0.049610399 -0.016680961 0.48300001
0.05086961 -0.016680961 0.48300001
0.052128822 -0.016680961 0.48300001
0.053388033 -0.016680961 0.48300001
0.054647245 -0.016680961 0.48300001
0.05590646 -0.016680961 0.48300001
0.057165671 -0.016680961 0.48300001
0.058424883 -0.016680961 0.48300001
0.059684094 -0.016680961 0.48300001
0.060943305 -0.016680961 0.48300001
0.062202517 -0.016680961 0.48300001
0.063461728 -0.016680961 0.48300001
0.064720936 -0.016680961 0.48300001
0.065980151 -0.016680961 0.48300001
0.067378573 -0.016715499 0.48400003
0.068640403 -0.016715499 0.48400003
0.069902219 -0.016715499 0.48400003
0.071164034 -0.016715499 0.48400003
0.072425857 -0.016715499 0.48400003
0.073687673 -0.016715499 0.48400003
0.074794635 -0.016680961 0.48300001
0.076053843 -0.016680961 0.48300001
0.077313058 -0.016680961 0.48300001
0.078572266 -0.016680961 0.48300001
0.079831481 -0.016680961 0.48300001
0.081090689 -0.016680961 0.48300001
0.082349904 -0.016680961 0.48300001
0.083609112 -0.016680961 0.48300001
0.084868334 -0.016680961 0.48300001
0.086127542 -0.016680961 0.48300001
0.087205835 -0.016646426 0.48200002
0.088462435 -0.016646426 0.48200002
0.089532904 -0.016611891 0.48100004
0.090786897 -0.016611891 0.48100004
0.092040896 -0.016611891 0.48100004
0.093100928 -0.016577354 0.48000002
0.09435232 -0.016577354 0.48000002
0.095603712 -0.016577354 0.48000002
0.096855104 -0.016577354 0.48000002
0.09831088 -0.016611891 0.48100004
0.09956488 -0.016611891 0.48100004
0.10081889 -0.016611891 0.48100004
0.10207288 -0.016611891 0.48100004
0.10354169 -0.016646426 0.48200002
0.10479829 -0.016646426 0.48200002
0.094033964 -0.011707757 0.33900002
0.094637759 -0.01167322 0.33800003
0.095518954 -0.01167322 0.33800003
0.096114926 -0.011638684 0.33700001
0.096993506 -0.011638684 0.33700001
0.097872086 -0.011638684 0.33700001
0.098457642 -0.011604148 0.33600003
0.099333622 -0.011604148 0.33600003
0.10020959 -0.011604148 0.33600003
0.10108557 -0.011604148 0.33600003
0.10196154 -0.011604148 0.33600003
0.10283752 -0.011604148 0.33600003
0.10371348 -0.011604148 0.33600003
0.10458946 -0.011604148 0.33600003
0.10546543 -0.011604148 0.33600003
0.10634141 -0.011604148 0.33600003
0.10721738 -0.011604148 0.33600003
0.10809335 -0.011604148 0.33600003
0.10946055 -0.011293323 0.32700002
0.1099757 -0.011258786 0.32600001
0.11082561 -0.011258786 0.32600001
0.1116755 -0.011258786 0.32600001
0.11218024 -0.01122425 0.32500002
0.11267975 -0.011189714 0.324
0.11282369 -0.011120643 0.32200003
0.11295717 -0.01105157 0.32000002
0.11308024 -0.010982498 0.31800002
0.11319286 -0.010913425 0.31600001
0.11365589 -0.010878889 0.31500003
0.1141137 -0.010844353 0.31400001
0.11493231 -0.010844353 0.31400001
0.11538231 -0.010809816 0.31300002
0.11582707 -0.01077528 0.31200001
0.11664047 -0.01077528 0.31200001
0.11707743 -0.010740744 0.31100002
0.11750916 -0.010706208 0.31
0.11831734 -0.010706208 0.31
0.11874127 -0.010671671 0.30900002
0.11954684 -0.010671671 0.30900002
0.12035242 -0.010671671 0.30900002
0.121158 -0.010671671 0.30900002
0.12196359 -0.010671671 0.30900002
0.12276918 -0.010671671 0.30900002
0.12357476 -0.010671671 0.30900002
0.12478287 -0.010706208 0.31
0.12559105 -0.010706208 0.31
0.12639925 -0.010706208 0.31
0.12720743 -0.010706208 0.31
0.12801562 -0.010706208 0.31
0.1288238 -0.010706208 0.31
0.129632 -0.010706208 0.31
0.13001941 -0.010671671 0.30900002
0.130825 -0.010671671 0.30900002
0.13163058 -0.010671671 0.30900002
0.13243617 -0.010671671 0.30900002
0.13324176 -0.010671671 0.30900002
0.13404733 -0.010671671 0.30900002
0.13485292 -0.010671671 0.30900002
0.1356585 -0.010671671 0.30900002
0.13646409 -0.010671671 0.30900002
0.13726966 -0.010671671 0.30900002
0.13852209 -0.010706208 0.31
0.13933027 -0.010706208 0.31
0.14013846 -0.010706208 0.31
0.14140132 -0.010740744 0.31100002
-0.26924026 -0.015294035 0.47900003
-0.26799148 -0.015294035 0.47900003
-0.26674268 -0.015294035 0.47900003
-0.26604816 -0.015325964 0.48000002
-0.26479679 -0.015325964 0.48000002
-0.26354536 -0.015325964 0.48000002
-0.26174754 -0.015294035 0.47900003
-0.26049876 -0.015294035 0.47900003
-0.25924999 -0.015294035 0.47900003
-0.25800118 -0.015294035 0.47900003
-0.25675243 -0.015294035 0.47900003
-0.25550365 -0.015294035 0.47900003
-0.25425488 -0.015294035 0.47900003
-0.25300607 -0.015294035 0.47900003
-0.25175729 -0.015294035 0.47900003
-0.25050852 -0.015294035 0.47900003
-0.24873935 -0.015262106 0.47800002
-0.24801093 -0.015294035 0.47900003
-0.24676216 -0.015294035 0.47900003
-0.24551338 -0.015294035 0.47900003
-0.24426457 -0.015294035 0.47900003
-0.2430158 -0.015294035 0.47900003
-0.24176702 -0.015294035 0.47900003
-0.24051824 -0.015294035 0.47900003
-0.23926945 -0.015294035 0.47900003
-0.23802066 -0.015294035 0.47900003
-0.2367719 -0.015294035 0.47900003
-0.2355231 -0.015294035 0.47900003
-0.23427433 -0.015294035 0.47900003
-0.23302554 -0.015294035 0.47900003
-0.23177674 -0.015294035 0.47900003
-0.23052797 -0.015294035 0.47900003
-0.22927918 -0.015294035 0.47900003
-0.2280304 -0.015294035 0.47900003
-0.22678161 -0.015294035 0.47900003
-0.22553283 -0.015294035 0.47900003
-0.22428404 -0.015294035 0.47900003
-0.22303528 -0.015294035 0.47900003
-0.22178648 -0.015294035 0.47900003
-0.22099811 -0.015325964 0.48000002
-0.21974671 -0.015325964 0.48000002
-0.21849532 -0.015325964 0.48000002
-0.21724394 -0.015325964 0.48000002
-0.21599254 -0.015325964 0.48000002
-0.21474116 -0.015325964 0.48000002
-0.21348976 -0.015325964 0.48000002
-0.21223837 -0.015325964 0.48000002
-0.21098697 -0.015325964 0.48000002
-0.20973559 -0.015325964 0.48000002
-0.2084842 -0.015325964 0.48000002
-0.20723282 -0.015325964 0.48000002
-0.20598142 -0.015325964 0.48000002
-0.20473003 -0.015325964 0.48000002
-0.20347863 -0.015325964 0.48000002
-0.20222725 -0.015325964 0.48000002
-0.20097585 -0.015325964 0.48000002
-0.19972445 -0.015325964 0.48000002
-0.19847308 -0.015325964 0.48000002
-0.19722168 -0.015325964 0.48000002
-0.1959703 -0.015325964 0.48000002
-0.1947189 -0.015325964 0.48000002
-0.19346751 -0.015325964 0.48000002
-0.19221611 -0.015325964 0.48000002
-0.19136259 -0.015357894 0.48100004
-0.19010858 -0.015357894 0.48100004
-0.18885459 -0.015357894 0.48100004
-0.18760058 -0.015357894 0.48100004
-0.18634659 -0.015357894 0.48100004
-0.1850926 -0.015357894 0.48100004
-0.18383859 -0.015357894 0.48100004
-0.1825846 -0.015357894 0.48100004
-0.18133059 -0.015357894 0.48100004
-0.1800766 -0.015357894 0.48100004
-0.17882259 -0.015357894 0.48100004
-0.17756861 -0.015357894 0.48100004
-0.17594804 -0.015325964 0.48000002
-0.17469665 -0.015325964 0.48000002
-0.17380661 -0.015357894 0.48100004
-0.17219387 -0.015325964 0.48000002
-0.17094249 -0.015325964 0.48000002
-0.1696911 -0.015325964 0.48000002
-0.1684397 -0.015325964 0.48000002
-0.1671883 -0.015325964 0.48000002
-0.16593692 -0.015325964 0.48000002
-0.16468552 -0.015325964 0.48000002
-0.16343413 -0.015325964 0.48000002
-0.16218275 -0.015325964 0.48000002
-0.16093136 -0.015325964 0.48000002
-0.15967996 -0.015325964 0.48000002
-0.15842858 -0.015325964 0.48000002
-0.15717718 -0.015325964 0.48000002
-0.1559258 -0.015325964 0.48000002
-0.1546744 -0.015325964 0.48000002
-0.15342303 -0.015325964 0.48000002
-0.15217163 -0.015325964 0.48000002
-0.15092023 -0.015325964 0.48000002
-0.14966884 -0.015325964 0.48000002
-0.14841744 -0.015325964 0.48000002
-0.14716606 -0.015325964 0.48000002
-0.14591466 -0.015325964 0.48000002
-0.14466329 -0.015325964 0.48000002
-0.14341189 -0.015325964 0.48000002
-0.14216051 -0.015325964 0.48000002
-0.14090911 -0.015325964 0.48000002
-0.13994868 -0.015357894 0.48100004
-0.13869467 -0.015357894 0.48100004
-0.13744068 -0.015357894 0.48100004
-0.13618669 -0.015357894 0.48100004
-0.13493268 -0.015357894 0.48100004
-0.13367869 -0.015357894 0.48100004
-0.13242468 -0.015357894 0.48100004
-0.13117069 -0.015357894 0.48100004
-0.12964658 -0.015325964 0.48000002
-0.1283952 -0.015325964 0.48000002
-0.1271438 -0.015325964 0.48000002
-0.12589243 -0.015325964 0.48000002
-0.12464103 -0.015325964 0.48000002
-0.12338965 -0.015325964 0.48000002
-0.12213825 -0.015325964 0.48000002
-0.12088686 -0.015325964 0.48000002
-0.11963547 -0.015325964 0.48000002
-0.11838408 -0.015325964 0.48000002
-0.11713269 -0.015325964 0.48000002
-0.11612272 -0.015357894 0.48100004
-0.11486872 -0.015357894 0.48100004
-0.11361472 -0.015357894 0.48100004
-0.11236073 -0.015357894 0.48100004
-0.11110672 -0.015357894 0.48100004
-0.10985273 -0.015357894 0.48100004
-0.10837295 -0.015325964 0.48000002
-0.10712156 -0.015325964 0.48000002
-0.10587017 -0.015325964 0.48000002
-0.10461878 -0.015325964 0.48000002
-0.10336739 -0.015325964 0.48000002
-0.102116 -0.015325964 0.48000002
-0.10086461 -0.015325964 0.48000002
-0.099613219 -0.015325964 0.48000002
-0.098361827 -0.015325964 0.48000002
-0.097312756 -0.015357894 0.48100004
-0.096058756 -0.015357894 0.48100004
-0.094804756 -0.015357894 0.48100004
-0.093550757 -0.015357894 0.48100004
-0.092296764 -0.015357894 0.48100004
-0.091042764 -0.015357894 0.48100004
-0.089788765 -0.015357894 0.48100004
