# .PCD v0.7 - Point Cloud Data file format
VERSION 0.7
FIELDS x y z
SIZE 4 4 4
TYPE F F F
COUNT 1 1 1
WIDTH 1337
HEIGHT 1
VIEWPOINT 0 0 0 1 0 0 0
POINTS 1337
DATA ascii
-0.11054666 -0.066796735 0.37
-0.10958205 -0.066796735 0.37
-0.10861743 -0.066796735 0.37
-0.10765283 -0.066796735 0.37
-0.10668821 -0.066796735 0.37
-0.1057236 -0.066796735 0.37
-0.10504211 -0.06697727 0.37100002
-0.10407489 -0.06697727 0.37100002
-0.10310768 -0.06697727 0.37100002
-0.10214045 -0.06697727 0.37100002
-0.10117324 -0.06697727 0.37100002
-0.10020601 -0.06697727 0.37100002
-0.099506281 -0.067157798 0.37200001
-0.098536447 -0.067157798 0.37200001
-0.097566627 -0.067157798 0.37200001
-0.096596792 -0.067157798 0.37200001
-0.095626973 -0.067157798 0.37200001
-0.094657138 -0.067157798 0.37200001
-0.093687318 -0.067157798 0.37200001
-0.092966728 -0.067338333 0.37300003
-0.091994293 -0.067338333 0.37300003
-0.091021858 -0.067338333 0.37300003
-0.090290844 -0.06751886 0.37400001
-0.089315802 -0.06751886 0.37400001
-0.088576972 -0.067699395 0.37500003
-0.087599322 -0.067699395 0.37500003
-0.086852655 -0.067879923 0.37600002
-0.086100779 -0.068060458 0.377
-0.085343696 -0.068240993 0.37800002
-0.084581397 -0.06842152 0.37900001
-0.083813883 -0.068602055 0.38000003
-0.082823202 -0.068602055 0.38000003
-0.082047865 -0.068782583 0.38100001
-0.08126732 -0.068963118 0.38200003
-0.080481552 -0.069143645 0.38300002
-0.079483047 -0.069143645 0.38300002
-0.078689463 -0.06932418 0.384
-0.078092977 -0.069685243 0.38600001
-0.077286363 -0.069865778 0.38700002
-0.076474518 -0.070046306 0.38800001
-0.075657472 -0.070226841 0.38900003
-0.075027101 -0.070587903 0.39100003
-0.074197009 -0.070768431 0.39200002
-0.073548384 -0.071129501 0.39400002
-0.073257461 -0.071851626 0.39800003
-0.07327427 -0.076184385 0.42200002
-0.072687179 -0.076725982 0.42500001
-0.072084442 -0.07726758 0.42800003
-0.071134433 -0.077448107 0.42900002
-0.070015997 -0.077448107 0.42900002
-0.069058165 -0.077628635 0.43000001
-0.067937128 -0.077628635 0.43000001
-0.066816092 -0.077628635 0.43000001
-0.065695055 -0.077628635 0.43000001
-0.064574018 -0.077628635 0.43000001
-0.063452981 -0.077628635 0.43000001
-0.062331945 -0.077628635 0.43000001
-0.061210904 -0.077628635 0.43000001
-0.060089868 -0.077628635 0.43000001
-0.058968831 -0.077628635 0.43000001
-0.057847794 -0.077628635 0.43000001
-0.056594837 -0.077448107 0.42900002
-0.055476401 -0.077448107 0.42900002
-0.054357972 -0.077448107 0.42900002
-0.053239543 -0.077448107 0.42900002
-0.052121114 -0.077448107 0.42900002
-0.051002681 -0.077448107 0.42900002
-0.049767975 -0.07726758 0.42800003
-0.04865215 -0.07726758 0.42800003
-0.047425259 -0.077087045 0.42700002
-0.046312045 -0.077087045 0.42700002
-0.045198828 -0.077087045 0.42700002
-0.043982364 -0.076906517 0.42600003
-0.042871758 -0.076906517 0.42600003
-0.041663114 -0.076725982 0.42500001
-0.040555116 -0.076725982 0.42500001
-0.039447114 -0.076725982 0.42500001
-0.038339112 -0.076725982 0.42500001
-0.037143506 -0.076545447 0.42400002
-0.036038112 -0.076545447 0.42400002
-0.034932714 -0.076545447 0.42400002
-0.033747539 -0.076364912 0.42300001
-0.032644752 -0.076364912 0.42300001
-0.031541962 -0.076364912 0.42300001
-0.030367216 -0.076184385 0.42200002
-0.029267034 -0.076184385 0.42200002
-0.028166853 -0.076184385 0.42200002
-0.027002534 -0.076003857 0.42100003
-0.025904961 -0.076003857 0.42100003
-0.024807388 -0.076003857 0.42100003
-0.023653494 -0.075823322 0.42000002
-0.022558527 -0.075823322 0.42000002
-0.021463562 -0.075823322 0.42000002
-0.020368593 -0.075823322 0.42000002
-0.019273628 -0.075823322 0.42000002
-0.01817866 -0.075823322 0.42000002
-0.017043019 -0.075642794 0.41900003
-0.015950659 -0.075642794 0.41900003
-0.0148583 -0.075642794 0.41900003
-0.01376594 -0.075642794 0.41900003
-0.012673579 -0.075642794 0.41900003
-0.01158122 -0.075642794 0.41900003
-0.010463826 -0.075462259 0.41800001
-0.0093740746 -0.075462259 0.41800001
-0.008284322 -0.075462259 0.41800001
-0.0071773571 -0.075281724 0.41700003
-0.0060902117 -0.075281724 0.41700003
-0.0050030658 -0.075281724 0.41700003
-0.0039065294 -0.075101197 0.41600001
-0.0028219912 -0.075101197 0.41600001
-0.0017332761 -0.074920662 0.41500002
-0.00065134466 -0.074920662 0.41500002
0.00042954928 -0.074740134 0.41400003
0.0015088737 -0.074740134 0.41400003
0.0025819463 -0.074559599 0.41300002
0.0036586637 -0.074559599 0.41300002
0.0047353809 -0.074559599 0.41300002
0.0058120983 -0.074559599 0.41300002
0.0068888157 -0.074559599 0.41300002
0.0079462463 -0.074379072 0.41200003
0.0090203565 -0.074379072 0.41200003
0.010069965 -0.074198537 0.41100001
0.011141468 -0.074198537 0.41100001
0.012212972 -0.074198537 0.41100001
0.013252152 -0.074018009 0.41000003
0.014321048 -0.074018009 0.41000003
0.015389945 -0.074018009 0.41000003
0.016418697 -0.073837474 0.40900001
0.017484985 -0.073837474 0.40900001
0.018551275 -0.073837474 0.40900001
0.019617565 -0.073837474 0.40900001
0.020683853 -0.073837474 0.40900001
0.021750143 -0.073837474 0.40900001
0.022816431 -0.073837474 0.40900001
0.023882721 -0.073837474 0.40900001
0.024888011 -0.073656939 0.40800002
0.025951691 -0.073656939 0.40800002
0.027015375 -0.073656939 0.40800002
0.028079057 -0.073656939 0.40800002
0.029071309 -0.073476404 0.40700001
0.030132383 -0.073476404 0.40700001
0.031193458 -0.073476404 0.40700001
0.032254532 -0.073476404 0.40700001
0.03331561 -0.073476404 0.40700001
0.034376685 -0.073476404 0.40700001
0.035350688 -0.073295876 0.40600002
0.036409158 -0.073295876 0.40600002
0.037467625 -0.073295876 0.40600002
0.038431201 -0.073115349 0.40500003
0.03948706 -0.073115349 0.40500003
0.040442817 -0.072934814 0.40400001
0.041496068 -0.072934814 0.40400001
0.042549323 -0.072934814 0.40400001
0.043494649 -0.072754286 0.40300003
0.044545297 -0.072754286 0.40300003
0.045482799 -0.072573751 0.40200001
0.046530843 -0.072573751 0.40200001
0.047578882 -0.072573751 0.40200001
0.048626922 -0.072573751 0.40200001
0.049674958 -0.072573751 0.40200001
0.050722998 -0.072573751 0.40200001
0.051771037 -0.072573751 0.40200001
0.052819077 -0.072573751 0.40200001
0.053867117 -0.072573751 0.40200001
0.054915156 -0.072573751 0.40200001
0.055963196 -0.072573751 0.40200001
0.056869421 -0.072393224 0.40100002
0.057914853 -0.072393224 0.40100002
0.058960285 -0.072393224 0.40100002
0.059856076 -0.072212689 0.40000001
0.0608989 -0.072212689 0.40000001
0.061786875 -0.072032154 0.39900002
0.062827088 -0.072032154 0.39900002
0.06370724 -0.071851626 0.39800003
0.064744852 -0.071851626 0.39800003
0.065617181 -0.071671091 0.39700001
0.066652186 -0.071671091 0.39700001
0.067687191 -0.071671091 0.39700001
0.068722188 -0.071671091 0.39700001
0.069581494 -0.071490563 0.39600003
0.070613891 -0.071490563 0.39600003
0.071646288 -0.071490563 0.39600003
0.072678685 -0.071490563 0.39600003
0.073524937 -0.071310028 0.39500001
0.074554726 -0.071310028 0.39500001
0.075584516 -0.071310028 0.39500001
0.076420352 -0.071129501 0.39400002
0.077447534 -0.071129501 0.39400002
0.078474715 -0.071129501 0.39400002
0.079501897 -0.071129501 0.39400002
0.080324687 -0.070948966 0.39300001
0.081349261 -0.070948966 0.39300001
0.082373843 -0.070948966 0.39300001
0.083398417 -0.070948966 0.39300001
0.084422998 -0.070948966 0.39300001
0.085230149 -0.070768431 0.39200002
0.086252116 -0.070768431 0.39200002
0.087274089 -0.070768431 0.39200002
0.088296056 -0.070768431 0.39200002
0.089318022 -0.070768431 0.39200002
0.090339996 -0.070768431 0.39200002
0.091128901 -0.070587903 0.39100003
0.092148259 -0.070587903 0.39100003
0.093167618 -0.070587903 0.39100003
0.093946092 -0.070407368 0.39000002
0.09496285 -0.070407368 0.39000002
0.095979609 -0.070407368 0.39000002
0.09699636 -0.070407368 0.39000002
0.097761795 -0.070226841 0.38900003
0.098775953 -0.070226841 0.38900003
0.099790089 -0.070226841 0.38900003
0.10080425 -0.070226841 0.38900003
0.10155665 -0.070046306 0.38800001
0.10256819 -0.070046306 0.38800001
0.10357973 -0.070046306 0.38800001
0.10459127 -0.070046306 0.38800001
0.10560281 -0.070046306 0.38800001
0.10633957 -0.069865778 0.38700002
0.10734851 -0.069865778 0.38700002
0.10835744 -0.069865778 0.38700002
0.10908377 -0.069685243 0.38600001
0.11009009 -0.069685243 0.38600001
0.11109642 -0.069685243 0.38600001
0.11210274 -0.069685243 0.38600001
0.11310907 -0.069685243 0.38600001
0.11381977 -0.069504716 0.38500002
0.11482349 -0.069504716 0.38500002
0.11582721 -0.069504716 0.38500002
0.11683092 -0.069504716 0.38500002
0.11783465 -0.069504716 0.38500002
0.11852968 -0.06932418 0.384
0.1195308 -0.06932418 0.384
0.12021803 -0.069143645 0.38300002
0.12121654 -0.069143645 0.38300002
0.12189595 -0.068963118 0.38200003
0.12289185 -0.068963118 0.38200003
0.12388774 -0.068963118 0.38200003
0.12455672 -0.068782583 0.38100001
0.12555002 -0.068782583 0.38100001
0.1265433 -0.068782583 0.38100001
0.12753659 -0.068782583 0.38100001
0.12819254 -0.068602055 0.38000003
0.12918323 -0.068602055 0.38000003
0.13017391 -0.068602055 0.38000003
0.1311646 -0.068602055 0.38000003
0.13215527 -0.068602055 0.38000003
0.13279557 -0.06842152 0.37900001
0.13378364 -0.06842152 0.37900001
0.13477172 -0.06842152 0.37900001
0.1357598 -0.06842152 0.37900001
0.13674788 -0.06842152 0.37900001
0.13773596 -0.06842152 0.37900001
0.13835801 -0.068240993 0.37800002
0.13934349 -0.068240993 0.37800002
0.14032894 -0.068240993 0.37800002
0.14131443 -0.068240993 0.37800002
0.14192343 -0.068060458 0.377
0.14290629 -0.068060458 0.377
0.14388916 -0.068060458 0.377
0.14448775 -0.067879923 0.37600002
0.145468 -0.067879923 0.37600002
0.14644825 -0.067879923 0.37600002
0.14742851 -0.067879923 0.37600002
0.14840877 -0.067879923 0.37600002
0.14899173 -0.067699395 0.37500003
0.14996937 -0.067699395 0.37500003
0.15094702 -0.067699395 0.37500003
0.15192467 -0.067699395 0.37500003
0.15290232 -0.067699395 0.37500003
0.15387997 -0.067699395 0.37500003
0.15485762 -0.067699395 0.37500003
0.15583526 -0.067699395 0.37500003
0.15681292 -0.067699395 0.37500003
0.15779056 -0.067699395 0.37500003
0.15876821 -0.067699395 0.37500003
0.15931986 -0.06751886 0.37400001
0.16029491 -0.06751886 0.37400001
0.16126995 -0.06751886 0.37400001
0.16224499 -0.06751886 0.37400001
0.16278362 -0.067338333 0.37300003
0.16375606 -0.067338333 0.37300003
0.16428685 -0.067157798 0.37200001
0.16525668 -0.067157798 0.37200001
0.16622651 -0.067157798 0.37200001
0.16674688 -0.06697727 0.37100002
0.1677141 -0.06697727 0.37100002
0.16868132 -0.06697727 0.37100002
0.16964854 -0.06697727 0.37100002
0.17061576 -0.06697727 0.37100002
0.171583 -0.06697727 0.37100002
-0.27205071 -0.086115532 0.48400003
-0.27078888 -0.086115532 0.48400003
-0.26897016 -0.085937604 0.48300001
-0.26771095 -0.085937604 0.48300001
-0.26645175 -0.085937604 0.48300001
-0.26464349 -0.085759684 0.48200002
-0.26338688 -0.085759684 0.48200002
-0.26158646 -0.085581765 0.48100004
-0.26033247 -0.085581765 0.48100004
-0.25907844 -0.085581765 0.48100004
-0.25782445 -0.085581765 0.48100004
-0.25603706 -0.085403837 0.48000002
-0.25478566 -0.085403837 0.48000002
-0.25353426 -0.085403837 0.48000002
-0.25175729 -0.08522591 0.47900003
-0.25050852 -0.08522591 0.47900003
-0.24925974 -0.08522591 0.47900003
-0.24749315 -0.085047983 0.47800002
-0.24624698 -0.085047983 0.47800002
-0.24448827 -0.084870063 0.47700003
-0.24324468 -0.084870063 0.47700003
-0.24200112 -0.084870063 0.47700003
-0.24025281 -0.084692135 0.47600001
-0.23901185 -0.084692135 0.47600001
-0.23727138 -0.084514216 0.47500002
-0.23603301 -0.084514216 0.47500002
-0.23479466 -0.084514216 0.47500002
-0.23306462 -0.084336288 0.47400004
-0.23182887 -0.084336288 0.47400004
-0.23059312 -0.084336288 0.47400004
-0.22887348 -0.084158361 0.47300002
-0.22764035 -0.084158361 0.47300002
-0.2264072 -0.084158361 0.47300002
-0.22469802 -0.083980441 0.47200003
-0.22299401 -0.083802514 0.47100002
-0.2217661 -0.083802514 0.47100002
-0.22053817 -0.083802514 0.47100002
-0.21884462 -0.083624586 0.47000003
-0.2176193 -0.083624586 0.47000003
-0.21639399 -0.083624586 0.47000003
-0.21516865 -0.083624586 0.47000003
-0.21394335 -0.083624586 0.47000003
-0.21226542 -0.083446659 0.46900001
-0.2110427 -0.083446659 0.46900001
-0.20982 -0.083446659 0.46900001
-0.20815252 -0.083268739 0.46800002
-0.20693241 -0.083268739 0.46800002
-0.20527273 -0.083090812 0.46700001
-0.20405525 -0.083090812 0.46700001
-0.20283775 -0.083090812 0.46700001
-0.20118852 -0.082912892 0.46600002
-0.19997363 -0.082912892 0.46600002
-0.19833222 -0.082734965 0.46500003
-0.19711994 -0.082734965 0.46500003
-0.19590765 -0.082734965 0.46500003
-0.19427666 -0.082557037 0.46400002
-0.19306697 -0.082557037 0.46400002
-0.19185731 -0.082557037 0.46400002
-0.19023675 -0.082379118 0.46300003
-0.18902968 -0.082379118 0.46300003
-0.18741694 -0.08220119 0.46200001
-0.18621248 -0.08220119 0.46200001
-0.185008 -0.08220119 0.46200001
-0.14230499 -0.069568545 0.39100003
-0.14092427 -0.069390617 0.39000002
-0.13954879 -0.06921269 0.38900003
-0.13205814 -0.067967221 0.38200003
-0.12738103 -0.067077592 0.377
-0.1260629 -0.066899672 0.37600002
-0.12474997 -0.066721745 0.37500003
-0.12377233 -0.066721745 0.37500003
-0.12246722 -0.066543818 0.37400001
-0.12149218 -0.066543818 0.37400001
-0.1201949 -0.066365898 0.37300003
-0.11890284 -0.06618797 0.37200001
-0.11793301 -0.06618797 0.37200001
-0.11696317 -0.06618797 0.37200001
-0.11599335 -0.06618797 0.37200001
-0.11471432 -0.06601005 0.37100002
-0.11374711 -0.06601005 0.37100002
-0.11277988 -0.06601005 0.37100002
-0.11151128 -0.065832123 0.37
-0.11054666 -0.065832123 0.37
-0.10958205 -0.065832123 0.37
-0.10861743 -0.065832123 0.37
-0.10765283 -0.065832123 0.37
-0.10668821 -0.065832123 0.37
-0.1057236 -0.065832123 0.37
-0.10504211 -0.06601005 0.37100002
-0.10407489 -0.06601005 0.37100002
-0.10310768 -0.06601005 0.37100002
-0.10214045 -0.06601005 0.37100002
-0.10117324 -0.06601005 0.37100002
-0.10020601 -0.06601005 0.37100002
-0.099238798 -0.06601005 0.37100002
-0.098536447 -0.06618797 0.37200001
-0.097566627 -0.06618797 0.37200001
-0.096596792 -0.06618797 0.37200001
-0.095626973 -0.06618797 0.37200001
-0.094657138 -0.06618797 0.37200001
-0.09393917 -0.066365898 0.37300003
-0.092966728 -0.066365898 0.37300003
-0.091994293 -0.066365898 0.37300003
-0.091021858 -0.066365898 0.37300003
-0.090049431 -0.066365898 0.37300003
-0.089315802 -0.066543818 0.37400001
-0.088576972 -0.066721745 0.37500003
-0.087599322 -0.066721745 0.37500003
-0.086852655 -0.066899672 0.37600002
-0.086100779 -0.067077592 0.377
-0.085343696 -0.067255519 0.37800002
-0.08435823 -0.067255519 0.37800002
-0.083593324 -0.067433447 0.37900001
-0.082823202 -0.067611374 0.38000003
-0.082047865 -0.067789294 0.38100001
-0.081054576 -0.067789294 0.38100001
-0.080271423 -0.067967221 0.38200003
-0.079483047 -0.068145141 0.38300002
-0.078689463 -0.068323068 0.384
-0.077890664 -0.068500996 0.38500002
-0.07708665 -0.068678916 0.38600001
-0.07627742 -0.068856843 0.38700002
-0.075462975 -0.069034763 0.38800001
-0.074835211 -0.069390617 0.39000002
-0.074007735 -0.069568545 0.39100003
-0.07336171 -0.069924384 0.39300001
-0.073073395 -0.070636086 0.39700001
-0.072764218 -0.071347788 0.40100002
-0.071916021 -0.075973831 0.42700002
-0.07096862 -0.076151758 0.42800003
-0.070015997 -0.076329678 0.42900002
-0.069058165 -0.076507598 0.43000001
-0.067937128 -0.076507598 0.43000001
-0.066816092 -0.076507598 0.43000001
-0.065695055 -0.076507598 0.43000001
-0.064574018 -0.076507598 0.43000001
-0.063452981 -0.076507598 0.43000001
-0.062331945 -0.076507598 0.43000001
-0.061210904 -0.076507598 0.43000001
-0.060089868 -0.076507598 0.43000001
-0.058968831 -0.076507598 0.43000001
-0.057847794 -0.076507598 0.43000001
-0.056726757 -0.076507598 0.43000001
-0.055605717 -0.076507598 0.43000001
-0.054357972 -0.076329678 0.42900002
-0.053239543 -0.076329678 0.42900002
-0.052121114 -0.076329678 0.42900002
-0.051002681 -0.076329678 0.42900002
-0.049767975 -0.076151758 0.42800003
-0.04865215 -0.076151758 0.42800003
-0.047425259 -0.075973831 0.42700002
-0.046312045 -0.075973831 0.42700002
-0.045092978 -0.075795904 0.42600003
-0.043982364 -0.075795904 0.42600003
-0.042871758 -0.075795904 0.42600003
-0.041663114 -0.075617976 0.42500001
-0.040555116 -0.075617976 0.42500001
-0.039447114 -0.075617976 0.42500001
-0.038339112 -0.075617976 0.42500001
-0.037143506 -0.075440057 0.42400002
-0.036038112 -0.075440057 0.42400002
-0.034932714 -0.075440057 0.42400002
-0.03382732 -0.075440057 0.42400002
-0.032644752 -0.075262129 0.42300001
-0.031541962 -0.075262129 0.42300001
-0.030367216 -0.075084202 0.42200002
-0.029267034 -0.075084202 0.42200002
-0.028166853 -0.075084202 0.42200002
-0.027066672 -0.075084202 0.42200002
-0.025904961 -0.074906282 0.42100003
-0.024807388 -0.074906282 0.42100003
-0.023653494 -0.074728355 0.42000002
-0.022558527 -0.074728355 0.42000002
-0.021463562 -0.074728355 0.42000002
-0.020368593 -0.074728355 0.42000002
-0.019273628 -0.074728355 0.42000002
-0.01817866 -0.074728355 0.42000002
-0.017083693 -0.074728355 0.42000002
-0.015950659 -0.074550435 0.41900003
-0.0148583 -0.074550435 0.41900003
-0.01376594 -0.074550435 0.41900003
-0.012673579 -0.074550435 0.41900003
-0.01158122 -0.074550435 0.41900003
-0.01048886 -0.074550435 0.41900003
-0.0093740746 -0.074372508 0.41800001
-0.008284322 -0.074372508 0.41800001
-0.0071945684 -0.074372508 0.41800001
-0.0060902117 -0.07419458 0.41700003
-0.0050030658 -0.07419458 0.41700003
-0.0039159204 -0.07419458 0.41700003
-0.0028219912 -0.074016653 0.41600001
-0.0017332761 -0.073838733 0.41500002
-0.00065134466 -0.073838733 0.41500002
0.00043058681 -0.073838733 0.41500002
0.0015088737 -0.073660813 0.41400003
0.0025881981 -0.073660813 0.41400003
0.0036586637 -0.073482886 0.41300002
0.0047353809 -0.073482886 0.41300002
0.0058120983 -0.073482886 0.41300002
0.0068888157 -0.073482886 0.41300002
0.0079655331 -0.073482886 0.41300002
0.0090203565 -0.073304959 0.41200003
0.010094467 -0.073304959 0.41200003
0.011141468 -0.073127031 0.41100001
0.012212972 -0.073127031 0.41100001
0.013284475 -0.073127031 0.41100001
0.014321048 -0.072949111 0.41000003
0.015389945 -0.072949111 0.41000003
0.016458841 -0.072949111 0.41000003
0.017527737 -0.072949111 0.41000003
0.018596634 -0.072949111 0.41000003
0.019617565 -0.072771184 0.40900001
0.020683853 -0.072771184 0.40900001
0.021750143 -0.072771184 0.40900001
0.022816431 -0.072771184 0.40900001
0.023882721 -0.072771184 0.40900001
0.02494901 -0.072771184 0.40900001
0.025951691 -0.072593257 0.40800002
0.027015375 -0.072593257 0.40800002
0.028079057 -0.072593257 0.40800002
0.029142739 -0.072593257 0.40800002
0.03020642 -0.072593257 0.40800002
0.031193458 -0.07241533 0.40700001
0.032254532 -0.07241533 0.40700001
0.03331561 -0.07241533 0.40700001
0.034376685 -0.07241533 0.40700001
0.035437759 -0.07241533 0.40700001
0.036409158 -0.07223741 0.40600002
0.037467625 -0.07223741 0.40600002
0.038431201 -0.07205949 0.40500003
0.03948706 -0.07205949 0.40500003
0.040542923 -0.07205949 0.40500003
0.041496068 -0.071881562 0.40400001
0.042549323 -0.071881562 0.40400001
0.043494649 -0.071703635 0.40300003
0.044545297 -0.071703635 0.40300003
0.045595944 -0.071703635 0.40300003
0.046646591 -0.071703635 0.40300003
0.047578882 -0.071525708 0.40200001
0.048626922 -0.071525708 0.40200001
0.049674958 -0.071525708 0.40200001
0.050722998 -0.071525708 0.40200001
0.051771037 -0.071525708 0.40200001
0.052819077 -0.071525708 0.40200001
0.053867117 -0.071525708 0.40200001
0.054915156 -0.071525708 0.40200001
0.055963196 -0.071525708 0.40200001
0.057011239 -0.071525708 0.40200001
0.057914853 -0.071347788 0.40100002
0.058960285 -0.071347788 0.40100002
0.059856076 -0.071169861 0.40000001
0.0608989 -0.071169861 0.40000001
0.061786875 -0.070991941 0.39900002
0.062827088 -0.070991941 0.39900002
0.06370724 -0.070814013 0.39800003
0.064744852 -0.070814013 0.39800003
0.065782465 -0.070814013 0.39800003
0.066652186 -0.070636086 0.39700001
0.067687191 -0.070636086 0.39700001
0.068722188 -0.070636086 0.39700001
0.069757201 -0.070636086 0.39700001
0.070613891 -0.070458166 0.39600003
0.071646288 -0.070458166 0.39600003
0.072678685 -0.070458166 0.39600003
0.073524937 -0.070280239 0.39500001
0.074554726 -0.070280239 0.39500001
0.075584516 -0.070280239 0.39500001
0.076614305 -0.070280239 0.39500001
0.077447534 -0.070102319 0.39400002
0.078474715 -0.070102319 0.39400002
0.079501897 -0.070102319 0.39400002
0.080324687 -0.069924384 0.39300001
0.081349261 -0.069924384 0.39300001
0.082373843 -0.069924384 0.39300001
0.083398417 -0.069924384 0.39300001
0.084422998 -0.069924384 0.39300001
0.085447572 -0.069924384 0.39300001
0.086252116 -0.069746464 0.39200002
0.087274089 -0.069746464 0.39200002
0.088296056 -0.069746464 0.39200002
0.089318022 -0.069746464 0.39200002
0.090339996 -0.069746464 0.39200002
0.091361962 -0.069746464 0.39200002
0.092383929 -0.069746464 0.39200002
0.093167618 -0.069568545 0.39100003
0.094186984 -0.069568545 0.39100003
0.09496285 -0.069390617 0.39000002
0.095979609 -0.069390617 0.39000002
0.09699636 -0.069390617 0.39000002
0.097761795 -0.06921269 0.38900003
0.098775953 -0.06921269 0.38900003
0.099790089 -0.06921269 0.38900003
0.10080425 -0.06921269 0.38900003
0.1018184 -0.06921269 0.38900003
0.10283254 -0.06921269 0.38900003
0.10357973 -0.069034763 0.38800001
0.10459127 -0.069034763 0.38800001
0.10560281 -0.069034763 0.38800001
0.10661434 -0.069034763 0.38800001
0.10734851 -0.068856843 0.38700002
0.10835744 -0.068856843 0.38700002
0.10936637 -0.068856843 0.38700002
0.11009009 -0.068678916 0.38600001
0.11109642 -0.068678916 0.38600001
0.11210274 -0.068678916 0.38600001
0.11310907 -0.068678916 0.38600001
0.11381977 -0.068500996 0.38500002
0.11482349 -0.068500996 0.38500002
0.11582721 -0.068500996 0.38500002
0.11683092 -0.068500996 0.38500002
0.11783465 -0.068500996 0.38500002
0.11852968 -0.068323068 0.384
0.1195308 -0.068323068 0.384
0.12021803 -0.068145141 0.38300002
0.12121654 -0.068145141 0.38300002
0.12189595 -0.067967221 0.38200003
0.12289185 -0.067967221 0.38200003
0.12388774 -0.067967221 0.38200003
0.12488364 -0.067967221 0.38200003
0.12555002 -0.067789294 0.38100001
0.1265433 -0.067789294 0.38100001
0.12753659 -0.067789294 0.38100001
0.12852988 -0.067789294 0.38100001
0.12952317 -0.067789294 0.38100001
0.13017391 -0.067611374 0.38000003
0.1311646 -0.067611374 0.38000003
0.13215527 -0.067611374 0.38000003
0.13314596 -0.067611374 0.38000003
0.13378364 -0.067433447 0.37900001
0.13477172 -0.067433447 0.37900001
0.1357598 -0.067433447 0.37900001
0.13674788 -0.067433447 0.37900001
0.13773596 -0.067433447 0.37900001
0.13872403 -0.067433447 0.37900001
0.13934349 -0.067255519 0.37800002
0.14032894 -0.067255519 0.37800002
0.14131443 -0.067255519 0.37800002
0.14229989 -0.067255519 0.37800002
0.14290629 -0.067077592 0.377
0.14388916 -0.067077592 0.377
0.14487202 -0.067077592 0.377
0.145468 -0.066899672 0.37600002
0.14644825 -0.066899672 0.37600002
0.14742851 -0.066899672 0.37600002
0.14840877 -0.066899672 0.37600002
0.14938903 -0.066899672 0.37600002
0.14996937 -0.066721745 0.37500003
0.15094702 -0.066721745 0.37500003
0.15192467 -0.066721745 0.37500003
0.15290232 -0.066721745 0.37500003
0.15387997 -0.066721745 0.37500003
0.15485762 -0.066721745 0.37500003
0.15583526 -0.066721745 0.37500003
0.15681292 -0.066721745 0.37500003
0.15779056 -0.066721745 0.37500003
0.15876821 -0.066721745 0.37500003
0.15974586 -0.066721745 0.37500003
0.16029491 -0.066543818 0.37400001
0.16126995 -0.066543818 0.37400001
0.16181119 -0.066365898 0.37300003
0.16278362 -0.066365898 0.37300003
0.16375606 -0.066365898 0.37300003
0.16472849 -0.066365898 0.37300003
0.16525668 -0.06618797 0.37200001
0.16622651 -0.06618797 0.37200001
0.16674688 -0.06601005 0.37100002
0.1677141 -0.06601005 0.37100002
0.16868132 -0.06601005 0.37100002
0.16964854 -0.06601005 0.37100002
0.17061576 -0.06601005 0.37100002
0.171583 -0.06601005 0.37100002
-0.27205071 -0.084853716 0.48400003
-0.27078888 -0.084853716 0.48400003
-0.26952705 -0.084853716 0.48400003
-0.26771095 -0.084678397 0.48300001
-0.26645175 -0.084678397 0.48300001
-0.26519254 -0.084678397 0.48300001
-0.26338688 -0.084503077 0.48200002
-0.26213029 -0.084503077 0.48200002
-0.26033247 -0.084327765 0.48100004
-0.25907844 -0.084327765 0.48100004
-0.25782445 -0.084327765 0.48100004
-0.25657046 -0.084327765 0.48100004
-0.25478566 -0.084152445 0.48000002
-0.25353426 -0.084152445 0.48000002
-0.25228286 -0.084152445 0.48000002
-0.25050852 -0.083977126 0.47900003
-0.24925974 -0.083977126 0.47900003
-0.24801093 -0.083977126 0.47900003
-0.24624698 -0.083801806 0.47800002
-0.24500081 -0.083801806 0.47800002
-0.24324468 -0.083626494 0.47700003
-0.24200112 -0.083626494 0.47700003
-0.24075755 -0.083626494 0.47700003
-0.23901185 -0.083451174 0.47600001
-0.23777089 -0.083451174 0.47600001
-0.23603301 -0.083275855 0.47500002
-0.23479466 -0.083275855 0.47500002
-0.2335563 -0.083275855 0.47500002
-0.23182887 -0.083100542 0.47400004
-0.23059312 -0.083100542 0.47400004
-0.22887348 -0.082925223 0.47300002
-0.22764035 -0.082925223 0.47300002
-0.2264072 -0.082925223 0.47300002
-0.22517407 -0.082925223 0.47300002
-0.22346747 -0.082749903 0.47200003
-0.2217661 -0.082574584 0.47100002
-0.22053817 -0.082574584 0.47100002
-0.21931025 -0.082574584 0.47100002
-0.21808231 -0.082574584 0.47100002
-0.21639399 -0.082399271 0.47000003
-0.21516865 -0.082399271 0.47000003
-0.21394335 -0.082399271 0.47000003
-0.21271802 -0.082399271 0.47000003
-0.2110427 -0.082223952 0.46900001
-0.20982 -0.082223952 0.46900001
-0.20859727 -0.082223952 0.46900001
-0.20693241 -0.082048632 0.46800002
-0.2057123 -0.082048632 0.46800002
-0.20405525 -0.081873313 0.46700001
-0.20283775 -0.081873313 0.46700001
-0.20162025 -0.081873313 0.46700001
-0.19997363 -0.081698 0.46600002
-0.19875874 -0.081698 0.46600002
-0.19754384 -0.081698 0.46600002
-0.19590765 -0.081522681 0.46500003
-0.19469537 -0.081522681 0.46500003
-0.19306697 -0.081347361 0.46400002
-0.19185731 -0.081347361 0.46400002
-0.19064762 -0.081347361 0.46400002
-0.18902968 -0.081172049 0.46300003
-0.18782261 -0.081172049 0.46300003
-0.18661554 -0.081172049 0.46300003
-0.185008 -0.080996729 0.46200001
-0.14434372 -0.068549179 0.39100003
-0.14332435 -0.068549179 0.39100003
-0.14230499 -0.068549179 0.39100003
-0.14128563 -0.068549179 0.39100003
-0.13990752 -0.068373859 0.39000002
-0.13853464 -0.068198547 0.38900003
-0.13752049 -0.068198547 0.38900003
-0.13615543 -0.068023227 0.38800001
-0.13444726 -0.067672588 0.38600001
-0.12738103 -0.066094734 0.377
-0.1260629 -0.065919414 0.37600002
-0.12474997 -0.065744102 0.37500003
-0.12377233 -0.065744102 0.37500003
-0.12279468 -0.065744102 0.37500003
-0.12149218 -0.065568782 0.37400001
-0.1201949 -0.065393463 0.37300003
-0.11922248 -0.065393463 0.37300003
-0.11793301 -0.065218143 0.37200001
-0.11696317 -0.065218143 0.37200001
-0.11599335 -0.065218143 0.37200001
-0.11502352 -0.065218143 0.37200001
-0.11374711 -0.065042831 0.37100002
-0.11277988 -0.065042831 0.37100002
-0.11181267 -0.065042831 0.37100002
-0.11084544 -0.065042831 0.37100002
-0.10987823 -0.065042831 0.37100002
-0.10861743 -0.064867504 0.37
-0.10765283 -0.064867504 0.37
-0.10668821 -0.064867504 0.37
-0.10600934 -0.065042831 0.37100002
-0.10504211 -0.065042831 0.37100002
-0.10407489 -0.065042831 0.37100002
-0.10310768 -0.065042831 0.37100002
-0.10214045 -0.065042831 0.37100002
-0.10117324 -0.065042831 0.37100002
-0.10020601 -0.065042831 0.37100002
-0.099238798 -0.065042831 0.37100002
-0.098536447 -0.065218143 0.37200001
-0.097566627 -0.065218143 0.37200001
-0.096596792 -0.065218143 0.37200001
-0.095626973 -0.065218143 0.37200001
-0.094657138 -0.065218143 0.37200001
-0.09393917 -0.065393463 0.37300003
-0.092966728 -0.065393463 0.37300003
-0.091994293 -0.065393463 0.37300003
-0.091021858 -0.065393463 0.37300003
-0.090290844 -0.065568782 0.37400001
-0.089315802 -0.065568782 0.37400001
-0.088576972 -0.065744102 0.37500003
-0.087599322 -0.065744102 0.37500003
-0.086852655 -0.065919414 0.37600002
-0.086100779 -0.066094734 0.377
-0.085343696 -0.066270053 0.37800002
-0.08435823 -0.066270053 0.37800002
-0.083593324 -0.066445366 0.37900001
-0.082823202 -0.066620685 0.38000003
-0.081832521 -0.066620685 0.38000003
-0.081054576 -0.066796005 0.38100001
-0.080271423 -0.066971324 0.38200003
-0.079275526 -0.066971324 0.38200003
-0.078484543 -0.067146637 0.38300002
-0.077688351 -0.067321956 0.384
-0.076886944 -0.067497276 0.38500002
-0.076080322 -0.067672588 0.38600001
-0.075462975 -0.068023227 0.38800001
-0.074643329 -0.068198547 0.38900003
-0.074007735 -0.068549179 0.39100003
-0.07336171 -0.06889981 0.39300001
-0.072889328 -0.069425769 0.39600003
-0.072582759 -0.070127033 0.40000001
-0.071747601 -0.074685298 0.42600003
-0.0708028 -0.07486061 0.42700002
-0.069852792 -0.07503593 0.42800003
-0.069058165 -0.075386561 0.43000001
-0.067937128 -0.075386561 0.43000001
-0.066816092 -0.075386561 0.43000001
-0.065695055 -0.075386561 0.43000001
-0.064574018 -0.075386561 0.43000001
-0.063452981 -0.075386561 0.43000001
-0.062331945 -0.075386561 0.43000001
-0.061210904 -0.075386561 0.43000001
-0.060089868 -0.075386561 0.43000001
-0.058968831 -0.075386561 0.43000001
-0.057847794 -0.075386561 0.43000001
-0.056726757 -0.075386561 0.43000001
-0.055605717 -0.075386561 0.43000001
-0.054484677 -0.075386561 0.43000001
-0.053239543 -0.075211249 0.42900002
-0.052121114 -0.075211249 0.42900002
-0.051002681 -0.075211249 0.42900002
-0.049767975 -0.07503593 0.42800003
-0.04865215 -0.07503593 0.42800003
-0.047425259 -0.07486061 0.42700002
-0.046312045 -0.07486061 0.42700002
-0.045092978 -0.074685298 0.42600003
-0.043982364 -0.074685298 0.42600003
-0.042871758 -0.074685298 0.42600003
-0.041663114 -0.074509978 0.42500001
-0.040555116 -0.074509978 0.42500001
-0.039447114 -0.074509978 0.42500001
-0.038339112 -0.074509978 0.42500001
-0.03723111 -0.074509978 0.42500001
-0.036038112 -0.074334659 0.42400002
-0.034932714 -0.074334659 0.42400002
-0.03382732 -0.074334659 0.42400002
-0.032721926 -0.074334659 0.42400002
-0.031541962 -0.074159339 0.42300001
-0.030439176 -0.074159339 0.42300001
-0.029267034 -0.073984027 0.42200002
-0.028166853 -0.073984027 0.42200002
-0.027066672 -0.073984027 0.42200002
-0.025904961 -0.073808707 0.42100003
-0.024807388 -0.073808707 0.42100003
-0.023709813 -0.073808707 0.42100003
-0.022558527 -0.073633388 0.42000002
-0.021463562 -0.073633388 0.42000002
-0.020368593 -0.073633388 0.42000002
-0.019273628 -0.073633388 0.42000002
-0.01817866 -0.073633388 0.42000002
-0.017083693 -0.073633388 0.42000002
-0.015988726 -0.073633388 0.42000002
-0.0148583 -0.073458076 0.41900003
-0.01376594 -0.073458076 0.41900003
-0.012673579 -0.073458076 0.41900003
-0.01158122 -0.073458076 0.41900003
-0.01048886 -0.073458076 0.41900003
-0.0093965009 -0.073458076 0.41900003
-0.008284322 -0.073282756 0.41800001
-0.0071945684 -0.073282756 0.41800001
-0.0061048162 -0.073282756 0.41800001
-0.0050030658 -0.073107436 0.41700003
-0.0039159204 -0.073107436 0.41700003
-0.0028219912 -0.072932117 0.41600001
-0.0017374526 -0.072932117 0.41600001
-0.00065134466 -0.072756805 0.41500002
0.00043058681 -0.072756805 0.41500002
0.0015125183 -0.072756805 0.41500002
0.0025881981 -0.072581485 0.41400003
0.0036675227 -0.072581485 0.41400003
0.0047353809 -0.072406165 0.41300002
0.0058120983 -0.072406165 0.41300002
0.0068888157 -0.072406165 0.41300002
0.0079655331 -0.072406165 0.41300002
0.00904225 -0.072406165 0.41300002
0.010094467 -0.072230853 0.41200003
0.011168577 -0.072230853 0.41200003
0.012242688 -0.072230853 0.41200003
0.013284475 -0.072055534 0.41100001
0.014355977 -0.072055534 0.41100001
0.015389945 -0.071880214 0.41000003
0.016458841 -0.071880214 0.41000003
0.017527737 -0.071880214 0.41000003
0.018596634 -0.071880214 0.41000003
0.01966553 -0.071880214 0.41000003
0.020734426 -0.071880214 0.41000003
0.021803323 -0.071880214 0.41000003
0.022872219 -0.071880214 0.41000003
0.023941115 -0.071880214 0.41000003
0.02494901 -0.071704894 0.40900001
0.026015297 -0.071704894 0.40900001
0.027081588 -0.071704894 0.40900001
0.028079057 -0.071529582 0.40800002
0.029142739 -0.071529582 0.40800002
0.03020642 -0.071529582 0.40800002
0.031270102 -0.071529582 0.40800002
0.032254532 -0.071354255 0.40700001
0.03331561 -0.071354255 0.40700001
0.034376685 -0.071354255 0.40700001
0.035437759 -0.071354255 0.40700001
0.036498833 -0.071354255 0.40700001
0.037467625 -0.071178943 0.40600002
0.038526092 -0.071178943 0.40600002
0.03948706 -0.071003631 0.40500003
0.040542923 -0.071003631 0.40500003
0.041598786 -0.071003631 0.40500003
0.042549323 -0.070828304 0.40400001
0.043602578 -0.070828304 0.40400001
0.044545297 -0.070652992 0.40300003
0.045595944 -0.070652992 0.40300003
0.046646591 -0.070652992 0.40300003
0.047697239 -0.070652992 0.40300003
0.048747886 -0.070652992 0.40300003
0.049674958 -0.070477672 0.40200001
0.050722998 -0.070477672 0.40200001
0.051771037 -0.070477672 0.40200001
0.052819077 -0.070477672 0.40200001
0.053867117 -0.070477672 0.40200001
0.054915156 -0.070477672 0.40200001
0.055963196 -0.070477672 0.40200001
0.057011239 -0.070477672 0.40200001
0.057914853 -0.070302352 0.40100002
0.058960285 -0.070302352 0.40100002
0.060005717 -0.070302352 0.40100002
0.0608989 -0.070127033 0.40000001
0.061941724 -0.070127033 0.40000001
0.062827088 -0.069951721 0.39900002
0.063867308 -0.069951721 0.39900002
0.064744852 -0.069776401 0.39800003
0.065782465 -0.069776401 0.39800003
0.066820078 -0.069776401 0.39800003
0.067687191 -0.069601081 0.39700001
0.068722188 -0.069601081 0.39700001
0.069757201 -0.069601081 0.39700001
0.070613891 -0.069425769 0.39600003
0.071646288 -0.069425769 0.39600003
0.072678685 -0.069425769 0.39600003
0.073711082 -0.069425769 0.39600003
0.074554726 -0.06925045 0.39500001
0.075584516 -0.06925045 0.39500001
0.076614305 -0.06925045 0.39500001
0.077447534 -0.06907513 0.39400002
0.078474715 -0.06907513 0.39400002
0.079501897 -0.06907513 0.39400002
0.080529079 -0.06907513 0.39400002
0.081349261 -0.06889981 0.39300001
0.082373843 -0.06889981 0.39300001
0.083398417 -0.06889981 0.39300001
0.084422998 -0.06889981 0.39300001
0.085447572 -0.06889981 0.39300001
0.086472146 -0.06889981 0.39300001
0.087274089 -0.068724498 0.39200002
0.088296056 -0.068724498 0.39200002
0.089318022 -0.068724498 0.39200002
0.090339996 -0.068724498 0.39200002
0.091361962 -0.068724498 0.39200002
0.092383929 -0.068724498 0.39200002
0.093167618 -0.068549179 0.39100003
0.094186984 -0.068549179 0.39100003
0.09520635 -0.068549179 0.39100003
0.095979609 -0.068373859 0.39000002
0.09699636 -0.068373859 0.39000002
0.09801311 -0.068373859 0.39000002
0.098775953 -0.068198547 0.38900003
0.099790089 -0.068198547 0.38900003
0.10080425 -0.068198547 0.38900003
0.1018184 -0.068198547 0.38900003
0.10283254 -0.068198547 0.38900003
0.10384669 -0.068198547 0.38900003
0.10459127 -0.068023227 0.38800001
0.10560281 -0.068023227 0.38800001
0.10661434 -0.068023227 0.38800001
0.10762589 -0.068023227 0.38800001
0.10835744 -0.067847908 0.38700002
0.10936637 -0.067847908 0.38700002
0.1103753 -0.067847908 0.38700002
0.11109642 -0.067672588 0.38600001
0.11210274 -0.067672588 0.38600001
0.11310907 -0.067672588 0.38600001
0.1141154 -0.067672588 0.38600001
0.11512172 -0.067672588 0.38600001
0.11612806 -0.067672588 0.38600001
0.11683092 -0.067497276 0.38500002
0.11783465 -0.067497276 0.38500002
0.11883836 -0.067497276 0.38500002
0.1195308 -0.067321956 0.384
0.12053191 -0.067321956 0.384
0.12121654 -0.067146637 0.38300002
0.12221504 -0.067146637 0.38300002
0.12289185 -0.066971324 0.38200003
0.12388774 -0.066971324 0.38200003
0.12488364 -0.066971324 0.38200003
0.12587954 -0.066971324 0.38200003
0.1265433 -0.066796005 0.38100001
0.12753659 -0.066796005 0.38100001
0.12852988 -0.066796005 0.38100001
0.12952317 -0.066796005 0.38100001
0.13051647 -0.066796005 0.38100001
0.1311646 -0.066620685 0.38000003
0.13215527 -0.066620685 0.38000003
0.13314596 -0.066620685 0.38000003
0.13413665 -0.066620685 0.38000003
0.13512734 -0.066620685 0.38000003
0.1357598 -0.066445366 0.37900001
0.13674788 -0.066445366 0.37900001
0.13773596 -0.066445366 0.37900001
0.13872403 -0.066445366 0.37900001
0.13971211 -0.066445366 0.37900001
0.14032894 -0.066270053 0.37800002
0.14131443 -0.066270053 0.37800002
0.14229989 -0.066270053 0.37800002
0.14290629 -0.066094734 0.377
0.14388916 -0.066094734 0.377
0.14487202 -0.066094734 0.377
0.14585488 -0.066094734 0.377
0.14644825 -0.065919414 0.37600002
0.14742851 -0.065919414 0.37600002
0.14840877 -0.065919414 0.37600002
0.14938903 -0.065919414 0.37600002
0.15036929 -0.065919414 0.37600002
0.15094702 -0.065744102 0.37500003
0.15192467 -0.065744102 0.37500003
0.15290232 -0.065744102 0.37500003
0.15387997 -0.065744102 0.37500003
0.15485762 -0.065744102 0.37500003
0.15583526 -0.065744102 0.37500003
0.15681292 -0.065744102 0.37500003
0.15779056 -0.065744102 0.37500003
0.15876821 -0.065744102 0.37500003
0.15974586 -0.065744102 0.37500003
0.16029491 -0.065568782 0.37400001
0.16126995 -0.065568782 0.37400001
0.16224499 -0.065568782 0.37400001
0.16278362 -0.065393463 0.37300003
0.16375606 -0.065393463 0.37300003
0.16472849 -0.065393463 0.37300003
0.16525668 -0.065218143 0.37200001
0.16622651 -0.065218143 0.37200001
0.16674688 -0.065042831 0.37100002
0.1677141 -0.065042831 0.37100002
0.16868132 -0.065042831 0.37100002
0.16964854 -0.065042831 0.37100002
0.17061576 -0.065042831 0.37100002
0.171583 -0.065042831 0.37100002
-0.27205071 -0.083591901 0.48400003
-0.27078888 -0.083591901 0.48400003
-0.26952705 -0.083591901 0.48400003
-0.26771095 -0.083419181 0.48300001
-0.26645175 -0.083419181 0.48300001
-0.26519254 -0.083419181 0.48300001
-0.26338688 -0.083246477 0.48200002
-0.26213029 -0.083246477 0.48200002
-0.26033247 -0.083073765 0.48100004
-0.25907844 -0.083073765 0.48100004
-0.25782445 -0.083073765 0.48100004
-0.25657046 -0.083073765 0.48100004
-0.25531647 -0.083073765 0.48100004
-0.25353426 -0.082901053 0.48000002
-0.25228286 -0.082901053 0.48000002
-0.25103149 -0.082901053 0.48000002
-0.24925974 -0.082728349 0.47900003
-0.24801093 -0.082728349 0.47900003
-0.24676216 -0.082728349 0.47900003
-0.24500081 -0.082555629 0.47800002
-0.24375461 -0.082555629 0.47800002
-0.24200112 -0.082382925 0.47700003
-0.24075755 -0.082382925 0.47700003
-0.23951399 -0.082382925 0.47700003
-0.23777089 -0.082210213 0.47600001
-0.23652992 -0.082210213 0.47600001
-0.23479466 -0.082037501 0.47500002
-0.2335563 -0.082037501 0.47500002
-0.23182887 -0.081864797 0.47400004
-0.23059312 -0.081864797 0.47400004
-0.22935736 -0.081864797 0.47400004
-0.22764035 -0.081692077 0.47300002
-0.2264072 -0.081692077 0.47300002
-0.22517407 -0.081692077 0.47300002
-0.22346747 -0.081519373 0.47200003
-0.22223695 -0.081519373 0.47200003
-0.22053817 -0.081346661 0.47100002
-0.21931025 -0.081346661 0.47100002
-0.21808231 -0.081346661 0.47100002
-0.21685439 -0.081346661 0.47100002
-0.21516865 -0.081173949 0.47000003
-0.21394335 -0.081173949 0.47000003
-0.21271802 -0.081173949 0.47000003
-0.2114927 -0.081173949 0.47000003
-0.20982 -0.081001237 0.46900001
-0.20859727 -0.081001237 0.46900001
-0.20737457 -0.081001237 0.46900001
-0.2057123 -0.080828533 0.46800002
-0.20449221 -0.080828533 0.46800002
-0.20327209 -0.080828533 0.46800002
-0.20162025 -0.080655813 0.46700001
-0.20040275 -0.080655813 0.46700001
-0.19918525 -0.080655813 0.46700001
-0.19754384 -0.080483109 0.46600002
-0.19632895 -0.080483109 0.46600002
-0.19469537 -0.080310397 0.46500003
-0.19348307 -0.080310397 0.46500003
-0.1922708 -0.080310397 0.46500003
-0.19064762 -0.080137685 0.46400002
-0.18943796 -0.080137685 0.46400002
-0.18822826 -0.080137685 0.46400002
-0.18661554 -0.07996498 0.46300003
-0.14536308 -0.06752982 0.39100003
-0.14434372 -0.06752982 0.39100003
-0.14332435 -0.06752982 0.39100003
-0.14230499 -0.06752982 0.39100003
-0.14128563 -0.06752982 0.39100003
-0.14026627 -0.06752982 0.39100003
-0.1392469 -0.06752982 0.39100003
-0.13787402 -0.067357108 0.39000002
-0.13685726 -0.067357108 0.39000002
-0.13344094 -0.06666626 0.38600001
-0.12771891 -0.06528458 0.37800002
-0.1260629 -0.064939156 0.37600002
-0.12508264 -0.064939156 0.37600002
-0.12377233 -0.064766452 0.37500003
-0.12279468 -0.064766452 0.37500003
-0.12149218 -0.06459374 0.37400001
-0.12051713 -0.06459374 0.37400001
-0.11922248 -0.064421028 0.37300003
-0.11825003 -0.064421028 0.37300003
-0.11727759 -0.064421028 0.37300003
-0.11630516 -0.064421028 0.37300003
-0.11502352 -0.064248316 0.37200001
-0.1140537 -0.064248316 0.37200001
-0.11277988 -0.064075604 0.37100002
-0.11181267 -0.064075604 0.37100002
-0.11084544 -0.064075604 0.37100002
-0.10987823 -0.064075604 0.37100002
-0.108911 -0.064075604 0.37100002
-0.10794378 -0.064075604 0.37100002
-0.10697655 -0.064075604 0.37100002
-0.10600934 -0.064075604 0.37100002
-0.10504211 -0.064075604 0.37100002
-0.10407489 -0.064075604 0.37100002
-0.10310768 -0.064075604 0.37100002
-0.10214045 -0.064075604 0.37100002
-0.10117324 -0.064075604 0.37100002
-0.10020601 -0.064075604 0.37100002
-0.099506281 -0.064248316 0.37200001
-0.098536447 -0.064248316 0.37200001
-0.097566627 -0.064248316 0.37200001
-0.096596792 -0.064248316 0.37200001
-0.095626973 -0.064248316 0.37200001
-0.094911598 -0.064421028 0.37300003
-0.09393917 -0.064421028 0.37300003
-0.092966728 -0.064421028 0.37300003
-0.091994293 -0.064421028 0.37300003
-0.091021858 -0.064421028 0.37300003
-0.090290844 -0.06459374 0.37400001
-0.089315802 -0.06459374 0.37400001
-0.088576972 -0.064766452 0.37500003
-0.087599322 -0.064766452 0.37500003
-0.086852655 -0.064939156 0.37600002
-0.086100779 -0.065111868 0.377
-0.085117921 -0.065111868 0.377
-0.08435823 -0.06528458 0.37800002
-0.083593324 -0.065457292 0.37900001
-0.082605243 -0.065457292 0.37900001
-0.081832521 -0.065630004 0.38000003
-0.081054576 -0.065802708 0.38100001
-0.080271423 -0.065975428 0.38200003
-0.079275526 -0.065975428 0.38200003
-0.078484543 -0.066148132 0.38300002
-0.077688351 -0.066320844 0.384
-0.076886944 -0.066493556 0.38500002
-0.076080322 -0.06666626 0.38600001
-0.075268492 -0.06683898 0.38700002
-0.074643329 -0.067184396 0.38900003
-0.073818453 -0.067357108 0.39000002
-0.073175043 -0.067702532 0.39200002
-0.072705261 -0.06822066 0.39500001
-0.072219849 -0.068738796 0.39800003
-0.071579173 -0.073401973 0.42500001
-0.0708028 -0.073747396 0.42700002
-0.069852792 -0.073920108 0.42800003
-0.069058165 -0.074265525 0.43000001
-0.067937128 -0.074265525 0.43000001
-0.066816092 -0.074265525 0.43000001
-0.065847836 -0.074438237 0.43100002
-0.064724192 -0.074438237 0.43100002
-0.063600548 -0.074438237 0.43100002
-0.062476903 -0.074438237 0.43100002
-0.061210904 -0.074265525 0.43000001
-0.060089868 -0.074265525 0.43000001
-0.058968831 -0.074265525 0.43000001
-0.057847794 -0.074265525 0.43000001
-0.056726757 -0.074265525 0.43000001
-0.055605717 -0.074265525 0.43000001
-0.054484677 -0.074265525 0.43000001
-0.053239543 -0.07409282 0.42900002
-0.052121114 -0.07409282 0.42900002
-0.051002681 -0.07409282 0.42900002
-0.049767975 -0.073920108 0.42800003
-0.04865215 -0.073920108 0.42800003
-0.047425259 -0.073747396 0.42700002
-0.046312045 -0.073747396 0.42700002
-0.045198828 -0.073747396 0.42700002
-0.043982364 -0.073574685 0.42600003
-0.042871758 -0.073574685 0.42600003
-0.041663114 -0.073401973 0.42500001
-0.040555116 -0.073401973 0.42500001
-0.039447114 -0.073401973 0.42500001
-0.038339112 -0.073401973 0.42500001
-0.03723111 -0.073401973 0.42500001
-0.036123104 -0.073401973 0.42500001
-0.034932714 -0.073229268 0.42400002
-0.03382732 -0.073229268 0.42400002
-0.032721926 -0.073229268 0.42400002
-0.031541962 -0.073056556 0.42300001
-0.030439176 -0.073056556 0.42300001
-0.029267034 -0.072883844 0.42200002
-0.028166853 -0.072883844 0.42200002
-0.027066672 -0.072883844 0.42200002
-0.025904961 -0.072711132 0.42100003
-0.024807388 -0.072711132 0.42100003
-0.023709813 -0.072711132 0.42100003
-0.022558527 -0.072538421 0.42000002
-0.021463562 -0.072538421 0.42000002
-0.020368593 -0.072538421 0.42000002
-0.019273628 -0.072538421 0.42000002
-0.01817866 -0.072538421 0.42000002
-0.017083693 -0.072538421 0.42000002
-0.015988726 -0.072538421 0.42000002
-0.01489376 -0.072538421 0.42000002
-0.013798794 -0.072538421 0.42000002
-0.012673579 -0.072365716 0.41900003
-0.01158122 -0.072365716 0.41900003
-0.01048886 -0.072365716 0.41900003
-0.0093965009 -0.072365716 0.41900003
-0.0083041405 -0.072365716 0.41900003
-0.0071945684 -0.072193004 0.41800001
-0.0061048162 -0.072193004 0.41800001
-0.0050030658 -0.072020292 0.41700003
-0.0039159204 -0.072020292 0.41700003
-0.0028219912 -0.07184758 0.41600001
-0.0017374526 -0.07184758 0.41600001
-0.00065291411 -0.07184758 0.41600001
0.00043058681 -0.071674868 0.41500002
0.0015125183 -0.071674868 0.41500002
0.0025944498 -0.071674868 0.41500002
0.0036675227 -0.071502164 0.41400003
0.0047468469 -0.071502164 0.41400003
0.0058261715 -0.071502164 0.41400003
0.0068888157 -0.071329452 0.41300002
0.0079655331 -0.071329452 0.41300002
0.00904225 -0.071329452 0.41300002
0.010118968 -0.071329452 0.41300002
0.011168577 -0.07115674 0.41200003
0.012242688 -0.07115674 0.41200003
0.013316797 -0.07115674 0.41200003
0.014355977 -0.070984028 0.41100001
0.015427481 -0.070984028 0.41100001
0.016498985 -0.070984028 0.41100001
0.017570486 -0.070984028 0.41100001
0.018596634 -0.070811316 0.41000003
0.01966553 -0.070811316 0.41000003
0.020734426 -0.070811316 0.41000003
0.021803323 -0.070811316 0.41000003
0.022872219 -0.070811316 0.41000003
0.023941115 -0.070811316 0.41000003
0.02501001 -0.070811316 0.41000003
0.026015297 -0.070638604 0.40900001
0.027081588 -0.070638604 0.40900001
0.028147878 -0.070638604 0.40900001
0.029214166 -0.070638604 0.40900001
0.03020642 -0.0704659 0.40800002
0.031270102 -0.0704659 0.40800002
0.032333784 -0.0704659 0.40800002
0.03331561 -0.070293181 0.40700001
0.034376685 -0.070293181 0.40700001
0.035437759 -0.070293181 0.40700001
0.036498833 -0.070293181 0.40700001
0.037467625 -0.070120476 0.40600002
0.038526092 -0.070120476 0.40600002
0.03948706 -0.069947764 0.40500003
0.040542923 -0.069947764 0.40500003
0.041598786 -0.069947764 0.40500003
0.042549323 -0.069775052 0.40400001
0.043602578 -0.069775052 0.40400001
0.04465583 -0.069775052 0.40400001
0.045595944 -0.069602348 0.40300003
0.046646591 -0.069602348 0.40300003
0.047697239 -0.069602348 0.40300003
0.048747886 -0.069602348 0.40300003
0.04979853 -0.069602348 0.40300003
0.050722998 -0.069429629 0.40200001
0.051771037 -0.069429629 0.40200001
0.052819077 -0.069429629 0.40200001
0.053867117 -0.069429629 0.40200001
0.054915156 -0.069429629 0.40200001
0.055963196 -0.069429629 0.40200001
0.057011239 -0.069429629 0.40200001
0.058059279 -0.069429629 0.40200001
0.058960285 -0.069256924 0.40100002
0.060005717 -0.069256924 0.40100002
0.0608989 -0.069084212 0.40000001
0.061941724 -0.069084212 0.40000001
0.062827088 -0.0689115 0.39900002
0.063867308 -0.0689115 0.39900002
0.064907528 -0.0689115 0.39900002
0.065782465 -0.068738796 0.39800003
0.066820078 -0.068738796 0.39800003
0.06785769 -0.068738796 0.39800003
0.068722188 -0.068566084 0.39700001
0.069757201 -0.068566084 0.39700001
0.070792206 -0.068566084 0.39700001
0.071646288 -0.068393372 0.39600003
0.072678685 -0.068393372 0.39600003
0.073711082 -0.068393372 0.39600003
0.074554726 -0.06822066 0.39500001
0.075584516 -0.06822066 0.39500001
0.076614305 -0.06822066 0.39500001
0.077644095 -0.06822066 0.39500001
0.078474715 -0.068047948 0.39400002
0.079501897 -0.068047948 0.39400002
0.080529079 -0.068047948 0.39400002
0.081556261 -0.068047948 0.39400002
0.08258345 -0.068047948 0.39400002
0.083398417 -0.067875236 0.39300001
0.084422998 -0.067875236 0.39300001
0.085447572 -0.067875236 0.39300001
0.086472146 -0.067875236 0.39300001
0.08749672 -0.067875236 0.39300001
0.088296056 -0.067702532 0.39200002
0.089318022 -0.067702532 0.39200002
0.090339996 -0.067702532 0.39200002
0.091361962 -0.067702532 0.39200002
0.092383929 -0.067702532 0.39200002
0.093405895 -0.067702532 0.39200002
0.094186984 -0.06752982 0.39100003
0.09520635 -0.06752982 0.39100003
0.095979609 -0.067357108 0.39000002
0.09699636 -0.067357108 0.39000002
0.09801311 -0.067357108 0.39000002
0.099029869 -0.067357108 0.39000002
0.099790089 -0.067184396 0.38900003
0.10080425 -0.067184396 0.38900003
0.1018184 -0.067184396 0.38900003
0.10283254 -0.067184396 0.38900003
