# .PCD v0.7 - Point Cloud Data file format
VERSION 0.7
FIELDS x y z
SIZE 4 4 4
TYPE F F F
COUNT 1 1 1
WIDTH 1369
HEIGHT 1
VIEWPOINT 0 0 0 1 0 0 0
POINTS 1369
DATA ascii
0.17297044 0.028035233 0.37400001
-0.24620713 0.033819467 0.43600002
-0.24507046 0.033819467 0.43600002
-0.2439338 0.033819467 0.43600002
-0.24279709 0.033819467 0.43600002
-0.24110615 0.033741903 0.43500003
-0.2399721 0.033741903 0.43500003
-0.238838 0.033741903 0.43500003
-0.23770393 0.033741903 0.43500003
-0.23656987 0.033741903 0.43500003
-0.23597702 0.033819467 0.43600002
-0.23484033 0.033819467 0.43600002
-0.23370366 0.033819467 0.43600002
-0.23256698 0.033819467 0.43600002
-0.23143031 0.033819467 0.43600002
-0.23029362 0.033819467 0.43600002
-0.22915694 0.033819467 0.43600002
-0.22854324 0.033897035 0.43700001
-0.22740397 0.033897035 0.43700001
-0.22626466 0.033897035 0.43700001
-0.22512537 0.033897035 0.43700001
-0.22347355 0.033819467 0.43600002
-0.22233684 0.033819467 0.43600002
-0.22120018 0.033819467 0.43600002
-0.22006351 0.033819467 0.43600002
-0.21892683 0.033819467 0.43600002
-0.21779014 0.033819467 0.43600002
-0.21665347 0.033819467 0.43600002
-0.21551679 0.033819467 0.43600002
-0.2143801 0.033819467 0.43600002
-0.21324342 0.033819467 0.43600002
-0.21210675 0.033819467 0.43600002
-0.21097006 0.033819467 0.43600002
-0.20983338 0.033819467 0.43600002
-0.20869669 0.033819467 0.43600002
-0.20756003 0.033819467 0.43600002
-0.20642334 0.033819467 0.43600002
-0.20481583 0.033741903 0.43500003
-0.20368175 0.033741903 0.43500003
-0.20254768 0.033741903 0.43500003
-0.20141362 0.033741903 0.43500003
-0.20027955 0.033741903 0.43500003
-0.19914547 0.033741903 0.43500003
-0.1980114 0.033741903 0.43500003
-0.19687732 0.033741903 0.43500003
-0.19574325 0.033741903 0.43500003
-0.19460918 0.033741903 0.43500003
-0.1934751 0.033741903 0.43500003
-0.19234103 0.033741903 0.43500003
-0.1916465 0.033819467 0.43600002
-0.19050983 0.033819467 0.43600002
-0.18937315 0.033819467 0.43600002
-0.18823647 0.033819467 0.43600002
-0.18709978 0.033819467 0.43600002
-0.18596311 0.033819467 0.43600002
-0.18482643 0.033819467 0.43600002
-0.18368976 0.033819467 0.43600002
-0.18255307 0.033819467 0.43600002
-0.18141638 0.033819467 0.43600002
-0.18027972 0.033819467 0.43600002
-0.17914303 0.033819467 0.43600002
-0.17800635 0.033819467 0.43600002
-0.17686966 0.033819467 0.43600002
-0.175733 0.033819467 0.43600002
-0.17459631 0.033819467 0.43600002
-0.17345963 0.033819467 0.43600002
-0.17192772 0.033741903 0.43500003
-0.17079365 0.033741903 0.43500003
-0.16965957 0.033741903 0.43500003
-0.1685255 0.033741903 0.43500003
-0.16739143 0.033741903 0.43500003
-0.16663955 0.033819467 0.43600002
-0.16550288 0.033819467 0.43600002
-0.16436619 0.033819467 0.43600002
-0.16322951 0.033819467 0.43600002
-0.1624646 0.033897035 0.43700001
-0.16132532 0.033897035 0.43700001
-0.16018602 0.033897035 0.43700001
-0.15904674 0.033897035 0.43700001
-0.15790746 0.033897035 0.43700001
-0.15676817 0.033897035 0.43700001
-0.15562887 0.033897035 0.43700001
-0.15448961 0.033897035 0.43700001
-0.15335031 0.033897035 0.43700001
-0.15186271 0.033819467 0.43600002
-0.15072604 0.033819467 0.43600002
-0.14958934 0.033819467 0.43600002
-0.14845268 0.033819467 0.43600002
-0.14731599 0.033819467 0.43600002
-0.14617932 0.033819467 0.43600002
-0.14504263 0.033819467 0.43600002
-0.14390597 0.033819467 0.43600002
-0.14276928 0.033819467 0.43600002
-0.1416326 0.033819467 0.43600002
-0.14049591 0.033819467 0.43600002
-0.13935925 0.033819467 0.43600002
-0.13822256 0.033819467 0.43600002
-0.13708587 0.033819467 0.43600002
-0.136261 0.033897035 0.43700001
-0.13512172 0.033897035 0.43700001
-0.13398243 0.033897035 0.43700001
-0.13284314 0.033897035 0.43700001
-0.13170385 0.033897035 0.43700001
-0.13056457 0.033897035 0.43700001
-0.12942529 0.033897035 0.43700001
-0.12828599 0.033897035 0.43700001
-0.12685576 0.033819467 0.43600002
-0.12571909 0.033819467 0.43600002
-0.12486814 0.033897035 0.43700001
-0.12372885 0.033897035 0.43700001
-0.12258956 0.033897035 0.43700001
-0.12145028 0.033897035 0.43700001
-0.12031098 0.033897035 0.43700001
-0.1191717 0.033897035 0.43700001
-0.11803241 0.033897035 0.43700001
-0.11689314 0.033897035 0.43700001
-0.11575384 0.033897035 0.43700001
-0.11461456 0.033897035 0.43700001
-0.11347526 0.033897035 0.43700001
-0.11233599 0.033897035 0.43700001
-0.1111967 0.033897035 0.43700001
-0.11030927 0.033974603 0.43800002
-0.10916737 0.033974603 0.43800002
-0.10802547 0.033974603 0.43800002
-0.10688358 0.033974603 0.43800002
-0.10574169 0.033974603 0.43800002
-0.10459979 0.033974603 0.43800002
-0.1034579 0.033974603 0.43800002
-0.10231601 0.033974603 0.43800002
-0.10094311 0.033897035 0.43700001
-0.09980382 0.033897035 0.43700001
-0.098664537 0.033897035 0.43700001
-0.097748429 0.033974603 0.43800002
-0.09660653 0.033974603 0.43800002
-0.095464639 0.033974603 0.43800002
-0.094107389 0.033897035 0.43700001
-0.092968106 0.033897035 0.43700001
-0.091828823 0.033897035 0.43700001
-0.090897061 0.033974603 0.43800002
-0.08975517 0.033974603 0.43800002
-0.088613279 0.033974603 0.43800002
-0.087471381 0.033974603 0.43800002
-0.086329482 0.033974603 0.43800002
-0.085187592 0.033974603 0.43800002
-0.084045701 0.033974603 0.43800002
-0.082903802 0.033974603 0.43800002
-0.081761912 0.033974603 0.43800002
-0.080620021 0.033974603 0.43800002
-0.079478122 0.033974603 0.43800002
-0.078336231 0.033974603 0.43800002
-0.07701809 0.033897035 0.43700001
-0.075878806 0.033897035 0.43700001
-0.074739516 0.033897035 0.43700001
-0.073600233 0.033897035 0.43700001
-0.072460949 0.033897035 0.43700001
-0.071321651 0.033897035 0.43700001
-0.070182368 0.033897035 0.43700001
-0.069043078 0.033897035 0.43700001
-0.067903794 0.033897035 0.43700001
-0.066917293 0.033974603 0.43800002
-0.065625221 0.033897035 0.43700001
-0.064485937 0.033897035 0.43700001
-0.063346647 0.033897035 0.43700001
-0.062207364 0.033897035 0.43700001
-0.061068077 0.033897035 0.43700001
-0.05992879 0.033897035 0.43700001
-0.058789503 0.033897035 0.43700001
-0.057650216 0.033897035 0.43700001
-0.056640241 0.033974603 0.43800002
-0.05549835 0.033974603 0.43800002
-0.05435646 0.033974603 0.43800002
-0.053214565 0.033974603 0.43800002
-0.05207267 0.033974603 0.43800002
-0.050930776 0.033974603 0.43800002
-0.049788881 0.033974603 0.43800002
-0.048646986 0.033974603 0.43800002
-0.047505096 0.033974603 0.43800002
-0.046363201 0.033974603 0.43800002
-0.045221306 0.033974603 0.43800002
-0.044079412 0.033974603 0.43800002
-0.042937517 0.033974603 0.43800002
-0.041795626 0.033974603 0.43800002
-0.040653732 0.033974603 0.43800002
-0.039511837 0.033974603 0.43800002
-0.038369942 0.033974603 0.43800002
-0.037228048 0.033974603 0.43800002
-0.036086153 0.033974603 0.43800002
-0.034944262 0.033974603 0.43800002
-0.033802368 0.033974603 0.43800002
-0.032660473 0.033974603 0.43800002
-0.031518582 0.033974603 0.43800002
-0.030376684 0.033974603 0.43800002
-0.029234791 0.033974603 0.43800002
-0.028092897 0.033974603 0.43800002
-0.026951004 0.033974603 0.43800002
-0.025809111 0.033974603 0.43800002
-0.024667215 0.033974603 0.43800002
-0.023525322 0.033974603 0.43800002
-0.022383429 0.033974603 0.43800002
-0.021241533 0.033974603 0.43800002
-0.02009964 0.033974603 0.43800002
-0.018957747 0.033974603 0.43800002
-0.017815851 0.033974603 0.43800002
-0.016673958 0.033974603 0.43800002
-0.015532064 0.033974603 0.43800002
-0.014423025 0.034052171 0.43900001
-0.013278523 0.034052171 0.43900001
-0.012134022 0.034052171 0.43900001
-0.010989521 0.034052171 0.43900001
-0.0098450212 0.034052171 0.43900001
-0.0087005198 0.034052171 0.43900001
-0.0075560184 0.034052171 0.43900001
-0.0064115175 0.034052171 0.43900001
-0.0052670166 0.034052171 0.43900001
-0.0041225157 0.034052171 0.43900001
-0.0029780148 0.034052171 0.43900001
-0.0018335137 0.034052171 0.43900001
-0.00068901276 0.034052171 0.43900001
0.00045548822 0.034052171 0.43900001
0.0015999891 0.034052171 0.43900001
0.00274449 0.034052171 0.43900001
0.0038889912 0.034052171 0.43900001
0.0050334921 0.034052171 0.43900001
0.006177993 0.034052171 0.43900001
0.0073224939 0.034052171 0.43900001
0.0084669944 0.034052171 0.43900001
0.0096114958 0.034052171 0.43900001
0.010755997 0.034052171 0.43900001
0.011900498 0.034052171 0.43900001
0.013044999 0.034052171 0.43900001
0.014189499 0.034052171 0.43900001
0.015334 0.034052171 0.43900001
0.016478501 0.034052171 0.43900001
0.017623002 0.034052171 0.43900001
0.018767502 0.034052171 0.43900001
0.019912004 0.034052171 0.43900001
0.021056505 0.034052171 0.43900001
0.022201005 0.034052171 0.43900001
0.023398688 0.034129739 0.44000003
0.024545794 0.034129739 0.44000003
0.025692903 0.034129739 0.44000003
0.026840013 0.034129739 0.44000003
0.027987117 0.034129739 0.44000003
0.029134229 0.034129739 0.44000003
0.030281337 0.034129739 0.44000003
0.031428445 0.034129739 0.44000003
0.032575551 0.034129739 0.44000003
0.033722658 0.034129739 0.44000003
0.034869768 0.034129739 0.44000003
0.035935018 0.034052171 0.43900001
0.037079521 0.034052171 0.43900001
0.038224019 0.034052171 0.43900001
0.039368521 0.034052171 0.43900001
0.04051302 0.034052171 0.43900001
0.041657522 0.034052171 0.43900001
0.042899523 0.034129739 0.44000003
0.044046633 0.034129739 0.44000003
0.045193739 0.034129739 0.44000003
0.046340849 0.034129739 0.44000003
0.047487956 0.034129739 0.44000003
0.048635062 0.034129739 0.44000003
0.049782172 0.034129739 0.44000003
0.050929282 0.034129739 0.44000003
0.052076388 0.034129739 0.44000003
0.053223498 0.034129739 0.44000003
0.054370604 0.034129739 0.44000003
0.055517711 0.034129739 0.44000003
0.056664821 0.034129739 0.44000003
0.057811927 0.034129739 0.44000003
0.058959033 0.034129739 0.44000003
0.060106143 0.034129739 0.44000003
0.06125325 0.034129739 0.44000003
0.062400363 0.034129739 0.44000003
0.06354747 0.034129739 0.44000003
0.064694576 0.034129739 0.44000003
0.06584169 0.034129739 0.44000003
0.066988796 0.034129739 0.44000003
0.068135902 0.034129739 0.44000003
0.069283009 0.034129739 0.44000003
0.070430115 0.034129739 0.44000003
0.071577221 0.034129739 0.44000003
0.072889611 0.034207307 0.44100001
0.074039325 0.034207307 0.44100001
0.075189039 0.034207307 0.44100001
0.076338753 0.034207307 0.44100001
0.077488475 0.034207307 0.44100001
0.078638189 0.034207307 0.44100001
0.07978791 0.034207307 0.44100001
0.080937624 0.034207307 0.44100001
0.082087338 0.034207307 0.44100001
0.083237052 0.034207307 0.44100001
0.084578119 0.034284875 0.44200003
0.085730441 0.034284875 0.44200003
0.086882763 0.034284875 0.44200003
0.088035084 0.034284875 0.44200003
0.089187406 0.034284875 0.44200003
0.090339728 0.034284875 0.44200003
0.091492049 0.034284875 0.44200003
0.092644379 0.034284875 0.44200003
0.0937967 0.034284875 0.44200003
0.094949022 0.034284875 0.44200003
0.096101344 0.034284875 0.44200003
0.097473696 0.034362443 0.44300002
0.098405987 0.034284875 0.44200003
0.099558309 0.034284875 0.44200003
0.10071063 0.034284875 0.44200003
0.10186295 0.034284875 0.44200003
0.10301527 0.034284875 0.44200003
0.1041676 0.034284875 0.44200003
0.10531992 0.034284875 0.44200003
0.10647224 0.034284875 0.44200003
0.10786806 0.034362443 0.44300002
0.10902299 0.034362443 0.44300002
0.11017792 0.034362443 0.44300002
0.11133284 0.034362443 0.44300002
0.11248778 0.034362443 0.44300002
0.1136427 0.034362443 0.44300002
0.11479763 0.034362443 0.44300002
0.11595257 0.034362443 0.44300002
0.11737184 0.034440011 0.44400004
0.11852939 0.034440011 0.44400004
0.11968692 0.034440011 0.44400004
0.12084446 0.034440011 0.44400004
0.12172721 0.034362443 0.44300002
0.12288214 0.034362443 0.44300002
0.12403706 0.034362443 0.44300002
0.125192 0.034362443 0.44300002
0.12634692 0.034362443 0.44300002
0.12750186 0.034362443 0.44300002
0.12865677 0.034362443 0.44300002
0.12981172 0.034362443 0.44300002
0.13096665 0.034362443 0.44300002
0.13182333 0.034284875 0.44200003
0.13297565 0.034284875 0.44200003
0.13412797 0.034284875 0.44200003
0.1352803 0.034284875 0.44200003
0.13643262 0.034284875 0.44200003
0.13789622 0.034362443 0.44300002
0.13905114 0.034362443 0.44300002
0.14020608 0.034362443 0.44300002
0.141361 0.034362443 0.44300002
0.14251593 0.034362443 0.44300002
0.14367086 0.034362443 0.44300002
0.14482579 0.034362443 0.44300002
0.14565121 0.034284875 0.44200003
0.14647138 0.034207307 0.44100001
0.14147848 0.032035414 0.41300002
0.13945287 0.030871902 0.39800003
0.1397845 0.030716766 0.39600003
0.14010571 0.03056163 0.39400002
0.14041647 0.030406496 0.39200002
0.14107764 0.030328928 0.39100003
0.14173357 0.03025136 0.39000002
0.14238431 0.030173793 0.38900003
0.14302982 0.030096224 0.38800001
0.14367011 0.030018657 0.38700002
0.1443052 0.029941088 0.38600001
0.14493507 0.029863521 0.38500002
0.14555973 0.029785953 0.384
0.14617917 0.029708385 0.38300002
0.14679341 0.029630819 0.38200003
0.1477893 0.029630819 0.38200003
0.1483957 0.029553251 0.38100001
0.1489969 0.029475683 0.38000003
0.14959288 0.029398115 0.37900001
0.15058096 0.029398115 0.37900001
0.15116912 0.029320549 0.37800002
0.15215459 0.029320549 0.37800002
0.15273492 0.029242979 0.377
0.15331006 0.029165413 0.37600002
0.1542903 0.029165413 0.37600002
0.15485762 0.029087847 0.37500003
0.15583526 0.029087847 0.37500003
0.15639473 0.029010277 0.37400001
0.15736978 0.029010277 0.37400001
0.15792145 0.028932711 0.37300003
0.15889387 0.028932711 0.37300003
0.15986632 0.028932711 0.37300003
0.16083875 0.028932711 0.37300003
0.16181119 0.028932711 0.37300003
0.16278362 0.028932711 0.37300003
0.16375606 0.028932711 0.37300003
0.16472849 0.028932711 0.37300003
0.16570093 0.028932711 0.37300003
0.1671202 0.029010277 0.37400001
0.16809523 0.029010277 0.37400001
0.16907029 0.029010277 0.37400001
0.17004532 0.029010277 0.37400001
0.17102037 0.029010277 0.37400001
0.1719954 0.029010277 0.37400001
0.17343295 0.029087847 0.37500003
-0.24620713 0.034956146 0.43600002
-0.24507046 0.034956146 0.43600002
-0.2439338 0.034956146 0.43600002
-0.24279709 0.034956146 0.43600002
-0.24166042 0.034956146 0.43600002
-0.24052374 0.034956146 0.43600002
-0.238838 0.034875974 0.43500003
-0.23770393 0.034875974 0.43500003
-0.23656987 0.034875974 0.43500003
-0.23597702 0.034956146 0.43600002
-0.23484033 0.034956146 0.43600002
-0.23370366 0.034956146 0.43600002
-0.23256698 0.034956146 0.43600002
-0.23143031 0.034956146 0.43600002
-0.23029362 0.034956146 0.43600002
-0.22915694 0.034956146 0.43600002
-0.22854324 0.035036322 0.43700001
-0.22740397 0.035036322 0.43700001
-0.22626466 0.035036322 0.43700001
-0.22512537 0.035036322 0.43700001
-0.22347355 0.034956146 0.43600002
-0.22233684 0.034956146 0.43600002
-0.22120018 0.034956146 0.43600002
-0.22006351 0.034956146 0.43600002
-0.21892683 0.034956146 0.43600002
-0.21779014 0.034956146 0.43600002
-0.21665347 0.034956146 0.43600002
-0.21551679 0.034956146 0.43600002
-0.2143801 0.034956146 0.43600002
-0.21324342 0.034956146 0.43600002
-0.21210675 0.034956146 0.43600002
-0.21097006 0.034956146 0.43600002
-0.20983338 0.034956146 0.43600002
-0.20869669 0.034956146 0.43600002
-0.20756003 0.034956146 0.43600002
-0.20642334 0.034956146 0.43600002
-0.20528667 0.034956146 0.43600002
-0.20368175 0.034875974 0.43500003
-0.20254768 0.034875974 0.43500003
-0.20141362 0.034875974 0.43500003
-0.20027955 0.034875974 0.43500003
-0.19914547 0.034875974 0.43500003
-0.1980114 0.034875974 0.43500003
-0.19687732 0.034875974 0.43500003
-0.19574325 0.034875974 0.43500003
-0.19460918 0.034875974 0.43500003
-0.19391987 0.034956146 0.43600002
-0.19278319 0.034956146 0.43600002
-0.1916465 0.034956146 0.43600002
-0.19050983 0.034956146 0.43600002
-0.18937315 0.034956146 0.43600002
-0.18823647 0.034956146 0.43600002
-0.18709978 0.034956146 0.43600002
-0.18596311 0.034956146 0.43600002
-0.18482643 0.034956146 0.43600002
-0.18368976 0.034956146 0.43600002
-0.18255307 0.034956146 0.43600002
-0.18141638 0.034956146 0.43600002
-0.18027972 0.034956146 0.43600002
-0.17914303 0.034956146 0.43600002
-0.17800635 0.034956146 0.43600002
-0.17686966 0.034956146 0.43600002
-0.175733 0.034956146 0.43600002
-0.17459631 0.034956146 0.43600002
-0.17345963 0.034956146 0.43600002
-0.17192772 0.034875974 0.43500003
-0.17118628 0.034956146 0.43600002
-0.16965957 0.034875974 0.43500003
-0.1685255 0.034875974 0.43500003
-0.16739143 0.034875974 0.43500003
-0.16663955 0.034956146 0.43600002
-0.16550288 0.034956146 0.43600002
-0.16436619 0.034956146 0.43600002
-0.16322951 0.034956146 0.43600002
-0.1624646 0.035036322 0.43700001
-0.16132532 0.035036322 0.43700001
-0.16018602 0.035036322 0.43700001
-0.15904674 0.035036322 0.43700001
-0.15790746 0.035036322 0.43700001
-0.15676817 0.035036322 0.43700001
-0.15562887 0.035036322 0.43700001
-0.15448961 0.035036322 0.43700001
-0.15335031 0.035036322 0.43700001
-0.15186271 0.034956146 0.43600002
-0.15072604 0.034956146 0.43600002
-0.14958934 0.034956146 0.43600002
-0.14845268 0.034956146 0.43600002
-0.14731599 0.034956146 0.43600002
-0.14617932 0.034956146 0.43600002
-0.14504263 0.034956146 0.43600002
-0.14390597 0.034956146 0.43600002
-0.14276928 0.034956146 0.43600002
-0.1416326 0.034956146 0.43600002
-0.14049591 0.034956146 0.43600002
-0.13935925 0.034956146 0.43600002
-0.13822256 0.034956146 0.43600002
-0.13708587 0.034956146 0.43600002
-0.13594919 0.034956146 0.43600002
-0.13481252 0.034956146 0.43600002
-0.13367584 0.034956146 0.43600002
-0.13253915 0.034956146 0.43600002
-0.13170385 0.035036322 0.43700001
-0.13056457 0.035036322 0.43700001
-0.12942529 0.035036322 0.43700001
-0.12828599 0.035036322 0.43700001
-0.12714672 0.035036322 0.43700001
-0.12600742 0.035036322 0.43700001
-0.12486814 0.035036322 0.43700001
-0.12372885 0.035036322 0.43700001
-0.12258956 0.035036322 0.43700001
-0.12145028 0.035036322 0.43700001
-0.12031098 0.035036322 0.43700001
-0.1191717 0.035036322 0.43700001
-0.11803241 0.035036322 0.43700001
-0.11689314 0.035036322 0.43700001
-0.11575384 0.035036322 0.43700001
-0.11461456 0.035036322 0.43700001
-0.11347526 0.035036322 0.43700001
-0.11233599 0.035036322 0.43700001
-0.1111967 0.035036322 0.43700001
-0.11005741 0.035036322 0.43700001
-0.10916737 0.035116497 0.43800002
-0.10802547 0.035116497 0.43800002
-0.10688358 0.035116497 0.43800002
-0.10574169 0.035116497 0.43800002
-0.10459979 0.035116497 0.43800002
-0.1034579 0.035116497 0.43800002
-0.10231601 0.035116497 0.43800002
-0.10094311 0.035036322 0.43700001
-0.09980382 0.035036322 0.43700001
-0.098890319 0.035116497 0.43800002
-0.097748429 0.035116497 0.43800002
-0.09660653 0.035116497 0.43800002
-0.095464639 0.035116497 0.43800002
-0.094107389 0.035036322 0.43700001
-0.092968106 0.035036322 0.43700001
-0.091828823 0.035036322 0.43700001
-0.090689532 0.035036322 0.43700001
-0.089550249 0.035036322 0.43700001
-0.088410959 0.035036322 0.43700001
-0.087271675 0.035036322 0.43700001
-0.086132385 0.035036322 0.43700001
-0.084993094 0.035036322 0.43700001
-0.084045701 0.035116497 0.43800002
-0.082903802 0.035116497 0.43800002
-0.081761912 0.035116497 0.43800002
-0.080620021 0.035116497 0.43800002
-0.079478122 0.035116497 0.43800002
-0.07815738 0.035036322 0.43700001
-0.07701809 0.035036322 0.43700001
-0.075878806 0.035036322 0.43700001
-0.074739516 0.035036322 0.43700001
-0.073600233 0.035036322 0.43700001
-0.072460949 0.035036322 0.43700001
-0.071321651 0.035036322 0.43700001
-0.070182368 0.035036322 0.43700001
-0.069043078 0.035036322 0.43700001
-0.067903794 0.035036322 0.43700001
-0.066764511 0.035036322 0.43700001
-0.065625221 0.035036322 0.43700001
-0.064485937 0.035036322 0.43700001
-0.063346647 0.035036322 0.43700001
-0.062207364 0.035036322 0.43700001
-0.061068077 0.035036322 0.43700001
-0.05992879 0.035036322 0.43700001
-0.058789503 0.035036322 0.43700001
-0.057650216 0.035036322 0.43700001
-0.056640241 0.035116497 0.43800002
-0.05549835 0.035116497 0.43800002
-0.05435646 0.035116497 0.43800002
-0.053214565 0.035116497 0.43800002
-0.05207267 0.035116497 0.43800002
-0.050930776 0.035116497 0.43800002
-0.049788881 0.035116497 0.43800002
-0.048646986 0.035116497 0.43800002
-0.047505096 0.035116497 0.43800002
-0.046363201 0.035116497 0.43800002
-0.045221306 0.035116497 0.43800002
-0.044079412 0.035116497 0.43800002
-0.042937517 0.035116497 0.43800002
-0.041795626 0.035116497 0.43800002
-0.040653732 0.035116497 0.43800002
-0.039511837 0.035116497 0.43800002
-0.038369942 0.035116497 0.43800002
-0.037228048 0.035116497 0.43800002
-0.036086153 0.035116497 0.43800002
-0.034944262 0.035116497 0.43800002
-0.033802368 0.035116497 0.43800002
-0.032660473 0.035116497 0.43800002
-0.031518582 0.035116497 0.43800002
-0.030376684 0.035116497 0.43800002
-0.029234791 0.035116497 0.43800002
-0.028092897 0.035116497 0.43800002
-0.026951004 0.035116497 0.43800002
-0.025868034 0.035196669 0.43900001
-0.024723532 0.035196669 0.43900001
-0.023579031 0.035196669 0.43900001
-0.022434531 0.035196669 0.43900001
-0.021241533 0.035116497 0.43800002
-0.02009964 0.035116497 0.43800002
-0.018957747 0.035116497 0.43800002
-0.017815851 0.035116497 0.43800002
-0.016673958 0.035116497 0.43800002
-0.015532064 0.035116497 0.43800002
-0.014390172 0.035116497 0.43800002
-0.013248276 0.035116497 0.43800002
-0.012134022 0.035196669 0.43900001
-0.010989521 0.035196669 0.43900001
-0.0098450212 0.035196669 0.43900001
-0.0087005198 0.035196669 0.43900001
-0.0075560184 0.035196669 0.43900001
-0.0064115175 0.035196669 0.43900001
-0.0052670166 0.035196669 0.43900001
-0.0041225157 0.035196669 0.43900001
-0.0029780148 0.035196669 0.43900001
-0.0018335137 0.035196669 0.43900001
-0.00068901276 0.035196669 0.43900001
0.00045548822 0.035196669 0.43900001
0.0015999891 0.035196669 0.43900001
0.00274449 0.035196669 0.43900001
0.0038889912 0.035196669 0.43900001
0.0050334921 0.035196669 0.43900001
0.006177993 0.035196669 0.43900001
0.0073224939 0.035196669 0.43900001
0.0084669944 0.035196669 0.43900001
0.0096114958 0.035196669 0.43900001
0.010755997 0.035196669 0.43900001
0.011900498 0.035196669 0.43900001
0.013044999 0.035196669 0.43900001
0.014189499 0.035196669 0.43900001
0.015334 0.035196669 0.43900001
0.016478501 0.035196669 0.43900001
0.017623002 0.035196669 0.43900001
0.018767502 0.035196669 0.43900001
0.019912004 0.035196669 0.43900001
0.021056505 0.035196669 0.43900001
0.022201005 0.035196669 0.43900001
0.023398688 0.035276849 0.44000003
0.024545794 0.035276849 0.44000003
0.025692903 0.035276849 0.44000003
0.026840013 0.035276849 0.44000003
0.027987117 0.035276849 0.44000003
0.029134229 0.035276849 0.44000003
0.030281337 0.035276849 0.44000003
0.031428445 0.035276849 0.44000003
0.032575551 0.035276849 0.44000003
0.033722658 0.035276849 0.44000003
0.034869768 0.035276849 0.44000003
0.036016878 0.035276849 0.44000003
0.037079521 0.035196669 0.43900001
0.038224019 0.035196669 0.43900001
0.039368521 0.035196669 0.43900001
0.04051302 0.035196669 0.43900001
0.041657522 0.035196669 0.43900001
0.042802021 0.035196669 0.43900001
0.044046633 0.035276849 0.44000003
0.045193739 0.035276849 0.44000003
0.046340849 0.035276849 0.44000003
0.047487956 0.035276849 0.44000003
0.048635062 0.035276849 0.44000003
0.049782172 0.035276849 0.44000003
0.050929282 0.035276849 0.44000003
0.052076388 0.035276849 0.44000003
0.053223498 0.035276849 0.44000003
0.054370604 0.035276849 0.44000003
0.055517711 0.035276849 0.44000003
0.056664821 0.035276849 0.44000003
0.057811927 0.035276849 0.44000003
0.058959033 0.035276849 0.44000003
0.060106143 0.035276849 0.44000003
0.06125325 0.035276849 0.44000003
0.062400363 0.035276849 0.44000003
0.06354747 0.035276849 0.44000003
0.064694576 0.035276849 0.44000003
0.06584169 0.035276849 0.44000003
0.066988796 0.035276849 0.44000003
0.068290755 0.035357021 0.44100001
0.069283009 0.035276849 0.44000003
0.070590183 0.035357021 0.44100001
0.071739897 0.035357021 0.44100001
0.072889611 0.035357021 0.44100001
0.074039325 0.035357021 0.44100001
0.075189039 0.035357021 0.44100001
0.076338753 0.035357021 0.44100001
0.077488475 0.035357021 0.44100001
0.078638189 0.035357021 0.44100001
0.07978791 0.035357021 0.44100001
0.080937624 0.035357021 0.44100001
0.082087338 0.035357021 0.44100001
0.083237052 0.035357021 0.44100001
0.084578119 0.035437196 0.44200003
0.085730441 0.035437196 0.44200003
0.086882763 0.035437196 0.44200003
0.088035084 0.035437196 0.44200003
0.089187406 0.035437196 0.44200003
0.090339728 0.035437196 0.44200003
0.091699041 0.035517368 0.44300002
0.092853978 0.035517368 0.44300002
0.094008908 0.035517368 0.44300002
0.095163837 0.035517368 0.44300002
0.096318766 0.035517368 0.44300002
0.097473696 0.035517368 0.44300002
0.098628625 0.035517368 0.44300002
0.099783555 0.035517368 0.44300002
0.10093848 0.035517368 0.44300002
0.10186295 0.035437196 0.44200003
0.10301527 0.035437196 0.44200003
0.1041676 0.035437196 0.44200003
0.10531992 0.035437196 0.44200003
0.10647224 0.035437196 0.44200003
0.10762457 0.035437196 0.44200003
0.10902299 0.035517368 0.44300002
0.11017792 0.035517368 0.44300002
0.11133284 0.035517368 0.44300002
0.11248778 0.035517368 0.44300002
0.1136427 0.035517368 0.44300002
0.11479763 0.035517368 0.44300002
0.11595257 0.035517368 0.44300002
0.11710749 0.035517368 0.44300002
0.11852939 0.035597548 0.44400004
0.11968692 0.035597548 0.44400004
0.12057228 0.035517368 0.44300002
0.12172721 0.035517368 0.44300002
0.12288214 0.035517368 0.44300002
0.12431706 0.035597548 0.44400004
0.125192 0.035517368 0.44300002
0.12634692 0.035517368 0.44300002
0.12750186 0.035517368 0.44300002
0.12865677 0.035517368 0.44300002
0.12981172 0.035517368 0.44300002
0.13096665 0.035517368 0.44300002
0.13212156 0.035517368 0.44300002
0.13327651 0.035517368 0.44300002
0.13443142 0.035517368 0.44300002
0.13558637 0.035517368 0.44300002
0.13674128 0.035517368 0.44300002
0.13789622 0.035517368 0.44300002
0.13905114 0.035517368 0.44300002
0.14020608 0.035517368 0.44300002
0.141361 0.035517368 0.44300002
0.14251593 0.035517368 0.44300002
0.14367086 0.035517368 0.44300002
0.14482579 0.035517368 0.44300002
0.14565121 0.035437196 0.44200003
0.14647138 0.035357021 0.44100001
0.13945287 0.03190951 0.39800003
0.1397845 0.031749163 0.39600003
0.14010571 0.031588811 0.39400002
0.14077467 0.031508636 0.39300001
0.14143844 0.031428464 0.39200002
0.14173357 0.031268112 0.39000002
0.14238431 0.03118794 0.38900003
0.14302982 0.031107765 0.38800001
0.14367011 0.031027591 0.38700002
0.1443052 0.030947415 0.38600001
0.14493507 0.030867241 0.38500002
0.14555973 0.030787066 0.384
0.14656083 0.030787066 0.384
0.14717768 0.030706892 0.38300002
0.1477893 0.030626718 0.38200003
0.1483957 0.030546542 0.38100001
0.149389 0.030546542 0.38100001
0.14998759 0.030466368 0.38000003
0.15058096 0.030386193 0.37900001
0.15116912 0.030306019 0.37800002
0.15215459 0.030306019 0.37800002
0.15273492 0.030225843 0.377
0.15371779 0.030225843 0.377
0.1542903 0.030145669 0.37600002
0.15485762 0.030065496 0.37500003
0.15583526 0.030065496 0.37500003
0.15639473 0.02998532 0.37400001
0.15736978 0.02998532 0.37400001
0.15792145 0.029905146 0.37300003
0.15889387 0.029905146 0.37300003
0.15986632 0.029905146 0.37300003
0.16083875 0.029905146 0.37300003
0.16181119 0.029905146 0.37300003
0.16278362 0.029905146 0.37300003
0.16375606 0.029905146 0.37300003
0.16472849 0.029905146 0.37300003
0.16570093 0.029905146 0.37300003
0.1671202 0.02998532 0.37400001
0.16809523 0.02998532 0.37400001
0.16907029 0.02998532 0.37400001
0.17004532 0.02998532 0.37400001
0.17102037 0.02998532 0.37400001
0.1719954 0.02998532 0.37400001
0.17343295 0.030065496 0.37500003
-0.24620713 0.036092825 0.43600002
-0.24507046 0.036092825 0.43600002
-0.2439338 0.036092825 0.43600002
-0.24279709 0.036092825 0.43600002
-0.24166042 0.036092825 0.43600002
-0.24052374 0.036092825 0.43600002
-0.23938705 0.036092825 0.43600002
-0.23770393 0.036010046 0.43500003
-0.2371137 0.036092825 0.43600002
-0.23597702 0.036092825 0.43600002
-0.23484033 0.036092825 0.43600002
-0.23370366 0.036092825 0.43600002
-0.23256698 0.036092825 0.43600002
-0.23143031 0.036092825 0.43600002
-0.23029362 0.036092825 0.43600002
-0.22915694 0.036092825 0.43600002
-0.22854324 0.036175609 0.43700001
-0.22740397 0.036175609 0.43700001
-0.22626466 0.036175609 0.43700001
-0.22512537 0.036175609 0.43700001
-0.22347355 0.036092825 0.43600002
-0.22233684 0.036092825 0.43600002
-0.22120018 0.036092825 0.43600002
-0.22006351 0.036092825 0.43600002
-0.21892683 0.036092825 0.43600002
-0.21779014 0.036092825 0.43600002
-0.21665347 0.036092825 0.43600002
-0.21551679 0.036092825 0.43600002
-0.21487179 0.036175609 0.43700001
-0.21373251 0.036175609 0.43700001
-0.21259323 0.036175609 0.43700001
-0.21145393 0.036175609 0.43700001
-0.20983338 0.036092825 0.43600002
-0.20869669 0.036092825 0.43600002
-0.20756003 0.036092825 0.43600002
-0.20642334 0.036092825 0.43600002
-0.20528667 0.036092825 0.43600002
-0.20414998 0.036092825 0.43600002
-0.20301332 0.036092825 0.43600002
-0.20141362 0.036010046 0.43500003
-0.20027955 0.036010046 0.43500003
-0.19914547 0.036010046 0.43500003
-0.1980114 0.036010046 0.43500003
-0.19687732 0.036010046 0.43500003
-0.19574325 0.036010046 0.43500003
-0.19460918 0.036010046 0.43500003
-0.19391987 0.036092825 0.43600002
-0.19278319 0.036092825 0.43600002
-0.1916465 0.036092825 0.43600002
-0.19050983 0.036092825 0.43600002
-0.18937315 0.036092825 0.43600002
-0.18823647 0.036092825 0.43600002
-0.18752891 0.036175609 0.43700001
-0.18638963 0.036175609 0.43700001
-0.18525034 0.036175609 0.43700001
-0.18411106 0.036175609 0.43700001
-0.18255307 0.036092825 0.43600002
-0.18141638 0.036092825 0.43600002
-0.18027972 0.036092825 0.43600002
-0.17914303 0.036092825 0.43600002
-0.17800635 0.036092825 0.43600002
-0.17686966 0.036092825 0.43600002
-0.175733 0.036092825 0.43600002
-0.17459631 0.036092825 0.43600002
-0.1730618 0.036010046 0.43500003
-0.17192772 0.036010046 0.43500003
-0.17079365 0.036010046 0.43500003
-0.16965957 0.036010046 0.43500003
-0.1685255 0.036010046 0.43500003
-0.16739143 0.036010046 0.43500003
-0.16625735 0.036010046 0.43500003
-0.16550288 0.036092825 0.43600002
-0.16436619 0.036092825 0.43600002
-0.16322951 0.036092825 0.43600002
-0.1624646 0.036175609 0.43700001
-0.16132532 0.036175609 0.43700001
-0.16018602 0.036175609 0.43700001
-0.15904674 0.036175609 0.43700001
-0.15790746 0.036175609 0.43700001
-0.15676817 0.036175609 0.43700001
-0.15562887 0.036175609 0.43700001
-0.15448961 0.036175609 0.43700001
-0.15335031 0.036175609 0.43700001
-0.15186271 0.036092825 0.43600002
-0.15072604 0.036092825 0.43600002
-0.14958934 0.036092825 0.43600002
-0.14845268 0.036092825 0.43600002
-0.14731599 0.036092825 0.43600002
-0.14617932 0.036092825 0.43600002
-0.14504263 0.036092825 0.43600002
-0.14390597 0.036092825 0.43600002
-0.14276928 0.036092825 0.43600002
-0.1416326 0.036092825 0.43600002
-0.14049591 0.036092825 0.43600002
-0.13935925 0.036092825 0.43600002
-0.13822256 0.036092825 0.43600002
-0.13708587 0.036092825 0.43600002
-0.13594919 0.036092825 0.43600002
-0.13481252 0.036092825 0.43600002
-0.13367584 0.036092825 0.43600002
-0.13253915 0.036092825 0.43600002
-0.13170385 0.036175609 0.43700001
-0.13056457 0.036175609 0.43700001
-0.12942529 0.036175609 0.43700001
-0.12828599 0.036175609 0.43700001
-0.12714672 0.036175609 0.43700001
-0.12600742 0.036175609 0.43700001
-0.12486814 0.036175609 0.43700001
-0.12372885 0.036175609 0.43700001
-0.12258956 0.036175609 0.43700001
-0.12145028 0.036175609 0.43700001
-0.12031098 0.036175609 0.43700001
-0.1191717 0.036175609 0.43700001
-0.11803241 0.036175609 0.43700001
-0.11689314 0.036175609 0.43700001
-0.11575384 0.036175609 0.43700001
-0.11461456 0.036175609 0.43700001
-0.11347526 0.036175609 0.43700001
-0.11233599 0.036175609 0.43700001
-0.1111967 0.036175609 0.43700001
-0.11005741 0.036175609 0.43700001
-0.10891812 0.036175609 0.43700001
-0.10802547 0.036258392 0.43800002
-0.10688358 0.036258392 0.43800002
-0.10574169 0.036258392 0.43800002
-0.10459979 0.036258392 0.43800002
-0.1034579 0.036258392 0.43800002
-0.10231601 0.036258392 0.43800002
-0.10117411 0.036258392 0.43800002
-0.09980382 0.036175609 0.43700001
-0.098890319 0.036258392 0.43800002
-0.097748429 0.036258392 0.43800002
-0.09660653 0.036258392 0.43800002
-0.09524668 0.036175609 0.43700001
-0.094107389 0.036175609 0.43700001
-0.092968106 0.036175609 0.43700001
-0.091828823 0.036175609 0.43700001
-0.090689532 0.036175609 0.43700001
-0.089550249 0.036175609 0.43700001
-0.088410959 0.036175609 0.43700001
-0.087271675 0.036175609 0.43700001
-0.086132385 0.036175609 0.43700001
-0.084993094 0.036175609 0.43700001
-0.083853811 0.036175609 0.43700001
-0.08271452 0.036175609 0.43700001
-0.081761912 0.036258392 0.43800002
-0.080620021 0.036258392 0.43800002
-0.079296663 0.036175609 0.43700001
-0.07815738 0.036175609 0.43700001
-0.07701809 0.036175609 0.43700001
-0.075878806 0.036175609 0.43700001
-0.074739516 0.036175609 0.43700001
-0.073600233 0.036175609 0.43700001
-0.072460949 0.036175609 0.43700001
-0.071321651 0.036175609 0.43700001
-0.070182368 0.036175609 0.43700001
-0.069043078 0.036175609 0.43700001
-0.067903794 0.036175609 0.43700001
-0.066764511 0.036175609 0.43700001
-0.065625221 0.036175609 0.43700001
-0.064485937 0.036175609 0.43700001
-0.063346647 0.036175609 0.43700001
-0.062207364 0.036175609 0.43700001
-0.061068077 0.036175609 0.43700001
-0.05992879 0.036175609 0.43700001
-0.058924034 0.036258392 0.43800002
-0.057782143 0.036258392 0.43800002
-0.056640241 0.036258392 0.43800002
-0.05549835 0.036258392 0.43800002
-0.05435646 0.036258392 0.43800002
-0.053214565 0.036258392 0.43800002
-0.05207267 0.036258392 0.43800002
-0.050930776 0.036258392 0.43800002
-0.049788881 0.036258392 0.43800002
-0.048646986 0.036258392 0.43800002
-0.047505096 0.036258392 0.43800002
-0.046363201 0.036258392 0.43800002
-0.045221306 0.036258392 0.43800002
-0.044079412 0.036258392 0.43800002
-0.042937517 0.036258392 0.43800002
-0.041795626 0.036258392 0.43800002
-0.040653732 0.036258392 0.43800002
-0.039511837 0.036258392 0.43800002
-0.038369942 0.036258392 0.43800002
-0.037228048 0.036258392 0.43800002
-0.036086153 0.036258392 0.43800002
-0.034944262 0.036258392 0.43800002
-0.033802368 0.036258392 0.43800002
-0.032660473 0.036258392 0.43800002
-0.031518582 0.036258392 0.43800002
-0.030446036 0.036341172 0.43900001
-0.029301535 0.036341172 0.43900001
-0.028157035 0.036341172 0.43900001
-0.027012534 0.036341172 0.43900001
-0.025868034 0.036341172 0.43900001
-0.024723532 0.036341172 0.43900001
-0.023579031 0.036341172 0.43900001
-0.022434531 0.036341172 0.43900001
-0.021241533 0.036258392 0.43800002
-0.02009964 0.036258392 0.43800002
-0.018957747 0.036258392 0.43800002
-0.017856527 0.036341172 0.43900001
-0.016712027 0.036341172 0.43900001
-0.015567525 0.036341172 0.43900001
-0.014423025 0.036341172 0.43900001
-0.013278523 0.036341172 0.43900001
-0.012134022 0.036341172 0.43900001
-0.010989521 0.036341172 0.43900001
-0.0098450212 0.036341172 0.43900001
-0.0087005198 0.036341172 0.43900001
-0.0075560184 0.036341172 0.43900001
-0.0064115175 0.036341172 0.43900001
-0.0052670166 0.036341172 0.43900001
-0.0041225157 0.036341172 0.43900001
-0.0029780148 0.036341172 0.43900001
-0.0018335137 0.036341172 0.43900001
-0.00068901276 0.036341172 0.43900001
0.00045548822 0.036341172 0.43900001
0.0015963446 0.036258392 0.43800002
0.00274449 0.036341172 0.43900001
0.0038889912 0.036341172 0.43900001
0.0050334921 0.036341172 0.43900001
0.006177993 0.036341172 0.43900001
0.0073224939 0.036341172 0.43900001
0.0084669944 0.036341172 0.43900001
0.0096114958 0.036341172 0.43900001
0.010755997 0.036341172 0.43900001
0.011900498 0.036341172 0.43900001
0.013044999 0.036341172 0.43900001
0.014189499 0.036341172 0.43900001
0.015334 0.036341172 0.43900001
0.016478501 0.036341172 0.43900001
0.017623002 0.036341172 0.43900001
0.018767502 0.036341172 0.43900001
0.019912004 0.036341172 0.43900001
0.021056505 0.036341172 0.43900001
0.022251578 0.036423955 0.44000003
0.023398688 0.036423955 0.44000003
0.024545794 0.036423955 0.44000003
0.025692903 0.036423955 0.44000003
0.026840013 0.036423955 0.44000003
0.027987117 0.036423955 0.44000003
0.029134229 0.036423955 0.44000003
0.030281337 0.036423955 0.44000003
0.031428445 0.036423955 0.44000003
0.032575551 0.036423955 0.44000003
0.033722658 0.036423955 0.44000003
0.034869768 0.036423955 0.44000003
0.036016878 0.036423955 0.44000003
0.037163984 0.036423955 0.44000003
0.038224019 0.036341172 0.43900001
0.039368521 0.036341172 0.43900001
0.04051302 0.036341172 0.43900001
0.041657522 0.036341172 0.43900001
0.042802021 0.036341172 0.43900001
0.043946527 0.036341172 0.43900001
0.045091026 0.036341172 0.43900001
0.046235528 0.036341172 0.43900001
0.047487956 0.036423955 0.44000003
0.048635062 0.036423955 0.44000003
0.049782172 0.036423955 0.44000003
0.050929282 0.036423955 0.44000003
0.052076388 0.036423955 0.44000003
0.053223498 0.036423955 0.44000003
0.054370604 0.036423955 0.44000003
0.055517711 0.036423955 0.44000003
0.056664821 0.036423955 0.44000003
0.057811927 0.036423955 0.44000003
0.058959033 0.036423955 0.44000003
0.060106143 0.036423955 0.44000003
0.06125325 0.036423955 0.44000003
0.062400363 0.036423955 0.44000003
0.06354747 0.036423955 0.44000003
0.064694576 0.036423955 0.44000003
0.065991327 0.036506735 0.44100001
0.067141041 0.036506735 0.44100001
0.068290755 0.036506735 0.44100001
0.069440469 0.036506735 0.44100001
0.070590183 0.036506735 0.44100001
0.071739897 0.036506735 0.44100001
0.072889611 0.036506735 0.44100001
0.074039325 0.036506735 0.44100001
0.075018547 0.036423955 0.44000003
0.076165654 0.036423955 0.44000003
0.077312768 0.036423955 0.44000003
0.078638189 0.036506735 0.44100001
0.07978791 0.036506735 0.44100001
0.080937624 0.036506735 0.44100001
0.082087338 0.036506735 0.44100001
0.083237052 0.036506735 0.44100001
0.084578119 0.036589518 0.44200003
0.085730441 0.036589518 0.44200003
0.086882763 0.036589518 0.44200003
0.088035084 0.036589518 0.44200003
0.08938919 0.036672298 0.44300002
0.090544112 0.036672298 0.44300002
0.091699041 0.036672298 0.44300002
0.092853978 0.036672298 0.44300002
0.094008908 0.036672298 0.44300002
0.095163837 0.036672298 0.44300002
0.096318766 0.036672298 0.44300002
0.097473696 0.036672298 0.44300002
0.098628625 0.036672298 0.44300002
0.099783555 0.036672298 0.44300002
0.10093848 0.036672298 0.44300002
0.10209341 0.036672298 0.44300002
0.10301527 0.036589518 0.44200003
0.1041676 0.036589518 0.44200003
0.10531992 0.036589518 0.44200003
0.10647224 0.036589518 0.44200003
0.10762457 0.036589518 0.44200003
0.10877689 0.036589518 0.44200003
0.11017792 0.036672298 0.44300002
0.11133284 0.036672298 0.44300002
0.11248778 0.036672298 0.44300002
0.1136427 0.036672298 0.44300002
0.11479763 0.036672298 0.44300002
0.11595257 0.036672298 0.44300002
0.11710749 0.036672298 0.44300002
0.11826243 0.036672298 0.44300002
0.11941735 0.036672298 0.44300002
0.12057228 0.036672298 0.44300002
0.12172721 0.036672298 0.44300002
0.12288214 0.036672298 0.44300002
0.12403706 0.036672298 0.44300002
0.125192 0.036672298 0.44300002
0.12634692 0.036672298 0.44300002
0.12750186 0.036672298 0.44300002
0.12865677 0.036672298 0.44300002
0.12981172 0.036672298 0.44300002
0.13096665 0.036672298 0.44300002
0.13212156 0.036672298 0.44300002
0.13327651 0.036672298 0.44300002
0.13443142 0.036672298 0.44300002
0.13558637 0.036672298 0.44300002
0.13674128 0.036672298 0.44300002
0.13789622 0.036672298 0.44300002
0.13905114 0.036672298 0.44300002
0.14020608 0.036672298 0.44300002
0.141361 0.036672298 0.44300002
0.14251593 0.036672298 0.44300002
0.14367086 0.036672298 0.44300002
0.14482579 0.036672298 0.44300002
0.14565121 0.036589518 0.44200003
0.14647138 0.036506735 0.44100001
0.1476211 0.036506735 0.44100001
0.1397845 0.03278156 0.39600003
0.14010571 0.032615997 0.39400002
0.14077467 0.032533213 0.39300001
0.14107764 0.03236765 0.39100003
0.14173357 0.032284867 0.39000002
0.14238431 0.032202087 0.38900003
0.14302982 0.032119304 0.38800001
0.14367011 0.032036524 0.38700002
0.14467905 0.032036524 0.38700002
0.14531152 0.031953741 0.38600001
0.1459388 0.031870961 0.38500002
0.14656083 0.031788178 0.384
0.14717768 0.031705394 0.38300002
0.1477893 0.031622615 0.38200003
0.1487852 0.031622615 0.38200003
0.149389 0.031539831 0.38100001
0.14998759 0.031457052 0.38000003
0.15058096 0.031374268 0.37900001
0.15156904 0.031374268 0.37900001
0.15215459 0.031291489 0.37800002
0.15314005 0.031291489 0.37800002
0.15371779 0.031208705 0.377
0.1542903 0.031125924 0.37600002
0.15527056 0.031125924 0.37600002
0.15583526 0.031043144 0.37500003
0.15681292 0.031043144 0.37500003
0.15736978 0.030960361 0.37400001
0.15792145 0.030877579 0.37300003
0.15889387 0.030877579 0.37300003
0.15986632 0.030877579 0.37300003
0.16083875 0.030877579 0.37300003
0.16181119 0.030877579 0.37300003
0.16278362 0.030877579 0.37300003
0.16375606 0.030877579 0.37300003
0.16472849 0.030877579 0.37300003
0.16570093 0.030877579 0.37300003
0.1671202 0.030960361 0.37400001
0.16809523 0.030960361 0.37400001
0.16907029 0.030960361 0.37400001
0.17004532 0.030960361 0.37400001
0.17147765 0.031043144 0.37500003
0.1724553 0.031043144 0.37500003
0.17343295 0.031043144 0.37500003
-0.24620713 0.037229508 0.43600002
-0.24507046 0.037229508 0.43600002
-0.2439338 0.037229508 0.43600002
-0.24279709 0.037229508 0.43600002
-0.24166042 0.037229508 0.43600002
-0.24052374 0.037229508 0.43600002
-0.23938705 0.037229508 0.43600002
-0.23825037 0.037229508 0.43600002
-0.2371137 0.037229508 0.43600002
-0.23597702 0.037229508 0.43600002
-0.23430172 0.037144117 0.43500003
-0.23370366 0.037229508 0.43600002
-0.23256698 0.037229508 0.43600002
-0.23143031 0.037229508 0.43600002
-0.23029362 0.037229508 0.43600002
-0.22915694 0.037229508 0.43600002
-0.22802027 0.037229508 0.43600002
-0.22740397 0.037314896 0.43700001
-0.22626466 0.037314896 0.43700001
-0.22461022 0.037229508 0.43600002
-0.22347355 0.037229508 0.43600002
-0.22233684 0.037229508 0.43600002
-0.22120018 0.037229508 0.43600002
-0.22006351 0.037229508 0.43600002
-0.21892683 0.037229508 0.43600002
-0.21779014 0.037229508 0.43600002
-0.21665347 0.037229508 0.43600002
-0.21551679 0.037229508 0.43600002
-0.21487179 0.037314896 0.43700001
-0.21373251 0.037314896 0.43700001
-0.21259323 0.037314896 0.43700001
-0.21145393 0.037314896 0.43700001
-0.21031465 0.037314896 0.43700001
-0.20869669 0.037229508 0.43600002
-0.20756003 0.037229508 0.43600002
-0.20642334 0.037229508 0.43600002
-0.20528667 0.037229508 0.43600002
-0.20414998 0.037229508 0.43600002
-0.20301332 0.037229508 0.43600002
-0.20187663 0.037229508 0.43600002
-0.20027955 0.037144117 0.43500003
-0.19914547 0.037144117 0.43500003
-0.1980114 0.037144117 0.43500003
-0.19687732 0.037144117 0.43500003
-0.19574325 0.037144117 0.43500003
-0.19505654 0.037229508 0.43600002
-0.19391987 0.037229508 0.43600002
-0.19278319 0.037229508 0.43600002
-0.1916465 0.037229508 0.43600002
-0.19050983 0.037229508 0.43600002
-0.18980747 0.037314896 0.43700001
-0.18866821 0.037314896 0.43700001
-0.18752891 0.037314896 0.43700001
-0.18638963 0.037314896 0.43700001
-0.18525034 0.037314896 0.43700001
-0.18411106 0.037314896 0.43700001
-0.18297176 0.037314896 0.43700001
-0.18141638 0.037229508 0.43600002
-0.18027972 0.037229508 0.43600002
-0.17914303 0.037229508 0.43600002
-0.17800635 0.037229508 0.43600002
-0.17686966 0.037229508 0.43600002
-0.175733 0.037229508 0.43600002
-0.17419586 0.037144117 0.43500003
-0.1730618 0.037144117 0.43500003
-0.17192772 0.037144117 0.43500003
-0.17079365 0.037144117 0.43500003
-0.16965957 0.037144117 0.43500003
-0.1685255 0.037144117 0.43500003
-0.16739143 0.037144117 0.43500003
-0.16625735 0.037144117 0.43500003
-0.16550288 0.037229508 0.43600002
-0.16436619 0.037229508 0.43600002
-0.16322951 0.037229508 0.43600002
-0.16209283 0.037229508 0.43600002
-0.16132532 0.037314896 0.43700001
-0.16018602 0.037314896 0.43700001
-0.15904674 0.037314896 0.43700001
-0.15790746 0.037314896 0.43700001
-0.15676817 0.037314896 0.43700001
-0.15562887 0.037314896 0.43700001
-0.15448961 0.037314896 0.43700001
-0.15335031 0.037314896 0.43700001
-0.15186271 0.037229508 0.43600002
-0.15072604 0.037229508 0.43600002
-0.14958934 0.037229508 0.43600002
-0.14845268 0.037229508 0.43600002
-0.14731599 0.037229508 0.43600002
-0.14617932 0.037229508 0.43600002
-0.14504263 0.037229508 0.43600002
-0.14390597 0.037229508 0.43600002
-0.14276928 0.037229508 0.43600002
-0.1416326 0.037229508 0.43600002
-0.14049591 0.037229508 0.43600002
-0.13935925 0.037229508 0.43600002
-0.13822256 0.037229508 0.43600002
-0.13708587 0.037229508 0.43600002
-0.13594919 0.037229508 0.43600002
-0.13481252 0.037229508 0.43600002
-0.13367584 0.037229508 0.43600002
-0.13253915 0.037229508 0.43600002
-0.13170385 0.037314896 0.43700001
-0.13056457 0.037314896 0.43700001
-0.12942529 0.037314896 0.43700001
-0.12828599 0.037314896 0.43700001
-0.12714672 0.037314896 0.43700001
-0.12600742 0.037314896 0.43700001
-0.12486814 0.037314896 0.43700001
-0.12372885 0.037314896 0.43700001
-0.12258956 0.037314896 0.43700001
-0.12145028 0.037314896 0.43700001
-0.12031098 0.037314896 0.43700001
-0.1191717 0.037314896 0.43700001
-0.11803241 0.037314896 0.43700001
-0.11689314 0.037314896 0.43700001
-0.11575384 0.037314896 0.43700001
-0.11461456 0.037314896 0.43700001
-0.11347526 0.037314896 0.43700001
-0.11233599 0.037314896 0.43700001
-0.1111967 0.037314896 0.43700001
-0.11005741 0.037314896 0.43700001
-0.10891812 0.037314896 0.43700001
-0.10802547 0.037400283 0.43800002
-0.10688358 0.037400283 0.43800002
-0.10574169 0.037400283 0.43800002
-0.10459979 0.037400283 0.43800002
-0.1034579 0.037400283 0.43800002
-0.10231601 0.037400283 0.43800002
-0.10117411 0.037400283 0.43800002
-0.09980382 0.037314896 0.43700001
-0.098890319 0.037400283 0.43800002
-0.097748429 0.037400283 0.43800002
-0.09660653 0.037400283 0.43800002
-0.09524668 0.037314896 0.43700001
-0.094107389 0.037314896 0.43700001
-0.092968106 0.037314896 0.43700001
-0.091828823 0.037314896 0.43700001
-0.090689532 0.037314896 0.43700001
-0.089550249 0.037314896 0.43700001
-0.088410959 0.037314896 0.43700001
-0.087271675 0.037314896 0.43700001
-0.086132385 0.037314896 0.43700001
-0.084993094 0.037314896 0.43700001
-0.083853811 0.037314896 0.43700001
-0.08271452 0.037314896 0.43700001
-0.081575237 0.037314896 0.43700001
-0.080435947 0.037314896 0.43700001
-0.079296663 0.037314896 0.43700001
-0.07815738 0.037314896 0.43700001
-0.07701809 0.037314896 0.43700001
-0.075878806 0.037314896 0.43700001
-0.074739516 0.037314896 0.43700001
-0.073600233 0.037314896 0.43700001
-0.072460949 0.037314896 0.43700001
-0.071321651 0.037314896 0.43700001
-0.070182368 0.037314896 0.43700001
-0.069043078 0.037314896 0.43700001
-0.067903794 0.037314896 0.43700001
-0.066917293 0.037400283 0.43800002
-0.065775394 0.037400283 0.43800002
-0.064633504 0.037400283 0.43800002
-0.063491613 0.037400283 0.43800002
-0.062349714 0.037400283 0.43800002
-0.061207823 0.037400283 0.43800002
-0.060065929 0.037400283 0.43800002
-0.058924034 0.037400283 0.43800002
-0.057782143 0.037400283 0.43800002
-0.056640241 0.037400283 0.43800002
-0.05549835 0.037400283 0.43800002
-0.05435646 0.037400283 0.43800002
-0.053214565 0.037400283 0.43800002
-0.05207267 0.037400283 0.43800002
-0.050930776 0.037400283 0.43800002
-0.049788881 0.037400283 0.43800002
-0.048646986 0.037400283 0.43800002
-0.047505096 0.037400283 0.43800002
-0.046363201 0.037400283 0.43800002
-0.045221306 0.037400283 0.43800002
-0.044079412 0.037400283 0.43800002
-0.042937517 0.037400283 0.43800002
-0.041795626 0.037400283 0.43800002
-0.040653732 0.037400283 0.43800002
-0.039511837 0.037400283 0.43800002
-0.038369942 0.037400283 0.43800002
-0.037228048 0.037400283 0.43800002
-0.036086153 0.037400283 0.43800002
-0.034944262 0.037400283 0.43800002
-0.033802368 0.037400283 0.43800002
-0.032660473 0.037400283 0.43800002
-0.03159054 0.03748567 0.43900001
-0.030446036 0.03748567 0.43900001
-0.029301535 0.03748567 0.43900001
-0.028157035 0.03748567 0.43900001
-0.027012534 0.03748567 0.43900001
-0.025868034 0.03748567 0.43900001
-0.024723532 0.03748567 0.43900001
-0.023579031 0.03748567 0.43900001
-0.022434531 0.03748567 0.43900001
-0.021290028 0.03748567 0.43900001
-0.020145528 0.03748567 0.43900001
