# .PCD v0.7 - Point Cloud Data file format
VERSION 0.7
FIELDS x y z
SIZE 4 4 4
TYPE F F F
COUNT 1 1 1
WIDTH 1296
HEIGHT 1
VIEWPOINT 0 0 0 1 0 0 0
POINTS 1296
DATA ascii
-0.16248076 -0.0081998976 0.43400002
-0.16134928 -0.0081998976 0.43400002
-0.16021782 -0.0081998976 0.43400002
-0.15908635 -0.0081998976 0.43400002
-0.15831885 -0.0082187913 0.43500003
-0.15718478 -0.0082187913 0.43500003
-0.15605071 -0.0082187913 0.43500003
-0.15491663 -0.0082187913 0.43500003
-0.15378256 -0.0082187913 0.43500003
-0.15264848 -0.0082187913 0.43500003
-0.15151441 -0.0082187913 0.43500003
-0.15038034 -0.0082187913 0.43500003
-0.14924626 -0.0082187913 0.43500003
-0.14811219 -0.0082187913 0.43500003
-0.14697811 -0.0082187913 0.43500003
-0.14584406 -0.0082187913 0.43500003
-0.14470997 -0.0082187913 0.43500003
-0.14357591 -0.0082187913 0.43500003
-0.14244182 -0.0082187913 0.43500003
-0.14130776 -0.0082187913 0.43500003
-0.14049591 -0.0082376851 0.43600002
-0.13935925 -0.0082376851 0.43600002
-0.13822256 -0.0082376851 0.43600002
-0.13708587 -0.0082376851 0.43600002
-0.13594919 -0.0082376851 0.43600002
-0.13481252 -0.0082376851 0.43600002
-0.13367584 -0.0082376851 0.43600002
-0.13253915 -0.0082376851 0.43600002
-0.13140248 -0.0082376851 0.43600002
-0.1302658 -0.0082376851 0.43600002
-0.12883297 -0.0082187913 0.43500003
-0.12769888 -0.0082187913 0.43500003
-0.12656482 -0.0082187913 0.43500003
-0.12543073 -0.0082187913 0.43500003
-0.12429667 -0.0082187913 0.43500003
-0.12316259 -0.0082187913 0.43500003
-0.12202851 -0.0082187913 0.43500003
-0.12089445 -0.0082187913 0.43500003
-0.11976037 -0.0082187913 0.43500003
-0.1186263 -0.0082187913 0.43500003
-0.11749222 -0.0082187913 0.43500003
-0.11635816 -0.0082187913 0.43500003
-0.11522408 -0.0082187913 0.43500003
-0.11435229 -0.0082376851 0.43600002
-0.1132156 -0.0082376851 0.43600002
-0.11207893 -0.0082376851 0.43600002
-0.11094224 -0.0082376851 0.43600002
-0.10980557 -0.0082376851 0.43600002
-0.10866889 -0.0082376851 0.43600002
-0.1075322 -0.0082376851 0.43600002
-0.10639553 -0.0082376851 0.43600002
-0.10525884 -0.0082376851 0.43600002
-0.10412217 -0.0082376851 0.43600002
-0.10298549 -0.0082376851 0.43600002
-0.10184881 -0.0082376851 0.43600002
-0.10071212 -0.0082376851 0.43600002
-0.099575445 -0.0082376851 0.43600002
-0.098438762 -0.0082376851 0.43600002
-0.097302087 -0.0082376851 0.43600002
-0.096165404 -0.0082376851 0.43600002
-0.095028728 -0.0082376851 0.43600002
-0.093892045 -0.0082376851 0.43600002
-0.09275537 -0.0082376851 0.43600002
-0.091408558 -0.0082187913 0.43500003
-0.090274483 -0.0082187913 0.43500003
-0.089140408 -0.0082187913 0.43500003
-0.08800634 -0.0082187913 0.43500003
-0.086872265 -0.0082187913 0.43500003
-0.08573819 -0.0082187913 0.43500003
-0.084604114 -0.0082187913 0.43500003
-0.083470047 -0.0082187913 0.43500003
-0.082335971 -0.0082187913 0.43500003
-0.081201896 -0.0082187913 0.43500003
-0.080067828 -0.0082187913 0.43500003
-0.078933753 -0.0082187913 0.43500003
-0.077799685 -0.0082187913 0.43500003
-0.07666561 -0.0082187913 0.43500003
-0.075531535 -0.0082187913 0.43500003
-0.074397467 -0.0082187913 0.43500003
-0.073431812 -0.0082376851 0.43600002
-0.072295137 -0.0082376851 0.43600002
-0.071158446 -0.0082376851 0.43600002
-0.070021771 -0.0082376851 0.43600002
-0.068885088 -0.0082376851 0.43600002
-0.067748412 -0.0082376851 0.43600002
-0.066764511 -0.0082565788 0.43700001
-0.065625221 -0.0082565788 0.43700001
-0.064485937 -0.0082565788 0.43700001
-0.063346647 -0.0082565788 0.43700001
-0.062207364 -0.0082565788 0.43700001
-0.061068077 -0.0082565788 0.43700001
-0.05992879 -0.0082565788 0.43700001
-0.058789503 -0.0082565788 0.43700001
-0.057650216 -0.0082565788 0.43700001
-0.056510925 -0.0082565788 0.43700001
-0.055371638 -0.0082565788 0.43700001
-0.054232355 -0.0082565788 0.43700001
-0.053093068 -0.0082565788 0.43700001
-0.051953778 -0.0082565788 0.43700001
-0.050814494 -0.0082565788 0.43700001
-0.049675208 -0.0082565788 0.43700001
-0.048535921 -0.0082565788 0.43700001
-0.047396634 -0.0082565788 0.43700001
-0.046257347 -0.0082565788 0.43700001
-0.045118056 -0.0082565788 0.43700001
-0.043978773 -0.0082565788 0.43700001
-0.042839486 -0.0082565788 0.43700001
-0.041700199 -0.0082565788 0.43700001
-0.040560912 -0.0082565788 0.43700001
-0.039421625 -0.0082565788 0.43700001
-0.038282339 -0.0082565788 0.43700001
-0.037143052 -0.0082565788 0.43700001
-0.036003765 -0.0082565788 0.43700001
-0.034864478 -0.0082565788 0.43700001
-0.033725191 -0.0082565788 0.43700001
-0.032585904 -0.0082565788 0.43700001
-0.031446621 -0.0082565788 0.43700001
-0.03030733 -0.0082565788 0.43700001
-0.029168043 -0.0082565788 0.43700001
-0.028028756 -0.0082565788 0.43700001
-0.026827939 -0.0082376851 0.43600002
-0.02569126 -0.0082376851 0.43600002
-0.024554579 -0.0082376851 0.43600002
-0.023417899 -0.0082376851 0.43600002
-0.022332324 -0.0082565788 0.43700001
-0.021193035 -0.0082565788 0.43700001
-0.02005375 -0.0082565788 0.43700001
-0.018914463 -0.0082565788 0.43700001
-0.017775176 -0.0082565788 0.43700001
-0.016635889 -0.0082565788 0.43700001
-0.015496602 -0.0082565788 0.43700001
-0.014357316 -0.0082565788 0.43700001
-0.013218028 -0.0082565788 0.43700001
-0.012078742 -0.0082565788 0.43700001
-0.010914423 -0.0082376851 0.43600002
-0.0097777424 -0.0082376851 0.43600002
-0.0086410632 -0.0082376851 0.43600002
-0.0075043826 -0.0082376851 0.43600002
-0.006367703 -0.0082376851 0.43600002
-0.0052430211 -0.0082565788 0.43700001
-0.0041037342 -0.0082565788 0.43700001
-0.0029644475 -0.0082565788 0.43700001
-0.0018251606 -0.0082565788 0.43700001
-0.00068744324 -0.0082754726 0.43800002
0.00045445067 -0.0082754726 0.43800002
0.0015963446 -0.0082754726 0.43800002
0.0027382385 -0.0082754726 0.43800002
0.0038801325 -0.0082754726 0.43800002
0.0050220266 -0.0082754726 0.43800002
0.0061639203 -0.0082754726 0.43800002
0.0073058144 -0.0082754726 0.43800002
0.0084477076 -0.0082754726 0.43800002
0.0095896022 -0.0082754726 0.43800002
0.010731496 -0.0082754726 0.43800002
0.01187339 -0.0082754726 0.43800002
0.013015284 -0.0082754726 0.43800002
0.014157177 -0.0082754726 0.43800002
0.015299071 -0.0082754726 0.43800002
0.016440965 -0.0082754726 0.43800002
0.01758286 -0.0082754726 0.43800002
0.018724753 -0.0082754726 0.43800002
0.019866647 -0.0082754726 0.43800002
0.021008542 -0.0082754726 0.43800002
0.022150435 -0.0082754726 0.43800002
0.023292329 -0.0082754726 0.43800002
0.024434224 -0.0082754726 0.43800002
0.025576117 -0.0082754726 0.43800002
0.026718011 -0.0082754726 0.43800002
0.027859904 -0.0082754726 0.43800002
0.0290018 -0.0082754726 0.43800002
0.030143693 -0.0082754726 0.43800002
0.031285588 -0.0082754726 0.43800002
0.032427479 -0.0082754726 0.43800002
0.033569373 -0.0082754726 0.43800002
0.034711268 -0.0082754726 0.43800002
0.035853162 -0.0082754726 0.43800002
0.036995057 -0.0082754726 0.43800002
0.038136952 -0.0082754726 0.43800002
0.039278843 -0.0082754726 0.43800002
0.040420737 -0.0082754726 0.43800002
0.041657522 -0.0082943663 0.43900001
0.042704523 -0.0082754726 0.43800002
0.043946527 -0.0082943663 0.43900001
0.045091026 -0.0082943663 0.43900001
0.046235528 -0.0082943663 0.43900001
0.047272101 -0.0082754726 0.43800002
0.048413996 -0.0082754726 0.43800002
0.049555887 -0.0082754726 0.43800002
0.050697785 -0.0082754726 0.43800002
0.051839679 -0.0082754726 0.43800002
0.05298157 -0.0082754726 0.43800002
0.054123465 -0.0082754726 0.43800002
0.05526536 -0.0082754726 0.43800002
0.05640725 -0.0082754726 0.43800002
0.057549145 -0.0082754726 0.43800002
0.05869104 -0.0082754726 0.43800002
0.059832931 -0.0082754726 0.43800002
0.060974825 -0.0082754726 0.43800002
0.062116727 -0.0082754726 0.43800002
0.063258618 -0.0082754726 0.43800002
0.064400509 -0.0082754726 0.43800002
0.065542407 -0.0082754726 0.43800002
0.066684298 -0.0082754726 0.43800002
0.067826189 -0.0082754726 0.43800002
0.068968087 -0.0082754726 0.43800002
0.070109978 -0.0082754726 0.43800002
0.071251869 -0.0082754726 0.43800002
0.072393768 -0.0082754726 0.43800002
0.073535658 -0.0082754726 0.43800002
0.074677549 -0.0082754726 0.43800002
0.075819448 -0.0082754726 0.43800002
0.076961346 -0.0082754726 0.43800002
0.078281559 -0.0082943663 0.43900001
0.079426058 -0.0082943663 0.43900001
0.080570556 -0.0082943663 0.43900001
0.081715055 -0.0082943663 0.43900001
0.082859561 -0.0082943663 0.43900001
0.084004059 -0.0082943663 0.43900001
0.085148558 -0.0082943663 0.43900001
0.086293057 -0.0082943663 0.43900001
0.087437563 -0.0082943663 0.43900001
0.088582061 -0.0082943663 0.43900001
0.08972656 -0.0082943663 0.43900001
0.090871058 -0.0082943663 0.43900001
0.092015564 -0.0082943663 0.43900001
0.09316007 -0.0082943663 0.43900001
0.094304569 -0.0082943663 0.43900001
0.095449068 -0.0082943663 0.43900001
0.096593566 -0.0082943663 0.43900001
0.097738072 -0.0082943663 0.43900001
0.098882571 -0.0082943663 0.43900001
0.10002707 -0.0082943663 0.43900001
0.10094111 -0.0082754726 0.43800002
0.10231607 -0.0082943663 0.43900001
0.10346057 -0.0082943663 0.43900001
0.10460507 -0.0082943663 0.43900001
0.10574957 -0.0082943663 0.43900001
0.10689408 -0.0082943663 0.43900001
0.10803858 -0.0082943663 0.43900001
0.10918308 -0.0082943663 0.43900001
0.11032757 -0.0082943663 0.43900001
0.11147209 -0.0082943663 0.43900001
0.11261658 -0.0082943663 0.43900001
0.11350195 -0.0082754726 0.43800002
0.11464385 -0.0082754726 0.43800002
0.11578573 -0.0082754726 0.43800002
0.11719459 -0.0082943663 0.43900001
0.11833908 -0.0082943663 0.43900001
0.11948359 -0.0082943663 0.43900001
0.12062809 -0.0082943663 0.43900001
0.12177259 -0.0082943663 0.43900001
0.12291709 -0.0082943663 0.43900001
0.12406159 -0.0082943663 0.43900001
0.12520608 -0.0082943663 0.43900001
0.1263506 -0.0082943663 0.43900001
0.1274951 -0.0082943663 0.43900001
0.12863959 -0.0082943663 0.43900001
0.12978411 -0.0082943663 0.43900001
0.13092859 -0.0082943663 0.43900001
0.1320731 -0.0082943663 0.43900001
0.13291414 -0.0082754726 0.43800002
0.13405605 -0.0082754726 0.43800002
0.12917481 -0.0074063591 0.39200002
0.12986465 -0.0073874658 0.39100003
0.13054927 -0.0073685716 0.39000002
0.13156602 -0.0073685716 0.39000002
0.13190287 -0.0073307841 0.38800001
0.13257185 -0.0073118904 0.38700002
0.1332356 -0.0072929966 0.38600001
0.13389416 -0.0072741029 0.38500002
0.13454749 -0.0072552087 0.384
0.13484262 -0.0072174217 0.38200003
0.13548292 -0.0071985275 0.38100001
0.13611801 -0.0071796342 0.38000003
0.13674788 -0.00716074 0.37900001
0.13737255 -0.0071418467 0.37800002
0.13799198 -0.0071229525 0.377
0.13860622 -0.0071040587 0.37600002
0.13921523 -0.0070851655 0.37500003
0.13981903 -0.0070662713 0.37400001
0.14079407 -0.0070662713 0.37400001
0.14139006 -0.0070473775 0.37300003
0.14236249 -0.0070473775 0.37300003
0.14295064 -0.0070284838 0.37200001
0.14392047 -0.0070284838 0.37200001
0.14489029 -0.0070284838 0.37200001
0.14586012 -0.0070284838 0.37200001
0.14682995 -0.0070284838 0.37200001
0.14779979 -0.0070284838 0.37200001
0.14916953 -0.0070473775 0.37300003
0.15014197 -0.0070473775 0.37300003
0.1511144 -0.0070473775 0.37300003
0.15249458 -0.0070662713 0.37400001
0.15346961 -0.0070662713 0.37400001
0.15444466 -0.0070662713 0.37400001
0.15583526 -0.0070851655 0.37500003
0.15639473 -0.0070662713 0.37400001
0.15736978 -0.0070662713 0.37400001
0.15834482 -0.0070662713 0.37400001
0.15931986 -0.0070662713 0.37400001
0.16029491 -0.0070662713 0.37400001
0.16126995 -0.0070662713 0.37400001
0.16224499 -0.0070662713 0.37400001
0.16322003 -0.0070662713 0.37400001
0.16419508 -0.0070662713 0.37400001
0.16517012 -0.0070662713 0.37400001
0.16614516 -0.0070662713 0.37400001
0.1671202 -0.0070662713 0.37400001
0.16809523 -0.0070662713 0.37400001
0.16907029 -0.0070662713 0.37400001
0.17004532 -0.0070662713 0.37400001
0.17102037 -0.0070662713 0.37400001
0.1719954 -0.0070662713 0.37400001
0.17297044 -0.0070662713 0.37400001
-0.24507774 -0.0070684315 0.43400002
-0.24394628 -0.0070684315 0.43400002
-0.24281482 -0.0070684315 0.43400002
-0.24168333 -0.0070684315 0.43400002
-0.24055189 -0.0070684315 0.43400002
-0.23942043 -0.0070684315 0.43400002
-0.23828894 -0.0070684315 0.43400002
-0.23715748 -0.0070684315 0.43400002
-0.23602602 -0.0070684315 0.43400002
-0.23489456 -0.0070684315 0.43400002
-0.23376308 -0.0070684315 0.43400002
-0.23263162 -0.0070684315 0.43400002
-0.23150016 -0.0070684315 0.43400002
-0.2303687 -0.0070684315 0.43400002
-0.22923721 -0.0070684315 0.43400002
-0.22810575 -0.0070684315 0.43400002
-0.22697429 -0.0070684315 0.43400002
-0.22584285 -0.0070684315 0.43400002
-0.22471136 -0.0070684315 0.43400002
-0.2235799 -0.0070684315 0.43400002
-0.22244844 -0.0070684315 0.43400002
-0.22131695 -0.0070684315 0.43400002
-0.2201855 -0.0070684315 0.43400002
-0.21905404 -0.0070684315 0.43400002
-0.21792258 -0.0070684315 0.43400002
-0.21679111 -0.0070684315 0.43400002
-0.21565963 -0.0070684315 0.43400002
-0.21452817 -0.0070684315 0.43400002
-0.2133967 -0.0070684315 0.43400002
-0.21226525 -0.0070684315 0.43400002
-0.21113378 -0.0070684315 0.43400002
-0.2100023 -0.0070684315 0.43400002
-0.20887084 -0.0070684315 0.43400002
-0.20773937 -0.0070684315 0.43400002
-0.20660791 -0.0070684315 0.43400002
-0.20547645 -0.0070684315 0.43400002
-0.20434499 -0.0070684315 0.43400002
-0.20321351 -0.0070684315 0.43400002
-0.20208205 -0.0070684315 0.43400002
-0.20095058 -0.0070684315 0.43400002
-0.19981912 -0.0070684315 0.43400002
-0.19868766 -0.0070684315 0.43400002
-0.1975562 -0.0070684315 0.43400002
-0.19642472 -0.0070684315 0.43400002
-0.19529325 -0.0070684315 0.43400002
-0.19416179 -0.0070684315 0.43400002
-0.19303031 -0.0070684315 0.43400002
-0.19189887 -0.0070684315 0.43400002
-0.19076739 -0.0070684315 0.43400002
-0.18963593 -0.0070684315 0.43400002
-0.18850446 -0.0070684315 0.43400002
-0.187373 -0.0070684315 0.43400002
-0.18624152 -0.0070684315 0.43400002
-0.18511008 -0.0070684315 0.43400002
-0.1839786 -0.0070684315 0.43400002
-0.18284714 -0.0070684315 0.43400002
-0.18171567 -0.0070684315 0.43400002
-0.18058419 -0.0070684315 0.43400002
-0.17945273 -0.0070684315 0.43400002
-0.17832127 -0.0070684315 0.43400002
-0.17759809 -0.0070847189 0.43500003
-0.17646401 -0.0070847189 0.43500003
-0.17532994 -0.0070847189 0.43500003
-0.17419586 -0.0070847189 0.43500003
-0.1730618 -0.0070847189 0.43500003
-0.17192772 -0.0070847189 0.43500003
-0.17079365 -0.0070847189 0.43500003
-0.16965957 -0.0070847189 0.43500003
-0.1685255 -0.0070847189 0.43500003
-0.16739143 -0.0070847189 0.43500003
-0.16625735 -0.0070847189 0.43500003
-0.16512328 -0.0070847189 0.43500003
-0.1639892 -0.0070847189 0.43500003
-0.16248076 -0.0070684315 0.43400002
-0.16134928 -0.0070684315 0.43400002
-0.16021782 -0.0070684315 0.43400002
-0.15908635 -0.0070684315 0.43400002
-0.15795489 -0.0070684315 0.43400002
-0.15718478 -0.0070847189 0.43500003
-0.15605071 -0.0070847189 0.43500003
-0.15491663 -0.0070847189 0.43500003
-0.15378256 -0.0070847189 0.43500003
-0.15264848 -0.0070847189 0.43500003
-0.15151441 -0.0070847189 0.43500003
-0.15038034 -0.0070847189 0.43500003
-0.14924626 -0.0070847189 0.43500003
-0.14811219 -0.0070847189 0.43500003
-0.14697811 -0.0070847189 0.43500003
-0.14584406 -0.0070847189 0.43500003
-0.14470997 -0.0070847189 0.43500003
-0.14357591 -0.0070847189 0.43500003
-0.14244182 -0.0070847189 0.43500003
-0.14130776 -0.0070847189 0.43500003
-0.14017369 -0.0070847189 0.43500003
-0.13903962 -0.0070847189 0.43500003
-0.13822256 -0.0071010054 0.43600002
-0.13708587 -0.0071010054 0.43600002
-0.13594919 -0.0071010054 0.43600002
-0.13481252 -0.0071010054 0.43600002
-0.13367584 -0.0071010054 0.43600002
-0.13253915 -0.0071010054 0.43600002
-0.13140248 -0.0071010054 0.43600002
-0.1302658 -0.0071010054 0.43600002
-0.12912913 -0.0071010054 0.43600002
-0.12769888 -0.0070847189 0.43500003
-0.12656482 -0.0070847189 0.43500003
-0.12543073 -0.0070847189 0.43500003
-0.12429667 -0.0070847189 0.43500003
-0.12316259 -0.0070847189 0.43500003
-0.12202851 -0.0070847189 0.43500003
-0.12089445 -0.0070847189 0.43500003
-0.11976037 -0.0070847189 0.43500003
-0.1186263 -0.0070847189 0.43500003
-0.11749222 -0.0070847189 0.43500003
-0.11662564 -0.0071010054 0.43600002
-0.11548896 -0.0071010054 0.43600002
-0.11435229 -0.0071010054 0.43600002
-0.1132156 -0.0071010054 0.43600002
-0.11207893 -0.0071010054 0.43600002
-0.11094224 -0.0071010054 0.43600002
-0.10980557 -0.0071010054 0.43600002
-0.10866889 -0.0071010054 0.43600002
-0.1075322 -0.0071010054 0.43600002
-0.10639553 -0.0071010054 0.43600002
-0.10525884 -0.0071010054 0.43600002
-0.10412217 -0.0071010054 0.43600002
-0.10298549 -0.0071010054 0.43600002
-0.10184881 -0.0071010054 0.43600002
-0.10071212 -0.0071010054 0.43600002
-0.099575445 -0.0071010054 0.43600002
-0.098438762 -0.0071010054 0.43600002
-0.097302087 -0.0071010054 0.43600002
-0.096165404 -0.0071010054 0.43600002
-0.095028728 -0.0071010054 0.43600002
-0.093892045 -0.0071010054 0.43600002
-0.09275537 -0.0071010054 0.43600002
-0.091408558 -0.0070847189 0.43500003
-0.090274483 -0.0070847189 0.43500003
-0.089140408 -0.0070847189 0.43500003
-0.088208653 -0.0071010054 0.43600002
-0.08707197 -0.0071010054 0.43600002
-0.085935287 -0.0071010054 0.43600002
-0.084798604 -0.0071010054 0.43600002
-0.083661929 -0.0071010054 0.43600002
-0.082335971 -0.0070847189 0.43500003
-0.081201896 -0.0070847189 0.43500003
-0.080067828 -0.0070847189 0.43500003
-0.078933753 -0.0070847189 0.43500003
-0.077799685 -0.0070847189 0.43500003
-0.07666561 -0.0070847189 0.43500003
-0.075531535 -0.0070847189 0.43500003
-0.074568495 -0.0071010054 0.43600002
-0.073431812 -0.0071010054 0.43600002
-0.072295137 -0.0071010054 0.43600002
-0.071158446 -0.0071010054 0.43600002
-0.070021771 -0.0071010054 0.43600002
-0.068885088 -0.0071010054 0.43600002
-0.067748412 -0.0071010054 0.43600002
-0.066764511 -0.0071172919 0.43700001
-0.065625221 -0.0071172919 0.43700001
-0.064485937 -0.0071172919 0.43700001
-0.063346647 -0.0071172919 0.43700001
-0.062207364 -0.0071172919 0.43700001
-0.061068077 -0.0071172919 0.43700001
-0.05992879 -0.0071172919 0.43700001
-0.058789503 -0.0071172919 0.43700001
-0.057650216 -0.0071172919 0.43700001
-0.056510925 -0.0071172919 0.43700001
-0.055371638 -0.0071172919 0.43700001
-0.054232355 -0.0071172919 0.43700001
-0.053093068 -0.0071172919 0.43700001
-0.051953778 -0.0071172919 0.43700001
-0.050814494 -0.0071172919 0.43700001
-0.049675208 -0.0071172919 0.43700001
-0.048535921 -0.0071172919 0.43700001
-0.047396634 -0.0071172919 0.43700001
-0.046257347 -0.0071172919 0.43700001
-0.045118056 -0.0071172919 0.43700001
-0.043978773 -0.0071172919 0.43700001
-0.042839486 -0.0071172919 0.43700001
-0.041700199 -0.0071172919 0.43700001
-0.040560912 -0.0071172919 0.43700001
-0.039421625 -0.0071172919 0.43700001
-0.038282339 -0.0071172919 0.43700001
-0.037143052 -0.0071172919 0.43700001
-0.036003765 -0.0071172919 0.43700001
-0.034864478 -0.0071172919 0.43700001
-0.033725191 -0.0071172919 0.43700001
-0.032585904 -0.0071172919 0.43700001
-0.031446621 -0.0071172919 0.43700001
-0.03030733 -0.0071172919 0.43700001
-0.029168043 -0.0071172919 0.43700001
-0.028028756 -0.0071172919 0.43700001
-0.026827939 -0.0071010054 0.43600002
-0.02569126 -0.0071010054 0.43600002
-0.024554579 -0.0071010054 0.43600002
-0.023471611 -0.0071172919 0.43700001
-0.022332324 -0.0071172919 0.43700001
-0.021193035 -0.0071172919 0.43700001
-0.02005375 -0.0071172919 0.43700001
-0.018914463 -0.0071172919 0.43700001
-0.017775176 -0.0071172919 0.43700001
-0.016635889 -0.0071172919 0.43700001
-0.015496602 -0.0071172919 0.43700001
-0.014357316 -0.0071172919 0.43700001
-0.013218028 -0.0071172919 0.43700001
-0.012078742 -0.0071172919 0.43700001
-0.010939455 -0.0071172919 0.43700001
-0.0097777424 -0.0071010054 0.43600002
-0.0086608818 -0.0071172919 0.43700001
-0.0075215944 -0.0071172919 0.43700001
-0.0063823075 -0.0071172919 0.43700001
-0.0052430211 -0.0071172919 0.43700001
-0.0041037342 -0.0071172919 0.43700001
-0.0029644475 -0.0071172919 0.43700001
-0.0018251606 -0.0071172919 0.43700001
-0.00068744324 -0.0071335789 0.43800002
0.00045445067 -0.0071335789 0.43800002
0.0015963446 -0.0071335789 0.43800002
0.0027382385 -0.0071335789 0.43800002
0.0038801325 -0.0071335789 0.43800002
0.0050220266 -0.0071335789 0.43800002
0.0061639203 -0.0071335789 0.43800002
0.0073058144 -0.0071335789 0.43800002
0.0084477076 -0.0071335789 0.43800002
0.0095896022 -0.0071335789 0.43800002
0.010731496 -0.0071335789 0.43800002
0.01187339 -0.0071335789 0.43800002
0.013015284 -0.0071335789 0.43800002
0.014157177 -0.0071335789 0.43800002
0.015299071 -0.0071335789 0.43800002
0.016440965 -0.0071335789 0.43800002
0.01758286 -0.0071335789 0.43800002
0.018724753 -0.0071335789 0.43800002
0.019866647 -0.0071335789 0.43800002
0.021008542 -0.0071335789 0.43800002
0.022150435 -0.0071335789 0.43800002
0.023292329 -0.0071335789 0.43800002
0.024434224 -0.0071335789 0.43800002
0.025576117 -0.0071335789 0.43800002
0.026718011 -0.0071335789 0.43800002
0.027859904 -0.0071335789 0.43800002
0.0290018 -0.0071335789 0.43800002
0.030143693 -0.0071335789 0.43800002
0.031285588 -0.0071335789 0.43800002
0.032427479 -0.0071335789 0.43800002
0.033569373 -0.0071335789 0.43800002
0.034632016 -0.0071172919 0.43700001
0.035853162 -0.0071335789 0.43800002
0.036995057 -0.0071335789 0.43800002
0.038136952 -0.0071335789 0.43800002
0.039278843 -0.0071335789 0.43800002
0.040420737 -0.0071335789 0.43800002
0.041562632 -0.0071335789 0.43800002
0.042704523 -0.0071335789 0.43800002
0.043846421 -0.0071335789 0.43800002
0.045091026 -0.0071498654 0.43900001
0.046235528 -0.0071498654 0.43900001
0.047380026 -0.0071498654 0.43900001
0.048524529 -0.0071498654 0.43900001
0.049555887 -0.0071335789 0.43800002
0.050697785 -0.0071335789 0.43800002
0.051839679 -0.0071335789 0.43800002
0.05298157 -0.0071335789 0.43800002
0.054123465 -0.0071335789 0.43800002
0.05526536 -0.0071335789 0.43800002
0.05640725 -0.0071335789 0.43800002
0.057549145 -0.0071335789 0.43800002
0.05869104 -0.0071335789 0.43800002
0.059832931 -0.0071335789 0.43800002
0.060974825 -0.0071335789 0.43800002
0.062116727 -0.0071335789 0.43800002
0.063258618 -0.0071335789 0.43800002
0.064400509 -0.0071335789 0.43800002
0.065542407 -0.0071335789 0.43800002
0.066684298 -0.0071335789 0.43800002
0.067826189 -0.0071335789 0.43800002
0.068968087 -0.0071335789 0.43800002
0.070109978 -0.0071335789 0.43800002
0.071251869 -0.0071335789 0.43800002
0.072393768 -0.0071335789 0.43800002
0.073535658 -0.0071335789 0.43800002
0.074677549 -0.0071335789 0.43800002
0.075819448 -0.0071335789 0.43800002
0.077137053 -0.0071498654 0.43900001
0.078281559 -0.0071498654 0.43900001
0.079426058 -0.0071498654 0.43900001
0.080570556 -0.0071498654 0.43900001
0.081715055 -0.0071498654 0.43900001
0.082859561 -0.0071498654 0.43900001
0.084004059 -0.0071498654 0.43900001
0.085148558 -0.0071498654 0.43900001
0.086293057 -0.0071498654 0.43900001
0.087437563 -0.0071498654 0.43900001
0.088582061 -0.0071498654 0.43900001
0.08972656 -0.0071498654 0.43900001
0.090871058 -0.0071498654 0.43900001
0.092015564 -0.0071498654 0.43900001
0.09316007 -0.0071498654 0.43900001
0.094304569 -0.0071498654 0.43900001
0.095449068 -0.0071498654 0.43900001
0.096593566 -0.0071498654 0.43900001
0.097738072 -0.0071498654 0.43900001
0.098882571 -0.0071498654 0.43900001
0.10002707 -0.0071498654 0.43900001
0.10094111 -0.0071335789 0.43800002
0.10231607 -0.0071498654 0.43900001
0.10346057 -0.0071498654 0.43900001
0.10460507 -0.0071498654 0.43900001
0.10574957 -0.0071498654 0.43900001
0.10689408 -0.0071498654 0.43900001
0.10803858 -0.0071498654 0.43900001
0.10918308 -0.0071498654 0.43900001
0.11032757 -0.0071498654 0.43900001
0.11147209 -0.0071498654 0.43900001
0.11261658 -0.0071498654 0.43900001
0.11376108 -0.0071498654 0.43900001
0.11490559 -0.0071498654 0.43900001
0.11605009 -0.0071498654 0.43900001
0.11719459 -0.0071498654 0.43900001
0.11833908 -0.0071498654 0.43900001
0.11948359 -0.0071498654 0.43900001
0.12062809 -0.0071498654 0.43900001
0.12177259 -0.0071498654 0.43900001
0.12291709 -0.0071498654 0.43900001
0.12406159 -0.0071498654 0.43900001
0.12520608 -0.0071498654 0.43900001
0.1263506 -0.0071498654 0.43900001
0.1274951 -0.0071498654 0.43900001
0.12863959 -0.0071498654 0.43900001
0.12978411 -0.0071498654 0.43900001
0.13092859 -0.0071498654 0.43900001
0.13177225 -0.0071335789 0.43800002
0.13291414 -0.0071335789 0.43800002
0.12847976 -0.0064006764 0.39300001
0.12917481 -0.0063843899 0.39200002
0.12986465 -0.0063681034 0.39100003
0.13054927 -0.0063518165 0.39000002
0.13156602 -0.0063518165 0.39000002
0.13224283 -0.00633553 0.38900003
0.13257185 -0.0063029565 0.38700002
0.1332356 -0.0062866695 0.38600001
0.13389416 -0.006270383 0.38500002
0.13454749 -0.006254096 0.384
0.13519561 -0.0062378095 0.38300002
0.13583852 -0.006221523 0.38200003
0.13611801 -0.0061889496 0.38000003
0.13674788 -0.0061726626 0.37900001
0.13737255 -0.0061563761 0.37800002
0.13799198 -0.0061400891 0.377
0.13860622 -0.0061238026 0.37600002
0.13921523 -0.0061075161 0.37500003
0.14019288 -0.0061075161 0.37500003
0.14079407 -0.0060912292 0.37400001
0.14139006 -0.0060749426 0.37300003
0.14236249 -0.0060749426 0.37300003
0.14333493 -0.0060749426 0.37300003
0.14392047 -0.0060586557 0.37200001
0.14489029 -0.0060586557 0.37200001
0.14586012 -0.0060586557 0.37200001
0.14722466 -0.0060749426 0.37300003
0.1481971 -0.0060749426 0.37300003
0.14916953 -0.0060749426 0.37300003
0.15054449 -0.0060912292 0.37400001
0.15151952 -0.0060912292 0.37400001
0.15249458 -0.0060912292 0.37400001
0.15387997 -0.0061075161 0.37500003
0.15485762 -0.0061075161 0.37500003
0.15583526 -0.0061075161 0.37500003
0.15681292 -0.0061075161 0.37500003
0.15779056 -0.0061075161 0.37500003
0.15876821 -0.0061075161 0.37500003
0.15974586 -0.0061075161 0.37500003
0.16072351 -0.0061075161 0.37500003
0.16170116 -0.0061075161 0.37500003
0.16267881 -0.0061075161 0.37500003
0.16365646 -0.0061075161 0.37500003
0.16419508 -0.0060912292 0.37400001
0.16561176 -0.0061075161 0.37500003
0.16658939 -0.0061075161 0.37500003
0.16756706 -0.0061075161 0.37500003
0.16809523 -0.0060912292 0.37400001
0.16907029 -0.0060912292 0.37400001
0.17004532 -0.0060912292 0.37400001
0.17102037 -0.0060912292 0.37400001
0.1719954 -0.0060912292 0.37400001
0.17297044 -0.0060912292 0.37400001
-0.24507774 -0.0059369663 0.43400002
-0.24394628 -0.0059369663 0.43400002
-0.24281482 -0.0059369663 0.43400002
-0.24168333 -0.0059369663 0.43400002
-0.24055189 -0.0059369663 0.43400002
-0.23942043 -0.0059369663 0.43400002
-0.23828894 -0.0059369663 0.43400002
-0.23715748 -0.0059369663 0.43400002
-0.23602602 -0.0059369663 0.43400002
-0.23489456 -0.0059369663 0.43400002
-0.23376308 -0.0059369663 0.43400002
-0.23263162 -0.0059369663 0.43400002
-0.23150016 -0.0059369663 0.43400002
-0.2303687 -0.0059369663 0.43400002
-0.22923721 -0.0059369663 0.43400002
-0.22810575 -0.0059369663 0.43400002
-0.22697429 -0.0059369663 0.43400002
-0.22584285 -0.0059369663 0.43400002
-0.22471136 -0.0059369663 0.43400002
-0.2235799 -0.0059369663 0.43400002
-0.22244844 -0.0059369663 0.43400002
-0.22131695 -0.0059369663 0.43400002
-0.2201855 -0.0059369663 0.43400002
-0.21905404 -0.0059369663 0.43400002
-0.21792258 -0.0059369663 0.43400002
-0.21679111 -0.0059369663 0.43400002
-0.21565963 -0.0059369663 0.43400002
-0.21452817 -0.0059369663 0.43400002
-0.2133967 -0.0059369663 0.43400002
-0.21226525 -0.0059369663 0.43400002
-0.21113378 -0.0059369663 0.43400002
-0.2100023 -0.0059369663 0.43400002
-0.20887084 -0.0059369663 0.43400002
-0.20773937 -0.0059369663 0.43400002
-0.20660791 -0.0059369663 0.43400002
-0.20547645 -0.0059369663 0.43400002
-0.20434499 -0.0059369663 0.43400002
-0.20321351 -0.0059369663 0.43400002
-0.20208205 -0.0059369663 0.43400002
-0.20095058 -0.0059369663 0.43400002
-0.19981912 -0.0059369663 0.43400002
-0.19868766 -0.0059369663 0.43400002
-0.1975562 -0.0059369663 0.43400002
-0.19642472 -0.0059369663 0.43400002
-0.19529325 -0.0059369663 0.43400002
-0.19416179 -0.0059369663 0.43400002
-0.19303031 -0.0059369663 0.43400002
-0.19189887 -0.0059369663 0.43400002
-0.19076739 -0.0059369663 0.43400002
-0.18963593 -0.0059369663 0.43400002
-0.18850446 -0.0059369663 0.43400002
-0.187373 -0.0059369663 0.43400002
-0.18624152 -0.0059369663 0.43400002
-0.18511008 -0.0059369663 0.43400002
-0.1839786 -0.0059369663 0.43400002
-0.18284714 -0.0059369663 0.43400002
-0.18171567 -0.0059369663 0.43400002
-0.18058419 -0.0059369663 0.43400002
-0.17945273 -0.0059369663 0.43400002
-0.17832127 -0.0059369663 0.43400002
-0.17718981 -0.0059369663 0.43400002
-0.17605834 -0.0059369663 0.43400002
-0.17532994 -0.005950646 0.43500003
-0.17419586 -0.005950646 0.43500003
-0.1730618 -0.005950646 0.43500003
-0.17192772 -0.005950646 0.43500003
-0.17079365 -0.005950646 0.43500003
-0.16965957 -0.005950646 0.43500003
-0.1685255 -0.005950646 0.43500003
-0.16739143 -0.005950646 0.43500003
-0.16625735 -0.005950646 0.43500003
-0.16512328 -0.005950646 0.43500003
-0.1639892 -0.005950646 0.43500003
-0.16285513 -0.005950646 0.43500003
-0.16172107 -0.005950646 0.43500003
-0.160587 -0.005950646 0.43500003
-0.15908635 -0.0059369663 0.43400002
-0.15831885 -0.005950646 0.43500003
-0.15718478 -0.005950646 0.43500003
-0.15605071 -0.005950646 0.43500003
-0.15491663 -0.005950646 0.43500003
-0.15378256 -0.005950646 0.43500003
-0.15264848 -0.005950646 0.43500003
-0.15151441 -0.005950646 0.43500003
-0.15038034 -0.005950646 0.43500003
-0.14924626 -0.005950646 0.43500003
-0.14811219 -0.005950646 0.43500003
-0.14697811 -0.005950646 0.43500003
-0.14584406 -0.005950646 0.43500003
-0.14470997 -0.005950646 0.43500003
-0.14357591 -0.005950646 0.43500003
-0.14244182 -0.005950646 0.43500003
-0.14130776 -0.005950646 0.43500003
-0.14017369 -0.005950646 0.43500003
-0.13903962 -0.005950646 0.43500003
-0.13790554 -0.005950646 0.43500003
-0.13677146 -0.005950646 0.43500003
-0.13594919 -0.0059643253 0.43600002
-0.13481252 -0.0059643253 0.43600002
-0.13367584 -0.0059643253 0.43600002
-0.13253915 -0.0059643253 0.43600002
-0.13140248 -0.0059643253 0.43600002
-0.1302658 -0.0059643253 0.43600002
-0.12912913 -0.0059643253 0.43600002
-0.12769888 -0.005950646 0.43500003
-0.12656482 -0.005950646 0.43500003
-0.12543073 -0.005950646 0.43500003
-0.12429667 -0.005950646 0.43500003
-0.12316259 -0.005950646 0.43500003
-0.12202851 -0.005950646 0.43500003
-0.12089445 -0.005950646 0.43500003
-0.11976037 -0.005950646 0.43500003
-0.118899 -0.0059643253 0.43600002
-0.11776232 -0.0059643253 0.43600002
-0.11662564 -0.0059643253 0.43600002
-0.11548896 -0.0059643253 0.43600002
-0.11435229 -0.0059643253 0.43600002
-0.1132156 -0.0059643253 0.43600002
-0.11207893 -0.0059643253 0.43600002
-0.11094224 -0.0059643253 0.43600002
-0.10980557 -0.0059643253 0.43600002
-0.10866889 -0.0059643253 0.43600002
-0.1075322 -0.0059643253 0.43600002
-0.10639553 -0.0059643253 0.43600002
-0.10525884 -0.0059643253 0.43600002
-0.10412217 -0.0059643253 0.43600002
-0.10298549 -0.0059643253 0.43600002
-0.10184881 -0.0059643253 0.43600002
-0.10071212 -0.0059643253 0.43600002
-0.099575445 -0.0059643253 0.43600002
-0.098438762 -0.0059643253 0.43600002
-0.097302087 -0.0059643253 0.43600002
-0.096165404 -0.0059643253 0.43600002
-0.095028728 -0.0059643253 0.43600002
-0.093892045 -0.0059643253 0.43600002
-0.09275537 -0.0059643253 0.43600002
-0.091408558 -0.005950646 0.43500003
-0.090274483 -0.005950646 0.43500003
-0.089140408 -0.005950646 0.43500003
-0.088208653 -0.0059643253 0.43600002
-0.08707197 -0.0059643253 0.43600002
-0.085935287 -0.0059643253 0.43600002
-0.084798604 -0.0059643253 0.43600002
-0.083661929 -0.0059643253 0.43600002
-0.082525246 -0.0059643253 0.43600002
-0.08138857 -0.0059643253 0.43600002
-0.080251887 -0.0059643253 0.43600002
-0.079115212 -0.0059643253 0.43600002
-0.077978529 -0.0059643253 0.43600002
-0.076841854 -0.0059643253 0.43600002
-0.075705171 -0.0059643253 0.43600002
-0.074568495 -0.0059643253 0.43600002
-0.073431812 -0.0059643253 0.43600002
-0.072295137 -0.0059643253 0.43600002
-0.071158446 -0.0059643253 0.43600002
-0.070021771 -0.0059643253 0.43600002
-0.068885088 -0.0059643253 0.43600002
-0.067748412 -0.0059643253 0.43600002
-0.06661173 -0.0059643253 0.43600002
-0.065625221 -0.005978005 0.43700001
-0.064485937 -0.005978005 0.43700001
-0.063346647 -0.005978005 0.43700001
-0.062207364 -0.005978005 0.43700001
-0.061068077 -0.005978005 0.43700001
-0.05992879 -0.005978005 0.43700001
-0.058789503 -0.005978005 0.43700001
-0.057650216 -0.005978005 0.43700001
-0.056510925 -0.005978005 0.43700001
-0.055371638 -0.005978005 0.43700001
-0.054232355 -0.005978005 0.43700001
-0.053093068 -0.005978005 0.43700001
-0.051953778 -0.005978005 0.43700001
-0.050814494 -0.005978005 0.43700001
-0.049675208 -0.005978005 0.43700001
-0.048535921 -0.005978005 0.43700001
-0.047396634 -0.005978005 0.43700001
-0.046257347 -0.005978005 0.43700001
-0.045118056 -0.005978005 0.43700001
-0.043978773 -0.005978005 0.43700001
-0.042839486 -0.005978005 0.43700001
-0.041700199 -0.005978005 0.43700001
-0.040560912 -0.005978005 0.43700001
-0.039421625 -0.005978005 0.43700001
-0.038282339 -0.005978005 0.43700001
-0.037143052 -0.005978005 0.43700001
-0.036003765 -0.005978005 0.43700001
-0.034864478 -0.005978005 0.43700001
-0.033725191 -0.005978005 0.43700001
-0.032585904 -0.005978005 0.43700001
-0.031446621 -0.005978005 0.43700001
-0.03030733 -0.005978005 0.43700001
-0.029168043 -0.005978005 0.43700001
-0.028028756 -0.005978005 0.43700001
-0.026889471 -0.005978005 0.43700001
-0.025750184 -0.005978005 0.43700001
-0.024610896 -0.005978005 0.43700001
-0.023471611 -0.005978005 0.43700001
-0.022332324 -0.005978005 0.43700001
-0.021193035 -0.005978005 0.43700001
-0.02005375 -0.005978005 0.43700001
-0.018914463 -0.005978005 0.43700001
-0.017775176 -0.005978005 0.43700001
-0.016635889 -0.005978005 0.43700001
-0.015496602 -0.005978005 0.43700001
-0.014357316 -0.005978005 0.43700001
-0.013218028 -0.005978005 0.43700001
-0.012078742 -0.005978005 0.43700001
-0.010939455 -0.005978005 0.43700001
-0.0098001687 -0.005978005 0.43700001
-0.0086608818 -0.005978005 0.43700001
-0.0075215944 -0.005978005 0.43700001
-0.0063823075 -0.005978005 0.43700001
-0.0052430211 -0.005978005 0.43700001
-0.0041037342 -0.005978005 0.43700001
-0.0029644475 -0.005978005 0.43700001
-0.0018293372 -0.0059916847 0.43800002
-0.00068744324 -0.0059916847 0.43800002
0.00045445067 -0.0059916847 0.43800002
0.0015963446 -0.0059916847 0.43800002
0.0027382385 -0.0059916847 0.43800002
0.0038801325 -0.0059916847 0.43800002
0.0050220266 -0.0059916847 0.43800002
0.0061639203 -0.0059916847 0.43800002
0.0073058144 -0.0059916847 0.43800002
0.0084477076 -0.0059916847 0.43800002
0.0095896022 -0.0059916847 0.43800002
0.010731496 -0.0059916847 0.43800002
0.01187339 -0.0059916847 0.43800002
0.013015284 -0.0059916847 0.43800002
0.014157177 -0.0059916847 0.43800002
0.015299071 -0.0059916847 0.43800002
0.016440965 -0.0059916847 0.43800002
0.01758286 -0.0059916847 0.43800002
0.018724753 -0.0059916847 0.43800002
0.019866647 -0.0059916847 0.43800002
0.021008542 -0.0059916847 0.43800002
0.022150435 -0.0059916847 0.43800002
0.023292329 -0.0059916847 0.43800002
0.024434224 -0.0059916847 0.43800002
0.025576117 -0.0059916847 0.43800002
0.026718011 -0.0059916847 0.43800002
0.027859904 -0.0059916847 0.43800002
0.0290018 -0.0059916847 0.43800002
0.030143693 -0.0059916847 0.43800002
0.031285588 -0.0059916847 0.43800002
0.032427479 -0.0059916847 0.43800002
0.033492729 -0.005978005 0.43700001
0.034632016 -0.005978005 0.43700001
0.035853162 -0.0059916847 0.43800002
0.036995057 -0.0059916847 0.43800002
0.038136952 -0.0059916847 0.43800002
0.039278843 -0.0059916847 0.43800002
0.040420737 -0.0059916847 0.43800002
0.041562632 -0.0059916847 0.43800002
0.042704523 -0.0059916847 0.43800002
0.043846421 -0.0059916847 0.43800002
0.044988316 -0.0059916847 0.43800002
0.046130206 -0.0059916847 0.43800002
0.047380026 -0.0060053645 0.43900001
0.048524529 -0.0060053645 0.43900001
0.049555887 -0.0059916847 0.43800002
0.050697785 -0.0059916847 0.43800002
0.051839679 -0.0059916847 0.43800002
0.05298157 -0.0059916847 0.43800002
0.054123465 -0.0059916847 0.43800002
0.05526536 -0.0059916847 0.43800002
0.05640725 -0.0059916847 0.43800002
0.057549145 -0.0059916847 0.43800002
0.05869104 -0.0059916847 0.43800002
0.059832931 -0.0059916847 0.43800002
0.060974825 -0.0059916847 0.43800002
0.062116727 -0.0059916847 0.43800002
0.063258618 -0.0059916847 0.43800002
0.064400509 -0.0059916847 0.43800002
0.065542407 -0.0059916847 0.43800002
0.066684298 -0.0059916847 0.43800002
0.067826189 -0.0059916847 0.43800002
0.068968087 -0.0059916847 0.43800002
0.070109978 -0.0059916847 0.43800002
0.071251869 -0.0059916847 0.43800002
0.072393768 -0.0059916847 0.43800002
0.07370355 -0.0060053645 0.43900001
0.074848048 -0.0060053645 0.43900001
0.075992547 -0.0060053645 0.43900001
0.077137053 -0.0060053645 0.43900001
0.078281559 -0.0060053645 0.43900001
0.079426058 -0.0060053645 0.43900001
0.080570556 -0.0060053645 0.43900001
0.081715055 -0.0060053645 0.43900001
0.082859561 -0.0060053645 0.43900001
0.084004059 -0.0060053645 0.43900001
0.085148558 -0.0060053645 0.43900001
0.086293057 -0.0060053645 0.43900001
0.087437563 -0.0060053645 0.43900001
0.088582061 -0.0060053645 0.43900001
0.08972656 -0.0060053645 0.43900001
0.090871058 -0.0060053645 0.43900001
0.092015564 -0.0060053645 0.43900001
0.09316007 -0.0060053645 0.43900001
0.094304569 -0.0060053645 0.43900001
0.095449068 -0.0060053645 0.43900001
0.096593566 -0.0060053645 0.43900001
0.097738072 -0.0060053645 0.43900001
0.098882571 -0.0060053645 0.43900001
0.10002707 -0.0060053645 0.43900001
0.10094111 -0.0059916847 0.43800002
0.10231607 -0.0060053645 0.43900001
0.10346057 -0.0060053645 0.43900001
0.10460507 -0.0060053645 0.43900001
0.10574957 -0.0060053645 0.43900001
0.10689408 -0.0060053645 0.43900001
0.10803858 -0.0060053645 0.43900001
0.10918308 -0.0060053645 0.43900001
0.11032757 -0.0060053645 0.43900001
0.11147209 -0.0060053645 0.43900001
0.11261658 -0.0060053645 0.43900001
0.11376108 -0.0060053645 0.43900001
0.11490559 -0.0060053645 0.43900001
0.11605009 -0.0060053645 0.43900001
0.11719459 -0.0060053645 0.43900001
0.11833908 -0.0060053645 0.43900001
0.11948359 -0.0060053645 0.43900001
0.12062809 -0.0060053645 0.43900001
0.12177259 -0.0060053645 0.43900001
0.12291709 -0.0060053645 0.43900001
0.12406159 -0.0060053645 0.43900001
0.12520608 -0.0060053645 0.43900001
0.1263506 -0.0060053645 0.43900001
0.1274951 -0.0060053645 0.43900001
0.12863959 -0.0060053645 0.43900001
0.12978411 -0.0060053645 0.43900001
0.13063036 -0.0059916847 0.43800002
0.13177225 -0.0059916847 0.43800002
0.13291414 -0.0059916847 0.43800002
0.13405605 -0.0059916847 0.43800002
0.12913361 -0.00540346 0.39500001
0.12917481 -0.0053624213 0.39200002
0.12986465 -0.0053487415 0.39100003
0.13088402 -0.0053487415 0.39100003
0.13156602 -0.0053350618 0.39000002
0.13224283 -0.0053213821 0.38900003
0.13291441 -0.0053077023 0.38800001
0.1332356 -0.0052803429 0.38600001
0.13389416 -0.0052666636 0.38500002
0.13454749 -0.0052529839 0.384
0.13519561 -0.0052393042 0.38300002
0.13583852 -0.0052256249 0.38200003
0.1364762 -0.0052119447 0.38100001
0.1371087 -0.0051982654 0.38000003
0.13737255 -0.005170906 0.37800002
0.13835801 -0.005170906 0.37800002
0.13897485 -0.0051572262 0.377
0.13958646 -0.005143547 0.37600002
0.14019288 -0.0051298672 0.37500003
0.14079407 -0.0051161875 0.37400001
0.14139006 -0.0051025078 0.37300003
0.14236249 -0.0051025078 0.37300003
0.14333493 -0.0051025078 0.37300003
0.14430736 -0.0051025078 0.37300003
0.14527979 -0.0051025078 0.37300003
0.14625223 -0.0051025078 0.37300003
0.14722466 -0.0051025078 0.37300003
0.1481971 -0.0051025078 0.37300003
0.14956945 -0.0051161875 0.37400001
0.15054449 -0.0051161875 0.37400001
0.15192467 -0.0051298672 0.37500003
0.15290232 -0.0051298672 0.37500003
0.15387997 -0.0051298672 0.37500003
0.15485762 -0.0051298672 0.37500003
0.15583526 -0.0051298672 0.37500003
0.15681292 -0.0051298672 0.37500003
0.15779056 -0.0051298672 0.37500003
0.15876821 -0.0051298672 0.37500003
0.15974586 -0.0051298672 0.37500003
0.16072351 -0.0051298672 0.37500003
0.16170116 -0.0051298672 0.37500003
0.16267881 -0.0051298672 0.37500003
0.16365646 -0.0051298672 0.37500003
0.16463411 -0.0051298672 0.37500003
0.16561176 -0.0051298672 0.37500003
0.16658939 -0.0051298672 0.37500003
0.16756706 -0.0051298672 0.37500003
0.16854469 -0.0051298672 0.37500003
0.16952235 -0.0051298672 0.37500003
0.1705 -0.0051298672 0.37500003
0.17147765 -0.0051298672 0.37500003
0.1724553 -0.0051298672 0.37500003
0.17343295 -0.0051298672 0.37500003
-0.24507774 -0.0048055006 0.43400002
-0.24394628 -0.0048055006 0.43400002
-0.24281482 -0.0048055006 0.43400002
-0.24168333 -0.0048055006 0.43400002
-0.24055189 -0.0048055006 0.43400002
-0.23942043 -0.0048055006 0.43400002
-0.23828894 -0.0048055006 0.43400002
-0.23715748 -0.0048055006 0.43400002
-0.23602602 -0.0048055006 0.43400002
-0.23489456 -0.0048055006 0.43400002
-0.23376308 -0.0048055006 0.43400002
-0.23263162 -0.0048055006 0.43400002
-0.23150016 -0.0048055006 0.43400002
-0.2303687 -0.0048055006 0.43400002
-0.22923721 -0.0048055006 0.43400002
-0.22810575 -0.0048055006 0.43400002
-0.22697429 -0.0048055006 0.43400002
-0.22584285 -0.0048055006 0.43400002
-0.22471136 -0.0048055006 0.43400002
-0.2235799 -0.0048055006 0.43400002
-0.22244844 -0.0048055006 0.43400002
-0.22131695 -0.0048055006 0.43400002
-0.2201855 -0.0048055006 0.43400002
-0.21905404 -0.0048055006 0.43400002
-0.21792258 -0.0048055006 0.43400002
-0.21679111 -0.0048055006 0.43400002
-0.21565963 -0.0048055006 0.43400002
-0.21502249 -0.0048165736 0.43500003
-0.2133967 -0.0048055006 0.43400002
-0.21226525 -0.0048055006 0.43400002
-0.21113378 -0.0048055006 0.43400002
-0.2100023 -0.0048055006 0.43400002
-0.20887084 -0.0048055006 0.43400002
-0.20773937 -0.0048055006 0.43400002
-0.20660791 -0.0048055006 0.43400002
-0.20547645 -0.0048055006 0.43400002
-0.20434499 -0.0048055006 0.43400002
-0.20321351 -0.0048055006 0.43400002
-0.20208205 -0.0048055006 0.43400002
-0.20095058 -0.0048055006 0.43400002
-0.19981912 -0.0048055006 0.43400002
-0.19868766 -0.0048055006 0.43400002
-0.1975562 -0.0048055006 0.43400002
-0.19642472 -0.0048055006 0.43400002
-0.19529325 -0.0048055006 0.43400002
-0.19416179 -0.0048055006 0.43400002
-0.19303031 -0.0048055006 0.43400002
-0.19189887 -0.0048055006 0.43400002
-0.19076739 -0.0048055006 0.43400002
-0.18963593 -0.0048055006 0.43400002
-0.18850446 -0.0048055006 0.43400002
-0.187373 -0.0048055006 0.43400002
-0.18624152 -0.0048055006 0.43400002
-0.18511008 -0.0048055006 0.43400002
-0.1839786 -0.0048055006 0.43400002
-0.18284714 -0.0048055006 0.43400002
-0.18171567 -0.0048055006 0.43400002
-0.18058419 -0.0048055006 0.43400002
-0.17945273 -0.0048055006 0.43400002
-0.17832127 -0.0048055006 0.43400002
-0.17718981 -0.0048055006 0.43400002
-0.17605834 -0.0048055006 0.43400002
-0.17492688 -0.0048055006 0.43400002
-0.17419586 -0.0048165736 0.43500003
-0.1730618 -0.0048165736 0.43500003
-0.17192772 -0.0048165736 0.43500003
-0.17079365 -0.0048165736 0.43500003
-0.16965957 -0.0048165736 0.43500003
-0.1685255 -0.0048165736 0.43500003
-0.16739143 -0.0048165736 0.43500003
-0.16625735 -0.0048165736 0.43500003
-0.16512328 -0.0048165736 0.43500003
-0.1639892 -0.0048165736 0.43500003
-0.16285513 -0.0048165736 0.43500003
-0.16172107 -0.0048165736 0.43500003
-0.160587 -0.0048165736 0.43500003
-0.15908635 -0.0048055006 0.43400002
-0.15831885 -0.0048165736 0.43500003
-0.15718478 -0.0048165736 0.43500003
-0.15605071 -0.0048165736 0.43500003
-0.15491663 -0.0048165736 0.43500003
-0.15378256 -0.0048165736 0.43500003
-0.15264848 -0.0048165736 0.43500003
-0.15151441 -0.0048165736 0.43500003
-0.15038034 -0.0048165736 0.43500003
-0.14924626 -0.0048165736 0.43500003
-0.14811219 -0.0048165736 0.43500003
-0.14697811 -0.0048165736 0.43500003
-0.14584406 -0.0048165736 0.43500003
-0.14470997 -0.0048165736 0.43500003
-0.14357591 -0.0048165736 0.43500003
-0.14244182 -0.0048165736 0.43500003
-0.14130776 -0.0048165736 0.43500003
-0.14017369 -0.0048165736 0.43500003
-0.13903962 -0.0048165736 0.43500003
-0.13790554 -0.0048165736 0.43500003
-0.13677146 -0.0048165736 0.43500003
-0.13594919 -0.0048276456 0.43600002
-0.13481252 -0.0048276456 0.43600002
-0.13367584 -0.0048276456 0.43600002
-0.13253915 -0.0048276456 0.43600002
-0.13140248 -0.0048276456 0.43600002
-0.1302658 -0.0048276456 0.43600002
-0.12912913 -0.0048276456 0.43600002
-0.12799244 -0.0048276456 0.43600002
-0.12656482 -0.0048165736 0.43500003
-0.12543073 -0.0048165736 0.43500003
-0.12429667 -0.0048165736 0.43500003
-0.12316259 -0.0048165736 0.43500003
-0.12202851 -0.0048165736 0.43500003
-0.12089445 -0.0048165736 0.43500003
-0.12003568 -0.0048276456 0.43600002
-0.118899 -0.0048276456 0.43600002
-0.11776232 -0.0048276456 0.43600002
-0.11662564 -0.0048276456 0.43600002
-0.11548896 -0.0048276456 0.43600002
-0.11435229 -0.0048276456 0.43600002
-0.1132156 -0.0048276456 0.43600002
-0.11207893 -0.0048276456 0.43600002
-0.11094224 -0.0048276456 0.43600002
-0.10980557 -0.0048276456 0.43600002
-0.10866889 -0.0048276456 0.43600002
-0.1075322 -0.0048276456 0.43600002
-0.10639553 -0.0048276456 0.43600002
-0.10525884 -0.0048276456 0.43600002
-0.10412217 -0.0048276456 0.43600002
-0.10298549 -0.0048276456 0.43600002
-0.10184881 -0.0048276456 0.43600002
-0.10071212 -0.0048276456 0.43600002
-0.099575445 -0.0048276456 0.43600002
-0.098438762 -0.0048276456 0.43600002
-0.097302087 -0.0048276456 0.43600002
-0.096165404 -0.0048276456 0.43600002
-0.095028728 -0.0048276456 0.43600002
-0.093892045 -0.0048276456 0.43600002
-0.09275537 -0.0048276456 0.43600002
-0.091408558 -0.0048165736 0.43500003
-0.090274483 -0.0048165736 0.43500003
-0.089140408 -0.0048165736 0.43500003
-0.088208653 -0.0048276456 0.43600002
-0.08707197 -0.0048276456 0.43600002
-0.085935287 -0.0048276456 0.43600002
-0.084798604 -0.0048276456 0.43600002
-0.083661929 -0.0048276456 0.43600002
-0.082525246 -0.0048276456 0.43600002
-0.08138857 -0.0048276456 0.43600002
-0.080251887 -0.0048276456 0.43600002
-0.079115212 -0.0048276456 0.43600002
-0.077978529 -0.0048276456 0.43600002
-0.076841854 -0.0048276456 0.43600002
-0.075705171 -0.0048276456 0.43600002
-0.074568495 -0.0048276456 0.43600002
-0.073431812 -0.0048276456 0.43600002
-0.072295137 -0.0048276456 0.43600002
-0.071158446 -0.0048276456 0.43600002
-0.070021771 -0.0048276456 0.43600002
-0.068885088 -0.0048276456 0.43600002
-0.067748412 -0.0048276456 0.43600002
-0.06661173 -0.0048276456 0.43600002
-0.065475054 -0.0048276456 0.43600002
-0.064485937 -0.0048387181 0.43700001
-0.063346647 -0.0048387181 0.43700001
-0.062207364 -0.0048387181 0.43700001
-0.061068077 -0.0048387181 0.43700001
-0.05992879 -0.0048387181 0.43700001
-0.058789503 -0.0048387181 0.43700001
-0.057650216 -0.0048387181 0.43700001
-0.056510925 -0.0048387181 0.43700001
-0.055371638 -0.0048387181 0.43700001
-0.054232355 -0.0048387181 0.43700001
-0.053093068 -0.0048387181 0.43700001
-0.051953778 -0.0048387181 0.43700001
-0.050814494 -0.0048387181 0.43700001
-0.049675208 -0.0048387181 0.43700001
-0.048535921 -0.0048387181 0.43700001
-0.047396634 -0.0048387181 0.43700001
-0.046257347 -0.0048387181 0.43700001
-0.045118056 -0.0048387181 0.43700001
-0.043978773 -0.0048387181 0.43700001
-0.042839486 -0.0048387181 0.43700001
-0.041700199 -0.0048387181 0.43700001
-0.040560912 -0.0048387181 0.43700001
-0.039421625 -0.0048387181 0.43700001
-0.038282339 -0.0048387181 0.43700001
-0.037143052 -0.0048387181 0.43700001
-0.036003765 -0.0048387181 0.43700001
-0.034864478 -0.0048387181 0.43700001
-0.033725191 -0.0048387181 0.43700001
-0.032585904 -0.0048387181 0.43700001
-0.031446621 -0.0048387181 0.43700001
-0.03030733 -0.0048387181 0.43700001
-0.029168043 -0.0048387181 0.43700001
-0.028028756 -0.0048387181 0.43700001
-0.026889471 -0.0048387181 0.43700001
-0.025750184 -0.0048387181 0.43700001
-0.024610896 -0.0048387181 0.43700001
-0.023471611 -0.0048387181 0.43700001
-0.022332324 -0.0048387181 0.43700001
-0.021193035 -0.0048387181 0.43700001
-0.02005375 -0.0048387181 0.43700001
-0.018914463 -0.0048387181 0.43700001
-0.017775176 -0.0048387181 0.43700001
-0.016635889 -0.0048387181 0.43700001
-0.015496602 -0.0048387181 0.43700001
-0.014357316 -0.0048387181 0.43700001
-0.013218028 -0.0048387181 0.43700001
-0.012078742 -0.0048387181 0.43700001
