# .PCD v0.7 - Point Cloud Data file format
VERSION 0.7
FIELDS x y z
SIZE 4 4 4
TYPE F F F
COUNT 1 1 1
WIDTH 1380
HEIGHT 1
VIEWPOINT 0 0 0 1 0 0 0
POINTS 1380
DATA ascii
-0.042426471 0.041348983 0.35600001
-0.038089082 0.039722901 0.34200001
-0.035460439 0.038793713 0.33400002
-0.03341987 0.038445268 0.33100003
-0.032362111 0.038212966 0.32900003
-0.031314753 0.037980668 0.32700002
-0.030370964 0.037864517 0.32600001
-0.029341815 0.037632219 0.324
-0.028411034 0.037516072 0.32300001
-0.027485456 0.037399925 0.32200003
-0.026565079 0.037283774 0.32100001
-0.025649907 0.037167627 0.32000002
-0.024739934 0.037051477 0.31900001
-0.023835165 0.036935329 0.31800002
-0.022935599 0.036819179 0.317
-0.022110986 0.036819179 0.317
-0.021219224 0.036703032 0.31600001
-0.020397214 0.036703032 0.31600001
-0.019513257 0.036586884 0.31500003
-0.018693846 0.036586884 0.31500003
-0.017817689 0.036470734 0.31400001
-0.016946739 0.036354586 0.31300002
-0.016080989 0.036238436 0.31200001
-0.015220443 0.036122289 0.31100002
-0.014365098 0.036006138 0.31
-0.013514957 0.035889991 0.30900002
-0.012670019 0.035773844 0.30800003
-0.011830281 0.035657693 0.30700001
-0.010995749 0.035541546 0.30600002
-0.010166418 0.035425395 0.30500001
-0.0093730204 0.035425395 0.30500001
0.051723763 0.052266974 0.45000002
0.05289435 0.052266974 0.45000002
0.054064937 0.052266974 0.45000002
0.055235524 0.052266974 0.45000002
0.056406107 0.052266974 0.45000002
0.057576697 0.052266974 0.45000002
0.05874728 0.052266974 0.45000002
0.059917871 0.052266974 0.45000002
0.061088454 0.052266974 0.45000002
0.062259037 0.052266974 0.45000002
0.063429624 0.052266974 0.45000002
0.064600207 0.052266974 0.45000002
0.065770797 0.052266974 0.45000002
0.066941381 0.052266974 0.45000002
0.068111971 0.052266974 0.45000002
0.069282554 0.052266974 0.45000002
0.070453137 0.052266974 0.45000002
0.071623728 0.052266974 0.45000002
0.072794311 0.052266974 0.45000002
0.073964901 0.052266974 0.45000002
0.075135484 0.052266974 0.45000002
0.076306075 0.052266974 0.45000002
0.077476658 0.052266974 0.45000002
0.078647241 0.052266974 0.45000002
0.079817832 0.052266974 0.45000002
0.080988415 0.052266974 0.45000002
0.082159005 0.052266974 0.45000002
0.083329588 0.052266974 0.45000002
0.084500171 0.052266974 0.45000002
0.085670762 0.052266974 0.45000002
0.086841345 0.052266974 0.45000002
0.088011928 0.052266974 0.45000002
0.089182511 0.052266974 0.45000002
0.090353101 0.052266974 0.45000002
0.091523685 0.052266974 0.45000002
0.092694268 0.052266974 0.45000002
0.093864858 0.052266974 0.45000002
0.095035441 0.052266974 0.45000002
0.096206032 0.052266974 0.45000002
0.097376615 0.052266974 0.45000002
0.098547198 0.052266974 0.45000002
0.099717788 0.052266974 0.45000002
0.10088837 0.052266974 0.45000002
0.10205896 0.052266974 0.45000002
0.10322955 0.052266974 0.45000002
0.10440014 0.052266974 0.45000002
0.10557072 0.052266974 0.45000002
0.10697851 0.052383125 0.45100003
0.1081517 0.052383125 0.45100003
0.10908248 0.052266974 0.45000002
0.11049808 0.052383125 0.45100003
0.11167126 0.052383125 0.45100003
0.11284444 0.052383125 0.45100003
0.11401763 0.052383125 0.45100003
0.11519083 0.052383125 0.45100003
0.11636401 0.052383125 0.45100003
0.11753719 0.052383125 0.45100003
0.11871038 0.052383125 0.45100003
0.11988357 0.052383125 0.45100003
0.12105677 0.052383125 0.45100003
0.12222995 0.052383125 0.45100003
0.12340313 0.052383125 0.45100003
0.12457632 0.052383125 0.45100003
0.12574951 0.052383125 0.45100003
0.12720412 0.052499272 0.45200002
0.12837991 0.052499272 0.45200002
0.12955569 0.052499272 0.45200002
0.13073148 0.052499272 0.45200002
0.13190727 0.052499272 0.45200002
0.13308306 0.052499272 0.45200002
0.13425885 0.052499272 0.45200002
0.13573426 0.052615419 0.45300001
0.13691264 0.052615419 0.45300001
0.13809106 0.052615419 0.45300001
0.13926944 0.052615419 0.45300001
0.14044783 0.052615419 0.45300001
0.14162621 0.052615419 0.45300001
0.14280461 0.052615419 0.45300001
0.14398299 0.052615419 0.45300001
0.14548184 0.05273157 0.45400003
0.14666283 0.05273157 0.45400003
0.14784381 0.05273157 0.45400003
0.14902481 0.05273157 0.45400003
0.15020581 0.05273157 0.45400003
0.15172024 0.052847721 0.45500001
0.15290383 0.052847721 0.45500001
0.15408742 0.052847721 0.45500001
0.15527102 0.052847721 0.45500001
0.15645461 0.052847721 0.45500001
0.15763819 0.052847721 0.45500001
0.15882179 0.052847721 0.45500001
0.16000538 0.052847721 0.45500001
0.16118897 0.052847721 0.45500001
0.16237257 0.052847721 0.45500001
0.16355616 0.052847721 0.45500001
0.16510183 0.052963872 0.45600003
0.16628803 0.052963872 0.45600003
0.16747421 0.052963872 0.45600003
0.1686604 0.052963872 0.45600003
0.16984659 0.052963872 0.45600003
0.17103279 0.052963872 0.45600003
0.17221899 0.052963872 0.45600003
0.17340519 0.052963872 0.45600003
0.17459138 0.052963872 0.45600003
0.17577757 0.052963872 0.45600003
0.17696376 0.052963872 0.45600003
0.17814997 0.052963872 0.45600003
0.17933616 0.052963872 0.45600003
0.18052234 0.052963872 0.45600003
0.18170853 0.052963872 0.45600003
0.18249364 0.052847721 0.45500001
0.18367724 0.052847721 0.45500001
0.18486083 0.052847721 0.45500001
0.18604441 0.052847721 0.45500001
0.18722801 0.052847721 0.45500001
0.18841159 0.052847721 0.45500001
0.18959519 0.052847721 0.45500001
0.19077879 0.052847721 0.45500001
0.19238429 0.052963872 0.45600003
0.19357046 0.052963872 0.45600003
0.19475667 0.052963872 0.45600003
0.19594286 0.052963872 0.45600003
0.19712906 0.052963872 0.45600003
0.19831525 0.052963872 0.45600003
0.19950144 0.052963872 0.45600003
0.20068765 0.052963872 0.45600003
0.20187384 0.052963872 0.45600003
0.20306003 0.052963872 0.45600003
0.20424622 0.052963872 0.45600003
0.20498189 0.052847721 0.45500001
0.20616549 0.052847721 0.45500001
0.20734908 0.052847721 0.45500001
0.20853268 0.052847721 0.45500001
0.20971626 0.052847721 0.45500001
0.21089986 0.052847721 0.45500001
0.21208346 0.052847721 0.45500001
0.21326704 0.052847721 0.45500001
0.21445063 0.052847721 0.45500001
0.21610816 0.052963872 0.45600003
0.21729437 0.052963872 0.45600003
0.21848054 0.052963872 0.45600003
-0.24695024 0.052725062 0.44400004
-0.24579528 0.052725062 0.44400004
-0.24464029 0.052725062 0.44400004
-0.24403371 0.052843813 0.44500002
-0.24287611 0.052843813 0.44500002
-0.24171853 0.052843813 0.44500002
-0.24056096 0.052843813 0.44500002
-0.23940338 0.052843813 0.44500002
-0.23824582 0.052843813 0.44500002
-0.23708822 0.052843813 0.44500002
-0.23593064 0.052843813 0.44500002
-0.23477307 0.052843813 0.44500002
-0.23361547 0.052843813 0.44500002
-0.23245792 0.052843813 0.44500002
-0.23130032 0.052843813 0.44500002
-0.23014274 0.052843813 0.44500002
-0.22898518 0.052843813 0.44500002
-0.22782758 0.052843813 0.44500002
-0.22667001 0.052843813 0.44500002
-0.22551243 0.052843813 0.44500002
-0.22435483 0.052843813 0.44500002
-0.22319728 0.052843813 0.44500002
-0.22203968 0.052843813 0.44500002
-0.2208821 0.052843813 0.44500002
-0.21972454 0.052843813 0.44500002
-0.21856695 0.052843813 0.44500002
-0.21740937 0.052843813 0.44500002
-0.21625179 0.052843813 0.44500002
-0.21509421 0.052843813 0.44500002
-0.21393664 0.052843813 0.44500002
-0.21277906 0.052843813 0.44500002
-0.21114592 0.052725062 0.44400004
-0.20999095 0.052725062 0.44400004
-0.20836562 0.052606311 0.44300002
-0.20721324 0.052606311 0.44300002
-0.20606086 0.052606311 0.44300002
-0.20490848 0.052606311 0.44300002
-0.20375611 0.052606311 0.44300002
-0.20260373 0.052606311 0.44300002
-0.20145136 0.052606311 0.44300002
-0.20075111 0.052725062 0.44400004
-0.19959614 0.052725062 0.44400004
-0.19888809 0.052843813 0.44500002
-0.19773053 0.052843813 0.44500002
-0.19657294 0.052843813 0.44500002
-0.19541536 0.052843813 0.44500002
-0.19425778 0.052843813 0.44500002
-0.1931002 0.052843813 0.44500002
-0.19194263 0.052843813 0.44500002
-0.19078505 0.052843813 0.44500002
-0.18962745 0.052843813 0.44500002
-0.18846989 0.052843813 0.44500002
-0.1873123 0.052843813 0.44500002
-0.18615472 0.052843813 0.44500002
-0.18499716 0.052843813 0.44500002
-0.18383956 0.052843813 0.44500002
-0.18268199 0.052843813 0.44500002
-0.18152441 0.052843813 0.44500002
-0.18036683 0.052843813 0.44500002
-0.17920925 0.052843813 0.44500002
-0.17805167 0.052843813 0.44500002
-0.17689408 0.052843813 0.44500002
-0.17573652 0.052843813 0.44500002
-0.17457893 0.052843813 0.44500002
-0.17342135 0.052843813 0.44500002
-0.17226377 0.052843813 0.44500002
-0.17110619 0.052843813 0.44500002
-0.16994862 0.052843813 0.44500002
-0.16879104 0.052843813 0.44500002
-0.16763344 0.052843813 0.44500002
-0.16647588 0.052843813 0.44500002
-0.1653183 0.052843813 0.44500002
-0.16452962 0.05296256 0.44600001
-0.16336943 0.05296256 0.44600001
-0.16220924 0.05296256 0.44600001
-0.16104907 0.05296256 0.44600001
-0.15988889 0.05296256 0.44600001
-0.15872872 0.05296256 0.44600001
-0.15756853 0.05296256 0.44600001
-0.15640834 0.05296256 0.44600001
-0.15524817 0.05296256 0.44600001
-0.15408799 0.05296256 0.44600001
-0.15292782 0.05296256 0.44600001
-0.15176763 0.05296256 0.44600001
-0.15060744 0.05296256 0.44600001
-0.14944726 0.05296256 0.44600001
-0.14828709 0.05296256 0.44600001
-0.14712691 0.05296256 0.44600001
-0.14596672 0.05296256 0.44600001
-0.14480653 0.05296256 0.44600001
-0.14364636 0.05296256 0.44600001
-0.14248618 0.05296256 0.44600001
-0.14132601 0.05296256 0.44600001
-0.14016582 0.05296256 0.44600001
-0.13900563 0.05296256 0.44600001
-0.13784546 0.05296256 0.44600001
-0.13668528 0.05296256 0.44600001
-0.13552509 0.05296256 0.44600001
-0.13436492 0.05296256 0.44600001
-0.13320473 0.05296256 0.44600001
-0.13204455 0.05296256 0.44600001
-0.13088438 0.05296256 0.44600001
-0.12972419 0.05296256 0.44600001
-0.12856402 0.05296256 0.44600001
-0.12740383 0.05296256 0.44600001
-0.12624365 0.05296256 0.44600001
-0.12508348 0.05296256 0.44600001
-0.12392329 0.05296256 0.44600001
-0.1227631 0.05296256 0.44600001
-0.12160293 0.05296256 0.44600001
-0.12044275 0.05296256 0.44600001
-0.11928257 0.05296256 0.44600001
-0.11812238 0.05296256 0.44600001
-0.1169622 0.05296256 0.44600001
-0.11606167 0.053081311 0.44700003
-0.1148989 0.053081311 0.44700003
-0.1137361 0.053081311 0.44700003
-0.11257333 0.053081311 0.44700003
-0.11141054 0.053081311 0.44700003
-0.11024777 0.053081311 0.44700003
-0.10908498 0.053081311 0.44700003
-0.1079222 0.053081311 0.44700003
-0.10675941 0.053081311 0.44700003
-0.10559663 0.053081311 0.44700003
-0.10420022 0.05296256 0.44600001
-0.10304003 0.05296256 0.44600001
-0.10187986 0.05296256 0.44600001
-0.10071968 0.05296256 0.44600001
-0.099559493 0.05296256 0.44600001
-0.098399319 0.05296256 0.44600001
-0.097239129 0.05296256 0.44600001
-0.096078955 0.05296256 0.44600001
-0.094918773 0.05296256 0.44600001
-0.093758591 0.05296256 0.44600001
-0.092598408 0.05296256 0.44600001
-0.091438226 0.05296256 0.44600001
-0.090278052 0.05296256 0.44600001
-0.089317687 0.053081311 0.44700003
-0.088154905 0.053081311 0.44700003
-0.086992122 0.053081311 0.44700003
-0.086021349 0.053200062 0.44800001
-0.084855966 0.053200062 0.44800001
-0.083690584 0.053200062 0.44800001
-0.082341 0.053081311 0.44700003
-0.081178211 0.053081311 0.44700003
-0.080015428 0.053081311 0.44700003
-0.078852646 0.053081311 0.44700003
-0.077689864 0.053081311 0.44700003
-0.076355882 0.05296256 0.44600001
-0.042784002 0.042631302 0.35900003
-0.036764357 0.040137548 0.33800003
-0.034384467 0.039425045 0.33200002
-0.032263745 0.038950045 0.32800001
-0.031218989 0.038712543 0.32600001
-0.030184638 0.038475044 0.324
-0.029251255 0.038356293 0.32300001
-0.028323077 0.038237546 0.32200003
-0.027314739 0.038000043 0.32000002
-0.026399562 0.037881292 0.31900001
-0.025489595 0.037762545 0.31800002
-0.024662381 0.037762545 0.31800002
-0.023760211 0.037643794 0.317
-0.022863247 0.037525043 0.31600001
-0.022041235 0.037525043 0.31600001
-0.021152075 0.037406296 0.31500003
-0.020332666 0.037406296 0.31500003
-0.019451309 0.037287544 0.31400001
-0.018634498 0.037287544 0.31400001
-0.017760945 0.037168793 0.31300002
-0.016892595 0.037050042 0.31200001
-0.016029447 0.036931295 0.31100002
-0.015171502 0.03681254 0.31
-0.014318759 0.036693793 0.30900002
-0.013514957 0.036693793 0.30900002
-0.012628882 0.036456291 0.30700001
-0.011830281 0.036456291 0.30700001
-0.010995749 0.036337543 0.30600002
-0.0093422895 0.036100041 0.30400002
0.051723763 0.053437561 0.45000002
0.05289435 0.053437561 0.45000002
0.054064937 0.053437561 0.45000002
0.055235524 0.053437561 0.45000002
0.056406107 0.053437561 0.45000002
0.057576697 0.053437561 0.45000002
0.05874728 0.053437561 0.45000002
0.059917871 0.053437561 0.45000002
0.061088454 0.053437561 0.45000002
0.062259037 0.053437561 0.45000002
0.063429624 0.053437561 0.45000002
0.064600207 0.053437561 0.45000002
0.065770797 0.053437561 0.45000002
0.066941381 0.053437561 0.45000002
0.068111971 0.053437561 0.45000002
0.069282554 0.053437561 0.45000002
0.070453137 0.053437561 0.45000002
0.071623728 0.053437561 0.45000002
0.072794311 0.053437561 0.45000002
0.073964901 0.053437561 0.45000002
0.075135484 0.053437561 0.45000002
0.076306075 0.053437561 0.45000002
0.077476658 0.053437561 0.45000002
0.078647241 0.053437561 0.45000002
0.079817832 0.053437561 0.45000002
0.080988415 0.053437561 0.45000002
0.082159005 0.053437561 0.45000002
0.083329588 0.053437561 0.45000002
0.084500171 0.053437561 0.45000002
0.085670762 0.053437561 0.45000002
0.086841345 0.053437561 0.45000002
0.088011928 0.053437561 0.45000002
0.089182511 0.053437561 0.45000002
0.090353101 0.053437561 0.45000002
0.091523685 0.053437561 0.45000002
0.092694268 0.053437561 0.45000002
0.093864858 0.053437561 0.45000002
0.095035441 0.053437561 0.45000002
0.096206032 0.053437561 0.45000002
0.097376615 0.053437561 0.45000002
0.098547198 0.053437561 0.45000002
0.099717788 0.053437561 0.45000002
0.10088837 0.053437561 0.45000002
0.10205896 0.053437561 0.45000002
0.10322955 0.053437561 0.45000002
0.10440014 0.053437561 0.45000002
0.10580532 0.053556316 0.45100003
0.10697851 0.053556316 0.45100003
0.1081517 0.053556316 0.45100003
0.10932489 0.053556316 0.45100003
0.11049808 0.053556316 0.45100003
0.11167126 0.053556316 0.45100003
0.11284444 0.053556316 0.45100003
0.11401763 0.053556316 0.45100003
0.11519083 0.053556316 0.45100003
0.11636401 0.053556316 0.45100003
0.11753719 0.053556316 0.45100003
0.11871038 0.053556316 0.45100003
0.11988357 0.053556316 0.45100003
0.12105677 0.053556316 0.45100003
0.12222995 0.053556316 0.45100003
0.12340313 0.053556316 0.45100003
0.12485254 0.053675063 0.45200002
0.12602833 0.053675063 0.45200002
0.12720412 0.053675063 0.45200002
0.12837991 0.053675063 0.45200002
0.12955569 0.053675063 0.45200002
0.13073148 0.053675063 0.45200002
0.13190727 0.053675063 0.45200002
0.13308306 0.053675063 0.45200002
0.13425885 0.053675063 0.45200002
0.13573426 0.05379381 0.45300001
0.13691264 0.05379381 0.45300001
0.13809106 0.05379381 0.45300001
0.13926944 0.05379381 0.45300001
0.14044783 0.05379381 0.45300001
0.14162621 0.05379381 0.45300001
0.14280461 0.05379381 0.45300001
0.14430085 0.053912565 0.45400003
0.14548184 0.053912565 0.45400003
0.14666283 0.053912565 0.45400003
0.14784381 0.053912565 0.45400003
0.14935306 0.054031312 0.45500001
0.15053664 0.054031312 0.45500001
0.15172024 0.054031312 0.45500001
0.15290383 0.054031312 0.45500001
0.15408742 0.054031312 0.45500001
0.15527102 0.054031312 0.45500001
0.15645461 0.054031312 0.45500001
0.15763819 0.054031312 0.45500001
0.15882179 0.054031312 0.45500001
0.16000538 0.054031312 0.45500001
0.16118897 0.054031312 0.45500001
0.16237257 0.054031312 0.45500001
0.16355616 0.054031312 0.45500001
0.16510183 0.054150064 0.45600003
0.16628803 0.054150064 0.45600003
0.16747421 0.054150064 0.45600003
0.1686604 0.054150064 0.45600003
0.16984659 0.054150064 0.45600003
0.17103279 0.054150064 0.45600003
0.17221899 0.054150064 0.45600003
0.17340519 0.054150064 0.45600003
0.17459138 0.054150064 0.45600003
0.17577757 0.054150064 0.45600003
0.17696376 0.054150064 0.45600003
0.17814997 0.054150064 0.45600003
0.17933616 0.054150064 0.45600003
0.18052234 0.054150064 0.45600003
0.18170853 0.054150064 0.45600003
0.18249364 0.054031312 0.45500001
0.18367724 0.054031312 0.45500001
0.18486083 0.054031312 0.45500001
0.18604441 0.054031312 0.45500001
0.18722801 0.054031312 0.45500001
0.18841159 0.054031312 0.45500001
0.18959519 0.054031312 0.45500001
0.19077879 0.054031312 0.45500001
0.19238429 0.054150064 0.45600003
0.19357046 0.054150064 0.45600003
0.19475667 0.054150064 0.45600003
0.19594286 0.054150064 0.45600003
0.19712906 0.054150064 0.45600003
0.19831525 0.054150064 0.45600003
0.19950144 0.054150064 0.45600003
0.20068765 0.054150064 0.45600003
0.20187384 0.054150064 0.45600003
0.20306003 0.054150064 0.45600003
0.20424622 0.054150064 0.45600003
0.20543242 0.054150064 0.45600003
0.20661861 0.054150064 0.45600003
0.2078048 0.054150064 0.45600003
0.20899099 0.054150064 0.45600003
0.20971626 0.054031312 0.45500001
0.21089986 0.054031312 0.45500001
0.21254958 0.054150064 0.45600003
0.21373577 0.054150064 0.45600003
0.21492197 0.054150064 0.45600003
0.21610816 0.054150064 0.45600003
0.21729437 0.054150064 0.45600003
0.21848054 0.054150064 0.45600003
-0.24695024 0.053880043 0.44400004
-0.24579528 0.053880043 0.44400004
-0.24464029 0.053880043 0.44400004
-0.24403371 0.054001391 0.44500002
-0.24287611 0.054001391 0.44500002
-0.24171853 0.054001391 0.44500002
-0.24056096 0.054001391 0.44500002
-0.23940338 0.054001391 0.44500002
-0.23824582 0.054001391 0.44500002
-0.23708822 0.054001391 0.44500002
-0.23593064 0.054001391 0.44500002
-0.23477307 0.054001391 0.44500002
-0.23361547 0.054001391 0.44500002
-0.23245792 0.054001391 0.44500002
-0.23130032 0.054001391 0.44500002
-0.23014274 0.054001391 0.44500002
-0.22898518 0.054001391 0.44500002
-0.22782758 0.054001391 0.44500002
-0.22667001 0.054001391 0.44500002
-0.22551243 0.054001391 0.44500002
-0.22435483 0.054001391 0.44500002
-0.22319728 0.054001391 0.44500002
-0.22203968 0.054001391 0.44500002
-0.2208821 0.054001391 0.44500002
-0.21972454 0.054001391 0.44500002
-0.21856695 0.054001391 0.44500002
-0.21740937 0.054001391 0.44500002
-0.21625179 0.054001391 0.44500002
-0.21509421 0.054001391 0.44500002
-0.21393664 0.054001391 0.44500002
-0.21277906 0.054001391 0.44500002
-0.21114592 0.053880043 0.44400004
-0.20999095 0.053880043 0.44400004
-0.20836562 0.053758688 0.44300002
-0.20721324 0.053758688 0.44300002
-0.20606086 0.053758688 0.44300002
-0.20490848 0.053758688 0.44300002
-0.20375611 0.053758688 0.44300002
-0.20260373 0.053758688 0.44300002
-0.20145136 0.053758688 0.44300002
-0.20075111 0.053880043 0.44400004
-0.19959614 0.053880043 0.44400004
-0.19844116 0.053880043 0.44400004
-0.19773053 0.054001391 0.44500002
-0.19657294 0.054001391 0.44500002
-0.19541536 0.054001391 0.44500002
-0.19425778 0.054001391 0.44500002
-0.1931002 0.054001391 0.44500002
-0.19194263 0.054001391 0.44500002
-0.19078505 0.054001391 0.44500002
-0.18962745 0.054001391 0.44500002
-0.18846989 0.054001391 0.44500002
-0.1873123 0.054001391 0.44500002
-0.18615472 0.054001391 0.44500002
-0.18499716 0.054001391 0.44500002
-0.18383956 0.054001391 0.44500002
-0.18268199 0.054001391 0.44500002
-0.18152441 0.054001391 0.44500002
-0.18036683 0.054001391 0.44500002
-0.17920925 0.054001391 0.44500002
-0.17805167 0.054001391 0.44500002
-0.17689408 0.054001391 0.44500002
-0.17573652 0.054001391 0.44500002
-0.17457893 0.054001391 0.44500002
-0.17342135 0.054001391 0.44500002
-0.17226377 0.054001391 0.44500002
-0.17110619 0.054001391 0.44500002
-0.16994862 0.054001391 0.44500002
-0.16879104 0.054001391 0.44500002
-0.16763344 0.054001391 0.44500002
-0.16647588 0.054001391 0.44500002
-0.1653183 0.054001391 0.44500002
-0.16416073 0.054001391 0.44500002
-0.16336943 0.054122742 0.44600001
-0.16220924 0.054122742 0.44600001
-0.16104907 0.054122742 0.44600001
-0.15988889 0.054122742 0.44600001
-0.15872872 0.054122742 0.44600001
-0.15756853 0.054122742 0.44600001
-0.15640834 0.054122742 0.44600001
-0.15524817 0.054122742 0.44600001
-0.15408799 0.054122742 0.44600001
-0.15292782 0.054122742 0.44600001
-0.15176763 0.054122742 0.44600001
-0.15060744 0.054122742 0.44600001
-0.14944726 0.054122742 0.44600001
-0.14828709 0.054122742 0.44600001
-0.14712691 0.054122742 0.44600001
-0.14596672 0.054122742 0.44600001
-0.14480653 0.054122742 0.44600001
-0.14364636 0.054122742 0.44600001
-0.14248618 0.054122742 0.44600001
-0.14132601 0.054122742 0.44600001
-0.14016582 0.054122742 0.44600001
-0.13900563 0.054122742 0.44600001
-0.13784546 0.054122742 0.44600001
-0.13668528 0.054122742 0.44600001
-0.13552509 0.054122742 0.44600001
-0.13436492 0.054122742 0.44600001
-0.13320473 0.054122742 0.44600001
-0.13204455 0.054122742 0.44600001
-0.13088438 0.054122742 0.44600001
-0.12972419 0.054122742 0.44600001
-0.12856402 0.054122742 0.44600001
-0.12740383 0.054122742 0.44600001
-0.12624365 0.054122742 0.44600001
-0.12508348 0.054122742 0.44600001
-0.12392329 0.054122742 0.44600001
-0.1227631 0.054122742 0.44600001
-0.12160293 0.054122742 0.44600001
-0.12044275 0.054122742 0.44600001
-0.11928257 0.054122742 0.44600001
-0.11812238 0.054122742 0.44600001
-0.1169622 0.054122742 0.44600001
-0.11580203 0.054122742 0.44600001
-0.1148989 0.054244094 0.44700003
-0.1137361 0.054244094 0.44700003
-0.11257333 0.054244094 0.44700003
-0.11141054 0.054244094 0.44700003
-0.11024777 0.054244094 0.44700003
-0.10908498 0.054244094 0.44700003
-0.1079222 0.054244094 0.44700003
-0.10675941 0.054244094 0.44700003
-0.1053604 0.054122742 0.44600001
-0.10420022 0.054122742 0.44600001
-0.10304003 0.054122742 0.44600001
-0.10187986 0.054122742 0.44600001
-0.10071968 0.054122742 0.44600001
-0.099559493 0.054122742 0.44600001
-0.098399319 0.054122742 0.44600001
-0.097239129 0.054122742 0.44600001
-0.096078955 0.054122742 0.44600001
-0.094918773 0.054122742 0.44600001
-0.093758591 0.054122742 0.44600001
-0.092598408 0.054122742 0.44600001
-0.091438226 0.054122742 0.44600001
-0.090278052 0.054122742 0.44600001
-0.089317687 0.054244094 0.44700003
-0.088154905 0.054244094 0.44700003
-0.086992122 0.054244094 0.44700003
-0.08582934 0.054244094 0.44700003
-0.084855966 0.054365445 0.44800001
-0.083690584 0.054365445 0.44800001
-0.082341 0.054244094 0.44700003
-0.081178211 0.054244094 0.44700003
-0.080015428 0.054244094 0.44700003
-0.078852646 0.054244094 0.44700003
-0.077689864 0.054244094 0.44700003
-0.076355882 0.054122742 0.44600001
-0.054610901 0.046477601 0.38300002
-0.035460439 0.040531382 0.33400002
-0.032165378 0.039681923 0.32700002
-0.031123225 0.03943922 0.32500002
-0.030091476 0.039196514 0.32300001
-0.029070133 0.038953811 0.32100001
-0.028147155 0.038832463 0.32000002
-0.026316807 0.038589761 0.31800002
-0.025489595 0.038589761 0.31800002
-0.024584824 0.038468406 0.317
-0.02368526 0.038347054 0.31600001
-0.022863247 0.038347054 0.31600001
-0.021971485 0.038225707 0.31500003
-0.021152075 0.038225707 0.31500003
-0.020268118 0.038104352 0.31400001
-0.019451309 0.038104352 0.31400001
-0.018575154 0.037983004 0.31300002
-0.017704202 0.037861649 0.31200001
-0.016892595 0.037861649 0.31200001
-0.016029447 0.037740298 0.31100002
-0.015171502 0.037618946 0.31
-0.014318759 0.037497595 0.30900002
-0.013471221 0.037376247 0.30800003
-0.012628882 0.037254892 0.30700001
-0.011791747 0.037133541 0.30600002
-0.010959815 0.03701219 0.30500001
0.051723763 0.054608148 0.45000002
0.05289435 0.054608148 0.45000002
0.054064937 0.054608148 0.45000002
0.055235524 0.054608148 0.45000002
0.056406107 0.054608148 0.45000002
0.057576697 0.054608148 0.45000002
0.05874728 0.054608148 0.45000002
0.059917871 0.054608148 0.45000002
0.061088454 0.054608148 0.45000002
0.062259037 0.054608148 0.45000002
0.063429624 0.054608148 0.45000002
0.064600207 0.054608148 0.45000002
0.065770797 0.054608148 0.45000002
0.066941381 0.054608148 0.45000002
0.068111971 0.054608148 0.45000002
0.069282554 0.054608148 0.45000002
0.070453137 0.054608148 0.45000002
0.071623728 0.054608148 0.45000002
0.072794311 0.054608148 0.45000002
0.073964901 0.054608148 0.45000002
0.075135484 0.054608148 0.45000002
0.076306075 0.054608148 0.45000002
0.077476658 0.054608148 0.45000002
0.078647241 0.054608148 0.45000002
0.079995207 0.054729503 0.45100003
0.081168391 0.054729503 0.45100003
0.082159005 0.054608148 0.45000002
0.083514765 0.054729503 0.45100003
0.084687948 0.054729503 0.45100003
0.085861139 0.054729503 0.45100003
0.087034322 0.054729503 0.45100003
0.088011928 0.054608148 0.45000002
0.089182511 0.054608148 0.45000002
0.090353101 0.054608148 0.45000002
0.091523685 0.054608148 0.45000002
0.092694268 0.054608148 0.45000002
0.093864858 0.054608148 0.45000002
0.095035441 0.054608148 0.45000002
0.096206032 0.054608148 0.45000002
0.097376615 0.054608148 0.45000002
0.098547198 0.054608148 0.45000002
0.099717788 0.054608148 0.45000002
0.10088837 0.054608148 0.45000002
0.10228577 0.054729503 0.45100003
0.10345895 0.054729503 0.45100003
0.10463214 0.054729503 0.45100003
0.10580532 0.054729503 0.45100003
0.10697851 0.054729503 0.45100003
0.1081517 0.054729503 0.45100003
0.10932489 0.054729503 0.45100003
0.11049808 0.054729503 0.45100003
0.11167126 0.054729503 0.45100003
0.11284444 0.054729503 0.45100003
0.11401763 0.054729503 0.45100003
0.11519083 0.054729503 0.45100003
0.11636401 0.054729503 0.45100003
0.11753719 0.054729503 0.45100003
0.11871038 0.054729503 0.45100003
0.11988357 0.054729503 0.45100003
0.12105677 0.054729503 0.45100003
0.12222995 0.054729503 0.45100003
0.12367675 0.05485085 0.45200002
0.12485254 0.05485085 0.45200002
0.12602833 0.05485085 0.45200002
0.12720412 0.05485085 0.45200002
0.12837991 0.05485085 0.45200002
0.12955569 0.05485085 0.45200002
0.13073148 0.05485085 0.45200002
0.13190727 0.05485085 0.45200002
0.13308306 0.05485085 0.45200002
0.13425885 0.05485085 0.45200002
0.13573426 0.054972202 0.45300001
0.13691264 0.054972202 0.45300001
0.13809106 0.054972202 0.45300001
0.13926944 0.054972202 0.45300001
0.14044783 0.054972202 0.45300001
0.14193885 0.055093557 0.45400003
0.14311986 0.055093557 0.45400003
0.14430085 0.055093557 0.45400003
0.14548184 0.055093557 0.45400003
0.14666283 0.055093557 0.45400003
0.14816946 0.055214904 0.45500001
0.14935306 0.055214904 0.45500001
0.15053664 0.055214904 0.45500001
0.15172024 0.055214904 0.45500001
0.15290383 0.055214904 0.45500001
0.15408742 0.055214904 0.45500001
0.15527102 0.055214904 0.45500001
0.15645461 0.055214904 0.45500001
0.15763819 0.055214904 0.45500001
0.15882179 0.055214904 0.45500001
0.16000538 0.055214904 0.45500001
0.16118897 0.055214904 0.45500001
0.16237257 0.055214904 0.45500001
0.16355616 0.055214904 0.45500001
0.16473974 0.055214904 0.45500001
0.16628803 0.055336259 0.45600003
0.16747421 0.055336259 0.45600003
0.1686604 0.055336259 0.45600003
0.16984659 0.055336259 0.45600003
0.17103279 0.055336259 0.45600003
0.17221899 0.055336259 0.45600003
0.17340519 0.055336259 0.45600003
0.17497425 0.055457607 0.45700002
0.17616303 0.055457607 0.45700002
0.17696376 0.055336259 0.45600003
0.17814997 0.055336259 0.45600003
0.17933616 0.055336259 0.45600003
0.18052234 0.055336259 0.45600003
0.18170853 0.055336259 0.45600003
0.18289472 0.055336259 0.45600003
0.18367724 0.055214904 0.45500001
0.18486083 0.055214904 0.45500001
0.18604441 0.055214904 0.45500001
0.18722801 0.055214904 0.45500001
0.18841159 0.055214904 0.45500001
0.18959519 0.055214904 0.45500001
0.19077879 0.055214904 0.45500001
0.19238429 0.055336259 0.45600003
0.19357046 0.055336259 0.45600003
0.19475667 0.055336259 0.45600003
0.19594286 0.055336259 0.45600003
0.19712906 0.055336259 0.45600003
0.19831525 0.055336259 0.45600003
0.19993894 0.055457607 0.45700002
0.20112774 0.055457607 0.45700002
0.20231654 0.055457607 0.45700002
0.20350532 0.055457607 0.45700002
0.20424622 0.055336259 0.45600003
0.20543242 0.055336259 0.45600003
0.20661861 0.055336259 0.45600003
0.2078048 0.055336259 0.45600003
0.20899099 0.055336259 0.45600003
0.21017718 0.055336259 0.45600003
0.21136338 0.055336259 0.45600003
0.21254958 0.055336259 0.45600003
0.21373577 0.055336259 0.45600003
0.21492197 0.055336259 0.45600003
0.21610816 0.055336259 0.45600003
0.21729437 0.055336259 0.45600003
0.21848054 0.055336259 0.45600003
-0.24695024 0.055035021 0.44400004
-0.24579528 0.055035021 0.44400004
-0.24464029 0.055035021 0.44400004
-0.24403371 0.055158973 0.44500002
-0.24287611 0.055158973 0.44500002
-0.24171853 0.055158973 0.44500002
-0.24056096 0.055158973 0.44500002
-0.23940338 0.055158973 0.44500002
-0.23824582 0.055158973 0.44500002
-0.23708822 0.055158973 0.44500002
-0.23593064 0.055158973 0.44500002
-0.23477307 0.055158973 0.44500002
-0.23361547 0.055158973 0.44500002
-0.23245792 0.055158973 0.44500002
-0.23130032 0.055158973 0.44500002
-0.23014274 0.055158973 0.44500002
-0.22898518 0.055158973 0.44500002
-0.22782758 0.055158973 0.44500002
-0.22667001 0.055158973 0.44500002
-0.22551243 0.055158973 0.44500002
-0.22435483 0.055158973 0.44500002
-0.22319728 0.055158973 0.44500002
-0.22203968 0.055158973 0.44500002
-0.2208821 0.055158973 0.44500002
-0.21972454 0.055158973 0.44500002
-0.21856695 0.055158973 0.44500002
-0.21740937 0.055158973 0.44500002
-0.21625179 0.055158973 0.44500002
-0.21509421 0.055158973 0.44500002
-0.21393664 0.055158973 0.44500002
-0.21277906 0.055158973 0.44500002
-0.21114592 0.055035021 0.44400004
-0.20999095 0.055035021 0.44400004
-0.20836562 0.054911066 0.44300002
-0.20721324 0.054911066 0.44300002
-0.20606086 0.054911066 0.44300002
-0.20490848 0.054911066 0.44300002
-0.20375611 0.054911066 0.44300002
-0.20260373 0.054911066 0.44300002
-0.20145136 0.054911066 0.44300002
-0.20075111 0.055035021 0.44400004
-0.19959614 0.055035021 0.44400004
-0.19844116 0.055035021 0.44400004
-0.19773053 0.055158973 0.44500002
-0.19657294 0.055158973 0.44500002
-0.19541536 0.055158973 0.44500002
-0.19425778 0.055158973 0.44500002
-0.1931002 0.055158973 0.44500002
-0.19194263 0.055158973 0.44500002
-0.19078505 0.055158973 0.44500002
-0.19005358 0.055282924 0.44600001
-0.18846989 0.055158973 0.44500002
-0.1873123 0.055158973 0.44500002
-0.18615472 0.055158973 0.44500002
-0.18499716 0.055158973 0.44500002
-0.18383956 0.055158973 0.44500002
-0.18268199 0.055158973 0.44500002
-0.18152441 0.055158973 0.44500002
-0.18036683 0.055158973 0.44500002
-0.17920925 0.055158973 0.44500002
-0.17805167 0.055158973 0.44500002
-0.17689408 0.055158973 0.44500002
-0.17573652 0.055158973 0.44500002
-0.17457893 0.055158973 0.44500002
-0.17342135 0.055158973 0.44500002
-0.17226377 0.055158973 0.44500002
-0.17110619 0.055158973 0.44500002
-0.16994862 0.055158973 0.44500002
-0.16879104 0.055158973 0.44500002
-0.16763344 0.055158973 0.44500002
-0.16647588 0.055158973 0.44500002
-0.1653183 0.055158973 0.44500002
-0.16416073 0.055158973 0.44500002
-0.16300315 0.055158973 0.44500002
-0.16184555 0.055158973 0.44500002
-0.16068798 0.055158973 0.44500002
-0.15988889 0.055282924 0.44600001
-0.15872872 0.055282924 0.44600001
-0.15756853 0.055282924 0.44600001
-0.15640834 0.055282924 0.44600001
-0.15524817 0.055282924 0.44600001
-0.15408799 0.055282924 0.44600001
-0.15292782 0.055282924 0.44600001
-0.15176763 0.055282924 0.44600001
-0.15060744 0.055282924 0.44600001
-0.14944726 0.055282924 0.44600001
-0.14828709 0.055282924 0.44600001
-0.14712691 0.055282924 0.44600001
-0.14596672 0.055282924 0.44600001
-0.14480653 0.055282924 0.44600001
-0.14364636 0.055282924 0.44600001
-0.14248618 0.055282924 0.44600001
-0.14132601 0.055282924 0.44600001
-0.14016582 0.055282924 0.44600001
-0.13900563 0.055282924 0.44600001
-0.13784546 0.055282924 0.44600001
-0.13668528 0.055282924 0.44600001
-0.13552509 0.055282924 0.44600001
-0.13436492 0.055282924 0.44600001
-0.13320473 0.055282924 0.44600001
-0.13204455 0.055282924 0.44600001
-0.13088438 0.055282924 0.44600001
-0.12972419 0.055282924 0.44600001
-0.12856402 0.055282924 0.44600001
-0.12740383 0.055282924 0.44600001
-0.12624365 0.055282924 0.44600001
-0.12508348 0.055282924 0.44600001
-0.12392329 0.055282924 0.44600001
-0.1227631 0.055282924 0.44600001
-0.12160293 0.055282924 0.44600001
-0.12044275 0.055282924 0.44600001
-0.11928257 0.055282924 0.44600001
-0.11812238 0.055282924 0.44600001
-0.1169622 0.055282924 0.44600001
-0.11580203 0.055282924 0.44600001
-0.1148989 0.055406876 0.44700003
-0.1137361 0.055406876 0.44700003
-0.11257333 0.055406876 0.44700003
-0.11141054 0.055406876 0.44700003
-0.11024777 0.055406876 0.44700003
-0.10908498 0.055406876 0.44700003
-0.1079222 0.055406876 0.44700003
-0.10675941 0.055406876 0.44700003
-0.1053604 0.055282924 0.44600001
-0.10420022 0.055282924 0.44600001
-0.10304003 0.055282924 0.44600001
-0.10187986 0.055282924 0.44600001
-0.10071968 0.055282924 0.44600001
-0.099559493 0.055282924 0.44600001
-0.098399319 0.055282924 0.44600001
-0.097239129 0.055282924 0.44600001
-0.096078955 0.055282924 0.44600001
-0.094918773 0.055282924 0.44600001
-0.093758591 0.055282924 0.44600001
-0.092598408 0.055282924 0.44600001
-0.091438226 0.055282924 0.44600001
-0.090278052 0.055282924 0.44600001
-0.089317687 0.055406876 0.44700003
-0.088154905 0.055406876 0.44700003
-0.086992122 0.055406876 0.44700003
-0.08582934 0.055406876 0.44700003
-0.084855966 0.055530827 0.44800001
-0.083690584 0.055530827 0.44800001
-0.082341 0.055406876 0.44700003
-0.081178211 0.055406876 0.44700003
-0.080015428 0.055406876 0.44700003
-0.078852646 0.055406876 0.44700003
-0.077689864 0.055406876 0.44700003
-0.055607196 0.0474739 0.38300002
-0.053194642 0.047102045 0.38000003
-0.051931378 0.046854138 0.37800002
-0.050678521 0.046606231 0.37600002
-0.049303886 0.046234373 0.37300003
-0.048074439 0.04598647 0.37100002
-0.04698237 0.045862515 0.37
-0.031968649 0.040284641 0.32500002
-0.028979573 0.039664879 0.32000002
-0.02714402 0.039416973 0.31800002
-0.026234047 0.039293017 0.317
-0.025409438 0.039293017 0.317
-0.024507271 0.039169066 0.31600001
-0.023610307 0.039045118 0.31500003
-0.022790896 0.039045118 0.31500003
-0.021901734 0.038921162 0.31400001
-0.021084923 0.038921162 0.31400001
-0.020268118 0.038921162 0.31400001
-0.019389363 0.038797211 0.31300002
-0.018575154 0.038797211 0.31300002
-0.017704202 0.038673256 0.31200001
-0.016838452 0.038549304 0.31100002
-0.015977906 0.038425349 0.31
-0.015122562 0.038301397 0.30900002
-0.014272421 0.038177446 0.30800003
-0.013427482 0.038053494 0.30700001
-0.012587746 0.037929542 0.30600002
-0.011791747 0.037929542 0.30600002
-0.010959815 0.037805587 0.30500001
0.051608823 0.055654783 0.44900003
0.05289435 0.055778734 0.45000002
0.054064937 0.055778734 0.45000002
0.055235524 0.055778734 0.45000002
0.056406107 0.055778734 0.45000002
0.057576697 0.055778734 0.45000002
0.05874728 0.055778734 0.45000002
0.059917871 0.055778734 0.45000002
0.061088454 0.055778734 0.45000002
0.062259037 0.055778734 0.45000002
0.063429624 0.055778734 0.45000002
0.064600207 0.055778734 0.45000002
0.065770797 0.055778734 0.45000002
0.066941381 0.055778734 0.45000002
0.068111971 0.055778734 0.45000002
0.069282554 0.055778734 0.45000002
0.070453137 0.055778734 0.45000002
0.071623728 0.055778734 0.45000002
0.072794311 0.055778734 0.45000002
0.073964901 0.055778734 0.45000002
0.075135484 0.055778734 0.45000002
0.076306075 0.055778734 0.45000002
0.077476658 0.055778734 0.45000002
0.078822017 0.05590269 0.45100003
0.079995207 0.05590269 0.45100003
0.081168391 0.05590269 0.45100003
0.082341582 0.05590269 0.45100003
0.083514765 0.05590269 0.45100003
0.084687948 0.05590269 0.45100003
0.085861139 0.05590269 0.45100003
0.087034322 0.05590269 0.45100003
0.088207513 0.05590269 0.45100003
0.089182511 0.055778734 0.45000002
0.090353101 0.055778734 0.45000002
0.091523685 0.055778734 0.45000002
0.092694268 0.055778734 0.45000002
0.093864858 0.055778734 0.45000002
0.095035441 0.055778734 0.45000002
0.096419826 0.05590269 0.45100003
0.097593009 0.05590269 0.45100003
0.0987662 0.05590269 0.45100003
0.099939391 0.05590269 0.45100003
0.10111257 0.05590269 0.45100003
0.10228577 0.05590269 0.45100003
0.10345895 0.05590269 0.45100003
0.10463214 0.05590269 0.45100003
0.10580532 0.05590269 0.45100003
0.10697851 0.05590269 0.45100003
0.1081517 0.05590269 0.45100003
0.10932489 0.05590269 0.45100003
0.11049808 0.05590269 0.45100003
0.11167126 0.05590269 0.45100003
0.11284444 0.05590269 0.45100003
0.11401763 0.05590269 0.45100003
0.11519083 0.05590269 0.45100003
0.11636401 0.05590269 0.45100003
0.11753719 0.05590269 0.45100003
0.11871038 0.05590269 0.45100003
0.11988357 0.05590269 0.45100003
0.12105677 0.05590269 0.45100003
0.12222995 0.05590269 0.45100003
0.12367675 0.056026641 0.45200002
0.12485254 0.056026641 0.45200002
0.12602833 0.056026641 0.45200002
0.12720412 0.056026641 0.45200002
0.12837991 0.056026641 0.45200002
0.12955569 0.056026641 0.45200002
0.13073148 0.056026641 0.45200002
0.13219911 0.056150593 0.45300001
0.13337749 0.056150593 0.45300001
0.13455588 0.056150593 0.45300001
0.13573426 0.056150593 0.45300001
0.13691264 0.056150593 0.45300001
0.13809106 0.056150593 0.45300001
0.13926944 0.056150593 0.45300001
0.14075787 0.056274548 0.45400003
0.14193885 0.056274548 0.45400003
0.14311986 0.056274548 0.45400003
0.14430085 0.056274548 0.45400003
0.14548184 0.056274548 0.45400003
0.14698586 0.056398496 0.45500001
0.14816946 0.056398496 0.45500001
0.14935306 0.056398496 0.45500001
0.15053664 0.056398496 0.45500001
0.15172024 0.056398496 0.45500001
0.15290383 0.056398496 0.45500001
0.15408742 0.056398496 0.45500001
0.15527102 0.056398496 0.45500001
0.15645461 0.056398496 0.45500001
0.15763819 0.056398496 0.45500001
0.15882179 0.056398496 0.45500001
0.16000538 0.056398496 0.45500001
0.16118897 0.056398496 0.45500001
0.16237257 0.056398496 0.45500001
0.16355616 0.056398496 0.45500001
0.16473974 0.056398496 0.45500001
0.16628803 0.056522451 0.45600003
0.16747421 0.056522451 0.45600003
0.1686604 0.056522451 0.45600003
0.16984659 0.056522451 0.45600003
0.17103279 0.056522451 0.45600003
0.17221899 0.056522451 0.45600003
0.17340519 0.056522451 0.45600003
0.17459138 0.056522451 0.45600003
0.17577757 0.056522451 0.45600003
0.17696376 0.056522451 0.45600003
0.17814997 0.056522451 0.45600003
0.17933616 0.056522451 0.45600003
0.18052234 0.056522451 0.45600003
0.18170853 0.056522451 0.45600003
0.18289472 0.056522451 0.45600003
0.18408093 0.056522451 0.45600003
0.18486083 0.056398496 0.45500001
0.18604441 0.056398496 0.45500001
0.18722801 0.056398496 0.45500001
0.18841159 0.056398496 0.45500001
0.18959519 0.056398496 0.45500001
0.19077879 0.056398496 0.45500001
0.19238429 0.056522451 0.45600003
0.19357046 0.056522451 0.45600003
0.19475667 0.056522451 0.45600003
0.19594286 0.056522451 0.45600003
0.19712906 0.056522451 0.45600003
0.19875014 0.056646403 0.45700002
0.19993894 0.056646403 0.45700002
0.20112774 0.056646403 0.45700002
0.20231654 0.056646403 0.45700002
0.20350532 0.056646403 0.45700002
0.20469412 0.056646403 0.45700002
0.20588291 0.056646403 0.45700002
0.20707172 0.056646403 0.45700002
0.2078048 0.056522451 0.45600003
0.20899099 0.056522451 0.45600003
0.21017718 0.056522451 0.45600003
0.21136338 0.056522451 0.45600003
0.21254958 0.056522451 0.45600003
0.21373577 0.056522451 0.45600003
0.21492197 0.056522451 0.45600003
0.21610816 0.056522451 0.45600003
0.21729437 0.056522451 0.45600003
0.21848054 0.056522451 0.45600003
-0.24695024 0.056189999 0.44400004
-0.24579528 0.056189999 0.44400004
-0.24519128 0.056316551 0.44500002
-0.24403371 0.056316551 0.44500002
-0.24287611 0.056316551 0.44500002
-0.24171853 0.056316551 0.44500002
-0.24056096 0.056316551 0.44500002
-0.23940338 0.056316551 0.44500002
-0.23824582 0.056316551 0.44500002
-0.23708822 0.056316551 0.44500002
-0.23593064 0.056316551 0.44500002
-0.23477307 0.056316551 0.44500002
-0.23361547 0.056316551 0.44500002
-0.23245792 0.056316551 0.44500002
-0.23130032 0.056316551 0.44500002
-0.23014274 0.056316551 0.44500002
-0.22898518 0.056316551 0.44500002
-0.22782758 0.056316551 0.44500002
-0.22667001 0.056316551 0.44500002
-0.22551243 0.056316551 0.44500002
-0.22435483 0.056316551 0.44500002
-0.22319728 0.056316551 0.44500002
-0.22203968 0.056316551 0.44500002
-0.2208821 0.056316551 0.44500002
-0.21972454 0.056316551 0.44500002
-0.21856695 0.056316551 0.44500002
-0.21740937 0.056316551 0.44500002
-0.21576583 0.056189999 0.44400004
-0.21461086 0.056189999 0.44400004
-0.21345589 0.056189999 0.44400004
-0.21230091 0.056189999 0.44400004
-0.21114592 0.056189999 0.44400004
-0.20999095 0.056189999 0.44400004
-0.20883597 0.056189999 0.44400004
-0.207681 0.056189999 0.44400004
-0.20606086 0.056063443 0.44300002
-0.20490848 0.056063443 0.44300002
-0.20375611 0.056063443 0.44300002
-0.20260373 0.056063443 0.44300002
-0.20145136 0.056063443 0.44300002
-0.20075111 0.056189999 0.44400004
-0.19959614 0.056189999 0.44400004
-0.19844116 0.056189999 0.44400004
-0.19773053 0.056316551 0.44500002
-0.19657294 0.056316551 0.44500002
-0.19541536 0.056316551 0.44500002
-0.19425778 0.056316551 0.44500002
-0.1931002 0.056316551 0.44500002
-0.19194263 0.056316551 0.44500002
-0.19078505 0.056316551 0.44500002
-0.19005358 0.056443103 0.44600001
-0.18889341 0.056443103 0.44600001
-0.18773323 0.056443103 0.44600001
-0.18615472 0.056316551 0.44500002
-0.18499716 0.056316551 0.44500002
-0.18383956 0.056316551 0.44500002
-0.18268199 0.056316551 0.44500002
-0.18152441 0.056316551 0.44500002
-0.18036683 0.056316551 0.44500002
-0.17920925 0.056316551 0.44500002
-0.17805167 0.056316551 0.44500002
-0.17689408 0.056316551 0.44500002
-0.17573652 0.056316551 0.44500002
-0.17457893 0.056316551 0.44500002
-0.17342135 0.056316551 0.44500002
-0.17226377 0.056316551 0.44500002
-0.1714907 0.056443103 0.44600001
-0.17033052 0.056443103 0.44600001
-0.16879104 0.056316551 0.44500002
-0.16763344 0.056316551 0.44500002
-0.16647588 0.056316551 0.44500002
-0.1653183 0.056316551 0.44500002
-0.16416073 0.056316551 0.44500002
-0.16300315 0.056316551 0.44500002
-0.16184555 0.056316551 0.44500002
-0.16068798 0.056316551 0.44500002
-0.1595304 0.056316551 0.44500002
-0.15872872 0.056443103 0.44600001
-0.15756853 0.056443103 0.44600001
-0.15640834 0.056443103 0.44600001
-0.15559626 0.056569662 0.44700003
-0.15408799 0.056443103 0.44600001
-0.15292782 0.056443103 0.44600001
-0.15210791 0.056569662 0.44700003
-0.15060744 0.056443103 0.44600001
-0.14944726 0.056443103 0.44600001
-0.14828709 0.056443103 0.44600001
-0.14712691 0.056443103 0.44600001
-0.146294 0.056569662 0.44700003
-0.14480653 0.056443103 0.44600001
-0.14364636 0.056443103 0.44600001
-0.14248618 0.056443103 0.44600001
-0.14132601 0.056443103 0.44600001
-0.14016582 0.056443103 0.44600001
-0.13900563 0.056443103 0.44600001
-0.13784546 0.056443103 0.44600001
-0.13668528 0.056443103 0.44600001
-0.13552509 0.056443103 0.44600001
-0.13436492 0.056443103 0.44600001
-0.13320473 0.056443103 0.44600001
-0.13204455 0.056443103 0.44600001
-0.13088438 0.056443103 0.44600001
-0.12972419 0.056443103 0.44600001
-0.12856402 0.056443103 0.44600001
-0.12740383 0.056443103 0.44600001
-0.12624365 0.056443103 0.44600001
-0.12508348 0.056443103 0.44600001
-0.12392329 0.056443103 0.44600001
-0.1227631 0.056443103 0.44600001
-0.12160293 0.056443103 0.44600001
-0.12044275 0.056443103 0.44600001
-0.11928257 0.056443103 0.44600001
-0.11812238 0.056443103 0.44600001
-0.1169622 0.056443103 0.44600001
-0.11580203 0.056443103 0.44600001
-0.11464185 0.056443103 0.44600001
-0.1137361 0.056569662 0.44700003
-0.11257333 0.056569662 0.44700003
-0.11141054 0.056569662 0.44700003
-0.11024777 0.056569662 0.44700003
-0.10908498 0.056569662 0.44700003
-0.1079222 0.056569662 0.44700003
-0.10675941 0.056569662 0.44700003
-0.10559663 0.056569662 0.44700003
-0.10420022 0.056443103 0.44600001
-0.10304003 0.056443103 0.44600001
-0.10187986 0.056443103 0.44600001
-0.10071968 0.056443103 0.44600001
-0.099559493 0.056443103 0.44600001
-0.098399319 0.056443103 0.44600001
-0.097239129 0.056443103 0.44600001
-0.096078955 0.056443103 0.44600001
-0.094918773 0.056443103 0.44600001
-0.093758591 0.056443103 0.44600001
-0.092598408 0.056443103 0.44600001
-0.091438226 0.056443103 0.44600001
-0.090278052 0.056443103 0.44600001
-0.089317687 0.056569662 0.44700003
-0.088154905 0.056569662 0.44700003
-0.086992122 0.056569662 0.44700003
-0.08582934 0.056569662 0.44700003
-0.084666558 0.056569662 0.44700003
-0.083690584 0.056696214 0.44800001
-0.082525201 0.056696214 0.44800001
-0.081359819 0.056696214 0.44800001
-0.080194436 0.056696214 0.44800001
-0.079029046 0.056696214 0.44800001
-0.077863663 0.056696214 0.44800001
-0.05546201 0.048343647 0.38200003
-0.054325726 0.048217092 0.38100001
-0.053054653 0.047963984 0.37900001
-0.051931378 0.047837429 0.37800002
-0.050678521 0.047584321 0.37600002
-0.049568251 0.04745777 0.37500003
-0.0483336 0.047204662 0.37300003
-0.047236331 0.047078107 0.37200001
-0.029718826 0.04037074 0.31900001
-0.02879845 0.040244188 0.31800002
-0.027971236 0.040244188 0.31800002
-0.027058661 0.040117633 0.317
-0.026151292 0.039991081 0.31600001
-0.025329283 0.039991081 0.31600001
-0.024429716 0.039864525 0.31500003
-0.023610307 0.039864525 0.31500003
-0.022718543 0.03973797 0.31400001
-0.021901734 0.03973797 0.31400001
-0.021017775 0.039611418 0.31300002
-0.02020357 0.039611418 0.31300002
-0.019327413 0.039484862 0.31200001
-0.018515809 0.039484862 0.31200001
-0.017647458 0.03935831 0.31100002
-0.016784308 0.039231755 0.31
-0.015926365 0.039105199 0.30900002
-0.015073622 0.038978647 0.30800003
-0.014226081 0.038852092 0.30700001
-0.013383744 0.03872554 0.30600002
-0.012587746 0.03872554 0.30600002
-0.011753212 0.038598984 0.30500001
-0.010923882 0.038472433 0.30400002
0.049382593 0.056949321 0.45000002
0.05055318 0.056949321 0.45000002
0.051608823 0.056822769 0.44900003
0.05289435 0.056949321 0.45000002
0.053944796 0.056822769 0.44900003
0.055235524 0.056949321 0.45000002
0.056406107 0.056949321 0.45000002
0.057576697 0.056949321 0.45000002
0.05874728 0.056949321 0.45000002
0.059917871 0.056949321 0.45000002
0.061088454 0.056949321 0.45000002
0.062259037 0.056949321 0.45000002
0.063429624 0.056949321 0.45000002
0.064600207 0.056949321 0.45000002
0.065770797 0.056949321 0.45000002
0.066941381 0.056949321 0.45000002
0.068111971 0.056949321 0.45000002
0.069282554 0.056949321 0.45000002
0.070453137 0.056949321 0.45000002
0.071623728 0.056949321 0.45000002
0.072794311 0.056949321 0.45000002
0.073964901 0.056949321 0.45000002
0.075135484 0.056949321 0.45000002
0.076306075 0.056949321 0.45000002
0.077648833 0.057075877 0.45100003
0.078822017 0.057075877 0.45100003
0.079995207 0.057075877 0.45100003
0.081168391 0.057075877 0.45100003
0.082341582 0.057075877 0.45100003
0.083514765 0.057075877 0.45100003
0.084687948 0.057075877 0.45100003
0.085861139 0.057075877 0.45100003
0.087034322 0.057075877 0.45100003
0.088207513 0.057075877 0.45100003
0.089380704 0.057075877 0.45100003
0.090553895 0.057075877 0.45100003
0.091727078 0.057075877 0.45100003
0.092900261 0.057075877 0.45100003
0.094073452 0.057075877 0.45100003
0.095246635 0.057075877 0.45100003
0.096419826 0.057075877 0.45100003
0.097593009 0.057075877 0.45100003
0.0987662 0.057075877 0.45100003
0.099939391 0.057075877 0.45100003
0.10111257 0.057075877 0.45100003
0.10228577 0.057075877 0.45100003
0.10345895 0.057075877 0.45100003
0.10463214 0.057075877 0.45100003
0.10580532 0.057075877 0.45100003
0.10697851 0.057075877 0.45100003
0.1081517 0.057075877 0.45100003
0.10932489 0.057075877 0.45100003
0.11074308 0.057202429 0.45200002
0.11191887 0.057202429 0.45200002
0.11309465 0.057202429 0.45200002
0.11427043 0.057202429 0.45200002
0.11544623 0.057202429 0.45200002
0.11636401 0.057075877 0.45100003
0.11753719 0.057075877 0.45100003
0.11871038 0.057075877 0.45100003
0.12014939 0.057202429 0.45200002
0.12105677 0.057075877 0.45100003
0.12250096 0.057202429 0.45200002
0.12367675 0.057202429 0.45200002
0.12485254 0.057202429 0.45200002
0.12602833 0.057202429 0.45200002
0.12720412 0.057202429 0.45200002
0.12837991 0.057202429 0.45200002
0.12955569 0.057202429 0.45200002
0.13102069 0.05732898 0.45300001
0.13219911 0.05732898 0.45300001
0.13337749 0.05732898 0.45300001
0.13455588 0.05732898 0.45300001
0.13573426 0.05732898 0.45300001
0.13691264 0.05732898 0.45300001
0.13809106 0.05732898 0.45300001
