# .PCD v0.7 - Point Cloud Data file format
VERSION 0.7
FIELDS x y z
SIZE 4 4 4
TYPE F F F
COUNT 1 1 1
WIDTH 1380
HEIGHT 1
VIEWPOINT 0 0 0 1 0 0 0
POINTS 1380
DATA ascii
-0.21824324 0.02489295 0.44200003
-0.21709348 0.02489295 0.44200003
-0.21594369 0.02489295 0.44200003
-0.21479392 0.02489295 0.44200003
-0.21364415 0.02489295 0.44200003
-0.21249437 0.02489295 0.44200003
-0.2113446 0.02489295 0.44200003
-0.21019481 0.02489295 0.44200003
-0.20904504 0.02489295 0.44200003
-0.20789526 0.02489295 0.44200003
-0.20721324 0.024949268 0.44300002
-0.20606086 0.024949268 0.44300002
-0.20490848 0.024949268 0.44300002
-0.20375611 0.024949268 0.44300002
-0.20260373 0.024949268 0.44300002
-0.20145136 0.024949268 0.44300002
-0.20075111 0.025005588 0.44400004
-0.19959614 0.025005588 0.44400004
-0.19844116 0.025005588 0.44400004
-0.19728619 0.025005588 0.44400004
-0.19613121 0.025005588 0.44400004
-0.19541536 0.025061905 0.44500002
-0.19425778 0.025061905 0.44500002
-0.1931002 0.025061905 0.44500002
-0.19194263 0.025061905 0.44500002
-0.19078505 0.025061905 0.44500002
-0.18962745 0.025061905 0.44500002
-0.18846989 0.025061905 0.44500002
-0.1873123 0.025061905 0.44500002
-0.18573642 0.025005588 0.44400004
-0.18458143 0.025005588 0.44400004
-0.18342644 0.025005588 0.44400004
-0.18227147 0.025005588 0.44400004
-0.18111649 0.025005588 0.44400004
-0.17996152 0.025005588 0.44400004
-0.17880653 0.025005588 0.44400004
-0.17765155 0.025005588 0.44400004
-0.17649658 0.025005588 0.44400004
-0.17534161 0.025005588 0.44400004
-0.17418663 0.025005588 0.44400004
-0.17303164 0.025005588 0.44400004
-0.17187667 0.025005588 0.44400004
-0.17072169 0.025005588 0.44400004
-0.16956672 0.025005588 0.44400004
-0.16841175 0.025005588 0.44400004
-0.16725676 0.025005588 0.44400004
-0.16610177 0.025005588 0.44400004
-0.16494679 0.025005588 0.44400004
-0.16379182 0.025005588 0.44400004
-0.16263685 0.025005588 0.44400004
-0.16148186 0.025005588 0.44400004
-0.16068798 0.025061905 0.44500002
-0.1595304 0.025061905 0.44500002
-0.15837282 0.025061905 0.44500002
-0.15721524 0.025061905 0.44500002
-0.15640834 0.025118224 0.44600001
-0.15524817 0.025118224 0.44600001
-0.15408799 0.025118224 0.44600001
-0.15292782 0.025118224 0.44600001
-0.15176763 0.025118224 0.44600001
-0.15060744 0.025118224 0.44600001
-0.14944726 0.025118224 0.44600001
-0.14828709 0.025118224 0.44600001
-0.14712691 0.025118224 0.44600001
-0.14596672 0.025118224 0.44600001
-0.14480653 0.025118224 0.44600001
-0.14364636 0.025118224 0.44600001
-0.14248618 0.025118224 0.44600001
-0.14132601 0.025118224 0.44600001
-0.14016582 0.025118224 0.44600001
-0.13900563 0.025118224 0.44600001
-0.13784546 0.025118224 0.44600001
-0.13668528 0.025118224 0.44600001
-0.13552509 0.025118224 0.44600001
-0.13436492 0.025118224 0.44600001
-0.13290608 0.025061905 0.44500002
-0.1317485 0.025061905 0.44500002
-0.13059092 0.025061905 0.44500002
-0.12943333 0.025061905 0.44500002
-0.12827575 0.025061905 0.44500002
-0.12711817 0.025061905 0.44500002
-0.1259606 0.025061905 0.44500002
-0.12480302 0.025061905 0.44500002
-0.12364543 0.025061905 0.44500002
-0.12248786 0.025061905 0.44500002
-0.12133028 0.025061905 0.44500002
-0.12044275 0.025118224 0.44600001
-0.11928257 0.025118224 0.44600001
-0.11812238 0.025118224 0.44600001
-0.1169622 0.025118224 0.44600001
-0.11580203 0.025118224 0.44600001
-0.11464185 0.025118224 0.44600001
-0.11348166 0.025118224 0.44600001
-0.11232148 0.025118224 0.44600001
-0.1111613 0.025118224 0.44600001
-0.11000112 0.025118224 0.44600001
-0.10884093 0.025118224 0.44600001
-0.10768076 0.025118224 0.44600001
-0.10652058 0.025118224 0.44600001
-0.1053604 0.025118224 0.44600001
-0.10420022 0.025118224 0.44600001
-0.10304003 0.025118224 0.44600001
-0.10210829 0.025174543 0.44700003
-0.1009455 0.025174543 0.44700003
-0.099782728 0.025174543 0.44700003
-0.098619945 0.025174543 0.44700003
-0.097457163 0.025174543 0.44700003
-0.096294381 0.025174543 0.44700003
-0.095131598 0.025174543 0.44700003
-0.093968816 0.025174543 0.44700003
-0.092806026 0.025174543 0.44700003
-0.091643251 0.025174543 0.44700003
-0.090480469 0.025174543 0.44700003
-0.08911787 0.025118224 0.44600001
-0.087957688 0.025118224 0.44600001
-0.086797506 0.025118224 0.44600001
-0.085637324 0.025118224 0.44600001
-0.084477141 0.025118224 0.44600001
-0.083316967 0.025118224 0.44600001
-0.082156785 0.025118224 0.44600001
-0.080996603 0.025118224 0.44600001
-0.079836421 0.025118224 0.44600001
-0.078676239 0.025118224 0.44600001
-0.077516064 0.025118224 0.44600001
-0.076355882 0.025118224 0.44600001
-0.0751957 0.025118224 0.44600001
-0.074035518 0.025118224 0.44600001
-0.072875336 0.025118224 0.44600001
-0.071715161 0.025118224 0.44600001
-0.070554972 0.025118224 0.44600001
-0.069239207 0.025061905 0.44500002
-0.068081625 0.025061905 0.44500002
-0.042549577 0.020556394 0.36500001
-0.037902325 0.020105844 0.35700002
-0.036870088 0.020049524 0.35600001
-0.035742093 0.019936886 0.354
-0.034722872 0.019880569 0.35300002
-0.033708848 0.01982425 0.35200003
-0.032700025 0.019767931 0.35100001
-0.031696409 0.019711612 0.35000002
-0.030610032 0.019598974 0.34800002
-0.029619418 0.019542653 0.347
-0.02863401 0.019486336 0.34600002
-0.027573649 0.019373698 0.34400001
-0.026601247 0.019317379 0.34300002
-0.025634045 0.01926106 0.34200001
-0.024672048 0.019204741 0.34100002
-0.019880755 0.018866828 0.33500001
-0.018952575 0.018810509 0.33400002
-0.018029597 0.01875419 0.333
-0.0054769339 0.017402537 0.30900002
-0.004658008 0.017346218 0.30800003
-0.003856807 0.017346218 0.30800003
-0.0030456851 0.017289899 0.30700001
-0.0022397661 0.01723358 0.30600002
0.086841345 0.0253435 0.45000002
0.088011928 0.0253435 0.45000002
0.089182511 0.0253435 0.45000002
0.090353101 0.0253435 0.45000002
0.091523685 0.0253435 0.45000002
0.092900261 0.025399819 0.45100003
0.094073452 0.025399819 0.45100003
0.095246635 0.025399819 0.45100003
0.096633613 0.025456138 0.45200002
0.097809404 0.025456138 0.45200002
0.098985188 0.025456138 0.45200002
0.10016098 0.025456138 0.45200002
0.10133677 0.025456138 0.45200002
0.10251256 0.025456138 0.45200002
0.10368834 0.025456138 0.45200002
0.10486414 0.025456138 0.45200002
0.10603992 0.025456138 0.45200002
0.10697851 0.025399819 0.45100003
0.1081517 0.025399819 0.45100003
0.10932489 0.025399819 0.45100003
0.11049808 0.025399819 0.45100003
0.11167126 0.025399819 0.45100003
0.11284444 0.025399819 0.45100003
0.11401763 0.025399819 0.45100003
0.11519083 0.025399819 0.45100003
0.11636401 0.025399819 0.45100003
0.11753719 0.025399819 0.45100003
0.11871038 0.025399819 0.45100003
0.11988357 0.025399819 0.45100003
0.12132518 0.025456138 0.45200002
0.12250096 0.025456138 0.45200002
0.12367675 0.025456138 0.45200002
0.12512875 0.025512457 0.45300001
0.12630716 0.025512457 0.45300001
0.12748554 0.025512457 0.45300001
0.12866393 0.025512457 0.45300001
0.13012895 0.025568776 0.45400003
0.13130994 0.025568776 0.45400003
0.13249093 0.025568776 0.45400003
0.13337749 0.025512457 0.45300001
0.13455588 0.025512457 0.45300001
0.13573426 0.025512457 0.45300001
0.13691264 0.025512457 0.45300001
0.13809106 0.025512457 0.45300001
0.13926944 0.025512457 0.45300001
0.14044783 0.025512457 0.45300001
0.14162621 0.025512457 0.45300001
0.14280461 0.025512457 0.45300001
0.14398299 0.025512457 0.45300001
0.14516139 0.025512457 0.45300001
0.14633977 0.025512457 0.45300001
0.14751816 0.025512457 0.45300001
0.14902481 0.025568776 0.45400003
0.15020581 0.025568776 0.45400003
0.1513868 0.025568776 0.45400003
0.15256777 0.025568776 0.45400003
0.15374877 0.025568776 0.45400003
0.15492977 0.025568776 0.45400003
0.15611076 0.025568776 0.45400003
0.15729174 0.025568776 0.45400003
0.15847273 0.025568776 0.45400003
0.15965372 0.025568776 0.45400003
0.16083473 0.025568776 0.45400003
0.16201571 0.025568776 0.45400003
0.1631967 0.025568776 0.45400003
0.16401562 0.025512457 0.45300001
0.16519402 0.025512457 0.45300001
0.1663724 0.025512457 0.45300001
0.16755079 0.025512457 0.45300001
0.16872919 0.025512457 0.45300001
0.16990757 0.025512457 0.45300001
0.17108597 0.025512457 0.45300001
0.17226435 0.025512457 0.45300001
0.17344274 0.025512457 0.45300001
0.17462113 0.025512457 0.45300001
0.17579952 0.025512457 0.45300001
0.17697792 0.025512457 0.45300001
0.17854959 0.025568776 0.45400003
0.17973058 0.025568776 0.45400003
0.18091157 0.025568776 0.45400003
0.18209256 0.025568776 0.45400003
0.18327355 0.025568776 0.45400003
0.18445455 0.025568776 0.45400003
0.18604441 0.025625095 0.45500001
0.18722801 0.025625095 0.45500001
0.18841159 0.025625095 0.45500001
0.18959519 0.025625095 0.45500001
0.19077879 0.025625095 0.45500001
0.19196238 0.025625095 0.45500001
0.19314598 0.025625095 0.45500001
0.19432957 0.025625095 0.45500001
0.19551316 0.025625095 0.45500001
0.19669674 0.025625095 0.45500001
0.19788034 0.025625095 0.45500001
0.19906393 0.025625095 0.45500001
0.20024753 0.025625095 0.45500001
0.20143113 0.025625095 0.45500001
0.2021694 0.025568776 0.45400003
0.20335039 0.025568776 0.45400003
0.20498189 0.025625095 0.45500001
0.20616549 0.025625095 0.45500001
0.20734908 0.025625095 0.45500001
0.20899099 0.025681414 0.45600003
0.21017718 0.025681414 0.45600003
0.21136338 0.025681414 0.45600003
0.21254958 0.025681414 0.45600003
0.21373577 0.025681414 0.45600003
0.21492197 0.025681414 0.45600003
0.21610816 0.025681414 0.45600003
0.21729437 0.025681414 0.45600003
0.21800141 0.025625095 0.45500001
-0.24639404 0.026101645 0.44300002
-0.24524167 0.026101645 0.44300002
-0.24408929 0.026101645 0.44300002
-0.24293692 0.026101645 0.44300002
-0.24178454 0.026101645 0.44300002
-0.24117535 0.026160566 0.44400004
-0.24002038 0.026160566 0.44400004
-0.23940338 0.026219485 0.44500002
-0.23824582 0.026219485 0.44500002
-0.23708822 0.026219485 0.44500002
-0.23593064 0.026219485 0.44500002
-0.23477307 0.026219485 0.44500002
-0.23361547 0.026219485 0.44500002
-0.23245792 0.026219485 0.44500002
-0.23130032 0.026219485 0.44500002
-0.22962557 0.026160566 0.44400004
-0.22847061 0.026160566 0.44400004
-0.22731562 0.026160566 0.44400004
-0.22565128 0.026101645 0.44300002
-0.22449888 0.026101645 0.44300002
-0.2233465 0.026101645 0.44300002
-0.22219414 0.026101645 0.44300002
-0.22104175 0.026101645 0.44300002
-0.21988937 0.026101645 0.44300002
-0.21873701 0.026101645 0.44300002
-0.21758462 0.026101645 0.44300002
-0.21643224 0.026101645 0.44300002
-0.21527986 0.026101645 0.44300002
-0.2141275 0.026101645 0.44300002
-0.21297511 0.026101645 0.44300002
-0.21182275 0.026101645 0.44300002
-0.21019481 0.026042726 0.44200003
-0.20951799 0.026101645 0.44300002
-0.20836562 0.026101645 0.44300002
-0.20721324 0.026101645 0.44300002
-0.20606086 0.026101645 0.44300002
-0.20490848 0.026101645 0.44300002
-0.20375611 0.026101645 0.44300002
-0.20260373 0.026101645 0.44300002
-0.2019061 0.026160566 0.44400004
-0.20075111 0.026160566 0.44400004
-0.19959614 0.026160566 0.44400004
-0.19844116 0.026160566 0.44400004
-0.19728619 0.026160566 0.44400004
-0.19657294 0.026219485 0.44500002
-0.19541536 0.026219485 0.44500002
-0.19425778 0.026219485 0.44500002
-0.1931002 0.026219485 0.44500002
-0.19194263 0.026219485 0.44500002
-0.19078505 0.026219485 0.44500002
-0.18962745 0.026219485 0.44500002
-0.18846989 0.026219485 0.44500002
-0.1873123 0.026219485 0.44500002
-0.18573642 0.026160566 0.44400004
-0.18458143 0.026160566 0.44400004
-0.18342644 0.026160566 0.44400004
-0.18227147 0.026160566 0.44400004
-0.18111649 0.026160566 0.44400004
-0.17996152 0.026160566 0.44400004
-0.17880653 0.026160566 0.44400004
-0.17765155 0.026160566 0.44400004
-0.17649658 0.026160566 0.44400004
-0.17534161 0.026160566 0.44400004
-0.17418663 0.026160566 0.44400004
-0.17303164 0.026160566 0.44400004
-0.17187667 0.026160566 0.44400004
-0.17072169 0.026160566 0.44400004
-0.16956672 0.026160566 0.44400004
-0.16841175 0.026160566 0.44400004
-0.16725676 0.026160566 0.44400004
-0.16647588 0.026219485 0.44500002
-0.16494679 0.026160566 0.44400004
-0.16416073 0.026219485 0.44500002
-0.16300315 0.026219485 0.44500002
-0.16184555 0.026219485 0.44500002
-0.16068798 0.026219485 0.44500002
-0.1595304 0.026219485 0.44500002
-0.15837282 0.026219485 0.44500002
-0.15721524 0.026219485 0.44500002
-0.15640834 0.026278405 0.44600001
-0.15524817 0.026278405 0.44600001
-0.15408799 0.026278405 0.44600001
-0.15292782 0.026278405 0.44600001
-0.15176763 0.026278405 0.44600001
-0.15060744 0.026278405 0.44600001
-0.14944726 0.026278405 0.44600001
-0.14828709 0.026278405 0.44600001
-0.14712691 0.026278405 0.44600001
-0.14596672 0.026278405 0.44600001
-0.14480653 0.026278405 0.44600001
-0.14364636 0.026278405 0.44600001
-0.14248618 0.026278405 0.44600001
-0.14132601 0.026278405 0.44600001
-0.14016582 0.026278405 0.44600001
-0.13900563 0.026278405 0.44600001
-0.13784546 0.026278405 0.44600001
-0.13668528 0.026278405 0.44600001
-0.13552509 0.026278405 0.44600001
-0.13436492 0.026278405 0.44600001
-0.13320473 0.026278405 0.44600001
-0.1317485 0.026219485 0.44500002
-0.13059092 0.026219485 0.44500002
-0.12943333 0.026219485 0.44500002
-0.12827575 0.026219485 0.44500002
-0.12711817 0.026219485 0.44500002
-0.1259606 0.026219485 0.44500002
-0.12480302 0.026219485 0.44500002
-0.12364543 0.026219485 0.44500002
-0.12248786 0.026219485 0.44500002
-0.12160293 0.026278405 0.44600001
-0.12044275 0.026278405 0.44600001
-0.11928257 0.026278405 0.44600001
-0.11812238 0.026278405 0.44600001
-0.1169622 0.026278405 0.44600001
-0.11580203 0.026278405 0.44600001
-0.11464185 0.026278405 0.44600001
-0.11348166 0.026278405 0.44600001
-0.11232148 0.026278405 0.44600001
-0.1111613 0.026278405 0.44600001
-0.11000112 0.026278405 0.44600001
-0.10884093 0.026278405 0.44600001
-0.10768076 0.026278405 0.44600001
-0.10652058 0.026278405 0.44600001
-0.1053604 0.026278405 0.44600001
-0.10420022 0.026278405 0.44600001
-0.10327107 0.026337326 0.44700003
-0.10210829 0.026337326 0.44700003
-0.1009455 0.026337326 0.44700003
-0.099782728 0.026337326 0.44700003
-0.098619945 0.026337326 0.44700003
-0.097457163 0.026337326 0.44700003
-0.096294381 0.026337326 0.44700003
-0.095131598 0.026337326 0.44700003
-0.093968816 0.026337326 0.44700003
-0.092806026 0.026337326 0.44700003
-0.091643251 0.026337326 0.44700003
-0.090278052 0.026278405 0.44600001
-0.08911787 0.026278405 0.44600001
-0.087957688 0.026278405 0.44600001
-0.086797506 0.026278405 0.44600001
-0.085637324 0.026278405 0.44600001
-0.084477141 0.026278405 0.44600001
-0.083316967 0.026278405 0.44600001
-0.082156785 0.026278405 0.44600001
-0.080996603 0.026278405 0.44600001
-0.079836421 0.026278405 0.44600001
-0.078676239 0.026278405 0.44600001
-0.077516064 0.026278405 0.44600001
-0.076355882 0.026278405 0.44600001
-0.0751957 0.026278405 0.44600001
-0.074035518 0.026278405 0.44600001
-0.072875336 0.026278405 0.44600001
-0.071715161 0.026278405 0.44600001
-0.070554972 0.026278405 0.44600001
-0.069394797 0.026278405 0.44600001
-0.04469208 0.02162371 0.36700001
-0.043737404 0.02162371 0.36700001
-0.042549577 0.02150587 0.36500001
-0.037902325 0.021034509 0.35700002
-0.036766525 0.020916669 0.35500002
-0.035641126 0.020798828 0.35300002
-0.034624506 0.020739909 0.35200003
-0.033613082 0.020680986 0.35100001
-0.032606862 0.020622067 0.35000002
-0.031515285 0.020504227 0.34800002
-0.030522071 0.020445306 0.347
-0.029534061 0.020386387 0.34600002
-0.028468495 0.020268546 0.34400001
-0.027493494 0.020209627 0.34300002
-0.026523691 0.020150706 0.34200001
-0.025559094 0.020091785 0.34100002
-0.024599696 0.020032864 0.34
-0.023575753 0.019915026 0.33800003
-0.022629362 0.019856105 0.33700001
-0.019821411 0.019679345 0.33400002
-0.018895829 0.019620424 0.333
-0.017867168 0.019443663 0.33000001
-0.0054592094 0.01814742 0.30800003
-0.0046428847 0.018088499 0.30700001
-0.0038442847 0.018088499 0.30700001
-0.0030357644 0.01802958 0.30600002
0.085670762 0.026514087 0.45000002
0.08664836 0.026455168 0.44900003
0.088011928 0.026514087 0.45000002
0.089182511 0.026514087 0.45000002
0.090353101 0.026514087 0.45000002
0.091727078 0.026573008 0.45100003
0.092900261 0.026573008 0.45100003
0.094073452 0.026573008 0.45100003
0.095457822 0.026631927 0.45200002
0.096633613 0.026631927 0.45200002
0.097809404 0.026631927 0.45200002
0.098985188 0.026631927 0.45200002
0.10016098 0.026631927 0.45200002
0.10133677 0.026631927 0.45200002
0.10251256 0.026631927 0.45200002
0.10368834 0.026631927 0.45200002
0.10486414 0.026631927 0.45200002
0.10603992 0.026631927 0.45200002
0.10697851 0.026573008 0.45100003
0.1081517 0.026573008 0.45100003
0.10932489 0.026573008 0.45100003
0.11074308 0.026631927 0.45200002
0.11191887 0.026631927 0.45200002
0.11309465 0.026631927 0.45200002
0.11401763 0.026573008 0.45100003
0.11519083 0.026573008 0.45100003
0.11636401 0.026573008 0.45100003
0.11753719 0.026573008 0.45100003
0.11871038 0.026573008 0.45100003
0.12014939 0.026631927 0.45200002
0.12132518 0.026631927 0.45200002
0.12250096 0.026631927 0.45200002
0.12367675 0.026631927 0.45200002
0.12512875 0.026690846 0.45300001
0.12630716 0.026690846 0.45300001
0.12748554 0.026690846 0.45300001
0.12866393 0.026690846 0.45300001
0.13012895 0.026749767 0.45400003
0.13130994 0.026749767 0.45400003
0.13219911 0.026690846 0.45300001
0.13337749 0.026690846 0.45300001
0.13485292 0.026749767 0.45400003
0.13603391 0.026749767 0.45400003
0.13691264 0.026690846 0.45300001
0.13809106 0.026690846 0.45300001
0.13926944 0.026690846 0.45300001
0.14044783 0.026690846 0.45300001
0.14162621 0.026690846 0.45300001
0.14280461 0.026690846 0.45300001
0.14398299 0.026690846 0.45300001
0.14516139 0.026690846 0.45300001
0.14666283 0.026749767 0.45400003
0.14784381 0.026749767 0.45400003
0.14902481 0.026749767 0.45400003
0.15020581 0.026749767 0.45400003
0.1513868 0.026749767 0.45400003
0.15256777 0.026749767 0.45400003
0.15408742 0.026808687 0.45500001
0.15492977 0.026749767 0.45400003
0.15645461 0.026808687 0.45500001
0.15763819 0.026808687 0.45500001
0.15847273 0.026749767 0.45400003
0.15965372 0.026749767 0.45400003
0.16083473 0.026749767 0.45400003
0.16201571 0.026749767 0.45400003
0.1631967 0.026749767 0.45400003
0.16401562 0.026690846 0.45300001
0.16519402 0.026690846 0.45300001
0.1663724 0.026690846 0.45300001
0.16755079 0.026690846 0.45300001
0.16872919 0.026690846 0.45300001
0.16953249 0.026631927 0.45200002
0.1707083 0.026631927 0.45200002
0.17188409 0.026631927 0.45200002
0.17344274 0.026690846 0.45300001
0.17462113 0.026690846 0.45300001
0.17579952 0.026690846 0.45300001
0.17697792 0.026690846 0.45300001
0.17854959 0.026749767 0.45400003
0.17973058 0.026749767 0.45400003
0.18091157 0.026749767 0.45400003
0.18209256 0.026749767 0.45400003
0.18327355 0.026749767 0.45400003
0.18486083 0.026808687 0.45500001
0.18604441 0.026808687 0.45500001
0.18722801 0.026808687 0.45500001
0.18841159 0.026808687 0.45500001
0.18959519 0.026808687 0.45500001
0.19077879 0.026808687 0.45500001
0.19196238 0.026808687 0.45500001
0.19314598 0.026808687 0.45500001
0.19432957 0.026808687 0.45500001
0.19551316 0.026808687 0.45500001
0.19669674 0.026808687 0.45500001
0.19788034 0.026808687 0.45500001
0.19906393 0.026808687 0.45500001
0.20024753 0.026808687 0.45500001
0.20098843 0.026749767 0.45400003
0.2021694 0.026749767 0.45400003
0.20335039 0.026749767 0.45400003
0.20498189 0.026808687 0.45500001
0.20616549 0.026808687 0.45500001
0.20734908 0.026808687 0.45500001
0.20899099 0.026867608 0.45600003
0.21017718 0.026867608 0.45600003
0.21136338 0.026867608 0.45600003
0.21254958 0.026867608 0.45600003
0.21373577 0.026867608 0.45600003
0.21492197 0.026867608 0.45600003
0.21610816 0.026867608 0.45600003
0.21729437 0.026867608 0.45600003
0.21848054 0.026867608 0.45600003
-0.24639404 0.027254021 0.44300002
-0.24524167 0.027254021 0.44300002
-0.24408929 0.027254021 0.44300002
-0.24293692 0.027254021 0.44300002
-0.24178454 0.027254021 0.44300002
-0.24117535 0.027315544 0.44400004
-0.24002038 0.027315544 0.44400004
-0.23886539 0.027315544 0.44400004
-0.23824582 0.027377063 0.44500002
-0.23708822 0.027377063 0.44500002
-0.23593064 0.027377063 0.44500002
-0.23477307 0.027377063 0.44500002
-0.23361547 0.027377063 0.44500002
-0.23245792 0.027377063 0.44500002
-0.23078056 0.027315544 0.44400004
-0.22962557 0.027315544 0.44400004
-0.22847061 0.027315544 0.44400004
-0.22680363 0.027254021 0.44300002
-0.22565128 0.027254021 0.44300002
-0.22449888 0.027254021 0.44300002
-0.2233465 0.027254021 0.44300002
-0.22219414 0.027254021 0.44300002
-0.22104175 0.027254021 0.44300002
-0.21988937 0.027254021 0.44300002
-0.21873701 0.027254021 0.44300002
-0.21758462 0.027254021 0.44300002
-0.21643224 0.027254021 0.44300002
-0.21527986 0.027254021 0.44300002
-0.2141275 0.027254021 0.44300002
-0.21297511 0.027254021 0.44300002
-0.21182275 0.027254021 0.44300002
-0.21067037 0.027254021 0.44300002
-0.20951799 0.027254021 0.44300002
-0.20836562 0.027254021 0.44300002
-0.20721324 0.027254021 0.44300002
-0.20606086 0.027254021 0.44300002
-0.20490848 0.027254021 0.44300002
-0.20375611 0.027254021 0.44300002
-0.20260373 0.027254021 0.44300002
-0.2019061 0.027315544 0.44400004
-0.20075111 0.027315544 0.44400004
-0.19959614 0.027315544 0.44400004
-0.19844116 0.027315544 0.44400004
-0.19728619 0.027315544 0.44400004
-0.19657294 0.027377063 0.44500002
-0.19541536 0.027377063 0.44500002
-0.19425778 0.027377063 0.44500002
-0.1931002 0.027377063 0.44500002
-0.19194263 0.027377063 0.44500002
-0.19078505 0.027377063 0.44500002
-0.18962745 0.027377063 0.44500002
-0.18846989 0.027377063 0.44500002
-0.1873123 0.027377063 0.44500002
-0.18615472 0.027377063 0.44500002
-0.18458143 0.027315544 0.44400004
-0.18342644 0.027315544 0.44400004
-0.18227147 0.027315544 0.44400004
-0.18111649 0.027315544 0.44400004
-0.17996152 0.027315544 0.44400004
-0.17880653 0.027315544 0.44400004
-0.17765155 0.027315544 0.44400004
-0.17649658 0.027315544 0.44400004
-0.17534161 0.027315544 0.44400004
-0.17418663 0.027315544 0.44400004
-0.17303164 0.027315544 0.44400004
-0.17187667 0.027315544 0.44400004
-0.17110619 0.027377063 0.44500002
-0.16994862 0.027377063 0.44500002
-0.16841175 0.027315544 0.44400004
-0.16725676 0.027315544 0.44400004
-0.16647588 0.027377063 0.44500002
-0.16494679 0.027315544 0.44400004
-0.16416073 0.027377063 0.44500002
-0.16300315 0.027377063 0.44500002
-0.16184555 0.027377063 0.44500002
-0.16068798 0.027377063 0.44500002
-0.1595304 0.027377063 0.44500002
-0.15837282 0.027377063 0.44500002
-0.15721524 0.027377063 0.44500002
-0.15640834 0.027438585 0.44600001
-0.15524817 0.027438585 0.44600001
-0.15408799 0.027438585 0.44600001
-0.15292782 0.027438585 0.44600001
-0.15176763 0.027438585 0.44600001
-0.15060744 0.027438585 0.44600001
-0.14944726 0.027438585 0.44600001
-0.14828709 0.027438585 0.44600001
-0.14712691 0.027438585 0.44600001
-0.14596672 0.027438585 0.44600001
-0.14480653 0.027438585 0.44600001
-0.14364636 0.027438585 0.44600001
-0.14248618 0.027438585 0.44600001
-0.14132601 0.027438585 0.44600001
-0.14016582 0.027438585 0.44600001
-0.13900563 0.027438585 0.44600001
-0.13784546 0.027438585 0.44600001
-0.13668528 0.027438585 0.44600001
-0.13552509 0.027438585 0.44600001
-0.13436492 0.027438585 0.44600001
-0.13320473 0.027438585 0.44600001
-0.1317485 0.027377063 0.44500002
-0.13059092 0.027377063 0.44500002
-0.12972419 0.027438585 0.44600001
-0.12827575 0.027377063 0.44500002
-0.12711817 0.027377063 0.44500002
-0.1259606 0.027377063 0.44500002
-0.12480302 0.027377063 0.44500002
-0.12364543 0.027377063 0.44500002
-0.12248786 0.027377063 0.44500002
-0.12160293 0.027438585 0.44600001
-0.12044275 0.027438585 0.44600001
-0.11928257 0.027438585 0.44600001
-0.11812238 0.027438585 0.44600001
-0.1169622 0.027438585 0.44600001
-0.11580203 0.027438585 0.44600001
-0.11464185 0.027438585 0.44600001
-0.11348166 0.027438585 0.44600001
-0.11232148 0.027438585 0.44600001
-0.1111613 0.027438585 0.44600001
-0.11000112 0.027438585 0.44600001
-0.10884093 0.027438585 0.44600001
-0.10768076 0.027438585 0.44600001
-0.10652058 0.027438585 0.44600001
-0.1053604 0.027438585 0.44600001
-0.10420022 0.027438585 0.44600001
-0.10304003 0.027438585 0.44600001
-0.10210829 0.027500108 0.44700003
-0.1009455 0.027500108 0.44700003
-0.099782728 0.027500108 0.44700003
-0.098619945 0.027500108 0.44700003
-0.097457163 0.027500108 0.44700003
-0.096294381 0.027500108 0.44700003
-0.095131598 0.027500108 0.44700003
-0.093968816 0.027500108 0.44700003
-0.092806026 0.027500108 0.44700003
-0.091643251 0.027500108 0.44700003
-0.090278052 0.027438585 0.44600001
-0.08911787 0.027438585 0.44600001
-0.087957688 0.027438585 0.44600001
-0.086797506 0.027438585 0.44600001
-0.085637324 0.027438585 0.44600001
-0.084477141 0.027438585 0.44600001
-0.083316967 0.027438585 0.44600001
-0.082156785 0.027438585 0.44600001
-0.080996603 0.027438585 0.44600001
-0.079836421 0.027438585 0.44600001
-0.078676239 0.027438585 0.44600001
-0.077516064 0.027438585 0.44600001
-0.076355882 0.027438585 0.44600001
-0.0751957 0.027438585 0.44600001
-0.074035518 0.027438585 0.44600001
-0.072875336 0.027438585 0.44600001
-0.071715161 0.027438585 0.44600001
-0.070554972 0.027438585 0.44600001
-0.069394797 0.027438585 0.44600001
-0.068234615 0.027438585 0.44600001
-0.045771141 0.02263991 0.36800003
-0.04481386 0.02263991 0.36800003
-0.043737404 0.022578387 0.36700001
-0.042549577 0.022455344 0.36500001
-0.041372158 0.022332301 0.36300001
-0.040205143 0.022209259 0.36100003
-0.038939759 0.022024693 0.35800001
-0.037796155 0.02190165 0.35600001
-0.036559388 0.021717086 0.35300002
-0.035540164 0.021655565 0.35200003
-0.034526139 0.021594044 0.35100001
-0.03351732 0.021532523 0.35000002
-0.0325137 0.021470999 0.34900001
-0.031424724 0.021347957 0.347
-0.030434111 0.021286435 0.34600002
-0.029448703 0.021224916 0.34500003
-0.028385738 0.021101872 0.34300002
-0.027413337 0.02104035 0.34200001
-0.026446138 0.020978829 0.34100002
-0.025484139 0.020917306 0.34
-0.024527345 0.020855786 0.33900002
-0.023506001 0.020732742 0.33700001
-0.018725598 0.020302093 0.33000001
-0.017758882 0.020179048 0.32800001
-0.0038192405 0.018764054 0.30500001
-0.0030258435 0.018764054 0.30500001
0.083144411 0.02762315 0.44900003
0.084500171 0.027684672 0.45000002
0.085670762 0.027684672 0.45000002
0.086841345 0.027684672 0.45000002
0.088011928 0.027684672 0.45000002
0.089182511 0.027684672 0.45000002
0.090353101 0.027684672 0.45000002
0.091727078 0.027746193 0.45100003
0.092900261 0.027746193 0.45100003
0.094073452 0.027746193 0.45100003
0.095457822 0.027807714 0.45200002
0.096633613 0.027807714 0.45200002
0.097809404 0.027807714 0.45200002
0.098985188 0.027807714 0.45200002
0.10016098 0.027807714 0.45200002
0.10133677 0.027807714 0.45200002
0.10251256 0.027807714 0.45200002
0.10368834 0.027807714 0.45200002
0.10463214 0.027746193 0.45100003
0.10580532 0.027746193 0.45100003
0.10697851 0.027746193 0.45100003
0.1081517 0.027746193 0.45100003
0.10932489 0.027746193 0.45100003
0.11074308 0.027807714 0.45200002
0.11191887 0.027807714 0.45200002
0.11309465 0.027807714 0.45200002
0.11427043 0.027807714 0.45200002
0.11544623 0.027807714 0.45200002
0.11636401 0.027746193 0.45100003
0.11753719 0.027746193 0.45100003
0.11871038 0.027746193 0.45100003
0.12014939 0.027807714 0.45200002
0.12132518 0.027807714 0.45200002
0.12250096 0.027807714 0.45200002
0.12367675 0.027807714 0.45200002
0.12485254 0.027807714 0.45200002
0.12630716 0.027869236 0.45300001
0.12748554 0.027869236 0.45300001
0.12866393 0.027869236 0.45300001
0.12984231 0.027869236 0.45300001
0.13102069 0.027869236 0.45300001
0.13219911 0.027869236 0.45300001
0.13367192 0.027930757 0.45400003
0.13485292 0.027930757 0.45400003
0.13603391 0.027930757 0.45400003
0.13691264 0.027869236 0.45300001
0.13809106 0.027869236 0.45300001
0.13926944 0.027869236 0.45300001
0.14044783 0.027869236 0.45300001
0.14162621 0.027869236 0.45300001
0.14280461 0.027869236 0.45300001
0.14398299 0.027869236 0.45300001
0.14548184 0.027930757 0.45400003
0.14666283 0.027930757 0.45400003
0.14784381 0.027930757 0.45400003
0.14902481 0.027930757 0.45400003
0.15020581 0.027930757 0.45400003
0.15172024 0.027992278 0.45500001
0.15290383 0.027992278 0.45500001
0.15408742 0.027992278 0.45500001
0.15527102 0.027992278 0.45500001
0.15645461 0.027992278 0.45500001
0.15763819 0.027992278 0.45500001
0.15847273 0.027930757 0.45400003
0.15965372 0.027930757 0.45400003
0.16083473 0.027930757 0.45400003
0.16201571 0.027930757 0.45400003
0.1631967 0.027930757 0.45400003
0.16401562 0.027869236 0.45300001
0.16519402 0.027869236 0.45300001
0.1663724 0.027869236 0.45300001
0.16755079 0.027869236 0.45300001
0.16835672 0.027807714 0.45200002
0.16953249 0.027807714 0.45200002
0.1707083 0.027807714 0.45200002
0.17188409 0.027807714 0.45200002
0.17305987 0.027807714 0.45200002
0.17462113 0.027869236 0.45300001
0.17579952 0.027869236 0.45300001
0.17697792 0.027869236 0.45300001
0.17854959 0.027930757 0.45400003
0.17973058 0.027930757 0.45400003
0.18091157 0.027930757 0.45400003
0.18209256 0.027930757 0.45400003
0.18327355 0.027930757 0.45400003
0.18486083 0.027992278 0.45500001
0.18604441 0.027992278 0.45500001
0.18722801 0.027992278 0.45500001
0.18841159 0.027992278 0.45500001
0.18959519 0.027992278 0.45500001
0.19077879 0.027992278 0.45500001
0.19196238 0.027992278 0.45500001
0.19314598 0.027992278 0.45500001
0.19432957 0.027992278 0.45500001
0.19551316 0.027992278 0.45500001
0.19669674 0.027992278 0.45500001
0.19788034 0.027992278 0.45500001
0.19906393 0.027992278 0.45500001
0.20024753 0.027992278 0.45500001
0.20098843 0.027930757 0.45400003
0.2021694 0.027930757 0.45400003
0.20335039 0.027930757 0.45400003
0.20498189 0.027992278 0.45500001
0.20616549 0.027992278 0.45500001
0.20734908 0.027992278 0.45500001
0.20899099 0.028053802 0.45600003
0.21017718 0.028053802 0.45600003
0.21136338 0.028053802 0.45600003
0.21254958 0.028053802 0.45600003
0.21373577 0.028053802 0.45600003
0.21492197 0.028053802 0.45600003
0.21610816 0.028053802 0.45600003
0.21729437 0.028053802 0.45600003
0.21848054 0.028053802 0.45600003
-0.24639404 0.028406397 0.44300002
-0.24524167 0.028406397 0.44300002
-0.24408929 0.028406397 0.44300002
-0.24293692 0.028406397 0.44300002
-0.24178454 0.028406397 0.44300002
-0.24117535 0.02847052 0.44400004
-0.24002038 0.02847052 0.44400004
-0.23886539 0.02847052 0.44400004
-0.23771043 0.02847052 0.44400004
-0.23708822 0.028534641 0.44500002
-0.23593064 0.028534641 0.44500002
-0.23477307 0.028534641 0.44500002
-0.23309051 0.02847052 0.44400004
-0.23193555 0.02847052 0.44400004
-0.23078056 0.02847052 0.44400004
-0.22962557 0.02847052 0.44400004
-0.22795603 0.028406397 0.44300002
-0.22680363 0.028406397 0.44300002
-0.22565128 0.028406397 0.44300002
-0.22449888 0.028406397 0.44300002
-0.2233465 0.028406397 0.44300002
-0.22219414 0.028406397 0.44300002
-0.22104175 0.028406397 0.44300002
-0.21988937 0.028406397 0.44300002
-0.21873701 0.028406397 0.44300002
-0.21758462 0.028406397 0.44300002
-0.21643224 0.028406397 0.44300002
-0.21576583 0.02847052 0.44400004
-0.21461086 0.02847052 0.44400004
-0.21345589 0.02847052 0.44400004
-0.21182275 0.028406397 0.44300002
-0.21067037 0.028406397 0.44300002
-0.20951799 0.028406397 0.44300002
-0.20836562 0.028406397 0.44300002
-0.20721324 0.028406397 0.44300002
-0.20606086 0.028406397 0.44300002
-0.20490848 0.028406397 0.44300002
-0.20375611 0.028406397 0.44300002
-0.20306107 0.02847052 0.44400004
-0.2019061 0.02847052 0.44400004
-0.20075111 0.02847052 0.44400004
-0.19959614 0.02847052 0.44400004
-0.19844116 0.02847052 0.44400004
-0.19773053 0.028534641 0.44500002
-0.19657294 0.028534641 0.44500002
-0.19541536 0.028534641 0.44500002
-0.19425778 0.028534641 0.44500002
-0.1931002 0.028534641 0.44500002
-0.19194263 0.028534641 0.44500002
-0.19078505 0.028534641 0.44500002
-0.18962745 0.028534641 0.44500002
-0.18846989 0.028534641 0.44500002
-0.1873123 0.028534641 0.44500002
-0.18615472 0.028534641 0.44500002
-0.18499716 0.028534641 0.44500002
-0.18342644 0.02847052 0.44400004
-0.18227147 0.02847052 0.44400004
-0.18111649 0.02847052 0.44400004
-0.17996152 0.02847052 0.44400004
-0.17880653 0.02847052 0.44400004
-0.17765155 0.02847052 0.44400004
-0.17649658 0.02847052 0.44400004
-0.17534161 0.02847052 0.44400004
-0.17418663 0.02847052 0.44400004
-0.17303164 0.02847052 0.44400004
-0.17226377 0.028534641 0.44500002
-0.17110619 0.028534641 0.44500002
-0.16994862 0.028534641 0.44500002
-0.16879104 0.028534641 0.44500002
-0.16725676 0.02847052 0.44400004
-0.16610177 0.02847052 0.44400004
-0.16494679 0.02847052 0.44400004
-0.16416073 0.028534641 0.44500002
-0.16300315 0.028534641 0.44500002
-0.16184555 0.028534641 0.44500002
-0.16068798 0.028534641 0.44500002
-0.1595304 0.028534641 0.44500002
-0.15837282 0.028534641 0.44500002
-0.15721524 0.028534641 0.44500002
-0.15640834 0.028598765 0.44600001
-0.15524817 0.028598765 0.44600001
-0.15408799 0.028598765 0.44600001
-0.15292782 0.028598765 0.44600001
-0.15176763 0.028598765 0.44600001
-0.15060744 0.028598765 0.44600001
-0.14944726 0.028598765 0.44600001
-0.14828709 0.028598765 0.44600001
-0.14712691 0.028598765 0.44600001
-0.14596672 0.028598765 0.44600001
-0.14480653 0.028598765 0.44600001
-0.14364636 0.028598765 0.44600001
-0.14248618 0.028598765 0.44600001
-0.14132601 0.028598765 0.44600001
-0.14016582 0.028598765 0.44600001
-0.13900563 0.028598765 0.44600001
-0.13784546 0.028598765 0.44600001
-0.13668528 0.028598765 0.44600001
-0.13552509 0.028598765 0.44600001
-0.13436492 0.028598765 0.44600001
-0.13320473 0.028598765 0.44600001
-0.13204455 0.028598765 0.44600001
-0.13088438 0.028598765 0.44600001
-0.12972419 0.028598765 0.44600001
-0.12856402 0.028598765 0.44600001
-0.12711817 0.028534641 0.44500002
-0.1259606 0.028534641 0.44500002
-0.12480302 0.028534641 0.44500002
-0.12364543 0.028534641 0.44500002
-0.12248786 0.028534641 0.44500002
-0.12160293 0.028598765 0.44600001
-0.12044275 0.028598765 0.44600001
-0.11928257 0.028598765 0.44600001
-0.11812238 0.028598765 0.44600001
-0.1169622 0.028598765 0.44600001
-0.11580203 0.028598765 0.44600001
-0.11464185 0.028598765 0.44600001
-0.11348166 0.028598765 0.44600001
-0.11232148 0.028598765 0.44600001
-0.1111613 0.028598765 0.44600001
-0.11000112 0.028598765 0.44600001
-0.10884093 0.028598765 0.44600001
-0.10768076 0.028598765 0.44600001
-0.10652058 0.028598765 0.44600001
-0.1053604 0.028598765 0.44600001
-0.10420022 0.028598765 0.44600001
-0.10304003 0.028598765 0.44600001
-0.10187986 0.028598765 0.44600001
-0.1009455 0.028662888 0.44700003
-0.099782728 0.028662888 0.44700003
-0.098619945 0.028662888 0.44700003
-0.097457163 0.028662888 0.44700003
-0.096294381 0.028662888 0.44700003
-0.095131598 0.028662888 0.44700003
-0.093968816 0.028662888 0.44700003
-0.092806026 0.028662888 0.44700003
-0.091643251 0.028662888 0.44700003
-0.090480469 0.028662888 0.44700003
-0.08911787 0.028598765 0.44600001
-0.087957688 0.028598765 0.44600001
-0.086992122 0.028662888 0.44700003
-0.085637324 0.028598765 0.44600001
-0.084477141 0.028598765 0.44600001
-0.083316967 0.028598765 0.44600001
-0.082156785 0.028598765 0.44600001
-0.080996603 0.028598765 0.44600001
-0.079836421 0.028598765 0.44600001
-0.078676239 0.028598765 0.44600001
-0.077516064 0.028598765 0.44600001
-0.076355882 0.028598765 0.44600001
-0.0751957 0.028598765 0.44600001
-0.074035518 0.028598765 0.44600001
-0.072875336 0.028598765 0.44600001
-0.071715161 0.028598765 0.44600001
-0.070554972 0.028598765 0.44600001
-0.069394797 0.028598765 0.44600001
-0.068234615 0.028598765 0.44600001
-0.046728417 0.023597188 0.36800003
-0.045771141 0.023597188 0.36800003
-0.04469208 0.023533065 0.36700001
-0.043737404 0.023533065 0.36700001
-0.042549577 0.023404818 0.36500001
-0.041372158 0.023276573 0.36300001
-0.037689988 0.022763591 0.35500002
-0.036559388 0.022635344 0.35300002
-0.035540164 0.022571223 0.35200003
-0.034427777 0.022442978 0.35000002
-0.033421554 0.022378854 0.34900001
-0.032420538 0.022314731 0.34800002
-0.031334162 0.022186486 0.34600002
-0.030346153 0.022122364 0.34500003
-0.029277986 0.021994118 0.34300002
-0.028302981 0.021929994 0.34200001
-0.027333181 0.021865873 0.34100002
-0.026291028 0.021737626 0.33900002
-0.025334233 0.021673504 0.33800003
-0.024454992 0.021673504 0.33800003
-0.023506001 0.021609381 0.33700001
-0.022495063 0.021481134 0.33500001
-0.02155908 0.021417012 0.33400002
-0.020566352 0.021288767 0.33200002
-0.019643374 0.021224644 0.33100003
-0.00542376 0.019621575 0.30600002
-0.0046126377 0.019557452 0.30500001
-0.0038067186 0.019493328 0.30400002
-0.0030159228 0.019493328 0.30400002
-0.0022178073 0.019429205 0.303
0.00014532298 0.019236837 0.30000001
0.084500171 0.028855257 0.45000002
0.085670762 0.028855257 0.45000002
0.086841345 0.028855257 0.45000002
0.088011928 0.028855257 0.45000002
0.089182511 0.028855257 0.45000002
0.090553895 0.02891938 0.45100003
0.091727078 0.02891938 0.45100003
0.092900261 0.02891938 0.45100003
0.094282039 0.028983502 0.45200002
0.095457822 0.028983502 0.45200002
0.096633613 0.028983502 0.45200002
0.097809404 0.028983502 0.45200002
0.098985188 0.028983502 0.45200002
0.10016098 0.028983502 0.45200002
0.10133677 0.028983502 0.45200002
0.10251256 0.028983502 0.45200002
0.10368834 0.028983502 0.45200002
0.10463214 0.02891938 0.45100003
0.10580532 0.02891938 0.45100003
0.10697851 0.02891938 0.45100003
0.1083915 0.028983502 0.45200002
0.10956728 0.028983502 0.45200002
0.11074308 0.028983502 0.45200002
0.11191887 0.028983502 0.45200002
0.11309465 0.028983502 0.45200002
0.11427043 0.028983502 0.45200002
0.11544623 0.028983502 0.45200002
0.11662202 0.028983502 0.45200002
0.11779781 0.028983502 0.45200002
0.11897359 0.028983502 0.45200002
0.12014939 0.028983502 0.45200002
0.12132518 0.028983502 0.45200002
0.12250096 0.028983502 0.45200002
0.12367675 0.028983502 0.45200002
0.12485254 0.028983502 0.45200002
0.12630716 0.029047623 0.45300001
0.12748554 0.029047623 0.45300001
0.12866393 0.029047623 0.45300001
0.12984231 0.029047623 0.45300001
0.13102069 0.029047623 0.45300001
0.13219911 0.029047623 0.45300001
0.13367192 0.029111749 0.45400003
0.13485292 0.029111749 0.45400003
0.13573426 0.029047623 0.45300001
0.13721488 0.029111749 0.45400003
0.13839589 0.029111749 0.45400003
0.13926944 0.029047623 0.45300001
0.14044783 0.029047623 0.45300001
0.14193885 0.029111749 0.45400003
0.14311986 0.029111749 0.45400003
0.14430085 0.029111749 0.45400003
0.14548184 0.029111749 0.45400003
0.14666283 0.029111749 0.45400003
0.14784381 0.029111749 0.45400003
0.14902481 0.029111749 0.45400003
0.15053664 0.02917587 0.45500001
0.15172024 0.02917587 0.45500001
0.15290383 0.02917587 0.45500001
0.15408742 0.02917587 0.45500001
0.15527102 0.02917587 0.45500001
0.15645461 0.02917587 0.45500001
0.15763819 0.02917587 0.45500001
0.15847273 0.029111749 0.45400003
0.15965372 0.029111749 0.45400003
0.16083473 0.029111749 0.45400003
0.16201571 0.029111749 0.45400003
0.1631967 0.029111749 0.45400003
0.16401562 0.029047623 0.45300001
0.16519402 0.029047623 0.45300001
0.1663724 0.029047623 0.45300001
0.16718093 0.028983502 0.45200002
0.16835672 0.028983502 0.45200002
0.16953249 0.028983502 0.45200002
0.1707083 0.028983502 0.45200002
0.17188409 0.028983502 0.45200002
0.17305987 0.028983502 0.45200002
0.17423566 0.028983502 0.45200002
0.17579952 0.029047623 0.45300001
0.17697792 0.029047623 0.45300001
0.17854959 0.029111749 0.45400003
0.17973058 0.029111749 0.45400003
0.18091157 0.029111749 0.45400003
0.18209256 0.029111749 0.45400003
0.18367724 0.02917587 0.45500001
0.18486083 0.02917587 0.45500001
0.18604441 0.02917587 0.45500001
0.18722801 0.02917587 0.45500001
0.18841159 0.02917587 0.45500001
0.18959519 0.02917587 0.45500001
0.19077879 0.02917587 0.45500001
0.19196238 0.02917587 0.45500001
0.19314598 0.02917587 0.45500001
0.19432957 0.02917587 0.45500001
0.19551316 0.02917587 0.45500001
0.19669674 0.02917587 0.45500001
0.19788034 0.02917587 0.45500001
0.19906393 0.02917587 0.45500001
0.20024753 0.02917587 0.45500001
0.20098843 0.029111749 0.45400003
0.2021694 0.029111749 0.45400003
0.20379829 0.02917587 0.45500001
0.20498189 0.02917587 0.45500001
0.20616549 0.02917587 0.45500001
0.20734908 0.02917587 0.45500001
0.20899099 0.029239994 0.45600003
0.21017718 0.029239994 0.45600003
0.21136338 0.029239994 0.45600003
0.21254958 0.029239994 0.45600003
0.21373577 0.029239994 0.45600003
0.21492197 0.029239994 0.45600003
0.21610816 0.029239994 0.45600003
0.21729437 0.029239994 0.45600003
0.21848054 0.029239994 0.45600003
-0.24639404 0.029558774 0.44300002
-0.24524167 0.029558774 0.44300002
-0.24408929 0.029558774 0.44300002
-0.24293692 0.029558774 0.44300002
-0.24178454 0.029558774 0.44300002
-0.24063215 0.029558774 0.44300002
-0.24002038 0.0296255 0.44400004
-0.23886539 0.0296255 0.44400004
-0.23771043 0.0296255 0.44400004
-0.23655544 0.0296255 0.44400004
-0.23540045 0.0296255 0.44400004
-0.23424549 0.0296255 0.44400004
-0.23309051 0.0296255 0.44400004
-0.23193555 0.0296255 0.44400004
-0.23078056 0.0296255 0.44400004
-0.22962557 0.0296255 0.44400004
-0.22795603 0.029558774 0.44300002
-0.22680363 0.029558774 0.44300002
-0.22565128 0.029558774 0.44300002
-0.22449888 0.029558774 0.44300002
-0.2233465 0.029558774 0.44300002
-0.22219414 0.029558774 0.44300002
-0.22104175 0.029558774 0.44300002
-0.21988937 0.029558774 0.44300002
-0.21923077 0.0296255 0.44400004
-0.21758462 0.029558774 0.44300002
-0.21692081 0.0296255 0.44400004
-0.21576583 0.0296255 0.44400004
-0.21461086 0.0296255 0.44400004
-0.21345589 0.0296255 0.44400004
-0.21230091 0.0296255 0.44400004
-0.21114592 0.0296255 0.44400004
-0.20951799 0.029558774 0.44300002
-0.20883597 0.0296255 0.44400004
-0.20721324 0.029558774 0.44300002
-0.20606086 0.029558774 0.44300002
-0.20490848 0.029558774 0.44300002
-0.20421606 0.0296255 0.44400004
-0.20306107 0.0296255 0.44400004
-0.2019061 0.0296255 0.44400004
-0.20075111 0.0296255 0.44400004
-0.19959614 0.0296255 0.44400004
-0.19844116 0.0296255 0.44400004
-0.19773053 0.029692221 0.44500002
-0.19657294 0.029692221 0.44500002
-0.19541536 0.029692221 0.44500002
-0.19425778 0.029692221 0.44500002
-0.1931002 0.029692221 0.44500002
-0.19194263 0.029692221 0.44500002
-0.19078505 0.029692221 0.44500002
-0.18962745 0.029692221 0.44500002
-0.18846989 0.029692221 0.44500002
-0.1873123 0.029692221 0.44500002
-0.18615472 0.029692221 0.44500002
-0.18499716 0.029692221 0.44500002
-0.18383956 0.029692221 0.44500002
-0.18227147 0.0296255 0.44400004
-0.18111649 0.0296255 0.44400004
-0.17996152 0.0296255 0.44400004
-0.17880653 0.0296255 0.44400004
-0.17765155 0.0296255 0.44400004
-0.17649658 0.0296255 0.44400004
-0.17534161 0.0296255 0.44400004
-0.17418663 0.0296255 0.44400004
-0.17303164 0.0296255 0.44400004
-0.17226377 0.029692221 0.44500002
-0.17110619 0.029692221 0.44500002
-0.16994862 0.029692221 0.44500002
-0.16841175 0.0296255 0.44400004
-0.16725676 0.0296255 0.44400004
-0.16610177 0.0296255 0.44400004
-0.16494679 0.0296255 0.44400004
-0.16416073 0.029692221 0.44500002
-0.16300315 0.029692221 0.44500002
-0.16184555 0.029692221 0.44500002
-0.16068798 0.029692221 0.44500002
-0.1595304 0.029692221 0.44500002
-0.15837282 0.029692221 0.44500002
-0.15721524 0.029692221 0.44500002
-0.15640834 0.029758945 0.44600001
-0.15524817 0.029758945 0.44600001
-0.15408799 0.029758945 0.44600001
-0.15292782 0.029758945 0.44600001
-0.15176763 0.029758945 0.44600001
-0.15060744 0.029758945 0.44600001
-0.14944726 0.029758945 0.44600001
-0.14828709 0.029758945 0.44600001
-0.14712691 0.029758945 0.44600001
-0.14596672 0.029758945 0.44600001
-0.14480653 0.029758945 0.44600001
-0.14364636 0.029758945 0.44600001
-0.14248618 0.029758945 0.44600001
-0.14132601 0.029758945 0.44600001
-0.14016582 0.029758945 0.44600001
-0.13900563 0.029758945 0.44600001
-0.13784546 0.029758945 0.44600001
-0.13668528 0.029758945 0.44600001
-0.13552509 0.029758945 0.44600001
-0.13436492 0.029758945 0.44600001
-0.13320473 0.029758945 0.44600001
-0.13204455 0.029758945 0.44600001
-0.13088438 0.029758945 0.44600001
-0.12972419 0.029758945 0.44600001
-0.12856402 0.029758945 0.44600001
-0.12711817 0.029692221 0.44500002
-0.12624365 0.029758945 0.44600001
-0.12508348 0.029758945 0.44600001
-0.12364543 0.029692221 0.44500002
-0.1227631 0.029758945 0.44600001
-0.12160293 0.029758945 0.44600001
-0.12044275 0.029758945 0.44600001
-0.11928257 0.029758945 0.44600001
-0.11812238 0.029758945 0.44600001
-0.1169622 0.029758945 0.44600001
-0.11580203 0.029758945 0.44600001
-0.11464185 0.029758945 0.44600001
-0.11348166 0.029758945 0.44600001
-0.11232148 0.029758945 0.44600001
-0.1111613 0.029758945 0.44600001
-0.11000112 0.029758945 0.44600001
-0.10884093 0.029758945 0.44600001
-0.10768076 0.029758945 0.44600001
-0.10652058 0.029758945 0.44600001
-0.1053604 0.029758945 0.44600001
-0.10420022 0.029758945 0.44600001
-0.10304003 0.029758945 0.44600001
-0.10187986 0.029758945 0.44600001
-0.1009455 0.029825671 0.44700003
-0.099782728 0.029825671 0.44700003
-0.098619945 0.029825671 0.44700003
-0.097457163 0.029825671 0.44700003
-0.096294381 0.029825671 0.44700003
-0.095131598 0.029825671 0.44700003
-0.093968816 0.029825671 0.44700003
-0.092806026 0.029825671 0.44700003
-0.091643251 0.029825671 0.44700003
-0.090480469 0.029825671 0.44700003
-0.089317687 0.029825671 0.44700003
-0.088154905 0.029825671 0.44700003
-0.086992122 0.029825671 0.44700003
-0.08582934 0.029825671 0.44700003
-0.084477141 0.029758945 0.44600001
-0.083316967 0.029758945 0.44600001
-0.082156785 0.029758945 0.44600001
-0.080996603 0.029758945 0.44600001
-0.079836421 0.029758945 0.44600001
-0.078852646 0.029825671 0.44700003
-0.077516064 0.029758945 0.44600001
-0.076355882 0.029758945 0.44600001
-0.075364299 0.029825671 0.44700003
-0.074201524 0.029825671 0.44700003
-0.073038734 0.029825671 0.44700003
-0.07187596 0.029825671 0.44700003
-0.070554972 0.029758945 0.44600001
-0.069394797 0.029758945 0.44600001
-0.046728417 0.024554469 0.36800003
-0.045771141 0.024554469 0.36800003
-0.04469208 0.024487743 0.36700001
-0.043737404 0.024487743 0.36700001
-0.042549577 0.024354294 0.36500001
-0.041372158 0.024220847 0.36300001
-0.037689988 0.023687053 0.35500002
-0.036559388 0.023553606 0.35300002
-0.035439193 0.023420157 0.35100001
-0.034329411 0.023286708 0.34900001
-0.033325791 0.023219986 0.34800002
-0.032327376 0.02315326 0.347
-0.031243602 0.023019813 0.34500003
-0.030258192 0.022953087 0.34400001
-0.029192626 0.02281964 0.34200001
-0.028220223 0.022752916 0.34100002
-0.027172869 0.022619469 0.33900002
-0.026213475 0.022552745 0.33800003
-0.025259279 0.02248602 0.33700001
-0.02438264 0.02248602 0.33700001
-0.02343625 0.022419296 0.33600003
-0.022495063 0.022352571 0.33500001
-0.021494532 0.022219123 0.333
-0.020566352 0.0221524 0.33200002
-0.019584028 0.02201895 0.33000001
-0.013952334 0.021284986 0.31900001
-0.0078628128 0.020551022 0.30800003
-0.0070386841 0.020484297 0.30700001
-0.0062197582 0.020417573 0.30600002
-0.0053883102 0.020284126 0.30400002
-0.0045975144 0.020284126 0.30400002
-0.0037941963 0.0202174 0.303
-0.0030060019 0.0202174 0.303
-0.0022178073 0.0202174 0.303
-0.0014248946 0.020150676 0.30200002
-0.00063506764 0.020017229 0.30000001
0.084500171 0.030025842 0.45000002
0.085670762 0.030025842 0.45000002
0.086841345 0.030025842 0.45000002
0.088011928 0.030025842 0.45000002
0.089380704 0.030092567 0.45100003
0.090553895 0.030092567 0.45100003
0.091727078 0.030092567 0.45100003
0.092900261 0.030092567 0.45100003
0.094282039 0.030159291 0.45200002
0.095457822 0.030159291 0.45200002
0.096633613 0.030159291 0.45200002
0.097809404 0.030159291 0.45200002
0.098985188 0.030159291 0.45200002
0.10016098 0.030159291 0.45200002
0.10133677 0.030159291 0.45200002
0.10251256 0.030159291 0.45200002
0.10368834 0.030159291 0.45200002
0.10463214 0.030092567 0.45100003
0.10580532 0.030092567 0.45100003
0.10721571 0.030159291 0.45200002
0.1083915 0.030159291 0.45200002
0.10956728 0.030159291 0.45200002
0.11074308 0.030159291 0.45200002
0.11191887 0.030159291 0.45200002
0.11309465 0.030159291 0.45200002
0.11427043 0.030159291 0.45200002
0.11544623 0.030159291 0.45200002
0.11662202 0.030159291 0.45200002
0.11779781 0.030159291 0.45200002
0.11897359 0.030159291 0.45200002
0.12014939 0.030159291 0.45200002
0.12132518 0.030159291 0.45200002
0.12250096 0.030159291 0.45200002
0.12367675 0.030159291 0.45200002
