# .PCD v0.7 - Point Cloud Data file format
VERSION 0.7
FIELDS x y z
SIZE 4 4 4
TYPE F F F
COUNT 1 1 1
WIDTH 1335
HEIGHT 1
VIEWPOINT 0 0 0 1 0 0 0
POINTS 1335
DATA ascii
-0.16308928 -0.05064613 0.43900001
-0.16194731 -0.05064613 0.43900001
-0.16080534 -0.05064613 0.43900001
-0.15966336 -0.05064613 0.43900001
-0.1585214 -0.05064613 0.43900001
-0.15773793 -0.050761502 0.44000003
-0.15659335 -0.050761502 0.44000003
-0.15544878 -0.050761502 0.44000003
-0.15430421 -0.050761502 0.44000003
-0.15315963 -0.050761502 0.44000003
-0.15236054 -0.050876867 0.44100001
-0.15121338 -0.050876867 0.44100001
-0.1500662 -0.050876867 0.44100001
-0.14891902 -0.050876867 0.44100001
-0.14777185 -0.050876867 0.44100001
-0.14662467 -0.050876867 0.44100001
-0.1454775 -0.050876867 0.44100001
-0.14433032 -0.050876867 0.44100001
-0.14318314 -0.050876867 0.44100001
-0.14203598 -0.050876867 0.44100001
-0.14088881 -0.050876867 0.44100001
-0.13974163 -0.050876867 0.44100001
-0.13859445 -0.050876867 0.44100001
-0.13744728 -0.050876867 0.44100001
-0.1363001 -0.050876867 0.44100001
-0.13515294 -0.050876867 0.44100001
-0.13400576 -0.050876867 0.44100001
-0.13285857 -0.050876867 0.44100001
-0.13171141 -0.050876867 0.44100001
-0.13056424 -0.050876867 0.44100001
-0.12941706 -0.050876867 0.44100001
-0.12826988 -0.050876867 0.44100001
-0.12712272 -0.050876867 0.44100001
-0.12597553 -0.050876867 0.44100001
-0.12482837 -0.050876867 0.44100001
-0.1236812 -0.050876867 0.44100001
-0.12253401 -0.050876867 0.44100001
-0.12138684 -0.050876867 0.44100001
-0.12023967 -0.050876867 0.44100001
-0.11909249 -0.050876867 0.44100001
-0.11794532 -0.050876867 0.44100001
-0.11706299 -0.050992236 0.44200003
-0.11591322 -0.050992236 0.44200003
-0.11476345 -0.050992236 0.44200003
-0.11335663 -0.050876867 0.44100001
-0.11246389 -0.050992236 0.44200003
-0.11106227 -0.050876867 0.44100001
-0.1099151 -0.050876867 0.44100001
-0.10876793 -0.050876867 0.44100001
-0.10762075 -0.050876867 0.44100001
-0.10647358 -0.050876867 0.44100001
-0.1053264 -0.050876867 0.44100001
-0.10417923 -0.050876867 0.44100001
-0.10303206 -0.050876867 0.44100001
-0.10188488 -0.050876867 0.44100001
-0.10073771 -0.050876867 0.44100001
-0.099590532 -0.050876867 0.44100001
-0.098443359 -0.050876867 0.44100001
-0.097296186 -0.050876867 0.44100001
-0.096149005 -0.050876867 0.44100001
-0.095001839 -0.050876867 0.44100001
-0.093854658 -0.050876867 0.44100001
-0.092707485 -0.050876867 0.44100001
-0.091767929 -0.050992236 0.44200003
-0.090618156 -0.050992236 0.44200003
-0.08946839 -0.050992236 0.44200003
-0.088318609 -0.050992236 0.44200003
-0.087168835 -0.050992236 0.44200003
-0.086019054 -0.050992236 0.44200003
-0.08486928 -0.050992236 0.44200003
-0.083719499 -0.050992236 0.44200003
-0.082756534 -0.0511076 0.44300002
-0.08160416 -0.0511076 0.44300002
-0.080451779 -0.0511076 0.44300002
-0.079299405 -0.0511076 0.44300002
-0.078323431 -0.051222969 0.44400004
-0.077168457 -0.051222969 0.44400004
-0.076013483 -0.051222969 0.44400004
-0.074858502 -0.051222969 0.44400004
-0.073703527 -0.051222969 0.44400004
-0.072548546 -0.051222969 0.44400004
-0.071393572 -0.051222969 0.44400004
-0.07023859 -0.051222969 0.44400004
-0.069083609 -0.051222969 0.44400004
-0.067928635 -0.051222969 0.44400004
-0.066773653 -0.051222969 0.44400004
-0.065618679 -0.051222969 0.44400004
-0.064463697 -0.051222969 0.44400004
-0.063451305 -0.051338334 0.44500002
-0.062153738 -0.051222969 0.44400004
-0.060998764 -0.051222969 0.44400004
-0.05984379 -0.051222969 0.44400004
-0.058688808 -0.051222969 0.44400004
-0.05753383 -0.051222969 0.44400004
-0.056378849 -0.051222969 0.44400004
-0.055223875 -0.051222969 0.44400004
-0.053947117 -0.0511076 0.44300002
-0.052913915 -0.051222969 0.44400004
-0.051758938 -0.051222969 0.44400004
-0.050603963 -0.051222969 0.44400004
-0.049448986 -0.051222969 0.44400004
-0.048294004 -0.051222969 0.44400004
-0.047139026 -0.051222969 0.44400004
-0.045984048 -0.051222969 0.44400004
-0.044829071 -0.051222969 0.44400004
-0.043674093 -0.051222969 0.44400004
-0.042614877 -0.051338334 0.44500002
-0.041457299 -0.051338334 0.44500002
-0.040299717 -0.051338334 0.44500002
-0.039142139 -0.051338334 0.44500002
-0.037984557 -0.051338334 0.44500002
-0.036826979 -0.051338334 0.44500002
-0.035669401 -0.051338334 0.44500002
-0.034511819 -0.051338334 0.44500002
-0.033354241 -0.051338334 0.44500002
-0.03219666 -0.051338334 0.44500002
-0.031039082 -0.051338334 0.44500002
-0.029881502 -0.051338334 0.44500002
-0.028723925 -0.051338334 0.44500002
-0.027628291 -0.051453702 0.44600001
-0.026468109 -0.051453702 0.44600001
-0.025307929 -0.051453702 0.44600001
-0.024147747 -0.051453702 0.44600001
-0.022987567 -0.051453702 0.44600001
-0.021827387 -0.051453702 0.44600001
-0.020667205 -0.051453702 0.44600001
-0.019507026 -0.051453702 0.44600001
-0.018346844 -0.051453702 0.44600001
-0.017148128 -0.051338334 0.44500002
-0.01599055 -0.051338334 0.44500002
-0.01483297 -0.051338334 0.44500002
-0.013675391 -0.051338334 0.44500002
-0.012489681 -0.051222969 0.44400004
-0.011334703 -0.051222969 0.44400004
-0.010179725 -0.051222969 0.44400004
-0.0090247467 -0.051222969 0.44400004
-0.007852044 -0.0511076 0.44300002
-0.0066996673 -0.0511076 0.44300002
-0.0055472902 -0.0511076 0.44300002
-0.004394914 -0.0511076 0.44300002
-0.0032352174 -0.050992236 0.44200003
-0.0020854417 -0.050992236 0.44200003
-0.00093566632 -0.050992236 0.44200003
0.0002141092 -0.050992236 0.44200003
0.0013638848 -0.050992236 0.44200003
0.0025079732 -0.050876867 0.44100001
0.003646859 -0.050761502 0.44000003
0.0047696526 -0.050530765 0.43800002
0.0058955322 -0.050415397 0.43700001
0.0070001171 -0.050184667 0.43500003
0.0080942959 -0.04995393 0.43300003
0.0091780704 -0.049723197 0.43100002
0.010275335 -0.049607828 0.43000001
0.011367397 -0.049492463 0.42900002
0.012483357 -0.049492463 0.42900002
0.013599315 -0.049492463 0.42900002
0.014715274 -0.049492463 0.42900002
0.015831232 -0.049492463 0.42900002
0.016986694 -0.049607828 0.43000001
0.018147361 -0.049723197 0.43100002
0.019223813 -0.049607828 0.43000001
0.020342374 -0.049607828 0.43000001
0.021411026 -0.049492463 0.42900002
0.022474473 -0.049377099 0.42800003
0.023532718 -0.049261726 0.42700002
0.024585763 -0.049146362 0.42600003
0.025693916 -0.049146362 0.42600003
0.026739156 -0.049030993 0.42500001
0.027844707 -0.049030993 0.42500001
0.028950261 -0.049030993 0.42500001
0.031234691 -0.049146362 0.42600003
0.03249469 -0.049377099 0.42800003
0.033843618 -0.049723197 0.43100002
0.039306477 -0.050992236 0.44200003
0.040730841 -0.051338334 0.44500002
0.041888423 -0.051338334 0.44500002
0.043046001 -0.051338334 0.44500002
0.044203579 -0.051338334 0.44500002
0.045361161 -0.051338334 0.44500002
0.046623275 -0.051453702 0.44600001
0.047783457 -0.051453702 0.44600001
0.048943639 -0.051453702 0.44600001
0.050216161 -0.051569071 0.44700003
0.051378939 -0.051569071 0.44700003
0.052541722 -0.051569071 0.44700003
0.053704504 -0.051569071 0.44700003
0.054867286 -0.051569071 0.44700003
0.056030069 -0.051569071 0.44700003
0.057192855 -0.051569071 0.44700003
0.058355633 -0.051569071 0.44700003
0.059518419 -0.051569071 0.44700003
0.060681198 -0.051569071 0.44700003
0.061705623 -0.051453702 0.44600001
0.062865809 -0.051453702 0.44600001
0.064025983 -0.051453702 0.44600001
0.065186165 -0.051453702 0.44600001
0.066495106 -0.051569071 0.44700003
0.067657895 -0.051569071 0.44700003
0.06882067 -0.051569071 0.44700003
0.069983453 -0.051569071 0.44700003
0.071146235 -0.051569071 0.44700003
0.072309017 -0.051569071 0.44700003
0.073471799 -0.051569071 0.44700003
0.074634582 -0.051569071 0.44700003
0.075627796 -0.051453702 0.44600001
0.076787971 -0.051453702 0.44600001
0.077948153 -0.051453702 0.44600001
0.079108335 -0.051453702 0.44600001
0.080268517 -0.051453702 0.44600001
0.081428699 -0.051453702 0.44600001
0.082588874 -0.051453702 0.44600001
0.083749056 -0.051453702 0.44600001
0.084909238 -0.051453702 0.44600001
0.08606942 -0.051453702 0.44600001
0.087229602 -0.051453702 0.44600001
0.088389777 -0.051453702 0.44600001
0.089549966 -0.051453702 0.44600001
0.090710141 -0.051453702 0.44600001
0.091870323 -0.051453702 0.44600001
0.093030505 -0.051453702 0.44600001
0.094190679 -0.051453702 0.44600001
0.095350869 -0.051453702 0.44600001
0.096511044 -0.051453702 0.44600001
0.097671226 -0.051453702 0.44600001
0.099053003 -0.051569071 0.44700003
0.10021579 -0.051569071 0.44700003
0.10137857 -0.051569071 0.44700003
0.10254135 -0.051569071 0.44700003
0.10370414 -0.051569071 0.44700003
0.10510151 -0.051684435 0.44800001
0.10626689 -0.051684435 0.44800001
0.10743228 -0.051684435 0.44800001
0.10859767 -0.051684435 0.44800001
0.10976305 -0.051684435 0.44800001
0.11068083 -0.051569071 0.44700003
0.1118436 -0.051569071 0.44700003
0.11300638 -0.051569071 0.44700003
0.11442459 -0.051684435 0.44800001
0.11558997 -0.051684435 0.44800001
0.11675534 -0.051684435 0.44800001
0.11792073 -0.051684435 0.44800001
0.11908612 -0.051684435 0.44800001
0.11998308 -0.051569071 0.44700003
0.12141688 -0.051684435 0.44800001
0.12258226 -0.051684435 0.44800001
0.12374764 -0.051684435 0.44800001
0.12491304 -0.051684435 0.44800001
0.12607841 -0.051684435 0.44800001
0.1272438 -0.051684435 0.44800001
0.12840918 -0.051684435 0.44800001
0.12957455 -0.051684435 0.44800001
0.13073996 -0.051684435 0.44800001
0.13190533 -0.051684435 0.44800001
0.13277368 -0.051569071 0.44700003
0.1342361 -0.051684435 0.44800001
0.13540147 -0.051684435 0.44800001
0.13626203 -0.051569071 0.44700003
0.13742481 -0.051569071 0.44700003
0.13889763 -0.051684435 0.44800001
0.13975038 -0.051569071 0.44700003
0.14122841 -0.051684435 0.44800001
0.14239378 -0.051684435 0.44800001
0.14355916 -0.051684435 0.44800001
0.14472455 -0.051684435 0.44800001
0.14588992 -0.051684435 0.44800001
0.14705531 -0.051684435 0.44800001
0.1482207 -0.051684435 0.44800001
0.14938608 -0.051684435 0.44800001
0.15055147 -0.051684435 0.44800001
0.15171684 -0.051684435 0.44800001
0.15288223 -0.051684435 0.44800001
0.15404762 -0.051684435 0.44800001
0.155213 -0.051684435 0.44800001
0.15637837 -0.051684435 0.44800001
0.15754376 -0.051684435 0.44800001
0.15870915 -0.051684435 0.44800001
0.15987453 -0.051684435 0.44800001
0.16103992 -0.051684435 0.44800001
0.16220529 -0.051684435 0.44800001
0.16337068 -0.051684435 0.44800001
0.16453607 -0.051684435 0.44800001
0.16570145 -0.051684435 0.44800001
0.16686682 -0.051684435 0.44800001
0.16803221 -0.051684435 0.44800001
0.1691976 -0.051684435 0.44800001
0.17074326 -0.051799804 0.44900003
0.17191124 -0.051799804 0.44900003
0.17307922 -0.051799804 0.44900003
0.17424721 -0.051799804 0.44900003
0.1754152 -0.051799804 0.44900003
0.17658319 -0.051799804 0.44900003
0.17775117 -0.051799804 0.44900003
0.17891915 -0.051799804 0.44900003
0.18008713 -0.051799804 0.44900003
0.18125513 -0.051799804 0.44900003
0.18242311 -0.051799804 0.44900003
0.1835911 -0.051799804 0.44900003
0.18475908 -0.051799804 0.44900003
0.18592705 -0.051799804 0.44900003
0.18667835 -0.051684435 0.44800001
0.18784373 -0.051684435 0.44800001
0.18900912 -0.051684435 0.44800001
0.19017449 -0.051684435 0.44800001
0.19133988 -0.051684435 0.44800001
0.19250527 -0.051684435 0.44800001
0.19367065 -0.051684435 0.44800001
0.19440113 -0.051569071 0.44700003
0.19556391 -0.051569071 0.44700003
0.1971668 -0.051684435 0.44800001
0.19833218 -0.051684435 0.44800001
0.19949757 -0.051684435 0.44800001
0.20066294 -0.051684435 0.44800001
0.20182833 -0.051684435 0.44800001
0.20299372 -0.051684435 0.44800001
0.20461482 -0.051799804 0.44900003
0.2057828 -0.051799804 0.44900003
0.20695078 -0.051799804 0.44900003
0.20811877 -0.051799804 0.44900003
0.20928676 -0.051799804 0.44900003
0.21045475 -0.051799804 0.44900003
0.21162273 -0.051799804 0.44900003
0.2127907 -0.051799804 0.44900003
0.2139587 -0.051799804 0.44900003
0.21512668 -0.051799804 0.44900003
-0.24475245 -0.0493914 0.43800002
-0.24361306 -0.0493914 0.43800002
-0.24247371 -0.0493914 0.43800002
-0.24133433 -0.0493914 0.43800002
-0.24019498 -0.0493914 0.43800002
-0.23905559 -0.0493914 0.43800002
-0.23791622 -0.0493914 0.43800002
-0.23677686 -0.0493914 0.43800002
-0.23563749 -0.0493914 0.43800002
-0.23449813 -0.0493914 0.43800002
-0.23335874 -0.0493914 0.43800002
-0.23221937 -0.0493914 0.43800002
-0.23160759 -0.049504165 0.43900001
-0.23046561 -0.049504165 0.43900001
-0.22932364 -0.049504165 0.43900001
-0.22818166 -0.049504165 0.43900001
-0.22652252 -0.0493914 0.43800002
-0.22589773 -0.049504165 0.43900001
-0.22424378 -0.0493914 0.43800002
-0.22310442 -0.0493914 0.43800002
-0.22196504 -0.0493914 0.43800002
-0.22082566 -0.0493914 0.43800002
-0.21968631 -0.0493914 0.43800002
-0.21854693 -0.0493914 0.43800002
-0.21740755 -0.0493914 0.43800002
-0.2162682 -0.0493914 0.43800002
-0.21512882 -0.0493914 0.43800002
-0.21398945 -0.0493914 0.43800002
-0.21285008 -0.0493914 0.43800002
-0.21219406 -0.049504165 0.43900001
-0.21105209 -0.049504165 0.43900001
-0.20991012 -0.049504165 0.43900001
-0.20876814 -0.049504165 0.43900001
-0.20762618 -0.049504165 0.43900001
-0.2064842 -0.049504165 0.43900001
-0.20534223 -0.049504165 0.43900001
-0.20420025 -0.049504165 0.43900001
-0.20305829 -0.049504165 0.43900001
-0.20191632 -0.049504165 0.43900001
-0.20077434 -0.049504165 0.43900001
-0.19963238 -0.049504165 0.43900001
-0.1984904 -0.049504165 0.43900001
-0.19734843 -0.049504165 0.43900001
-0.19620645 -0.049504165 0.43900001
-0.19506449 -0.049504165 0.43900001
-0.19392252 -0.049504165 0.43900001
-0.19278054 -0.049504165 0.43900001
-0.19163857 -0.049504165 0.43900001
-0.19049659 -0.049504165 0.43900001
-0.18935463 -0.049504165 0.43900001
-0.18821266 -0.049504165 0.43900001
-0.18707068 -0.049504165 0.43900001
-0.18592872 -0.049504165 0.43900001
-0.18478674 -0.049504165 0.43900001
-0.18364477 -0.049504165 0.43900001
-0.18250281 -0.049504165 0.43900001
-0.18136083 -0.049504165 0.43900001
-0.18062939 -0.049616929 0.44000003
-0.17948481 -0.049616929 0.44000003
-0.17834024 -0.049616929 0.44000003
-0.17719565 -0.049616929 0.44000003
-0.1760511 -0.049616929 0.44000003
-0.17490652 -0.049616929 0.44000003
-0.17376195 -0.049616929 0.44000003
-0.17261738 -0.049616929 0.44000003
-0.17147279 -0.049616929 0.44000003
-0.17032823 -0.049616929 0.44000003
-0.16918366 -0.049616929 0.44000003
-0.16803908 -0.049616929 0.44000003
-0.16689451 -0.049616929 0.44000003
-0.16537322 -0.049504165 0.43900001
-0.16423126 -0.049504165 0.43900001
-0.16308928 -0.049504165 0.43900001
-0.16231622 -0.049616929 0.44000003
-0.16117164 -0.049616929 0.44000003
-0.16002707 -0.049616929 0.44000003
-0.1588825 -0.049616929 0.44000003
-0.15773793 -0.049616929 0.44000003
-0.15659335 -0.049616929 0.44000003
-0.15544878 -0.049616929 0.44000003
-0.15430421 -0.049616929 0.44000003
-0.15315963 -0.049616929 0.44000003
-0.15236054 -0.049729694 0.44100001
-0.15121338 -0.049729694 0.44100001
-0.1500662 -0.049729694 0.44100001
-0.14891902 -0.049729694 0.44100001
-0.14777185 -0.049729694 0.44100001
-0.14662467 -0.049729694 0.44100001
-0.1454775 -0.049729694 0.44100001
-0.14433032 -0.049729694 0.44100001
-0.14318314 -0.049729694 0.44100001
-0.14203598 -0.049729694 0.44100001
-0.14088881 -0.049729694 0.44100001
-0.13974163 -0.049729694 0.44100001
-0.13859445 -0.049729694 0.44100001
-0.13744728 -0.049729694 0.44100001
-0.1363001 -0.049729694 0.44100001
-0.13515294 -0.049729694 0.44100001
-0.13400576 -0.049729694 0.44100001
-0.13285857 -0.049729694 0.44100001
-0.13171141 -0.049729694 0.44100001
-0.13056424 -0.049729694 0.44100001
-0.12941706 -0.049729694 0.44100001
-0.12826988 -0.049729694 0.44100001
-0.12712272 -0.049729694 0.44100001
-0.12597553 -0.049729694 0.44100001
-0.12482837 -0.049729694 0.44100001
-0.1236812 -0.049729694 0.44100001
-0.12253401 -0.049729694 0.44100001
-0.12138684 -0.049729694 0.44100001
-0.12023967 -0.049729694 0.44100001
-0.11909249 -0.049729694 0.44100001
-0.11794532 -0.049729694 0.44100001
-0.11679814 -0.049729694 0.44100001
-0.11591322 -0.049842462 0.44200003
-0.11476345 -0.049842462 0.44200003
-0.11335663 -0.049729694 0.44100001
-0.11246389 -0.049842462 0.44200003
-0.11131412 -0.049842462 0.44200003
-0.1099151 -0.049729694 0.44100001
-0.10876793 -0.049729694 0.44100001
-0.10762075 -0.049729694 0.44100001
-0.10647358 -0.049729694 0.44100001
-0.1053264 -0.049729694 0.44100001
-0.10417923 -0.049729694 0.44100001
-0.10303206 -0.049729694 0.44100001
-0.10188488 -0.049729694 0.44100001
-0.10073771 -0.049729694 0.44100001
-0.099590532 -0.049729694 0.44100001
-0.098443359 -0.049729694 0.44100001
-0.097296186 -0.049729694 0.44100001
-0.096149005 -0.049729694 0.44100001
-0.095001839 -0.049729694 0.44100001
-0.093854658 -0.049729694 0.44100001
-0.092917711 -0.049842462 0.44200003
-0.091767929 -0.049842462 0.44200003
-0.090618156 -0.049842462 0.44200003
-0.08946839 -0.049842462 0.44200003
-0.088318609 -0.049842462 0.44200003
-0.087168835 -0.049842462 0.44200003
-0.086019054 -0.049842462 0.44200003
-0.085061289 -0.049955226 0.44300002
-0.083908908 -0.049955226 0.44300002
-0.082756534 -0.049955226 0.44300002
-0.08160416 -0.049955226 0.44300002
-0.080451779 -0.049955226 0.44300002
-0.079299405 -0.049955226 0.44300002
-0.078147031 -0.049955226 0.44300002
-0.077168457 -0.050067995 0.44400004
-0.076013483 -0.050067995 0.44400004
-0.074858502 -0.050067995 0.44400004
-0.073703527 -0.050067995 0.44400004
-0.072548546 -0.050067995 0.44400004
-0.071393572 -0.050067995 0.44400004
-0.07023859 -0.050067995 0.44400004
-0.069083609 -0.050067995 0.44400004
-0.067928635 -0.050067995 0.44400004
-0.066773653 -0.050067995 0.44400004
-0.065618679 -0.050067995 0.44400004
-0.064463697 -0.050067995 0.44400004
-0.063308723 -0.050067995 0.44400004
-0.062153738 -0.050067995 0.44400004
-0.060998764 -0.050067995 0.44400004
-0.05984379 -0.050067995 0.44400004
-0.058688808 -0.050067995 0.44400004
-0.05753383 -0.050067995 0.44400004
-0.056378849 -0.050067995 0.44400004
-0.055223875 -0.050067995 0.44400004
-0.054068897 -0.050067995 0.44400004
-0.052913915 -0.050067995 0.44400004
-0.051758938 -0.050067995 0.44400004
-0.050603963 -0.050067995 0.44400004
-0.049448986 -0.050067995 0.44400004
-0.048294004 -0.050067995 0.44400004
-0.047139026 -0.050067995 0.44400004
-0.045984048 -0.050067995 0.44400004
-0.044829071 -0.050067995 0.44400004
-0.043674093 -0.050067995 0.44400004
-0.042614877 -0.050180759 0.44500002
-0.041457299 -0.050180759 0.44500002
-0.040299717 -0.050180759 0.44500002
-0.039142139 -0.050180759 0.44500002
-0.037984557 -0.050180759 0.44500002
-0.036826979 -0.050180759 0.44500002
-0.035669401 -0.050180759 0.44500002
-0.034511819 -0.050180759 0.44500002
-0.033354241 -0.050180759 0.44500002
-0.03219666 -0.050180759 0.44500002
-0.031039082 -0.050180759 0.44500002
-0.029881502 -0.050180759 0.44500002
-0.028723925 -0.050180759 0.44500002
-0.027566345 -0.050180759 0.44500002
-0.026468109 -0.050293524 0.44600001
-0.025307929 -0.050293524 0.44600001
-0.024147747 -0.050293524 0.44600001
-0.022987567 -0.050293524 0.44600001
-0.021827387 -0.050293524 0.44600001
-0.020667205 -0.050293524 0.44600001
-0.019507026 -0.050293524 0.44600001
-0.018346844 -0.050293524 0.44600001
-0.017148128 -0.050180759 0.44500002
-0.01599055 -0.050180759 0.44500002
-0.01483297 -0.050180759 0.44500002
-0.013675391 -0.050180759 0.44500002
-0.012517811 -0.050180759 0.44500002
-0.011334703 -0.050067995 0.44400004
-0.010179725 -0.050067995 0.44400004
-0.0090247467 -0.050067995 0.44400004
-0.0078697689 -0.050067995 0.44400004
-0.0066996673 -0.049955226 0.44300002
-0.0055472902 -0.049955226 0.44300002
-0.004394914 -0.049955226 0.44300002
-0.0032425369 -0.049955226 0.44300002
-0.0020854417 -0.049842462 0.44200003
-0.00093566632 -0.049842462 0.44200003
0.0002141092 -0.049842462 0.44200003
0.0013638848 -0.049842462 0.44200003
0.0025079732 -0.049729694 0.44100001
0.003646859 -0.049616929 0.44000003
0.0047696526 -0.0493914 0.43800002
0.0058820415 -0.049165867 0.43600002
0.0069840248 -0.048940334 0.43400002
0.0080756024 -0.048714802 0.43200001
0.0091567747 -0.048489273 0.43000001
0.010251439 -0.048376508 0.42900002
0.011367397 -0.048376508 0.42900002
0.012483357 -0.048376508 0.42900002
0.013599315 -0.048376508 0.42900002
0.014715274 -0.048376508 0.42900002
0.015831232 -0.048376508 0.42900002
0.016986694 -0.048489273 0.43000001
0.018147361 -0.048602037 0.43100002
0.019223813 -0.048489273 0.43000001
0.020295067 -0.048376508 0.42900002
0.021411026 -0.048376508 0.42900002
0.022474473 -0.048263744 0.42800003
0.024585763 -0.048038211 0.42600003
0.025633601 -0.047925442 0.42500001
0.026676241 -0.047812678 0.42400002
0.027779192 -0.047812678 0.42400002
0.028882144 -0.047812678 0.42400002
0.029985096 -0.047812678 0.42400002
0.031088049 -0.047812678 0.42400002
0.032191001 -0.047812678 0.42400002
0.033608049 -0.048263744 0.42800003
0.040547784 -0.049955226 0.44300002
0.041794293 -0.050067995 0.44400004
0.043046001 -0.050180759 0.44500002
0.044203579 -0.050180759 0.44500002
0.045361161 -0.050180759 0.44500002
0.046623275 -0.050293524 0.44600001
0.047783457 -0.050293524 0.44600001
0.048943639 -0.050293524 0.44600001
0.050103817 -0.050293524 0.44600001
0.051378939 -0.050406292 0.44700003
0.052541722 -0.050406292 0.44700003
0.053704504 -0.050406292 0.44700003
0.054867286 -0.050406292 0.44700003
0.056030069 -0.050406292 0.44700003
0.057192855 -0.050406292 0.44700003
0.058355633 -0.050406292 0.44700003
0.059518419 -0.050406292 0.44700003
0.060545444 -0.050293524 0.44600001
0.061705623 -0.050293524 0.44600001
0.062865809 -0.050293524 0.44600001
0.064025983 -0.050293524 0.44600001
0.065186165 -0.050293524 0.44600001
0.066346347 -0.050293524 0.44600001
0.067657895 -0.050406292 0.44700003
0.06882067 -0.050406292 0.44700003
0.069983453 -0.050406292 0.44700003
0.071146235 -0.050406292 0.44700003
0.072309017 -0.050406292 0.44700003
0.073471799 -0.050406292 0.44700003
0.074467614 -0.050293524 0.44600001
0.075627796 -0.050293524 0.44600001
0.076787971 -0.050293524 0.44600001
0.077948153 -0.050293524 0.44600001
0.079108335 -0.050293524 0.44600001
0.080268517 -0.050293524 0.44600001
0.081428699 -0.050293524 0.44600001
0.082588874 -0.050293524 0.44600001
0.083749056 -0.050293524 0.44600001
0.084909238 -0.050293524 0.44600001
0.08606942 -0.050293524 0.44600001
0.087229602 -0.050293524 0.44600001
0.088389777 -0.050293524 0.44600001
0.089549966 -0.050293524 0.44600001
0.090710141 -0.050293524 0.44600001
0.091870323 -0.050293524 0.44600001
0.093030505 -0.050293524 0.44600001
0.094190679 -0.050293524 0.44600001
0.095350869 -0.050293524 0.44600001
0.096511044 -0.050293524 0.44600001
0.097890221 -0.050406292 0.44700003
0.099053003 -0.050406292 0.44700003
0.10021579 -0.050406292 0.44700003
0.10137857 -0.050406292 0.44700003
0.10254135 -0.050406292 0.44700003
0.10370414 -0.050406292 0.44700003
0.10486691 -0.050406292 0.44700003
0.1060297 -0.050406292 0.44700003
0.10719248 -0.050406292 0.44700003
0.10835526 -0.050406292 0.44700003
0.10951804 -0.050406292 0.44700003
0.11068083 -0.050406292 0.44700003
0.1118436 -0.050406292 0.44700003
0.11300638 -0.050406292 0.44700003
0.11416917 -0.050406292 0.44700003
0.11533196 -0.050406292 0.44700003
0.11649474 -0.050406292 0.44700003
0.11765751 -0.050406292 0.44700003
0.11882031 -0.050406292 0.44700003
0.1202515 -0.050519057 0.44800001
0.12141688 -0.050519057 0.44800001
0.12258226 -0.050519057 0.44800001
0.12374764 -0.050519057 0.44800001
0.12491304 -0.050519057 0.44800001
0.12607841 -0.050519057 0.44800001
0.1272438 -0.050519057 0.44800001
0.12840918 -0.050519057 0.44800001
0.12957455 -0.050519057 0.44800001
0.13073996 -0.050519057 0.44800001
0.1316109 -0.050406292 0.44700003
0.13277368 -0.050406292 0.44700003
0.13393646 -0.050406292 0.44700003
0.13509925 -0.050406292 0.44700003
0.13626203 -0.050406292 0.44700003
0.13742481 -0.050406292 0.44700003
0.13858759 -0.050406292 0.44700003
0.13975038 -0.050406292 0.44700003
0.14122841 -0.050519057 0.44800001
0.14207594 -0.050406292 0.44700003
0.14355916 -0.050519057 0.44800001
0.14472455 -0.050519057 0.44800001
0.14588992 -0.050519057 0.44800001
0.14705531 -0.050519057 0.44800001
0.1482207 -0.050519057 0.44800001
0.14938608 -0.050519057 0.44800001
0.15055147 -0.050519057 0.44800001
0.15171684 -0.050519057 0.44800001
0.15288223 -0.050519057 0.44800001
0.15404762 -0.050519057 0.44800001
0.155213 -0.050519057 0.44800001
0.15637837 -0.050519057 0.44800001
0.15754376 -0.050519057 0.44800001
0.15870915 -0.050519057 0.44800001
0.15987453 -0.050519057 0.44800001
0.16103992 -0.050519057 0.44800001
0.16220529 -0.050519057 0.44800001
0.16337068 -0.050519057 0.44800001
0.16453607 -0.050519057 0.44800001
0.16570145 -0.050519057 0.44800001
0.16686682 -0.050519057 0.44800001
0.16803221 -0.050519057 0.44800001
0.16957529 -0.050631821 0.44900003
0.17074326 -0.050631821 0.44900003
0.17191124 -0.050631821 0.44900003
0.17307922 -0.050631821 0.44900003
0.17424721 -0.050631821 0.44900003
0.1754152 -0.050631821 0.44900003
0.17658319 -0.050631821 0.44900003
0.17775117 -0.050631821 0.44900003
0.17891915 -0.050631821 0.44900003
0.18008713 -0.050631821 0.44900003
0.18125513 -0.050631821 0.44900003
0.18242311 -0.050631821 0.44900003
0.1835911 -0.050631821 0.44900003
0.18475908 -0.050631821 0.44900003
0.18592705 -0.050631821 0.44900003
0.18667835 -0.050519057 0.44800001
0.18784373 -0.050519057 0.44800001
0.18900912 -0.050519057 0.44800001
0.19017449 -0.050519057 0.44800001
0.19133988 -0.050519057 0.44800001
0.19250527 -0.050519057 0.44800001
0.19367065 -0.050519057 0.44800001
0.19483602 -0.050519057 0.44800001
0.19556391 -0.050406292 0.44700003
0.1971668 -0.050519057 0.44800001
0.19833218 -0.050519057 0.44800001
0.19949757 -0.050519057 0.44800001
0.20066294 -0.050519057 0.44800001
0.20182833 -0.050519057 0.44800001
0.20299372 -0.050519057 0.44800001
0.20461482 -0.050631821 0.44900003
0.2057828 -0.050631821 0.44900003
0.20695078 -0.050631821 0.44900003
0.20811877 -0.050631821 0.44900003
0.20928676 -0.050631821 0.44900003
0.21045475 -0.050631821 0.44900003
0.21162273 -0.050631821 0.44900003
0.2127907 -0.050631821 0.44900003
0.2139587 -0.050631821 0.44900003
0.21512668 -0.050631821 0.44900003
-0.24475245 -0.048252027 0.43800002
-0.24361306 -0.048252027 0.43800002
-0.24247371 -0.048252027 0.43800002
-0.24133433 -0.048252027 0.43800002
-0.24019498 -0.048252027 0.43800002
-0.23905559 -0.048252027 0.43800002
-0.23791622 -0.048252027 0.43800002
-0.23677686 -0.048252027 0.43800002
-0.23563749 -0.048252027 0.43800002
-0.23449813 -0.048252027 0.43800002
-0.23335874 -0.048252027 0.43800002
-0.23221937 -0.048252027 0.43800002
-0.23108001 -0.048252027 0.43800002
-0.23046561 -0.048362192 0.43900001
-0.22932364 -0.048362192 0.43900001
-0.22818166 -0.048362192 0.43900001
-0.22652252 -0.048252027 0.43800002
-0.22589773 -0.048362192 0.43900001
-0.22424378 -0.048252027 0.43800002
-0.22310442 -0.048252027 0.43800002
-0.22196504 -0.048252027 0.43800002
-0.22082566 -0.048252027 0.43800002
-0.21968631 -0.048252027 0.43800002
-0.21854693 -0.048252027 0.43800002
-0.21740755 -0.048252027 0.43800002
-0.2162682 -0.048252027 0.43800002
-0.21512882 -0.048252027 0.43800002
-0.21398945 -0.048252027 0.43800002
-0.21285008 -0.048252027 0.43800002
-0.21219406 -0.048362192 0.43900001
-0.21105209 -0.048362192 0.43900001
-0.20991012 -0.048362192 0.43900001
-0.20876814 -0.048362192 0.43900001
-0.20762618 -0.048362192 0.43900001
-0.2064842 -0.048362192 0.43900001
-0.20534223 -0.048362192 0.43900001
-0.20420025 -0.048362192 0.43900001
-0.20305829 -0.048362192 0.43900001
-0.20191632 -0.048362192 0.43900001
-0.20077434 -0.048362192 0.43900001
-0.19963238 -0.048362192 0.43900001
-0.1984904 -0.048362192 0.43900001
-0.19734843 -0.048362192 0.43900001
-0.19620645 -0.048362192 0.43900001
-0.19506449 -0.048362192 0.43900001
-0.19392252 -0.048362192 0.43900001
-0.19278054 -0.048362192 0.43900001
-0.19163857 -0.048362192 0.43900001
-0.19049659 -0.048362192 0.43900001
-0.18935463 -0.048362192 0.43900001
-0.18821266 -0.048362192 0.43900001
-0.18707068 -0.048362192 0.43900001
-0.18592872 -0.048362192 0.43900001
-0.18478674 -0.048362192 0.43900001
-0.18364477 -0.048362192 0.43900001
-0.18250281 -0.048362192 0.43900001
-0.18136083 -0.048362192 0.43900001
-0.18021886 -0.048362192 0.43900001
-0.17948481 -0.048472356 0.44000003
-0.17834024 -0.048472356 0.44000003
-0.17719565 -0.048472356 0.44000003
-0.1760511 -0.048472356 0.44000003
-0.17490652 -0.048472356 0.44000003
-0.17376195 -0.048472356 0.44000003
-0.17261738 -0.048472356 0.44000003
-0.17147279 -0.048472356 0.44000003
-0.17032823 -0.048472356 0.44000003
-0.16918366 -0.048472356 0.44000003
-0.16803908 -0.048472356 0.44000003
-0.16689451 -0.048472356 0.44000003
-0.16537322 -0.048362192 0.43900001
-0.16423126 -0.048362192 0.43900001
-0.16346079 -0.048472356 0.44000003
-0.16231622 -0.048472356 0.44000003
-0.16117164 -0.048472356 0.44000003
-0.16002707 -0.048472356 0.44000003
-0.1588825 -0.048472356 0.44000003
-0.15773793 -0.048472356 0.44000003
-0.15659335 -0.048472356 0.44000003
-0.15580206 -0.04858252 0.44100001
-0.15465489 -0.04858252 0.44100001
-0.15350772 -0.04858252 0.44100001
-0.15236054 -0.04858252 0.44100001
-0.15121338 -0.04858252 0.44100001
-0.1500662 -0.04858252 0.44100001
-0.14891902 -0.04858252 0.44100001
-0.14777185 -0.04858252 0.44100001
-0.14662467 -0.04858252 0.44100001
-0.1454775 -0.04858252 0.44100001
-0.14433032 -0.04858252 0.44100001
-0.14318314 -0.04858252 0.44100001
-0.1417139 -0.048472356 0.44000003
-0.14088881 -0.04858252 0.44100001
-0.13974163 -0.04858252 0.44100001
-0.13859445 -0.04858252 0.44100001
-0.13744728 -0.04858252 0.44100001
-0.1363001 -0.04858252 0.44100001
-0.13515294 -0.04858252 0.44100001
-0.13400576 -0.04858252 0.44100001
-0.13285857 -0.04858252 0.44100001
-0.13171141 -0.04858252 0.44100001
-0.13056424 -0.04858252 0.44100001
-0.12941706 -0.04858252 0.44100001
-0.12826988 -0.04858252 0.44100001
-0.12712272 -0.04858252 0.44100001
-0.12597553 -0.04858252 0.44100001
-0.12482837 -0.04858252 0.44100001
-0.1236812 -0.04858252 0.44100001
-0.12253401 -0.04858252 0.44100001
-0.12138684 -0.04858252 0.44100001
-0.12023967 -0.04858252 0.44100001
-0.11909249 -0.04858252 0.44100001
-0.11794532 -0.04858252 0.44100001
-0.11679814 -0.04858252 0.44100001
-0.11565097 -0.04858252 0.44100001
-0.11476345 -0.048692685 0.44200003
-0.11335663 -0.04858252 0.44100001
-0.11246389 -0.048692685 0.44200003
-0.11131412 -0.048692685 0.44200003
-0.11016434 -0.048692685 0.44200003
-0.10876793 -0.04858252 0.44100001
-0.10762075 -0.04858252 0.44100001
-0.10647358 -0.04858252 0.44100001
-0.1053264 -0.04858252 0.44100001
-0.10417923 -0.04858252 0.44100001
-0.10303206 -0.04858252 0.44100001
-0.10188488 -0.04858252 0.44100001
-0.10073771 -0.04858252 0.44100001
-0.099590532 -0.04858252 0.44100001
-0.098443359 -0.04858252 0.44100001
-0.097296186 -0.04858252 0.44100001
-0.096149005 -0.04858252 0.44100001
-0.095001839 -0.04858252 0.44100001
-0.094067484 -0.048692685 0.44200003
-0.092917711 -0.048692685 0.44200003
-0.091767929 -0.048692685 0.44200003
-0.090618156 -0.048692685 0.44200003
-0.08946839 -0.048692685 0.44200003
-0.088318609 -0.048692685 0.44200003
-0.087168835 -0.048692685 0.44200003
-0.086213663 -0.048802849 0.44300002
-0.085061289 -0.048802849 0.44300002
-0.083908908 -0.048802849 0.44300002
-0.082756534 -0.048802849 0.44300002
-0.08160416 -0.048802849 0.44300002
-0.080451779 -0.048802849 0.44300002
-0.079299405 -0.048802849 0.44300002
-0.078147031 -0.048802849 0.44300002
-0.077168457 -0.048913017 0.44400004
-0.076013483 -0.048913017 0.44400004
-0.074858502 -0.048913017 0.44400004
-0.073703527 -0.048913017 0.44400004
-0.072548546 -0.048913017 0.44400004
-0.071393572 -0.048913017 0.44400004
-0.07023859 -0.048913017 0.44400004
-0.069083609 -0.048913017 0.44400004
-0.067928635 -0.048913017 0.44400004
-0.066773653 -0.048913017 0.44400004
-0.065618679 -0.048913017 0.44400004
-0.064463697 -0.048913017 0.44400004
-0.063308723 -0.048913017 0.44400004
-0.062153738 -0.048913017 0.44400004
-0.060998764 -0.048913017 0.44400004
-0.05984379 -0.048913017 0.44400004
-0.058688808 -0.048913017 0.44400004
-0.05753383 -0.048913017 0.44400004
-0.056378849 -0.048913017 0.44400004
-0.055223875 -0.048913017 0.44400004
-0.054068897 -0.048913017 0.44400004
-0.052913915 -0.048913017 0.44400004
-0.051758938 -0.048913017 0.44400004
-0.050603963 -0.048913017 0.44400004
-0.049448986 -0.048913017 0.44400004
-0.048294004 -0.048913017 0.44400004
-0.047139026 -0.048913017 0.44400004
-0.045984048 -0.048913017 0.44400004
-0.044829071 -0.048913017 0.44400004
-0.043674093 -0.048913017 0.44400004
-0.042614877 -0.049023177 0.44500002
-0.041457299 -0.049023177 0.44500002
-0.040299717 -0.049023177 0.44500002
-0.039142139 -0.049023177 0.44500002
-0.037984557 -0.049023177 0.44500002
-0.036826979 -0.049023177 0.44500002
-0.035669401 -0.049023177 0.44500002
-0.034511819 -0.049023177 0.44500002
-0.033354241 -0.049023177 0.44500002
-0.03219666 -0.049023177 0.44500002
-0.031039082 -0.049023177 0.44500002
-0.029881502 -0.049023177 0.44500002
-0.028723925 -0.049023177 0.44500002
-0.027566345 -0.049023177 0.44500002
-0.026468109 -0.049133342 0.44600001
-0.025251186 -0.049023177 0.44500002
-0.024093606 -0.049023177 0.44500002
-0.022987567 -0.049133342 0.44600001
-0.021827387 -0.049133342 0.44600001
-0.020667205 -0.049133342 0.44600001
-0.019507026 -0.049133342 0.44600001
-0.018346844 -0.049133342 0.44600001
-0.017186662 -0.049133342 0.44600001
-0.01599055 -0.049023177 0.44500002
-0.01483297 -0.049023177 0.44500002
-0.013675391 -0.049023177 0.44500002
-0.012517811 -0.049023177 0.44500002
-0.011360232 -0.049023177 0.44500002
-0.010179725 -0.048913017 0.44400004
-0.0090247467 -0.048913017 0.44400004
-0.0078697689 -0.048913017 0.44400004
-0.0067147911 -0.048913017 0.44400004
-0.0055472902 -0.048802849 0.44300002
-0.004394914 -0.048802849 0.44300002
-0.0032425369 -0.048802849 0.44300002
-0.00209016 -0.048802849 0.44300002
-0.00093566632 -0.048692685 0.44200003
0.0002141092 -0.048692685 0.44200003
0.0013638848 -0.048692685 0.44200003
0.0025079732 -0.04858252 0.44100001
0.003646859 -0.048472356 0.44000003
0.0047696526 -0.048252027 0.43800002
0.0058820415 -0.048031699 0.43600002
0.0069679325 -0.047701206 0.43300003
0.0080569088 -0.047480877 0.43100002
0.00913548 -0.047260549 0.42900002
0.010251439 -0.047260549 0.42900002
0.0113409 -0.047150385 0.42800003
0.012454258 -0.047150385 0.42800003
0.013567615 -0.047150385 0.42800003
0.014680973 -0.047150385 0.42800003
0.015794329 -0.047150385 0.42800003
0.016947191 -0.047260549 0.42900002
0.018105255 -0.047370709 0.43000001
0.019223813 -0.047370709 0.43000001
0.020295067 -0.047260549 0.42900002
0.021361116 -0.047150385 0.42800003
0.022421962 -0.047040217 0.42700002
0.023477608 -0.046930056 0.42600003
0.024528049 -0.046819888 0.42500001
0.025573287 -0.046709727 0.42400002
0.026676241 -0.046709727 0.42400002
0.027713673 -0.046599559 0.42300001
0.028814023 -0.046599559 0.42300001
0.029914375 -0.046599559 0.42300001
0.030941406 -0.046489395 0.42200002
0.032115079 -0.046599559 0.42300001
0.033372477 -0.046819888 0.42500001
0.03903969 -0.048362192 0.43900001
0.040456254 -0.048692685 0.44200003
0.041700162 -0.048802849 0.44300002
0.043046001 -0.049023177 0.44500002
0.044203579 -0.049023177 0.44500002
0.045361161 -0.049023177 0.44500002
0.046518739 -0.049023177 0.44500002
0.047783457 -0.049133342 0.44600001
0.048943639 -0.049133342 0.44600001
0.050103817 -0.049133342 0.44600001
0.051378939 -0.04924351 0.44700003
0.052541722 -0.04924351 0.44700003
0.053704504 -0.04924351 0.44700003
0.054867286 -0.04924351 0.44700003
0.056030069 -0.04924351 0.44700003
0.057192855 -0.04924351 0.44700003
0.05822508 -0.049133342 0.44600001
0.059385266 -0.049133342 0.44600001
0.060545444 -0.049133342 0.44600001
0.061705623 -0.049133342 0.44600001
0.062865809 -0.049133342 0.44600001
0.064025983 -0.049133342 0.44600001
0.065186165 -0.049133342 0.44600001
0.066346347 -0.049133342 0.44600001
0.067506529 -0.049133342 0.44600001
0.068666711 -0.049133342 0.44600001
0.069983453 -0.04924351 0.44700003
0.071146235 -0.04924351 0.44700003
0.072309017 -0.04924351 0.44700003
0.073307432 -0.049133342 0.44600001
0.074467614 -0.049133342 0.44600001
0.075627796 -0.049133342 0.44600001
0.076787971 -0.049133342 0.44600001
0.077948153 -0.049133342 0.44600001
0.079108335 -0.049133342 0.44600001
0.080268517 -0.049133342 0.44600001
0.081428699 -0.049133342 0.44600001
0.082588874 -0.049133342 0.44600001
0.083749056 -0.049133342 0.44600001
0.084909238 -0.049133342 0.44600001
0.08606942 -0.049133342 0.44600001
0.087229602 -0.049133342 0.44600001
0.088389777 -0.049133342 0.44600001
0.089549966 -0.049133342 0.44600001
0.090710141 -0.049133342 0.44600001
0.091870323 -0.049133342 0.44600001
0.093030505 -0.049133342 0.44600001
0.094190679 -0.049133342 0.44600001
0.095350869 -0.049133342 0.44600001
0.096511044 -0.049133342 0.44600001
0.097890221 -0.04924351 0.44700003
0.099053003 -0.04924351 0.44700003
0.10021579 -0.04924351 0.44700003
0.10137857 -0.04924351 0.44700003
0.10254135 -0.04924351 0.44700003
0.10370414 -0.04924351 0.44700003
0.10486691 -0.04924351 0.44700003
0.1060297 -0.04924351 0.44700003
0.10719248 -0.04924351 0.44700003
0.10835526 -0.04924351 0.44700003
0.10951804 -0.04924351 0.44700003
0.11068083 -0.04924351 0.44700003
0.1118436 -0.04924351 0.44700003
0.11300638 -0.04924351 0.44700003
0.11416917 -0.04924351 0.44700003
0.11533196 -0.04924351 0.44700003
0.11649474 -0.04924351 0.44700003
0.11792073 -0.04935367 0.44800001
0.11908612 -0.04935367 0.44800001
0.1202515 -0.04935367 0.44800001
0.12141688 -0.04935367 0.44800001
0.12258226 -0.04935367 0.44800001
0.12374764 -0.04935367 0.44800001
0.12491304 -0.04935367 0.44800001
0.12607841 -0.04935367 0.44800001
0.1272438 -0.04935367 0.44800001
0.12840918 -0.04935367 0.44800001
0.12957455 -0.04935367 0.44800001
0.13044813 -0.04924351 0.44700003
0.1316109 -0.04924351 0.44700003
0.13277368 -0.04924351 0.44700003
0.13393646 -0.04924351 0.44700003
0.13509925 -0.04924351 0.44700003
0.13626203 -0.04924351 0.44700003
0.13742481 -0.04924351 0.44700003
0.13858759 -0.04924351 0.44700003
0.13975038 -0.04924351 0.44700003
0.14091316 -0.04924351 0.44700003
0.14207594 -0.04924351 0.44700003
0.14355916 -0.04935367 0.44800001
0.14472455 -0.04935367 0.44800001
0.14588992 -0.04935367 0.44800001
0.14705531 -0.04935367 0.44800001
0.1482207 -0.04935367 0.44800001
0.14938608 -0.04935367 0.44800001
0.15055147 -0.04935367 0.44800001
0.15171684 -0.04935367 0.44800001
0.15288223 -0.04935367 0.44800001
0.15404762 -0.04935367 0.44800001
0.155213 -0.04935367 0.44800001
0.15637837 -0.04935367 0.44800001
0.15754376 -0.04935367 0.44800001
0.15870915 -0.04935367 0.44800001
0.15987453 -0.04935367 0.44800001
0.16103992 -0.04935367 0.44800001
0.16220529 -0.04935367 0.44800001
0.16337068 -0.04935367 0.44800001
0.16453607 -0.04935367 0.44800001
0.16570145 -0.04935367 0.44800001
0.16686682 -0.04935367 0.44800001
0.16803221 -0.04935367 0.44800001
0.16957529 -0.049463838 0.44900003
0.17074326 -0.049463838 0.44900003
0.17191124 -0.049463838 0.44900003
0.17307922 -0.049463838 0.44900003
0.17424721 -0.049463838 0.44900003
0.1754152 -0.049463838 0.44900003
0.17658319 -0.049463838 0.44900003
0.17775117 -0.049463838 0.44900003
0.17891915 -0.049463838 0.44900003
0.18008713 -0.049463838 0.44900003
0.18125513 -0.049463838 0.44900003
0.18242311 -0.049463838 0.44900003
0.1835911 -0.049463838 0.44900003
0.18475908 -0.049463838 0.44900003
0.18592705 -0.049463838 0.44900003
0.18667835 -0.04935367 0.44800001
0.18784373 -0.04935367 0.44800001
0.18900912 -0.04935367 0.44800001
0.19017449 -0.04935367 0.44800001
0.19133988 -0.04935367 0.44800001
0.19250527 -0.04935367 0.44800001
0.19367065 -0.04935367 0.44800001
0.19483602 -0.04935367 0.44800001
0.19600141 -0.04935367 0.44800001
0.1971668 -0.04935367 0.44800001
0.19833218 -0.04935367 0.44800001
0.19949757 -0.04935367 0.44800001
0.20066294 -0.04935367 0.44800001
0.20182833 -0.04935367 0.44800001
0.20299372 -0.04935367 0.44800001
0.20461482 -0.049463838 0.44900003
0.2057828 -0.049463838 0.44900003
0.20695078 -0.049463838 0.44900003
0.20811877 -0.049463838 0.44900003
0.20928676 -0.049463838 0.44900003
0.21045475 -0.049463838 0.44900003
0.21162273 -0.049463838 0.44900003
0.2127907 -0.049463838 0.44900003
0.2139587 -0.049463838 0.44900003
0.21512668 -0.049463838 0.44900003
-0.24475245 -0.047112659 0.43800002
-0.24361306 -0.047112659 0.43800002
-0.24247371 -0.047112659 0.43800002
-0.24133433 -0.047112659 0.43800002
-0.24019498 -0.047112659 0.43800002
-0.23905559 -0.047112659 0.43800002
-0.23791622 -0.047112659 0.43800002
-0.23677686 -0.047112659 0.43800002
-0.23617546 -0.047220219 0.43900001
-0.2350335 -0.047220219 0.43900001
-0.23335874 -0.047112659 0.43800002
-0.23274954 -0.047220219 0.43900001
-0.23108001 -0.047112659 0.43800002
-0.23046561 -0.047220219 0.43900001
-0.22932364 -0.047220219 0.43900001
-0.22818166 -0.047220219 0.43900001
-0.22703968 -0.047220219 0.43900001
-0.22589773 -0.047220219 0.43900001
-0.22475575 -0.047220219 0.43900001
-0.22361378 -0.047220219 0.43900001
-0.22196504 -0.047112659 0.43800002
-0.22082566 -0.047112659 0.43800002
-0.21968631 -0.047112659 0.43800002
-0.21854693 -0.047112659 0.43800002
-0.21740755 -0.047112659 0.43800002
-0.2162682 -0.047112659 0.43800002
-0.21512882 -0.047112659 0.43800002
-0.21398945 -0.047112659 0.43800002
-0.21285008 -0.047112659 0.43800002
-0.21219406 -0.047220219 0.43900001
-0.21105209 -0.047220219 0.43900001
-0.20991012 -0.047220219 0.43900001
-0.20876814 -0.047220219 0.43900001
-0.20762618 -0.047220219 0.43900001
-0.2064842 -0.047220219 0.43900001
-0.20534223 -0.047220219 0.43900001
-0.20466541 -0.047327783 0.44000003
-0.20305829 -0.047220219 0.43900001
-0.20191632 -0.047220219 0.43900001
-0.20077434 -0.047220219 0.43900001
-0.19963238 -0.047220219 0.43900001
-0.1984904 -0.047220219 0.43900001
-0.19734843 -0.047220219 0.43900001
-0.19620645 -0.047220219 0.43900001
-0.19506449 -0.047220219 0.43900001
-0.19392252 -0.047220219 0.43900001
-0.19278054 -0.047220219 0.43900001
-0.19163857 -0.047220219 0.43900001
-0.19049659 -0.047220219 0.43900001
-0.18935463 -0.047220219 0.43900001
-0.18821266 -0.047220219 0.43900001
-0.18707068 -0.047220219 0.43900001
-0.18592872 -0.047220219 0.43900001
-0.18478674 -0.047220219 0.43900001
-0.18364477 -0.047220219 0.43900001
-0.18250281 -0.047220219 0.43900001
-0.18136083 -0.047220219 0.43900001
-0.18021886 -0.047220219 0.43900001
-0.17948481 -0.047327783 0.44000003
-0.17834024 -0.047327783 0.44000003
-0.17719565 -0.047327783 0.44000003
-0.1760511 -0.047327783 0.44000003
-0.17490652 -0.047327783 0.44000003
-0.17376195 -0.047327783 0.44000003
-0.17261738 -0.047327783 0.44000003
-0.17147279 -0.047327783 0.44000003
-0.17032823 -0.047327783 0.44000003
-0.16918366 -0.047327783 0.44000003
-0.16803908 -0.047327783 0.44000003
-0.16689451 -0.047327783 0.44000003
-0.16574994 -0.047327783 0.44000003
-0.16460536 -0.047327783 0.44000003
-0.16346079 -0.047327783 0.44000003
-0.16231622 -0.047327783 0.44000003
-0.16117164 -0.047327783 0.44000003
-0.16002707 -0.047327783 0.44000003
-0.1588825 -0.047327783 0.44000003
-0.15809642 -0.047435347 0.44100001
-0.15694925 -0.047435347 0.44100001
-0.15580206 -0.047435347 0.44100001
-0.15465489 -0.047435347 0.44100001
-0.15350772 -0.047435347 0.44100001
-0.15236054 -0.047435347 0.44100001
-0.15121338 -0.047435347 0.44100001
-0.1500662 -0.047435347 0.44100001
-0.14891902 -0.047435347 0.44100001
-0.14743677 -0.047327783 0.44000003
-0.14629219 -0.047327783 0.44000003
-0.14514762 -0.047327783 0.44000003
-0.14400305 -0.047327783 0.44000003
-0.14285848 -0.047327783 0.44000003
-0.1417139 -0.047327783 0.44000003
-0.14056933 -0.047327783 0.44000003
-0.13942477 -0.047327783 0.44000003
-0.13859445 -0.047435347 0.44100001
-0.13744728 -0.047435347 0.44100001
-0.1363001 -0.047435347 0.44100001
-0.13515294 -0.047435347 0.44100001
-0.13400576 -0.047435347 0.44100001
-0.13285857 -0.047435347 0.44100001
-0.13171141 -0.047435347 0.44100001
-0.13056424 -0.047435347 0.44100001
-0.12941706 -0.047435347 0.44100001
-0.12826988 -0.047435347 0.44100001
-0.12712272 -0.047435347 0.44100001
-0.12597553 -0.047435347 0.44100001
-0.12482837 -0.047435347 0.44100001
-0.1236812 -0.047435347 0.44100001
-0.12253401 -0.047435347 0.44100001
-0.12138684 -0.047435347 0.44100001
-0.12023967 -0.047435347 0.44100001
-0.11909249 -0.047435347 0.44100001
-0.11794532 -0.047435347 0.44100001
-0.11679814 -0.047435347 0.44100001
-0.11565097 -0.047435347 0.44100001
-0.11476345 -0.047542911 0.44200003
-0.11361367 -0.047542911 0.44200003
-0.11246389 -0.047542911 0.44200003
-0.11131412 -0.047542911 0.44200003
-0.11016434 -0.047542911 0.44200003
-0.10901457 -0.047542911 0.44200003
-0.10762075 -0.047435347 0.44100001
-0.10647358 -0.047435347 0.44100001
-0.1053264 -0.047435347 0.44100001
-0.10417923 -0.047435347 0.44100001
-0.10303206 -0.047435347 0.44100001
-0.10188488 -0.047435347 0.44100001
-0.10073771 -0.047435347 0.44100001
-0.099590532 -0.047435347 0.44100001
-0.098443359 -0.047435347 0.44100001
-0.097296186 -0.047435347 0.44100001
-0.096367039 -0.047542911 0.44200003
-0.095217265 -0.047542911 0.44200003
-0.094067484 -0.047542911 0.44200003
-0.092917711 -0.047542911 0.44200003
-0.091767929 -0.047542911 0.44200003
-0.090618156 -0.047542911 0.44200003
-0.08946839 -0.047542911 0.44200003
-0.088518418 -0.047650471 0.44300002
-0.087366045 -0.047650471 0.44300002
-0.086213663 -0.047650471 0.44300002
-0.085061289 -0.047650471 0.44300002
-0.083908908 -0.047650471 0.44300002
-0.082756534 -0.047650471 0.44300002
-0.08160416 -0.047650471 0.44300002
-0.080451779 -0.047650471 0.44300002
-0.079299405 -0.047650471 0.44300002
-0.078323431 -0.047758035 0.44400004
-0.077168457 -0.047758035 0.44400004
-0.076013483 -0.047758035 0.44400004
-0.074858502 -0.047758035 0.44400004
-0.073537529 -0.047650471 0.44300002
-0.072548546 -0.047758035 0.44400004
-0.071393572 -0.047758035 0.44400004
-0.070080392 -0.047650471 0.44300002
-0.068928018 -0.047650471 0.44300002
-0.067775644 -0.047650471 0.44300002
-0.066623263 -0.047650471 0.44300002
-0.065470889 -0.047650471 0.44300002
-0.064318508 -0.047650471 0.44300002
-0.063166134 -0.047650471 0.44300002
-0.062013753 -0.047650471 0.44300002
-0.060998764 -0.047758035 0.44400004
-0.05984379 -0.047758035 0.44400004
-0.058688808 -0.047758035 0.44400004
-0.05753383 -0.047758035 0.44400004
-0.056378849 -0.047758035 0.44400004
-0.055223875 -0.047758035 0.44400004
-0.054068897 -0.047758035 0.44400004
-0.052913915 -0.047758035 0.44400004
-0.051758938 -0.047758035 0.44400004
-0.050603963 -0.047758035 0.44400004
-0.049448986 -0.047758035 0.44400004
-0.048294004 -0.047758035 0.44400004
-0.047139026 -0.047758035 0.44400004
-0.045984048 -0.047758035 0.44400004
-0.044829071 -0.047758035 0.44400004
-0.043674093 -0.047758035 0.44400004
-0.042614877 -0.047865599 0.44500002
-0.041457299 -0.047865599 0.44500002
-0.040299717 -0.047865599 0.44500002
-0.039142139 -0.047865599 0.44500002
-0.037984557 -0.047865599 0.44500002
-0.036826979 -0.047865599 0.44500002
-0.035669401 -0.047865599 0.44500002
-0.034511819 -0.047865599 0.44500002
-0.033354241 -0.047865599 0.44500002
-0.03219666 -0.047865599 0.44500002
-0.031039082 -0.047865599 0.44500002
-0.029881502 -0.047865599 0.44500002
-0.028723925 -0.047865599 0.44500002
-0.027566345 -0.047865599 0.44500002
-0.026408765 -0.047865599 0.44500002
-0.025251186 -0.047865599 0.44500002
-0.024093606 -0.047865599 0.44500002
-0.022987567 -0.04797316 0.44600001
-0.021827387 -0.04797316 0.44600001
-0.020667205 -0.04797316 0.44600001
-0.019507026 -0.04797316 0.44600001
-0.018346844 -0.04797316 0.44600001
-0.017186662 -0.04797316 0.44600001
-0.016026484 -0.04797316 0.44600001
-0.014866302 -0.04797316 0.44600001
-0.013675391 -0.047865599 0.44500002
-0.012517811 -0.047865599 0.44500002
-0.011360232 -0.047865599 0.44500002
-0.010202653 -0.047865599 0.44500002
-0.0090247467 -0.047758035 0.44400004
-0.0078697689 -0.047758035 0.44400004
-0.0067147911 -0.047758035 0.44400004
-0.0055472902 -0.047650471 0.44300002
-0.004394914 -0.047650471 0.44300002
-0.0032425369 -0.047650471 0.44300002
-0.00209016 -0.047650471 0.44300002
-0.00093778322 -0.047650471 0.44300002
0.0002141092 -0.047542911 0.44200003
0.0013638848 -0.047542911 0.44200003
0.0025079732 -0.047435347 0.44100001
0.003646859 -0.047327783 0.44000003
