# .PCD v0.7 - Point Cloud Data file format
VERSION 0.7
FIELDS x y z
SIZE 4 4 4
TYPE F F F
COUNT 1 1 1
WIDTH 1343
HEIGHT 1
VIEWPOINT 0 0 0 1 0 0 0
POINTS 1343
DATA ascii
0.13413665 -0.029965373 0.38000003
0.13512734 -0.029965373 0.38000003
0.1357598 -0.029886514 0.37900001
0.13674788 -0.029886514 0.37900001
0.13773596 -0.029886514 0.37900001
0.13835801 -0.029807659 0.37800002
0.13971211 -0.029886514 0.37900001
0.14070019 -0.029886514 0.37900001
0.14168827 -0.029886514 0.37900001
0.14267634 -0.029886514 0.37900001
0.14404349 -0.029965373 0.38000003
0.14503416 -0.029965373 0.38000003
0.14602485 -0.029965373 0.38000003
0.14701554 -0.029965373 0.38000003
0.1483957 -0.030044228 0.38100001
0.149389 -0.030044228 0.38100001
0.1503823 -0.030044228 0.38100001
0.15137559 -0.030044228 0.38100001
0.15236887 -0.030044228 0.38100001
0.15336217 -0.030044228 0.38100001
0.15435545 -0.030044228 0.38100001
0.1557565 -0.030123085 0.38200003
0.15675239 -0.030123085 0.38200003
0.1577483 -0.030123085 0.38200003
0.15874419 -0.030123085 0.38200003
0.16015825 -0.03020194 0.38300002
0.16115674 -0.03020194 0.38300002
0.16215526 -0.03020194 0.38300002
0.16315377 -0.03020194 0.38300002
0.16415226 -0.03020194 0.38300002
0.16558199 -0.030280795 0.384
0.16658309 -0.030280795 0.384
0.16758421 -0.030280795 0.384
0.16858532 -0.030280795 0.384
0.17002806 -0.030359654 0.38500002
0.17103177 -0.030359654 0.38500002
0.1720355 -0.030359654 0.38500002
0.17303921 -0.030359654 0.38500002
0.17404294 -0.030359654 0.38500002
0.25621825 -0.043686356 0.55400002
0.25766259 -0.043686356 0.55400002
0.25910687 -0.043686356 0.55400002
0.26102149 -0.043765213 0.55500001
0.26246843 -0.043765213 0.55500001
0.26391536 -0.043765213 0.55500001
-0.24112488 -0.0325584 0.42700002
-0.24001166 -0.0325584 0.42700002
-0.23889846 -0.0325584 0.42700002
-0.23778522 -0.0325584 0.42700002
-0.23667201 -0.0325584 0.42700002
-0.23611048 -0.032634649 0.42800003
-0.23444557 -0.0325584 0.42700002
-0.23333237 -0.0325584 0.42700002
-0.23221914 -0.0325584 0.42700002
-0.23164718 -0.032634649 0.42800003
-0.23053133 -0.032634649 0.42800003
-0.22941552 -0.032634649 0.42800003
-0.22883311 -0.032710899 0.42900002
-0.22771469 -0.032710899 0.42900002
-0.22659624 -0.032710899 0.42900002
-0.22600339 -0.032787144 0.43000001
-0.22488236 -0.032787144 0.43000001
-0.22376134 -0.032787144 0.43000001
-0.22315806 -0.032863397 0.43100002
-0.22203442 -0.032863397 0.43100002
-0.22091079 -0.032863397 0.43100002
-0.22029705 -0.032939643 0.43200001
-0.21917081 -0.032939643 0.43200001
-0.21804456 -0.032939643 0.43200001
-0.21742046 -0.033015896 0.43300003
-0.21629159 -0.033015896 0.43300003
-0.21565963 -0.033092145 0.43400002
-0.21452817 -0.033092145 0.43400002
-0.2133967 -0.033092145 0.43400002
-0.21226525 -0.033092145 0.43400002
-0.21162027 -0.033168394 0.43500003
-0.21048619 -0.033168394 0.43500003
-0.20935212 -0.033168394 0.43500003
-0.20821804 -0.033168394 0.43500003
-0.20708397 -0.033168394 0.43500003
-0.2059499 -0.033168394 0.43500003
-0.20481583 -0.033168394 0.43500003
-0.20368175 -0.033168394 0.43500003
-0.20254768 -0.033168394 0.43500003
-0.20187663 -0.033244643 0.43600002
-0.20073995 -0.033244643 0.43600002
-0.19960326 -0.033244643 0.43600002
-0.1984666 -0.033244643 0.43600002
-0.19732991 -0.033244643 0.43600002
-0.19619322 -0.033244643 0.43600002
-0.19505654 -0.033244643 0.43600002
-0.19436462 -0.033320889 0.43700001
-0.19322535 -0.033320889 0.43700001
-0.19208606 -0.033320889 0.43700001
-0.19094677 -0.033320889 0.43700001
-0.19024183 -0.033397142 0.43800002
-0.18909994 -0.033397142 0.43800002
-0.18795805 -0.033397142 0.43800002
-0.18681616 -0.033397142 0.43800002
-0.18609816 -0.033473387 0.43900001
-0.18495367 -0.033473387 0.43900001
-0.18422787 -0.03354964 0.44000003
-0.18308076 -0.03354964 0.44000003
-0.18234713 -0.033625886 0.44100001
-0.18119742 -0.033625886 0.44100001
-0.18045598 -0.033702139 0.44200003
-0.17930366 -0.033702139 0.44200003
-0.17815134 -0.033702139 0.44200003
-0.17739946 -0.033778384 0.44300002
-0.17624454 -0.033778384 0.44300002
-0.17548485 -0.033854637 0.44400004
-0.17432731 -0.033854637 0.44400004
-0.17316978 -0.033854637 0.44400004
-0.17239965 -0.033930883 0.44500002
-0.17123951 -0.033930883 0.44500002
-0.17007935 -0.033930883 0.44500002
-0.16929881 -0.034007132 0.44600001
-0.16813605 -0.034007132 0.44600001
-0.16697331 -0.034007132 0.44600001
-0.16618232 -0.034083385 0.44700003
-0.16501698 -0.034083385 0.44700003
-0.16385162 -0.034083385 0.44700003
-0.16268626 -0.034083385 0.44700003
-0.1615209 -0.034083385 0.44700003
-0.16035555 -0.034083385 0.44700003
-0.15919019 -0.034083385 0.44700003
-0.15837836 -0.034159631 0.44800001
-0.15721038 -0.034159631 0.44800001
-0.15604241 -0.034159631 0.44800001
-0.15487446 -0.034159631 0.44800001
-0.15370649 -0.034159631 0.44800001
-0.15253852 -0.034159631 0.44800001
-0.15137056 -0.034159631 0.44800001
-0.15053788 -0.034235884 0.44900003
-0.1493673 -0.034235884 0.44900003
-0.14819674 -0.034235884 0.44900003
-0.14702617 -0.034235884 0.44900003
-0.14585559 -0.034235884 0.44900003
-0.14500725 -0.034312129 0.45000002
-0.14383408 -0.034312129 0.45000002
-0.14297792 -0.034388382 0.45100003
-0.14180213 -0.034388382 0.45100003
-0.14062636 -0.034388382 0.45100003
-0.13975976 -0.034464628 0.45200002
-0.13858138 -0.034464628 0.45200002
-0.13770697 -0.034540877 0.45300001
-0.13652597 -0.034540877 0.45300001
-0.13564375 -0.034617126 0.45400003
-0.13446015 -0.034617126 0.45400003
-0.13327654 -0.034617126 0.45400003
-0.13209294 -0.034617126 0.45400003
-0.13119766 -0.034693375 0.45500001
-0.13001145 -0.034693375 0.45500001
-0.12882523 -0.034693375 0.45500001
-0.12763901 -0.034693375 0.45500001
-0.12673073 -0.034769624 0.45600003
-0.1255419 -0.034769624 0.45600003
-0.12435309 -0.034769624 0.45600003
-0.12316426 -0.034769624 0.45600003
-0.12197544 -0.034769624 0.45600003
-0.12078662 -0.034769624 0.45600003
-0.11986008 -0.034845874 0.45700002
-0.11866865 -0.034845874 0.45700002
-0.11747722 -0.034845874 0.45700002
-0.11654025 -0.034922123 0.45800003
-0.11534622 -0.034922123 0.45800003
-0.11415218 -0.034922123 0.45800003
-0.11295815 -0.034922123 0.45800003
-0.11200813 -0.034998372 0.45900002
-0.11081149 -0.034998372 0.45900002
-0.10961485 -0.034998372 0.45900002
-0.10865441 -0.035074621 0.46000001
-0.10745516 -0.035074621 0.46000001
-0.1062559 -0.035074621 0.46000001
-0.10505666 -0.035074621 0.46000001
-0.10408319 -0.035150871 0.46100003
-0.10288133 -0.035150871 0.46100003
-0.10167947 -0.035150871 0.46100003
-0.10047762 -0.035150871 0.46100003
-0.099491112 -0.03522712 0.46200001
-0.098286651 -0.03522712 0.46200001
-0.097082183 -0.03522712 0.46200001
-0.095877722 -0.03522712 0.46200001
-0.094878182 -0.035303369 0.46300003
-0.093671113 -0.035303369 0.46300003
-0.09266375 -0.035379618 0.46400002
-0.091454066 -0.035379618 0.46400002
-0.09024439 -0.035379618 0.46400002
-0.089226596 -0.035455868 0.46500003
-0.088014312 -0.035455868 0.46500003
-0.086802028 -0.035455868 0.46500003
-0.085773811 -0.035532117 0.46600002
-0.084558919 -0.035532117 0.46600002
-0.083344027 -0.035532117 0.46600002
-0.082305372 -0.035608366 0.46700001
-0.08108788 -0.035608366 0.46700001
-0.07987038 -0.035608366 0.46700001
-0.078821301 -0.035684615 0.46800002
-0.077601202 -0.035684615 0.46800002
-0.076381087 -0.035684615 0.46800002
-0.075321577 -0.035760865 0.46900001
-0.07409887 -0.035760865 0.46900001
-0.072876155 -0.035760865 0.46900001
-0.071806222 -0.035837114 0.47000003
-0.070580907 -0.035837114 0.47000003
-0.069503151 -0.035913363 0.47100002
-0.068275221 -0.035913363 0.47100002
-0.067047298 -0.035913363 0.47100002
-0.065819368 -0.035913363 0.47100002
-0.06472858 -0.035989612 0.47200003
-0.06349805 -0.035989612 0.47200003
-0.062267516 -0.035989612 0.47200003
-0.061166286 -0.036065862 0.47300002
-0.059933148 -0.036065862 0.47300002
-0.05870001 -0.036065862 0.47300002
-0.057466868 -0.036065862 0.47300002
-0.056352615 -0.036142111 0.47400004
-0.055116866 -0.036142111 0.47400004
-0.05388112 -0.036142111 0.47400004
-0.05264537 -0.036142111 0.47400004
-0.051409625 -0.036142111 0.47400004
-0.050279729 -0.03621836 0.47500002
-0.049041368 -0.03621836 0.47500002
-0.04790365 -0.036294609 0.47600001
-0.046662688 -0.036294609 0.47600001
-0.045517154 -0.036370859 0.47700003
-0.044273585 -0.036370859 0.47700003
-0.043030016 -0.036370859 0.47700003
-0.041874047 -0.036447108 0.47800002
-0.040627867 -0.036447108 0.47800002
-0.039381694 -0.036447108 0.47800002
-0.038215298 -0.036523357 0.47900003
-0.036966518 -0.036523357 0.47900003
-0.035792299 -0.036599606 0.48000002
-0.03454091 -0.036599606 0.48000002
-0.033289514 -0.036599606 0.48000002
-0.032038126 -0.036599606 0.48000002
-0.030786736 -0.036599606 0.48000002
-0.029596878 -0.036675856 0.48100004
-0.028342882 -0.036675856 0.48100004
-0.027088882 -0.036675856 0.48100004
-0.025834886 -0.036675856 0.48100004
-0.024580888 -0.036675856 0.48100004
-0.023326891 -0.036675856 0.48100004
-0.022072893 -0.036675856 0.48100004
-0.020862177 -0.036752105 0.48200002
-0.019605571 -0.036752105 0.48200002
-0.018387035 -0.036828354 0.48300001
-0.017127825 -0.036828354 0.48300001
-0.015868613 -0.036828354 0.48300001
-0.0146094 -0.036828354 0.48300001
-0.013377829 -0.036904603 0.48400003
-0.01211601 -0.036904603 0.48400003
-0.010854192 -0.036904603 0.48400003
-0.0096121915 -0.036980852 0.48500001
-0.0083477646 -0.036980852 0.48500001
-0.0070979442 -0.037057102 0.48600003
-0.0058309115 -0.037057102 0.48600003
-0.0045638788 -0.037057102 0.48600003
-0.0033036291 -0.037133351 0.48700002
-0.0020339889 -0.037133351 0.48700002
-0.00076591852 -0.0372096 0.48800004
0.00050736615 -0.037285849 0.48900002
0.0017822203 -0.037285849 0.48900002
0.003063326 -0.037362095 0.49000001
0.0043407874 -0.037362095 0.49000001
0.0056297146 -0.037438348 0.49100003
0.0069097825 -0.037438348 0.49100003
0.0082065314 -0.037514593 0.49200001
0.0094892057 -0.037514593 0.49200001
0.010793776 -0.037590846 0.49300003
0.012079059 -0.037590846 0.49300003
0.01336434 -0.037590846 0.49300003
0.014649623 -0.037590846 0.49300003
0.015934905 -0.037590846 0.49300003
0.017220188 -0.037590846 0.49300003
0.018505471 -0.037590846 0.49300003
0.019830896 -0.037667092 0.49400002
0.021118784 -0.037667092 0.49400002
0.022406675 -0.037667092 0.49400002
0.023694564 -0.037667092 0.49400002
0.024982452 -0.037667092 0.49400002
0.026323523 -0.037743345 0.49500003
0.02761402 -0.037743345 0.49500003
0.028904516 -0.037743345 0.49500003
0.030195013 -0.037743345 0.49500003
0.031485509 -0.037743345 0.49500003
0.032842219 -0.037819594 0.49600002
0.034135323 -0.037819594 0.49600002
0.035499856 -0.03789584 0.49700001
0.036795564 -0.03789584 0.49700001
0.038091276 -0.03789584 0.49700001
0.039386984 -0.03789584 0.49700001
0.040764555 -0.037972093 0.49800003
0.042147335 -0.038048338 0.49900001
0.043448258 -0.038048338 0.49900001
0.044749185 -0.038048338 0.49900001
0.046050109 -0.038048338 0.49900001
0.047445923 -0.038124587 0.5
0.048749454 -0.038124587 0.5
0.050153099 -0.03820084 0.50100005
0.051459238 -0.03820084 0.50100005
0.052765377 -0.03820084 0.50100005
0.054071516 -0.03820084 0.50100005
0.055488188 -0.03827709 0.50200003
0.056796931 -0.03827709 0.50200003
0.05822143 -0.038353335 0.50300002
0.05953278 -0.038353335 0.50300002
0.060965095 -0.038429584 0.50400001
0.062279053 -0.038429584 0.50400001
0.063593015 -0.038429584 0.50400001
0.065035753 -0.038505834 0.505
0.066352323 -0.038505834 0.505
0.067668885 -0.038505834 0.505
0.069122069 -0.038582087 0.50600004
0.070441239 -0.038582087 0.50600004
0.071760423 -0.038582087 0.50600004
0.073079593 -0.038582087 0.50600004
0.074398771 -0.038582087 0.50600004
0.075717941 -0.038582087 0.50600004
0.077037118 -0.038582087 0.50600004
0.078356288 -0.038582087 0.50600004
0.079675466 -0.038582087 0.50600004
0.080994636 -0.038582087 0.50600004
0.082313813 -0.038582087 0.50600004
0.083467692 -0.038505834 0.505
0.08461637 -0.038429584 0.50400001
0.085759841 -0.038353335 0.50300002
0.086724989 -0.03820084 0.50100005
0.087679707 -0.038048338 0.49900001
0.088623993 -0.03789584 0.49700001
0.090114221 -0.037438348 0.49100003
0.091022015 -0.037285849 0.48900002
0.091541879 -0.036980852 0.48500001
0.091849543 -0.036599606 0.48000002
0.092519052 -0.036370859 0.47700003
0.092976347 -0.036065862 0.47300002
0.093412794 -0.035760865 0.46900001
0.09382838 -0.035455868 0.46500003
0.094427496 -0.03522712 0.46200001
0.095217966 -0.035074621 0.46000001
0.095998019 -0.034922123 0.45800003
0.096979842 -0.034845874 0.45700002
0.097741634 -0.034693375 0.45500001
0.098710433 -0.034617126 0.45400003
0.099674001 -0.034540877 0.45300001
0.10063236 -0.034464628 0.45200002
0.10158551 -0.034388382 0.45100003
0.10253344 -0.034312129 0.45000002
0.10347617 -0.034235884 0.44900003
0.10464673 -0.034235884 0.44900003
0.10558163 -0.034159631 0.44800001
0.10674959 -0.034159631 0.44800001
0.10767668 -0.034083385 0.44700003
0.10884204 -0.034083385 0.44700003
0.1100074 -0.034083385 0.44700003
0.11092404 -0.034007132 0.44600001
0.11208678 -0.034007132 0.44600001
0.11324954 -0.034007132 0.44600001
0.11415575 -0.033930883 0.44500002
0.11505678 -0.033854637 0.44400004
0.11621431 -0.033854637 0.44400004
0.11710749 -0.033778384 0.44300002
0.11799547 -0.033702139 0.44200003
0.11887822 -0.033625886 0.44100001
0.11975577 -0.03354964 0.44000003
0.12035331 -0.033397142 0.43800002
0.12149521 -0.033397142 0.43800002
0.12207711 -0.033244643 0.43600002
0.1229312 -0.033168394 0.43500003
0.12378005 -0.033092145 0.43400002
0.12491152 -0.033092145 0.43400002
0.12575257 -0.033015896 0.43300003
0.12658839 -0.032939643 0.43200001
0.12712339 -0.032787144 0.43000001
0.12794617 -0.032710899 0.42900002
0.12876377 -0.032634649 0.42800003
0.12562913 -0.031033415 0.40700001
0.12438146 -0.029965926 0.39300001
0.12476784 -0.029813429 0.39100003
0.1251438 -0.029660931 0.38900003
0.12615794 -0.029660931 0.38900003
0.12684517 -0.029584682 0.38800001
0.1278567 -0.029584682 0.38800001
0.12853611 -0.029508432 0.38700002
0.12921031 -0.029432181 0.38600001
0.13021663 -0.029432181 0.38600001
0.13088301 -0.029355934 0.38500002
0.13154414 -0.029279683 0.384
0.13254526 -0.029279683 0.384
0.1331986 -0.029203435 0.38300002
0.13384673 -0.029127186 0.38200003
0.13448963 -0.029050937 0.38100001
0.13548292 -0.029050937 0.38100001
0.13611801 -0.028974688 0.38000003
0.1371087 -0.028974688 0.38000003
0.13773596 -0.028898438 0.37900001
0.13872403 -0.028898438 0.37900001
0.13971211 -0.028898438 0.37900001
0.14070019 -0.028898438 0.37900001
0.14168827 -0.028898438 0.37900001
0.1430528 -0.028974688 0.38000003
0.14404349 -0.028974688 0.38000003
0.14503416 -0.028974688 0.38000003
0.14602485 -0.028974688 0.38000003
0.14701554 -0.028974688 0.38000003
0.1483957 -0.029050937 0.38100001
0.149389 -0.029050937 0.38100001
0.1503823 -0.029050937 0.38100001
0.15137559 -0.029050937 0.38100001
0.15236887 -0.029050937 0.38100001
0.15336217 -0.029050937 0.38100001
0.15435545 -0.029050937 0.38100001
0.1557565 -0.029127186 0.38200003
0.15675239 -0.029127186 0.38200003
0.1577483 -0.029127186 0.38200003
0.15874419 -0.029127186 0.38200003
0.16015825 -0.029203435 0.38300002
0.16115674 -0.029203435 0.38300002
0.16215526 -0.029203435 0.38300002
0.16357975 -0.029279683 0.384
0.16458087 -0.029279683 0.384
0.16558199 -0.029279683 0.384
0.16658309 -0.029279683 0.384
0.16758421 -0.029279683 0.384
0.16902435 -0.029355934 0.38500002
0.17002806 -0.029355934 0.38500002
0.17103177 -0.029355934 0.38500002
0.1720355 -0.029355934 0.38500002
0.17303921 -0.029355934 0.38500002
0.17404294 -0.029355934 0.38500002
0.25575578 -0.042165797 0.55300003
0.25766259 -0.042242043 0.55400002
0.25910687 -0.042242043 0.55400002
0.26055121 -0.042242043 0.55400002
0.26199552 -0.042242043 0.55400002
0.26391536 -0.042318292 0.55500001
-0.24112488 -0.031445179 0.42700002
-0.24001166 -0.031445179 0.42700002
-0.23889846 -0.031445179 0.42700002
-0.23778522 -0.031445179 0.42700002
-0.23667201 -0.031445179 0.42700002
-0.23611048 -0.031518824 0.42800003
-0.23444557 -0.031445179 0.42700002
-0.23333237 -0.031445179 0.42700002
-0.23221914 -0.031445179 0.42700002
-0.23164718 -0.031518824 0.42800003
-0.23053133 -0.031518824 0.42800003
-0.22941552 -0.031518824 0.42800003
-0.22883311 -0.031592466 0.42900002
-0.22771469 -0.031592466 0.42900002
-0.22659624 -0.031592466 0.42900002
-0.22600339 -0.031666107 0.43000001
-0.22488236 -0.031666107 0.43000001
-0.22376134 -0.031666107 0.43000001
-0.22315806 -0.031739749 0.43100002
-0.22203442 -0.031739749 0.43100002
-0.22091079 -0.031739749 0.43100002
-0.22029705 -0.031813391 0.43200001
-0.21917081 -0.031813391 0.43200001
-0.21804456 -0.031813391 0.43200001
-0.21742046 -0.031887032 0.43300003
-0.21629159 -0.031887032 0.43300003
-0.21565963 -0.031960674 0.43400002
-0.21452817 -0.031960674 0.43400002
-0.2133967 -0.031960674 0.43400002
-0.21275434 -0.032034319 0.43500003
-0.21162027 -0.032034319 0.43500003
-0.21048619 -0.032034319 0.43500003
-0.20935212 -0.032034319 0.43500003
-0.20821804 -0.032034319 0.43500003
-0.20708397 -0.032034319 0.43500003
-0.2059499 -0.032034319 0.43500003
-0.20481583 -0.032034319 0.43500003
-0.20368175 -0.032034319 0.43500003
-0.20254768 -0.032034319 0.43500003
-0.20141362 -0.032034319 0.43500003
-0.20073995 -0.03210796 0.43600002
-0.19960326 -0.03210796 0.43600002
-0.1984666 -0.03210796 0.43600002
-0.19732991 -0.03210796 0.43600002
-0.19619322 -0.03210796 0.43600002
-0.19505654 -0.03210796 0.43600002
-0.19436462 -0.032181602 0.43700001
-0.19322535 -0.032181602 0.43700001
-0.19208606 -0.032181602 0.43700001
-0.19094677 -0.032181602 0.43700001
-0.19024183 -0.032255244 0.43800002
-0.18909994 -0.032255244 0.43800002
-0.18795805 -0.032255244 0.43800002
-0.18724267 -0.032328885 0.43900001
-0.18609816 -0.032328885 0.43900001
-0.18495367 -0.032328885 0.43900001
-0.18422787 -0.032402527 0.44000003
-0.18308076 -0.032402527 0.44000003
-0.18234713 -0.032476168 0.44100001
-0.18119742 -0.032476168 0.44100001
-0.18045598 -0.032549813 0.44200003
-0.17930366 -0.032549813 0.44200003
-0.17815134 -0.032549813 0.44200003
-0.17739946 -0.032623455 0.44300002
-0.17624454 -0.032623455 0.44300002
-0.17548485 -0.032697096 0.44400004
-0.17432731 -0.032697096 0.44400004
-0.17316978 -0.032697096 0.44400004
-0.17239965 -0.032770738 0.44500002
-0.17123951 -0.032770738 0.44500002
-0.17046155 -0.03284438 0.44600001
-0.16929881 -0.03284438 0.44600001
-0.16813605 -0.03284438 0.44600001
-0.1673477 -0.032918021 0.44700003
-0.16618232 -0.032918021 0.44700003
-0.16501698 -0.032918021 0.44700003
-0.16385162 -0.032918021 0.44700003
-0.16268626 -0.032918021 0.44700003
-0.1615209 -0.032918021 0.44700003
-0.16035555 -0.032918021 0.44700003
-0.15919019 -0.032918021 0.44700003
-0.15837836 -0.032991663 0.44800001
-0.15721038 -0.032991663 0.44800001
-0.15604241 -0.032991663 0.44800001
-0.15487446 -0.032991663 0.44800001
-0.15370649 -0.032991663 0.44800001
-0.15253852 -0.032991663 0.44800001
-0.15137056 -0.032991663 0.44800001
-0.15053788 -0.033065308 0.44900003
-0.1493673 -0.033065308 0.44900003
-0.14819674 -0.033065308 0.44900003
-0.14702617 -0.033065308 0.44900003
-0.14585559 -0.033065308 0.44900003
-0.14500725 -0.033138949 0.45000002
-0.14383408 -0.033138949 0.45000002
-0.14297792 -0.033212591 0.45100003
-0.14180213 -0.033212591 0.45100003
-0.14062636 -0.033212591 0.45100003
-0.13975976 -0.033286233 0.45200002
-0.13858138 -0.033286233 0.45200002
-0.13770697 -0.033359874 0.45300001
-0.13652597 -0.033359874 0.45300001
-0.13534497 -0.033359874 0.45300001
-0.13446015 -0.033433519 0.45400003
-0.13327654 -0.033433519 0.45400003
-0.13209294 -0.033433519 0.45400003
-0.13119766 -0.033507157 0.45500001
-0.13001145 -0.033507157 0.45500001
-0.12882523 -0.033507157 0.45500001
-0.12763901 -0.033507157 0.45500001
-0.1264528 -0.033507157 0.45500001
-0.1255419 -0.033580802 0.45600003
-0.12435309 -0.033580802 0.45600003
-0.12316426 -0.033580802 0.45600003
-0.12197544 -0.033580802 0.45600003
-0.12078662 -0.033580802 0.45600003
-0.11986008 -0.033654444 0.45700002
-0.11866865 -0.033654444 0.45700002
-0.11747722 -0.033654444 0.45700002
-0.11628579 -0.033654444 0.45700002
-0.11534622 -0.033728085 0.45800003
-0.11415218 -0.033728085 0.45800003
-0.11295815 -0.033728085 0.45800003
-0.11200813 -0.033801727 0.45900002
-0.11081149 -0.033801727 0.45900002
-0.10961485 -0.033801727 0.45900002
-0.10865441 -0.033875369 0.46000001
-0.10745516 -0.033875369 0.46000001
-0.1062559 -0.033875369 0.46000001
-0.10505666 -0.033875369 0.46000001
-0.10408319 -0.033949014 0.46100003
-0.10288133 -0.033949014 0.46100003
-0.10167947 -0.033949014 0.46100003
-0.10047762 -0.033949014 0.46100003
-0.099491112 -0.034022652 0.46200001
-0.098286651 -0.034022652 0.46200001
-0.097082183 -0.034022652 0.46200001
-0.095877722 -0.034022652 0.46200001
-0.094878182 -0.034096297 0.46300003
-0.093671113 -0.034096297 0.46300003
-0.09266375 -0.034169938 0.46400002
-0.091454066 -0.034169938 0.46400002
-0.09024439 -0.034169938 0.46400002
-0.089226596 -0.03424358 0.46500003
-0.088014312 -0.03424358 0.46500003
-0.086988695 -0.034317221 0.46600002
-0.085773811 -0.034317221 0.46600002
-0.084558919 -0.034317221 0.46600002
-0.083344027 -0.034317221 0.46600002
-0.082305372 -0.034390863 0.46700001
-0.08108788 -0.034390863 0.46700001
-0.07987038 -0.034390863 0.46700001
-0.078821301 -0.034464508 0.46800002
-0.077601202 -0.034464508 0.46800002
-0.076544292 -0.03453815 0.46900001
-0.075321577 -0.03453815 0.46900001
-0.07409887 -0.03453815 0.46900001
-0.073031545 -0.034611791 0.47000003
-0.071806222 -0.034611791 0.47000003
-0.070580907 -0.034611791 0.47000003
-0.069503151 -0.034685433 0.47100002
-0.068275221 -0.034685433 0.47100002
-0.067047298 -0.034685433 0.47100002
-0.065819368 -0.034685433 0.47100002
-0.06472858 -0.034759074 0.47200003
-0.06349805 -0.034759074 0.47200003
-0.062267516 -0.034759074 0.47200003
-0.061166286 -0.034832716 0.47300002
-0.059933148 -0.034832716 0.47300002
-0.05870001 -0.034832716 0.47300002
-0.057466868 -0.034832716 0.47300002
-0.056352615 -0.034906361 0.47400004
-0.055116866 -0.034906361 0.47400004
-0.05388112 -0.034906361 0.47400004
-0.05264537 -0.034906361 0.47400004
-0.051518083 -0.034980003 0.47500002
-0.050279729 -0.034980003 0.47500002
-0.049041368 -0.034980003 0.47500002
-0.04790365 -0.035053644 0.47600001
-0.046662688 -0.035053644 0.47600001
-0.045517154 -0.035127286 0.47700003
-0.044273585 -0.035127286 0.47700003
-0.043120224 -0.035200927 0.47800002
-0.041874047 -0.035200927 0.47800002
-0.040627867 -0.035200927 0.47800002
-0.039381694 -0.035200927 0.47800002
-0.038215298 -0.035274569 0.47900003
-0.036966518 -0.035274569 0.47900003
-0.035792299 -0.03534821 0.48000002
-0.03454091 -0.03534821 0.48000002
-0.033289514 -0.03534821 0.48000002
-0.032038126 -0.03534821 0.48000002
-0.030850876 -0.035421856 0.48100004
-0.029596878 -0.035421856 0.48100004
-0.028342882 -0.035421856 0.48100004
-0.027088882 -0.035421856 0.48100004
-0.025834886 -0.035421856 0.48100004
-0.024580888 -0.035421856 0.48100004
-0.023326891 -0.035421856 0.48100004
-0.022072893 -0.035421856 0.48100004
-0.020862177 -0.035495497 0.48200002
-0.019605571 -0.035495497 0.48200002
-0.018387035 -0.035569139 0.48300001
-0.017127825 -0.035569139 0.48300001
-0.015868613 -0.035569139 0.48300001
-0.0146094 -0.035569139 0.48300001
-0.013377829 -0.03564278 0.48400003
-0.01211601 -0.03564278 0.48400003
-0.010854192 -0.03564278 0.48400003
-0.0096121915 -0.035716422 0.48500001
-0.0083477646 -0.035716422 0.48500001
-0.0070979442 -0.035790063 0.48600003
-0.0058309115 -0.035790063 0.48600003
-0.0045638788 -0.035790063 0.48600003
-0.0032968456 -0.035790063 0.48600003
-0.0020339889 -0.035863705 0.48700002
-0.00076591852 -0.03593735 0.48800004
0.00050632859 -0.03593735 0.48800004
0.0017822203 -0.036010992 0.48900002
0.0030570745 -0.036010992 0.48900002
0.0043407874 -0.036084633 0.49000001
0.0056297146 -0.036158275 0.49100003
0.0069097825 -0.036158275 0.49100003
0.0082065314 -0.036231916 0.49200001
0.0094892057 -0.036231916 0.49200001
0.010793776 -0.036305562 0.49300003
0.012079059 -0.036305562 0.49300003
0.01336434 -0.036305562 0.49300003
0.014649623 -0.036305562 0.49300003
0.015934905 -0.036305562 0.49300003
0.017220188 -0.036305562 0.49300003
0.018505471 -0.036305562 0.49300003
0.019830896 -0.036379199 0.49400002
0.021118784 -0.036379199 0.49400002
0.022406675 -0.036379199 0.49400002
0.023694564 -0.036379199 0.49400002
0.024982452 -0.036379199 0.49400002
0.026323523 -0.036452845 0.49500003
0.02761402 -0.036452845 0.49500003
0.028904516 -0.036452845 0.49500003
0.030195013 -0.036452845 0.49500003
0.031485509 -0.036452845 0.49500003
0.032842219 -0.036526486 0.49600002
0.034135323 -0.036526486 0.49600002
0.035499856 -0.036600128 0.49700001
0.036795564 -0.036600128 0.49700001
0.038091276 -0.036600128 0.49700001
0.039466236 -0.036673769 0.49800003
0.040764555 -0.036673769 0.49800003
0.042147335 -0.036747411 0.49900001
0.043448258 -0.036747411 0.49900001
0.044749185 -0.036747411 0.49900001
0.046050109 -0.036747411 0.49900001
0.047445923 -0.036821052 0.5
0.048749454 -0.036821052 0.5
0.050153099 -0.036894698 0.50100005
0.051459238 -0.036894698 0.50100005
0.052765377 -0.036894698 0.50100005
0.054179441 -0.036968339 0.50200003
0.055488188 -0.036968339 0.50200003
0.056796931 -0.036968339 0.50200003
0.05822143 -0.037041981 0.50300002
0.05953278 -0.037041981 0.50300002
0.060965095 -0.037115622 0.50400001
0.062279053 -0.037115622 0.50400001
0.063593015 -0.037115622 0.50400001
0.065035753 -0.037189264 0.505
0.066352323 -0.037189264 0.505
0.067668885 -0.037189264 0.505
0.069122069 -0.037262909 0.50600004
0.070441239 -0.037262909 0.50600004
0.071760423 -0.037262909 0.50600004
0.073079593 -0.037262909 0.50600004
0.074398771 -0.037262909 0.50600004
0.075717941 -0.037262909 0.50600004
0.077037118 -0.037262909 0.50600004
0.078356288 -0.037262909 0.50600004
0.079675466 -0.037262909 0.50600004
0.080994636 -0.037262909 0.50600004
0.082313813 -0.037262909 0.50600004
0.083467692 -0.037189264 0.505
0.08461637 -0.037115622 0.50400001
0.085759841 -0.037041981 0.50300002
0.086898088 -0.036968339 0.50200003
0.087855414 -0.036821052 0.5
0.08898063 -0.036747411 0.49900001
0.089738779 -0.036526486 0.49600002
0.090481289 -0.036305562 0.49300003
0.09139429 -0.036158275 0.49100003
0.09191937 -0.035863705 0.48700002
0.092423595 -0.035569139 0.48300001
0.092713006 -0.035200927 0.47800002
0.093172923 -0.034906361 0.47400004
0.093611971 -0.034611791 0.47000003
0.09382838 -0.03424358 0.46500003
0.094427496 -0.034022652 0.46200001
0.095010974 -0.033801727 0.45900002
0.095998019 -0.033728085 0.45800003
0.096979842 -0.033654444 0.45700002
0.097741634 -0.033507157 0.45500001
0.098710433 -0.033433519 0.45400003
0.099674001 -0.033359874 0.45300001
0.10063236 -0.033286233 0.45200002
0.10158551 -0.033212591 0.45100003
0.10253344 -0.033138949 0.45000002
0.10370662 -0.033138949 0.45000002
0.10464673 -0.033065308 0.44900003
0.10581731 -0.033065308 0.44900003
0.10674959 -0.032991663 0.44800001
0.10791756 -0.032991663 0.44800001
0.10908553 -0.032991663 0.44800001
0.1100074 -0.032918021 0.44700003
0.11117275 -0.032918021 0.44700003
0.1123381 -0.032918021 0.44700003
0.11324954 -0.03284438 0.44600001
0.11441229 -0.03284438 0.44600001
0.11531591 -0.032770738 0.44500002
0.11647606 -0.032770738 0.44500002
0.11737184 -0.032697096 0.44400004
0.11826243 -0.032623455 0.44300002
0.11914779 -0.032549813 0.44200003
0.12002794 -0.032476168 0.44100001
0.12090287 -0.032402527 0.44000003
0.12177259 -0.032328885 0.43900001
0.12263709 -0.032255244 0.43800002
0.1232138 -0.03210796 0.43600002
0.12406527 -0.032034319 0.43500003
0.12491152 -0.031960674 0.43400002
0.12575257 -0.031887032 0.43300003
0.12629537 -0.031739749 0.43100002
0.12712339 -0.031666107 0.43000001
0.12764794 -0.031518824 0.42800003
0.12846291 -0.031445179 0.42700002
0.12610891 -0.028867707 0.39200002
0.12648225 -0.028720422 0.39000002
0.12717208 -0.02864678 0.38900003
0.12818624 -0.02864678 0.38900003
0.12886824 -0.028573137 0.38800001
0.12954505 -0.028499497 0.38700002
0.13021663 -0.028425854 0.38600001
0.13122295 -0.028425854 0.38600001
0.13188672 -0.028352212 0.38500002
0.13289045 -0.028352212 0.38500002
0.13354637 -0.028278569 0.384
0.13419712 -0.028204927 0.38300002
0.13484262 -0.028131286 0.38200003
0.13583852 -0.028131286 0.38200003
0.1364762 -0.028057642 0.38100001
0.1371087 -0.027984003 0.38000003
0.13809939 -0.027984003 0.38000003
0.13872403 -0.027910359 0.37900001
0.13971211 -0.027910359 0.37900001
0.14070019 -0.027910359 0.37900001
0.14168827 -0.027910359 0.37900001
0.1430528 -0.027984003 0.38000003
0.14404349 -0.027984003 0.38000003
0.14503416 -0.027984003 0.38000003
0.14602485 -0.027984003 0.38000003
0.14701554 -0.027984003 0.38000003
0.14800623 -0.027984003 0.38000003
0.1489969 -0.027984003 0.38000003
0.14998759 -0.027984003 0.38000003
0.15137559 -0.028057642 0.38100001
0.15236887 -0.028057642 0.38100001
0.15336217 -0.028057642 0.38100001
0.1547606 -0.028131286 0.38200003
0.1557565 -0.028131286 0.38200003
0.15675239 -0.028131286 0.38200003
0.1577483 -0.028131286 0.38200003
0.15915973 -0.028204927 0.38300002
0.16015825 -0.028204927 0.38300002
0.16115674 -0.028204927 0.38300002
0.16257864 -0.028278569 0.384
0.16357975 -0.028278569 0.384
0.16458087 -0.028278569 0.384
0.16558199 -0.028278569 0.384
0.16658309 -0.028278569 0.384
0.16802062 -0.028352212 0.38500002
0.16902435 -0.028352212 0.38500002
0.17002806 -0.028352212 0.38500002
0.17103177 -0.028352212 0.38500002
0.1720355 -0.028352212 0.38500002
0.17303921 -0.028352212 0.38500002
0.17404294 -0.028352212 0.38500002
0.25575578 -0.040724088 0.55300003
0.2571975 -0.040724088 0.55300003
0.25910687 -0.040797729 0.55400002
0.26055121 -0.040797729 0.55400002
0.26199552 -0.040797729 0.55400002
0.26391536 -0.040871371 0.55500001
-0.24112488 -0.030331964 0.42700002
-0.24001166 -0.030331964 0.42700002
-0.23889846 -0.030331964 0.42700002
-0.23778522 -0.030331964 0.42700002
-0.23667201 -0.030331964 0.42700002
-0.23555881 -0.030331964 0.42700002
-0.23444557 -0.030331964 0.42700002
-0.23333237 -0.030331964 0.42700002
-0.23221914 -0.030331964 0.42700002
-0.23164718 -0.030403001 0.42800003
-0.23053133 -0.030403001 0.42800003
-0.22941552 -0.030403001 0.42800003
-0.22883311 -0.030474035 0.42900002
-0.22771469 -0.030474035 0.42900002
-0.22659624 -0.030474035 0.42900002
-0.22600339 -0.030545069 0.43000001
-0.22488236 -0.030545069 0.43000001
-0.22376134 -0.030545069 0.43000001
-0.22315806 -0.030616105 0.43100002
-0.22203442 -0.030616105 0.43100002
-0.22091079 -0.030616105 0.43100002
-0.22029705 -0.030687138 0.43200001
-0.21917081 -0.030687138 0.43200001
-0.21804456 -0.030687138 0.43200001
-0.21742046 -0.030758176 0.43300003
-0.21629159 -0.030758176 0.43300003
-0.21565963 -0.03082921 0.43400002
-0.21452817 -0.03082921 0.43400002
-0.2133967 -0.03082921 0.43400002
-0.21275434 -0.030900246 0.43500003
-0.21162027 -0.030900246 0.43500003
-0.21048619 -0.030900246 0.43500003
-0.20935212 -0.030900246 0.43500003
-0.20821804 -0.030900246 0.43500003
-0.20708397 -0.030900246 0.43500003
-0.2059499 -0.030900246 0.43500003
-0.20481583 -0.030900246 0.43500003
-0.20368175 -0.030900246 0.43500003
-0.20254768 -0.030900246 0.43500003
-0.20141362 -0.030900246 0.43500003
-0.20073995 -0.030971279 0.43600002
-0.19960326 -0.030971279 0.43600002
-0.1984666 -0.030971279 0.43600002
-0.19732991 -0.030971279 0.43600002
-0.19619322 -0.030971279 0.43600002
-0.19505654 -0.030971279 0.43600002
-0.19436462 -0.031042313 0.43700001
-0.19322535 -0.031042313 0.43700001
-0.19208606 -0.031042313 0.43700001
-0.19094677 -0.031042313 0.43700001
-0.19024183 -0.031113351 0.43800002
-0.18909994 -0.031113351 0.43800002
-0.18795805 -0.031113351 0.43800002
-0.18724267 -0.031184385 0.43900001
-0.18609816 -0.031184385 0.43900001
-0.18495367 -0.031184385 0.43900001
-0.18422787 -0.03125542 0.44000003
-0.18349685 -0.031326454 0.44100001
-0.18234713 -0.031326454 0.44100001
-0.18119742 -0.031326454 0.44100001
-0.18045598 -0.031397492 0.44200003
-0.17930366 -0.031397492 0.44200003
-0.17815134 -0.031397492 0.44200003
-0.17739946 -0.031468526 0.44300002
-0.17624454 -0.031468526 0.44300002
-0.17548485 -0.031539563 0.44400004
-0.17432731 -0.031539563 0.44400004
-0.17316978 -0.031539563 0.44400004
-0.17239965 -0.031610597 0.44500002
-0.17123951 -0.031610597 0.44500002
-0.17046155 -0.031681631 0.44600001
-0.16929881 -0.031681631 0.44600001
-0.16813605 -0.031681631 0.44600001
-0.1673477 -0.031752665 0.44700003
-0.16618232 -0.031752665 0.44700003
-0.16501698 -0.031752665 0.44700003
-0.16385162 -0.031752665 0.44700003
-0.16268626 -0.031752665 0.44700003
-0.1615209 -0.031752665 0.44700003
-0.16035555 -0.031752665 0.44700003
-0.15919019 -0.031752665 0.44700003
-0.15802483 -0.031752665 0.44700003
-0.15685947 -0.031752665 0.44700003
-0.15604241 -0.031823698 0.44800001
-0.15487446 -0.031823698 0.44800001
-0.15370649 -0.031823698 0.44800001
-0.15253852 -0.031823698 0.44800001
-0.15137056 -0.031823698 0.44800001
-0.15053788 -0.031894736 0.44900003
-0.1493673 -0.031894736 0.44900003
-0.14819674 -0.031894736 0.44900003
-0.14702617 -0.031894736 0.44900003
-0.14585559 -0.031894736 0.44900003
-0.14500725 -0.03196577 0.45000002
-0.14383408 -0.03196577 0.45000002
-0.14297792 -0.032036807 0.45100003
-0.14180213 -0.032036807 0.45100003
-0.14062636 -0.032036807 0.45100003
-0.13975976 -0.032107841 0.45200002
-0.13858138 -0.032107841 0.45200002
-0.13740298 -0.032107841 0.45200002
-0.13652597 -0.032178875 0.45300001
-0.13534497 -0.032178875 0.45300001
-0.13446015 -0.032249913 0.45400003
-0.13327654 -0.032249913 0.45400003
-0.13209294 -0.032249913 0.45400003
-0.13090932 -0.032249913 0.45400003
-0.13001145 -0.032320946 0.45500001
-0.12882523 -0.032320946 0.45500001
-0.12763901 -0.032320946 0.45500001
-0.1264528 -0.032320946 0.45500001
-0.1255419 -0.03239198 0.45600003
-0.12435309 -0.03239198 0.45600003
-0.12316426 -0.03239198 0.45600003
-0.12197544 -0.03239198 0.45600003
-0.12078662 -0.03239198 0.45600003
-0.11986008 -0.032463014 0.45700002
-0.11866865 -0.032463014 0.45700002
-0.11747722 -0.032463014 0.45700002
-0.11628579 -0.032463014 0.45700002
-0.11534622 -0.032534052 0.45800003
-0.11415218 -0.032534052 0.45800003
-0.11295815 -0.032534052 0.45800003
-0.11200813 -0.032605086 0.45900002
-0.11081149 -0.032605086 0.45900002
-0.10961485 -0.032605086 0.45900002
-0.10865441 -0.032676119 0.46000001
-0.10745516 -0.032676119 0.46000001
-0.1062559 -0.032676119 0.46000001
-0.10505666 -0.032676119 0.46000001
-0.10408319 -0.032747157 0.46100003
-0.10288133 -0.032747157 0.46100003
-0.10167947 -0.032747157 0.46100003
-0.10047762 -0.032747157 0.46100003
-0.099491112 -0.032818191 0.46200001
-0.098286651 -0.032818191 0.46200001
-0.097082183 -0.032818191 0.46200001
-0.09608525 -0.032889228 0.46300003
-0.094878182 -0.032889228 0.46300003
-0.093873426 -0.032960262 0.46400002
-0.09266375 -0.032960262 0.46400002
-0.091454066 -0.032960262 0.46400002
-0.09043888 -0.033031296 0.46500003
-0.089226596 -0.033031296 0.46500003
-0.088014312 -0.033031296 0.46500003
-0.086988695 -0.03310233 0.46600002
-0.085773811 -0.03310233 0.46600002
-0.084558919 -0.03310233 0.46600002
-0.083344027 -0.03310233 0.46600002
-0.082305372 -0.033173364 0.46700001
-0.08108788 -0.033173364 0.46700001
-0.07987038 -0.033173364 0.46700001
-0.078821301 -0.033244401 0.46800002
-0.077601202 -0.033244401 0.46800002
-0.076544292 -0.033315435 0.46900001
-0.075321577 -0.033315435 0.46900001
-0.07409887 -0.033315435 0.46900001
-0.073031545 -0.033386473 0.47000003
-0.071806222 -0.033386473 0.47000003
-0.070580907 -0.033386473 0.47000003
-0.069503151 -0.033457506 0.47100002
-0.068275221 -0.033457506 0.47100002
-0.067047298 -0.033457506 0.47100002
-0.065819368 -0.033457506 0.47100002
-0.06472858 -0.033528544 0.47200003
-0.06349805 -0.033528544 0.47200003
-0.062399436 -0.033599578 0.47300002
-0.061166286 -0.033599578 0.47300002
-0.059933148 -0.033599578 0.47300002
-0.05870001 -0.033599578 0.47300002
-0.057588365 -0.033670612 0.47400004
-0.056352615 -0.033670612 0.47400004
-0.055116866 -0.033670612 0.47400004
-0.05388112 -0.033670612 0.47400004
-0.05264537 -0.033670612 0.47400004
-0.051518083 -0.033741646 0.47500002
-0.050279729 -0.033741646 0.47500002
-0.049041368 -0.033741646 0.47500002
-0.047803015 -0.033741646 0.47500002
-0.046662688 -0.033812679 0.47600001
-0.045517154 -0.033883717 0.47700003
-0.044273585 -0.033883717 0.47700003
-0.043120224 -0.033954751 0.47800002
-0.041874047 -0.033954751 0.47800002
-0.040627867 -0.033954751 0.47800002
-0.039381694 -0.033954751 0.47800002
-0.038215298 -0.034025788 0.47900003
-0.036966518 -0.034025788 0.47900003
-0.035792299 -0.034096822 0.48000002
-0.03454091 -0.034096822 0.48000002
-0.033289514 -0.034096822 0.48000002
-0.032038126 -0.034096822 0.48000002
-0.030850876 -0.03416786 0.48100004
-0.029596878 -0.03416786 0.48100004
-0.028342882 -0.03416786 0.48100004
-0.027088882 -0.03416786 0.48100004
-0.025834886 -0.03416786 0.48100004
-0.024580888 -0.03416786 0.48100004
-0.023326891 -0.03416786 0.48100004
-0.022072893 -0.03416786 0.48100004
-0.020862177 -0.034238894 0.48200002
-0.019605571 -0.034238894 0.48200002
-0.018348968 -0.034238894 0.48200002
-0.017127825 -0.034309927 0.48300001
-0.015868613 -0.034309927 0.48300001
-0.0146094 -0.034309927 0.48300001
-0.013377829 -0.034380961 0.48400003
-0.01211601 -0.034380961 0.48400003
-0.010854192 -0.034380961 0.48400003
-0.0095923729 -0.034380961 0.48400003
-0.0083477646 -0.034451995 0.48500001
-0.0070833392 -0.034451995 0.48500001
-0.0058309115 -0.034523033 0.48600003
-0.0045638788 -0.034523033 0.48600003
-0.0032968456 -0.034523033 0.48600003
-0.0020339889 -0.034594066 0.48700002
-0.00076591852 -0.034665104 0.48800004
0.00050632859 -0.034665104 0.48800004
0.0017822203 -0.034736138 0.48900002
0.0030570745 -0.034736138 0.48900002
0.0043407874 -0.034807172 0.49000001
0.0056297146 -0.034878209 0.49100003
0.0069097825 -0.034878209 0.49100003
0.0082065314 -0.034949243 0.49200001
0.0094892057 -0.034949243 0.49200001
0.010793776 -0.035020277 0.49300003
0.012079059 -0.035020277 0.49300003
0.01336434 -0.035020277 0.49300003
0.014649623 -0.035020277 0.49300003
0.015934905 -0.035020277 0.49300003
0.017220188 -0.035020277 0.49300003
0.018505471 -0.035020277 0.49300003
0.019790752 -0.035020277 0.49300003
0.021118784 -0.035091311 0.49400002
0.022406675 -0.035091311 0.49400002
0.023694564 -0.035091311 0.49400002
0.024982452 -0.035091311 0.49400002
0.026323523 -0.035162348 0.49500003
0.02761402 -0.035162348 0.49500003
0.028904516 -0.035162348 0.49500003
0.030195013 -0.035162348 0.49500003
0.031549115 -0.035233382 0.49600002
0.032842219 -0.035233382 0.49600002
0.034135323 -0.035233382 0.49600002
0.035499856 -0.035304416 0.49700001
0.036795564 -0.035304416 0.49700001
0.038091276 -0.035304416 0.49700001
0.039466236 -0.035375454 0.49800003
0.040764555 -0.035375454 0.49800003
0.042147335 -0.035446487 0.49900001
0.043448258 -0.035446487 0.49900001
0.044749185 -0.035446487 0.49900001
0.046142392 -0.035517521 0.5
0.047445923 -0.035517521 0.5
0.048749454 -0.035517521 0.5
0.050153099 -0.035588559 0.50100005
0.051459238 -0.035588559 0.50100005
0.052765377 -0.035588559 0.50100005
0.054179441 -0.035659593 0.50200003
0.055488188 -0.035659593 0.50200003
0.056910072 -0.035730626 0.50300002
0.05822143 -0.035730626 0.50300002
0.05953278 -0.035730626 0.50300002
0.060965095 -0.03580166 0.50400001
0.062279053 -0.03580166 0.50400001
0.063593015 -0.03580166 0.50400001
0.065035753 -0.035872698 0.505
0.066352323 -0.035872698 0.505
0.067668885 -0.035872698 0.505
0.069122069 -0.035943735 0.50600004
0.070441239 -0.035943735 0.50600004
0.071760423 -0.035943735 0.50600004
0.073079593 -0.035943735 0.50600004
0.074398771 -0.035943735 0.50600004
0.075717941 -0.035943735 0.50600004
0.077037118 -0.035943735 0.50600004
0.078356288 -0.035943735 0.50600004
0.079675466 -0.035943735 0.50600004
0.080994636 -0.035943735 0.50600004
0.082313813 -0.035943735 0.50600004
0.083632983 -0.035943735 0.50600004
0.084784262 -0.035872698 0.505
0.085930333 -0.03580166 0.50400001
0.087071188 -0.035730626 0.50300002
0.088031135 -0.035588559 0.50100005
0.089158945 -0.035517521 0.5
0.090100631 -0.035375454 0.49800003
0.090848356 -0.035162348 0.49500003
0.091766573 -0.035020277 0.49300003
0.092485607 -0.034807172 0.49000001
0.092806302 -0.034451995 0.48500001
0.09382838 -0.033031296 0.46500003
0.094427496 -0.032818191 0.46200001
0.095010974 -0.032605086 0.45900002
0.095998019 -0.032534052 0.45800003
0.096979842 -0.032463014 0.45700002
0.097741634 -0.032320946 0.45500001
0.098710433 -0.032249913 0.45400003
0.099674001 -0.032178875 0.45300001
0.10063236 -0.032107841 0.45200002
0.10158551 -0.032036807 0.45100003
0.10253344 -0.03196577 0.45000002
0.10370662 -0.03196577 0.45000002
0.1048798 -0.03196577 0.45000002
0.10581731 -0.031894736 0.44900003
0.10698788 -0.031894736 0.44900003
0.10815845 -0.031894736 0.44900003
0.10908553 -0.031823698 0.44800001
0.1102535 -0.031823698 0.44800001
0.11142146 -0.031823698 0.44800001
0.11258942 -0.031823698 0.44800001
0.11350347 -0.031752665 0.44700003
0.11466882 -0.031752665 0.44700003
0.11557504 -0.031681631 0.44600001
0.1167378 -0.031681631 0.44600001
0.11763619 -0.031610597 0.44500002
0.11852939 -0.031539563 0.44400004
0.11968692 -0.031539563 0.44400004
0.12057228 -0.031468526 0.44300002
0.12145243 -0.031397492 0.44200003
0.12232736 -0.031326454 0.44100001
0.12291709 -0.031184385 0.43900001
0.12349639 -0.031042313 0.43700001
0.12435047 -0.030971279 0.43600002
0.12491152 -0.03082921 0.43400002
0.12575257 -0.030758176 0.43300003
0.12629537 -0.030616105 0.43100002
0.12712339 -0.030545069 0.43000001
0.12764794 -0.030403001 0.42800003
0.12846291 -0.030331964 0.42700002
0.12643062 -0.027916772 0.39300001
0.12713087 -0.027845738 0.39200002
0.12782593 -0.027774705 0.39100003
0.12851577 -0.027703667 0.39000002
0.12920038 -0.027632633 0.38900003
0.12987979 -0.027561598 0.38800001
0.13055398 -0.027490564 0.38700002
0.13156292 -0.027490564 0.38700002
0.13222927 -0.027419526 0.38600001
0.1332356 -0.027419526 0.38600001
0.13389416 -0.027348492 0.38500002
0.13454749 -0.027277457 0.384
0.13519561 -0.027206423 0.38300002
0.13583852 -0.027135389 0.38200003
0.13683441 -0.027135389 0.38200003
0.1374695 -0.027064351 0.38100001
0.13809939 -0.026993318 0.38000003
0.13909006 -0.026993318 0.38000003
0.14008075 -0.026993318 0.38000003
0.14070019 -0.026922282 0.37900001
0.14168827 -0.026922282 0.37900001
0.1430528 -0.026993318 0.38000003
0.14404349 -0.026993318 0.38000003
0.14503416 -0.026993318 0.38000003
0.14602485 -0.026993318 0.38000003
0.14701554 -0.026993318 0.38000003
0.14800623 -0.026993318 0.38000003
0.1489969 -0.026993318 0.38000003
0.14998759 -0.026993318 0.38000003
0.15137559 -0.027064351 0.38100001
0.15236887 -0.027064351 0.38100001
0.15336217 -0.027064351 0.38100001
0.15435545 -0.027064351 0.38100001
0.1557565 -0.027135389 0.38200003
0.15675239 -0.027135389 0.38200003
0.1577483 -0.027135389 0.38200003
0.15915973 -0.027206423 0.38300002
0.16015825 -0.027206423 0.38300002
0.16157752 -0.027277457 0.384
0.16257864 -0.027277457 0.384
0.16357975 -0.027277457 0.384
0.16500947 -0.027348492 0.38500002
0.1660132 -0.027348492 0.38500002
0.16701691 -0.027348492 0.38500002
0.16802062 -0.027348492 0.38500002
0.16902435 -0.027348492 0.38500002
0.17002806 -0.027348492 0.38500002
0.17103177 -0.027348492 0.38500002
0.1720355 -0.027348492 0.38500002
0.25241509 -0.039211348 0.55200005
0.25385419 -0.039211348 0.55200005
0.25575578 -0.039282382 0.55300003
0.2571975 -0.039282382 0.55300003
0.25863919 -0.039282382 0.55300003
0.26055121 -0.039353415 0.55400002
0.26199552 -0.039353415 0.55400002
0.26391536 -0.039424449 0.55500001
-0.24056019 -0.029150322 0.42600003
-0.24001166 -0.029218748 0.42700002
-0.23889846 -0.029218748 0.42700002
-0.23778522 -0.029218748 0.42700002
-0.23667201 -0.029218748 0.42700002
-0.23555881 -0.029218748 0.42700002
-0.23444557 -0.029218748 0.42700002
-0.23387882 -0.029287178 0.42800003
-0.23221914 -0.029218748 0.42700002
-0.23164718 -0.029287178 0.42800003
-0.23053133 -0.029287178 0.42800003
-0.22941552 -0.029287178 0.42800003
-0.22883311 -0.029355604 0.42900002
-0.22771469 -0.029355604 0.42900002
-0.22659624 -0.029355604 0.42900002
-0.22600339 -0.029424032 0.43000001
-0.22488236 -0.029424032 0.43000001
-0.22428171 -0.02949246 0.43100002
-0.22315806 -0.02949246 0.43100002
-0.22203442 -0.02949246 0.43100002
-0.22142333 -0.029560888 0.43200001
-0.22029705 -0.029560888 0.43200001
-0.21917081 -0.029560888 0.43200001
-0.21854931 -0.029629318 0.43300003
-0.21742046 -0.029629318 0.43300003
-0.21629159 -0.029629318 0.43300003
-0.21565963 -0.029697744 0.43400002
-0.21452817 -0.029697744 0.43400002
-0.2133967 -0.029697744 0.43400002
-0.21275434 -0.029766174 0.43500003
-0.21162027 -0.029766174 0.43500003
-0.21048619 -0.029766174 0.43500003
-0.20935212 -0.029766174 0.43500003
-0.20821804 -0.029766174 0.43500003
-0.20708397 -0.029766174 0.43500003
-0.2059499 -0.029766174 0.43500003
-0.20481583 -0.029766174 0.43500003
-0.20368175 -0.029766174 0.43500003
-0.20254768 -0.029766174 0.43500003
-0.20141362 -0.029766174 0.43500003
-0.20073995 -0.0298346 0.43600002
-0.19960326 -0.0298346 0.43600002
-0.1984666 -0.0298346 0.43600002
-0.19732991 -0.0298346 0.43600002
-0.19619322 -0.0298346 0.43600002
-0.19505654 -0.0298346 0.43600002
-0.19436462 -0.029903028 0.43700001
-0.19322535 -0.029903028 0.43700001
-0.19208606 -0.029903028 0.43700001
-0.19138373 -0.029971456 0.43800002
-0.19024183 -0.029971456 0.43800002
-0.18909994 -0.029971456 0.43800002
-0.18795805 -0.029971456 0.43800002
-0.18724267 -0.030039884 0.43900001
-0.18609816 -0.030039884 0.43900001
-0.18537499 -0.030108312 0.44000003
-0.18422787 -0.030108312 0.44000003
-0.18349685 -0.03017674 0.44100001
-0.18234713 -0.03017674 0.44100001
-0.18119742 -0.03017674 0.44100001
-0.18045598 -0.03024517 0.44200003
-0.17930366 -0.03024517 0.44200003
-0.17815134 -0.03024517 0.44200003
-0.17739946 -0.030313596 0.44300002
-0.17624454 -0.030313596 0.44300002
-0.17548485 -0.030382026 0.44400004
-0.17432731 -0.030382026 0.44400004
-0.17316978 -0.030382026 0.44400004
-0.17239965 -0.030450452 0.44500002
-0.17123951 -0.030450452 0.44500002
-0.17046155 -0.03051888 0.44600001
-0.16929881 -0.03051888 0.44600001
-0.16813605 -0.03051888 0.44600001
-0.16697331 -0.03051888 0.44600001
-0.16618232 -0.030587308 0.44700003
-0.16501698 -0.030587308 0.44700003
-0.16385162 -0.030587308 0.44700003
-0.16268626 -0.030587308 0.44700003
-0.1615209 -0.030587308 0.44700003
-0.16035555 -0.030587308 0.44700003
-0.15919019 -0.030587308 0.44700003
-0.15802483 -0.030587308 0.44700003
-0.15685947 -0.030587308 0.44700003
-0.15604241 -0.030655736 0.44800001
-0.15487446 -0.030655736 0.44800001
-0.15370649 -0.030655736 0.44800001
-0.15253852 -0.030655736 0.44800001
-0.15137056 -0.030655736 0.44800001
-0.15053788 -0.030724166 0.44900003
-0.1493673 -0.030724166 0.44900003
-0.14819674 -0.030724166 0.44900003
-0.14702617 -0.030724166 0.44900003
-0.14618044 -0.030792592 0.45000002
-0.14500725 -0.030792592 0.45000002
-0.14383408 -0.030792592 0.45000002
-0.14297792 -0.030861022 0.45100003
-0.14180213 -0.030861022 0.45100003
-0.14062636 -0.030861022 0.45100003
-0.13975976 -0.030929448 0.45200002
-0.13858138 -0.030929448 0.45200002
-0.13740298 -0.030929448 0.45200002
-0.13652597 -0.030997876 0.45300001
-0.13534497 -0.030997876 0.45300001
-0.13446015 -0.031066304 0.45400003
-0.13327654 -0.031066304 0.45400003
-0.13209294 -0.031066304 0.45400003
-0.13090932 -0.031066304 0.45400003
-0.13001145 -0.031134732 0.45500001
-0.12882523 -0.031134732 0.45500001
-0.12763901 -0.031134732 0.45500001
-0.1264528 -0.031134732 0.45500001
-0.1255419 -0.03120316 0.45600003
-0.12435309 -0.03120316 0.45600003
-0.12316426 -0.03120316 0.45600003
-0.12197544 -0.03120316 0.45600003
-0.12078662 -0.03120316 0.45600003
-0.11959781 -0.03120316 0.45600003
-0.11866865 -0.031271588 0.45700002
-0.11747722 -0.031271588 0.45700002
-0.11628579 -0.031271588 0.45700002
-0.11534622 -0.031340018 0.45800003
-0.11415218 -0.031340018 0.45800003
-0.11295815 -0.031340018 0.45800003
-0.11200813 -0.031408444 0.45900002
-0.11081149 -0.031408444 0.45900002
-0.10961485 -0.031408444 0.45900002
-0.10841821 -0.031408444 0.45900002
-0.10745516 -0.03147687 0.46000001
-0.1062559 -0.03147687 0.46000001
