# .PCD v0.7 - Point Cloud Data file format
VERSION 0.7
FIELDS x y z
SIZE 4 4 4
TYPE F F F
COUNT 1 1 1
WIDTH 1364
HEIGHT 1
VIEWPOINT 0 0 0 1 0 0 0
POINTS 1364
DATA ascii
-0.0010118744 0.0082690921 0.47800002
0.00023203237 0.0082863923 0.47900003
0.0014780562 0.0082863923 0.47900003
0.0027240796 0.0082863923 0.47900003
0.0039783916 0.0083036916 0.48000002
0.0052270168 0.0083036916 0.48000002
0.0064756419 0.0083036916 0.48000002
0.007724267 0.0083036916 0.48000002
0.0089728916 0.0083036916 0.48000002
0.010221517 0.0083036916 0.48000002
0.011494039 0.0083209909 0.48100004
0.012745264 0.0083209909 0.48100004
0.013996491 0.0083209909 0.48100004
0.015279417 0.0083382903 0.48200002
0.016533244 0.0083382903 0.48200002
0.017787071 0.0083382903 0.48200002
0.019040899 0.0083382903 0.48200002
0.020294728 0.0083382903 0.48200002
0.021548554 0.0083382903 0.48200002
0.022802383 0.0083382903 0.48200002
0.024056211 0.0083382903 0.48200002
0.025310038 0.0083382903 0.48200002
0.026563866 0.0083382903 0.48200002
0.02775998 0.0083209909 0.48100004
0.028890578 0.0082863923 0.47900003
0.030010771 0.0082517937 0.47700003
0.031120555 0.0082171941 0.47500002
0.032151822 0.0081652962 0.47200003
0.033167474 0.0081133982 0.46900001
0.035000123 0.0079750037 0.46100003
0.035806704 0.0078885071 0.45600003
0.036668397 0.0078193089 0.45200002
0.038415682 0.0076982137 0.44500002
0.039217547 0.0076290164 0.44100001
0.040090133 0.0075771185 0.43800002
0.040947113 0.0075252205 0.43500003
0.041885208 0.0074906214 0.43300003
0.042812906 0.0074560228 0.43100002
0.043730196 0.0074214241 0.42900002
0.044637084 0.007386825 0.42700002
0.045533564 0.0073522264 0.42500001
0.0463099 0.0073003285 0.42200002
0.04707063 0.0072484305 0.41900003
0.047930688 0.0072138319 0.41700003
0.048662804 0.0071619339 0.41400003
0.049499456 0.0071273353 0.41200003
0.050325699 0.0070927362 0.41000003
0.051141538 0.0070581376 0.40800002
0.05207492 0.0070408378 0.40700001
0.053133648 0.0070408378 0.40700001
0.054059234 0.0070235389 0.40600002
0.055115361 0.0070235389 0.40600002
0.056033134 0.0070062396 0.40500003
0.057086665 0.0070062396 0.40500003
0.057996631 0.0069889398 0.40400001
0.059047561 0.0069889398 0.40400001
0.061149415 0.0069889398 0.40400001
0.0623543 0.0070062396 0.40500003
0.066808999 0.0071446341 0.41300002
0.069959484 0.0072484305 0.41900003
0.071388572 0.0072830296 0.42100003
0.072828054 0.0073176278 0.42300001
0.074103177 0.0073349276 0.42400002
0.075383507 0.0073522264 0.42500001
0.076489054 0.0073522264 0.42500001
0.077594616 0.0073522264 0.42500001
0.078700162 0.0073522264 0.42500001
0.079805717 0.0073522264 0.42500001
0.080720894 0.0073349276 0.42400002
0.081823841 0.0073349276 0.42400002
0.082731217 0.0073176278 0.42300001
0.084530354 0.0072830296 0.42100003
0.085218728 0.0072484305 0.41900003
0.089364715 0.0072311312 0.41800001
0.097296208 0.0074214241 0.42900002
0.098870963 0.0074560228 0.43100002
0.10022413 0.0074733221 0.43200001
0.1015825 0.0074906214 0.43300003
0.10294606 0.0075079207 0.43400002
0.10431483 0.0075252205 0.43500003
0.1054464 0.0075252205 0.43500003
0.10682297 0.0075425194 0.43600002
0.10770953 0.0075252205 0.43500003
0.10884109 0.0075252205 0.43500003
0.10997266 0.0075252205 0.43500003
0.11110424 0.0075252205 0.43500003
0.11171977 0.0074906214 0.43300003
0.14875975 0.0089783669 0.51900005
0.15010983 0.0089783669 0.51900005
0.15145992 0.0089783669 0.51900005
0.15280998 0.0089783669 0.51900005
0.15445709 0.0089956662 0.52000004
0.15580976 0.0089956662 0.52000004
0.15716243 0.0089956662 0.52000004
0.15851513 0.0089956662 0.52000004
0.16017523 0.0090129646 0.52100003
0.16153051 0.0090129646 0.52100003
0.16319841 0.0090302639 0.52200001
0.16455631 0.0090302639 0.52200001
0.16623202 0.0090475632 0.523
0.1675925 0.0090475632 0.523
0.16895299 0.0090475632 0.523
0.17063913 0.0090648634 0.52400005
0.17200221 0.0090648634 0.52400005
0.17369615 0.0090821628 0.52500004
0.17539527 0.0090994621 0.52600002
0.17676355 0.0090994621 0.52600002
0.17847048 0.0091167605 0.52700001
0.17984138 0.0091167605 0.52700001
0.18121226 0.0091167605 0.52700001
0.18292959 0.0091340598 0.528
0.18465215 0.00915136 0.52900004
0.18602824 0.00915136 0.52900004
0.18775859 0.0091686593 0.53000003
0.18949415 0.0091859587 0.53100002
0.19087543 0.0091859587 0.53100002
0.19261879 0.009203257 0.53200001
0.19400269 0.009203257 0.53200001
0.19538657 0.009203257 0.53200001
0.19714035 0.0092205573 0.53300005
0.19852684 0.0092205573 0.53300005
0.19991334 0.0092205573 0.53300005
0.20129985 0.0092205573 0.53300005
0.20268632 0.0092205573 0.53300005
0.20445569 0.0092378566 0.53400004
0.20584479 0.0092378566 0.53400004
0.20723388 0.0092378566 0.53400004
0.20862298 0.0092378566 0.53400004
0.21001208 0.0092378566 0.53400004
0.21140116 0.0092378566 0.53400004
0.21318874 0.0092551559 0.53500003
0.21458043 0.0092551559 0.53500003
0.21597214 0.0092551559 0.53500003
0.21736383 0.0092551559 0.53500003
0.21916442 0.0092724552 0.53600001
0.2205587 0.0092724552 0.53600001
0.22236709 0.0092897546 0.537
0.223764 0.0092897546 0.537
0.2255802 0.0093070539 0.53800005
0.2274016 0.0093243532 0.53900003
0.22880369 0.0093243532 0.53900003
0.2302058 0.0093243532 0.53900003
0.2320376 0.0093416525 0.54000002
0.23387459 0.0093589518 0.54100001
0.2352819 0.0093589518 0.54100001
0.23712672 0.0093762521 0.54200006
0.23897673 0.0093935514 0.54300004
0.24083194 0.0094108498 0.54400003
0.24224705 0.0094108498 0.54400003
0.24411005 0.0094281491 0.54500002
0.24597827 0.0094454484 0.546
0.24785171 0.0094627487 0.54700005
0.24927463 0.0094627487 0.54700005
0.25115585 0.009480048 0.54800004
0.25258136 0.009480048 0.54800004
0.25400686 0.009480048 0.54800004
0.2554324 0.009480048 0.54800004
0.2573266 0.0094973473 0.54900002
0.25875473 0.0094973473 0.54900002
0.26018283 0.0094973473 0.54900002
0.26208749 0.0095146457 0.55000001
0.26351818 0.0095146457 0.55000001
0.26543063 0.009531945 0.551
0.26686394 0.009531945 0.551
-0.23245893 0.0082786744 0.41600001
-0.23137678 0.0082786744 0.41600001
-0.23029466 0.0082786744 0.41600001
-0.22921251 0.0082786744 0.41600001
-0.22867878 0.0082985749 0.41700003
-0.22759403 0.0082985749 0.41700003
-0.22705245 0.0083184754 0.41800001
-0.22596513 0.0083184754 0.41800001
-0.22487777 0.0083184754 0.41800001
-0.22379044 0.0083184754 0.41800001
-0.22270308 0.0083184754 0.41800001
-0.22214593 0.0083383769 0.41900003
-0.221056 0.0083383769 0.41900003
-0.21996604 0.0083383769 0.41900003
-0.21887611 0.0083383769 0.41900003
-0.21778615 0.0083383769 0.41900003
-0.21721336 0.0083582774 0.42000002
-0.21612084 0.0083582774 0.42000002
-0.21502827 0.0083582774 0.42000002
-0.21393575 0.0083582774 0.42000002
-0.21284319 0.0083582774 0.42000002
-0.21175063 0.0083582774 0.42000002
-0.2106581 0.0083582774 0.42000002
-0.21006452 0.0083781779 0.42100003
-0.20896937 0.0083781779 0.42100003
-0.20836799 0.0083980784 0.42200002
-0.20727023 0.0083980784 0.42200002
-0.20617248 0.0083980784 0.42200002
-0.20556068 0.0084179789 0.42300001
-0.20446034 0.0084179789 0.42300001
-0.20384075 0.0084378803 0.42400002
-0.20273781 0.0084378803 0.42400002
-0.20163484 0.0084378803 0.42400002
-0.20053189 0.0084378803 0.42400002
-0.19942895 0.0084378803 0.42400002
-0.19832599 0.0084378803 0.42400002
-0.19768818 0.0084577808 0.42500001
-0.19658262 0.0084577808 0.42500001
-0.19547707 0.0084577808 0.42500001
-0.19482887 0.0084776813 0.42600003
-0.19372071 0.0084776813 0.42600003
-0.19261256 0.0084776813 0.42600003
-0.1915044 0.0084776813 0.42600003
-0.19084318 0.0084975818 0.42700002
-0.18973243 0.0084975818 0.42700002
-0.18862168 0.0084975818 0.42700002
-0.18751091 0.0084975818 0.42700002
-0.18640016 0.0084975818 0.42700002
-0.18528941 0.0084975818 0.42700002
-0.18417865 0.0084975818 0.42700002
-0.18349664 0.0085174823 0.42800003
-0.18238327 0.0085174823 0.42800003
-0.18126991 0.0085174823 0.42800003
-0.18015656 0.0085174823 0.42800003
-0.1790432 0.0085174823 0.42800003
-0.17834558 0.0085373828 0.42900002
-0.1772296 0.0085373828 0.42900002
-0.17652416 0.0085572833 0.43000001
-0.17540561 0.0085572833 0.43000001
-0.17469238 0.0085771848 0.43100002
-0.1735712 0.0085771848 0.43100002
-0.17285015 0.0085970853 0.43200001
-0.17172639 0.0085970853 0.43200001
-0.17060263 0.0085970853 0.43200001
-0.16947888 0.0085970853 0.43200001
-0.16874482 0.0086169858 0.43300003
-0.16761845 0.0086169858 0.43300003
-0.16649209 0.0086169858 0.43300003
-0.16536574 0.0086169858 0.43300003
-0.16461867 0.0086368863 0.43400002
-0.1634897 0.0086368863 0.43400002
-0.16236074 0.0086368863 0.43400002
-0.16160329 0.0086567877 0.43500003
-0.16047172 0.0086567877 0.43500003
-0.15934016 0.0086567877 0.43500003
-0.15857227 0.0086766882 0.43600002
-0.15743811 0.0086766882 0.43600002
-0.15630394 0.0086766882 0.43600002
-0.15516979 0.0086766882 0.43600002
-0.15438889 0.0086965878 0.43700001
-0.15325212 0.0086965878 0.43700001
-0.15211536 0.0086965878 0.43700001
-0.1509786 0.0086965878 0.43700001
-0.15018472 0.0087164892 0.43800002
-0.14904533 0.0087164892 0.43800002
-0.14824365 0.0087363897 0.43900001
-0.14710169 0.0087363897 0.43900001
-0.14629219 0.0087562902 0.44000003
-0.14514762 0.0087562902 0.44000003
-0.14400305 0.0087562902 0.44000003
-0.14318314 0.0087761907 0.44100001
-0.14203598 0.0087761907 0.44100001
-0.14088881 0.0087761907 0.44100001
-0.14005852 0.0087960921 0.44200003
-0.13890873 0.0087960921 0.44200003
-0.13775896 0.0087960921 0.44200003
-0.13691825 0.0088159926 0.44300002
-0.13576588 0.0088159926 0.44300002
-0.13461348 0.0088159926 0.44300002
-0.13376239 0.0088358931 0.44400004
-0.13260742 0.0088358931 0.44400004
-0.13145244 0.0088358931 0.44400004
-0.13029745 0.0088358931 0.44400004
-0.12943333 0.0088557936 0.44500002
-0.12827575 0.0088557936 0.44500002
-0.12711817 0.0088557936 0.44500002
-0.1259606 0.0088557936 0.44500002
-0.12508348 0.0088756941 0.44600001
-0.12392329 0.0088756941 0.44600001
-0.1227631 0.0088756941 0.44600001
-0.12160293 0.0088756941 0.44600001
-0.12044275 0.0088756941 0.44600001
-0.11955003 0.0088955956 0.44700003
-0.11838724 0.0088955956 0.44700003
-0.11722445 0.0088955956 0.44700003
-0.11606167 0.0088955956 0.44700003
-0.1148989 0.0088955956 0.44700003
-0.1137361 0.0088955956 0.44700003
-0.11257333 0.0088955956 0.44700003
-0.11141054 0.0088955956 0.44700003
-0.11049441 0.0089154951 0.44800001
-0.10932902 0.0089154951 0.44800001
-0.10816363 0.0089154951 0.44800001
-0.10699825 0.0089154951 0.44800001
-0.10583287 0.0089154951 0.44800001
-0.10490112 0.0089353966 0.44900003
-0.10373314 0.0089353966 0.44900003
-0.10279358 0.0089552971 0.45000002
-0.10184882 0.0089751976 0.45100003
-0.10067564 0.0089751976 0.45100003
-0.099502452 0.0089751976 0.45100003
-0.098547287 0.0089950981 0.45200002
-0.097586922 0.0090149986 0.45300001
-0.096408524 0.0090149986 0.45300001
-0.09523014 0.0090149986 0.45300001
-0.094259366 0.0090349 0.45400003
-0.093078382 0.0090349 0.45400003
-0.091897391 0.0090349 0.45400003
-0.090916209 0.0090548005 0.45500001
-0.089732617 0.0090548005 0.45500001
-0.088549025 0.0090548005 0.45500001
-0.087365434 0.0090548005 0.45500001
-0.08637125 0.009074701 0.45600003
-0.085185058 0.009074701 0.45600003
-0.083998866 0.009074701 0.45600003
-0.082812674 0.009074701 0.45600003
-0.081805483 0.0090946015 0.45700002
-0.080616683 0.0090946015 0.45700002
-0.07942789 0.0090946015 0.45700002
-0.078239098 0.0090946015 0.45700002
-0.077218905 0.0091145029 0.45800003
-0.076027513 0.0091145029 0.45800003
-0.074836113 0.0091145029 0.45800003
-0.07364472 0.0091145029 0.45800003
-0.072611511 0.0091344025 0.45900002
-0.071417518 0.0091344025 0.45900002
-0.070223518 0.0091344025 0.45900002
-0.069179907 0.009154303 0.46000001
-0.067983314 0.009154303 0.46000001
-0.066931903 0.0091742044 0.46100003
-0.065732703 0.0091742044 0.46100003
-0.064533502 0.0091742044 0.46100003
-0.063471682 0.0091941049 0.46200001
-0.062269885 0.0091941049 0.46200001
-0.06106808 0.0091941049 0.46200001
-0.059866279 0.0091941049 0.46200001
-0.058664475 0.0091941049 0.46200001
-0.057587057 0.0092140054 0.46300003
-0.056382652 0.0092140054 0.46300003
-0.055178251 0.0092140054 0.46300003
-0.054090418 0.0092339059 0.46400002
-0.052883416 0.0092339059 0.46400002
-0.051787786 0.0092538074 0.46500003
-0.050578181 0.0092538074 0.46500003
-0.049474742 0.0092737079 0.46600002
-0.048262537 0.0092737079 0.46600002
-0.047151294 0.0092936084 0.46700001
-0.045936488 0.0092936084 0.46700001
-0.044721678 0.0092936084 0.46700001
-0.043506872 0.0092936084 0.46700001
-0.042382624 0.0093135089 0.46800002
-0.041165214 0.0093135089 0.46800002
-0.039947804 0.0093135089 0.46800002
-0.038730394 0.0093135089 0.46800002
-0.037512988 0.0093135089 0.46800002
-0.036373131 0.0093334094 0.46900001
-0.035153121 0.0093334094 0.46900001
-0.033933111 0.0093334094 0.46900001
-0.032782849 0.0093533108 0.47000003
-0.031560238 0.0093533108 0.47000003
-0.030337628 0.0093533108 0.47000003
-0.029115016 0.0093533108 0.47000003
-0.027951749 0.0093732104 0.47100002
-0.026726535 0.0093732104 0.47100002
-0.02550132 0.0093732104 0.47100002
-0.024276109 0.0093732104 0.47100002
-0.023050895 0.0093732104 0.47100002
-0.021825681 0.0093732104 0.47100002
-0.02060047 0.0093732104 0.47100002
-0.019375255 0.0093732104 0.47100002
-0.018150041 0.0093732104 0.47100002
-0.016960764 0.0093931118 0.47200003
-0.015732948 0.0093931118 0.47200003
-0.014505134 0.0093931118 0.47200003
-0.013305449 0.0094130123 0.47300002
-0.012075033 0.0094130123 0.47300002
-0.010867545 0.0094329128 0.47400004
-0.0096548526 0.0094528133 0.47500002
-0.0084369592 0.0094727138 0.47600001
-0.0071987393 0.0094727138 0.47600001
-0.005973042 0.0094926152 0.47700003
-0.0047322209 0.0094926152 0.47700003
-0.0034987193 0.0095125157 0.47800002
-0.0022552968 0.0095125157 0.47800002
-0.0010139913 0.0095324162 0.47900003
0.00023203237 0.0095324162 0.47900003
0.0014780562 0.0095324162 0.47900003
0.0027240796 0.0095324162 0.47900003
0.0039783916 0.0095523167 0.48000002
0.0052270168 0.0095523167 0.48000002
0.0064756419 0.0095523167 0.48000002
0.007724267 0.0095523167 0.48000002
0.0089728916 0.0095523167 0.48000002
0.010242811 0.0095722182 0.48100004
0.011494039 0.0095722182 0.48100004
0.012745264 0.0095722182 0.48100004
0.013996491 0.0095722182 0.48100004
0.015279417 0.0095921177 0.48200002
0.016533244 0.0095921177 0.48200002
0.017787071 0.0095921177 0.48200002
0.019040899 0.0095921177 0.48200002
0.020294728 0.0095921177 0.48200002
0.021548554 0.0095921177 0.48200002
0.022802383 0.0095921177 0.48200002
0.024056211 0.0095921177 0.48200002
0.025310038 0.0095921177 0.48200002
0.026563866 0.0095921177 0.48200002
0.02775998 0.0095722182 0.48100004
0.028890578 0.0095324162 0.47900003
0.030010771 0.0094926152 0.47700003
0.031120555 0.0094528133 0.47500002
0.032083701 0.0093732104 0.47100002
0.033096757 0.0093135089 0.46800002
0.034094203 0.0092538074 0.46500003
0.034924198 0.009154303 0.46000001
0.035728179 0.0090548005 0.45500001
0.036506146 0.0089552971 0.45000002
0.037425555 0.0088955956 0.44700003
0.038243029 0.0088159926 0.44300002
0.03912862 0.0087562902 0.44000003
0.039998602 0.0086965878 0.43700001
0.040852979 0.0086368863 0.43400002
0.041788474 0.0085970853 0.43200001
0.042713571 0.0085572833 0.43000001
0.043628264 0.0085174823 0.42800003
0.044532549 0.0084776813 0.42600003
0.045426425 0.0084378803 0.42400002
0.046200164 0.0083781779 0.42100003
0.04707063 0.0083383769 0.41900003
0.047815744 0.0082786744 0.41600001
0.048662804 0.0082388734 0.41400003
0.049499456 0.0081990724 0.41200003
0.050202955 0.00813937 0.40900001
0.051141538 0.0081194695 0.40800002
0.05207492 0.0080995681 0.40700001
0.053003103 0.0080796676 0.40600002
0.054059234 0.0080796676 0.40600002
0.055115361 0.0080796676 0.40600002
0.056033134 0.008059768 0.40500003
0.057086665 0.008059768 0.40500003
0.057996631 0.0080398666 0.40400001
0.059047561 0.0080398666 0.40400001
0.061149415 0.0080398666 0.40400001
0.0623543 0.008059768 0.40500003
0.070126452 0.0083582774 0.42000002
0.071388572 0.0083781779 0.42100003
0.072828054 0.0084179789 0.42300001
0.074103177 0.0084378803 0.42400002
0.075206131 0.0084378803 0.42400002
0.076489054 0.0084577808 0.42500001
0.077594616 0.0084577808 0.42500001
0.078700162 0.0084577808 0.42500001
0.07961794 0.0084378803 0.42400002
0.080720894 0.0084378803 0.42400002
0.081823841 0.0084378803 0.42400002
0.082731217 0.0084179789 0.42300001
0.095956057 0.0085174823 0.42800003
0.097296208 0.0085373828 0.42900002
0.098870963 0.0085771848 0.43100002
0.099992134 0.0085771848 0.43100002
0.10134789 0.0085970853 0.43200001
0.10270885 0.0086169858 0.43300003
0.10407502 0.0086368863 0.43400002
0.10520399 0.0086368863 0.43400002
0.10657796 0.0086567877 0.43500003
0.10770953 0.0086567877 0.43500003
0.10884109 0.0086567877 0.43500003
0.10997266 0.0086567877 0.43500003
0.11084881 0.0086368863 0.43400002
0.1460596 0.010328443 0.51900005
0.14712563 0.010308541 0.51800001
0.14875975 0.010328443 0.51900005
0.15010983 0.010328443 0.51900005
0.15145992 0.010328443 0.51900005
0.15280998 0.010328443 0.51900005
0.15416005 0.010328443 0.51900005
0.15580976 0.010348343 0.52000004
0.15716243 0.010348343 0.52000004
0.15851513 0.010348343 0.52000004
0.16017523 0.010368244 0.52100003
0.16153051 0.010368244 0.52100003
0.16319841 0.010388144 0.52200001
0.16455631 0.010388144 0.52200001
0.16591419 0.010388144 0.52200001
0.1675925 0.010408045 0.523
0.16895299 0.010408045 0.523
0.17063913 0.010427946 0.52400005
0.17200221 0.010427946 0.52400005
0.17369615 0.010447847 0.52500004
0.17506182 0.010447847 0.52500004
0.17676355 0.010467747 0.52600002
0.17847048 0.010487648 0.52700001
0.17984138 0.010487648 0.52700001
0.18121226 0.010487648 0.52700001
0.18292959 0.010507548 0.528
0.18465215 0.01052745 0.52900004
0.18602824 0.01052745 0.52900004
0.18775859 0.01054735 0.53000003
0.18949415 0.010567251 0.53100002
0.19087543 0.010567251 0.53100002
0.19261879 0.010587151 0.53200001
0.19400269 0.010587151 0.53200001
0.19538657 0.010587151 0.53200001
0.19714035 0.010607053 0.53300005
0.19852684 0.010607053 0.53300005
0.19991334 0.010607053 0.53300005
0.2016775 0.010626953 0.53400004
0.2030666 0.010626953 0.53400004
0.20445569 0.010626953 0.53400004
0.20584479 0.010626953 0.53400004
0.20723388 0.010626953 0.53400004
0.20862298 0.010626953 0.53400004
0.21001208 0.010626953 0.53400004
0.21140116 0.010626953 0.53400004
0.21318874 0.010646854 0.53500003
0.21458043 0.010646854 0.53500003
0.21597214 0.010646854 0.53500003
0.21777011 0.010666753 0.53600001
0.21916442 0.010666753 0.53600001
0.2205587 0.010666753 0.53600001
0.22236709 0.010686654 0.537
0.22418071 0.010706555 0.53800005
0.2255802 0.010706555 0.53800005
0.2274016 0.010726456 0.53900003
0.22880369 0.010726456 0.53900003
0.2306329 0.010746356 0.54000002
0.2320376 0.010746356 0.54000002
0.23387459 0.010766257 0.54100001
0.23571682 0.010786158 0.54200006
0.23756422 0.010806059 0.54300004
0.23897673 0.010806059 0.54300004
0.24083194 0.010825959 0.54400003
0.24269235 0.01084586 0.54500002
0.24411005 0.01084586 0.54500002
0.24597827 0.01086576 0.546
0.24785171 0.010885661 0.54700005
0.24927463 0.010885661 0.54700005
0.25115585 0.010905562 0.54800004
0.25258136 0.010905562 0.54800004
0.25447038 0.010925462 0.54900002
0.2554324 0.010905562 0.54800004
0.2573266 0.010925462 0.54900002
0.25875473 0.010925462 0.54900002
0.26018283 0.010925462 0.54900002
0.26208749 0.010945363 0.55000001
0.26351818 0.010945363 0.55000001
0.26543063 0.010965263 0.551
0.26686394 0.010965263 0.551
-0.23245893 0.0093608154 0.41600001
-0.23137678 0.0093608154 0.41600001
-0.23084827 0.009383318 0.41700003
-0.22976351 0.009383318 0.41700003
-0.22867878 0.009383318 0.41700003
-0.22813982 0.0094058197 0.41800001
-0.22705245 0.0094058197 0.41800001
-0.22596513 0.0094058197 0.41800001
-0.22487777 0.0094058197 0.41800001
-0.22379044 0.0094058197 0.41800001
-0.22323588 0.0094283223 0.41900003
-0.22214593 0.0094283223 0.41900003
-0.221056 0.0094283223 0.41900003
-0.21996604 0.0094283223 0.41900003
-0.21887611 0.0094283223 0.41900003
-0.21778615 0.0094283223 0.41900003
-0.21721336 0.009450824 0.42000002
-0.21612084 0.009450824 0.42000002
-0.21502827 0.009450824 0.42000002
-0.21393575 0.009450824 0.42000002
-0.21284319 0.009450824 0.42000002
-0.21175063 0.009450824 0.42000002
-0.2106581 0.009450824 0.42000002
-0.21006452 0.0094733257 0.42100003
-0.20896937 0.0094733257 0.42100003
-0.20836799 0.0094958274 0.42200002
-0.20727023 0.0094958274 0.42200002
-0.20617248 0.0094958274 0.42200002
-0.20556068 0.0095183291 0.42300001
-0.20446034 0.0095183291 0.42300001
-0.20384075 0.0095408317 0.42400002
-0.20273781 0.0095408317 0.42400002
-0.20163484 0.0095408317 0.42400002
-0.20053189 0.0095408317 0.42400002
-0.19942895 0.0095408317 0.42400002
-0.19879374 0.0095633334 0.42500001
-0.19768818 0.0095633334 0.42500001
-0.19658262 0.0095633334 0.42500001
-0.19547707 0.0095633334 0.42500001
-0.19482887 0.009585836 0.42600003
-0.19372071 0.009585836 0.42600003
-0.19261256 0.009585836 0.42600003
-0.1915044 0.009585836 0.42600003
-0.19084318 0.0096083377 0.42700002
-0.18973243 0.0096083377 0.42700002
-0.18862168 0.0096083377 0.42700002
-0.18751091 0.0096083377 0.42700002
-0.18640016 0.0096083377 0.42700002
-0.18528941 0.0096083377 0.42700002
-0.18417865 0.0096083377 0.42700002
-0.1830679 0.0096083377 0.42700002
-0.18238327 0.0096308393 0.42800003
-0.18126991 0.0096308393 0.42800003
-0.18015656 0.0096308393 0.42800003
-0.1790432 0.0096308393 0.42800003
-0.17834558 0.009653341 0.42900002
-0.1772296 0.009653341 0.42900002
-0.17652416 0.0096758427 0.43000001
-0.17540561 0.0096758427 0.43000001
-0.17469238 0.0096983453 0.43100002
-0.1735712 0.0096983453 0.43100002
-0.17285015 0.009720847 0.43200001
-0.17172639 0.009720847 0.43200001
-0.17060263 0.009720847 0.43200001
-0.1698712 0.0097433496 0.43300003
-0.16874482 0.0097433496 0.43300003
-0.16761845 0.0097433496 0.43300003
-0.16649209 0.0097433496 0.43300003
-0.16574764 0.0097658513 0.43400002
-0.16461867 0.0097658513 0.43400002
-0.1634897 0.0097658513 0.43400002
-0.16273485 0.0097883539 0.43500003
-0.16160329 0.0097883539 0.43500003
-0.16047172 0.0097883539 0.43500003
-0.15970644 0.0098108556 0.43600002
-0.15857227 0.0098108556 0.43600002
-0.15743811 0.0098108556 0.43600002
-0.15630394 0.0098108556 0.43600002
-0.15552567 0.0098333573 0.43700001
-0.15438889 0.0098333573 0.43700001
-0.15325212 0.0098333573 0.43700001
-0.15211536 0.0098333573 0.43700001
-0.1509786 0.0098333573 0.43700001
-0.15018472 0.009855859 0.43800002
-0.14904533 0.009855859 0.43800002
-0.14790596 0.009855859 0.43800002
-0.14710169 0.0098783607 0.43900001
-0.14595971 0.0098783607 0.43900001
-0.14514762 0.0099008633 0.44000003
-0.14400305 0.0099008633 0.44000003
-0.14318314 0.009923365 0.44100001
-0.14203598 0.009923365 0.44100001
-0.14088881 0.009923365 0.44100001
-0.14005852 0.0099458676 0.44200003
-0.13890873 0.0099458676 0.44200003
-0.13775896 0.0099458676 0.44200003
-0.13691825 0.0099683693 0.44300002
-0.13576588 0.0099683693 0.44300002
-0.13491736 0.009990871 0.44400004
-0.13376239 0.009990871 0.44400004
-0.13260742 0.009990871 0.44400004
-0.13145244 0.009990871 0.44400004
-0.13059092 0.010013373 0.44500002
-0.12943333 0.010013373 0.44500002
-0.12827575 0.010013373 0.44500002
-0.12711817 0.010013373 0.44500002
-0.1259606 0.010013373 0.44500002
-0.12508348 0.010035874 0.44600001
-0.12392329 0.010035874 0.44600001
-0.1227631 0.010035874 0.44600001
-0.12160293 0.010035874 0.44600001
-0.12044275 0.010035874 0.44600001
-0.11955003 0.010058377 0.44700003
-0.11838724 0.010058377 0.44700003
-0.11722445 0.010058377 0.44700003
-0.11606167 0.010058377 0.44700003
-0.1148989 0.010058377 0.44700003
-0.11399055 0.010080879 0.44800001
-0.11282516 0.010080879 0.44800001
-0.11165978 0.010080879 0.44800001
-0.11049441 0.010080879 0.44800001
-0.10932902 0.010080879 0.44800001
-0.10816363 0.010080879 0.44800001
-0.10723709 0.010103381 0.44900003
-0.1060691 0.010103381 0.44900003
-0.10490112 0.010103381 0.44900003
-0.10396416 0.010125883 0.45000002
-0.10279358 0.010125883 0.45000002
-0.10184882 0.010148385 0.45100003
-0.10067564 0.010148385 0.45100003
-0.099723078 0.010170886 0.45200002
-0.098547287 0.010170886 0.45200002
-0.097586922 0.010193388 0.45300001
-0.096408524 0.010193388 0.45300001
-0.09523014 0.010193388 0.45300001
-0.094259366 0.010215891 0.45400003
-0.093078382 0.010215891 0.45400003
-0.091897391 0.010215891 0.45400003
-0.090916209 0.010238392 0.45500001
-0.089732617 0.010238392 0.45500001
-0.088549025 0.010238392 0.45500001
-0.08755745 0.010260895 0.45600003
-0.08637125 0.010260895 0.45600003
-0.085185058 0.010260895 0.45600003
-0.083998866 0.010260895 0.45600003
-0.082812674 0.010260895 0.45600003
-0.081805483 0.010283397 0.45700002
-0.080616683 0.010283397 0.45700002
-0.07942789 0.010283397 0.45700002
-0.078239098 0.010283397 0.45700002
-0.077050298 0.010283397 0.45700002
-0.076027513 0.010305898 0.45800003
-0.074836113 0.010305898 0.45800003
-0.07364472 0.010305898 0.45800003
-0.07245332 0.010305898 0.45800003
-0.071417518 0.0103284 0.45900002
-0.070223518 0.0103284 0.45900002
-0.069179907 0.010350902 0.46000001
-0.067983314 0.010350902 0.46000001
-0.066931903 0.010373404 0.46100003
-0.065732703 0.010373404 0.46100003
-0.064533502 0.010373404 0.46100003
-0.063471682 0.010395906 0.46200001
-0.062269885 0.010395906 0.46200001
-0.06106808 0.010395906 0.46200001
-0.059866279 0.010395906 0.46200001
-0.058791459 0.010418409 0.46300003
-0.057587057 0.010418409 0.46300003
-0.056382652 0.010418409 0.46300003
-0.055178251 0.010418409 0.46300003
-0.054090418 0.01044091 0.46400002
-0.052997392 0.010463412 0.46500003
-0.051787786 0.010463412 0.46500003
-0.050686948 0.010485914 0.46600002
-0.049474742 0.010485914 0.46600002
-0.048262537 0.010485914 0.46600002
-0.047151294 0.010508415 0.46700001
-0.045936488 0.010508415 0.46700001
-0.044817444 0.010530918 0.46800002
-0.043600034 0.010530918 0.46800002
-0.042382624 0.010530918 0.46800002
-0.041165214 0.010530918 0.46800002
-0.039947804 0.010530918 0.46800002
-0.038730394 0.010530918 0.46800002
-0.037593145 0.01055342 0.46900001
-0.036373131 0.01055342 0.46900001
-0.035153121 0.01055342 0.46900001
-0.033933111 0.01055342 0.46900001
-0.032782849 0.010575922 0.47000003
-0.031560238 0.010575922 0.47000003
-0.030337628 0.010575922 0.47000003
-0.029176962 0.010598424 0.47100002
-0.027951749 0.010598424 0.47100002
-0.026726535 0.010598424 0.47100002
-0.02550132 0.010598424 0.47100002
-0.024276109 0.010598424 0.47100002
-0.023050895 0.010598424 0.47100002
-0.021825681 0.010598424 0.47100002
-0.02060047 0.010598424 0.47100002
-0.019375255 0.010598424 0.47100002
-0.018150041 0.010598424 0.47100002
-0.016960764 0.010620927 0.47200003
-0.015732948 0.010620927 0.47200003
-0.014505134 0.010620927 0.47200003
-0.013305449 0.010643427 0.47300002
-0.012100562 0.01066593 0.47400004
-0.010890472 0.010688432 0.47500002
-0.0096548526 0.010688432 0.47500002
-0.0084369592 0.010710933 0.47600001
-0.0071987393 0.010710933 0.47600001
-0.005973042 0.010733436 0.47700003
-0.0047322209 0.010733436 0.47700003
-0.0034987193 0.010755938 0.47800002
-0.0022552968 0.010755938 0.47800002
-0.0010139913 0.01077844 0.47900003
0.00023203237 0.01077844 0.47900003
0.0014780562 0.01077844 0.47900003
0.0027297668 0.010800942 0.48000002
0.0039783916 0.010800942 0.48000002
0.0052270168 0.010800942 0.48000002
0.0064756419 0.010800942 0.48000002
0.007724267 0.010800942 0.48000002
0.0089728916 0.010800942 0.48000002
0.010242811 0.010823444 0.48100004
0.011494039 0.010823444 0.48100004
0.012745264 0.010823444 0.48100004
0.013996491 0.010823444 0.48100004
0.015247717 0.010823444 0.48100004
0.016533244 0.010845945 0.48200002
0.017787071 0.010845945 0.48200002
0.019040899 0.010845945 0.48200002
0.020294728 0.010845945 0.48200002
0.021548554 0.010845945 0.48200002
0.022802383 0.010845945 0.48200002
0.024056211 0.010845945 0.48200002
0.025310038 0.010845945 0.48200002
0.026563866 0.010845945 0.48200002
0.027702266 0.010800942 0.48000002
0.028890578 0.01077844 0.47900003
0.029947855 0.010710933 0.47600001
0.031055039 0.01066593 0.47400004
0.032083701 0.010598424 0.47100002
0.033026036 0.010508415 0.46700001
0.034020882 0.01044091 0.46400002
0.034848277 0.0103284 0.45900002
0.035649657 0.010215891 0.45400003
0.036425024 0.010103381 0.44900003
0.037258103 0.010013373 0.44500002
0.038156703 0.0099458676 0.44200003
0.038950764 0.009855859 0.43800002
0.039907072 0.0098108556 0.43600002
0.040758848 0.0097433496 0.43300003
0.041788474 0.009720847 0.43200001
0.042713571 0.0096758427 0.43000001
0.043628264 0.0096308393 0.42800003
0.044532549 0.009585836 0.42600003
0.045319285 0.0095183291 0.42300001
0.046200164 0.0094733257 0.42100003
0.046958286 0.0094058197 0.41800001
0.047815744 0.0093608154 0.41600001
0.04854526 0.0092933103 0.41300002
0.049379308 0.009248306 0.41100001
0.050202955 0.0092033017 0.40900001
0.051141538 0.0091808001 0.40800002
0.05207492 0.0091582984 0.40700001
0.053003103 0.0091357967 0.40600002
0.054059234 0.0091357967 0.40600002
0.054979611 0.009113295 0.40500003
0.056033134 0.009113295 0.40500003
0.056945708 0.0090907924 0.40400001
0.057996631 0.0090907924 0.40400001
0.059047561 0.0090907924 0.40400001
0.060098484 0.0090907924 0.40400001
0.061149415 0.0090907924 0.40400001
0.070126452 0.009450824 0.42000002
0.07155814 0.0094958274 0.42200002
0.072655886 0.0094958274 0.42200002
0.074103177 0.0095408317 0.42400002
0.075206131 0.0095408317 0.42400002
0.076309085 0.0095408317 0.42400002
0.077412039 0.0095408317 0.42400002
0.078514986 0.0095408317 0.42400002
0.07961794 0.0095408317 0.42400002
0.080530509 0.0095183291 0.42300001
0.081630856 0.0095183291 0.42300001
0.082535632 0.0094958274 0.42200002
0.091534019 0.0095183291 0.42300001
0.094399512 0.009585836 0.42600003
0.095956057 0.0096308393 0.42800003
0.097296208 0.009653341 0.42900002
0.098641567 0.0096758427 0.43000001
0.099992134 0.0096983453 0.43100002
0.10134789 0.009720847 0.43200001
0.10270885 0.0097433496 0.43300003
0.10383523 0.0097433496 0.43300003
0.10520399 0.0097658513 0.43400002
0.10633296 0.0097658513 0.43400002
0.10746191 0.0097658513 0.43400002
0.10859088 0.0097658513 0.43400002
0.10971984 0.0097658513 0.43400002
0.11059341 0.0097433496 0.43300003
0.1460596 0.011678519 0.51900005
0.14740968 0.011678519 0.51900005
0.14875975 0.011678519 0.51900005
0.15010983 0.011678519 0.51900005
0.15145992 0.011678519 0.51900005
0.15280998 0.011678519 0.51900005
0.15445709 0.01170102 0.52000004
0.15580976 0.01170102 0.52000004
0.15716243 0.01170102 0.52000004
0.15881996 0.011723522 0.52100003
0.16017523 0.011723522 0.52100003
0.16153051 0.011723522 0.52100003
0.16319841 0.011746024 0.52200001
0.16455631 0.011746024 0.52200001
0.16623202 0.011768525 0.523
0.1675925 0.011768525 0.523
0.16895299 0.011768525 0.523
0.17063913 0.011791028 0.52400005
0.17200221 0.011791028 0.52400005
0.17369615 0.01181353 0.52500004
0.17506182 0.01181353 0.52500004
0.17676355 0.011836031 0.52600002
0.17847048 0.011858533 0.52700001
0.17984138 0.011858533 0.52700001
0.18121226 0.011858533 0.52700001
0.18292959 0.011881035 0.528
0.18465215 0.011903538 0.52900004
0.18637989 0.01192604 0.53000003
0.18775859 0.01192604 0.53000003
0.18949415 0.011948542 0.53100002
0.19123489 0.011971043 0.53200001
0.19261879 0.011971043 0.53200001
0.19400269 0.011971043 0.53200001
0.19538657 0.011971043 0.53200001
0.19714035 0.011993546 0.53300005
0.19852684 0.011993546 0.53300005
0.2002884 0.012016048 0.53400004
0.2016775 0.012016048 0.53400004
0.2030666 0.012016048 0.53400004
0.20445569 0.012016048 0.53400004
0.20584479 0.012016048 0.53400004
0.20723388 0.012016048 0.53400004
0.20901366 0.012038549 0.53500003
0.21040535 0.012038549 0.53500003
0.21179704 0.012038549 0.53500003
0.21318874 0.012038549 0.53500003
0.21458043 0.012038549 0.53500003
0.21637583 0.012061051 0.53600001
0.21777011 0.012061051 0.53600001
0.21916442 0.012061051 0.53600001
0.22097018 0.012083553 0.537
0.22236709 0.012083553 0.537
0.22418071 0.012106055 0.53800005
0.2255802 0.012106055 0.53800005
0.2274016 0.012128557 0.53900003
0.22880369 0.012128557 0.53900003
0.2306329 0.012151059 0.54000002
0.23246729 0.01217356 0.54100001
0.23387459 0.01217356 0.54100001
0.23571682 0.012196064 0.54200006
0.23756422 0.012218566 0.54300004
0.23897673 0.012218566 0.54300004
0.24083194 0.012241067 0.54400003
0.24269235 0.012263569 0.54500002
0.24455796 0.012286071 0.546
0.24597827 0.012286071 0.546
0.24785171 0.012308573 0.54700005
0.24927463 0.012308573 0.54700005
0.25115585 0.012331075 0.54800004
0.25258136 0.012331075 0.54800004
0.25447038 0.012353577 0.54900002
0.25589851 0.012353577 0.54900002
0.2573266 0.012353577 0.54900002
0.25875473 0.012353577 0.54900002
0.26065674 0.012376078 0.55000001
0.26208749 0.012376078 0.55000001
0.26351818 0.012376078 0.55000001
0.26543063 0.01239858 0.551
0.26686394 0.01239858 0.551
-0.23245893 0.010442957 0.41600001
-0.23193298 0.010468061 0.41700003
-0.23084827 0.010468061 0.41700003
-0.22976351 0.010468061 0.41700003
-0.22922717 0.010493164 0.41800001
-0.22813982 0.010493164 0.41800001
-0.22705245 0.010493164 0.41800001
-0.22596513 0.010493164 0.41800001
-0.22487777 0.010493164 0.41800001
-0.22432584 0.010518268 0.41900003
-0.22323588 0.010518268 0.41900003
-0.22214593 0.010518268 0.41900003
-0.221056 0.010518268 0.41900003
-0.21996604 0.010518268 0.41900003
-0.21887611 0.010518268 0.41900003
-0.21778615 0.010518268 0.41900003
-0.21721336 0.010543371 0.42000002
-0.21612084 0.010543371 0.42000002
-0.21502827 0.010543371 0.42000002
-0.21393575 0.010543371 0.42000002
-0.21284319 0.010543371 0.42000002
-0.21175063 0.010543371 0.42000002
-0.2106581 0.010543371 0.42000002
-0.21006452 0.010568474 0.42100003
-0.20896937 0.010568474 0.42100003
-0.20836799 0.010593577 0.42200002
-0.20727023 0.010593577 0.42200002
-0.20617248 0.010593577 0.42200002
-0.20556068 0.01061868 0.42300001
-0.20446034 0.01061868 0.42300001
-0.20384075 0.010643784 0.42400002
-0.20273781 0.010643784 0.42400002
-0.20163484 0.010643784 0.42400002
-0.20053189 0.010643784 0.42400002
-0.19989929 0.010668887 0.42500001
-0.19879374 0.010668887 0.42500001
-0.19768818 0.010668887 0.42500001
-0.19658262 0.010668887 0.42500001
-0.19547707 0.010668887 0.42500001
-0.19482887 0.010693991 0.42600003
-0.19372071 0.010693991 0.42600003
-0.19261256 0.010693991 0.42600003
-0.1915044 0.010693991 0.42600003
-0.19084318 0.010719093 0.42700002
-0.18973243 0.010719093 0.42700002
-0.18862168 0.010719093 0.42700002
-0.18751091 0.010719093 0.42700002
-0.18640016 0.010719093 0.42700002
-0.18528941 0.010719093 0.42700002
-0.18417865 0.010719093 0.42700002
-0.1830679 0.010719093 0.42700002
-0.18238327 0.010744197 0.42800003
-0.18126991 0.010744197 0.42800003
-0.18015656 0.010744197 0.42800003
-0.1790432 0.010744197 0.42800003
-0.17834558 0.0107693 0.42900002
-0.1772296 0.0107693 0.42900002
-0.17652416 0.010794403 0.43000001
-0.17540561 0.010794403 0.43000001
-0.17469238 0.010819507 0.43100002
-0.1735712 0.010819507 0.43100002
-0.17285015 0.01084461 0.43200001
-0.17172639 0.01084461 0.43200001
-0.17060263 0.01084461 0.43200001
-0.1698712 0.010869713 0.43300003
-0.16874482 0.010869713 0.43300003
-0.16761845 0.010869713 0.43300003
-0.16649209 0.010869713 0.43300003
-0.16574764 0.010894816 0.43400002
-0.16461867 0.010894816 0.43400002
-0.16386642 0.010919919 0.43500003
-0.16273485 0.010919919 0.43500003
-0.16160329 0.010919919 0.43500003
-0.16084062 0.010945023 0.43600002
-0.15970644 0.010945023 0.43600002
-0.15857227 0.010945023 0.43600002
-0.15743811 0.010945023 0.43600002
-0.15666243 0.010970126 0.43700001
-0.15552567 0.010970126 0.43700001
-0.15438889 0.010970126 0.43700001
-0.15325212 0.010970126 0.43700001
-0.15211536 0.010970126 0.43700001
-0.1509786 0.010970126 0.43700001
-0.15018472 0.010995229 0.43800002
-0.14904533 0.010995229 0.43800002
-0.14790596 0.010995229 0.43800002
-0.14710169 0.011020333 0.43900001
-0.14595971 0.011020333 0.43900001
-0.14514762 0.011045435 0.44000003
-0.14400305 0.011045435 0.44000003
-0.14318314 0.011070538 0.44100001
-0.14203598 0.011070538 0.44100001
-0.14088881 0.011070538 0.44100001
-0.14005852 0.011095642 0.44200003
-0.13890873 0.011095642 0.44200003
-0.13775896 0.011095642 0.44200003
-0.13691825 0.011120745 0.44300002
-0.13576588 0.011120745 0.44300002
-0.13491736 0.011145849 0.44400004
-0.13376239 0.011145849 0.44400004
-0.13260742 0.011145849 0.44400004
-0.1317485 0.011170952 0.44500002
-0.13059092 0.011170952 0.44500002
-0.12943333 0.011170952 0.44500002
-0.12827575 0.011170952 0.44500002
-0.12711817 0.011170952 0.44500002
-0.12624365 0.011196055 0.44600001
-0.12508348 0.011196055 0.44600001
-0.12392329 0.011196055 0.44600001
-0.1227631 0.011196055 0.44600001
-0.12160293 0.011196055 0.44600001
-0.1207128 0.011221158 0.44700003
-0.11955003 0.011221158 0.44700003
-0.11838724 0.011221158 0.44700003
-0.11722445 0.011221158 0.44700003
-0.11606167 0.011221158 0.44700003
-0.11515594 0.011246261 0.44800001
-0.11399055 0.011246261 0.44800001
-0.11282516 0.011246261 0.44800001
-0.11165978 0.011246261 0.44800001
-0.11049441 0.011246261 0.44800001
-0.10932902 0.011246261 0.44800001
-0.10840508 0.011271365 0.44900003
-0.10723709 0.011271365 0.44900003
-0.1060691 0.011271365 0.44900003
-0.10490112 0.011271365 0.44900003
-0.10396416 0.011296468 0.45000002
-0.10279358 0.011296468 0.45000002
-0.10184882 0.011321572 0.45100003
-0.10067564 0.011321572 0.45100003
-0.099723078 0.011346675 0.45200002
-0.098547287 0.011346675 0.45200002
-0.097586922 0.011371777 0.45300001
-0.096408524 0.011371777 0.45300001
-0.09523014 0.011371777 0.45300001
-0.094259366 0.011396881 0.45400003
-0.093078382 0.011396881 0.45400003
-0.091897391 0.011396881 0.45400003
-0.090916209 0.011421984 0.45500001
-0.089732617 0.011421984 0.45500001
-0.088549025 0.011421984 0.45500001
-0.08755745 0.011447088 0.45600003
-0.08637125 0.011447088 0.45600003
-0.085185058 0.011447088 0.45600003
-0.083998866 0.011447088 0.45600003
-0.082812674 0.011447088 0.45600003
-0.081626482 0.011447088 0.45600003
-0.080440283 0.011447088 0.45600003
-0.07942789 0.011472191 0.45700002
-0.078239098 0.011472191 0.45700002
-0.077050298 0.011472191 0.45700002
-0.075861506 0.011472191 0.45700002
-0.074836113 0.011497295 0.45800003
-0.07364472 0.011497295 0.45800003
-0.07245332 0.011497295 0.45800003
-0.071417518 0.011522397 0.45900002
-0.070223518 0.011522397 0.45900002
-0.069179907 0.0115475 0.46000001
-0.067983314 0.0115475 0.46000001
-0.066931903 0.011572604 0.46100003
-0.065732703 0.011572604 0.46100003
-0.064673483 0.011597707 0.46200001
-0.063471682 0.011597707 0.46200001
-0.062269885 0.011597707 0.46200001
-0.06106808 0.011597707 0.46200001
-0.059995864 0.011622811 0.46300003
-0.058791459 0.011622811 0.46300003
-0.057587057 0.011622811 0.46300003
-0.056382652 0.011622811 0.46300003
-0.055297423 0.011647914 0.46400002
-0.054090418 0.011647914 0.46400002
-0.052997392 0.011673017 0.46500003
-0.051787786 0.011673017 0.46500003
-0.050686948 0.01169812 0.46600002
-0.049474742 0.01169812 0.46600002
-0.048262537 0.01169812 0.46600002
-0.047151294 0.011723223 0.46700001
-0.045936488 0.011723223 0.46700001
-0.044817444 0.011748327 0.46800002
-0.043600034 0.011748327 0.46800002
-0.042382624 0.011748327 0.46800002
-0.041165214 0.011748327 0.46800002
-0.039947804 0.011748327 0.46800002
-0.038730394 0.011748327 0.46800002
-0.037593145 0.01177343 0.46900001
-0.036373131 0.01177343 0.46900001
-0.035153121 0.01177343 0.46900001
-0.033933111 0.01177343 0.46900001
-0.032713097 0.01177343 0.46900001
-0.031560238 0.011798534 0.47000003
-0.030337628 0.011798534 0.47000003
-0.029115016 0.011798534 0.47000003
-0.027951749 0.011823636 0.47100002
-0.026726535 0.011823636 0.47100002
-0.02550132 0.011823636 0.47100002
-0.024276109 0.011823636 0.47100002
-0.023050895 0.011823636 0.47100002
-0.021825681 0.011823636 0.47100002
-0.02060047 0.011823636 0.47100002
-0.019375255 0.011823636 0.47100002
-0.018188577 0.01184874 0.47200003
-0.016960764 0.01184874 0.47200003
-0.015732948 0.01184874 0.47200003
-0.014505134 0.01184874 0.47200003
-0.013305449 0.011873843 0.47300002
-0.012100562 0.011898947 0.47400004
-0.010890472 0.01192405 0.47500002
-0.0096548526 0.01192405 0.47500002
-0.0084369592 0.011949153 0.47600001
-0.0071987393 0.011949153 0.47600001
-0.005973042 0.011974256 0.47700003
-0.0047421418 0.011999359 0.47800002
-0.0034987193 0.011999359 0.47800002
-0.0022552968 0.011999359 0.47800002
-0.0010139913 0.012024463 0.47900003
0.00023203237 0.012024463 0.47900003
0.0014780562 0.012024463 0.47900003
0.0027240796 0.012024463 0.47900003
0.0039783916 0.012049566 0.48000002
0.0052270168 0.012049566 0.48000002
0.0064756419 0.012049566 0.48000002
0.007724267 0.012049566 0.48000002
0.0089728916 0.012049566 0.48000002
0.010242811 0.01207467 0.48100004
0.011494039 0.01207467 0.48100004
0.012745264 0.01207467 0.48100004
0.013996491 0.01207467 0.48100004
0.015279417 0.012099773 0.48200002
0.016533244 0.012099773 0.48200002
0.017787071 0.012099773 0.48200002
0.019040899 0.012099773 0.48200002
0.020294728 0.012099773 0.48200002
0.021548554 0.012099773 0.48200002
0.022802383 0.012099773 0.48200002
0.024056211 0.012099773 0.48200002
0.025310038 0.012099773 0.48200002
0.026508754 0.01207467 0.48100004
0.027702266 0.012049566 0.48000002
0.028890578 0.012024463 0.47900003
0.029947855 0.011949153 0.47600001
0.030989522 0.011873843 0.47300002
0.032083701 0.011823636 0.47100002
0.033026036 0.011723223 0.46700001
0.033947565 0.011622811 0.46300003
0.034772355 0.011497295 0.45800003
0.036343899 0.011246261 0.44800001
0.037174378 0.011145849 0.44400004
0.038070373 0.011070538 0.44100001
0.038861834 0.010970126 0.43700001
0.039815545 0.010919919 0.43500003
0.040758848 0.010869713 0.43300003
0.041788474 0.01084461 0.43200001
0.042614236 0.0107693 0.42900002
0.043526325 0.010719093 0.42700002
0.04442801 0.010668887 0.42500001
0.045319285 0.01061868 0.42300001
0.04609042 0.010543371 0.42000002
0.046958286 0.010493164 0.41800001
0.047815744 0.010442957 0.41600001
0.04854526 0.010367648 0.41300002
0.049379308 0.010317441 0.41100001
0.050202955 0.010267234 0.40900001
0.051016189 0.010217028 0.40700001
0.05207492 0.010217028 0.40700001
0.053003103 0.010191925 0.40600002
0.054059234 0.010191925 0.40600002
0.054979611 0.010166822 0.40500003
0.055894777 0.010141718 0.40400001
0.056945708 0.010141718 0.40400001
0.057996631 0.010141718 0.40400001
0.059047561 0.010141718 0.40400001
0.060098484 0.010141718 0.40400001
0.069033906 0.010543371 0.42000002
0.070460387 0.010593577 0.42200002
0.07155814 0.010593577 0.42200002
0.072828054 0.01061868 0.42300001
0.074103177 0.010643784 0.42400002
0.075206131 0.010643784 0.42400002
0.076309085 0.010643784 0.42400002
0.077412039 0.010643784 0.42400002
0.078514986 0.010643784 0.42400002
0.07961794 0.010643784 0.42400002
0.080530509 0.01061868 0.42300001
0.081630856 0.01061868 0.42300001
0.082535632 0.010593577 0.42200002
0.094399512 0.010693991 0.42600003
0.095731854 0.010719093 0.42700002
0.09706942 0.010744197 0.42800003
0.098412171 0.0107693 0.42900002
0.09976013 0.010794403 0.43000001
0.10111329 0.010819507 0.43100002
0.10247165 0.01084461 0.43200001
0.10359541 0.01084461 0.43200001
0.10496158 0.010869713 0.43300003
0.10608795 0.010869713 0.43300003
0.10721431 0.010869713 0.43300003
0.10834067 0.010869713 0.43300003
0.10946704 0.010869713 0.43300003
0.14308321 0.01300349 0.51800001
0.1460596 0.013028594 0.51900005
0.14740968 0.013028594 0.51900005
0.14875975 0.013028594 0.51900005
0.15010983 0.013028594 0.51900005
0.15145992 0.013028594 0.51900005
0.15310441 0.013053698 0.52000004
0.15445709 0.013053698 0.52000004
0.15580976 0.013053698 0.52000004
0.15716243 0.013053698 0.52000004
0.15881996 0.0130788 0.52100003
0.16017523 0.0130788 0.52100003
0.16153051 0.0130788 0.52100003
0.16319841 0.013103903 0.52200001
0.16455631 0.013103903 0.52200001
0.16623202 0.013129006 0.523
0.1675925 0.013129006 0.523
0.16895299 0.013129006 0.523
0.17031346 0.013129006 0.523
0.17200221 0.01315411 0.52400005
0.17369615 0.013179214 0.52500004
0.17506182 0.013179214 0.52500004
0.17676355 0.013204317 0.52600002
0.17813183 0.013204317 0.52600002
0.17984138 0.013229419 0.52700001
0.18121226 0.013229419 0.52700001
0.18292959 0.013254522 0.528
0.18465215 0.013279626 0.52900004
0.18637989 0.013304729 0.53000003
0.18775859 0.013304729 0.53000003
0.18949415 0.013329833 0.53100002
0.19123489 0.013354936 0.53200001
0.19261879 0.013354936 0.53200001
0.19400269 0.013354936 0.53200001
0.19575386 0.013380039 0.53300005
0.19714035 0.013380039 0.53300005
0.19852684 0.013380039 0.53300005
0.2002884 0.013405142 0.53400004
0.2016775 0.013405142 0.53400004
0.2030666 0.013405142 0.53400004
0.20445569 0.013405142 0.53400004
0.20584479 0.013405142 0.53400004
0.20762195 0.013430245 0.53500003
0.20901366 0.013430245 0.53500003
0.21040535 0.013430245 0.53500003
0.21179704 0.013430245 0.53500003
0.21318874 0.013430245 0.53500003
0.21458043 0.013430245 0.53500003
0.21637583 0.013455349 0.53600001
0.21777011 0.013455349 0.53600001
0.21916442 0.013455349 0.53600001
0.22097018 0.013480452 0.537
0.22236709 0.013480452 0.537
0.22418071 0.013505556 0.53800005
0.2255802 0.013505556 0.53800005
0.2274016 0.013530659 0.53900003
0.22880369 0.013530659 0.53900003
0.2306329 0.013555761 0.54000002
0.23246729 0.013580865 0.54100001
0.23387459 0.013580865 0.54100001
0.23571682 0.013605969 0.54200006
0.23756422 0.013631072 0.54300004
0.23897673 0.013631072 0.54300004
0.24083194 0.013656175 0.54400003
0.24269235 0.013681278 0.54500002
0.24455796 0.013706381 0.546
0.24597827 0.013706381 0.546
0.24785171 0.013731485 0.54700005
0.24973033 0.013756588 0.54800004
0.25115585 0.013756588 0.54800004
0.25304225 0.013781691 0.54900002
0.25447038 0.013781691 0.54900002
0.25589851 0.013781691 0.54900002
0.2573266 0.013781691 0.54900002
0.25875473 0.013781691 0.54900002
0.26065674 0.013806794 0.55000001
0.26208749 0.013806794 0.55000001
0.26399732 0.013831897 0.551
0.26543063 0.013831897 0.551
0.26686394 0.013831897 0.551
-0.23245893 0.011525099 0.41600001
-0.23193298 0.011552804 0.41700003
-0.23084827 0.011552804 0.41700003
-0.23031449 0.011580508 0.41800001
-0.22922717 0.011580508 0.41800001
-0.22813982 0.011580508 0.41800001
-0.22705245 0.011580508 0.41800001
-0.22596513 0.011580508 0.41800001
-0.22541577 0.011608213 0.41900003
-0.22432584 0.011608213 0.41900003
-0.22323588 0.011608213 0.41900003
-0.22214593 0.011608213 0.41900003
-0.221056 0.011608213 0.41900003
-0.21996604 0.011608213 0.41900003
-0.21887611 0.011608213 0.41900003
-0.21778615 0.011608213 0.41900003
-0.21721336 0.011635917 0.42000002
-0.21612084 0.011635917 0.42000002
-0.21502827 0.011635917 0.42000002
-0.21393575 0.011635917 0.42000002
-0.21284319 0.011635917 0.42000002
-0.21175063 0.011635917 0.42000002
-0.2106581 0.011635917 0.42000002
-0.21006452 0.011663623 0.42100003
-0.20896937 0.011663623 0.42100003
-0.20787422 0.011663623 0.42100003
-0.20727023 0.011691327 0.42200002
-0.20617248 0.011691327 0.42200002
-0.20556068 0.011719031 0.42300001
-0.20446034 0.011719031 0.42300001
-0.20384075 0.011746736 0.42400002
-0.20273781 0.011746736 0.42400002
-0.20163484 0.011746736 0.42400002
-0.20053189 0.011746736 0.42400002
-0.19989929 0.01177444 0.42500001
-0.19879374 0.01177444 0.42500001
-0.19768818 0.01177444 0.42500001
-0.19658262 0.01177444 0.42500001
-0.19547707 0.01177444 0.42500001
-0.19482887 0.011802145 0.42600003
-0.19372071 0.011802145 0.42600003
-0.19261256 0.011802145 0.42600003
-0.1915044 0.011802145 0.42600003
-0.19084318 0.011829849 0.42700002
-0.18973243 0.011829849 0.42700002
-0.18862168 0.011829849 0.42700002
-0.18751091 0.011829849 0.42700002
-0.18640016 0.011829849 0.42700002
-0.18528941 0.011829849 0.42700002
-0.18417865 0.011829849 0.42700002
-0.1830679 0.011829849 0.42700002
-0.18238327 0.011857554 0.42800003
-0.18126991 0.011857554 0.42800003
-0.18015656 0.011857554 0.42800003
-0.17946152 0.011885259 0.42900002
-0.17834558 0.011885259 0.42900002
-0.1772296 0.011885259 0.42900002
-0.17652416 0.011912963 0.43000001
-0.17581353 0.011940668 0.43100002
-0.17469238 0.011940668 0.43100002
-0.1735712 0.011940668 0.43100002
-0.17285015 0.011968372 0.43200001
-0.17172639 0.011968372 0.43200001
-0.17060263 0.011968372 0.43200001
