# .PCD v0.7 - Point Cloud Data file format
VERSION 0.7
FIELDS x y z
SIZE 4 4 4
TYPE F F F
COUNT 1 1 1
WIDTH 1342
HEIGHT 1
VIEWPOINT 0 0 0 1 0 0 0
POINTS 1342
DATA ascii
0.035611 -0.050469827 0.48100004
0.036865 -0.050469827 0.48100004
0.038118996 -0.050469827 0.48100004
0.039372995 -0.050469827 0.48100004
0.040626992 -0.050469827 0.48100004
0.041880991 -0.050469827 0.48100004
0.043134987 -0.050469827 0.48100004
0.044388983 -0.050469827 0.48100004
0.045642983 -0.050469827 0.48100004
0.046896979 -0.050469827 0.48100004
0.048150979 -0.050469827 0.48100004
0.049404975 -0.050469827 0.48100004
0.050658975 -0.050469827 0.48100004
0.051912971 -0.050469827 0.48100004
0.053166967 -0.050469827 0.48100004
0.054420967 -0.050469827 0.48100004
0.055674966 -0.050469827 0.48100004
0.056928962 -0.050469827 0.48100004
0.058182959 -0.050469827 0.48100004
0.059436958 -0.050469827 0.48100004
0.060690954 -0.050469827 0.48100004
0.062073734 -0.050574753 0.48200002
0.063330337 -0.050574753 0.48200002
0.064586945 -0.050574753 0.48200002
0.065980151 -0.05067968 0.48300001
0.067239359 -0.05067968 0.48300001
0.068498582 -0.05067968 0.48300001
0.069757789 -0.05067968 0.48300001
0.070869967 -0.050574753 0.48200002
0.072126575 -0.050574753 0.48200002
0.073383175 -0.050574753 0.48200002
0.074639782 -0.050574753 0.48200002
0.07589639 -0.050574753 0.48200002
0.076992922 -0.050469827 0.48100004
0.078246921 -0.050469827 0.48100004
0.073316984 -0.039662357 0.37800002
0.074302457 -0.039662357 0.37800002
0.075287923 -0.039662357 0.37800002
0.076273397 -0.039662357 0.37800002
0.077258863 -0.039662357 0.37800002
0.078244336 -0.039662357 0.37800002
0.10164846 -0.050259974 0.47900003
0.10289724 -0.050259974 0.47900003
0.10414603 -0.050259974 0.47900003
0.10539481 -0.050259974 0.47900003
0.10664359 -0.050259974 0.47900003
0.10811762 -0.0503649 0.48000002
0.10936901 -0.0503649 0.48000002
0.1106204 -0.0503649 0.48000002
0.11187179 -0.0503649 0.48000002
0.11312318 -0.0503649 0.48000002
0.11812875 -0.0503649 0.48000002
0.11938014 -0.0503649 0.48000002
0.12038021 -0.050259974 0.47900003
0.12188292 -0.0503649 0.48000002
0.1231343 -0.0503649 0.48000002
0.12438569 -0.0503649 0.48000002
0.1256371 -0.0503649 0.48000002
0.12688847 -0.0503649 0.48000002
0.12813987 -0.0503649 0.48000002
0.12939125 -0.0503649 0.48000002
0.13064265 -0.0503649 0.48000002
0.13189404 -0.0503649 0.48000002
0.13314544 -0.0503649 0.48000002
0.13439682 -0.0503649 0.48000002
0.13536562 -0.050259974 0.47900003
0.1366144 -0.050259974 0.47900003
0.13757536 -0.050155044 0.47800002
0.13853112 -0.050050121 0.47700003
0.1397747 -0.050050121 0.47700003
0.14072262 -0.049945191 0.47600001
0.14106886 -0.049630411 0.47300002
0.139828 -0.047531873 0.45300001
0.13820751 -0.046587534 0.44400004
0.13905114 -0.046482604 0.44300002
0.13988958 -0.046377681 0.44200003
0.1404037 -0.046167824 0.44000003
0.14058569 -0.045853041 0.43700001
0.14140067 -0.045748118 0.43600002
0.14221044 -0.045643192 0.43500003
0.14301498 -0.045538262 0.43400002
0.14348216 -0.045328408 0.43200001
0.14427368 -0.045223482 0.43100002
0.14505997 -0.045118555 0.43000001
0.14550111 -0.044908702 0.42800003
0.1459318 -0.044698849 0.42600003
0.14635207 -0.044488996 0.42400002
0.14716132 -0.044069286 0.42000002
0.1475503 -0.043859433 0.41800001
0.14828447 -0.043754507 0.41700003
0.14865519 -0.043544654 0.41500002
0.14937632 -0.043439727 0.41400003
0.14936538 -0.043124944 0.41100001
0.14656083 -0.040291917 0.384
0.14679341 -0.040082067 0.38200003
0.14740241 -0.039977137 0.38100001
0.14800623 -0.039872214 0.38000003
0.1486048 -0.039767284 0.37900001
0.14959288 -0.039767284 0.37900001
0.15058096 -0.039767284 0.37900001
0.19522481 -0.050889533 0.48500001
0.19648923 -0.050889533 0.48500001
0.19775365 -0.050889533 0.48500001
0.19901808 -0.050889533 0.48500001
0.20028251 -0.050889533 0.48500001
0.20154692 -0.050889533 0.48500001
0.20322953 -0.050994463 0.48600003
0.20449656 -0.050994463 0.48600003
0.20576359 -0.050994463 0.48600003
0.20703062 -0.050994463 0.48600003
0.20829767 -0.050994463 0.48600003
0.2095647 -0.050994463 0.48600003
0.21083173 -0.050994463 0.48600003
0.21209876 -0.050994463 0.48600003
0.21336579 -0.050994463 0.48600003
0.21463284 -0.050994463 0.48600003
0.21589985 -0.050994463 0.48600003
0.2171669 -0.050994463 0.48600003
0.21843392 -0.050994463 0.48600003
0.21970096 -0.050994463 0.48600003
0.22051331 -0.050889533 0.48500001
0.22177775 -0.050889533 0.48500001
0.22304216 -0.050889533 0.48500001
0.2243066 -0.050889533 0.48500001
0.22557104 -0.050889533 0.48500001
0.22683544 -0.050889533 0.48500001
0.22809988 -0.050889533 0.48500001
-0.26924026 -0.049011189 0.47900003
-0.26799148 -0.049011189 0.47900003
-0.26674268 -0.049011189 0.47900003
-0.2654939 -0.049011189 0.47900003
-0.26424512 -0.049011189 0.47900003
-0.26299632 -0.049011189 0.47900003
-0.26174754 -0.049011189 0.47900003
-0.26104259 -0.049113508 0.48000002
-0.25979123 -0.049113508 0.48000002
-0.25853983 -0.049113508 0.48000002
-0.25728843 -0.049113508 0.48000002
-0.25603706 -0.049113508 0.48000002
-0.25478566 -0.049113508 0.48000002
-0.25353426 -0.049113508 0.48000002
-0.25228286 -0.049113508 0.48000002
-0.25103149 -0.049113508 0.48000002
-0.2497801 -0.049113508 0.48000002
-0.24801093 -0.049011189 0.47900003
-0.24676216 -0.049011189 0.47900003
-0.24551338 -0.049011189 0.47900003
-0.24426457 -0.049011189 0.47900003
-0.2430158 -0.049011189 0.47900003
-0.24176702 -0.049011189 0.47900003
-0.24051824 -0.049011189 0.47900003
-0.23926945 -0.049011189 0.47900003
-0.23802066 -0.049011189 0.47900003
-0.2367719 -0.049011189 0.47900003
-0.23601478 -0.049113508 0.48000002
-0.23476341 -0.049113508 0.48000002
-0.23351201 -0.049113508 0.48000002
-0.23226061 -0.049113508 0.48000002
-0.23100923 -0.049113508 0.48000002
-0.22975783 -0.049113508 0.48000002
-0.22850645 -0.049113508 0.48000002
-0.22725505 -0.049113508 0.48000002
-0.22600368 -0.049113508 0.48000002
-0.22475228 -0.049113508 0.48000002
-0.22350089 -0.049113508 0.48000002
-0.22224949 -0.049113508 0.48000002
-0.22099811 -0.049113508 0.48000002
-0.21974671 -0.049113508 0.48000002
-0.21849532 -0.049113508 0.48000002
-0.21724394 -0.049113508 0.48000002
-0.21554255 -0.049011189 0.47900003
-0.21429378 -0.049011189 0.47900003
-0.21304499 -0.049011189 0.47900003
-0.21179621 -0.049011189 0.47900003
-0.21054743 -0.049011189 0.47900003
-0.20929866 -0.049011189 0.47900003
-0.20804986 -0.049011189 0.47900003
-0.20680109 -0.049011189 0.47900003
-0.20555229 -0.049011189 0.47900003
-0.20430352 -0.049011189 0.47900003
-0.20305473 -0.049011189 0.47900003
-0.20180595 -0.049011189 0.47900003
-0.20055716 -0.049011189 0.47900003
-0.19930837 -0.049011189 0.47900003
-0.19847308 -0.049113508 0.48000002
-0.19722168 -0.049113508 0.48000002
-0.1959703 -0.049113508 0.48000002
-0.1947189 -0.049113508 0.48000002
-0.19346751 -0.049113508 0.48000002
-0.19221611 -0.049113508 0.48000002
-0.19096473 -0.049113508 0.48000002
-0.18971334 -0.049113508 0.48000002
-0.18846196 -0.049113508 0.48000002
-0.18721056 -0.049113508 0.48000002
-0.18595918 -0.049113508 0.48000002
-0.18470778 -0.049113508 0.48000002
-0.18345638 -0.049113508 0.48000002
-0.18220499 -0.049113508 0.48000002
-0.18095361 -0.049113508 0.48000002
-0.17970222 -0.049113508 0.48000002
-0.17845082 -0.049113508 0.48000002
-0.17719944 -0.049113508 0.48000002
-0.17594804 -0.049113508 0.48000002
-0.17506061 -0.049215831 0.48100004
-0.17380661 -0.049215831 0.48100004
-0.17255262 -0.049215831 0.48100004
-0.17129862 -0.049215831 0.48100004
-0.17004463 -0.049215831 0.48100004
-0.16879062 -0.049215831 0.48100004
-0.16753662 -0.049215831 0.48100004
-0.16628262 -0.049215831 0.48100004
-0.16502862 -0.049215831 0.48100004
-0.16377464 -0.049215831 0.48100004
-0.16252063 -0.049215831 0.48100004
-0.16126664 -0.049215831 0.48100004
-0.16001263 -0.049215831 0.48100004
-0.15875864 -0.049215831 0.48100004
-0.15750465 -0.049215831 0.48100004
-0.15625066 -0.049215831 0.48100004
-0.15499665 -0.049215831 0.48100004
-0.15374266 -0.049215831 0.48100004
-0.15248865 -0.049215831 0.48100004
-0.15123464 -0.049215831 0.48100004
-0.14966884 -0.049113508 0.48000002
-0.14841744 -0.049113508 0.48000002
-0.14716606 -0.049113508 0.48000002
-0.14591466 -0.049113508 0.48000002
-0.14466329 -0.049113508 0.48000002
-0.14341189 -0.049113508 0.48000002
-0.14216051 -0.049113508 0.48000002
-0.14090911 -0.049113508 0.48000002
-0.13965772 -0.049113508 0.48000002
-0.13840632 -0.049113508 0.48000002
-0.13715494 -0.049113508 0.48000002
-0.13590355 -0.049113508 0.48000002
-0.13465215 -0.049113508 0.48000002
-0.13340077 -0.049113508 0.48000002
-0.13214937 -0.049113508 0.48000002
-0.13089798 -0.049113508 0.48000002
-0.12964658 -0.049113508 0.48000002
-0.1283952 -0.049113508 0.48000002
-0.1274087 -0.049215831 0.48100004
-0.12615471 -0.049215831 0.48100004
-0.1249007 -0.049215831 0.48100004
-0.12364671 -0.049215831 0.48100004
-0.12213825 -0.049113508 0.48000002
-0.12088686 -0.049113508 0.48000002
-0.11963547 -0.049113508 0.48000002
-0.11838408 -0.049113508 0.48000002
-0.11713269 -0.049113508 0.48000002
-0.11588129 -0.049113508 0.48000002
-0.11462991 -0.049113508 0.48000002
-0.11337852 -0.049113508 0.48000002
-0.11212713 -0.049113508 0.48000002
-0.11087573 -0.049113508 0.48000002
-0.10962434 -0.049113508 0.48000002
-0.10837295 -0.049113508 0.48000002
-0.10712156 -0.049113508 0.48000002
-0.10587017 -0.049113508 0.48000002
-0.10461878 -0.049113508 0.48000002
-0.10336739 -0.049113508 0.48000002
-0.102116 -0.049113508 0.48000002
-0.10086461 -0.049113508 0.48000002
-0.099613219 -0.049113508 0.48000002
-0.098361827 -0.049113508 0.48000002
-0.097110443 -0.049113508 0.48000002
-0.095859051 -0.049113508 0.48000002
-0.094607651 -0.049113508 0.48000002
-0.093356259 -0.049113508 0.48000002
-0.092104875 -0.049113508 0.48000002
-0.090853482 -0.049113508 0.48000002
-0.08960209 -0.049113508 0.48000002
-0.088350706 -0.049113508 0.48000002
-0.087099314 -0.049113508 0.48000002
-0.085847922 -0.049113508 0.48000002
-0.08459653 -0.049113508 0.48000002
-0.083345145 -0.049113508 0.48000002
-0.082093753 -0.049113508 0.48000002
-0.080842361 -0.049113508 0.48000002
-0.079590969 -0.049113508 0.48000002
-0.078339577 -0.049113508 0.48000002
-0.077088185 -0.049113508 0.48000002
-0.075836793 -0.049113508 0.48000002
-0.074585408 -0.049113508 0.48000002
-0.073334016 -0.049113508 0.48000002
-0.072082624 -0.049113508 0.48000002
-0.070831232 -0.049113508 0.48000002
-0.069579847 -0.049113508 0.48000002
-0.068328455 -0.049113508 0.48000002
-0.067077063 -0.049113508 0.48000002
-0.065825678 -0.049113508 0.48000002
-0.064574286 -0.049113508 0.48000002
-0.063322894 -0.049113508 0.48000002
-0.062071498 -0.049113508 0.48000002
-0.060820106 -0.049113508 0.48000002
-0.059568722 -0.049113508 0.48000002
-0.058438826 -0.049215831 0.48100004
-0.057184827 -0.049215831 0.48100004
-0.055930831 -0.049215831 0.48100004
-0.054676831 -0.049215831 0.48100004
-0.053422835 -0.049215831 0.48100004
-0.052168839 -0.049215831 0.48100004
-0.050914843 -0.049215831 0.48100004
-0.049660839 -0.049215831 0.48100004
-0.048406843 -0.049215831 0.48100004
-0.047152847 -0.049215831 0.48100004
-0.045898847 -0.049215831 0.48100004
-0.044644851 -0.049215831 0.48100004
-0.043390855 -0.049215831 0.48100004
-0.042136859 -0.049215831 0.48100004
-0.040882856 -0.049215831 0.48100004
-0.03962886 -0.049215831 0.48100004
-0.038374864 -0.049215831 0.48100004
-0.037043691 -0.049113508 0.48000002
-0.035792299 -0.049113508 0.48000002
-0.03454091 -0.049113508 0.48000002
-0.033289514 -0.049113508 0.48000002
-0.032038126 -0.049113508 0.48000002
-0.030786736 -0.049113508 0.48000002
-0.029535346 -0.049113508 0.48000002
-0.028283956 -0.049113508 0.48000002
-0.027032563 -0.049113508 0.48000002
-0.025834886 -0.049215831 0.48100004
-0.024580888 -0.049215831 0.48100004
-0.023326891 -0.049215831 0.48100004
-0.022072893 -0.049215831 0.48100004
-0.020775612 -0.049113508 0.48000002
-0.019564897 -0.049215831 0.48100004
-0.018310899 -0.049215831 0.48100004
-0.01702144 -0.049113508 0.48000002
-0.01577005 -0.049113508 0.48000002
-0.014548906 -0.049215831 0.48100004
-0.013267268 -0.049113508 0.48000002
-0.012015877 -0.049113508 0.48000002
-0.010786914 -0.049215831 0.48100004
-0.0095329154 -0.049215831 0.48100004
-0.0082789175 -0.049215831 0.48100004
-0.0070103151 -0.049113508 0.48000002
-0.0057709226 -0.049215831 0.48100004
-0.0045169252 -0.049215831 0.48100004
-0.0032629275 -0.049215831 0.48100004
-0.0020089296 -0.049215831 0.48100004
-0.000754932 -0.049215831 0.48100004
0.00049906567 -0.049215831 0.48100004
0.0017494187 -0.049113508 0.48000002
0.0030070611 -0.049215831 0.48100004
0.0042522 -0.049113508 0.48000002
0.0055035907 -0.049113508 0.48000002
0.0067549809 -0.049113508 0.48000002
0.0080063716 -0.049113508 0.48000002
0.0092770495 -0.049215831 0.48100004
0.010531047 -0.049215831 0.48100004
0.011785045 -0.049215831 0.48100004
0.013039042 -0.049215831 0.48100004
0.01429304 -0.049215831 0.48100004
0.015547038 -0.049215831 0.48100004
0.016801035 -0.049215831 0.48100004
0.018092569 -0.04931815 0.48200002
0.019349175 -0.04931815 0.48200002
0.020605778 -0.04931815 0.48200002
0.021862384 -0.04931815 0.48200002
0.023118988 -0.04931815 0.48200002
0.024375591 -0.04931815 0.48200002
0.02557902 -0.049215831 0.48100004
0.026833016 -0.049215831 0.48100004
0.028087014 -0.049215831 0.48100004
0.029341014 -0.049215831 0.48100004
0.030595008 -0.049215831 0.48100004
0.031849008 -0.049215831 0.48100004
0.033103008 -0.049215831 0.48100004
0.034357004 -0.049215831 0.48100004
0.035611 -0.049215831 0.48100004
0.036865 -0.049215831 0.48100004
0.038118996 -0.049215831 0.48100004
0.039372995 -0.049215831 0.48100004
0.040626992 -0.049215831 0.48100004
0.041880991 -0.049215831 0.48100004
0.043134987 -0.049215831 0.48100004
0.044388983 -0.049215831 0.48100004
0.045642983 -0.049215831 0.48100004
0.046896979 -0.049215831 0.48100004
0.048150979 -0.049215831 0.48100004
0.049404975 -0.049215831 0.48100004
0.050658975 -0.049215831 0.48100004
0.051912971 -0.049215831 0.48100004
0.053166967 -0.049215831 0.48100004
0.054420967 -0.049215831 0.48100004
0.055674966 -0.049215831 0.48100004
0.056928962 -0.049215831 0.48100004
0.058182959 -0.049215831 0.48100004
0.059436958 -0.049215831 0.48100004
0.06081713 -0.04931815 0.48200002
0.062073734 -0.04931815 0.48200002
0.063330337 -0.04931815 0.48200002
0.064586945 -0.04931815 0.48200002
0.065843545 -0.04931815 0.48200002
0.067239359 -0.049420469 0.48300001
0.068498582 -0.049420469 0.48300001
0.069613367 -0.04931815 0.48200002
0.070869967 -0.04931815 0.48200002
0.072126575 -0.04931815 0.48200002
0.073383175 -0.04931815 0.48200002
0.074484929 -0.049215831 0.48100004
0.075738929 -0.049215831 0.48100004
0.076992922 -0.049215831 0.48100004
0.078246921 -0.049215831 0.48100004
0.073316984 -0.038676888 0.37800002
0.074302457 -0.038676888 0.37800002
0.075287923 -0.038676888 0.37800002
0.076273397 -0.038676888 0.37800002
0.077258863 -0.038676888 0.37800002
0.078244336 -0.038676888 0.37800002
0.10164846 -0.049011189 0.47900003
0.10268243 -0.048908871 0.47800002
0.10414603 -0.049011189 0.47900003
0.10539481 -0.049011189 0.47900003
0.10664359 -0.049011189 0.47900003
0.10789238 -0.049011189 0.47900003
0.10936901 -0.049113508 0.48000002
0.1106204 -0.049113508 0.48000002
0.11187179 -0.049113508 0.48000002
0.11312318 -0.049113508 0.48000002
0.11437457 -0.049113508 0.48000002
0.11812875 -0.049113508 0.48000002
0.11938014 -0.049113508 0.48000002
0.12038021 -0.049011189 0.47900003
0.12188292 -0.049113508 0.48000002
0.1231343 -0.049113508 0.48000002
0.12438569 -0.049113508 0.48000002
0.1256371 -0.049113508 0.48000002
0.12688847 -0.049113508 0.48000002
0.12813987 -0.049113508 0.48000002
0.12939125 -0.049113508 0.48000002
0.13064265 -0.049113508 0.48000002
0.13189404 -0.049113508 0.48000002
0.13314544 -0.049113508 0.48000002
0.13439682 -0.049113508 0.48000002
0.13536562 -0.049011189 0.47900003
0.1366144 -0.049011189 0.47900003
0.13757536 -0.048908871 0.47800002
0.13882153 -0.048908871 0.47800002
0.1397747 -0.048806552 0.47700003
0.14042699 -0.04860191 0.47500002
0.14106886 -0.048397269 0.47300002
0.14013667 -0.046453197 0.45400003
0.13851878 -0.045532316 0.44500002
0.13988958 -0.045225359 0.44200003
0.1407228 -0.045123037 0.44100001
0.14090741 -0.044816077 0.43800002
0.14172497 -0.044713758 0.43700001
0.14253736 -0.044611439 0.43600002
0.14301498 -0.044406798 0.43400002
0.14381431 -0.044304479 0.43300003
0.14427368 -0.044099838 0.43100002
0.14505997 -0.043997519 0.43000001
0.14516115 -0.043690559 0.42700002
0.14558923 -0.043485921 0.42500001
0.1460069 -0.04328128 0.42300001
0.14641413 -0.043076642 0.42100003
0.14716132 -0.042974319 0.42000002
0.1475503 -0.042769682 0.41800001
0.14792886 -0.04256504 0.41600001
0.14865519 -0.042462721 0.41500002
0.1490155 -0.042258084 0.41300002
0.14936538 -0.042053442 0.41100001
0.14970483 -0.041848801 0.40900001
0.14617917 -0.039188489 0.38300002
0.14640912 -0.038983848 0.38100001
0.14701554 -0.038881529 0.38000003
0.14800623 -0.038881529 0.38000003
0.1486048 -0.038779207 0.37900001
0.14959288 -0.038779207 0.37900001
0.15058096 -0.038779207 0.37900001
0.19522481 -0.049625106 0.48500001
0.19648923 -0.049625106 0.48500001
0.19775365 -0.049625106 0.48500001
0.19901808 -0.049625106 0.48500001
0.20028251 -0.049625106 0.48500001
0.2019625 -0.049727429 0.48600003
0.20322953 -0.049727429 0.48600003
0.20449656 -0.049727429 0.48600003
0.20576359 -0.049727429 0.48600003
0.20703062 -0.049727429 0.48600003
0.20829767 -0.049727429 0.48600003
0.2095647 -0.049727429 0.48600003
0.21083173 -0.049727429 0.48600003
0.21209876 -0.049727429 0.48600003
0.21336579 -0.049727429 0.48600003
0.21463284 -0.049727429 0.48600003
0.21589985 -0.049727429 0.48600003
0.2171669 -0.049727429 0.48600003
0.21843392 -0.049727429 0.48600003
0.21970096 -0.049727429 0.48600003
0.22096799 -0.049727429 0.48600003
0.22223502 -0.049727429 0.48600003
0.22304216 -0.049625106 0.48500001
0.2243066 -0.049625106 0.48500001
0.22557104 -0.049625106 0.48500001
0.22683544 -0.049625106 0.48500001
0.22857019 -0.049727429 0.48600003
-0.26924026 -0.047762409 0.47900003
-0.26799148 -0.047762409 0.47900003
-0.26674268 -0.047762409 0.47900003
-0.2654939 -0.047762409 0.47900003
-0.26424512 -0.047762409 0.47900003
-0.26299632 -0.047762409 0.47900003
-0.26229399 -0.04786212 0.48000002
-0.26104259 -0.04786212 0.48000002
-0.25979123 -0.04786212 0.48000002
-0.25853983 -0.04786212 0.48000002
-0.25728843 -0.04786212 0.48000002
-0.25603706 -0.04786212 0.48000002
-0.25478566 -0.04786212 0.48000002
-0.25353426 -0.04786212 0.48000002
-0.25228286 -0.04786212 0.48000002
-0.25103149 -0.04786212 0.48000002
-0.2497801 -0.04786212 0.48000002
-0.24801093 -0.047762409 0.47900003
-0.24676216 -0.047762409 0.47900003
-0.24551338 -0.047762409 0.47900003
-0.24426457 -0.047762409 0.47900003
-0.2430158 -0.047762409 0.47900003
-0.24176702 -0.047762409 0.47900003
-0.24051824 -0.047762409 0.47900003
-0.23926945 -0.047762409 0.47900003
-0.23802066 -0.047762409 0.47900003
-0.2367719 -0.047762409 0.47900003
-0.23601478 -0.04786212 0.48000002
-0.23476341 -0.04786212 0.48000002
-0.23351201 -0.04786212 0.48000002
-0.23226061 -0.04786212 0.48000002
-0.23100923 -0.04786212 0.48000002
-0.22975783 -0.04786212 0.48000002
-0.22850645 -0.04786212 0.48000002
-0.22725505 -0.04786212 0.48000002
-0.22600368 -0.04786212 0.48000002
-0.22475228 -0.04786212 0.48000002
-0.22350089 -0.04786212 0.48000002
-0.22224949 -0.04786212 0.48000002
-0.22099811 -0.04786212 0.48000002
-0.21928892 -0.047762409 0.47900003
-0.21849532 -0.04786212 0.48000002
-0.21679135 -0.047762409 0.47900003
-0.21554255 -0.047762409 0.47900003
-0.21429378 -0.047762409 0.47900003
-0.21304499 -0.047762409 0.47900003
-0.21179621 -0.047762409 0.47900003
-0.21054743 -0.047762409 0.47900003
-0.20929866 -0.047762409 0.47900003
-0.20804986 -0.047762409 0.47900003
-0.20680109 -0.047762409 0.47900003
-0.20555229 -0.047762409 0.47900003
-0.20430352 -0.047762409 0.47900003
-0.20305473 -0.047762409 0.47900003
-0.20180595 -0.047762409 0.47900003
-0.20055716 -0.047762409 0.47900003
-0.19930837 -0.047762409 0.47900003
-0.19805959 -0.047762409 0.47900003
-0.19722168 -0.04786212 0.48000002
-0.1959703 -0.04786212 0.48000002
-0.1947189 -0.04786212 0.48000002
-0.19346751 -0.04786212 0.48000002
-0.19221611 -0.04786212 0.48000002
-0.19096473 -0.04786212 0.48000002
-0.18971334 -0.04786212 0.48000002
-0.18846196 -0.04786212 0.48000002
-0.18721056 -0.04786212 0.48000002
-0.18595918 -0.04786212 0.48000002
-0.18470778 -0.04786212 0.48000002
-0.18345638 -0.04786212 0.48000002
-0.18220499 -0.04786212 0.48000002
-0.18095361 -0.04786212 0.48000002
-0.17970222 -0.04786212 0.48000002
-0.17845082 -0.04786212 0.48000002
-0.17719944 -0.04786212 0.48000002
-0.17594804 -0.04786212 0.48000002
-0.17506061 -0.047961835 0.48100004
-0.17380661 -0.047961835 0.48100004
-0.17255262 -0.047961835 0.48100004
-0.17129862 -0.047961835 0.48100004
-0.17004463 -0.047961835 0.48100004
-0.16879062 -0.047961835 0.48100004
-0.16753662 -0.047961835 0.48100004
-0.16628262 -0.047961835 0.48100004
-0.16502862 -0.047961835 0.48100004
-0.16377464 -0.047961835 0.48100004
-0.16252063 -0.047961835 0.48100004
-0.16126664 -0.047961835 0.48100004
-0.16001263 -0.047961835 0.48100004
-0.15875864 -0.047961835 0.48100004
-0.15750465 -0.047961835 0.48100004
-0.15625066 -0.047961835 0.48100004
-0.15499665 -0.047961835 0.48100004
-0.15374266 -0.047961835 0.48100004
-0.15248865 -0.047961835 0.48100004
-0.15123464 -0.047961835 0.48100004
-0.14966884 -0.04786212 0.48000002
-0.14841744 -0.04786212 0.48000002
-0.14716606 -0.04786212 0.48000002
-0.14591466 -0.04786212 0.48000002
-0.14466329 -0.04786212 0.48000002
-0.14341189 -0.04786212 0.48000002
-0.14216051 -0.04786212 0.48000002
-0.14090911 -0.04786212 0.48000002
-0.13965772 -0.04786212 0.48000002
-0.13840632 -0.04786212 0.48000002
-0.13715494 -0.04786212 0.48000002
-0.13590355 -0.04786212 0.48000002
-0.13465215 -0.04786212 0.48000002
-0.13340077 -0.04786212 0.48000002
-0.13214937 -0.04786212 0.48000002
-0.13089798 -0.04786212 0.48000002
-0.12964658 -0.04786212 0.48000002
-0.1283952 -0.04786212 0.48000002
-0.1274087 -0.047961835 0.48100004
-0.12615471 -0.047961835 0.48100004
-0.1249007 -0.047961835 0.48100004
-0.12364671 -0.047961835 0.48100004
-0.12213825 -0.04786212 0.48000002
-0.12088686 -0.04786212 0.48000002
-0.11963547 -0.04786212 0.48000002
-0.11838408 -0.04786212 0.48000002
-0.11713269 -0.04786212 0.48000002
-0.11588129 -0.04786212 0.48000002
-0.11462991 -0.04786212 0.48000002
-0.11337852 -0.04786212 0.48000002
-0.11212713 -0.04786212 0.48000002
-0.11087573 -0.04786212 0.48000002
-0.10962434 -0.04786212 0.48000002
-0.10837295 -0.04786212 0.48000002
-0.10712156 -0.04786212 0.48000002
-0.10587017 -0.04786212 0.48000002
-0.10461878 -0.04786212 0.48000002
-0.10336739 -0.04786212 0.48000002
-0.102116 -0.04786212 0.48000002
-0.10086461 -0.04786212 0.48000002
-0.099613219 -0.04786212 0.48000002
-0.098361827 -0.04786212 0.48000002
-0.097110443 -0.04786212 0.48000002
-0.095859051 -0.04786212 0.48000002
-0.094607651 -0.04786212 0.48000002
-0.093356259 -0.04786212 0.48000002
-0.092104875 -0.04786212 0.48000002
-0.090853482 -0.04786212 0.48000002
-0.08960209 -0.04786212 0.48000002
-0.088350706 -0.04786212 0.48000002
-0.087099314 -0.04786212 0.48000002
-0.085847922 -0.04786212 0.48000002
-0.08459653 -0.04786212 0.48000002
-0.083345145 -0.04786212 0.48000002
-0.082093753 -0.04786212 0.48000002
-0.080842361 -0.04786212 0.48000002
-0.079590969 -0.04786212 0.48000002
-0.078339577 -0.04786212 0.48000002
-0.077088185 -0.04786212 0.48000002
-0.075836793 -0.04786212 0.48000002
-0.074585408 -0.04786212 0.48000002
-0.073334016 -0.04786212 0.48000002
-0.072082624 -0.04786212 0.48000002
-0.070831232 -0.04786212 0.48000002
-0.069579847 -0.04786212 0.48000002
-0.068328455 -0.04786212 0.48000002
-0.067077063 -0.04786212 0.48000002
-0.065825678 -0.04786212 0.48000002
-0.064574286 -0.04786212 0.48000002
-0.063322894 -0.04786212 0.48000002
-0.062071498 -0.04786212 0.48000002
-0.060820106 -0.04786212 0.48000002
-0.059692826 -0.047961835 0.48100004
-0.058438826 -0.047961835 0.48100004
-0.057184827 -0.047961835 0.48100004
-0.055930831 -0.047961835 0.48100004
-0.054676831 -0.047961835 0.48100004
-0.053422835 -0.047961835 0.48100004
-0.052168839 -0.047961835 0.48100004
-0.050914843 -0.047961835 0.48100004
-0.049660839 -0.047961835 0.48100004
-0.048406843 -0.047961835 0.48100004
-0.047152847 -0.047961835 0.48100004
-0.045898847 -0.047961835 0.48100004
-0.044644851 -0.047961835 0.48100004
-0.043390855 -0.047961835 0.48100004
-0.042136859 -0.047961835 0.48100004
-0.040882856 -0.047961835 0.48100004
-0.03962886 -0.047961835 0.48100004
-0.038374864 -0.047961835 0.48100004
-0.037043691 -0.04786212 0.48000002
-0.035792299 -0.04786212 0.48000002
-0.03454091 -0.04786212 0.48000002
-0.033289514 -0.04786212 0.48000002
-0.032038126 -0.04786212 0.48000002
-0.030786736 -0.04786212 0.48000002
-0.029535346 -0.04786212 0.48000002
-0.028283956 -0.04786212 0.48000002
-0.027032563 -0.04786212 0.48000002
-0.025834886 -0.047961835 0.48100004
-0.024580888 -0.047961835 0.48100004
-0.023326891 -0.047961835 0.48100004
-0.022072893 -0.047961835 0.48100004
-0.020818895 -0.047961835 0.48100004
-0.019564897 -0.047961835 0.48100004
-0.018310899 -0.047961835 0.48100004
-0.01702144 -0.04786212 0.48000002
-0.01577005 -0.04786212 0.48000002
-0.014518659 -0.04786212 0.48000002
-0.013267268 -0.04786212 0.48000002
-0.012015877 -0.04786212 0.48000002
-0.010764487 -0.04786212 0.48000002
-0.0095130969 -0.04786212 0.48000002
-0.0082617057 -0.04786212 0.48000002
-0.0070103151 -0.04786212 0.48000002
-0.0057709226 -0.047961835 0.48100004
-0.0045169252 -0.047961835 0.48100004
-0.0032629275 -0.047961835 0.48100004
-0.0020089296 -0.047961835 0.48100004
-0.000754932 -0.047961835 0.48100004
0.00049906567 -0.047961835 0.48100004
0.0017494187 -0.04786212 0.48000002
0.0030070611 -0.047961835 0.48100004
0.0042522 -0.04786212 0.48000002
0.0055035907 -0.04786212 0.48000002
0.0067549809 -0.04786212 0.48000002
0.0080230525 -0.047961835 0.48100004
0.0092770495 -0.047961835 0.48100004
0.010531047 -0.047961835 0.48100004
0.011785045 -0.047961835 0.48100004
0.013039042 -0.047961835 0.48100004
0.01429304 -0.047961835 0.48100004
0.015547038 -0.047961835 0.48100004
0.016801035 -0.047961835 0.48100004
0.018055033 -0.047961835 0.48100004
0.019309031 -0.047961835 0.48100004
0.020563029 -0.047961835 0.48100004
0.021862384 -0.048061546 0.48200002
0.023118988 -0.048061546 0.48200002
0.024375591 -0.048061546 0.48200002
0.025632199 -0.048061546 0.48200002
0.026833016 -0.047961835 0.48100004
0.028145406 -0.048061546 0.48200002
0.029402012 -0.048061546 0.48200002
0.030595008 -0.047961835 0.48100004
0.031849008 -0.047961835 0.48100004
0.033103008 -0.047961835 0.48100004
0.034357004 -0.047961835 0.48100004
0.035611 -0.047961835 0.48100004
0.036865 -0.047961835 0.48100004
0.038118996 -0.047961835 0.48100004
0.039372995 -0.047961835 0.48100004
0.040626992 -0.047961835 0.48100004
0.041880991 -0.047961835 0.48100004
0.043134987 -0.047961835 0.48100004
0.044388983 -0.047961835 0.48100004
0.045642983 -0.047961835 0.48100004
0.046896979 -0.047961835 0.48100004
0.048150979 -0.047961835 0.48100004
0.049404975 -0.047961835 0.48100004
0.050658975 -0.047961835 0.48100004
0.051912971 -0.047961835 0.48100004
0.053166967 -0.047961835 0.48100004
0.054420967 -0.047961835 0.48100004
0.055674966 -0.047961835 0.48100004
0.056928962 -0.047961835 0.48100004
0.058182959 -0.047961835 0.48100004
0.059436958 -0.047961835 0.48100004
0.060690954 -0.047961835 0.48100004
0.062073734 -0.048061546 0.48200002
0.063330337 -0.048061546 0.48200002
0.064586945 -0.048061546 0.48200002
0.065843545 -0.048061546 0.48200002
0.067239359 -0.048161257 0.48300001
0.068498582 -0.048161257 0.48300001
0.069613367 -0.048061546 0.48200002
0.070869967 -0.048061546 0.48200002
0.072126575 -0.048061546 0.48200002
0.07323093 -0.047961835 0.48100004
0.074639782 -0.048061546 0.48200002
0.075738929 -0.047961835 0.48100004
0.076992922 -0.047961835 0.48100004
0.078246921 -0.047961835 0.48100004
0.073316984 -0.037691418 0.37800002
0.074302457 -0.037691418 0.37800002
0.075287923 -0.037691418 0.37800002
0.076273397 -0.037691418 0.37800002
0.077258863 -0.037691418 0.37800002
0.078244336 -0.037691418 0.37800002
0.10019007 -0.047662694 0.47800002
0.10143625 -0.047662694 0.47800002
0.10268243 -0.047662694 0.47800002
0.1039286 -0.047662694 0.47800002
0.10517477 -0.047662694 0.47800002
0.10664359 -0.047762409 0.47900003
0.10789238 -0.047762409 0.47900003
0.10914116 -0.047762409 0.47900003
0.1106204 -0.04786212 0.48000002
0.11187179 -0.04786212 0.48000002
0.11312318 -0.04786212 0.48000002
0.11437457 -0.04786212 0.48000002
0.11562596 -0.04786212 0.48000002
0.11812875 -0.04786212 0.48000002
0.11938014 -0.04786212 0.48000002
0.12038021 -0.047762409 0.47900003
0.12188292 -0.04786212 0.48000002
0.1231343 -0.04786212 0.48000002
0.12438569 -0.04786212 0.48000002
0.1256371 -0.04786212 0.48000002
0.12688847 -0.04786212 0.48000002
0.12813987 -0.04786212 0.48000002
0.12939125 -0.04786212 0.48000002
0.13064265 -0.04786212 0.48000002
0.13189404 -0.04786212 0.48000002
0.13314544 -0.04786212 0.48000002
0.13411683 -0.047762409 0.47900003
0.13536562 -0.047762409 0.47900003
0.13632917 -0.047662694 0.47800002
0.13757536 -0.047662694 0.47800002
0.13882153 -0.047662694 0.47800002
0.1397747 -0.047562983 0.47700003
0.14042699 -0.047363557 0.47500002
0.14077061 -0.04706442 0.47200003
0.13883005 -0.044471886 0.44600001
0.13967891 -0.044372175 0.44500002
0.14020608 -0.044172749 0.44300002
0.1410419 -0.044073038 0.44200003
0.14155082 -0.043873612 0.44000003
0.1420493 -0.043674186 0.43800002
0.14286427 -0.043574471 0.43700001
0.14367403 -0.04347476 0.43600002
0.14414644 -0.043275334 0.43400002
0.14460842 -0.043075908 0.43200001
0.14472263 -0.042776771 0.42900002
0.1448212 -0.042477634 0.42600003
0.14558923 -0.042377919 0.42500001
0.14606635 -0.041879356 0.42000002
0.14681095 -0.041779641 0.41900003
0.14719731 -0.041580215 0.41700003
0.14757326 -0.041380793 0.41500002
0.14793877 -0.041181367 0.41300002
0.1486547 -0.041081652 0.41200003
0.14936538 -0.040981941 0.41100001
0.14579751 -0.03809027 0.38200003
0.14640912 -0.037990555 0.38100001
0.14701554 -0.037890844 0.38000003
0.14761673 -0.037791129 0.37900001
0.1486048 -0.037791129 0.37900001
0.14959288 -0.037791129 0.37900001
0.15058096 -0.037791129 0.37900001
0.19522481 -0.048360683 0.48500001
0.19648923 -0.048360683 0.48500001
0.19775365 -0.048360683 0.48500001
0.19901808 -0.048360683 0.48500001
0.20069547 -0.048460398 0.48600003
0.2019625 -0.048460398 0.48600003
0.20322953 -0.048460398 0.48600003
0.20449656 -0.048460398 0.48600003
0.20576359 -0.048460398 0.48600003
0.20703062 -0.048460398 0.48600003
0.20829767 -0.048460398 0.48600003
0.2095647 -0.048460398 0.48600003
0.21083173 -0.048460398 0.48600003
0.21209876 -0.048460398 0.48600003
0.21336579 -0.048460398 0.48600003
0.21463284 -0.048460398 0.48600003
0.21589985 -0.048460398 0.48600003
0.2171669 -0.048460398 0.48600003
0.21843392 -0.048460398 0.48600003
0.21970096 -0.048460398 0.48600003
0.22096799 -0.048460398 0.48600003
0.22223502 -0.048460398 0.48600003
0.22350205 -0.048460398 0.48600003
0.2247691 -0.048460398 0.48600003
0.22603613 -0.048460398 0.48600003
0.22730316 -0.048460398 0.48600003
0.22857019 -0.048460398 0.48600003
-0.26924026 -0.046513624 0.47900003
-0.26799148 -0.046513624 0.47900003
-0.26674268 -0.046513624 0.47900003
-0.2654939 -0.046513624 0.47900003
-0.26424512 -0.046513624 0.47900003
-0.26299632 -0.046513624 0.47900003
-0.26229399 -0.046610728 0.48000002
-0.26104259 -0.046610728 0.48000002
-0.25979123 -0.046610728 0.48000002
-0.25853983 -0.046610728 0.48000002
-0.25728843 -0.046610728 0.48000002
-0.25603706 -0.046610728 0.48000002
-0.25478566 -0.046610728 0.48000002
-0.25353426 -0.046610728 0.48000002
-0.25228286 -0.046610728 0.48000002
-0.25103149 -0.046610728 0.48000002
-0.2497801 -0.046610728 0.48000002
-0.24801093 -0.046513624 0.47900003
-0.24676216 -0.046513624 0.47900003
-0.24551338 -0.046513624 0.47900003
-0.24426457 -0.046513624 0.47900003
-0.2430158 -0.046513624 0.47900003
-0.24176702 -0.046513624 0.47900003
-0.24051824 -0.046513624 0.47900003
-0.23926945 -0.046513624 0.47900003
-0.23802066 -0.046513624 0.47900003
-0.2367719 -0.046513624 0.47900003
-0.23601478 -0.046610728 0.48000002
-0.23476341 -0.046610728 0.48000002
-0.23351201 -0.046610728 0.48000002
-0.23226061 -0.046610728 0.48000002
-0.23100923 -0.046610728 0.48000002
-0.22975783 -0.046610728 0.48000002
-0.22850645 -0.046610728 0.48000002
-0.22725505 -0.046610728 0.48000002
-0.22600368 -0.046610728 0.48000002
-0.22475228 -0.046610728 0.48000002
-0.22350089 -0.046610728 0.48000002
-0.22224949 -0.046610728 0.48000002
-0.22053771 -0.046513624 0.47900003
-0.21928892 -0.046513624 0.47900003
-0.21804014 -0.046513624 0.47900003
-0.21679135 -0.046513624 0.47900003
-0.21554255 -0.046513624 0.47900003
-0.21429378 -0.046513624 0.47900003
-0.21304499 -0.046513624 0.47900003
-0.21179621 -0.046513624 0.47900003
-0.21054743 -0.046513624 0.47900003
-0.20929866 -0.046513624 0.47900003
-0.20804986 -0.046513624 0.47900003
-0.20680109 -0.046513624 0.47900003
-0.20555229 -0.046513624 0.47900003
-0.20430352 -0.046513624 0.47900003
-0.20305473 -0.046513624 0.47900003
-0.20180595 -0.046513624 0.47900003
-0.20055716 -0.046513624 0.47900003
-0.19930837 -0.046513624 0.47900003
-0.19805959 -0.046513624 0.47900003
-0.19722168 -0.046610728 0.48000002
-0.1959703 -0.046610728 0.48000002
-0.1947189 -0.046610728 0.48000002
-0.19346751 -0.046610728 0.48000002
-0.19221611 -0.046610728 0.48000002
-0.19096473 -0.046610728 0.48000002
-0.18971334 -0.046610728 0.48000002
-0.18846196 -0.046610728 0.48000002
-0.18721056 -0.046610728 0.48000002
-0.18595918 -0.046610728 0.48000002
-0.18470778 -0.046610728 0.48000002
-0.18345638 -0.046610728 0.48000002
-0.18220499 -0.046610728 0.48000002
-0.18095361 -0.046610728 0.48000002
-0.17970222 -0.046610728 0.48000002
-0.17845082 -0.046610728 0.48000002
-0.17719944 -0.046610728 0.48000002
-0.17594804 -0.046610728 0.48000002
-0.17506061 -0.046707835 0.48100004
-0.17380661 -0.046707835 0.48100004
-0.17255262 -0.046707835 0.48100004
-0.17129862 -0.046707835 0.48100004
-0.17004463 -0.046707835 0.48100004
-0.16879062 -0.046707835 0.48100004
-0.16753662 -0.046707835 0.48100004
-0.16628262 -0.046707835 0.48100004
-0.16502862 -0.046707835 0.48100004
-0.16377464 -0.046707835 0.48100004
-0.16252063 -0.046707835 0.48100004
-0.16126664 -0.046707835 0.48100004
-0.16001263 -0.046707835 0.48100004
-0.15875864 -0.046707835 0.48100004
-0.15750465 -0.046707835 0.48100004
-0.15625066 -0.046707835 0.48100004
-0.15499665 -0.046707835 0.48100004
-0.15374266 -0.046707835 0.48100004
-0.15248865 -0.046707835 0.48100004
-0.15123464 -0.046707835 0.48100004
-0.14966884 -0.046610728 0.48000002
-0.14841744 -0.046610728 0.48000002
-0.14716606 -0.046610728 0.48000002
-0.14591466 -0.046610728 0.48000002
-0.14466329 -0.046610728 0.48000002
-0.14341189 -0.046610728 0.48000002
-0.14216051 -0.046610728 0.48000002
-0.14090911 -0.046610728 0.48000002
-0.13965772 -0.046610728 0.48000002
-0.13840632 -0.046610728 0.48000002
-0.13715494 -0.046610728 0.48000002
-0.13590355 -0.046610728 0.48000002
-0.13465215 -0.046610728 0.48000002
-0.13340077 -0.046610728 0.48000002
-0.13214937 -0.046610728 0.48000002
-0.13117069 -0.046707835 0.48100004
-0.12991668 -0.046707835 0.48100004
-0.12866271 -0.046707835 0.48100004
-0.1274087 -0.046707835 0.48100004
-0.12615471 -0.046707835 0.48100004
-0.1249007 -0.046707835 0.48100004
-0.12364671 -0.046707835 0.48100004
-0.12213825 -0.046610728 0.48000002
-0.12088686 -0.046610728 0.48000002
-0.11963547 -0.046610728 0.48000002
-0.11838408 -0.046610728 0.48000002
-0.11713269 -0.046610728 0.48000002
-0.11588129 -0.046610728 0.48000002
-0.11462991 -0.046610728 0.48000002
-0.11337852 -0.046610728 0.48000002
-0.11212713 -0.046610728 0.48000002
-0.11087573 -0.046610728 0.48000002
-0.10962434 -0.046610728 0.48000002
-0.10837295 -0.046610728 0.48000002
-0.10712156 -0.046610728 0.48000002
-0.10587017 -0.046610728 0.48000002
-0.10461878 -0.046610728 0.48000002
-0.10336739 -0.046610728 0.48000002
-0.102116 -0.046610728 0.48000002
-0.10086461 -0.046610728 0.48000002
-0.099613219 -0.046610728 0.48000002
-0.098361827 -0.046610728 0.48000002
-0.097110443 -0.046610728 0.48000002
-0.095859051 -0.046610728 0.48000002
-0.094607651 -0.046610728 0.48000002
-0.093356259 -0.046610728 0.48000002
-0.092104875 -0.046610728 0.48000002
-0.090853482 -0.046610728 0.48000002
-0.08960209 -0.046610728 0.48000002
-0.088350706 -0.046610728 0.48000002
-0.087099314 -0.046610728 0.48000002
-0.085847922 -0.046610728 0.48000002
-0.08459653 -0.046610728 0.48000002
-0.083345145 -0.046610728 0.48000002
-0.082093753 -0.046610728 0.48000002
-0.080842361 -0.046610728 0.48000002
-0.079590969 -0.046610728 0.48000002
-0.078339577 -0.046610728 0.48000002
-0.077088185 -0.046610728 0.48000002
-0.075836793 -0.046610728 0.48000002
-0.074585408 -0.046610728 0.48000002
-0.073334016 -0.046610728 0.48000002
-0.072082624 -0.046610728 0.48000002
-0.070831232 -0.046610728 0.48000002
-0.069579847 -0.046610728 0.48000002
-0.068328455 -0.046610728 0.48000002
-0.067077063 -0.046610728 0.48000002
-0.065825678 -0.046610728 0.48000002
-0.064574286 -0.046610728 0.48000002
-0.063454822 -0.046707835 0.48100004
-0.062200814 -0.046707835 0.48100004
-0.060946818 -0.046707835 0.48100004
-0.059692826 -0.046707835 0.48100004
-0.058438826 -0.046707835 0.48100004
-0.057184827 -0.046707835 0.48100004
-0.055930831 -0.046707835 0.48100004
-0.054676831 -0.046707835 0.48100004
-0.053422835 -0.046707835 0.48100004
-0.052168839 -0.046707835 0.48100004
-0.050914843 -0.046707835 0.48100004
-0.049660839 -0.046707835 0.48100004
-0.048406843 -0.046707835 0.48100004
-0.047152847 -0.046707835 0.48100004
-0.045898847 -0.046707835 0.48100004
-0.044644851 -0.046707835 0.48100004
-0.043390855 -0.046707835 0.48100004
-0.042136859 -0.046707835 0.48100004
-0.040882856 -0.046707835 0.48100004
-0.03962886 -0.046707835 0.48100004
-0.038374864 -0.046707835 0.48100004
-0.037120864 -0.046707835 0.48100004
-0.035792299 -0.046610728 0.48000002
-0.03454091 -0.046610728 0.48000002
-0.033289514 -0.046610728 0.48000002
-0.032038126 -0.046610728 0.48000002
-0.030786736 -0.046610728 0.48000002
-0.029535346 -0.046610728 0.48000002
-0.028283956 -0.046610728 0.48000002
-0.027032563 -0.046610728 0.48000002
-0.025834886 -0.046707835 0.48100004
-0.024580888 -0.046707835 0.48100004
-0.023326891 -0.046707835 0.48100004
-0.022072893 -0.046707835 0.48100004
-0.020818895 -0.046707835 0.48100004
-0.019564897 -0.046707835 0.48100004
-0.018310899 -0.046707835 0.48100004
-0.017056903 -0.046707835 0.48100004
-0.015802905 -0.046707835 0.48100004
-0.014548906 -0.046707835 0.48100004
-0.013294909 -0.046707835 0.48100004
-0.012040911 -0.046707835 0.48100004
-0.010786914 -0.046707835 0.48100004
-0.0095329154 -0.046707835 0.48100004
-0.0082789175 -0.046707835 0.48100004
-0.0070249201 -0.046707835 0.48100004
-0.0057589249 -0.046610728 0.48000002
-0.0045169252 -0.046707835 0.48100004
-0.0032629275 -0.046707835 0.48100004
-0.0020089296 -0.046707835 0.48100004
-0.000754932 -0.046707835 0.48100004
0.00049802812 -0.046610728 0.48000002
0.0017494187 -0.046610728 0.48000002
0.0030070611 -0.046707835 0.48100004
0.0042522 -0.046610728 0.48000002
0.0055035907 -0.046610728 0.48000002
0.0067690541 -0.046707835 0.48100004
0.0080230525 -0.046707835 0.48100004
0.0092770495 -0.046707835 0.48100004
0.010531047 -0.046707835 0.48100004
0.011785045 -0.046707835 0.48100004
0.013039042 -0.046707835 0.48100004
0.01429304 -0.046707835 0.48100004
0.015547038 -0.046707835 0.48100004
0.016801035 -0.046707835 0.48100004
0.018055033 -0.046707835 0.48100004
0.019309031 -0.046707835 0.48100004
0.020563029 -0.046707835 0.48100004
0.021817027 -0.046707835 0.48100004
0.023118988 -0.046804942 0.48200002
0.024375591 -0.046804942 0.48200002
0.025632199 -0.046804942 0.48200002
0.026888803 -0.046804942 0.48200002
0.028145406 -0.046804942 0.48200002
0.029402012 -0.046804942 0.48200002
0.030658616 -0.046804942 0.48200002
0.031915221 -0.046804942 0.48200002
0.033171825 -0.046804942 0.48200002
0.034428433 -0.046804942 0.48200002
0.035685036 -0.046804942 0.48200002
0.03694164 -0.046804942 0.48200002
0.038118996 -0.046707835 0.48100004
0.039372995 -0.046707835 0.48100004
0.040626992 -0.046707835 0.48100004
0.041880991 -0.046707835 0.48100004
0.043134987 -0.046707835 0.48100004
0.044388983 -0.046707835 0.48100004
0.045642983 -0.046707835 0.48100004
0.046896979 -0.046707835 0.48100004
0.048150979 -0.046707835 0.48100004
0.049404975 -0.046707835 0.48100004
0.050658975 -0.046707835 0.48100004
0.051912971 -0.046707835 0.48100004
0.053166967 -0.046707835 0.48100004
0.054420967 -0.046707835 0.48100004
0.055674966 -0.046707835 0.48100004
0.056928962 -0.046707835 0.48100004
0.058182959 -0.046707835 0.48100004
0.059436958 -0.046707835 0.48100004
0.060690954 -0.046707835 0.48100004
0.06194495 -0.046707835 0.48100004
0.063330337 -0.046804942 0.48200002
0.064586945 -0.046804942 0.48200002
0.065843545 -0.046804942 0.48200002
0.067100152 -0.046804942 0.48200002
0.06835676 -0.046804942 0.48200002
0.069613367 -0.046804942 0.48200002
0.070869967 -0.046804942 0.48200002
0.072126575 -0.046804942 0.48200002
0.07323093 -0.046707835 0.48100004
0.074484929 -0.046707835 0.48100004
0.075738929 -0.046707835 0.48100004
0.076832853 -0.046610728 0.48000002
0.078084245 -0.046610728 0.48000002
0.073316984 -0.036705948 0.37800002
0.074302457 -0.036705948 0.37800002
0.075287923 -0.036705948 0.37800002
0.076273397 -0.036705948 0.37800002
0.077258863 -0.036705948 0.37800002
0.078244336 -0.036705948 0.37800002
0.10019007 -0.046416517 0.47800002
0.10143625 -0.046416517 0.47800002
0.10268243 -0.046416517 0.47800002
0.10414603 -0.046513624 0.47900003
0.10517477 -0.046416517 0.47800002
0.10664359 -0.046513624 0.47900003
0.10789238 -0.046513624 0.47900003
0.10914116 -0.046513624 0.47900003
0.1106204 -0.046610728 0.48000002
0.11187179 -0.046610728 0.48000002
0.11312318 -0.046610728 0.48000002
0.11437457 -0.046610728 0.48000002
0.11562596 -0.046610728 0.48000002
0.11687735 -0.046610728 0.48000002
0.11812875 -0.046610728 0.48000002
0.11938014 -0.046610728 0.48000002
0.12063152 -0.046610728 0.48000002
0.12188292 -0.046610728 0.48000002
0.1231343 -0.046610728 0.48000002
0.12438569 -0.046610728 0.48000002
0.12537535 -0.046513624 0.47900003
0.12662412 -0.046513624 0.47900003
0.12787291 -0.046513624 0.47900003
0.12912169 -0.046513624 0.47900003
0.13064265 -0.046610728 0.48000002
0.13161926 -0.046513624 0.47900003
0.13286805 -0.046513624 0.47900003
0.13411683 -0.046513624 0.47900003
0.13536562 -0.046513624 0.47900003
0.13632917 -0.046416517 0.47800002
0.13757536 -0.046416517 0.47800002
0.13853112 -0.046319414 0.47700003
0.13948165 -0.046222307 0.47600001
0.14013135 -0.046028096 0.47400004
0.14047237 -0.045736779 0.47100002
0.14044534 -0.044183087 0.45500001
0.141361 -0.04301782 0.44300002
0.14187253 -0.042823609 0.44100001
0.14237361 -0.042629395 0.43900001
0.14319119 -0.042532291 0.43800002
0.14367403 -0.042338081 0.43600002
0.14414644 -0.042143866 0.43400002
0.14571857 -0.040687285 0.41900003
0.14611018 -0.040493071 0.41700003
0.14649133 -0.040298861 0.41500002
0.14686207 -0.04010465 0.41300002
0.14722237 -0.039910436 0.41100001
0.14793307 -0.039813332 0.41000003
0.14863855 -0.039716225 0.40900001
0.14541583 -0.036997266 0.38100001
0.14602485 -0.036900163 0.38000003
0.14662865 -0.036803056 0.37900001
0.14761673 -0.036803056 0.37900001
0.1486048 -0.036803056 0.37900001
0.14959288 -0.036803056 0.37900001
0.15058096 -0.036803056 0.37900001
0.19522481 -0.047096256 0.48500001
0.19648923 -0.047096256 0.48500001
0.19816141 -0.047193363 0.48600003
0.19901808 -0.047096256 0.48500001
0.20069547 -0.047193363 0.48600003
0.2019625 -0.047193363 0.48600003
0.20322953 -0.047193363 0.48600003
0.20449656 -0.047193363 0.48600003
0.20576359 -0.047193363 0.48600003
0.20703062 -0.047193363 0.48600003
0.20829767 -0.047193363 0.48600003
0.2095647 -0.047193363 0.48600003
0.21083173 -0.047193363 0.48600003
0.21209876 -0.047193363 0.48600003
0.21380481 -0.04729047 0.48700002
0.21507446 -0.04729047 0.48700002
0.21634409 -0.04729047 0.48700002
0.21761374 -0.04729047 0.48700002
0.21888337 -0.04729047 0.48700002
0.22015302 -0.04729047 0.48700002
0.22096799 -0.047193363 0.48600003
0.22223502 -0.047193363 0.48600003
0.22350205 -0.047193363 0.48600003
0.2247691 -0.047193363 0.48600003
0.22603613 -0.047193363 0.48600003
0.22730316 -0.047193363 0.48600003
0.22857019 -0.047193363 0.48600003
-0.26924026 -0.04526484 0.47900003
-0.26799148 -0.04526484 0.47900003
-0.26674268 -0.04526484 0.47900003
-0.2654939 -0.04526484 0.47900003
-0.26424512 -0.04526484 0.47900003
-0.26299632 -0.04526484 0.47900003
-0.26229399 -0.04535934 0.48000002
-0.26104259 -0.04535934 0.48000002
-0.25979123 -0.04535934 0.48000002
-0.25853983 -0.04535934 0.48000002
-0.25728843 -0.04535934 0.48000002
-0.25603706 -0.04535934 0.48000002
-0.25478566 -0.04535934 0.48000002
-0.25353426 -0.04535934 0.48000002
-0.25228286 -0.04535934 0.48000002
-0.25103149 -0.04535934 0.48000002
-0.2497801 -0.04535934 0.48000002
-0.24801093 -0.04526484 0.47900003
-0.24676216 -0.04526484 0.47900003
-0.24551338 -0.04526484 0.47900003
-0.24426457 -0.04526484 0.47900003
-0.2430158 -0.04526484 0.47900003
-0.24176702 -0.04526484 0.47900003
-0.24051824 -0.04526484 0.47900003
-0.23926945 -0.04526484 0.47900003
-0.23802066 -0.04526484 0.47900003
-0.2367719 -0.04526484 0.47900003
-0.2355231 -0.04526484 0.47900003
-0.23476341 -0.04535934 0.48000002
-0.23351201 -0.04535934 0.48000002
-0.23226061 -0.04535934 0.48000002
-0.23100923 -0.04535934 0.48000002
-0.22975783 -0.04535934 0.48000002
-0.22850645 -0.04535934 0.48000002
-0.22725505 -0.04535934 0.48000002
-0.22600368 -0.04535934 0.48000002
-0.22475228 -0.04535934 0.48000002
-0.22350089 -0.04535934 0.48000002
-0.22224949 -0.04535934 0.48000002
-0.22053771 -0.04526484 0.47900003
-0.21928892 -0.04526484 0.47900003
-0.21804014 -0.04526484 0.47900003
-0.21679135 -0.04526484 0.47900003
-0.21554255 -0.04526484 0.47900003
-0.21429378 -0.04526484 0.47900003
-0.21304499 -0.04526484 0.47900003
-0.21179621 -0.04526484 0.47900003
-0.21054743 -0.04526484 0.47900003
-0.20929866 -0.04526484 0.47900003
-0.20804986 -0.04526484 0.47900003
-0.20680109 -0.04526484 0.47900003
-0.20555229 -0.04526484 0.47900003
-0.20430352 -0.04526484 0.47900003
-0.20305473 -0.04526484 0.47900003
-0.20180595 -0.04526484 0.47900003
-0.20055716 -0.04526484 0.47900003
-0.19930837 -0.04526484 0.47900003
-0.19847308 -0.04535934 0.48000002
-0.19722168 -0.04535934 0.48000002
-0.1959703 -0.04535934 0.48000002
-0.1947189 -0.04535934 0.48000002
-0.19346751 -0.04535934 0.48000002
-0.19221611 -0.04535934 0.48000002
-0.19096473 -0.04535934 0.48000002
-0.18971334 -0.04535934 0.48000002
-0.18846196 -0.04535934 0.48000002
-0.18721056 -0.04535934 0.48000002
-0.18595918 -0.04535934 0.48000002
-0.18470778 -0.04535934 0.48000002
-0.18345638 -0.04535934 0.48000002
-0.18220499 -0.04535934 0.48000002
-0.18095361 -0.04535934 0.48000002
-0.17970222 -0.04535934 0.48000002
-0.17845082 -0.04535934 0.48000002
-0.17719944 -0.04535934 0.48000002
-0.17594804 -0.04535934 0.48000002
-0.17506061 -0.045453839 0.48100004
-0.17380661 -0.045453839 0.48100004
-0.17255262 -0.045453839 0.48100004
-0.17129862 -0.045453839 0.48100004
-0.17004463 -0.045453839 0.48100004
-0.16879062 -0.045453839 0.48100004
-0.16753662 -0.045453839 0.48100004
-0.16628262 -0.045453839 0.48100004
-0.16502862 -0.045453839 0.48100004
-0.16377464 -0.045453839 0.48100004
-0.16252063 -0.045453839 0.48100004
-0.16126664 -0.045453839 0.48100004
-0.16001263 -0.045453839 0.48100004
-0.15875864 -0.045453839 0.48100004
-0.15750465 -0.045453839 0.48100004
-0.15625066 -0.045453839 0.48100004
-0.15499665 -0.045453839 0.48100004
-0.15374266 -0.045453839 0.48100004
-0.15248865 -0.045453839 0.48100004
-0.15123464 -0.045453839 0.48100004
-0.14998066 -0.045453839 0.48100004
-0.14841744 -0.04535934 0.48000002
-0.14716606 -0.04535934 0.48000002
-0.14591466 -0.04535934 0.48000002
-0.14466329 -0.04535934 0.48000002
