# .PCD v0.7 - Point Cloud Data file format
VERSION 0.7
FIELDS x y z
SIZE 4 4 4
TYPE F F F
COUNT 1 1 1
WIDTH 1359
HEIGHT 1
VIEWPOINT 0 0 0 1 0 0 0
POINTS 1359
DATA ascii
0.064997584 -0.099073634 0.52600002
0.0663689 -0.099073634 0.52600002
0.067869 -0.099261984 0.52700001
0.069242917 -0.099261984 0.52700001
0.070616841 -0.099261984 0.52700001
0.072127365 -0.099450335 0.528
0.073503897 -0.099450335 0.528
0.075022258 -0.0996387 0.52900004
0.07640139 -0.0996387 0.52900004
0.07792756 -0.099827051 0.53000003
0.079309307 -0.099827051 0.53000003
0.080691047 -0.099827051 0.53000003
0.082072787 -0.099827051 0.53000003
0.083454534 -0.099827051 0.53000003
0.084996343 -0.1000154 0.53100002
0.08638069 -0.1000154 0.53100002
0.087765045 -0.1000154 0.53100002
0.089149393 -0.1000154 0.53100002
0.090533741 -0.1000154 0.53100002
0.091918096 -0.1000154 0.53100002
0.093302451 -0.1000154 0.53100002
0.088387117 -0.0804267 0.42700002
0.089500338 -0.0804267 0.42700002
0.090613551 -0.0804267 0.42700002
0.091726765 -0.0804267 0.42700002
0.10458411 -0.086453989 0.45900002
0.1069774 -0.086453989 0.45900002
0.10840971 -0.08664234 0.46000001
0.10960896 -0.08664234 0.46000001
0.11080821 -0.08664234 0.46000001
0.11200746 -0.08664234 0.46000001
0.11320671 -0.08664234 0.46000001
0.11390855 -0.086265638 0.45800003
0.11510257 -0.086265638 0.45800003
0.1160427 -0.086077288 0.45700002
0.11697759 -0.085888937 0.45600003
0.11816642 -0.085888937 0.45600003
0.11883175 -0.085512228 0.45400003
0.12001535 -0.085512228 0.45400003
0.12093201 -0.08532387 0.45300001
0.12184343 -0.08513552 0.45200002
0.12365066 -0.084758811 0.45000002
0.12426907 -0.084382109 0.44800001
0.12515704 -0.084193759 0.44700003
0.1257572 -0.08381705 0.44500002
0.12663212 -0.083628699 0.44400004
0.12778968 -0.083628699 0.44400004
0.12836637 -0.08325199 0.44200003
0.12951869 -0.08325199 0.44200003
0.13037537 -0.08306364 0.44100001
0.13152508 -0.08306364 0.44100001
0.13237396 -0.082875289 0.44000003
0.13352107 -0.082875289 0.44000003
0.13466817 -0.082875289 0.44000003
0.13581528 -0.082875289 0.44000003
0.17452018 -0.10472423 0.55600005
0.17596972 -0.10472423 0.55600005
0.17773832 -0.10491258 0.55700004
0.17919047 -0.10491258 0.55700004
0.18064259 -0.10491258 0.55700004
0.18242165 -0.10510093 0.55800003
0.1838764 -0.10510093 0.55800003
0.18566327 -0.10528928 0.55900002
0.18712062 -0.10528928 0.55900002
0.18891531 -0.10547763 0.56
0.19037527 -0.10547763 0.56
0.19217779 -0.105666 0.56100005
0.19398554 -0.10585435 0.56200004
0.19545069 -0.10585435 0.56200004
0.19726625 -0.10604269 0.56300002
0.19873402 -0.10604269 0.56300002
0.2005574 -0.10623104 0.56400001
0.20202777 -0.10623104 0.56400001
0.20385897 -0.10641939 0.565
0.20533197 -0.10641939 0.565
0.20680495 -0.10641939 0.565
0.2086466 -0.10660776 0.56600004
0.21012218 -0.10660776 0.56600004
0.2115978 -0.10660776 0.56600004
0.21344984 -0.10679611 0.56700003
0.21492805 -0.10679611 0.56700003
0.21640624 -0.10679611 0.56700003
0.21826872 -0.10698446 0.56800002
0.21974953 -0.10698446 0.56800002
0.22123034 -0.10698446 0.56800002
0.22271115 -0.10698446 0.56800002
0.22419198 -0.10698446 0.56800002
0.22607009 -0.10717281 0.56900001
0.2275535 -0.10717281 0.56900001
0.22943948 -0.10736117 0.57000005
0.2309255 -0.10736117 0.57000005
0.23241153 -0.10736117 0.57000005
0.23430789 -0.10754952 0.57100004
0.23579653 -0.10754952 0.57100004
0.23770072 -0.10773787 0.57200003
0.23919196 -0.10773787 0.57200003
0.24110396 -0.10792622 0.57300001
0.24302119 -0.10811457 0.574
0.24451764 -0.10811457 0.574
0.2460141 -0.10811457 0.574
0.24794178 -0.10830294 0.57500005
0.24987464 -0.10849129 0.57600003
0.25137633 -0.10849129 0.57600003
0.253317 -0.10867964 0.57700002
0.25482127 -0.10867964 0.57700002
0.25676978 -0.10886799 0.57800001
0.25827667 -0.10886799 0.57800001
0.26023301 -0.10905635 0.57900006
0.26219457 -0.1092447 0.58000004
0.26370665 -0.1092447 0.58000004
0.26521876 -0.1092447 0.58000004
0.26719072 -0.10943305 0.58100003
0.26870543 -0.10943305 0.58100003
0.27022016 -0.10943305 0.58100003
0.27173483 -0.10943305 0.58100003
0.27371985 -0.1096214 0.58200002
0.27523717 -0.1096214 0.58200002
0.27675447 -0.1096214 0.58200002
-0.25241879 -0.083028398 0.44700003
-0.25125343 -0.083028398 0.44700003
-0.25064757 -0.083214141 0.44800001
-0.24947958 -0.083214141 0.44800001
-0.24831162 -0.083214141 0.44800001
-0.24714366 -0.083214141 0.44800001
-0.24652474 -0.083399892 0.44900003
-0.24535418 -0.083399892 0.44900003
-0.24418361 -0.083399892 0.44900003
-0.24355426 -0.083585635 0.45000002
-0.24238107 -0.083585635 0.45000002
-0.2412079 -0.083585635 0.45000002
-0.24056815 -0.083771385 0.45100003
-0.23939237 -0.083771385 0.45100003
-0.23821656 -0.083771385 0.45100003
-0.23704079 -0.083771385 0.45100003
-0.23586501 -0.083771385 0.45100003
-0.23468924 -0.083771385 0.45100003
-0.23351343 -0.083771385 0.45100003
-0.2328528 -0.083957128 0.45200002
-0.23167442 -0.083957128 0.45200002
-0.230496 -0.083957128 0.45200002
-0.22982495 -0.084142871 0.45300001
-0.22864395 -0.084142871 0.45300001
-0.22746296 -0.084142871 0.45300001
-0.22678149 -0.084328622 0.45400003
-0.22559787 -0.084328622 0.45400003
-0.22490858 -0.084514365 0.45500001
-0.22372235 -0.084514365 0.45500001
-0.22302525 -0.084700115 0.45600003
-0.22183642 -0.084700115 0.45600003
-0.22064759 -0.084700115 0.45600003
-0.21994004 -0.084885858 0.45700002
-0.2187486 -0.084885858 0.45700002
-0.21755718 -0.084885858 0.45700002
-0.21636575 -0.084885858 0.45700002
-0.21517433 -0.084885858 0.45700002
-0.21445113 -0.085071608 0.45800003
-0.2132571 -0.085071608 0.45800003
-0.21206306 -0.085071608 0.45800003
-0.21086904 -0.085071608 0.45800003
-0.209675 -0.085071608 0.45800003
-0.20848097 -0.085071608 0.45800003
-0.20728692 -0.085071608 0.45800003
-0.20609288 -0.085071608 0.45800003
-0.20489886 -0.085071608 0.45800003
-0.20414957 -0.085257351 0.45900002
-0.20295295 -0.085257351 0.45900002
-0.2017563 -0.085257351 0.45900002
-0.20055966 -0.085257351 0.45900002
-0.19979735 -0.085443094 0.46000001
-0.1985981 -0.085443094 0.46000001
-0.19739886 -0.085443094 0.46000001
-0.19662614 -0.085628845 0.46100003
-0.19542427 -0.085628845 0.46100003
-0.19464372 -0.085814588 0.46200001
-0.19343926 -0.085814588 0.46200001
-0.19223478 -0.085814588 0.46200001
-0.19103034 -0.085814588 0.46200001
-0.19023675 -0.086000331 0.46300003
-0.18902968 -0.086000331 0.46300003
-0.18782261 -0.086000331 0.46300003
-0.18661554 -0.086000331 0.46300003
-0.18580891 -0.086186081 0.46400002
-0.18459924 -0.086186081 0.46400002
-0.18338956 -0.086186081 0.46400002
-0.18217988 -0.086186081 0.46400002
-0.18136023 -0.086371824 0.46500003
-0.18014796 -0.086371824 0.46500003
-0.17932047 -0.086557567 0.46600002
-0.17810556 -0.086557567 0.46600002
-0.17689069 -0.086557567 0.46600002
-0.17567579 -0.086557567 0.46600002
-0.17483528 -0.08674331 0.46700001
-0.17361778 -0.08674331 0.46700001
-0.17276946 -0.086929061 0.46800002
-0.17154934 -0.086929061 0.46800002
-0.17032924 -0.086929061 0.46800002
-0.16947047 -0.087114803 0.46900001
-0.16824776 -0.087114803 0.46900001
-0.16702504 -0.087114803 0.46900001
-0.16580234 -0.087114803 0.46900001
-0.16457961 -0.087114803 0.46900001
-0.1633569 -0.087114803 0.46900001
-0.16247991 -0.087300554 0.47000003
-0.16125458 -0.087300554 0.47000003
-0.16002926 -0.087300554 0.47000003
-0.15914181 -0.087486297 0.47100002
-0.15791389 -0.087486297 0.47100002
-0.15668596 -0.087486297 0.47100002
-0.15545805 -0.087486297 0.47100002
-0.15455757 -0.087672047 0.47200003
-0.15365188 -0.08785779 0.47300002
-0.15241873 -0.08785779 0.47300002
-0.1511856 -0.08785779 0.47300002
-0.14995246 -0.08785779 0.47300002
-0.14903373 -0.088043541 0.47400004
-0.14779799 -0.088043541 0.47400004
-0.14687143 -0.088229284 0.47500002
-0.14563309 -0.088229284 0.47500002
-0.14439473 -0.088229284 0.47500002
-0.14315638 -0.088229284 0.47500002
-0.14221679 -0.088415027 0.47600001
-0.14097583 -0.088415027 0.47600001
-0.14002843 -0.088600777 0.47700003
-0.13878487 -0.088600777 0.47700003
-0.13754129 -0.088600777 0.47700003
-0.13629773 -0.088600777 0.47700003
-0.13533728 -0.08878652 0.47800002
-0.13409109 -0.08878652 0.47800002
-0.13284492 -0.08878652 0.47800002
-0.13159874 -0.08878652 0.47800002
-0.13062528 -0.08897227 0.47900003
-0.12964658 -0.089158013 0.48000002
-0.1283952 -0.089158013 0.48000002
-0.1271438 -0.089158013 0.48000002
-0.12615471 -0.089343764 0.48100004
-0.1249007 -0.089343764 0.48100004
-0.12364671 -0.089343764 0.48100004
-0.12239271 -0.089343764 0.48100004
-0.12139056 -0.089529507 0.48200002
-0.12013395 -0.089529507 0.48200002
-0.11912397 -0.08971525 0.48300001
-0.11786477 -0.08971525 0.48300001
-0.11660555 -0.08971525 0.48300001
-0.11534634 -0.08971525 0.48300001
-0.11408713 -0.08971525 0.48300001
-0.11306152 -0.089901 0.48400003
-0.11179969 -0.089901 0.48400003
-0.11053788 -0.089901 0.48400003
-0.10927606 -0.089901 0.48400003
-0.10823741 -0.090086743 0.48500001
-0.10697298 -0.090086743 0.48500001
-0.10570855 -0.090086743 0.48500001
-0.10465948 -0.090272486 0.48600003
-0.10339245 -0.090272486 0.48600003
-0.10233555 -0.090458229 0.48700002
-0.10106591 -0.090458229 0.48700002
-0.10000119 -0.09064398 0.48800004
-0.098728947 -0.09064398 0.48800004
-0.097656406 -0.090829723 0.48900002
-0.096381545 -0.090829723 0.48900002
-0.095106691 -0.090829723 0.48900002
-0.094023719 -0.091015466 0.49000001
-0.092746265 -0.091015466 0.49000001
-0.091655478 -0.091201216 0.49100003
-0.090375409 -0.091201216 0.49100003
-0.089095339 -0.091201216 0.49100003
-0.08781527 -0.091201216 0.49100003
-0.0865352 -0.091201216 0.49100003
-0.085255139 -0.091201216 0.49100003
-0.084146097 -0.091386959 0.49200001
-0.08286342 -0.091386959 0.49200001
-0.081580743 -0.091386959 0.49200001
-0.080298066 -0.091386959 0.49200001
-0.079015389 -0.091386959 0.49200001
-0.077732712 -0.091386959 0.49200001
-0.076450042 -0.091386959 0.49200001
-0.075320147 -0.091572709 0.49300003
-0.074034862 -0.091572709 0.49300003
-0.072749585 -0.091572709 0.49300003
-0.0714643 -0.091572709 0.49300003
-0.070179015 -0.091572709 0.49300003
-0.068893738 -0.091572709 0.49300003
-0.067608453 -0.091572709 0.49300003
-0.066457704 -0.091758452 0.49400002
-0.065169811 -0.091758452 0.49400002
-0.064011231 -0.091944203 0.49500003
-0.062720738 -0.091944203 0.49500003
-0.061430246 -0.091944203 0.49500003
-0.060139749 -0.091944203 0.49500003
-0.058968134 -0.092129946 0.49600002
-0.057791311 -0.092315689 0.49700001
-0.056495599 -0.092315689 0.49700001
-0.055199891 -0.092315689 0.49700001
-0.054012641 -0.092501439 0.49800003
-0.052714325 -0.092501439 0.49800003
-0.051519249 -0.092687182 0.49900001
-0.050218325 -0.092687182 0.49900001
-0.048917398 -0.092687182 0.49900001
-0.047711898 -0.092872925 0.5
-0.046408366 -0.092872925 0.5
-0.045195051 -0.093058683 0.50100005
-0.043888912 -0.093058683 0.50100005
-0.042582769 -0.093058683 0.50100005
-0.041359019 -0.093244426 0.50200003
-0.040050272 -0.093244426 0.50200003
-0.038741525 -0.093244426 0.50200003
-0.037507348 -0.093430169 0.50300002
-0.036195993 -0.093430169 0.50300002
-0.034884639 -0.093430169 0.50300002
-0.033640031 -0.093615912 0.50400001
-0.032326072 -0.093615912 0.50400001
-0.031073643 -0.093801655 0.505
-0.029757077 -0.093801655 0.505
-0.028440509 -0.093801655 0.505
-0.027177656 -0.093987405 0.50600004
-0.025858482 -0.093987405 0.50600004
-0.024539307 -0.093987405 0.50600004
-0.023220133 -0.093987405 0.50600004
-0.021900959 -0.093987405 0.50600004
-0.020581784 -0.093987405 0.50600004
-0.01926261 -0.093987405 0.50600004
-0.017943436 -0.093987405 0.50600004
-0.016657116 -0.094173148 0.50700003
-0.015335334 -0.094173148 0.50700003
-0.014013552 -0.094173148 0.50700003
-0.012691771 -0.094173148 0.50700003
-0.011392416 -0.094358891 0.50800002
-0.010068027 -0.094358891 0.50800002
-0.0087436382 -0.094358891 0.50800002
-0.007433855 -0.094544642 0.509
-0.0061068595 -0.094544642 0.509
-0.0047798641 -0.094544642 0.509
-0.0034596529 -0.094730392 0.51000005
-0.0021300502 -0.094730392 0.51000005
-0.00080201717 -0.094916135 0.51100004
0.00053019245 -0.094916135 0.51100004
0.0018624021 -0.094916135 0.51100004
0.0031946118 -0.094916135 0.51100004
0.0045356802 -0.095101878 0.51200002
0.0058704964 -0.095101878 0.51200002
0.0072053131 -0.095101878 0.51200002
0.0085401302 -0.095101878 0.51200002
0.0098749464 -0.095101878 0.51200002
0.011231657 -0.095287621 0.51300001
0.012569081 -0.095287621 0.51300001
0.013906504 -0.095287621 0.51300001
0.015273643 -0.095473364 0.514
0.016613673 -0.095473364 0.514
0.017953703 -0.095473364 0.514
0.019331273 -0.095659122 0.51500005
0.02067391 -0.095659122 0.51500005
0.022059297 -0.095844865 0.51600003
0.023404544 -0.095844865 0.51600003
0.024797752 -0.096030608 0.51700002
0.026145604 -0.096030608 0.51700002
0.027546635 -0.096216351 0.51800001
0.028897094 -0.096216351 0.51800001
0.030247552 -0.096216351 0.51800001
0.031598013 -0.096216351 0.51800001
0.032948468 -0.096216351 0.51800001
0.034365147 -0.096402109 0.51900005
0.035718214 -0.096402109 0.51900005
0.03707128 -0.096402109 0.51900005
0.038498379 -0.096587852 0.52000004
0.039854053 -0.096587852 0.52000004
0.041209724 -0.096587852 0.52000004
0.042647257 -0.096773595 0.52100003
0.044005536 -0.096773595 0.52100003
0.045363817 -0.096773595 0.52100003
0.046722095 -0.096773595 0.52100003
0.04817266 -0.096959338 0.52200001
0.049533546 -0.096959338 0.52200001
0.05099193 -0.097145081 0.523
0.052355427 -0.097145081 0.523
0.053718921 -0.097145081 0.523
0.055187739 -0.097330831 0.52400005
0.056553841 -0.097330831 0.52400005
0.058030475 -0.097516581 0.52500004
0.05939918 -0.097516581 0.52500004
0.060767893 -0.097516581 0.52500004
0.062136602 -0.097516581 0.52500004
0.063626267 -0.097702324 0.52600002
0.064997584 -0.097702324 0.52600002
0.0663689 -0.097702324 0.52600002
0.067869 -0.097888067 0.52700001
0.069242917 -0.097888067 0.52700001
0.070616841 -0.097888067 0.52700001
0.072127365 -0.09807381 0.528
0.073503897 -0.09807381 0.528
0.075022258 -0.098259561 0.52900004
0.07640139 -0.098259561 0.52900004
0.07792756 -0.098445304 0.53000003
0.079309307 -0.098445304 0.53000003
0.080691047 -0.098445304 0.53000003
0.082072787 -0.098445304 0.53000003
0.083454534 -0.098445304 0.53000003
0.084996343 -0.098631047 0.53100002
0.08638069 -0.098631047 0.53100002
0.087765045 -0.098631047 0.53100002
0.089149393 -0.098631047 0.53100002
0.090533741 -0.098631047 0.53100002
0.091744989 -0.098445304 0.53000003
0.087069511 -0.079127736 0.42600003
0.088180125 -0.079127736 0.42600003
0.089500338 -0.079313479 0.42700002
0.090613551 -0.079313479 0.42700002
0.10609041 -0.087486297 0.47100002
0.10686263 -0.087114803 0.46900001
0.10785489 -0.086929061 0.46800002
0.1083758 -0.086371824 0.46500003
0.1093524 -0.086186081 0.46400002
0.11056208 -0.086186081 0.46400002
0.11177176 -0.086186081 0.46400002
0.11273795 -0.086000331 0.46300003
0.11394502 -0.086000331 0.46300003
0.11490338 -0.085814588 0.46200001
0.11585652 -0.085628845 0.46100003
0.11680446 -0.085443094 0.46000001
0.11774717 -0.085257351 0.45900002
0.11868469 -0.085071608 0.45800003
0.11961699 -0.084885858 0.45700002
0.12054405 -0.084700115 0.45600003
0.12146592 -0.084514365 0.45500001
0.12238257 -0.084328622 0.45400003
0.123294 -0.084142871 0.45300001
0.12420022 -0.083957128 0.45200002
0.12510124 -0.083771385 0.45100003
0.12571703 -0.083399892 0.44900003
0.126605 -0.083214141 0.44800001
0.12748775 -0.083028398 0.44700003
0.12807748 -0.082656905 0.44500002
0.1289472 -0.082471162 0.44400004
0.13010475 -0.082471162 0.44400004
0.13096665 -0.082285412 0.44300002
0.13182333 -0.082099669 0.44200003
0.13297565 -0.082099669 0.44200003
0.13382451 -0.081913926 0.44100001
0.13497423 -0.081913926 0.44100001
0.13612394 -0.081913926 0.44100001
0.13727367 -0.081913926 0.44100001
0.17596972 -0.1032747 0.55600005
0.17741923 -0.1032747 0.55600005
0.17919047 -0.10346045 0.55700004
0.1809669 -0.10364619 0.55800003
0.18242165 -0.10364619 0.55800003
0.18420592 -0.10383193 0.55900002
0.18566327 -0.10383193 0.55900002
0.18745536 -0.10401767 0.56
0.18891531 -0.10401767 0.56
0.19071524 -0.10420343 0.56100005
0.19252035 -0.10438918 0.56200004
0.19398554 -0.10438918 0.56200004
0.19545069 -0.10438918 0.56200004
0.19726625 -0.10457492 0.56300002
0.19873402 -0.10457492 0.56300002
0.2005574 -0.10476066 0.56400001
0.20202777 -0.10476066 0.56400001
0.20385897 -0.1049464 0.565
0.20533197 -0.1049464 0.565
0.20680495 -0.1049464 0.565
0.2086466 -0.10513216 0.56600004
0.21012218 -0.10513216 0.56600004
0.2115978 -0.10513216 0.56600004
0.21344984 -0.10531791 0.56700003
0.21492805 -0.10531791 0.56700003
0.2167879 -0.10550365 0.56800002
0.21826872 -0.10550365 0.56800002
0.21974953 -0.10550365 0.56800002
0.22123034 -0.10550365 0.56800002
0.22271115 -0.10550365 0.56800002
0.22458667 -0.10568939 0.56900001
0.22607009 -0.10568939 0.56900001
0.2275535 -0.10568939 0.56900001
0.22943948 -0.10587514 0.57000005
0.2309255 -0.10587514 0.57000005
0.23241153 -0.10587514 0.57000005
0.23430789 -0.10606088 0.57100004
0.23579653 -0.10606088 0.57100004
0.23770072 -0.10624663 0.57200003
0.23919196 -0.10624663 0.57200003
0.24110396 -0.10643238 0.57300001
0.24302119 -0.10661812 0.574
0.24451764 -0.10661812 0.574
0.2460141 -0.10661812 0.574
0.24794178 -0.10680387 0.57500005
0.24987464 -0.10698961 0.57600003
0.25137633 -0.10698961 0.57600003
0.253317 -0.10717536 0.57700002
0.25482127 -0.10717536 0.57700002
0.25676978 -0.1073611 0.57800001
0.25827667 -0.1073611 0.57800001
0.26023301 -0.10754686 0.57900006
0.26219457 -0.1077326 0.58000004
0.26370665 -0.1077326 0.58000004
0.26521876 -0.1077326 0.58000004
0.26719072 -0.10791834 0.58100003
0.26870543 -0.10791834 0.58100003
0.27022016 -0.10791834 0.58100003
0.27173483 -0.10791834 0.58100003
0.27371985 -0.10810409 0.58200002
0.27523717 -0.10810409 0.58200002
0.27675447 -0.10810409 0.58200002
-0.25241879 -0.081863038 0.44700003
-0.25125343 -0.081863038 0.44700003
-0.2500881 -0.081863038 0.44700003
-0.24947958 -0.082046174 0.44800001
-0.24831162 -0.082046174 0.44800001
-0.24714366 -0.082046174 0.44800001
-0.24652474 -0.082229316 0.44900003
-0.24535418 -0.082229316 0.44900003
-0.24418361 -0.082229316 0.44900003
-0.24355426 -0.082412452 0.45000002
-0.24238107 -0.082412452 0.45000002
-0.2412079 -0.082412452 0.45000002
-0.24003473 -0.082412452 0.45000002
-0.23886156 -0.082412452 0.45000002
-0.23821656 -0.082595594 0.45100003
-0.23704079 -0.082595594 0.45100003
-0.23586501 -0.082595594 0.45100003
-0.23468924 -0.082595594 0.45100003
-0.23351343 -0.082595594 0.45100003
-0.2328528 -0.082778729 0.45200002
-0.23167442 -0.082778729 0.45200002
-0.230496 -0.082778729 0.45200002
-0.22982495 -0.082961865 0.45300001
-0.22864395 -0.082961865 0.45300001
-0.2279651 -0.083145007 0.45400003
-0.22678149 -0.083145007 0.45400003
-0.22559787 -0.083145007 0.45400003
-0.22490858 -0.083328143 0.45500001
-0.22372235 -0.083328143 0.45500001
-0.22302525 -0.083511285 0.45600003
-0.22183642 -0.083511285 0.45600003
-0.22064759 -0.083511285 0.45600003
-0.21994004 -0.083694421 0.45700002
-0.2187486 -0.083694421 0.45700002
-0.21755718 -0.083694421 0.45700002
-0.21636575 -0.083694421 0.45700002
-0.21517433 -0.083694421 0.45700002
-0.2139829 -0.083694421 0.45700002
-0.2132571 -0.083877563 0.45800003
-0.21206306 -0.083877563 0.45800003
-0.21086904 -0.083877563 0.45800003
-0.209675 -0.083877563 0.45800003
-0.20848097 -0.083877563 0.45800003
-0.20728692 -0.083877563 0.45800003
-0.20609288 -0.083877563 0.45800003
-0.20489886 -0.083877563 0.45800003
-0.20414957 -0.084060699 0.45900002
-0.20295295 -0.084060699 0.45900002
-0.2017563 -0.084060699 0.45900002
-0.20055966 -0.084060699 0.45900002
-0.19979735 -0.084243834 0.46000001
-0.1985981 -0.084243834 0.46000001
-0.19739886 -0.084243834 0.46000001
-0.19662614 -0.084426977 0.46100003
-0.19542427 -0.084426977 0.46100003
-0.19464372 -0.084610112 0.46200001
-0.19343926 -0.084610112 0.46200001
-0.19223478 -0.084610112 0.46200001
-0.19103034 -0.084610112 0.46200001
-0.19023675 -0.084793255 0.46300003
-0.18902968 -0.084793255 0.46300003
-0.18782261 -0.084793255 0.46300003
-0.18661554 -0.084793255 0.46300003
-0.18580891 -0.08497639 0.46400002
-0.18459924 -0.08497639 0.46400002
-0.18338956 -0.08497639 0.46400002
-0.18217988 -0.08497639 0.46400002
-0.18136023 -0.085159533 0.46500003
-0.18014796 -0.085159533 0.46500003
-0.17893566 -0.085159533 0.46500003
-0.17810556 -0.085342675 0.46600002
-0.17689069 -0.085342675 0.46600002
-0.17567579 -0.085342675 0.46600002
-0.17483528 -0.085525811 0.46700001
-0.17361778 -0.085525811 0.46700001
-0.17240028 -0.085525811 0.46700001
-0.17154934 -0.085708953 0.46800002
-0.17032924 -0.085708953 0.46800002
-0.16910914 -0.085708953 0.46800002
-0.16824776 -0.085892089 0.46900001
-0.16702504 -0.085892089 0.46900001
-0.16580234 -0.085892089 0.46900001
-0.16457961 -0.085892089 0.46900001
-0.1633569 -0.085892089 0.46900001
-0.16247991 -0.086075231 0.47000003
-0.16125458 -0.086075231 0.47000003
-0.16002926 -0.086075231 0.47000003
-0.15914181 -0.086258367 0.47100002
-0.15791389 -0.086258367 0.47100002
-0.15668596 -0.086258367 0.47100002
-0.15545805 -0.086258367 0.47100002
-0.15455757 -0.086441509 0.47200003
-0.15365188 -0.086624645 0.47300002
-0.15241873 -0.086624645 0.47300002
-0.1511856 -0.086624645 0.47300002
-0.14995246 -0.086624645 0.47300002
-0.14903373 -0.086807787 0.47400004
-0.14779799 -0.086807787 0.47400004
-0.14656223 -0.086807787 0.47400004
-0.14563309 -0.086990923 0.47500002
-0.14439473 -0.086990923 0.47500002
-0.14315638 -0.086990923 0.47500002
-0.14221679 -0.087174058 0.47600001
-0.14097583 -0.087174058 0.47600001
-0.14002843 -0.087357201 0.47700003
-0.13878487 -0.087357201 0.47700003
-0.13754129 -0.087357201 0.47700003
-0.13629773 -0.087357201 0.47700003
-0.13533728 -0.087540336 0.47800002
-0.13409109 -0.087540336 0.47800002
-0.13284492 -0.087540336 0.47800002
-0.13159874 -0.087540336 0.47800002
-0.13062528 -0.087723479 0.47900003
-0.12964658 -0.087906614 0.48000002
-0.1283952 -0.087906614 0.48000002
-0.1271438 -0.087906614 0.48000002
-0.12589243 -0.087906614 0.48000002
-0.1249007 -0.088089757 0.48100004
-0.12364671 -0.088089757 0.48100004
-0.12239271 -0.088089757 0.48100004
-0.12139056 -0.088272892 0.48200002
-0.12013395 -0.088272892 0.48200002
-0.11912397 -0.088456027 0.48300001
-0.11786477 -0.088456027 0.48300001
-0.11660555 -0.088456027 0.48300001
-0.11534634 -0.088456027 0.48300001
-0.11408713 -0.088456027 0.48300001
-0.11306152 -0.08863917 0.48400003
-0.11179969 -0.08863917 0.48400003
-0.11053788 -0.08863917 0.48400003
-0.10927606 -0.08863917 0.48400003
-0.10801424 -0.08863917 0.48400003
-0.10697298 -0.088822305 0.48500001
-0.10570855 -0.088822305 0.48500001
-0.10465948 -0.089005448 0.48600003
-0.10339245 -0.089005448 0.48600003
-0.10212542 -0.089005448 0.48600003
-0.10106591 -0.089188583 0.48700002
-0.10000119 -0.089371726 0.48800004
-0.098728947 -0.089371726 0.48800004
-0.097656406 -0.089554861 0.48900002
-0.096381545 -0.089554861 0.48900002
-0.095301181 -0.089738004 0.49000001
-0.094023719 -0.089738004 0.49000001
-0.092746265 -0.089738004 0.49000001
-0.091655478 -0.089921139 0.49100003
-0.090375409 -0.089921139 0.49100003
-0.089095339 -0.089921139 0.49100003
-0.08781527 -0.089921139 0.49100003
-0.0865352 -0.089921139 0.49100003
-0.085255139 -0.089921139 0.49100003
-0.084146097 -0.090104282 0.49200001
-0.08286342 -0.090104282 0.49200001
-0.081580743 -0.090104282 0.49200001
-0.080298066 -0.090104282 0.49200001
-0.079015389 -0.090104282 0.49200001
-0.077732712 -0.090104282 0.49200001
-0.076605432 -0.090287417 0.49300003
-0.075320147 -0.090287417 0.49300003
-0.074034862 -0.090287417 0.49300003
-0.072749585 -0.090287417 0.49300003
-0.0714643 -0.090287417 0.49300003
-0.070179015 -0.090287417 0.49300003
-0.068893738 -0.090287417 0.49300003
-0.067608453 -0.090287417 0.49300003
-0.066457704 -0.09047056 0.49400002
-0.065169811 -0.09047056 0.49400002
-0.064011231 -0.090653695 0.49500003
-0.062720738 -0.090653695 0.49500003
-0.061430246 -0.090653695 0.49500003
-0.060261242 -0.090836838 0.49600002
-0.058968134 -0.090836838 0.49600002
-0.057791311 -0.091019973 0.49700001
-0.056495599 -0.091019973 0.49700001
-0.055310961 -0.091203116 0.49800003
-0.054012641 -0.091203116 0.49800003
-0.052820176 -0.091386251 0.49900001
-0.051519249 -0.091386251 0.49900001
-0.050218325 -0.091386251 0.49900001
-0.049015429 -0.091569386 0.5
-0.047711898 -0.091569386 0.5
-0.046501186 -0.091752537 0.50100005
-0.045195051 -0.091752537 0.50100005
-0.043888912 -0.091752537 0.50100005
-0.042582769 -0.091752537 0.50100005
-0.041359019 -0.091935672 0.50200003
-0.040050272 -0.091935672 0.50200003
-0.038741525 -0.091935672 0.50200003
-0.037507348 -0.092118807 0.50300002
-0.036195993 -0.092118807 0.50300002
-0.034953993 -0.092301942 0.50400001
-0.033640031 -0.092301942 0.50400001
-0.032326072 -0.092301942 0.50400001
-0.031073643 -0.092485078 0.505
-0.029757077 -0.092485078 0.505
-0.028440509 -0.092485078 0.505
-0.027177656 -0.092668228 0.50600004
-0.025858482 -0.092668228 0.50600004
-0.024539307 -0.092668228 0.50600004
-0.023220133 -0.092668228 0.50600004
-0.021900959 -0.092668228 0.50600004
-0.020581784 -0.092668228 0.50600004
-0.01926261 -0.092668228 0.50600004
-0.017943436 -0.092668228 0.50600004
-0.016624263 -0.092668228 0.50600004
-0.015335334 -0.092851363 0.50700003
-0.014013552 -0.092851363 0.50700003
-0.012691771 -0.092851363 0.50700003
-0.01136999 -0.092851363 0.50700003
-0.010068027 -0.093034498 0.50800002
-0.0087436382 -0.093034498 0.50800002
-0.00741925 -0.093034498 0.50800002
-0.0061068595 -0.093217634 0.509
-0.0047798641 -0.093217634 0.509
-0.0034528689 -0.093217634 0.509
-0.0021300502 -0.093400784 0.51000005
-0.00080044765 -0.093400784 0.51000005
0.00053019245 -0.093583919 0.51100004
0.0018624021 -0.093583919 0.51100004
0.0031946118 -0.093583919 0.51100004
0.0045356802 -0.093767054 0.51200002
0.0058704964 -0.093767054 0.51200002
0.0072053131 -0.093767054 0.51200002
0.0085401302 -0.093767054 0.51200002
0.0098749464 -0.093767054 0.51200002
0.011231657 -0.09395019 0.51300001
0.012569081 -0.09395019 0.51300001
0.013906504 -0.09395019 0.51300001
0.015273643 -0.094133332 0.514
0.016613673 -0.094133332 0.514
0.017953703 -0.094133332 0.514
0.019331273 -0.094316475 0.51500005
0.02067391 -0.094316475 0.51500005
0.022059297 -0.09449961 0.51600003
0.023404544 -0.09449961 0.51600003
0.024797752 -0.094682746 0.51700002
0.026145604 -0.094682746 0.51700002
0.027546635 -0.094865888 0.51800001
0.028897094 -0.094865888 0.51800001
0.030247552 -0.094865888 0.51800001
0.031598013 -0.094865888 0.51800001
0.033012077 -0.095049031 0.51900005
0.034365147 -0.095049031 0.51900005
0.035718214 -0.095049031 0.51900005
0.03707128 -0.095049031 0.51900005
0.038498379 -0.095232166 0.52000004
0.039854053 -0.095232166 0.52000004
0.041209724 -0.095232166 0.52000004
0.042647257 -0.095415309 0.52100003
0.044005536 -0.095415309 0.52100003
0.045363817 -0.095415309 0.52100003
0.046722095 -0.095415309 0.52100003
0.04817266 -0.095598444 0.52200001
0.049533546 -0.095598444 0.52200001
0.05099193 -0.09578158 0.523
0.052355427 -0.09578158 0.523
0.053821638 -0.095964722 0.52400005
0.055187739 -0.095964722 0.52400005
0.056553841 -0.095964722 0.52400005
0.058030475 -0.096147865 0.52500004
0.05939918 -0.096147865 0.52500004
0.060767893 -0.096147865 0.52500004
0.062136602 -0.096147865 0.52500004
0.063626267 -0.096331 0.52600002
0.064997584 -0.096331 0.52600002
0.0663689 -0.096331 0.52600002
0.067869 -0.096514136 0.52700001
0.069242917 -0.096514136 0.52700001
0.070616841 -0.096514136 0.52700001
0.072127365 -0.096697271 0.528
0.073643111 -0.096880421 0.52900004
0.075022258 -0.096880421 0.52900004
0.07640139 -0.096880421 0.52900004
0.07792756 -0.097063556 0.53000003
0.079309307 -0.097063556 0.53000003
0.080691047 -0.097063556 0.53000003
0.082072787 -0.097063556 0.53000003
0.083454534 -0.097063556 0.53000003
0.084996343 -0.097246692 0.53100002
0.08638069 -0.097246692 0.53100002
0.087765045 -0.097246692 0.53100002
0.089149393 -0.097246692 0.53100002
0.090533741 -0.097246692 0.53100002
0.084848292 -0.078017123 0.42600003
0.085958906 -0.078017123 0.42600003
0.087069511 -0.078017123 0.42600003
0.088180125 -0.078017123 0.42600003
0.089290738 -0.078017123 0.42600003
0.1065409 -0.086624645 0.47300002
0.1075462 -0.086441509 0.47200003
0.10854626 -0.086258367 0.47100002
0.10954113 -0.086075231 0.47000003
0.1102951 -0.085708953 0.46800002
0.11127692 -0.085525811 0.46700001
0.11249442 -0.085525811 0.46700001
0.11371192 -0.085525811 0.46700001
0.11468332 -0.085342675 0.46600002
0.11564951 -0.085159533 0.46500003
0.11661047 -0.08497639 0.46400002
0.11756624 -0.084793255 0.46300003
0.11851676 -0.084610112 0.46200001
0.11920296 -0.084243834 0.46000001
0.12014047 -0.084060699 0.45900002
0.12107276 -0.083877563 0.45800003
0.12199984 -0.083694421 0.45700002
0.12319126 -0.083694421 0.45700002
0.12411052 -0.083511285 0.45600003
0.12502456 -0.083328143 0.45500001
0.12593339 -0.083145007 0.45400003
0.12655701 -0.082778729 0.45200002
0.12745281 -0.082595594 0.45100003
0.12805817 -0.082229316 0.44900003
0.12894093 -0.082046174 0.44800001
0.12981847 -0.081863038 0.44700003
0.13039777 -0.08149676 0.44500002
0.13126229 -0.081313625 0.44400004
0.13241981 -0.081313625 0.44400004
0.13327651 -0.081130482 0.44300002
0.13443142 -0.081130482 0.44300002
0.1352803 -0.080947347 0.44200003
0.13643262 -0.080947347 0.44200003
0.13727367 -0.080764204 0.44100001
0.13842337 -0.080764204 0.44100001
0.17773832 -0.10200831 0.55700004
0.17919047 -0.10200831 0.55700004
0.1809669 -0.10219144 0.55800003
0.18242165 -0.10219144 0.55800003
0.18420592 -0.10237458 0.55900002
0.1859954 -0.10255771 0.56
0.18745536 -0.10255771 0.56
0.18925267 -0.10274086 0.56100005
0.19105519 -0.102924 0.56200004
0.19252035 -0.102924 0.56200004
0.19398554 -0.102924 0.56200004
0.19579847 -0.10310713 0.56300002
0.19726625 -0.10310713 0.56300002
0.19908701 -0.10329027 0.56400001
0.2005574 -0.10329027 0.56400001
0.20202777 -0.10329027 0.56400001
0.20385897 -0.1034734 0.565
0.20533197 -0.1034734 0.565
0.20680495 -0.1034734 0.565
0.2086466 -0.10365655 0.56600004
0.21012218 -0.10365655 0.56600004
0.2115978 -0.10365655 0.56600004
0.21344984 -0.10383969 0.56700003
0.21492805 -0.10383969 0.56700003
0.2167879 -0.10402282 0.56800002
0.21826872 -0.10402282 0.56800002
0.21974953 -0.10402282 0.56800002
0.22123034 -0.10402282 0.56800002
0.22271115 -0.10402282 0.56800002
0.22458667 -0.10420597 0.56900001
0.22607009 -0.10420597 0.56900001
0.2275535 -0.10420597 0.56900001
0.22943948 -0.10438911 0.57000005
0.2309255 -0.10438911 0.57000005
0.23241153 -0.10438911 0.57000005
0.23430789 -0.10457224 0.57100004
0.23579653 -0.10457224 0.57100004
0.23770072 -0.10475538 0.57200003
0.23919196 -0.10475538 0.57200003
0.24068318 -0.10475538 0.57200003
0.24259782 -0.10493852 0.57300001
0.24451764 -0.10512166 0.574
0.2460141 -0.10512166 0.574
0.24794178 -0.1053048 0.57500005
0.24987464 -0.10548794 0.57600003
0.25137633 -0.10548794 0.57600003
0.253317 -0.10567108 0.57700002
0.25482127 -0.10567108 0.57700002
0.25676978 -0.10585421 0.57800001
0.25827667 -0.10585421 0.57800001
0.26023301 -0.10603736 0.57900006
0.26219457 -0.1062205 0.58000004
0.26370665 -0.1062205 0.58000004
0.26521876 -0.1062205 0.58000004
0.26719072 -0.10640363 0.58100003
0.26870543 -0.10640363 0.58100003
0.27022016 -0.10640363 0.58100003
0.27173483 -0.10640363 0.58100003
0.27371985 -0.10658677 0.58200002
0.27523717 -0.10658677 0.58200002
0.27675447 -0.10658677 0.58200002
-0.25241879 -0.080697678 0.44700003
-0.25125343 -0.080697678 0.44700003
-0.2500881 -0.080697678 0.44700003
-0.24947958 -0.080878206 0.44800001
-0.24831162 -0.080878206 0.44800001
-0.24714366 -0.080878206 0.44800001
-0.24652474 -0.081058741 0.44900003
-0.24535418 -0.081058741 0.44900003
-0.24418361 -0.081058741 0.44900003
-0.24355426 -0.081239276 0.45000002
-0.24238107 -0.081239276 0.45000002
-0.2412079 -0.081239276 0.45000002
-0.24056815 -0.081419811 0.45100003
-0.23939237 -0.081419811 0.45100003
-0.23821656 -0.081419811 0.45100003
-0.23704079 -0.081419811 0.45100003
-0.23586501 -0.081419811 0.45100003
-0.23468924 -0.081419811 0.45100003
-0.23403119 -0.081600338 0.45200002
-0.2328528 -0.081600338 0.45200002
-0.23167442 -0.081600338 0.45200002
-0.23100594 -0.081780866 0.45300001
-0.22982495 -0.081780866 0.45300001
-0.2291487 -0.081961401 0.45400003
-0.2279651 -0.081961401 0.45400003
-0.22678149 -0.081961401 0.45400003
-0.22609478 -0.082141928 0.45500001
-0.22490858 -0.082141928 0.45500001
-0.22421406 -0.082322463 0.45600003
-0.22302525 -0.082322463 0.45600003
-0.22183642 -0.082322463 0.45600003
-0.22064759 -0.082322463 0.45600003
-0.21994004 -0.082502998 0.45700002
-0.2187486 -0.082502998 0.45700002
-0.21755718 -0.082502998 0.45700002
-0.21636575 -0.082502998 0.45700002
-0.21517433 -0.082502998 0.45700002
-0.2139829 -0.082502998 0.45700002
-0.2132571 -0.082683526 0.45800003
-0.21206306 -0.082683526 0.45800003
-0.21086904 -0.082683526 0.45800003
-0.209675 -0.082683526 0.45800003
-0.20848097 -0.082683526 0.45800003
-0.20728692 -0.082683526 0.45800003
-0.20609288 -0.082683526 0.45800003
-0.20534623 -0.082864061 0.45900002
-0.20414957 -0.082864061 0.45900002
-0.20295295 -0.082864061 0.45900002
-0.2017563 -0.082864061 0.45900002
-0.20055966 -0.082864061 0.45900002
-0.19979735 -0.083044589 0.46000001
-0.1985981 -0.083044589 0.46000001
-0.19739886 -0.083044589 0.46000001
-0.19619961 -0.083044589 0.46000001
-0.19542427 -0.083225124 0.46100003
-0.19464372 -0.083405651 0.46200001
-0.19343926 -0.083405651 0.46200001
-0.19223478 -0.083405651 0.46200001
-0.19103034 -0.083405651 0.46200001
-0.19023675 -0.083586186 0.46300003
-0.18902968 -0.083586186 0.46300003
-0.18782261 -0.083586186 0.46300003
-0.18661554 -0.083586186 0.46300003
-0.18580891 -0.083766714 0.46400002
-0.18459924 -0.083766714 0.46400002
-0.18338956 -0.083766714 0.46400002
-0.18217988 -0.083766714 0.46400002
-0.18097021 -0.083766714 0.46400002
-0.18014796 -0.083947249 0.46500003
-0.17893566 -0.083947249 0.46500003
-0.17810556 -0.084127784 0.46600002
-0.17689069 -0.084127784 0.46600002
-0.17567579 -0.084127784 0.46600002
-0.1744609 -0.084127784 0.46600002
-0.17361778 -0.084308311 0.46700001
-0.17240028 -0.084308311 0.46700001
-0.17154934 -0.084488846 0.46800002
-0.17032924 -0.084488846 0.46800002
-0.16910914 -0.084488846 0.46800002
-0.16824776 -0.084669374 0.46900001
-0.16702504 -0.084669374 0.46900001
-0.16580234 -0.084669374 0.46900001
-0.16457961 -0.084669374 0.46900001
-0.1633569 -0.084669374 0.46900001
-0.16247991 -0.084849909 0.47000003
-0.16125458 -0.084849909 0.47000003
-0.16002926 -0.084849909 0.47000003
-0.15914181 -0.085030437 0.47100002
-0.15791389 -0.085030437 0.47100002
-0.15668596 -0.085030437 0.47100002
-0.15545805 -0.085030437 0.47100002
-0.15455757 -0.085210972 0.47200003
-0.15332705 -0.085210972 0.47200003
-0.15241873 -0.085391499 0.47300002
-0.1511856 -0.085391499 0.47300002
-0.14995246 -0.085391499 0.47300002
-0.14903373 -0.085572034 0.47400004
-0.14779799 -0.085572034 0.47400004
-0.14656223 -0.085572034 0.47400004
-0.14563309 -0.085752569 0.47500002
-0.14439473 -0.085752569 0.47500002
-0.14315638 -0.085752569 0.47500002
-0.14221679 -0.085933097 0.47600001
-0.14127201 -0.086113632 0.47700003
-0.14002843 -0.086113632 0.47700003
-0.13878487 -0.086113632 0.47700003
-0.13754129 -0.086113632 0.47700003
-0.13658346 -0.086294159 0.47800002
-0.13533728 -0.086294159 0.47800002
-0.13409109 -0.086294159 0.47800002
-0.13284492 -0.086294159 0.47800002
-0.13187405 -0.086474694 0.47900003
-0.13062528 -0.086474694 0.47900003
-0.12964658 -0.086655222 0.48000002
-0.1283952 -0.086655222 0.48000002
-0.1271438 -0.086655222 0.48000002
-0.12589243 -0.086655222 0.48000002
-0.1249007 -0.086835757 0.48100004
-0.12364671 -0.086835757 0.48100004
-0.12239271 -0.086835757 0.48100004
-0.12113871 -0.086835757 0.48100004
-0.12013395 -0.087016292 0.48200002
-0.11887734 -0.087016292 0.48200002
-0.11786477 -0.087196819 0.48300001
-0.11660555 -0.087196819 0.48300001
-0.11534634 -0.087196819 0.48300001
-0.11408713 -0.087196819 0.48300001
-0.11282792 -0.087196819 0.48300001
-0.11179969 -0.087377355 0.48400003
-0.11053788 -0.087377355 0.48400003
-0.10927606 -0.087377355 0.48400003
-0.10801424 -0.087377355 0.48400003
-0.10675243 -0.087377355 0.48400003
-0.10570855 -0.087557882 0.48500001
-0.10465948 -0.087738417 0.48600003
-0.10339245 -0.087738417 0.48600003
-0.10212542 -0.087738417 0.48600003
-0.10106591 -0.087918945 0.48700002
-0.10000119 -0.08809948 0.48800004
-0.098728947 -0.08809948 0.48800004
-0.097656406 -0.088280007 0.48900002
-0.096381545 -0.088280007 0.48900002
-0.095106691 -0.088280007 0.48900002
-0.094023719 -0.088460542 0.49000001
-0.092746265 -0.088460542 0.49000001
-0.091655478 -0.088641077 0.49100003
-0.090375409 -0.088641077 0.49100003
-0.089095339 -0.088641077 0.49100003
-0.08781527 -0.088641077 0.49100003
-0.0865352 -0.088641077 0.49100003
-0.085255139 -0.088641077 0.49100003
-0.083975069 -0.088641077 0.49100003
-0.08286342 -0.088821605 0.49200001
-0.081580743 -0.088821605 0.49200001
-0.080298066 -0.088821605 0.49200001
-0.079015389 -0.088821605 0.49200001
-0.077890709 -0.08900214 0.49300003
-0.076605432 -0.08900214 0.49300003
-0.075320147 -0.08900214 0.49300003
-0.074034862 -0.08900214 0.49300003
-0.072749585 -0.08900214 0.49300003
-0.0714643 -0.08900214 0.49300003
-0.070179015 -0.08900214 0.49300003
-0.068893738 -0.08900214 0.49300003
-0.067745589 -0.089182667 0.49400002
-0.066457704 -0.089182667 0.49400002
-0.065169811 -0.089182667 0.49400002
-0.064011231 -0.089363202 0.49500003
-0.062720738 -0.089363202 0.49500003
-0.061430246 -0.089363202 0.49500003
-0.060261242 -0.08954373 0.49600002
-0.058968134 -0.08954373 0.49600002
-0.057791311 -0.089724265 0.49700001
-0.056495599 -0.089724265 0.49700001
-0.055199891 -0.089724265 0.49700001
-0.054012641 -0.0899048 0.49800003
-0.052820176 -0.090085328 0.49900001
-0.051519249 -0.090085328 0.49900001
-0.050218325 -0.090085328 0.49900001
-0.049015429 -0.090265855 0.5
-0.047711898 -0.090265855 0.5
-0.046501186 -0.090446398 0.50100005
-0.045195051 -0.090446398 0.50100005
-0.043888912 -0.090446398 0.50100005
-0.042582769 -0.090446398 0.50100005
-0.041359019 -0.090626925 0.50200003
-0.040050272 -0.090626925 0.50200003
-0.038741525 -0.090626925 0.50200003
-0.037507348 -0.090807453 0.50300002
-0.036195993 -0.090807453 0.50300002
-0.034953993 -0.09098798 0.50400001
-0.033640031 -0.09098798 0.50400001
-0.032326072 -0.09098798 0.50400001
-0.031073643 -0.091168515 0.505
-0.029757077 -0.091168515 0.505
-0.028440509 -0.091168515 0.505
-0.027177656 -0.09134905 0.50600004
-0.025858482 -0.09134905 0.50600004
-0.024539307 -0.09134905 0.50600004
-0.023220133 -0.09134905 0.50600004
-0.021900959 -0.09134905 0.50600004
-0.020581784 -0.09134905 0.50600004
-0.01926261 -0.09134905 0.50600004
-0.017943436 -0.09134905 0.50600004
-0.016624263 -0.09134905 0.50600004
-0.015335334 -0.091529585 0.50700003
-0.014013552 -0.091529585 0.50700003
-0.012691771 -0.091529585 0.50700003
-0.01136999 -0.091529585 0.50700003
-0.010068027 -0.091710113 0.50800002
-0.0087436382 -0.091710113 0.50800002
-0.00741925 -0.091710113 0.50800002
-0.0061068595 -0.091890641 0.509
-0.0047798641 -0.091890641 0.509
-0.0034528689 -0.091890641 0.509
-0.0021300502 -0.092071183 0.51000005
-0.00080044765 -0.092071183 0.51000005
0.00053019245 -0.092251711 0.51100004
0.0018624021 -0.092251711 0.51100004
0.0031946118 -0.092251711 0.51100004
0.0045356802 -0.092432238 0.51200002
0.0058704964 -0.092432238 0.51200002
0.0072053131 -0.092432238 0.51200002
0.0085401302 -0.092432238 0.51200002
0.0098749464 -0.092432238 0.51200002
0.011231657 -0.092612773 0.51300001
0.012569081 -0.092612773 0.51300001
0.013906504 -0.092612773 0.51300001
0.015273643 -0.092793301 0.514
0.016613673 -0.092793301 0.514
0.017953703 -0.092793301 0.514
0.019331273 -0.092973836 0.51500005
0.02067391 -0.092973836 0.51500005
0.022059297 -0.093154371 0.51600003
0.023404544 -0.093154371 0.51600003
0.024797752 -0.093334898 0.51700002
0.026196174 -0.093515426 0.51800001
0.027546635 -0.093515426 0.51800001
0.028897094 -0.093515426 0.51800001
0.030247552 -0.093515426 0.51800001
0.031598013 -0.093515426 0.51800001
0.033012077 -0.093695968 0.51900005
0.034365147 -0.093695968 0.51900005
0.035718214 -0.093695968 0.51900005
0.03707128 -0.093695968 0.51900005
0.038498379 -0.093876496 0.52000004
0.039854053 -0.093876496 0.52000004
0.041209724 -0.093876496 0.52000004
0.042647257 -0.094057024 0.52100003
0.044005536 -0.094057024 0.52100003
0.045363817 -0.094057024 0.52100003
0.046811771 -0.094237559 0.52200001
0.04817266 -0.094237559 0.52200001
0.049533546 -0.094237559 0.52200001
0.05099193 -0.094418086 0.523
0.052355427 -0.094418086 0.523
0.053821638 -0.094598629 0.52400005
0.055187739 -0.094598629 0.52400005
0.056553841 -0.094598629 0.52400005
0.058030475 -0.094779156 0.52500004
0.05939918 -0.094779156 0.52500004
0.060767893 -0.094779156 0.52500004
0.062136602 -0.094779156 0.52500004
0.063626267 -0.094959684 0.52600002
0.064997584 -0.094959684 0.52600002
0.0663689 -0.094959684 0.52600002
0.067869 -0.095140211 0.52700001
0.069242917 -0.095140211 0.52700001
0.070616841 -0.095140211 0.52700001
0.072127365 -0.095320739 0.528
0.073643111 -0.095501281 0.52900004
0.075022258 -0.095501281 0.52900004
0.07640139 -0.095501281 0.52900004
0.07792756 -0.095681809 0.53000003
0.079309307 -0.095681809 0.53000003
0.080691047 -0.095681809 0.53000003
0.082072787 -0.095681809 0.53000003
0.083454534 -0.095681809 0.53000003
0.084996343 -0.095862344 0.53100002
0.08638069 -0.095862344 0.53100002
0.087765045 -0.095862344 0.53100002
0.089149393 -0.095862344 0.53100002
0.083737686 -0.076906517 0.42600003
0.084848292 -0.076906517 0.42600003
0.085958906 -0.076906517 0.42600003
0.087069511 -0.076906517 0.42600003
0.088180125 -0.076906517 0.42600003
0.10597567 -0.085933097 0.47600001
0.11024033 -0.085391499 0.47300002
0.11123779 -0.085210972 0.47200003
0.11223005 -0.085030437 0.47100002
0.11345797 -0.085030437 0.47100002
0.11444242 -0.084849909 0.47000003
0.11542162 -0.084669374 0.46900001
0.11639563 -0.084488846 0.46800002
0.11736441 -0.084308311 0.46700001
0.118328 -0.084127784 0.46600002
0.11928636 -0.083947249 0.46500003
0.1202395 -0.083766714 0.46400002
0.12118745 -0.083586186 0.46300003
0.12186581 -0.083225124 0.46100003
0.12280071 -0.083044589 0.46000001
0.12373039 -0.082864061 0.45900002
0.12492704 -0.082864061 0.45900002
0.1258489 -0.082683526 0.45800003
0.12648816 -0.082322463 0.45600003
0.12739699 -0.082141928 0.45500001
0.12801799 -0.081780866 0.45300001
0.12891379 -0.081600338 0.45200002
0.12980437 -0.081419811 0.45100003
0.13039932 -0.081058741 0.44900003
0.13127686 -0.080878206 0.44800001
0.13185355 -0.080517143 0.44600001
0.13271806 -0.080336615 0.44500002
0.13357736 -0.080156088 0.44400004
0.13473488 -0.080156088 0.44400004
0.13558637 -0.079975553 0.44300002
0.13674128 -0.079975553 0.44300002
0.13758494 -0.079795025 0.44200003
0.13873726 -0.079795025 0.44200003
0.13988958 -0.079795025 0.44200003
0.17773832 -0.10055617 0.55700004
0.17951217 -0.1007367 0.55800003
0.1809669 -0.1007367 0.55800003
0.18274857 -0.10091723 0.55900002
0.18453544 -0.10109776 0.56
0.1859954 -0.10109776 0.56
0.18745536 -0.10109776 0.56
0.18925267 -0.1012783 0.56100005
0.19105519 -0.10145883 0.56200004
0.19252035 -0.10145883 0.56200004
0.19433069 -0.10163936 0.56300002
0.19579847 -0.10163936 0.56300002
0.19726625 -0.10163936 0.56300002
0.19908701 -0.10181989 0.56400001
0.2005574 -0.10181989 0.56400001
0.20202777 -0.10181989 0.56400001
0.20385897 -0.10200042 0.565
0.20533197 -0.10200042 0.565
0.20717099 -0.10218096 0.56600004
0.2086466 -0.10218096 0.56600004
0.21012218 -0.10218096 0.56600004
0.2115978 -0.10218096 0.56600004
0.21344984 -0.10236149 0.56700003
0.21492805 -0.10236149 0.56700003
0.2167879 -0.10254201 0.56800002
0.21826872 -0.10254201 0.56800002
0.21974953 -0.10254201 0.56800002
0.22123034 -0.10254201 0.56800002
0.22271115 -0.10254201 0.56800002
0.22419198 -0.10254201 0.56800002
0.22607009 -0.10272255 0.56900001
0.2275535 -0.10272255 0.56900001
0.22903694 -0.10272255 0.56900001
0.2309255 -0.10290308 0.57000005
0.23241153 -0.10290308 0.57000005
0.23389755 -0.10290308 0.57000005
0.23579653 -0.10308361 0.57100004
0.23728515 -0.10308361 0.57100004
0.23919196 -0.10326415 0.57200003
0.24068318 -0.10326415 0.57200003
0.24259782 -0.10344467 0.57300001
0.24451764 -0.1036252 0.574
0.2460141 -0.1036252 0.574
0.24794178 -0.10380574 0.57500005
0.24987464 -0.10398627 0.57600003
0.25137633 -0.10398627 0.57600003
0.253317 -0.1041668 0.57700002
0.25482127 -0.1041668 0.57700002
0.25676978 -0.10434733 0.57800001
0.25827667 -0.10434733 0.57800001
0.26023301 -0.10452787 0.57900006
0.26219457 -0.1047084 0.58000004
0.26370665 -0.1047084 0.58000004
0.26521876 -0.1047084 0.58000004
0.26719072 -0.10488893 0.58100003
0.26870543 -0.10488893 0.58100003
0.27022016 -0.10488893 0.58100003
0.27173483 -0.10488893 0.58100003
0.27371985 -0.10506946 0.58200002
0.27523717 -0.10506946 0.58200002
0.27675447 -0.10506946 0.58200002
-0.25241879 -0.079532325 0.44700003
-0.25125343 -0.079532325 0.44700003
-0.2500881 -0.079532325 0.44700003
-0.24947958 -0.079710245 0.44800001
-0.24831162 -0.079710245 0.44800001
-0.24714366 -0.079710245 0.44800001
-0.24652474 -0.079888172 0.44900003
-0.24535418 -0.079888172 0.44900003
-0.24472745 -0.080066092 0.45000002
-0.24355426 -0.080066092 0.45000002
-0.24238107 -0.080066092 0.45000002
-0.2412079 -0.080066092 0.45000002
-0.24056815 -0.08024402 0.45100003
-0.23939237 -0.08024402 0.45100003
-0.23821656 -0.08024402 0.45100003
-0.23704079 -0.08024402 0.45100003
-0.23586501 -0.08024402 0.45100003
-0.23468924 -0.08024402 0.45100003
-0.23403119 -0.080421947 0.45200002
-0.2328528 -0.080421947 0.45200002
-0.23218696 -0.080599867 0.45300001
-0.23100594 -0.080599867 0.45300001
-0.2303323 -0.080777794 0.45400003
-0.2291487 -0.080777794 0.45400003
-0.2279651 -0.080777794 0.45400003
-0.227281 -0.080955714 0.45500001
-0.22609478 -0.080955714 0.45500001
-0.22490858 -0.080955714 0.45500001
-0.22421406 -0.081133641 0.45600003
-0.22302525 -0.081133641 0.45600003
-0.22183642 -0.081133641 0.45600003
-0.22064759 -0.081133641 0.45600003
-0.21994004 -0.081311569 0.45700002
-0.2187486 -0.081311569 0.45700002
-0.21755718 -0.081311569 0.45700002
-0.21636575 -0.081311569 0.45700002
-0.21517433 -0.081311569 0.45700002
-0.2139829 -0.081311569 0.45700002
-0.2132571 -0.081489496 0.45800003
-0.21206306 -0.081489496 0.45800003
-0.21086904 -0.081489496 0.45800003
-0.209675 -0.081489496 0.45800003
-0.20848097 -0.081489496 0.45800003
-0.20728692 -0.081489496 0.45800003
-0.20609288 -0.081489496 0.45800003
-0.20489886 -0.081489496 0.45800003
-0.20414957 -0.081667416 0.45900002
-0.20295295 -0.081667416 0.45900002
-0.2017563 -0.081667416 0.45900002
-0.20055966 -0.081667416 0.45900002
-0.19979735 -0.081845343 0.46000001
-0.1985981 -0.081845343 0.46000001
-0.19739886 -0.081845343 0.46000001
-0.19619961 -0.081845343 0.46000001
-0.19542427 -0.08202327 0.46100003
-0.19422242 -0.08202327 0.46100003
-0.19343926 -0.08220119 0.46200001
-0.19223478 -0.08220119 0.46200001
-0.19103034 -0.08220119 0.46200001
-0.19023675 -0.082379118 0.46300003
-0.18902968 -0.082379118 0.46300003
-0.18782261 -0.082379118 0.46300003
-0.18661554 -0.082379118 0.46300003
-0.18540847 -0.082379118 0.46300003
-0.18459924 -0.082557037 0.46400002
-0.18338956 -0.082557037 0.46400002
-0.18217988 -0.082557037 0.46400002
-0.18097021 -0.082557037 0.46400002
-0.18014796 -0.082734965 0.46500003
-0.17893566 -0.082734965 0.46500003
-0.17772338 -0.082734965 0.46500003
-0.17689069 -0.082912892 0.46600002
-0.17567579 -0.082912892 0.46600002
-0.1744609 -0.082912892 0.46600002
-0.17361778 -0.083090812 0.46700001
-0.17240028 -0.083090812 0.46700001
-0.17118278 -0.083090812 0.46700001
-0.17032924 -0.083268739 0.46800002
-0.16910914 -0.083268739 0.46800002
-0.16788903 -0.083268739 0.46800002
-0.16702504 -0.083446659 0.46900001
-0.16580234 -0.083446659 0.46900001
-0.16457961 -0.083446659 0.46900001
-0.1633569 -0.083446659 0.46900001
-0.16247991 -0.083624586 0.47000003
-0.16125458 -0.083624586 0.47000003
-0.16002926 -0.083624586 0.47000003
-0.15914181 -0.083802514 0.47100002
-0.15791389 -0.083802514 0.47100002
-0.15668596 -0.083802514 0.47100002
-0.15545805 -0.083802514 0.47100002
