# .PCD v0.7 - Point Cloud Data file format
VERSION 0.7
FIELDS x y z
SIZE 4 4 4
TYPE F F F
COUNT 1 1 1
WIDTH 1397
HEIGHT 1
VIEWPOINT 0 0 0 1 0 0 0
POINTS 1397
DATA ascii
-0.075472921 0.049909391 0.49400002
-0.074185036 0.049909391 0.49400002
-0.072897144 0.049909391 0.49400002
-0.071609259 0.049909391 0.49400002
-0.070321366 0.049909391 0.49400002
-0.069033481 0.049909391 0.49400002
-0.067882732 0.050010424 0.49500003
-0.066592231 0.050010424 0.49500003
-0.065301739 0.050010424 0.49500003
-0.064011231 0.050010424 0.49500003
-0.062720738 0.050010424 0.49500003
-0.061430246 0.050010424 0.49500003
-0.060261242 0.050111454 0.49600002
-0.04127663 0.050616615 0.50100005
-0.040050272 0.050717644 0.50200003
-0.037581913 0.050919704 0.50400001
-0.036339913 0.051020734 0.505
-0.035023343 0.051020734 0.505
-0.033706777 0.051020734 0.505
-0.032454353 0.051121768 0.50600004
-0.031135179 0.051121768 0.50600004
-0.029816005 0.051121768 0.50600004
-0.02849683 0.051121768 0.50600004
-0.027177656 0.051121768 0.50600004
-0.025858482 0.051121768 0.50600004
-0.024490807 0.051020734 0.505
-0.023174241 0.051020734 0.505
0.11643071 0.054758891 0.54200006
0.11784373 0.054758891 0.54200006
0.11925676 0.054758891 0.54200006
0.12089243 0.054859921 0.54300004
0.1225333 0.054960951 0.54400003
0.12395155 0.054960951 0.54400003
0.12536979 0.054960951 0.54400003
0.12678804 0.054960951 0.54400003
0.12844194 0.055061981 0.54500002
0.13010107 0.055163011 0.546
0.13176543 0.055264048 0.54700005
0.1331915 0.055264048 0.54700005
0.13461755 0.055264048 0.54700005
0.17483406 0.056274358 0.55700004
0.17628621 0.056274358 0.55700004
0.17773832 0.056274358 0.55700004
0.17919047 0.056274358 0.55700004
0.18064259 0.056274358 0.55700004
0.18242165 0.056375388 0.55800003
0.18420592 0.056476418 0.55900002
0.18566327 0.056476418 0.55900002
0.18745536 0.056577448 0.56
0.18891531 0.056577448 0.56
0.19071524 0.056678481 0.56100005
0.19252035 0.056779511 0.56200004
0.19433069 0.056880541 0.56300002
0.19579847 0.056880541 0.56300002
0.19761662 0.056981571 0.56400001
0.19908701 0.056981571 0.56400001
0.20091298 0.057082601 0.565
0.20238598 0.057082601 0.565
0.20385897 0.057082601 0.565
0.20533197 0.057082601 0.565
0.20717099 0.057183638 0.56600004
0.2086466 0.057183638 0.56600004
0.21012218 0.057183638 0.56600004
0.2115978 0.057183638 0.56600004
0.21344984 0.057284668 0.56700003
0.21492805 0.057284668 0.56700003
0.21640624 0.057284668 0.56700003
0.21826872 0.057385698 0.56800002
0.21974953 0.057385698 0.56800002
0.22123034 0.057385698 0.56800002
0.22271115 0.057385698 0.56800002
0.22458667 0.057486728 0.56900001
0.22607009 0.057486728 0.56900001
0.2275535 0.057486728 0.56900001
0.22903694 0.057486728 0.56900001
0.2309255 0.057587765 0.57000005
0.23241153 0.057587765 0.57000005
0.23389755 0.057587765 0.57000005
0.23579653 0.057688791 0.57100004
0.23728515 0.057688791 0.57100004
0.23919196 0.057789821 0.57200003
0.24068318 0.057789821 0.57200003
0.24217443 0.057789821 0.57200003
0.24451764 0.057991881 0.574
0.2460141 0.057991881 0.574
0.24751057 0.057991881 0.574
0.24944083 0.058092918 0.57500005
0.25137633 0.058193948 0.57600003
0.253317 0.058294978 0.57700002
0.25482127 0.058294978 0.57700002
0.25676978 0.058396008 0.57800001
0.25872353 0.058497045 0.57900006
0.26068246 0.058598075 0.58000004
0.26219457 0.058598075 0.58000004
0.26370665 0.058598075 0.58000004
0.26567602 0.058699105 0.58100003
0.26719072 0.058699105 0.58100003
0.26870543 0.058699105 0.58100003
0.27068523 0.058800135 0.58200002
0.27220255 0.058800135 0.58200002
0.27371985 0.058800135 0.58200002
0.27571008 0.058901165 0.583
0.27722999 0.058901165 0.583
0.27874991 0.058901165 0.583
-0.25237763 0.046533562 0.44900003
-0.25120705 0.046533562 0.44900003
-0.25003645 0.046533562 0.44900003
-0.2488659 0.046533562 0.44900003
-0.24824698 0.0466372 0.45000002
-0.24707378 0.0466372 0.45000002
-0.24590062 0.0466372 0.45000002
-0.2452713 0.046740841 0.45100003
-0.24409552 0.046740841 0.45100003
-0.24291971 0.046740841 0.45100003
-0.24174392 0.046740841 0.45100003
-0.24110155 0.046844475 0.45200002
-0.23992316 0.046844475 0.45200002
-0.23874475 0.046844475 0.45200002
-0.23809195 0.046948113 0.45300001
-0.23691095 0.046948113 0.45300001
-0.23572996 0.046948113 0.45300001
-0.23506673 0.047051754 0.45400003
-0.23388313 0.047051754 0.45400003
-0.23269953 0.047051754 0.45400003
-0.2315159 0.047051754 0.45400003
-0.23083963 0.047155391 0.45500001
-0.22965342 0.047155391 0.45500001
-0.22846721 0.047155391 0.45500001
-0.22778052 0.047259029 0.45600003
-0.22659169 0.047259029 0.45600003
-0.22540288 0.047259029 0.45600003
-0.22421406 0.047259029 0.45600003
-0.22302525 0.047259029 0.45600003
-0.22183642 0.047259029 0.45600003
-0.22113146 0.047362667 0.45700002
-0.21994004 0.047362667 0.45700002
-0.2187486 0.047362667 0.45700002
-0.21755718 0.047362667 0.45700002
-0.21636575 0.047362667 0.45700002
-0.21517433 0.047362667 0.45700002
-0.2139829 0.047362667 0.45700002
-0.2132571 0.047466308 0.45800003
-0.21206306 0.047466308 0.45800003
-0.21086904 0.047466308 0.45800003
-0.209675 0.047466308 0.45800003
-0.20893615 0.047569945 0.45900002
-0.20773952 0.047569945 0.45900002
-0.20654286 0.047569945 0.45900002
-0.20534623 0.047569945 0.45900002
-0.20414957 0.047569945 0.45900002
-0.20295295 0.047569945 0.45900002
-0.2017563 0.047569945 0.45900002
-0.20099661 0.047673579 0.46000001
-0.19979735 0.047673579 0.46000001
-0.1985981 0.047673579 0.46000001
-0.19782798 0.047777221 0.46100003
-0.19662614 0.047777221 0.46100003
-0.19584818 0.047880858 0.46200001
-0.19464372 0.047880858 0.46200001
-0.19343926 0.047880858 0.46200001
-0.19265088 0.047984496 0.46300003
-0.19144383 0.047984496 0.46300003
-0.19064762 0.048088133 0.46400002
-0.18943796 0.048088133 0.46400002
-0.18822826 0.048088133 0.46400002
-0.18742166 0.048191775 0.46500003
-0.18620937 0.048191775 0.46500003
-0.18539493 0.048295412 0.46600002
-0.18418004 0.048295412 0.46600002
-0.18296514 0.048295412 0.46600002
-0.18214026 0.04839905 0.46700001
-0.18092278 0.04839905 0.46700001
-0.17970528 0.04839905 0.46700001
-0.17848776 0.04839905 0.46700001
-0.17727028 0.04839905 0.46700001
-0.17605276 0.04839905 0.46700001
-0.17520967 0.048502687 0.46800002
-0.17398955 0.048502687 0.46800002
-0.17276946 0.048502687 0.46800002
-0.17154934 0.048502687 0.46800002
-0.17069319 0.048606325 0.46900001
-0.16947047 0.048606325 0.46900001
-0.16824776 0.048606325 0.46900001
-0.16702504 0.048606325 0.46900001
-0.16615587 0.048709966 0.47000003
-0.16493054 0.048709966 0.47000003
-0.16370521 0.048709966 0.47000003
-0.16247991 0.048709966 0.47000003
-0.16159767 0.0488136 0.47100002
-0.16036975 0.0488136 0.47100002
-0.15914181 0.0488136 0.47100002
-0.15791389 0.0488136 0.47100002
-0.15701863 0.048917241 0.47200003
-0.15578811 0.048917241 0.47200003
-0.15488501 0.049020879 0.47300002
-0.15365188 0.049020879 0.47300002
-0.15274099 0.04912452 0.47400004
-0.15150523 0.04912452 0.47400004
-0.15026948 0.04912452 0.47400004
-0.14934814 0.049228154 0.47500002
-0.14810979 0.049228154 0.47500002
-0.14687143 0.049228154 0.47500002
-0.14563309 0.049228154 0.47500002
-0.14439473 0.049228154 0.47500002
-0.14345776 0.049331792 0.47600001
-0.14221679 0.049331792 0.47600001
-0.14127201 0.049435433 0.47700003
-0.14002843 0.049435433 0.47700003
-0.13907582 0.049539071 0.47800002
-0.13782963 0.049539071 0.47800002
-0.13658346 0.049539071 0.47800002
-0.13533728 0.049539071 0.47800002
-0.13437162 0.049642708 0.47900003
-0.13340077 0.049746346 0.48000002
-0.13214937 0.049746346 0.48000002
-0.13089798 0.049746346 0.48000002
-0.12991668 0.049849987 0.48100004
-0.12866271 0.049849987 0.48100004
-0.1274087 0.049849987 0.48100004
-0.12615471 0.049849987 0.48100004
-0.12516037 0.049953625 0.48200002
-0.12390377 0.049953625 0.48200002
-0.12264716 0.049953625 0.48200002
-0.12139056 0.049953625 0.48200002
-0.12038319 0.050057258 0.48300001
-0.11912397 0.050057258 0.48300001
-0.11786477 0.050057258 0.48300001
-0.11660555 0.050057258 0.48300001
-0.11558516 0.0501609 0.48400003
-0.11432334 0.0501609 0.48400003
-0.11306152 0.0501609 0.48400003
-0.11179969 0.0501609 0.48400003
-0.11053788 0.0501609 0.48400003
-0.10927606 0.0501609 0.48400003
-0.10823741 0.050264537 0.48500001
-0.10697298 0.050264537 0.48500001
-0.10592651 0.050368175 0.48600003
-0.10465948 0.050368175 0.48600003
-0.10360519 0.050471812 0.48700002
-0.10254569 0.050575454 0.48800004
-0.10127344 0.050575454 0.48800004
-0.10020611 0.050679091 0.48900002
-0.09893126 0.050679091 0.48900002
-0.084488153 0.051197279 0.49400002
-0.083200261 0.051197279 0.49400002
-0.081912376 0.051197279 0.49400002
-0.080787688 0.051300921 0.49500003
-0.079497196 0.051300921 0.49500003
-0.078048699 0.051197279 0.49400002
-0.076916203 0.051300921 0.49500003
-0.075625703 0.051300921 0.49500003
-0.074185036 0.051197279 0.49400002
-0.072897144 0.051197279 0.49400002
-0.071609259 0.051197279 0.49400002
-0.070321366 0.051197279 0.49400002
-0.069033481 0.051197279 0.49400002
-0.067745589 0.051197279 0.49400002
-0.066457704 0.051197279 0.49400002
-0.065169811 0.051197279 0.49400002
-0.064011231 0.051300921 0.49500003
-0.062720738 0.051300921 0.49500003
-0.061430246 0.051300921 0.49500003
-0.036339913 0.0523373 0.505
-0.035023343 0.0523373 0.505
-0.033773527 0.052440941 0.50600004
-0.032454353 0.052440941 0.50600004
-0.031135179 0.052440941 0.50600004
-0.029816005 0.052440941 0.50600004
-0.02849683 0.052440941 0.50600004
-0.027177656 0.052440941 0.50600004
-0.025807375 0.0523373 0.505
-0.024490807 0.0523373 0.505
-0.023174241 0.0523373 0.505
0.11784373 0.05617192 0.54200006
0.11947679 0.056275558 0.54300004
0.12089243 0.056275558 0.54300004
0.12230806 0.056275558 0.54300004
0.12395155 0.056379192 0.54400003
0.12536979 0.056379192 0.54400003
0.12678804 0.056379192 0.54400003
0.12844194 0.056482829 0.54500002
0.13010107 0.056586467 0.546
0.13152452 0.056586467 0.546
0.1331915 0.056690108 0.54700005
0.17628621 0.057726491 0.55700004
0.17773832 0.057726491 0.55700004
0.17919047 0.057726491 0.55700004
0.1809669 0.057830129 0.55800003
0.18242165 0.057830129 0.55800003
0.18420592 0.057933766 0.55900002
0.18566327 0.057933766 0.55900002
0.18745536 0.0580374 0.56
0.18891531 0.0580374 0.56
0.19105519 0.058244683 0.56200004
0.19252035 0.058244683 0.56200004
0.19433069 0.058348317 0.56300002
0.19579847 0.058348317 0.56300002
0.19761662 0.058451954 0.56400001
0.19908701 0.058451954 0.56400001
0.20091298 0.058555592 0.565
0.20238598 0.058555592 0.565
0.20385897 0.058555592 0.565
0.20533197 0.058555592 0.565
0.20717099 0.058659237 0.56600004
0.2086466 0.058659237 0.56600004
0.21012218 0.058659237 0.56600004
0.2115978 0.058659237 0.56600004
0.21344984 0.058762871 0.56700003
0.21492805 0.058762871 0.56700003
0.21640624 0.058762871 0.56700003
0.21826872 0.058866508 0.56800002
0.21974953 0.058866508 0.56800002
0.22123034 0.058866508 0.56800002
0.22271115 0.058866508 0.56800002
0.22458667 0.058970146 0.56900001
0.22607009 0.058970146 0.56900001
0.2275535 0.058970146 0.56900001
0.22903694 0.058970146 0.56900001
0.2309255 0.059073787 0.57000005
0.23241153 0.059073787 0.57000005
0.23430789 0.059177425 0.57100004
0.23579653 0.059177425 0.57100004
0.23728515 0.059177425 0.57100004
0.23919196 0.059281062 0.57200003
0.24068318 0.059281062 0.57200003
0.24259782 0.0593847 0.57300001
0.24451764 0.059488337 0.574
0.2460141 0.059488337 0.574
0.24794178 0.059591979 0.57500005
0.24944083 0.059591979 0.57500005
0.25137633 0.059695616 0.57600003
0.253317 0.059799254 0.57700002
0.25526291 0.059902892 0.57800001
0.25676978 0.059902892 0.57800001
0.25872353 0.060006533 0.57900006
0.26068246 0.06011017 0.58000004
0.26219457 0.06011017 0.58000004
0.26370665 0.06011017 0.58000004
0.26567602 0.060213808 0.58100003
0.26719072 0.060213808 0.58100003
0.26916793 0.060317446 0.58200002
0.27068523 0.060317446 0.58200002
0.27220255 0.060317446 0.58200002
0.27371985 0.060317446 0.58200002
0.27571008 0.060421079 0.583
0.27722999 0.060421079 0.583
0.27874991 0.060421079 0.583
-0.25237763 0.047704134 0.44900003
-0.25120705 0.047704134 0.44900003
-0.25003645 0.047704134 0.44900003
-0.2488659 0.047704134 0.44900003
-0.24824698 0.047810379 0.45000002
-0.24707378 0.047810379 0.45000002
-0.24590062 0.047810379 0.45000002
-0.2452713 0.047916625 0.45100003
-0.24409552 0.047916625 0.45100003
-0.24291971 0.047916625 0.45100003
-0.24174392 0.047916625 0.45100003
-0.24110155 0.04802287 0.45200002
-0.23992316 0.04802287 0.45200002
-0.23874475 0.04802287 0.45200002
-0.23809195 0.048129112 0.45300001
-0.23691095 0.048129112 0.45300001
-0.23572996 0.048129112 0.45300001
-0.23506673 0.048235361 0.45400003
-0.23388313 0.048235361 0.45400003
-0.23269953 0.048235361 0.45400003
-0.2315159 0.048235361 0.45400003
-0.23083963 0.048341602 0.45500001
-0.22965342 0.048341602 0.45500001
-0.22846721 0.048341602 0.45500001
-0.227281 0.048341602 0.45500001
-0.22659169 0.048447851 0.45600003
-0.22540288 0.048447851 0.45600003
-0.22421406 0.048447851 0.45600003
-0.22302525 0.048447851 0.45600003
-0.22183642 0.048447851 0.45600003
-0.22064759 0.048447851 0.45600003
-0.21994004 0.048554093 0.45700002
-0.2187486 0.048554093 0.45700002
-0.21755718 0.048554093 0.45700002
-0.21636575 0.048554093 0.45700002
-0.21517433 0.048554093 0.45700002
-0.2139829 0.048554093 0.45700002
-0.21279147 0.048554093 0.45700002
-0.21206306 0.048660342 0.45800003
-0.21086904 0.048660342 0.45800003
-0.209675 0.048660342 0.45800003
-0.20893615 0.048766587 0.45900002
-0.20773952 0.048766587 0.45900002
-0.20654286 0.048766587 0.45900002
-0.20534623 0.048766587 0.45900002
-0.20414957 0.048766587 0.45900002
-0.2033951 0.048872828 0.46000001
-0.20219585 0.048872828 0.46000001
-0.20099661 0.048872828 0.46000001
-0.19979735 0.048872828 0.46000001
-0.1985981 0.048872828 0.46000001
-0.19782798 0.048979077 0.46100003
-0.19662614 0.048979077 0.46100003
-0.19584818 0.049085319 0.46200001
-0.19464372 0.049085319 0.46200001
-0.19343926 0.049085319 0.46200001
-0.19265088 0.049191568 0.46300003
-0.19144383 0.049191568 0.46300003
-0.19064762 0.04929781 0.46400002
-0.18943796 0.04929781 0.46400002
-0.18822826 0.04929781 0.46400002
-0.18742166 0.049404059 0.46500003
-0.18660982 0.049510304 0.46600002
-0.18539493 0.049510304 0.46600002
-0.18418004 0.049510304 0.46600002
-0.18335778 0.049616545 0.46700001
-0.18214026 0.049616545 0.46700001
-0.18092278 0.049616545 0.46700001
-0.17970528 0.049616545 0.46700001
-0.17848776 0.049616545 0.46700001
-0.17727028 0.049616545 0.46700001
-0.17605276 0.049616545 0.46700001
-0.17483528 0.049616545 0.46700001
-0.17398955 0.049722794 0.46800002
-0.17276946 0.049722794 0.46800002
-0.17154934 0.049722794 0.46800002
-0.17032924 0.049722794 0.46800002
-0.16947047 0.049829036 0.46900001
-0.16824776 0.049829036 0.46900001
-0.16702504 0.049829036 0.46900001
-0.16615587 0.049935285 0.47000003
-0.16493054 0.049935285 0.47000003
-0.16370521 0.049935285 0.47000003
-0.16247991 0.049935285 0.47000003
-0.16125458 0.049935285 0.47000003
-0.16036975 0.050041527 0.47100002
-0.15914181 0.050041527 0.47100002
-0.15791389 0.050041527 0.47100002
-0.15701863 0.050147776 0.47200003
-0.15578811 0.050147776 0.47200003
-0.15488501 0.050254021 0.47300002
-0.15365188 0.050254021 0.47300002
-0.15274099 0.050360266 0.47400004
-0.15150523 0.050360266 0.47400004
-0.15026948 0.050360266 0.47400004
-0.14934814 0.050466511 0.47500002
-0.14810979 0.050466511 0.47500002
-0.14687143 0.050466511 0.47500002
-0.14563309 0.050466511 0.47500002
-0.14469871 0.050572753 0.47600001
-0.14345776 0.050572753 0.47600001
-0.14221679 0.050572753 0.47600001
-0.14127201 0.050679002 0.47700003
-0.14002843 0.050679002 0.47700003
-0.13907582 0.050785244 0.47800002
-0.13782963 0.050785244 0.47800002
-0.13658346 0.050785244 0.47800002
-0.13562042 0.050891493 0.47900003
-0.13437162 0.050891493 0.47900003
-0.13340077 0.050997738 0.48000002
-0.13214937 0.050997738 0.48000002
-0.13089798 0.050997738 0.48000002
-0.12991668 0.051103983 0.48100004
-0.12866271 0.051103983 0.48100004
-0.1274087 0.051103983 0.48100004
-0.12641698 0.051210228 0.48200002
-0.12516037 0.051210228 0.48200002
-0.12390377 0.051210228 0.48200002
-0.12264716 0.051210228 0.48200002
-0.12139056 0.051210228 0.48200002
-0.12038319 0.05131647 0.48300001
-0.11912397 0.05131647 0.48300001
-0.11786477 0.05131647 0.48300001
-0.11660555 0.05131647 0.48300001
-0.11534634 0.05131647 0.48300001
-0.11408713 0.05131647 0.48300001
-0.11282792 0.05131647 0.48300001
-0.11179969 0.051422719 0.48400003
-0.11053788 0.051422719 0.48400003
-0.10927606 0.051422719 0.48400003
-0.10801424 0.051422719 0.48400003
-0.10697298 0.05152896 0.48500001
-0.10592651 0.051635209 0.48600003
-0.10465948 0.051635209 0.48600003
-0.10360519 0.051741455 0.48700002
-0.080787688 0.052591417 0.49500003
-0.079497196 0.052591417 0.49500003
-0.078206696 0.052591417 0.49500003
-0.076916203 0.052591417 0.49500003
-0.075625703 0.052591417 0.49500003
-0.07433521 0.052591417 0.49500003
-0.07304471 0.052591417 0.49500003
-0.071609259 0.052485172 0.49400002
-0.070321366 0.052485172 0.49400002
-0.069033481 0.052485172 0.49400002
-0.067745589 0.052485172 0.49400002
-0.066457704 0.052485172 0.49400002
-0.065169811 0.052485172 0.49400002
-0.063881919 0.052485172 0.49400002
-0.031135179 0.053760115 0.50600004
-0.029816005 0.053760115 0.50600004
-0.02849683 0.053760115 0.50600004
-0.027177656 0.053760115 0.50600004
-0.025807375 0.053653866 0.505
0.12230806 0.05769119 0.54300004
0.12395155 0.057797436 0.54400003
0.12844194 0.057903677 0.54500002
0.13010107 0.058009923 0.546
0.17773832 0.059178624 0.55700004
0.17919047 0.059178624 0.55700004
0.18064259 0.059178624 0.55700004
0.18242165 0.05928487 0.55800003
0.18420592 0.059391111 0.55900002
0.18566327 0.059391111 0.55900002
0.18745536 0.059497356 0.56
0.18925267 0.059603605 0.56100005
0.19105519 0.059709851 0.56200004
0.19252035 0.059709851 0.56200004
0.19433069 0.059816096 0.56300002
0.19614623 0.059922338 0.56400001
0.19761662 0.059922338 0.56400001
0.19943999 0.060028583 0.565
0.20091298 0.060028583 0.565
0.20238598 0.060028583 0.565
0.2042198 0.060134832 0.56600004
0.20569541 0.060134832 0.56600004
0.20717099 0.060134832 0.56600004
0.2086466 0.060134832 0.56600004
0.21012218 0.060134832 0.56600004
0.21197164 0.060241077 0.56700003
0.21344984 0.060241077 0.56700003
0.21492805 0.060241077 0.56700003
0.21640624 0.060241077 0.56700003
0.21826872 0.060347322 0.56800002
0.21974953 0.060347322 0.56800002
0.22123034 0.060347322 0.56800002
0.22271115 0.060347322 0.56800002
0.22458667 0.060453564 0.56900001
0.22607009 0.060453564 0.56900001
0.2275535 0.060453564 0.56900001
0.22943948 0.060559813 0.57000005
0.2309255 0.060559813 0.57000005
0.23241153 0.060559813 0.57000005
0.23430789 0.060666058 0.57100004
0.23579653 0.060666058 0.57100004
0.23728515 0.060666058 0.57100004
0.23919196 0.060772303 0.57200003
0.24068318 0.060772303 0.57200003
0.24259782 0.060878545 0.57300001
0.24451764 0.06098479 0.574
0.24644272 0.061091039 0.57500005
0.24794178 0.061091039 0.57500005
0.24987464 0.061197285 0.57600003
0.25137633 0.061197285 0.57600003
0.253317 0.06130353 0.57700002
0.25526291 0.061409771 0.57800001
0.25676978 0.061409771 0.57800001
0.25872353 0.061516024 0.57900006
0.26068246 0.061622266 0.58000004
0.26219457 0.061622266 0.58000004
0.26416132 0.061728511 0.58100003
0.26567602 0.061728511 0.58100003
0.26719072 0.061728511 0.58100003
0.26916793 0.061834753 0.58200002
0.27068523 0.061834753 0.58200002
0.27220255 0.061834753 0.58200002
0.27419016 0.061940998 0.583
0.27571008 0.061940998 0.583
0.27722999 0.061940998 0.583
0.27874991 0.061940998 0.583
-0.25237763 0.048874706 0.44900003
-0.25120705 0.048874706 0.44900003
-0.25003645 0.048874706 0.44900003
-0.2488659 0.048874706 0.44900003
-0.24824698 0.048983555 0.45000002
-0.24707378 0.048983555 0.45000002
-0.24590062 0.048983555 0.45000002
-0.2452713 0.049092408 0.45100003
-0.24409552 0.049092408 0.45100003
-0.24291971 0.049092408 0.45100003
-0.24174392 0.049092408 0.45100003
-0.24110155 0.049201261 0.45200002
-0.23992316 0.049201261 0.45200002
-0.23874475 0.049201261 0.45200002
-0.23809195 0.049310111 0.45300001
-0.23691095 0.049310111 0.45300001
-0.23572996 0.049310111 0.45300001
-0.23454894 0.049310111 0.45300001
-0.23388313 0.049418967 0.45400003
-0.23269953 0.049418967 0.45400003
-0.2315159 0.049418967 0.45400003
-0.23083963 0.049527816 0.45500001
-0.22965342 0.049527816 0.45500001
-0.22846721 0.049527816 0.45500001
-0.227281 0.049527816 0.45500001
-0.22659169 0.049636669 0.45600003
-0.22540288 0.049636669 0.45600003
-0.22421406 0.049636669 0.45600003
-0.22302525 0.049636669 0.45600003
-0.22183642 0.049636669 0.45600003
-0.22064759 0.049636669 0.45600003
-0.21945877 0.049636669 0.45600003
-0.2187486 0.049745522 0.45700002
-0.21755718 0.049745522 0.45700002
-0.21636575 0.049745522 0.45700002
-0.21517433 0.049745522 0.45700002
-0.2139829 0.049745522 0.45700002
-0.21279147 0.049745522 0.45700002
-0.21206306 0.049854375 0.45800003
-0.21086904 0.049854375 0.45800003
-0.209675 0.049854375 0.45800003
-0.20893615 0.049963228 0.45900002
-0.20773952 0.049963228 0.45900002
-0.20654286 0.049963228 0.45900002
-0.20534623 0.049963228 0.45900002
-0.20459434 0.050072078 0.46000001
-0.2033951 0.050072078 0.46000001
-0.20219585 0.050072078 0.46000001
-0.20099661 0.050072078 0.46000001
-0.19979735 0.050072078 0.46000001
-0.19902985 0.050180931 0.46100003
-0.19782798 0.050180931 0.46100003
-0.19662614 0.050180931 0.46100003
-0.19584818 0.050289784 0.46200001
-0.19464372 0.050289784 0.46200001
-0.19385797 0.050398637 0.46300003
-0.19265088 0.050398637 0.46300003
-0.19144383 0.050398637 0.46300003
-0.19064762 0.05050749 0.46400002
-0.18943796 0.05050749 0.46400002
-0.18822826 0.05050749 0.46400002
-0.18742166 0.050616343 0.46500003
-0.18660982 0.050725192 0.46600002
-0.18539493 0.050725192 0.46600002
-0.18418004 0.050725192 0.46600002
-0.18335778 0.050834045 0.46700001
-0.18214026 0.050834045 0.46700001
-0.18092278 0.050834045 0.46700001
-0.17970528 0.050834045 0.46700001
-0.17848776 0.050834045 0.46700001
-0.17727028 0.050834045 0.46700001
-0.17605276 0.050834045 0.46700001
-0.17483528 0.050834045 0.46700001
-0.17398955 0.050942898 0.46800002
-0.17276946 0.050942898 0.46800002
-0.17154934 0.050942898 0.46800002
-0.17032924 0.050942898 0.46800002
-0.16947047 0.051051751 0.46900001
-0.16824776 0.051051751 0.46900001
-0.16702504 0.051051751 0.46900001
-0.16615587 0.051160604 0.47000003
-0.16493054 0.051160604 0.47000003
-0.16370521 0.051160604 0.47000003
-0.16247991 0.051160604 0.47000003
-0.16125458 0.051160604 0.47000003
-0.16036975 0.051269453 0.47100002
-0.15914181 0.051269453 0.47100002
-0.15791389 0.051269453 0.47100002
-0.15701863 0.05137831 0.47200003
-0.15611817 0.051487159 0.47300002
-0.15488501 0.051487159 0.47300002
-0.15365188 0.051487159 0.47300002
-0.15274099 0.051596016 0.47400004
-0.15150523 0.051596016 0.47400004
-0.15026948 0.051596016 0.47400004
-0.14934814 0.051704865 0.47500002
-0.14810979 0.051704865 0.47500002
-0.14687143 0.051704865 0.47500002
-0.14563309 0.051704865 0.47500002
-0.14469871 0.051813714 0.47600001
-0.14345776 0.051813714 0.47600001
-0.14251557 0.051922571 0.47700003
-0.14127201 0.051922571 0.47700003
-0.14002843 0.051922571 0.47700003
-0.13907582 0.05203142 0.47800002
-0.13782963 0.05203142 0.47800002
-0.13686921 0.052140277 0.47900003
-0.13562042 0.052140277 0.47900003
-0.13465215 0.052249126 0.48000002
-0.13340077 0.052249126 0.48000002
-0.13214937 0.052249126 0.48000002
-0.13117069 0.052357979 0.48100004
-0.12991668 0.052357979 0.48100004
-0.12866271 0.052357979 0.48100004
-0.1274087 0.052357979 0.48100004
-0.12641698 0.052466832 0.48200002
-0.12516037 0.052466832 0.48200002
-0.12390377 0.052466832 0.48200002
-0.12264716 0.052466832 0.48200002
-0.12139056 0.052466832 0.48200002
-0.12038319 0.052575681 0.48300001
-0.11912397 0.052575681 0.48300001
-0.11786477 0.052575681 0.48300001
-0.11660555 0.052575681 0.48300001
-0.11534634 0.052575681 0.48300001
-0.11408713 0.052575681 0.48300001
-0.11282792 0.052575681 0.48300001
-0.1115687 0.052575681 0.48300001
-0.11053788 0.052684538 0.48400003
-0.10927606 0.052684538 0.48400003
-0.10801424 0.052684538 0.48400003
-0.10697298 0.052793387 0.48500001
-0.07304471 0.053881913 0.49500003
-0.069033481 0.05377306 0.49400002
-0.067745589 0.05377306 0.49400002
-0.066457704 0.05377306 0.49400002
0.12230806 0.059106827 0.54300004
0.12395155 0.059215676 0.54400003
0.12844194 0.059324529 0.54500002
0.17919047 0.060630757 0.55700004
0.1809669 0.06073961 0.55800003
0.18242165 0.06073961 0.55800003
0.18420592 0.06084846 0.55900002
0.18566327 0.06084846 0.55900002
0.18745536 0.060957313 0.56
0.18925267 0.061066169 0.56100005
0.19105519 0.061175019 0.56200004
0.19252035 0.061175019 0.56200004
0.19433069 0.061283872 0.56300002
0.19614623 0.061392721 0.56400001
0.19761662 0.061392721 0.56400001
0.19943999 0.061501574 0.565
0.20091298 0.061501574 0.565
0.20274419 0.06161043 0.56600004
0.2042198 0.06161043 0.56600004
0.20569541 0.06161043 0.56600004
0.20717099 0.06161043 0.56600004
0.2086466 0.06161043 0.56600004
0.21012218 0.06161043 0.56600004
0.21197164 0.06171928 0.56700003
0.21344984 0.06171928 0.56700003
0.21492805 0.06171928 0.56700003
0.2167879 0.061828133 0.56800002
0.21826872 0.061828133 0.56800002
0.21974953 0.061828133 0.56800002
0.22123034 0.061828133 0.56800002
0.22271115 0.061828133 0.56800002
0.22458667 0.061936982 0.56900001
0.22607009 0.061936982 0.56900001
0.2275535 0.061936982 0.56900001
0.22943948 0.062045839 0.57000005
0.2309255 0.062045839 0.57000005
0.23241153 0.062045839 0.57000005
0.23430789 0.062154692 0.57100004
0.23579653 0.062154692 0.57100004
0.23770072 0.062263541 0.57200003
0.23919196 0.062263541 0.57200003
0.24110396 0.062372394 0.57300001
0.24302119 0.062481243 0.574
0.24451764 0.062481243 0.574
0.24644272 0.0625901 0.57500005
0.24837299 0.062698953 0.57600003
0.24987464 0.062698953 0.57600003
0.25181273 0.062807806 0.57700002
0.253317 0.062807806 0.57700002
0.25526291 0.062916651 0.57800001
0.25676978 0.062916651 0.57800001
0.25872353 0.063025512 0.57900006
0.26068246 0.063134365 0.58000004
0.26219457 0.063134365 0.58000004
0.26416132 0.06324321 0.58100003
0.26567602 0.06324321 0.58100003
0.26719072 0.06324321 0.58100003
0.26916793 0.063352063 0.58200002
0.27068523 0.063352063 0.58200002
0.27220255 0.063352063 0.58200002
0.27419016 0.063460916 0.583
0.27571008 0.063460916 0.583
0.27722999 0.063460916 0.583
0.27874991 0.063460916 0.583
-0.25237763 0.050045278 0.44900003
-0.25120705 0.050045278 0.44900003
-0.25003645 0.050045278 0.44900003
-0.24942015 0.050156739 0.45000002
-0.24824698 0.050156739 0.45000002
-0.24707378 0.050156739 0.45000002
-0.24590062 0.050156739 0.45000002
-0.2452713 0.050268199 0.45100003
-0.24409552 0.050268199 0.45100003
-0.24291971 0.050268199 0.45100003
-0.24174392 0.050268199 0.45100003
-0.24110155 0.050379656 0.45200002
-0.23992316 0.050379656 0.45200002
-0.23874475 0.050379656 0.45200002
-0.23809195 0.050491113 0.45300001
-0.23691095 0.050491113 0.45300001
-0.23572996 0.050491113 0.45300001
-0.23454894 0.050491113 0.45300001
-0.23388313 0.050602578 0.45400003
-0.23269953 0.050602578 0.45400003
-0.2315159 0.050602578 0.45400003
-0.23083963 0.050714035 0.45500001
-0.22965342 0.050714035 0.45500001
-0.22846721 0.050714035 0.45500001
-0.227281 0.050714035 0.45500001
-0.22659169 0.050825495 0.45600003
-0.22540288 0.050825495 0.45600003
-0.22421406 0.050825495 0.45600003
-0.22302525 0.050825495 0.45600003
-0.22183642 0.050825495 0.45600003
-0.22113146 0.050936952 0.45700002
-0.21994004 0.050936952 0.45700002
-0.2187486 0.050936952 0.45700002
-0.21755718 0.050936952 0.45700002
-0.21636575 0.050936952 0.45700002
-0.21517433 0.050936952 0.45700002
-0.2139829 0.050936952 0.45700002
-0.21279147 0.050936952 0.45700002
-0.21206306 0.051048413 0.45800003
-0.21086904 0.051048413 0.45800003
-0.209675 0.051048413 0.45800003
-0.20893615 0.051159874 0.45900002
-0.20773952 0.051159874 0.45900002
-0.20654286 0.051159874 0.45900002
-0.20534623 0.051159874 0.45900002
-0.20459434 0.051271331 0.46000001
-0.2033951 0.051271331 0.46000001
-0.20219585 0.051271331 0.46000001
-0.20099661 0.051271331 0.46000001
-0.19979735 0.051271331 0.46000001
-0.19902985 0.051382791 0.46100003
-0.19782798 0.051382791 0.46100003
-0.19662614 0.051382791 0.46100003
-0.19584818 0.051494248 0.46200001
-0.19464372 0.051494248 0.46200001
-0.19385797 0.051605713 0.46300003
-0.19265088 0.051605713 0.46300003
-0.19144383 0.051605713 0.46300003
-0.19064762 0.05171717 0.46400002
-0.18943796 0.05171717 0.46400002
-0.18822826 0.05171717 0.46400002
-0.18742166 0.05182863 0.46500003
-0.18660982 0.051940087 0.46600002
-0.18539493 0.051940087 0.46600002
-0.18418004 0.051940087 0.46600002
-0.18335778 0.052051548 0.46700001
-0.18214026 0.052051548 0.46700001
-0.18092278 0.052051548 0.46700001
-0.17970528 0.052051548 0.46700001
-0.17848776 0.052051548 0.46700001
-0.17727028 0.052051548 0.46700001
-0.17605276 0.052051548 0.46700001
-0.17483528 0.052051548 0.46700001
-0.17398955 0.052163009 0.46800002
-0.17276946 0.052163009 0.46800002
-0.17154934 0.052163009 0.46800002
-0.17032924 0.052163009 0.46800002
-0.16947047 0.052274466 0.46900001
-0.16824776 0.052274466 0.46900001
-0.16702504 0.052274466 0.46900001
-0.16580234 0.052274466 0.46900001
-0.16493054 0.052385926 0.47000003
-0.16370521 0.052385926 0.47000003
-0.16247991 0.052385926 0.47000003
-0.16125458 0.052385926 0.47000003
-0.16036975 0.052497383 0.47100002
-0.15914181 0.052497383 0.47100002
-0.15791389 0.052497383 0.47100002
-0.15701863 0.052608848 0.47200003
-0.15611817 0.052720305 0.47300002
-0.15488501 0.052720305 0.47300002
-0.15397674 0.052831765 0.47400004
-0.15274099 0.052831765 0.47400004
-0.15150523 0.052831765 0.47400004
-0.1505865 0.052943222 0.47500002
-0.14934814 0.052943222 0.47500002
-0.14810979 0.052943222 0.47500002
-0.14687143 0.052943222 0.47500002
-0.14563309 0.052943222 0.47500002
-0.14469871 0.053054683 0.47600001
-0.14345776 0.053054683 0.47600001
-0.14251557 0.053166144 0.47700003
-0.14127201 0.053166144 0.47700003
-0.14002843 0.053166144 0.47700003
-0.13907582 0.053277601 0.47800002
-0.13782963 0.053277601 0.47800002
-0.13686921 0.053389061 0.47900003
-0.13562042 0.053389061 0.47900003
-0.13465215 0.053500518 0.48000002
-0.13340077 0.053500518 0.48000002
-0.13242468 0.053611983 0.48100004
-0.13117069 0.053611983 0.48100004
-0.12991668 0.053611983 0.48100004
-0.12866271 0.053611983 0.48100004
-0.1274087 0.053611983 0.48100004
-0.12641698 0.05372344 0.48200002
-0.12516037 0.05372344 0.48200002
-0.12390377 0.05372344 0.48200002
-0.12264716 0.05372344 0.48200002
-0.12139056 0.05372344 0.48200002
-0.12038319 0.053834897 0.48300001
-0.11887734 0.05372344 0.48200002
-0.11786477 0.053834897 0.48300001
-0.11660555 0.053834897 0.48300001
-0.11534634 0.053834897 0.48300001
-0.11408713 0.053834897 0.48300001
-0.11282792 0.053834897 0.48300001
-0.1115687 0.053834897 0.48300001
-0.11030949 0.053834897 0.48300001
-0.10905028 0.053834897 0.48300001
-0.10801424 0.053946357 0.48400003
-0.069033481 0.055060953 0.49400002
0.18242165 0.062194355 0.55800003
0.18420592 0.062305812 0.55900002
0.18566327 0.062305812 0.55900002
0.18745536 0.062417272 0.56
0.18925267 0.062528737 0.56100005
0.19105519 0.06264019 0.56200004
0.19252035 0.06264019 0.56200004
0.19433069 0.062751651 0.56300002
0.19614623 0.062863111 0.56400001
0.19761662 0.062863111 0.56400001
0.19943999 0.062974565 0.565
0.20091298 0.062974565 0.565
0.20274419 0.063086033 0.56600004
0.2042198 0.063086033 0.56600004
0.20569541 0.063086033 0.56600004
0.20717099 0.063086033 0.56600004
0.2086466 0.063086033 0.56600004
0.21012218 0.063086033 0.56600004
0.21197164 0.063197494 0.56700003
0.21344984 0.063197494 0.56700003
0.21492805 0.063197494 0.56700003
0.2167879 0.063308947 0.56800002
0.21826872 0.063308947 0.56800002
0.21974953 0.063308947 0.56800002
0.22123034 0.063308947 0.56800002
0.22271115 0.063308947 0.56800002
0.22458667 0.063420407 0.56900001
0.22607009 0.063420407 0.56900001
0.2275535 0.063420407 0.56900001
0.22943948 0.063531868 0.57000005
0.2309255 0.063531868 0.57000005
0.23241153 0.063531868 0.57000005
0.23430789 0.063643329 0.57100004
0.23579653 0.063643329 0.57100004
0.23770072 0.06375479 0.57200003
0.23961012 0.063866243 0.57300001
0.24152473 0.063977703 0.574
0.24302119 0.063977703 0.574
0.24494365 0.064089164 0.57500005
0.24644272 0.064089164 0.57500005
0.24837299 0.064200625 0.57600003
0.24987464 0.064200625 0.57600003
0.25181273 0.064312086 0.57700002
0.25375602 0.064423539 0.57800001
0.25526291 0.064423539 0.57800001
0.25676978 0.064423539 0.57800001
0.25872353 0.064535007 0.57900006
0.26068246 0.06464646 0.58000004
0.26219457 0.06464646 0.58000004
0.26416132 0.064757921 0.58100003
0.26567602 0.064757921 0.58100003
0.26719072 0.064757921 0.58100003
0.26916793 0.064869381 0.58200002
0.27068523 0.064869381 0.58200002
0.27220255 0.064869381 0.58200002
0.27419016 0.064980835 0.583
0.27571008 0.064980835 0.583
0.27722999 0.064980835 0.583
0.27874991 0.064980835 0.583
-0.25237763 0.05121585 0.44900003
-0.25120705 0.05121585 0.44900003
-0.25003645 0.05121585 0.44900003
-0.24942015 0.051329914 0.45000002
-0.24824698 0.051329914 0.45000002
-0.24707378 0.051329914 0.45000002
-0.24590062 0.051329914 0.45000002
-0.2452713 0.051443983 0.45100003
-0.24409552 0.051443983 0.45100003
-0.24291971 0.051443983 0.45100003
-0.24174392 0.051443983 0.45100003
-0.24110155 0.051558048 0.45200002
-0.23992316 0.051558048 0.45200002
-0.23874475 0.051558048 0.45200002
-0.23809195 0.051672112 0.45300001
-0.23691095 0.051672112 0.45300001
-0.23572996 0.051672112 0.45300001
-0.23454894 0.051672112 0.45300001
-0.23388313 0.051786181 0.45400003
-0.23269953 0.051786181 0.45400003
-0.2315159 0.051786181 0.45400003
-0.23083963 0.051900249 0.45500001
-0.22965342 0.051900249 0.45500001
-0.22846721 0.051900249 0.45500001
-0.22778052 0.052014317 0.45600003
-0.22659169 0.052014317 0.45600003
-0.22540288 0.052014317 0.45600003
-0.22421406 0.052014317 0.45600003
-0.22302525 0.052014317 0.45600003
-0.2223229 0.052128382 0.45700002
-0.22113146 0.052128382 0.45700002
-0.21994004 0.052128382 0.45700002
-0.2187486 0.052128382 0.45700002
-0.21755718 0.052128382 0.45700002
-0.21636575 0.052128382 0.45700002
-0.21517433 0.052128382 0.45700002
-0.2139829 0.052128382 0.45700002
-0.21279147 0.052128382 0.45700002
-0.21206306 0.05224245 0.45800003
-0.21086904 0.05224245 0.45800003
-0.209675 0.05224245 0.45800003
-0.20893615 0.052356515 0.45900002
-0.20773952 0.052356515 0.45900002
-0.20654286 0.052356515 0.45900002
-0.20534623 0.052356515 0.45900002
-0.20459434 0.05247058 0.46000001
-0.2033951 0.05247058 0.46000001
-0.20219585 0.05247058 0.46000001
-0.20099661 0.05247058 0.46000001
-0.19979735 0.05247058 0.46000001
-0.19902985 0.052584648 0.46100003
-0.19782798 0.052584648 0.46100003
-0.19662614 0.052584648 0.46100003
-0.19584818 0.052698713 0.46200001
-0.19464372 0.052698713 0.46200001
-0.19343926 0.052698713 0.46200001
-0.19265088 0.052812781 0.46300003
-0.19144383 0.052812781 0.46300003
-0.19064762 0.052926846 0.46400002
-0.18943796 0.052926846 0.46400002
-0.18822826 0.052926846 0.46400002
-0.18742166 0.053040914 0.46500003
-0.18660982 0.053154979 0.46600002
-0.18539493 0.053154979 0.46600002
-0.18418004 0.053154979 0.46600002
-0.18335778 0.053269044 0.46700001
-0.18214026 0.053269044 0.46700001
-0.18092278 0.053269044 0.46700001
-0.17970528 0.053269044 0.46700001
-0.17848776 0.053269044 0.46700001
-0.17727028 0.053269044 0.46700001
-0.17605276 0.053269044 0.46700001
-0.17483528 0.053269044 0.46700001
-0.17398955 0.053383112 0.46800002
-0.17276946 0.053383112 0.46800002
-0.17154934 0.053383112 0.46800002
-0.17069319 0.053497177 0.46900001
-0.16947047 0.053497177 0.46900001
-0.16824776 0.053497177 0.46900001
-0.16702504 0.053497177 0.46900001
-0.16615587 0.053611245 0.47000003
-0.16493054 0.053611245 0.47000003
-0.16370521 0.053611245 0.47000003
-0.16247991 0.053611245 0.47000003
-0.16125458 0.053611245 0.47000003
-0.16036975 0.05372531 0.47100002
-0.15914181 0.05372531 0.47100002
-0.15791389 0.05372531 0.47100002
-0.15701863 0.053839378 0.47200003
-0.15611817 0.053953443 0.47300002
-0.15488501 0.053953443 0.47300002
-0.15397674 0.054067511 0.47400004
-0.15274099 0.054067511 0.47400004
-0.15150523 0.054067511 0.47400004
-0.15026948 0.054067511 0.47400004
-0.14934814 0.05418158 0.47500002
-0.14810979 0.05418158 0.47500002
-0.14687143 0.05418158 0.47500002
-0.14593968 0.054295644 0.47600001
-0.14469871 0.054295644 0.47600001
-0.14345776 0.054295644 0.47600001
-0.14251557 0.054409713 0.47700003
-0.14127201 0.054409713 0.47700003
-0.14002843 0.054409713 0.47700003
-0.13907582 0.054523777 0.47800002
-0.13782963 0.054523777 0.47800002
-0.13686921 0.054637846 0.47900003
-0.13562042 0.054637846 0.47900003
-0.13465215 0.05475191 0.48000002
-0.13340077 0.05475191 0.48000002
-0.13242468 0.054865979 0.48100004
-0.13117069 0.054865979 0.48100004
-0.12991668 0.054865979 0.48100004
-0.12866271 0.054865979 0.48100004
-0.1274087 0.054865979 0.48100004
-0.12641698 0.054980043 0.48200002
-0.12516037 0.054980043 0.48200002
-0.12390377 0.054980043 0.48200002
-0.12264716 0.054980043 0.48200002
-0.12139056 0.054980043 0.48200002
-0.12038319 0.055094108 0.48300001
-0.11912397 0.055094108 0.48300001
-0.11786477 0.055094108 0.48300001
-0.11660555 0.055094108 0.48300001
-0.11534634 0.055094108 0.48300001
-0.11408713 0.055094108 0.48300001
-0.11282792 0.055094108 0.48300001
-0.1115687 0.055094108 0.48300001
-0.11030949 0.055094108 0.48300001
-0.10905028 0.055094108 0.48300001
-0.10779107 0.055094108 0.48300001
0.18274857 0.063763164 0.55900002
0.18420592 0.063763164 0.55900002
0.18566327 0.063763164 0.55900002
0.18745536 0.063877225 0.56
0.18925267 0.063991301 0.56100005
0.19105519 0.064105362 0.56200004
0.19252035 0.064105362 0.56200004
0.19433069 0.06421943 0.56300002
0.19614623 0.064333491 0.56400001
0.19761662 0.064333491 0.56400001
0.19943999 0.064447559 0.565
0.20091298 0.064447559 0.565
0.20274419 0.064561628 0.56600004
0.2042198 0.064561628 0.56600004
0.20569541 0.064561628 0.56600004
0.20717099 0.064561628 0.56600004
0.2086466 0.064561628 0.56600004
0.21049343 0.064675696 0.56700003
0.21197164 0.064675696 0.56700003
0.21344984 0.064675696 0.56700003
0.2153071 0.064789757 0.56800002
0.2167879 0.064789757 0.56800002
0.21826872 0.064789757 0.56800002
0.21974953 0.064789757 0.56800002
0.22123034 0.064789757 0.56800002
0.22310324 0.064903826 0.56900001
0.22458667 0.064903826 0.56900001
0.22607009 0.064903826 0.56900001
0.2275535 0.064903826 0.56900001
0.22943948 0.065017894 0.57000005
0.23052034 0.064903826 0.56900001
0.23241153 0.065017894 0.57000005
0.23430789 0.065131962 0.57100004
0.23579653 0.065131962 0.57100004
0.23770072 0.065246023 0.57200003
0.23961012 0.065360092 0.57300001
0.24152473 0.065474153 0.574
0.24344459 0.065588228 0.57500005
0.24494365 0.065588228 0.57500005
0.24687131 0.065702297 0.57600003
0.24837299 0.065702297 0.57600003
0.25030845 0.065816358 0.57700002
0.25181273 0.065816358 0.57700002
0.253317 0.065816358 0.57700002
0.25526291 0.065930426 0.57800001
0.25676978 0.065930426 0.57800001
0.25872353 0.066044495 0.57900006
0.26068246 0.066158563 0.58000004
0.26219457 0.066158563 0.58000004
0.26370665 0.066158563 0.58000004
0.26567602 0.066272624 0.58100003
0.26719072 0.066272624 0.58100003
0.26916793 0.066386692 0.58200002
0.27068523 0.066386692 0.58200002
0.27220255 0.066386692 0.58200002
0.27419016 0.066500753 0.583
0.27571008 0.066500753 0.583
0.27722999 0.066500753 0.583
0.27874991 0.066500753 0.583
-0.25237763 0.052386422 0.44900003
-0.25120705 0.052386422 0.44900003
-0.25003645 0.052386422 0.44900003
-0.24942015 0.052503094 0.45000002
-0.24824698 0.052503094 0.45000002
-0.24707378 0.052503094 0.45000002
-0.24590062 0.052503094 0.45000002
-0.2452713 0.05261977 0.45100003
-0.24409552 0.05261977 0.45100003
-0.24291971 0.05261977 0.45100003
-0.24174392 0.05261977 0.45100003
-0.24110155 0.052736443 0.45200002
-0.23992316 0.052736443 0.45200002
-0.23874475 0.052736443 0.45200002
-0.23809195 0.052853115 0.45300001
-0.23691095 0.052853115 0.45300001
-0.23572996 0.052853115 0.45300001
-0.23454894 0.052853115 0.45300001
-0.23388313 0.052969787 0.45400003
-0.23269953 0.052969787 0.45400003
-0.2315159 0.052969787 0.45400003
-0.2303323 0.052969787 0.45400003
-0.22965342 0.05308646 0.45500001
-0.22846721 0.05308646 0.45500001
-0.22778052 0.053203136 0.45600003
-0.22659169 0.053203136 0.45600003
-0.22540288 0.053203136 0.45600003
-0.22421406 0.053203136 0.45600003
-0.22351433 0.053319808 0.45700002
-0.2223229 0.053319808 0.45700002
-0.22113146 0.053319808 0.45700002
-0.21994004 0.053319808 0.45700002
-0.2187486 0.053319808 0.45700002
-0.21755718 0.053319808 0.45700002
-0.21636575 0.053319808 0.45700002
-0.21517433 0.053319808 0.45700002
-0.2139829 0.053319808 0.45700002
-0.21279147 0.053319808 0.45700002
-0.21206306 0.053436484 0.45800003
-0.21086904 0.053436484 0.45800003
-0.21013279 0.053553157 0.45900002
-0.20893615 0.053553157 0.45900002
-0.20773952 0.053553157 0.45900002
-0.20654286 0.053553157 0.45900002
-0.20534623 0.053553157 0.45900002
-0.20459434 0.053669829 0.46000001
-0.2033951 0.053669829 0.46000001
-0.20219585 0.053669829 0.46000001
-0.20099661 0.053669829 0.46000001
-0.19979735 0.053669829 0.46000001
-0.19902985 0.053786505 0.46100003
-0.19782798 0.053786505 0.46100003
-0.19662614 0.053786505 0.46100003
-0.19584818 0.053903174 0.46200001
-0.19464372 0.053903174 0.46200001
-0.19343926 0.053903174 0.46200001
-0.19265088 0.05401985 0.46300003
-0.19144383 0.05401985 0.46300003
-0.19064762 0.054136522 0.46400002
-0.18943796 0.054136522 0.46400002
-0.18822826 0.054136522 0.46400002
-0.18742166 0.054253198 0.46500003
-0.18660982 0.054369871 0.46600002
-0.18539493 0.054369871 0.46600002
-0.18418004 0.054369871 0.46600002
-0.18335778 0.054486543 0.46700001
-0.18214026 0.054486543 0.46700001
-0.18092278 0.054486543 0.46700001
-0.17970528 0.054486543 0.46700001
-0.17886998 0.054603219 0.46800002
-0.17764987 0.054603219 0.46800002
-0.17642976 0.054603219 0.46800002
-0.17520967 0.054603219 0.46800002
-0.17398955 0.054603219 0.46800002
-0.17276946 0.054603219 0.46800002
-0.17154934 0.054603219 0.46800002
-0.17069319 0.054719891 0.46900001
-0.16947047 0.054719891 0.46900001
-0.16824776 0.054719891 0.46900001
-0.16702504 0.054719891 0.46900001
-0.16615587 0.054836564 0.47000003
-0.16493054 0.054836564 0.47000003
-0.16370521 0.054836564 0.47000003
-0.16247991 0.054836564 0.47000003
-0.16159767 0.054953236 0.47100002
-0.16036975 0.054953236 0.47100002
-0.15914181 0.054953236 0.47100002
-0.15791389 0.054953236 0.47100002
-0.15701863 0.055069912 0.47200003
-0.15578811 0.055069912 0.47200003
-0.15488501 0.055186585 0.47300002
-0.15397674 0.055303261 0.47400004
-0.15274099 0.055303261 0.47400004
-0.15150523 0.055303261 0.47400004
-0.15026948 0.055303261 0.47400004
-0.14934814 0.055419933 0.47500002
-0.14810979 0.055419933 0.47500002
-0.14687143 0.055419933 0.47500002
-0.14593968 0.055536605 0.47600001
-0.14469871 0.055536605 0.47600001
-0.14375915 0.055653282 0.47700003
-0.14251557 0.055653282 0.47700003
-0.14127201 0.055653282 0.47700003
-0.14002843 0.055653282 0.47700003
-0.13907582 0.055769954 0.47800002
-0.13782963 0.055769954 0.47800002
-0.13686921 0.055886626 0.47900003
-0.13590355 0.056003299 0.48000002
-0.13465215 0.056003299 0.48000002
-0.13340077 0.056003299 0.48000002
-0.13242468 0.056119975 0.48100004
-0.13117069 0.056119975 0.48100004
-0.12991668 0.056119975 0.48100004
-0.12866271 0.056119975 0.48100004
-0.1274087 0.056119975 0.48100004
-0.12615471 0.056119975 0.48100004
-0.12516037 0.056236647 0.48200002
-0.12390377 0.056236647 0.48200002
-0.12264716 0.056236647 0.48200002
-0.12139056 0.056236647 0.48200002
-0.12013395 0.056236647 0.48200002
-0.11887734 0.056236647 0.48200002
-0.11762074 0.056236647 0.48200002
-0.11660555 0.056353319 0.48300001
-0.11534634 0.056353319 0.48300001
-0.11408713 0.056353319 0.48300001
-0.11282792 0.056353319 0.48300001
-0.1115687 0.056353319 0.48300001
-0.11030949 0.056353319 0.48300001
0.18420592 0.065220512 0.55900002
0.1859954 0.065337181 0.56
0.18745536 0.065337181 0.56
0.18925267 0.065453857 0.56100005
0.19105519 0.065570533 0.56200004
0.19252035 0.065570533 0.56200004
0.19433069 0.065687202 0.56300002
0.19579847 0.065687202 0.56300002
0.19761662 0.065803878 0.56400001
0.19943999 0.065920547 0.565
0.20091298 0.065920547 0.565
0.20274419 0.06603723 0.56600004
0.2042198 0.06603723 0.56600004
0.20569541 0.06603723 0.56600004
0.20717099 0.06603723 0.56600004
0.20901524 0.066153899 0.56700003
0.21049343 0.066153899 0.56700003
0.21197164 0.066153899 0.56700003
0.21382628 0.066270567 0.56800002
0.2153071 0.066270567 0.56800002
0.2167879 0.066270567 0.56800002
0.21826872 0.066270567 0.56800002
0.21974953 0.066270567 0.56800002
0.22123034 0.066270567 0.56800002
0.22310324 0.066387244 0.56900001
0.22458667 0.066387244 0.56900001
0.22607009 0.066387244 0.56900001
0.2275535 0.066387244 0.56900001
0.22943948 0.06650392 0.57000005
0.23052034 0.066387244 0.56900001
0.23241153 0.06650392 0.57000005
0.23430789 0.066620596 0.57100004
0.23579653 0.066620596 0.57100004
0.23770072 0.066737264 0.57200003
0.23961012 0.06685394 0.57300001
0.24152473 0.066970609 0.574
0.24344459 0.067087293 0.57500005
0.24494365 0.067087293 0.57500005
0.24687131 0.067203961 0.57600003
0.24837299 0.067203961 0.57600003
0.25030845 0.06732063 0.57700002
0.25181273 0.06732063 0.57700002
0.25375602 0.067437306 0.57800001
0.25526291 0.067437306 0.57800001
0.25676978 0.067437306 0.57800001
0.25872353 0.067553982 0.57900006
0.26068246 0.067670658 0.58000004
0.26219457 0.067670658 0.58000004
0.26416132 0.067787327 0.58100003
0.26567602 0.067787327 0.58100003
0.26719072 0.067787327 0.58100003
0.26916793 0.067904003 0.58200002
0.27068523 0.067904003 0.58200002
0.27267024 0.068020672 0.583
0.27419016 0.068020672 0.583
0.27571008 0.068020672 0.583
0.27722999 0.068020672 0.583
0.27874991 0.068020672 0.583
-0.25237763 0.053556994 0.44900003
-0.25120705 0.053556994 0.44900003
-0.25059333 0.05367627 0.45000002
-0.24942015 0.05367627 0.45000002
-0.24824698 0.05367627 0.45000002
-0.24707378 0.05367627 0.45000002
-0.24590062 0.05367627 0.45000002
-0.2452713 0.053795554 0.45100003
-0.24409552 0.053795554 0.45100003
-0.24291971 0.053795554 0.45100003
-0.24174392 0.053795554 0.45100003
-0.24110155 0.053914834 0.45200002
-0.23992316 0.053914834 0.45200002
-0.23874475 0.053914834 0.45200002
-0.23809195 0.054034114 0.45300001
-0.23691095 0.054034114 0.45300001
-0.23572996 0.054034114 0.45300001
-0.23454894 0.054034114 0.45300001
-0.23388313 0.054153394 0.45400003
-0.23269953 0.054153394 0.45400003
-0.2315159 0.054153394 0.45400003
-0.2303323 0.054153394 0.45400003
-0.22965342 0.054272674 0.45500001
-0.22846721 0.054272674 0.45500001
-0.22778052 0.054391958 0.45600003
-0.22659169 0.054391958 0.45600003
-0.22540288 0.054391958 0.45600003
-0.22421406 0.054391958 0.45600003
-0.22351433 0.054511234 0.45700002
-0.2223229 0.054511234 0.45700002
-0.22113146 0.054511234 0.45700002
-0.21994004 0.054511234 0.45700002
-0.2187486 0.054511234 0.45700002
-0.21755718 0.054511234 0.45700002
-0.21636575 0.054511234 0.45700002
-0.21517433 0.054511234 0.45700002
-0.2139829 0.054511234 0.45700002
-0.2132571 0.054630518 0.45800003
-0.21206306 0.054630518 0.45800003
-0.21086904 0.054630518 0.45800003
-0.21013279 0.054749798 0.45900002
-0.20893615 0.054749798 0.45900002
-0.20773952 0.054749798 0.45900002
-0.20654286 0.054749798 0.45900002
-0.2057936 0.054869078 0.46000001
-0.20459434 0.054869078 0.46000001
-0.2033951 0.054869078 0.46000001
-0.20219585 0.054869078 0.46000001
-0.20099661 0.054869078 0.46000001
-0.19979735 0.054869078 0.46000001
-0.19902985 0.054988358 0.46100003
-0.19782798 0.054988358 0.46100003
-0.19662614 0.054988358 0.46100003
-0.19584818 0.055107638 0.46200001
-0.19464372 0.055107638 0.46200001
-0.19343926 0.055107638 0.46200001
-0.19265088 0.055226922 0.46300003
-0.19144383 0.055226922 0.46300003
-0.19023675 0.055226922 0.46300003
-0.18943796 0.055346198 0.46400002
-0.18822826 0.055346198 0.46400002
-0.18742166 0.055465482 0.46500003
