# .PCD v0.7 - Point Cloud Data file format
VERSION 0.7
FIELDS x y z
SIZE 4 4 4
TYPE F F F
COUNT 1 1 1
WIDTH 1330
HEIGHT 1
VIEWPOINT 0 0 0 1 0 0 0
POINTS 1330
DATA ascii
-0.24551338 -0.08023078 0.47900003
-0.24426457 -0.08023078 0.47900003
-0.2430158 -0.08023078 0.47900003
-0.24176702 -0.08023078 0.47900003
-0.24051824 -0.08023078 0.47900003
-0.23926945 -0.08023078 0.47900003
-0.23802066 -0.08023078 0.47900003
-0.23726618 -0.080398276 0.48000002
-0.23601478 -0.080398276 0.48000002
-0.23476341 -0.080398276 0.48000002
-0.23351201 -0.080398276 0.48000002
-0.23226061 -0.080398276 0.48000002
-0.23100923 -0.080398276 0.48000002
-0.22975783 -0.080398276 0.48000002
-0.22850645 -0.080398276 0.48000002
-0.22725505 -0.080398276 0.48000002
-0.22600368 -0.080398276 0.48000002
-0.22475228 -0.080398276 0.48000002
-0.22350089 -0.080398276 0.48000002
-0.22224949 -0.080398276 0.48000002
-0.22099811 -0.080398276 0.48000002
-0.21974671 -0.080398276 0.48000002
-0.21849532 -0.080398276 0.48000002
-0.21679135 -0.08023078 0.47900003
-0.21554255 -0.08023078 0.47900003
-0.21429378 -0.08023078 0.47900003
-0.21304499 -0.08023078 0.47900003
-0.21223837 -0.080398276 0.48000002
-0.21098697 -0.080398276 0.48000002
-0.20973559 -0.080398276 0.48000002
-0.2084842 -0.080398276 0.48000002
-0.20723282 -0.080398276 0.48000002
-0.20598142 -0.080398276 0.48000002
-0.20473003 -0.080398276 0.48000002
-0.20347863 -0.080398276 0.48000002
-0.20222725 -0.080398276 0.48000002
-0.20097585 -0.080398276 0.48000002
-0.19972445 -0.080398276 0.48000002
-0.19847308 -0.080398276 0.48000002
-0.19763257 -0.080565773 0.48100004
-0.19637857 -0.080565773 0.48100004
-0.19512457 -0.080565773 0.48100004
-0.19387057 -0.080565773 0.48100004
-0.19261658 -0.080565773 0.48100004
-0.19136259 -0.080565773 0.48100004
-0.19010858 -0.080565773 0.48100004
-0.18885459 -0.080565773 0.48100004
-0.18760058 -0.080565773 0.48100004
-0.18634659 -0.080565773 0.48100004
-0.1850926 -0.080565773 0.48100004
-0.18383859 -0.080565773 0.48100004
-0.18220499 -0.080398276 0.48000002
-0.18095361 -0.080398276 0.48000002
-0.17970222 -0.080398276 0.48000002
-0.17845082 -0.080398276 0.48000002
-0.17719944 -0.080398276 0.48000002
-0.17594804 -0.080398276 0.48000002
-0.17433271 -0.08023078 0.47900003
-0.17308392 -0.08023078 0.47900003
-0.17183514 -0.08023078 0.47900003
-0.17094249 -0.080398276 0.48000002
-0.1696911 -0.080398276 0.48000002
-0.1684397 -0.080398276 0.48000002
-0.1671883 -0.080398276 0.48000002
-0.16593692 -0.080398276 0.48000002
-0.16468552 -0.080398276 0.48000002
-0.16343413 -0.080398276 0.48000002
-0.16218275 -0.080398276 0.48000002
-0.16093136 -0.080398276 0.48000002
-0.15967996 -0.080398276 0.48000002
-0.15842858 -0.080398276 0.48000002
-0.15750465 -0.080565773 0.48100004
-0.1559258 -0.080398276 0.48000002
-0.1546744 -0.080398276 0.48000002
-0.15374266 -0.080565773 0.48100004
-0.15248865 -0.080565773 0.48100004
-0.15123464 -0.080565773 0.48100004
-0.14998066 -0.080565773 0.48100004
-0.14872666 -0.080565773 0.48100004
-0.14747266 -0.080565773 0.48100004
-0.14621866 -0.080565773 0.48100004
-0.14496467 -0.080565773 0.48100004
-0.14371066 -0.080565773 0.48100004
-0.14245668 -0.080565773 0.48100004
-0.14120267 -0.080565773 0.48100004
-0.13994868 -0.080565773 0.48100004
-0.13869467 -0.080565773 0.48100004
-0.13715494 -0.080398276 0.48000002
-0.13590355 -0.080398276 0.48000002
-0.13465215 -0.080398276 0.48000002
-0.13340077 -0.080398276 0.48000002
-0.13214937 -0.080398276 0.48000002
-0.13089798 -0.080398276 0.48000002
-0.12991668 -0.080565773 0.48100004
-0.12866271 -0.080565773 0.48100004
-0.1271438 -0.080398276 0.48000002
-0.12589243 -0.080398276 0.48000002
-0.12464103 -0.080398276 0.48000002
-0.12338965 -0.080398276 0.48000002
-0.12213825 -0.080398276 0.48000002
-0.12088686 -0.080398276 0.48000002
-0.11963547 -0.080398276 0.48000002
-0.11838408 -0.080398276 0.48000002
-0.11713269 -0.080398276 0.48000002
-0.11612272 -0.080565773 0.48100004
-0.11486872 -0.080565773 0.48100004
-0.11361472 -0.080565773 0.48100004
-0.11236073 -0.080565773 0.48100004
-0.11110672 -0.080565773 0.48100004
-0.10985273 -0.080565773 0.48100004
-0.10859873 -0.080565773 0.48100004
-0.10734473 -0.080565773 0.48100004
-0.10609074 -0.080565773 0.48100004
-0.10483674 -0.080565773 0.48100004
-0.10358274 -0.080565773 0.48100004
-0.10232875 -0.080565773 0.48100004
-0.10107475 -0.080565773 0.48100004
-0.099820748 -0.080565773 0.48100004
-0.098566756 -0.080565773 0.48100004
-0.097312756 -0.080565773 0.48100004
-0.096058756 -0.080565773 0.48100004
-0.094804756 -0.080565773 0.48100004
-0.093550757 -0.080565773 0.48100004
-0.092296764 -0.080565773 0.48100004
-0.091042764 -0.080565773 0.48100004
-0.089788765 -0.080565773 0.48100004
-0.088534772 -0.080565773 0.48100004
-0.087280773 -0.080565773 0.48100004
-0.085847922 -0.080398276 0.48000002
-0.084772781 -0.080565773 0.48100004
-0.083345145 -0.080398276 0.48000002
-0.082093753 -0.080398276 0.48000002
-0.080842361 -0.080398276 0.48000002
-0.079590969 -0.080398276 0.48000002
-0.078339577 -0.080398276 0.48000002
-0.077088185 -0.080398276 0.48000002
-0.075836793 -0.080398276 0.48000002
-0.074585408 -0.080398276 0.48000002
-0.073334016 -0.080398276 0.48000002
-0.072082624 -0.080398276 0.48000002
-0.070831232 -0.080398276 0.48000002
-0.069579847 -0.080398276 0.48000002
-0.068328455 -0.080398276 0.48000002
-0.067077063 -0.080398276 0.48000002
-0.065825678 -0.080398276 0.48000002
-0.064574286 -0.080398276 0.48000002
-0.063322894 -0.080398276 0.48000002
-0.062071498 -0.080398276 0.48000002
-0.060820106 -0.080398276 0.48000002
-0.059568722 -0.080398276 0.48000002
-0.05831733 -0.080398276 0.48000002
-0.057065938 -0.080398276 0.48000002
-0.055814546 -0.080398276 0.48000002
-0.054563157 -0.080398276 0.48000002
-0.053311769 -0.080398276 0.48000002
-0.052060377 -0.080398276 0.48000002
-0.050808989 -0.080398276 0.48000002
-0.049557593 -0.080398276 0.48000002
-0.048306204 -0.080398276 0.48000002
-0.047054812 -0.080398276 0.48000002
-0.045803424 -0.080398276 0.48000002
-0.044552032 -0.080398276 0.48000002
-0.043300644 -0.080398276 0.48000002
-0.042049255 -0.080398276 0.48000002
-0.040797859 -0.080398276 0.48000002
-0.039546471 -0.080398276 0.48000002
-0.038295079 -0.080398276 0.48000002
-0.037043691 -0.080398276 0.48000002
-0.035792299 -0.080398276 0.48000002
-0.03454091 -0.080398276 0.48000002
-0.033289514 -0.080398276 0.48000002
-0.032038126 -0.080398276 0.48000002
-0.030786736 -0.080398276 0.48000002
-0.029535346 -0.080398276 0.48000002
-0.028283956 -0.080398276 0.48000002
-0.027032563 -0.080398276 0.48000002
-0.025781173 -0.080398276 0.48000002
-0.024529785 -0.080398276 0.48000002
-0.023326891 -0.080565773 0.48100004
-0.022072893 -0.080565773 0.48100004
-0.020818895 -0.080565773 0.48100004
-0.019564897 -0.080565773 0.48100004
-0.018310899 -0.080565773 0.48100004
-0.017056903 -0.080565773 0.48100004
-0.015802905 -0.080565773 0.48100004
-0.014548906 -0.080565773 0.48100004
-0.013294909 -0.080565773 0.48100004
-0.012040911 -0.080565773 0.48100004
-0.010764487 -0.080398276 0.48000002
-0.0095130969 -0.080398276 0.48000002
-0.0082617057 -0.080398276 0.48000002
-0.0070103151 -0.080398276 0.48000002
-0.0057589249 -0.080398276 0.48000002
-0.0045075342 -0.080398276 0.48000002
-0.0032561438 -0.080398276 0.48000002
-0.0020047531 -0.080398276 0.48000002
-0.00075336249 -0.080398276 0.48000002
0.00049802812 -0.080398276 0.48000002
0.0017530634 -0.080565773 0.48100004
0.0030008093 -0.080398276 0.48000002
0.0042610588 -0.080565773 0.48100004
0.0055150567 -0.080565773 0.48100004
0.0067690541 -0.080565773 0.48100004
0.0080230525 -0.080565773 0.48100004
0.0092770495 -0.080565773 0.48100004
0.010531047 -0.080565773 0.48100004
0.011785045 -0.080565773 0.48100004
0.013039042 -0.080565773 0.48100004
0.01429304 -0.080565773 0.48100004
0.015547038 -0.080565773 0.48100004
0.016801035 -0.080565773 0.48100004
0.018055033 -0.080565773 0.48100004
0.019309031 -0.080565773 0.48100004
0.020563029 -0.080565773 0.48100004
0.021817027 -0.080565773 0.48100004
0.023071025 -0.080565773 0.48100004
0.024325021 -0.080565773 0.48100004
0.02557902 -0.080565773 0.48100004
0.026833016 -0.080565773 0.48100004
0.028087014 -0.080565773 0.48100004
0.029341014 -0.080565773 0.48100004
0.030595008 -0.080565773 0.48100004
0.031849008 -0.080565773 0.48100004
0.033103008 -0.080565773 0.48100004
0.037840061 -0.063313641 0.37800002
0.038825531 -0.063313641 0.37800002
0.039811 -0.063313641 0.37800002
0.04079647 -0.063313641 0.37800002
0.04178194 -0.063313641 0.37800002
0.05769911 -0.079895787 0.47700003
0.058942679 -0.079895787 0.47700003
0.060186248 -0.079895787 0.47700003
0.061429817 -0.079895787 0.47700003
0.062541991 -0.07972829 0.47600001
0.063782953 -0.07972829 0.47600001
0.06516052 -0.079895787 0.47700003
0.066404089 -0.079895787 0.47700003
0.067647666 -0.079895787 0.47700003
0.068891235 -0.079895787 0.47700003
0.070134804 -0.079895787 0.47700003
0.071378373 -0.079895787 0.47700003
0.072621942 -0.079895787 0.47700003
0.073865511 -0.079895787 0.47700003
0.075109079 -0.079895787 0.47700003
0.076352648 -0.079895787 0.47700003
0.077596217 -0.079895787 0.47700003
0.078839786 -0.079895787 0.47700003
0.080083355 -0.079895787 0.47700003
0.081326924 -0.079895787 0.47700003
0.082570493 -0.079895787 0.47700003
0.08381407 -0.079895787 0.47700003
0.085057639 -0.079895787 0.47700003
0.086120278 -0.07972829 0.47600001
0.087361239 -0.07972829 0.47600001
0.0886022 -0.07972829 0.47600001
0.089843161 -0.07972829 0.47600001
0.090892777 -0.079560794 0.47500002
0.09213113 -0.079560794 0.47500002
0.093369484 -0.079560794 0.47500002
0.094408669 -0.079393297 0.47400004
0.095240854 -0.079058304 0.47200003
0.096062608 -0.078723311 0.47000003
0.096873932 -0.078388318 0.46800002
0.097465239 -0.077885829 0.46500003
0.098253109 -0.077550836 0.46300003
0.099245355 -0.077383339 0.46200001
0.10031603 -0.07051599 0.42100003
0.10141361 -0.07051599 0.42100003
0.10275467 -0.070683487 0.42200002
0.10385486 -0.070683487 0.42200002
0.10823597 -0.064151123 0.38300002
0.10923447 -0.064151123 0.38300002
0.10994517 -0.063983627 0.38200003
0.11094106 -0.063983627 0.38200003
0.11193696 -0.063983627 0.38200003
0.14717662 -0.081235759 0.48500001
0.14844105 -0.081235759 0.48500001
0.14939681 -0.081068262 0.48400003
0.15096989 -0.081235759 0.48500001
0.15192044 -0.081068262 0.48400003
0.15318227 -0.081068262 0.48400003
0.15444407 -0.081068262 0.48400003
0.1557059 -0.081068262 0.48400003
0.15696771 -0.081068262 0.48400003
0.15790261 -0.080900759 0.48300001
0.15916182 -0.080900759 0.48300001
0.16042103 -0.080900759 0.48300001
0.16168025 -0.080900759 0.48300001
0.16293946 -0.080900759 0.48300001
0.16419867 -0.080900759 0.48300001
0.16545787 -0.080900759 0.48300001
0.1667171 -0.080900759 0.48300001
0.1679763 -0.080900759 0.48300001
0.16923551 -0.080900759 0.48300001
0.17049472 -0.080900759 0.48300001
0.17175394 -0.080900759 0.48300001
0.17301315 -0.080900759 0.48300001
0.17427236 -0.080900759 0.48300001
0.17589501 -0.081068262 0.48400003
0.17715682 -0.081068262 0.48400003
0.17841864 -0.081068262 0.48400003
0.17968045 -0.081068262 0.48400003
0.18094228 -0.081068262 0.48400003
0.1822041 -0.081068262 0.48400003
0.18346591 -0.081068262 0.48400003
0.18472773 -0.081068262 0.48400003
0.18598956 -0.081068262 0.48400003
0.18725136 -0.081068262 0.48400003
0.18851319 -0.081068262 0.48400003
0.189775 -0.081068262 0.48400003
0.19103682 -0.081068262 0.48400003
0.19269596 -0.081235759 0.48500001
0.19356047 -0.081068262 0.48400003
0.19482228 -0.081068262 0.48400003
0.1960841 -0.081068262 0.48400003
0.19734593 -0.081068262 0.48400003
0.19860774 -0.081068262 0.48400003
0.19986956 -0.081068262 0.48400003
0.20113137 -0.081068262 0.48400003
0.2023932 -0.081068262 0.48400003
0.203655 -0.081068262 0.48400003
0.20491683 -0.081068262 0.48400003
0.20617865 -0.081068262 0.48400003
0.20744047 -0.081068262 0.48400003
0.20913349 -0.081235759 0.48500001
0.21039791 -0.081235759 0.48500001
0.21166234 -0.081235759 0.48500001
0.21248774 -0.081068262 0.48400003
0.21374957 -0.081068262 0.48400003
0.21501137 -0.081068262 0.48400003
0.2162732 -0.081068262 0.48400003
0.21753502 -0.081068262 0.48400003
0.21879685 -0.081068262 0.48400003
0.22005865 -0.081068262 0.48400003
0.22132048 -0.081068262 0.48400003
0.2225823 -0.081068262 0.48400003
0.22384411 -0.081068262 0.48400003
0.22510594 -0.081068262 0.48400003
0.22636776 -0.081068262 0.48400003
0.22762957 -0.081068262 0.48400003
-0.26980233 -0.079146884 0.48000002
-0.26855096 -0.079146884 0.48000002
-0.26729956 -0.079146884 0.48000002
-0.26604816 -0.079146884 0.48000002
-0.26479679 -0.079146884 0.48000002
-0.26354536 -0.079146884 0.48000002
-0.26229399 -0.079146884 0.48000002
-0.26104259 -0.079146884 0.48000002
-0.25979123 -0.079146884 0.48000002
-0.25853983 -0.079146884 0.48000002
-0.25728843 -0.079146884 0.48000002
-0.25603706 -0.079146884 0.48000002
-0.25478566 -0.079146884 0.48000002
-0.25353426 -0.079146884 0.48000002
-0.25228286 -0.079146884 0.48000002
-0.25103149 -0.079146884 0.48000002
-0.2497801 -0.079146884 0.48000002
-0.24852869 -0.079146884 0.48000002
-0.24676216 -0.078981996 0.47900003
-0.24551338 -0.078981996 0.47900003
-0.24426457 -0.078981996 0.47900003
-0.2430158 -0.078981996 0.47900003
-0.24176702 -0.078981996 0.47900003
-0.24051824 -0.078981996 0.47900003
-0.23926945 -0.078981996 0.47900003
-0.23802066 -0.078981996 0.47900003
-0.23726618 -0.079146884 0.48000002
-0.23601478 -0.079146884 0.48000002
-0.23476341 -0.079146884 0.48000002
-0.23351201 -0.079146884 0.48000002
-0.23226061 -0.079146884 0.48000002
-0.23100923 -0.079146884 0.48000002
-0.22975783 -0.079146884 0.48000002
-0.22850645 -0.079146884 0.48000002
-0.22725505 -0.079146884 0.48000002
-0.22600368 -0.079146884 0.48000002
-0.22475228 -0.079146884 0.48000002
-0.22350089 -0.079146884 0.48000002
-0.22224949 -0.079146884 0.48000002
-0.22099811 -0.079146884 0.48000002
-0.21974671 -0.079146884 0.48000002
-0.21849532 -0.079146884 0.48000002
-0.21724394 -0.079146884 0.48000002
-0.21554255 -0.078981996 0.47900003
-0.21474116 -0.079146884 0.48000002
-0.21348976 -0.079146884 0.48000002
-0.21223837 -0.079146884 0.48000002
-0.21098697 -0.079146884 0.48000002
-0.20973559 -0.079146884 0.48000002
-0.2084842 -0.079146884 0.48000002
-0.20723282 -0.079146884 0.48000002
-0.20598142 -0.079146884 0.48000002
-0.20473003 -0.079146884 0.48000002
-0.20347863 -0.079146884 0.48000002
-0.20222725 -0.079146884 0.48000002
-0.20097585 -0.079146884 0.48000002
-0.19972445 -0.079146884 0.48000002
-0.19847308 -0.079146884 0.48000002
-0.19763257 -0.079311773 0.48100004
-0.19637857 -0.079311773 0.48100004
-0.19512457 -0.079311773 0.48100004
-0.19387057 -0.079311773 0.48100004
-0.19261658 -0.079311773 0.48100004
-0.19136259 -0.079311773 0.48100004
-0.19010858 -0.079311773 0.48100004
-0.18885459 -0.079311773 0.48100004
-0.18760058 -0.079311773 0.48100004
-0.18634659 -0.079311773 0.48100004
-0.1850926 -0.079311773 0.48100004
-0.18383859 -0.079311773 0.48100004
-0.1825846 -0.079311773 0.48100004
-0.18095361 -0.079146884 0.48000002
-0.17970222 -0.079146884 0.48000002
-0.17845082 -0.079146884 0.48000002
-0.17719944 -0.079146884 0.48000002
-0.17594804 -0.079146884 0.48000002
-0.17433271 -0.078981996 0.47900003
-0.17308392 -0.078981996 0.47900003
-0.17183514 -0.078981996 0.47900003
-0.17094249 -0.079146884 0.48000002
-0.1696911 -0.079146884 0.48000002
-0.1684397 -0.079146884 0.48000002
-0.1671883 -0.079146884 0.48000002
-0.16593692 -0.079146884 0.48000002
-0.16468552 -0.079146884 0.48000002
-0.16343413 -0.079146884 0.48000002
-0.16252063 -0.079311773 0.48100004
-0.16126664 -0.079311773 0.48100004
-0.16001263 -0.079311773 0.48100004
-0.15875864 -0.079311773 0.48100004
-0.15750465 -0.079311773 0.48100004
-0.15625066 -0.079311773 0.48100004
-0.15499665 -0.079311773 0.48100004
-0.15374266 -0.079311773 0.48100004
-0.15248865 -0.079311773 0.48100004
-0.15123464 -0.079311773 0.48100004
-0.14998066 -0.079311773 0.48100004
-0.14872666 -0.079311773 0.48100004
-0.14747266 -0.079311773 0.48100004
-0.14621866 -0.079311773 0.48100004
-0.14496467 -0.079311773 0.48100004
-0.14371066 -0.079311773 0.48100004
-0.14245668 -0.079311773 0.48100004
-0.14120267 -0.079311773 0.48100004
-0.13994868 -0.079311773 0.48100004
-0.13869467 -0.079311773 0.48100004
-0.13715494 -0.079146884 0.48000002
-0.13590355 -0.079146884 0.48000002
-0.13465215 -0.079146884 0.48000002
-0.13340077 -0.079146884 0.48000002
-0.13214937 -0.079146884 0.48000002
-0.13117069 -0.079311773 0.48100004
-0.12991668 -0.079311773 0.48100004
-0.12866271 -0.079311773 0.48100004
-0.1274087 -0.079311773 0.48100004
-0.12589243 -0.079146884 0.48000002
-0.12464103 -0.079146884 0.48000002
-0.12338965 -0.079146884 0.48000002
-0.12239271 -0.079311773 0.48100004
-0.12088686 -0.079146884 0.48000002
-0.11988471 -0.079311773 0.48100004
-0.11863071 -0.079311773 0.48100004
-0.11737671 -0.079311773 0.48100004
-0.11612272 -0.079311773 0.48100004
-0.11486872 -0.079311773 0.48100004
-0.11361472 -0.079311773 0.48100004
-0.11236073 -0.079311773 0.48100004
-0.11110672 -0.079311773 0.48100004
-0.10985273 -0.079311773 0.48100004
-0.10859873 -0.079311773 0.48100004
-0.10734473 -0.079311773 0.48100004
-0.10609074 -0.079311773 0.48100004
-0.10483674 -0.079311773 0.48100004
-0.10358274 -0.079311773 0.48100004
-0.10232875 -0.079311773 0.48100004
-0.10107475 -0.079311773 0.48100004
-0.099820748 -0.079311773 0.48100004
-0.098566756 -0.079311773 0.48100004
-0.097312756 -0.079311773 0.48100004
-0.096058756 -0.079311773 0.48100004
-0.094804756 -0.079311773 0.48100004
-0.093550757 -0.079311773 0.48100004
-0.092296764 -0.079311773 0.48100004
-0.091042764 -0.079311773 0.48100004
-0.089788765 -0.079311773 0.48100004
-0.088534772 -0.079311773 0.48100004
-0.087280773 -0.079311773 0.48100004
-0.086026773 -0.079311773 0.48100004
-0.084772781 -0.079311773 0.48100004
-0.083345145 -0.079146884 0.48000002
-0.082093753 -0.079146884 0.48000002
-0.080842361 -0.079146884 0.48000002
-0.079590969 -0.079146884 0.48000002
-0.078339577 -0.079146884 0.48000002
-0.077088185 -0.079146884 0.48000002
-0.075836793 -0.079146884 0.48000002
-0.074585408 -0.079146884 0.48000002
-0.073334016 -0.079146884 0.48000002
-0.072082624 -0.079146884 0.48000002
-0.070831232 -0.079146884 0.48000002
-0.069579847 -0.079146884 0.48000002
-0.068328455 -0.079146884 0.48000002
-0.067077063 -0.079146884 0.48000002
-0.065825678 -0.079146884 0.48000002
-0.064574286 -0.079146884 0.48000002
-0.063322894 -0.079146884 0.48000002
-0.062071498 -0.079146884 0.48000002
-0.060820106 -0.079146884 0.48000002
-0.059568722 -0.079146884 0.48000002
-0.05831733 -0.079146884 0.48000002
-0.057065938 -0.079146884 0.48000002
-0.055814546 -0.079146884 0.48000002
-0.054563157 -0.079146884 0.48000002
-0.053311769 -0.079146884 0.48000002
-0.052060377 -0.079146884 0.48000002
-0.050808989 -0.079146884 0.48000002
-0.049557593 -0.079146884 0.48000002
-0.048306204 -0.079146884 0.48000002
-0.047054812 -0.079146884 0.48000002
-0.045803424 -0.079146884 0.48000002
-0.044552032 -0.079146884 0.48000002
-0.043300644 -0.079146884 0.48000002
-0.042049255 -0.079146884 0.48000002
-0.040797859 -0.079146884 0.48000002
-0.039546471 -0.079146884 0.48000002
-0.038295079 -0.079146884 0.48000002
-0.037043691 -0.079146884 0.48000002
-0.035792299 -0.079146884 0.48000002
-0.03454091 -0.079146884 0.48000002
-0.033289514 -0.079146884 0.48000002
-0.032038126 -0.079146884 0.48000002
-0.030786736 -0.079146884 0.48000002
-0.029535346 -0.079146884 0.48000002
-0.028283956 -0.079146884 0.48000002
-0.027032563 -0.079146884 0.48000002
-0.025781173 -0.079146884 0.48000002
-0.024529785 -0.079146884 0.48000002
-0.023326891 -0.079311773 0.48100004
-0.022072893 -0.079311773 0.48100004
-0.020818895 -0.079311773 0.48100004
-0.019564897 -0.079311773 0.48100004
-0.018310899 -0.079311773 0.48100004
-0.017056903 -0.079311773 0.48100004
-0.015802905 -0.079311773 0.48100004
-0.014548906 -0.079311773 0.48100004
-0.013294909 -0.079311773 0.48100004
-0.012040911 -0.079311773 0.48100004
-0.010764487 -0.079146884 0.48000002
-0.0095130969 -0.079146884 0.48000002
-0.0082617057 -0.079146884 0.48000002
-0.0070103151 -0.079146884 0.48000002
-0.0057589249 -0.079146884 0.48000002
-0.0045075342 -0.079146884 0.48000002
-0.0032561438 -0.079146884 0.48000002
-0.0020047531 -0.079146884 0.48000002
-0.00075336249 -0.079146884 0.48000002
0.00049906567 -0.079311773 0.48100004
0.0017530634 -0.079311773 0.48100004
0.0030070611 -0.079311773 0.48100004
0.0042610588 -0.079311773 0.48100004
0.0055150567 -0.079311773 0.48100004
0.0067690541 -0.079311773 0.48100004
0.0080230525 -0.079311773 0.48100004
0.0092770495 -0.079311773 0.48100004
0.010531047 -0.079311773 0.48100004
0.011785045 -0.079311773 0.48100004
0.013039042 -0.079311773 0.48100004
0.01429304 -0.079311773 0.48100004
0.015547038 -0.079311773 0.48100004
0.016801035 -0.079311773 0.48100004
0.018055033 -0.079311773 0.48100004
0.019309031 -0.079311773 0.48100004
0.020563029 -0.079311773 0.48100004
0.021817027 -0.079311773 0.48100004
0.023071025 -0.079311773 0.48100004
0.024325021 -0.079311773 0.48100004
0.02557902 -0.079311773 0.48100004
0.026833016 -0.079311773 0.48100004
0.02802862 -0.079146884 0.48000002
0.029280012 -0.079146884 0.48000002
0.030531401 -0.079146884 0.48000002
0.031849008 -0.079311773 0.48100004
0.036854591 -0.062328171 0.37800002
0.037840061 -0.062328171 0.37800002
0.038825531 -0.062328171 0.37800002
0.039811 -0.062328171 0.37800002
0.04079647 -0.062328171 0.37800002
0.04178194 -0.062328171 0.37800002
0.056573894 -0.078817107 0.47800002
0.057820071 -0.078817107 0.47800002
0.058942679 -0.078652218 0.47700003
0.06031242 -0.078817107 0.47800002
0.061429817 -0.078652218 0.47700003
0.062673382 -0.078652218 0.47700003
0.063916951 -0.078652218 0.47700003
0.06516052 -0.078652218 0.47700003
0.066404089 -0.078652218 0.47700003
0.067647666 -0.078652218 0.47700003
0.068891235 -0.078652218 0.47700003
0.070134804 -0.078652218 0.47700003
0.071378373 -0.078652218 0.47700003
0.072621942 -0.078652218 0.47700003
0.073865511 -0.078652218 0.47700003
0.075109079 -0.078652218 0.47700003
0.076352648 -0.078652218 0.47700003
0.077596217 -0.078652218 0.47700003
0.078839786 -0.078652218 0.47700003
0.080083355 -0.078652218 0.47700003
0.081326924 -0.078652218 0.47700003
0.082570493 -0.078652218 0.47700003
0.08381407 -0.078652218 0.47700003
0.085057639 -0.078652218 0.47700003
0.086301208 -0.078652218 0.47700003
0.087544776 -0.078652218 0.47700003
0.0886022 -0.078487329 0.47600001
0.089843161 -0.078487329 0.47600001
0.091084123 -0.078487329 0.47600001
0.092325091 -0.078487329 0.47600001
0.093369484 -0.07832244 0.47500002
0.094607837 -0.07832244 0.47500002
0.09544263 -0.077992655 0.47300002
0.096266992 -0.077662878 0.47100002
0.097287931 -0.077497989 0.47000003
0.098303646 -0.0773331 0.46900001
0.099314153 -0.077168211 0.46800002
0.10031944 -0.077003323 0.46700001
0.10923447 -0.063152619 0.38300002
0.11023298 -0.063152619 0.38300002
0.11123148 -0.063152619 0.38300002
0.11222999 -0.063152619 0.38300002
0.1459122 -0.079971328 0.48500001
0.14687316 -0.07980644 0.48400003
0.14844105 -0.079971328 0.48500001
0.14939681 -0.07980644 0.48400003
0.15096989 -0.079971328 0.48500001
0.15192044 -0.07980644 0.48400003
0.15318227 -0.07980644 0.48400003
0.15444407 -0.07980644 0.48400003
0.1557059 -0.07980644 0.48400003
0.15696771 -0.07980644 0.48400003
0.15790261 -0.079641551 0.48300001
0.15916182 -0.079641551 0.48300001
0.16042103 -0.079641551 0.48300001
0.16168025 -0.079641551 0.48300001
0.16293946 -0.079641551 0.48300001
0.16419867 -0.079641551 0.48300001
0.16545787 -0.079641551 0.48300001
0.1667171 -0.079641551 0.48300001
0.1679763 -0.079641551 0.48300001
0.16923551 -0.079641551 0.48300001
0.17049472 -0.079641551 0.48300001
0.17175394 -0.079641551 0.48300001
0.17301315 -0.079641551 0.48300001
0.17427236 -0.079641551 0.48300001
0.17589501 -0.07980644 0.48400003
0.17715682 -0.07980644 0.48400003
0.17841864 -0.07980644 0.48400003
0.17968045 -0.07980644 0.48400003
0.18094228 -0.07980644 0.48400003
0.1822041 -0.07980644 0.48400003
0.18346591 -0.07980644 0.48400003
0.18472773 -0.07980644 0.48400003
0.18598956 -0.07980644 0.48400003
0.18763824 -0.079971328 0.48500001
0.18851319 -0.07980644 0.48400003
0.1901671 -0.079971328 0.48500001
0.19143152 -0.079971328 0.48500001
0.19269596 -0.079971328 0.48500001
0.19356047 -0.07980644 0.48400003
0.19522481 -0.079971328 0.48500001
0.1960841 -0.07980644 0.48400003
0.19734593 -0.07980644 0.48400003
0.19860774 -0.07980644 0.48400003
0.19986956 -0.07980644 0.48400003
0.20113137 -0.07980644 0.48400003
0.2023932 -0.07980644 0.48400003
0.203655 -0.07980644 0.48400003
0.20491683 -0.07980644 0.48400003
0.20617865 -0.07980644 0.48400003
0.20786907 -0.079971328 0.48500001
0.20913349 -0.079971328 0.48500001
0.21039791 -0.079971328 0.48500001
0.21166234 -0.079971328 0.48500001
0.21292676 -0.079971328 0.48500001
0.21374957 -0.07980644 0.48400003
0.21501137 -0.07980644 0.48400003
0.2162732 -0.07980644 0.48400003
0.21753502 -0.07980644 0.48400003
0.21879685 -0.07980644 0.48400003
0.22005865 -0.07980644 0.48400003
0.22132048 -0.07980644 0.48400003
0.2225823 -0.07980644 0.48400003
0.22384411 -0.07980644 0.48400003
0.22510594 -0.07980644 0.48400003
0.22636776 -0.07980644 0.48400003
0.22762957 -0.07980644 0.48400003
-0.26980233 -0.077895492 0.48000002
-0.26855096 -0.077895492 0.48000002
-0.26729956 -0.077895492 0.48000002
-0.26604816 -0.077895492 0.48000002
-0.26479679 -0.077895492 0.48000002
-0.26354536 -0.077895492 0.48000002
-0.26229399 -0.077895492 0.48000002
-0.26104259 -0.077895492 0.48000002
-0.25979123 -0.077895492 0.48000002
-0.25853983 -0.077895492 0.48000002
-0.25728843 -0.077895492 0.48000002
-0.25603706 -0.077895492 0.48000002
-0.25478566 -0.077895492 0.48000002
-0.25353426 -0.077895492 0.48000002
-0.25228286 -0.077895492 0.48000002
-0.25103149 -0.077895492 0.48000002
-0.2497801 -0.077895492 0.48000002
-0.24852869 -0.077895492 0.48000002
-0.24676216 -0.077733211 0.47900003
-0.24551338 -0.077733211 0.47900003
-0.24426457 -0.077733211 0.47900003
-0.2430158 -0.077733211 0.47900003
-0.24176702 -0.077733211 0.47900003
-0.24051824 -0.077733211 0.47900003
-0.23926945 -0.077733211 0.47900003
-0.23802066 -0.077733211 0.47900003
-0.23726618 -0.077895492 0.48000002
-0.23601478 -0.077895492 0.48000002
-0.23476341 -0.077895492 0.48000002
-0.23351201 -0.077895492 0.48000002
-0.23226061 -0.077895492 0.48000002
-0.23100923 -0.077895492 0.48000002
-0.22975783 -0.077895492 0.48000002
-0.22850645 -0.077895492 0.48000002
-0.22725505 -0.077895492 0.48000002
-0.22600368 -0.077895492 0.48000002
-0.22475228 -0.077895492 0.48000002
-0.22350089 -0.077895492 0.48000002
-0.22224949 -0.077895492 0.48000002
-0.22099811 -0.077895492 0.48000002
-0.21974671 -0.077895492 0.48000002
-0.21849532 -0.077895492 0.48000002
-0.21724394 -0.077895492 0.48000002
-0.21599254 -0.077895492 0.48000002
-0.21474116 -0.077895492 0.48000002
-0.21348976 -0.077895492 0.48000002
-0.21223837 -0.077895492 0.48000002
-0.21098697 -0.077895492 0.48000002
-0.20973559 -0.077895492 0.48000002
-0.2084842 -0.077895492 0.48000002
-0.20723282 -0.077895492 0.48000002
-0.20598142 -0.077895492 0.48000002
-0.20473003 -0.077895492 0.48000002
-0.20347863 -0.077895492 0.48000002
-0.20222725 -0.077895492 0.48000002
-0.20097585 -0.077895492 0.48000002
-0.19972445 -0.077895492 0.48000002
-0.19847308 -0.077895492 0.48000002
-0.19763257 -0.078057781 0.48100004
-0.19637857 -0.078057781 0.48100004
-0.19512457 -0.078057781 0.48100004
-0.19387057 -0.078057781 0.48100004
-0.19261658 -0.078057781 0.48100004
-0.19136259 -0.078057781 0.48100004
-0.19010858 -0.078057781 0.48100004
-0.18885459 -0.078057781 0.48100004
-0.18760058 -0.078057781 0.48100004
-0.18634659 -0.078057781 0.48100004
-0.1850926 -0.078057781 0.48100004
-0.18383859 -0.078057781 0.48100004
-0.1825846 -0.078057781 0.48100004
-0.18133059 -0.078057781 0.48100004
-0.17970222 -0.077895492 0.48000002
-0.17845082 -0.077895492 0.48000002
-0.17719944 -0.077895492 0.48000002
-0.17594804 -0.077895492 0.48000002
-0.17469665 -0.077895492 0.48000002
-0.17308392 -0.077733211 0.47900003
-0.17219387 -0.077895492 0.48000002
-0.17094249 -0.077895492 0.48000002
-0.1696911 -0.077895492 0.48000002
-0.1684397 -0.077895492 0.48000002
-0.1671883 -0.077895492 0.48000002
-0.16593692 -0.077895492 0.48000002
-0.16468552 -0.077895492 0.48000002
-0.16377464 -0.078057781 0.48100004
-0.16252063 -0.078057781 0.48100004
-0.16126664 -0.078057781 0.48100004
-0.16001263 -0.078057781 0.48100004
-0.15875864 -0.078057781 0.48100004
-0.15750465 -0.078057781 0.48100004
-0.15625066 -0.078057781 0.48100004
-0.15499665 -0.078057781 0.48100004
-0.15374266 -0.078057781 0.48100004
-0.15248865 -0.078057781 0.48100004
-0.15123464 -0.078057781 0.48100004
-0.14998066 -0.078057781 0.48100004
-0.14872666 -0.078057781 0.48100004
-0.14747266 -0.078057781 0.48100004
-0.14621866 -0.078057781 0.48100004
-0.14496467 -0.078057781 0.48100004
-0.14371066 -0.078057781 0.48100004
-0.14245668 -0.078057781 0.48100004
-0.14120267 -0.078057781 0.48100004
-0.13994868 -0.078057781 0.48100004
-0.13869467 -0.078057781 0.48100004
-0.13744068 -0.078057781 0.48100004
-0.13590355 -0.077895492 0.48000002
-0.13465215 -0.077895492 0.48000002
-0.13340077 -0.077895492 0.48000002
-0.13214937 -0.077895492 0.48000002
-0.13089798 -0.077895492 0.48000002
-0.12964658 -0.077895492 0.48000002
-0.1283952 -0.077895492 0.48000002
-0.1271438 -0.077895492 0.48000002
-0.12589243 -0.077895492 0.48000002
-0.1249007 -0.078057781 0.48100004
-0.12338965 -0.077895492 0.48000002
-0.12239271 -0.078057781 0.48100004
-0.12113871 -0.078057781 0.48100004
-0.11988471 -0.078057781 0.48100004
-0.11863071 -0.078057781 0.48100004
-0.11737671 -0.078057781 0.48100004
-0.11612272 -0.078057781 0.48100004
-0.11486872 -0.078057781 0.48100004
-0.11361472 -0.078057781 0.48100004
-0.11236073 -0.078057781 0.48100004
-0.11110672 -0.078057781 0.48100004
-0.10985273 -0.078057781 0.48100004
-0.10859873 -0.078057781 0.48100004
-0.10734473 -0.078057781 0.48100004
-0.10609074 -0.078057781 0.48100004
-0.10483674 -0.078057781 0.48100004
-0.10358274 -0.078057781 0.48100004
-0.10232875 -0.078057781 0.48100004
-0.10107475 -0.078057781 0.48100004
-0.099820748 -0.078057781 0.48100004
-0.098566756 -0.078057781 0.48100004
-0.097312756 -0.078057781 0.48100004
-0.096058756 -0.078057781 0.48100004
-0.094804756 -0.078057781 0.48100004
-0.093550757 -0.078057781 0.48100004
-0.092296764 -0.078057781 0.48100004
-0.091042764 -0.078057781 0.48100004
-0.08960209 -0.077895492 0.48000002
-0.088350706 -0.077895492 0.48000002
-0.087099314 -0.077895492 0.48000002
-0.085847922 -0.077895492 0.48000002
-0.08459653 -0.077895492 0.48000002
-0.083345145 -0.077895492 0.48000002
-0.082093753 -0.077895492 0.48000002
-0.080842361 -0.077895492 0.48000002
-0.079590969 -0.077895492 0.48000002
-0.078339577 -0.077895492 0.48000002
-0.077088185 -0.077895492 0.48000002
-0.075836793 -0.077895492 0.48000002
-0.074585408 -0.077895492 0.48000002
-0.073334016 -0.077895492 0.48000002
-0.072082624 -0.077895492 0.48000002
-0.070831232 -0.077895492 0.48000002
-0.069579847 -0.077895492 0.48000002
-0.068328455 -0.077895492 0.48000002
-0.067077063 -0.077895492 0.48000002
-0.065825678 -0.077895492 0.48000002
-0.064574286 -0.077895492 0.48000002
-0.063322894 -0.077895492 0.48000002
-0.062071498 -0.077895492 0.48000002
-0.060820106 -0.077895492 0.48000002
-0.059568722 -0.077895492 0.48000002
-0.05831733 -0.077895492 0.48000002
-0.057065938 -0.077895492 0.48000002
-0.055814546 -0.077895492 0.48000002
-0.054563157 -0.077895492 0.48000002
-0.053311769 -0.077895492 0.48000002
-0.052060377 -0.077895492 0.48000002
-0.050808989 -0.077895492 0.48000002
-0.049557593 -0.077895492 0.48000002
-0.048306204 -0.077895492 0.48000002
-0.047054812 -0.077895492 0.48000002
-0.045803424 -0.077895492 0.48000002
-0.044552032 -0.077895492 0.48000002
-0.043300644 -0.077895492 0.48000002
-0.042049255 -0.077895492 0.48000002
-0.040797859 -0.077895492 0.48000002
-0.039546471 -0.077895492 0.48000002
-0.038295079 -0.077895492 0.48000002
-0.037043691 -0.077895492 0.48000002
-0.035792299 -0.077895492 0.48000002
-0.03454091 -0.077895492 0.48000002
-0.033289514 -0.077895492 0.48000002
-0.032038126 -0.077895492 0.48000002
-0.030786736 -0.077895492 0.48000002
-0.029535346 -0.077895492 0.48000002
-0.028283956 -0.077895492 0.48000002
-0.027032563 -0.077895492 0.48000002
-0.025781173 -0.077895492 0.48000002
-0.024529785 -0.077895492 0.48000002
-0.023326891 -0.078057781 0.48100004
-0.022072893 -0.078057781 0.48100004
-0.020818895 -0.078057781 0.48100004
-0.019564897 -0.078057781 0.48100004
-0.018310899 -0.078057781 0.48100004
-0.017056903 -0.078057781 0.48100004
-0.015802905 -0.078057781 0.48100004
-0.014548906 -0.078057781 0.48100004
-0.013294909 -0.078057781 0.48100004
-0.012040911 -0.078057781 0.48100004
-0.010764487 -0.077895492 0.48000002
-0.0095130969 -0.077895492 0.48000002
-0.0082617057 -0.077895492 0.48000002
-0.0070103151 -0.077895492 0.48000002
-0.0057709226 -0.078057781 0.48100004
-0.0045169252 -0.078057781 0.48100004
-0.0032629275 -0.078057781 0.48100004
-0.0020089296 -0.078057781 0.48100004
-0.000754932 -0.078057781 0.48100004
0.00049906567 -0.078057781 0.48100004
0.0017530634 -0.078057781 0.48100004
0.0030070611 -0.078057781 0.48100004
0.0042610588 -0.078057781 0.48100004
0.0055150567 -0.078057781 0.48100004
0.0067690541 -0.078057781 0.48100004
0.0080230525 -0.078057781 0.48100004
0.0092770495 -0.078057781 0.48100004
0.010531047 -0.078057781 0.48100004
0.011785045 -0.078057781 0.48100004
0.013039042 -0.078057781 0.48100004
0.01429304 -0.078057781 0.48100004
0.015547038 -0.078057781 0.48100004
0.016801035 -0.078057781 0.48100004
0.018055033 -0.078057781 0.48100004
0.019309031 -0.078057781 0.48100004
0.020563029 -0.078057781 0.48100004
0.021817027 -0.078057781 0.48100004
0.023071025 -0.078057781 0.48100004
0.024325021 -0.078057781 0.48100004
0.02557902 -0.078057781 0.48100004
0.026833016 -0.078057781 0.48100004
0.028087014 -0.078057781 0.48100004
0.029280012 -0.077895492 0.48000002
0.030531401 -0.077895492 0.48000002
0.031849008 -0.078057781 0.48100004
0.035869122 -0.061342701 0.37800002
0.036854591 -0.061342701 0.37800002
0.037840061 -0.061342701 0.37800002
0.038825531 -0.061342701 0.37800002
0.039811 -0.061342701 0.37800002
0.04079647 -0.061342701 0.37800002
0.056573894 -0.07757093 0.47800002
0.057820071 -0.07757093 0.47800002
0.059066247 -0.07757093 0.47800002
0.06031242 -0.07757093 0.47800002
0.061558597 -0.07757093 0.47800002
0.062804773 -0.07757093 0.47800002
0.063916951 -0.077408649 0.47700003
0.06516052 -0.077408649 0.47700003
0.066404089 -0.077408649 0.47700003
0.067647666 -0.077408649 0.47700003
0.069035657 -0.07757093 0.47800002
0.070281833 -0.07757093 0.47800002
0.071378373 -0.077408649 0.47700003
0.072621942 -0.077408649 0.47700003
0.073865511 -0.077408649 0.47700003
0.075109079 -0.077408649 0.47700003
0.076352648 -0.077408649 0.47700003
0.077596217 -0.077408649 0.47700003
0.078839786 -0.077408649 0.47700003
0.080083355 -0.077408649 0.47700003
0.081326924 -0.077408649 0.47700003
0.082570493 -0.077408649 0.47700003
0.08381407 -0.077408649 0.47700003
0.085057639 -0.077408649 0.47700003
0.086301208 -0.077408649 0.47700003
0.087544776 -0.077408649 0.47700003
0.088788345 -0.077408649 0.47700003
0.090031914 -0.077408649 0.47700003
0.091275483 -0.077408649 0.47700003
0.092325091 -0.07724636 0.47600001
0.093566053 -0.07724636 0.47600001
0.094607837 -0.077084087 0.47500002
0.095644414 -0.076921806 0.47400004
0.096675768 -0.076759517 0.47300002
0.097908914 -0.076759517 0.47300002
0.09914206 -0.076759517 0.47300002
0.1003752 -0.076759517 0.47300002
0.10139353 -0.076597236 0.47200003
0.10262406 -0.076597236 0.47200003
0.10823597 -0.062154114 0.38300002
0.11023298 -0.062154114 0.38300002
0.11123148 -0.062154114 0.38300002
0.11222999 -0.062154114 0.38300002
0.1459122 -0.078706905 0.48500001
0.14717662 -0.078706905 0.48500001
0.14844105 -0.078706905 0.48500001
0.14970547 -0.078706905 0.48500001
0.15065862 -0.078544624 0.48400003
0.15192044 -0.078544624 0.48400003
0.15318227 -0.078544624 0.48400003
0.15444407 -0.078544624 0.48400003
0.1557059 -0.078544624 0.48400003
0.15696771 -0.078544624 0.48400003
0.15790261 -0.078382343 0.48300001
0.15916182 -0.078382343 0.48300001
0.16042103 -0.078382343 0.48300001
0.16168025 -0.078382343 0.48300001
0.16293946 -0.078382343 0.48300001
0.16419867 -0.078382343 0.48300001
0.16545787 -0.078382343 0.48300001
0.1667171 -0.078382343 0.48300001
0.1679763 -0.078382343 0.48300001
0.16923551 -0.078382343 0.48300001
0.17049472 -0.078382343 0.48300001
0.17175394 -0.078382343 0.48300001
0.17301315 -0.078382343 0.48300001
0.17463318 -0.078544624 0.48400003
0.17589501 -0.078544624 0.48400003
0.17715682 -0.078544624 0.48400003
0.17841864 -0.078544624 0.48400003
0.17968045 -0.078544624 0.48400003
0.18094228 -0.078544624 0.48400003
0.1822041 -0.078544624 0.48400003
0.18346591 -0.078544624 0.48400003
0.18472773 -0.078544624 0.48400003
0.18637383 -0.078706905 0.48500001
0.18763824 -0.078706905 0.48500001
0.18890268 -0.078706905 0.48500001
0.1901671 -0.078706905 0.48500001
0.19143152 -0.078706905 0.48500001
0.19269596 -0.078706905 0.48500001
0.19396037 -0.078706905 0.48500001
0.19522481 -0.078706905 0.48500001
0.19648923 -0.078706905 0.48500001
0.19734593 -0.078544624 0.48400003
0.19860774 -0.078544624 0.48400003
0.19986956 -0.078544624 0.48400003
0.20113137 -0.078544624 0.48400003
0.2023932 -0.078544624 0.48400003
0.203655 -0.078544624 0.48400003
0.20491683 -0.078544624 0.48400003
0.20617865 -0.078544624 0.48400003
0.20786907 -0.078706905 0.48500001
0.20913349 -0.078706905 0.48500001
0.21039791 -0.078706905 0.48500001
0.21166234 -0.078706905 0.48500001
0.21248774 -0.078544624 0.48400003
0.21374957 -0.078544624 0.48400003
0.21501137 -0.078544624 0.48400003
0.2162732 -0.078544624 0.48400003
0.21753502 -0.078544624 0.48400003
0.21879685 -0.078544624 0.48400003
0.22005865 -0.078544624 0.48400003
0.22132048 -0.078544624 0.48400003
0.2225823 -0.078544624 0.48400003
0.22384411 -0.078544624 0.48400003
0.22510594 -0.078544624 0.48400003
0.22683544 -0.078706905 0.48500001
0.22809988 -0.078706905 0.48500001
-0.26980233 -0.076644108 0.48000002
-0.26855096 -0.076644108 0.48000002
-0.26729956 -0.076644108 0.48000002
-0.26604816 -0.076644108 0.48000002
-0.26479679 -0.076644108 0.48000002
-0.26354536 -0.076644108 0.48000002
-0.26229399 -0.076644108 0.48000002
-0.26104259 -0.076644108 0.48000002
-0.25979123 -0.076644108 0.48000002
-0.25853983 -0.076644108 0.48000002
-0.25728843 -0.076644108 0.48000002
-0.25603706 -0.076644108 0.48000002
-0.25478566 -0.076644108 0.48000002
-0.25353426 -0.076644108 0.48000002
-0.25228286 -0.076644108 0.48000002
-0.25103149 -0.076644108 0.48000002
-0.2497801 -0.076644108 0.48000002
-0.24852869 -0.076644108 0.48000002
-0.2472773 -0.076644108 0.48000002
-0.24551338 -0.076484434 0.47900003
-0.24426457 -0.076484434 0.47900003
-0.2430158 -0.076484434 0.47900003
-0.24176702 -0.076484434 0.47900003
-0.24051824 -0.076484434 0.47900003
-0.23926945 -0.076484434 0.47900003
-0.23802066 -0.076484434 0.47900003
-0.2367719 -0.076484434 0.47900003
-0.23601478 -0.076644108 0.48000002
-0.23476341 -0.076644108 0.48000002
-0.23351201 -0.076644108 0.48000002
-0.23226061 -0.076644108 0.48000002
-0.23100923 -0.076644108 0.48000002
-0.22975783 -0.076644108 0.48000002
-0.22850645 -0.076644108 0.48000002
-0.22725505 -0.076644108 0.48000002
-0.22600368 -0.076644108 0.48000002
-0.22475228 -0.076644108 0.48000002
-0.22350089 -0.076644108 0.48000002
-0.22224949 -0.076644108 0.48000002
-0.22099811 -0.076644108 0.48000002
-0.21974671 -0.076644108 0.48000002
-0.21849532 -0.076644108 0.48000002
-0.21724394 -0.076644108 0.48000002
-0.21599254 -0.076644108 0.48000002
-0.21474116 -0.076644108 0.48000002
-0.21348976 -0.076644108 0.48000002
-0.21223837 -0.076644108 0.48000002
-0.21098697 -0.076644108 0.48000002
-0.20973559 -0.076644108 0.48000002
-0.2084842 -0.076644108 0.48000002
-0.20723282 -0.076644108 0.48000002
-0.20598142 -0.076644108 0.48000002
-0.20473003 -0.076644108 0.48000002
-0.20347863 -0.076644108 0.48000002
-0.20222725 -0.076644108 0.48000002
-0.20097585 -0.076644108 0.48000002
-0.19972445 -0.076644108 0.48000002
-0.19847308 -0.076644108 0.48000002
-0.19763257 -0.076803781 0.48100004
-0.19637857 -0.076803781 0.48100004
-0.19512457 -0.076803781 0.48100004
-0.19387057 -0.076803781 0.48100004
-0.19261658 -0.076803781 0.48100004
-0.19136259 -0.076803781 0.48100004
-0.19010858 -0.076803781 0.48100004
-0.18885459 -0.076803781 0.48100004
-0.18760058 -0.076803781 0.48100004
-0.18634659 -0.076803781 0.48100004
-0.1850926 -0.076803781 0.48100004
-0.18383859 -0.076803781 0.48100004
-0.1825846 -0.076803781 0.48100004
-0.18133059 -0.076803781 0.48100004
-0.1800766 -0.076803781 0.48100004
-0.17845082 -0.076644108 0.48000002
-0.17719944 -0.076644108 0.48000002
-0.17594804 -0.076644108 0.48000002
-0.17469665 -0.076644108 0.48000002
-0.17344525 -0.076644108 0.48000002
-0.17219387 -0.076644108 0.48000002
-0.17094249 -0.076644108 0.48000002
-0.1696911 -0.076644108 0.48000002
-0.1684397 -0.076644108 0.48000002
-0.1671883 -0.076644108 0.48000002
-0.16593692 -0.076644108 0.48000002
-0.16468552 -0.076644108 0.48000002
-0.16377464 -0.076803781 0.48100004
-0.16252063 -0.076803781 0.48100004
-0.16126664 -0.076803781 0.48100004
-0.16001263 -0.076803781 0.48100004
-0.15875864 -0.076803781 0.48100004
-0.15750465 -0.076803781 0.48100004
-0.15625066 -0.076803781 0.48100004
-0.15499665 -0.076803781 0.48100004
-0.15374266 -0.076803781 0.48100004
-0.15248865 -0.076803781 0.48100004
-0.15123464 -0.076803781 0.48100004
-0.14998066 -0.076803781 0.48100004
-0.14872666 -0.076803781 0.48100004
-0.14747266 -0.076803781 0.48100004
-0.14621866 -0.076803781 0.48100004
-0.14496467 -0.076803781 0.48100004
-0.14371066 -0.076803781 0.48100004
-0.14245668 -0.076803781 0.48100004
-0.14120267 -0.076803781 0.48100004
-0.13994868 -0.076803781 0.48100004
-0.13869467 -0.076803781 0.48100004
-0.13744068 -0.076803781 0.48100004
-0.13590355 -0.076644108 0.48000002
-0.13465215 -0.076644108 0.48000002
-0.13340077 -0.076644108 0.48000002
-0.13214937 -0.076644108 0.48000002
-0.13117069 -0.076803781 0.48100004
-0.12991668 -0.076803781 0.48100004
-0.12866271 -0.076803781 0.48100004
-0.1274087 -0.076803781 0.48100004
-0.12615471 -0.076803781 0.48100004
-0.1249007 -0.076803781 0.48100004
-0.12364671 -0.076803781 0.48100004
-0.12239271 -0.076803781 0.48100004
-0.12113871 -0.076803781 0.48100004
-0.11988471 -0.076803781 0.48100004
-0.11863071 -0.076803781 0.48100004
-0.11737671 -0.076803781 0.48100004
-0.11612272 -0.076803781 0.48100004
-0.11486872 -0.076803781 0.48100004
-0.11385093 -0.076963454 0.48200002
-0.11236073 -0.076803781 0.48100004
-0.11110672 -0.076803781 0.48100004
-0.10985273 -0.076803781 0.48100004
-0.10859873 -0.076803781 0.48100004
-0.10734473 -0.076803781 0.48100004
-0.10609074 -0.076803781 0.48100004
-0.10483674 -0.076803781 0.48100004
-0.10358274 -0.076803781 0.48100004
-0.10232875 -0.076803781 0.48100004
-0.10107475 -0.076803781 0.48100004
-0.099820748 -0.076803781 0.48100004
-0.098566756 -0.076803781 0.48100004
-0.097312756 -0.076803781 0.48100004
-0.096058756 -0.076803781 0.48100004
-0.094804756 -0.076803781 0.48100004
-0.093550757 -0.076803781 0.48100004
-0.092296764 -0.076803781 0.48100004
-0.090853482 -0.076644108 0.48000002
-0.08960209 -0.076644108 0.48000002
-0.088350706 -0.076644108 0.48000002
-0.087099314 -0.076644108 0.48000002
-0.085847922 -0.076644108 0.48000002
-0.08459653 -0.076644108 0.48000002
-0.083345145 -0.076644108 0.48000002
-0.082093753 -0.076644108 0.48000002
-0.080842361 -0.076644108 0.48000002
-0.079590969 -0.076644108 0.48000002
-0.078339577 -0.076644108 0.48000002
-0.077088185 -0.076644108 0.48000002
-0.075836793 -0.076644108 0.48000002
-0.074585408 -0.076644108 0.48000002
-0.073334016 -0.076644108 0.48000002
-0.072082624 -0.076644108 0.48000002
-0.070831232 -0.076644108 0.48000002
-0.069579847 -0.076644108 0.48000002
-0.068328455 -0.076644108 0.48000002
-0.067077063 -0.076644108 0.48000002
-0.065825678 -0.076644108 0.48000002
-0.064574286 -0.076644108 0.48000002
-0.063322894 -0.076644108 0.48000002
-0.062071498 -0.076644108 0.48000002
-0.060820106 -0.076644108 0.48000002
-0.059568722 -0.076644108 0.48000002
-0.05831733 -0.076644108 0.48000002
-0.057065938 -0.076644108 0.48000002
-0.055814546 -0.076644108 0.48000002
-0.054563157 -0.076644108 0.48000002
-0.053311769 -0.076644108 0.48000002
-0.052060377 -0.076644108 0.48000002
-0.050808989 -0.076644108 0.48000002
-0.049557593 -0.076644108 0.48000002
-0.048306204 -0.076644108 0.48000002
-0.047054812 -0.076644108 0.48000002
-0.045803424 -0.076644108 0.48000002
-0.044552032 -0.076644108 0.48000002
-0.043300644 -0.076644108 0.48000002
-0.042049255 -0.076644108 0.48000002
-0.040797859 -0.076644108 0.48000002
-0.039546471 -0.076644108 0.48000002
-0.038295079 -0.076644108 0.48000002
-0.037043691 -0.076644108 0.48000002
-0.035792299 -0.076644108 0.48000002
-0.03454091 -0.076644108 0.48000002
-0.033289514 -0.076644108 0.48000002
-0.032038126 -0.076644108 0.48000002
-0.030786736 -0.076644108 0.48000002
-0.029535346 -0.076644108 0.48000002
-0.028283956 -0.076644108 0.48000002
-0.027032563 -0.076644108 0.48000002
-0.025781173 -0.076644108 0.48000002
-0.024580888 -0.076803781 0.48100004
-0.023326891 -0.076803781 0.48100004
-0.022072893 -0.076803781 0.48100004
-0.020818895 -0.076803781 0.48100004
-0.019564897 -0.076803781 0.48100004
-0.018310899 -0.076803781 0.48100004
-0.017056903 -0.076803781 0.48100004
-0.015802905 -0.076803781 0.48100004
-0.014548906 -0.076803781 0.48100004
-0.013294909 -0.076803781 0.48100004
-0.012040911 -0.076803781 0.48100004
-0.010786914 -0.076803781 0.48100004
-0.0095130969 -0.076644108 0.48000002
-0.0082789175 -0.076803781 0.48100004
-0.0070249201 -0.076803781 0.48100004
-0.0057709226 -0.076803781 0.48100004
-0.0045169252 -0.076803781 0.48100004
-0.0032629275 -0.076803781 0.48100004
-0.0020089296 -0.076803781 0.48100004
-0.000754932 -0.076803781 0.48100004
0.00049906567 -0.076803781 0.48100004
0.0017530634 -0.076803781 0.48100004
0.0030070611 -0.076803781 0.48100004
0.0042610588 -0.076803781 0.48100004
0.0055150567 -0.076803781 0.48100004
0.0067690541 -0.076803781 0.48100004
0.0080230525 -0.076803781 0.48100004
0.0092770495 -0.076803781 0.48100004
0.010531047 -0.076803781 0.48100004
0.011785045 -0.076803781 0.48100004
0.013039042 -0.076803781 0.48100004
0.01429304 -0.076803781 0.48100004
0.015547038 -0.076803781 0.48100004
0.016801035 -0.076803781 0.48100004
0.018055033 -0.076803781 0.48100004
0.019309031 -0.076803781 0.48100004
0.020563029 -0.076803781 0.48100004
0.021817027 -0.076803781 0.48100004
0.023071025 -0.076803781 0.48100004
0.024325021 -0.076803781 0.48100004
0.02552584 -0.076644108 0.48000002
0.026833016 -0.076803781 0.48100004
0.02802862 -0.076644108 0.48000002
0.029280012 -0.076644108 0.48000002
0.030531401 -0.076644108 0.48000002
0.031782795 -0.076644108 0.48000002
0.035964012 -0.060516905 0.37900001
0.036854591 -0.060357232 0.37800002
0.037840061 -0.060357232 0.37800002
0.038825531 -0.060357232 0.37800002
0.039811 -0.060357232 0.37800002
0.04079647 -0.060357232 0.37800002
0.04178194 -0.060357232 0.37800002
0.056573894 -0.076324753 0.47800002
0.057820071 -0.076324753 0.47800002
0.059066247 -0.076324753 0.47800002
0.06031242 -0.076324753 0.47800002
0.061558597 -0.076324753 0.47800002
0.062804773 -0.076324753 0.47800002
0.06405095 -0.076324753 0.47800002
0.06516052 -0.07616508 0.47700003
0.066543303 -0.076324753 0.47800002
0.067789488 -0.076324753 0.47800002
0.069035657 -0.076324753 0.47800002
0.070281833 -0.076324753 0.47800002
0.07152801 -0.076324753 0.47800002
0.072621942 -0.07616508 0.47700003
0.073865511 -0.07616508 0.47700003
0.075109079 -0.07616508 0.47700003
0.076352648 -0.07616508 0.47700003
0.077596217 -0.07616508 0.47700003
0.078839786 -0.07616508 0.47700003
0.080083355 -0.07616508 0.47700003
0.081326924 -0.07616508 0.47700003
0.082743593 -0.076324753 0.47800002
0.083989777 -0.076324753 0.47800002
0.085235953 -0.076324753 0.47800002
0.08648213 -0.076324753 0.47800002
0.087728307 -0.076324753 0.47800002
0.088974483 -0.076324753 0.47800002
0.090031914 -0.07616508 0.47700003
