# .PCD v0.7 - Point Cloud Data file format
VERSION 0.7
FIELDS x y z
SIZE 4 4 4
TYPE F F F
COUNT 1 1 1
WIDTH 1330
HEIGHT 1
VIEWPOINT 0 0 0 1 0 0 0
POINTS 1330
DATA ascii
-0.21348976 -0.042856555 0.48000002
-0.21223837 -0.042856555 0.48000002
-0.21098697 -0.042856555 0.48000002
-0.20973559 -0.042856555 0.48000002
-0.2084842 -0.042856555 0.48000002
-0.20723282 -0.042856555 0.48000002
-0.20641056 -0.042945843 0.48100004
-0.20515656 -0.042945843 0.48100004
-0.20347863 -0.042856555 0.48000002
-0.20222725 -0.042856555 0.48000002
-0.20097585 -0.042856555 0.48000002
-0.19972445 -0.042856555 0.48000002
-0.19847308 -0.042856555 0.48000002
-0.19722168 -0.042856555 0.48000002
-0.1959703 -0.042856555 0.48000002
-0.1947189 -0.042856555 0.48000002
-0.19346751 -0.042856555 0.48000002
-0.19221611 -0.042856555 0.48000002
-0.19096473 -0.042856555 0.48000002
-0.18971334 -0.042856555 0.48000002
-0.18846196 -0.042856555 0.48000002
-0.18721056 -0.042856555 0.48000002
-0.18595918 -0.042856555 0.48000002
-0.18470778 -0.042856555 0.48000002
-0.18345638 -0.042856555 0.48000002
-0.18220499 -0.042856555 0.48000002
-0.18095361 -0.042856555 0.48000002
-0.17970222 -0.042856555 0.48000002
-0.17845082 -0.042856555 0.48000002
-0.17719944 -0.042856555 0.48000002
-0.17594804 -0.042856555 0.48000002
-0.17506061 -0.042945843 0.48100004
-0.17344525 -0.042856555 0.48000002
-0.17219387 -0.042856555 0.48000002
-0.17129862 -0.042945843 0.48100004
-0.17004463 -0.042945843 0.48100004
-0.1684397 -0.042856555 0.48000002
-0.1671883 -0.042856555 0.48000002
-0.16593692 -0.042856555 0.48000002
-0.16468552 -0.042856555 0.48000002
-0.16377464 -0.042945843 0.48100004
-0.16252063 -0.042945843 0.48100004
-0.16126664 -0.042945843 0.48100004
-0.16001263 -0.042945843 0.48100004
-0.15875864 -0.042945843 0.48100004
-0.15750465 -0.042945843 0.48100004
-0.15625066 -0.042945843 0.48100004
-0.15499665 -0.042945843 0.48100004
-0.15374266 -0.042945843 0.48100004
-0.15248865 -0.042945843 0.48100004
-0.15123464 -0.042945843 0.48100004
-0.14998066 -0.042945843 0.48100004
-0.14872666 -0.042945843 0.48100004
-0.14747266 -0.042945843 0.48100004
-0.14621866 -0.042945843 0.48100004
-0.14496467 -0.042945843 0.48100004
-0.14371066 -0.042945843 0.48100004
-0.14245668 -0.042945843 0.48100004
-0.14120267 -0.042945843 0.48100004
-0.13994868 -0.042945843 0.48100004
-0.13869467 -0.042945843 0.48100004
-0.13744068 -0.042945843 0.48100004
-0.13618669 -0.042945843 0.48100004
-0.13493268 -0.042945843 0.48100004
-0.13367869 -0.042945843 0.48100004
-0.13242468 -0.042945843 0.48100004
-0.13117069 -0.042945843 0.48100004
-0.12991668 -0.042945843 0.48100004
-0.12866271 -0.042945843 0.48100004
-0.1274087 -0.042945843 0.48100004
-0.12615471 -0.042945843 0.48100004
-0.1249007 -0.042945843 0.48100004
-0.12364671 -0.042945843 0.48100004
-0.12239271 -0.042945843 0.48100004
-0.12113871 -0.042945843 0.48100004
-0.11988471 -0.042945843 0.48100004
-0.11863071 -0.042945843 0.48100004
-0.11737671 -0.042945843 0.48100004
-0.11612272 -0.042945843 0.48100004
-0.11486872 -0.042945843 0.48100004
-0.11361472 -0.042945843 0.48100004
-0.11236073 -0.042945843 0.48100004
-0.11110672 -0.042945843 0.48100004
-0.10985273 -0.042945843 0.48100004
-0.10859873 -0.042945843 0.48100004
-0.10734473 -0.042945843 0.48100004
-0.10609074 -0.042945843 0.48100004
-0.10483674 -0.042945843 0.48100004
-0.10358274 -0.042945843 0.48100004
-0.10232875 -0.042945843 0.48100004
-0.10107475 -0.042945843 0.48100004
-0.099820748 -0.042945843 0.48100004
-0.098566756 -0.042945843 0.48100004
-0.097312756 -0.042945843 0.48100004
-0.096058756 -0.042945843 0.48100004
-0.094804756 -0.042945843 0.48100004
-0.093550757 -0.042945843 0.48100004
-0.092296764 -0.042945843 0.48100004
-0.091042764 -0.042945843 0.48100004
-0.089788765 -0.042945843 0.48100004
-0.088534772 -0.042945843 0.48100004
-0.087280773 -0.042945843 0.48100004
-0.086026773 -0.042945843 0.48100004
-0.084772781 -0.042945843 0.48100004
-0.083518781 -0.042945843 0.48100004
-0.082264781 -0.042945843 0.48100004
-0.081010789 -0.042945843 0.48100004
-0.079756789 -0.042945843 0.48100004
-0.078502782 -0.042945843 0.48100004
-0.077248789 -0.042945843 0.48100004
-0.07599479 -0.042945843 0.48100004
-0.074740797 -0.042945843 0.48100004
-0.073486798 -0.042945843 0.48100004
-0.072232798 -0.042945843 0.48100004
-0.070978805 -0.042945843 0.48100004
-0.069724806 -0.042945843 0.48100004
-0.068470806 -0.042945843 0.48100004
-0.067216814 -0.042945843 0.48100004
-0.065962814 -0.042945843 0.48100004
-0.064843342 -0.043035123 0.48200002
-0.063586742 -0.043035123 0.48200002
-0.06233013 -0.043035123 0.48200002
-0.061073527 -0.043035123 0.48200002
-0.059816923 -0.043035123 0.48200002
-0.058560319 -0.043035123 0.48200002
-0.057303712 -0.043035123 0.48200002
-0.056047108 -0.043035123 0.48200002
-0.054790504 -0.043035123 0.48200002
-0.053533901 -0.043035123 0.48200002
-0.052277297 -0.043035123 0.48200002
-0.051020693 -0.043035123 0.48200002
-0.049764086 -0.043035123 0.48200002
-0.048507478 -0.043035123 0.48200002
-0.047250874 -0.043035123 0.48200002
-0.045994271 -0.043035123 0.48200002
-0.044737667 -0.043035123 0.48200002
-0.043481063 -0.043035123 0.48200002
-0.042224459 -0.043035123 0.48200002
-0.040967852 -0.043035123 0.48200002
-0.039711248 -0.043035123 0.48200002
-0.038454644 -0.043035123 0.48200002
-0.037198041 -0.043035123 0.48200002
-0.035941433 -0.043035123 0.48200002
-0.034684829 -0.043035123 0.48200002
-0.033428222 -0.043035123 0.48200002
-0.032171618 -0.043035123 0.48200002
-0.030915014 -0.043035123 0.48200002
-0.029658411 -0.043035123 0.48200002
-0.028401807 -0.043035123 0.48200002
-0.027145199 -0.043035123 0.48200002
-0.025888596 -0.043035123 0.48200002
-0.024631992 -0.043035123 0.48200002
-0.023326891 -0.042945843 0.48100004
-0.022072893 -0.042945843 0.48100004
-0.020818895 -0.042945843 0.48100004
-0.019564897 -0.042945843 0.48100004
-0.018310899 -0.042945843 0.48100004
-0.017056903 -0.042945843 0.48100004
-0.015802905 -0.042945843 0.48100004
-0.014548906 -0.042945843 0.48100004
-0.013294909 -0.042945843 0.48100004
-0.012040911 -0.042945843 0.48100004
-0.01080934 -0.043035123 0.48200002
-0.0095527349 -0.043035123 0.48200002
-0.0082961293 -0.043035123 0.48200002
-0.0070395251 -0.043035123 0.48200002
-0.0057829204 -0.043035123 0.48200002
-0.0045263157 -0.043035123 0.48200002
-0.003269711 -0.043035123 0.48200002
-0.0020131061 -0.043035123 0.48200002
-0.000754932 -0.042945843 0.48100004
0.00049906567 -0.042945843 0.48100004
0.0017530634 -0.042945843 0.48100004
0.0030070611 -0.042945843 0.48100004
0.0042610588 -0.042945843 0.48100004
0.0055150567 -0.042945843 0.48100004
0.0067690541 -0.042945843 0.48100004
0.0080230525 -0.042945843 0.48100004
0.0092963362 -0.043035123 0.48200002
0.010552941 -0.043035123 0.48200002
0.011809547 -0.043035123 0.48200002
0.01306615 -0.043035123 0.48200002
0.014322755 -0.043035123 0.48200002
0.01557936 -0.043035123 0.48200002
0.016835963 -0.043035123 0.48200002
0.018092569 -0.043035123 0.48200002
0.019349175 -0.043035123 0.48200002
0.020605778 -0.043035123 0.48200002
0.021862384 -0.043035123 0.48200002
0.023118988 -0.043035123 0.48200002
0.024325021 -0.042945843 0.48100004
0.02557902 -0.042945843 0.48100004
0.03299978 -0.03383882 0.37900001
0.033987857 -0.03383882 0.37900001
0.034975935 -0.03383882 0.37900001
0.035964012 -0.03383882 0.37900001
0.036952086 -0.03383882 0.37900001
0.037940167 -0.03383882 0.37900001
0.038928244 -0.03383882 0.37900001
0.051697116 -0.042767271 0.47900003
0.052945901 -0.042767271 0.47900003
0.054194681 -0.042767271 0.47900003
0.055559214 -0.042856555 0.48000002
0.056810606 -0.042856555 0.48000002
0.058061995 -0.042856555 0.48000002
0.059313387 -0.042856555 0.48000002
0.060690954 -0.042945843 0.48100004
0.06194495 -0.042945843 0.48100004
0.063198946 -0.042945843 0.48100004
0.064452946 -0.042945843 0.48100004
0.065843545 -0.043035123 0.48200002
0.067100152 -0.043035123 0.48200002
0.06835676 -0.043035123 0.48200002
0.069613367 -0.043035123 0.48200002
0.070869967 -0.043035123 0.48200002
0.072126575 -0.043035123 0.48200002
0.073383175 -0.043035123 0.48200002
0.074484929 -0.042945843 0.48100004
0.075738929 -0.042945843 0.48100004
0.076992922 -0.042945843 0.48100004
0.078246921 -0.042945843 0.48100004
0.079500921 -0.042945843 0.48100004
0.080754913 -0.042945843 0.48100004
0.082008913 -0.042945843 0.48100004
0.083262913 -0.042945843 0.48100004
0.084516913 -0.042945843 0.48100004
0.08559259 -0.042856555 0.48000002
0.086843982 -0.042856555 0.48000002
0.088095367 -0.042856555 0.48000002
0.089346759 -0.042856555 0.48000002
0.090598151 -0.042856555 0.48000002
0.091849543 -0.042856555 0.48000002
0.092906974 -0.042767271 0.47900003
0.093959183 -0.042677987 0.47800002
0.09500619 -0.042588703 0.47700003
0.097084552 -0.042410135 0.47500002
0.098322906 -0.042410135 0.47500002
0.099351667 -0.042320851 0.47400004
0.1003752 -0.042231563 0.47300002
0.10117871 -0.042052995 0.47100002
0.10240664 -0.042052995 0.47100002
0.10341453 -0.041963711 0.47000003
0.10441721 -0.041874424 0.46900001
0.10560281 -0.034642383 0.38800001
0.10633957 -0.034553099 0.38700002
0.10707112 -0.034463812 0.38600001
0.10807744 -0.034463812 0.38600001
0.10880117 -0.034374528 0.38500002
0.10951968 -0.034285244 0.384
0.11023298 -0.03419596 0.38300002
0.14241195 -0.043392263 0.48600003
0.14367899 -0.043392263 0.48600003
0.14494601 -0.043392263 0.48600003
0.14621305 -0.043392263 0.48600003
0.14748009 -0.043392263 0.48600003
0.14874712 -0.043392263 0.48600003
0.15001415 -0.043392263 0.48600003
0.15128118 -0.043392263 0.48600003
0.15286209 -0.043481547 0.48700002
0.15413174 -0.043481547 0.48700002
0.15540136 -0.043481547 0.48700002
0.15667102 -0.043481547 0.48700002
0.15794064 -0.043481547 0.48700002
0.15921029 -0.043481547 0.48700002
0.16047995 -0.043481547 0.48700002
0.16174957 -0.043481547 0.48700002
0.16301923 -0.043481547 0.48700002
0.16428885 -0.043481547 0.48700002
0.1655585 -0.043481547 0.48700002
0.1671707 -0.043570831 0.48800004
0.16844295 -0.043570831 0.48800004
0.1697152 -0.043570831 0.48800004
0.17098744 -0.043570831 0.48800004
0.17225969 -0.043570831 0.48800004
0.17353193 -0.043570831 0.48800004
0.17480418 -0.043570831 0.48800004
0.17607643 -0.043570831 0.48800004
0.17734869 -0.043570831 0.48800004
0.17862092 -0.043570831 0.48800004
0.17989318 -0.043570831 0.48800004
0.18116541 -0.043570831 0.48800004
0.18243767 -0.043570831 0.48800004
0.18370992 -0.043570831 0.48800004
0.18498217 -0.043570831 0.48800004
0.18625441 -0.043570831 0.48800004
0.18752666 -0.043570831 0.48800004
0.1887989 -0.043570831 0.48800004
0.19007115 -0.043570831 0.48800004
0.1913434 -0.043570831 0.48800004
0.19261564 -0.043570831 0.48800004
0.1938879 -0.043570831 0.48800004
0.19556005 -0.043660115 0.48900002
0.19683491 -0.043660115 0.48900002
0.19810976 -0.043660115 0.48900002
0.19938461 -0.043660115 0.48900002
0.20065947 -0.043660115 0.48900002
0.20193432 -0.043660115 0.48900002
0.20320918 -0.043660115 0.48900002
0.20448403 -0.043660115 0.48900002
0.20575888 -0.043660115 0.48900002
0.20703374 -0.043660115 0.48900002
0.20830859 -0.043660115 0.48900002
0.20958345 -0.043660115 0.48900002
0.21085832 -0.043660115 0.48900002
0.21169935 -0.043570831 0.48800004
0.2129716 -0.043570831 0.48800004
0.21468286 -0.043660115 0.48900002
0.21551611 -0.043570831 0.48800004
0.21723257 -0.043660115 0.48900002
0.21850742 -0.043660115 0.48900002
0.21978228 -0.043660115 0.48900002
0.22105713 -0.043660115 0.48900002
0.22233199 -0.043660115 0.48900002
0.22360684 -0.043660115 0.48900002
0.22488169 -0.043660115 0.48900002
0.22569408 -0.043570831 0.48800004
0.22696632 -0.043570831 0.48800004
0.22823857 -0.043570831 0.48800004
0.22951081 -0.043570831 0.48800004
-0.26980233 -0.041605167 0.48000002
-0.26855096 -0.041605167 0.48000002
-0.26729956 -0.041605167 0.48000002
-0.26604816 -0.041605167 0.48000002
-0.26479679 -0.041605167 0.48000002
-0.26354536 -0.041605167 0.48000002
-0.26229399 -0.041605167 0.48000002
-0.26104259 -0.041605167 0.48000002
-0.25979123 -0.041605167 0.48000002
-0.25853983 -0.041605167 0.48000002
-0.25675243 -0.041518491 0.47900003
-0.25550365 -0.041518491 0.47900003
-0.25425488 -0.041518491 0.47900003
-0.25300607 -0.041518491 0.47900003
-0.25175729 -0.041518491 0.47900003
-0.25050852 -0.041518491 0.47900003
-0.24925974 -0.041518491 0.47900003
-0.24801093 -0.041518491 0.47900003
-0.24676216 -0.041518491 0.47900003
-0.24551338 -0.041518491 0.47900003
-0.24477452 -0.041605167 0.48000002
-0.24352314 -0.041605167 0.48000002
-0.24227175 -0.041605167 0.48000002
-0.24102037 -0.041605167 0.48000002
-0.23976897 -0.041605167 0.48000002
-0.23851757 -0.041605167 0.48000002
-0.23726618 -0.041605167 0.48000002
-0.23601478 -0.041605167 0.48000002
-0.2352525 -0.041691843 0.48100004
-0.23399851 -0.041691843 0.48100004
-0.2327445 -0.041691843 0.48100004
-0.23149051 -0.041691843 0.48100004
-0.2302365 -0.041691843 0.48100004
-0.22898251 -0.041691843 0.48100004
-0.22772852 -0.041691843 0.48100004
-0.22647452 -0.041691843 0.48100004
-0.22475228 -0.041605167 0.48000002
-0.22350089 -0.041605167 0.48000002
-0.22224949 -0.041605167 0.48000002
-0.22099811 -0.041605167 0.48000002
-0.21974671 -0.041605167 0.48000002
-0.21849532 -0.041605167 0.48000002
-0.21724394 -0.041605167 0.48000002
-0.21599254 -0.041605167 0.48000002
-0.21474116 -0.041605167 0.48000002
-0.21348976 -0.041605167 0.48000002
-0.21223837 -0.041605167 0.48000002
-0.21098697 -0.041605167 0.48000002
-0.20973559 -0.041605167 0.48000002
-0.2084842 -0.041605167 0.48000002
-0.20723282 -0.041605167 0.48000002
-0.20598142 -0.041605167 0.48000002
-0.20473003 -0.041605167 0.48000002
-0.20347863 -0.041605167 0.48000002
-0.20222725 -0.041605167 0.48000002
-0.20097585 -0.041605167 0.48000002
-0.19972445 -0.041605167 0.48000002
-0.19847308 -0.041605167 0.48000002
-0.19722168 -0.041605167 0.48000002
-0.1959703 -0.041605167 0.48000002
-0.1947189 -0.041605167 0.48000002
-0.19346751 -0.041605167 0.48000002
-0.19221611 -0.041605167 0.48000002
-0.19096473 -0.041605167 0.48000002
-0.18971334 -0.041605167 0.48000002
-0.18846196 -0.041605167 0.48000002
-0.18721056 -0.041605167 0.48000002
-0.18595918 -0.041605167 0.48000002
-0.18470778 -0.041605167 0.48000002
-0.18345638 -0.041605167 0.48000002
-0.18220499 -0.041605167 0.48000002
-0.18095361 -0.041605167 0.48000002
-0.17970222 -0.041605167 0.48000002
-0.17845082 -0.041605167 0.48000002
-0.17719944 -0.041605167 0.48000002
-0.17594804 -0.041605167 0.48000002
-0.17469665 -0.041605167 0.48000002
-0.17344525 -0.041605167 0.48000002
-0.17219387 -0.041605167 0.48000002
-0.17094249 -0.041605167 0.48000002
-0.1696911 -0.041605167 0.48000002
-0.1684397 -0.041605167 0.48000002
-0.1671883 -0.041605167 0.48000002
-0.16593692 -0.041605167 0.48000002
-0.16468552 -0.041605167 0.48000002
-0.16343413 -0.041605167 0.48000002
-0.16252063 -0.041691843 0.48100004
-0.16126664 -0.041691843 0.48100004
-0.16001263 -0.041691843 0.48100004
-0.15875864 -0.041691843 0.48100004
-0.15750465 -0.041691843 0.48100004
-0.15625066 -0.041691843 0.48100004
-0.15499665 -0.041691843 0.48100004
-0.15374266 -0.041691843 0.48100004
-0.15248865 -0.041691843 0.48100004
-0.15123464 -0.041691843 0.48100004
-0.14998066 -0.041691843 0.48100004
-0.14872666 -0.041691843 0.48100004
-0.14747266 -0.041691843 0.48100004
-0.14621866 -0.041691843 0.48100004
-0.14496467 -0.041691843 0.48100004
-0.14371066 -0.041691843 0.48100004
-0.14245668 -0.041691843 0.48100004
-0.14120267 -0.041691843 0.48100004
-0.13994868 -0.041691843 0.48100004
-0.13869467 -0.041691843 0.48100004
-0.13744068 -0.041691843 0.48100004
-0.13618669 -0.041691843 0.48100004
-0.1352132 -0.04177852 0.48200002
-0.1339566 -0.04177852 0.48200002
-0.1327 -0.04177852 0.48200002
-0.1314434 -0.04177852 0.48200002
-0.12991668 -0.041691843 0.48100004
-0.12866271 -0.041691843 0.48100004
-0.1274087 -0.041691843 0.48100004
-0.12615471 -0.041691843 0.48100004
-0.1249007 -0.041691843 0.48100004
-0.12364671 -0.041691843 0.48100004
-0.12239271 -0.041691843 0.48100004
-0.12113871 -0.041691843 0.48100004
-0.11988471 -0.041691843 0.48100004
-0.11863071 -0.041691843 0.48100004
-0.11737671 -0.041691843 0.48100004
-0.11612272 -0.041691843 0.48100004
-0.11486872 -0.041691843 0.48100004
-0.11361472 -0.041691843 0.48100004
-0.11236073 -0.041691843 0.48100004
-0.11110672 -0.041691843 0.48100004
-0.10985273 -0.041691843 0.48100004
-0.10859873 -0.041691843 0.48100004
-0.10734473 -0.041691843 0.48100004
-0.10609074 -0.041691843 0.48100004
-0.10483674 -0.041691843 0.48100004
-0.10358274 -0.041691843 0.48100004
-0.10232875 -0.041691843 0.48100004
-0.10107475 -0.041691843 0.48100004
-0.10002828 -0.04177852 0.48200002
-0.098771669 -0.04177852 0.48200002
-0.097312756 -0.041691843 0.48100004
-0.096258461 -0.04177852 0.48200002
-0.095001854 -0.04177852 0.48200002
-0.093550757 -0.041691843 0.48100004
-0.092296764 -0.041691843 0.48100004
-0.091042764 -0.041691843 0.48100004
-0.089788765 -0.041691843 0.48100004
-0.088534772 -0.041691843 0.48100004
-0.087280773 -0.041691843 0.48100004
-0.086026773 -0.041691843 0.48100004
-0.084772781 -0.041691843 0.48100004
-0.083518781 -0.041691843 0.48100004
-0.082264781 -0.041691843 0.48100004
-0.081010789 -0.041691843 0.48100004
-0.079756789 -0.041691843 0.48100004
-0.078502782 -0.041691843 0.48100004
-0.077248789 -0.041691843 0.48100004
-0.07599479 -0.041691843 0.48100004
-0.074740797 -0.041691843 0.48100004
-0.073486798 -0.041691843 0.48100004
-0.072232798 -0.041691843 0.48100004
-0.070978805 -0.041691843 0.48100004
-0.069724806 -0.041691843 0.48100004
-0.068470806 -0.041691843 0.48100004
-0.067216814 -0.041691843 0.48100004
-0.065962814 -0.041691843 0.48100004
-0.064708814 -0.041691843 0.48100004
-0.063454822 -0.041691843 0.48100004
-0.062200814 -0.041691843 0.48100004
-0.061073527 -0.04177852 0.48200002
-0.059816923 -0.04177852 0.48200002
-0.058560319 -0.04177852 0.48200002
-0.057303712 -0.04177852 0.48200002
-0.056047108 -0.04177852 0.48200002
-0.054790504 -0.04177852 0.48200002
-0.053533901 -0.04177852 0.48200002
-0.052277297 -0.04177852 0.48200002
-0.051020693 -0.04177852 0.48200002
-0.049764086 -0.04177852 0.48200002
-0.048507478 -0.04177852 0.48200002
-0.047250874 -0.04177852 0.48200002
-0.045994271 -0.04177852 0.48200002
-0.044737667 -0.04177852 0.48200002
-0.043481063 -0.04177852 0.48200002
-0.042224459 -0.04177852 0.48200002
-0.040967852 -0.04177852 0.48200002
-0.039711248 -0.04177852 0.48200002
-0.038454644 -0.04177852 0.48200002
-0.037198041 -0.04177852 0.48200002
-0.035941433 -0.04177852 0.48200002
-0.034684829 -0.04177852 0.48200002
-0.033428222 -0.04177852 0.48200002
-0.032171618 -0.04177852 0.48200002
-0.030915014 -0.04177852 0.48200002
-0.029658411 -0.04177852 0.48200002
-0.028401807 -0.04177852 0.48200002
-0.027145199 -0.04177852 0.48200002
-0.025888596 -0.04177852 0.48200002
-0.024631992 -0.04177852 0.48200002
-0.023326891 -0.041691843 0.48100004
-0.022072893 -0.041691843 0.48100004
-0.020818895 -0.041691843 0.48100004
-0.019564897 -0.041691843 0.48100004
-0.018310899 -0.041691843 0.48100004
-0.017056903 -0.041691843 0.48100004
-0.015802905 -0.041691843 0.48100004
-0.014548906 -0.041691843 0.48100004
-0.013294909 -0.041691843 0.48100004
-0.012040911 -0.041691843 0.48100004
-0.010786914 -0.041691843 0.48100004
-0.0095527349 -0.04177852 0.48200002
-0.0082961293 -0.04177852 0.48200002
-0.0070395251 -0.04177852 0.48200002
-0.0057829204 -0.04177852 0.48200002
-0.0045263157 -0.04177852 0.48200002
-0.003269711 -0.04177852 0.48200002
-0.0020131061 -0.04177852 0.48200002
-0.000754932 -0.041691843 0.48100004
0.00049906567 -0.041691843 0.48100004
0.0017530634 -0.041691843 0.48100004
0.0030070611 -0.041691843 0.48100004
0.0042610588 -0.041691843 0.48100004
0.0055150567 -0.041691843 0.48100004
0.0067690541 -0.041691843 0.48100004
0.0080230525 -0.041691843 0.48100004
0.0092963362 -0.04177852 0.48200002
0.010552941 -0.04177852 0.48200002
0.011809547 -0.04177852 0.48200002
0.01306615 -0.04177852 0.48200002
0.014322755 -0.04177852 0.48200002
0.01557936 -0.04177852 0.48200002
0.016835963 -0.04177852 0.48200002
0.018092569 -0.04177852 0.48200002
0.019349175 -0.04177852 0.48200002
0.020605778 -0.04177852 0.48200002
0.021862384 -0.04177852 0.48200002
0.023071025 -0.041691843 0.48100004
0.024325021 -0.041691843 0.48100004
0.02557902 -0.041691843 0.48100004
0.026833016 -0.041691843 0.48100004
0.033987857 -0.032850746 0.37900001
0.034975935 -0.032850746 0.37900001
0.035964012 -0.032850746 0.37900001
0.036952086 -0.032850746 0.37900001
0.037940167 -0.032850746 0.37900001
0.038825531 -0.03276407 0.37800002
0.051697116 -0.041518491 0.47900003
0.052945901 -0.041518491 0.47900003
0.054194681 -0.041518491 0.47900003
0.055559214 -0.041605167 0.48000002
0.056810606 -0.041605167 0.48000002
0.058061995 -0.041605167 0.48000002
0.059313387 -0.041605167 0.48000002
0.060564775 -0.041605167 0.48000002
0.061816167 -0.041605167 0.48000002
0.063198946 -0.041691843 0.48100004
0.064452946 -0.041691843 0.48100004
0.065706946 -0.041691843 0.48100004
0.067100152 -0.04177852 0.48200002
0.068214945 -0.041691843 0.48100004
0.069468938 -0.041691843 0.48100004
0.070722938 -0.041691843 0.48100004
0.071976937 -0.041691843 0.48100004
0.07323093 -0.041691843 0.48100004
0.074484929 -0.041691843 0.48100004
0.075738929 -0.041691843 0.48100004
0.076992922 -0.041691843 0.48100004
0.078246921 -0.041691843 0.48100004
0.079500921 -0.041691843 0.48100004
0.080754913 -0.041691843 0.48100004
0.082008913 -0.041691843 0.48100004
0.083262913 -0.041691843 0.48100004
0.084516913 -0.041691843 0.48100004
0.085770912 -0.041691843 0.48100004
0.087024905 -0.041691843 0.48100004
0.088095367 -0.041605167 0.48000002
0.089346759 -0.041605167 0.48000002
0.090598151 -0.041605167 0.48000002
0.091849543 -0.041605167 0.48000002
0.092713006 -0.041431811 0.47800002
0.093959183 -0.041431811 0.47800002
0.09500619 -0.041345134 0.47700003
0.096047975 -0.041258454 0.47600001
0.097084552 -0.041171778 0.47500002
0.098115914 -0.041085102 0.47400004
0.099351667 -0.041085102 0.47400004
0.1003752 -0.040998425 0.47300002
0.10117871 -0.040825069 0.47100002
0.10218921 -0.040738393 0.47000003
0.10341453 -0.040738393 0.47000003
0.10486083 -0.033717521 0.38900003
0.10587499 -0.033717521 0.38900003
0.10633957 -0.033544164 0.38700002
0.10707112 -0.033457488 0.38600001
0.10807744 -0.033457488 0.38600001
0.10880117 -0.033370811 0.38500002
0.10951968 -0.033284131 0.384
0.11052079 -0.033284131 0.384
0.14241195 -0.042125233 0.48600003
0.14367899 -0.042125233 0.48600003
0.14494601 -0.042125233 0.48600003
0.14621305 -0.042125233 0.48600003
0.14748009 -0.042125233 0.48600003
0.14874712 -0.042125233 0.48600003
0.15032281 -0.042211909 0.48700002
0.15159246 -0.042211909 0.48700002
0.15286209 -0.042211909 0.48700002
0.15413174 -0.042211909 0.48700002
0.15540136 -0.042211909 0.48700002
0.15667102 -0.042211909 0.48700002
0.15794064 -0.042211909 0.48700002
0.15921029 -0.042211909 0.48700002
0.16047995 -0.042211909 0.48700002
0.16174957 -0.042211909 0.48700002
0.16301923 -0.042211909 0.48700002
0.16428885 -0.042211909 0.48700002
0.16589846 -0.042298585 0.48800004
0.1671707 -0.042298585 0.48800004
0.16844295 -0.042298585 0.48800004
0.1697152 -0.042298585 0.48800004
0.17098744 -0.042298585 0.48800004
0.17225969 -0.042298585 0.48800004
0.17353193 -0.042298585 0.48800004
0.17516237 -0.042385262 0.48900002
0.17643724 -0.042385262 0.48900002
0.17734869 -0.042298585 0.48800004
0.17862092 -0.042298585 0.48800004
0.17989318 -0.042298585 0.48800004
0.18116541 -0.042298585 0.48800004
0.18243767 -0.042298585 0.48800004
0.18370992 -0.042298585 0.48800004
0.18498217 -0.042298585 0.48800004
0.18625441 -0.042298585 0.48800004
0.18752666 -0.042298585 0.48800004
0.1887989 -0.042298585 0.48800004
0.19007115 -0.042298585 0.48800004
0.1913434 -0.042298585 0.48800004
0.19261564 -0.042298585 0.48800004
0.1938879 -0.042298585 0.48800004
0.19516014 -0.042298585 0.48800004
0.1964324 -0.042298585 0.48800004
0.19810976 -0.042385262 0.48900002
0.19938461 -0.042385262 0.48900002
0.20065947 -0.042385262 0.48900002
0.20193432 -0.042385262 0.48900002
0.20320918 -0.042385262 0.48900002
0.20448403 -0.042385262 0.48900002
0.20575888 -0.042385262 0.48900002
0.20703374 -0.042385262 0.48900002
0.20830859 -0.042385262 0.48900002
0.20958345 -0.042385262 0.48900002
0.21085832 -0.042385262 0.48900002
0.21213315 -0.042385262 0.48900002
0.2129716 -0.042298585 0.48800004
0.21468286 -0.042385262 0.48900002
0.21551611 -0.042298585 0.48800004
0.21723257 -0.042385262 0.48900002
0.21850742 -0.042385262 0.48900002
0.21978228 -0.042385262 0.48900002
0.22105713 -0.042385262 0.48900002
0.22233199 -0.042385262 0.48900002
0.22360684 -0.042385262 0.48900002
0.22488169 -0.042385262 0.48900002
0.22569408 -0.042298585 0.48800004
0.22696632 -0.042298585 0.48800004
0.22823857 -0.042298585 0.48800004
0.22951081 -0.042298585 0.48800004
-0.26980233 -0.040353775 0.48000002
-0.26855096 -0.040353775 0.48000002
-0.26729956 -0.040353775 0.48000002
-0.26604816 -0.040353775 0.48000002
-0.26479679 -0.040353775 0.48000002
-0.26354536 -0.040353775 0.48000002
-0.26229399 -0.040353775 0.48000002
-0.26104259 -0.040353775 0.48000002
-0.25979123 -0.040353775 0.48000002
-0.25853983 -0.040353775 0.48000002
-0.25675243 -0.040269706 0.47900003
-0.25550365 -0.040269706 0.47900003
-0.25425488 -0.040269706 0.47900003
-0.25300607 -0.040269706 0.47900003
-0.25175729 -0.040269706 0.47900003
-0.25050852 -0.040269706 0.47900003
-0.24925974 -0.040269706 0.47900003
-0.24801093 -0.040269706 0.47900003
-0.24676216 -0.040269706 0.47900003
-0.24551338 -0.040269706 0.47900003
-0.24477452 -0.040353775 0.48000002
-0.24352314 -0.040353775 0.48000002
-0.24227175 -0.040353775 0.48000002
-0.24102037 -0.040353775 0.48000002
-0.23976897 -0.040353775 0.48000002
-0.23851757 -0.040353775 0.48000002
-0.23726618 -0.040353775 0.48000002
-0.23601478 -0.040353775 0.48000002
-0.23476341 -0.040353775 0.48000002
-0.23351201 -0.040353775 0.48000002
-0.2327445 -0.040437847 0.48100004
-0.23149051 -0.040437847 0.48100004
-0.2302365 -0.040437847 0.48100004
-0.22898251 -0.040437847 0.48100004
-0.22772852 -0.040437847 0.48100004
-0.22647452 -0.040437847 0.48100004
-0.22475228 -0.040353775 0.48000002
-0.22350089 -0.040353775 0.48000002
-0.22224949 -0.040353775 0.48000002
-0.22099811 -0.040353775 0.48000002
-0.21974671 -0.040353775 0.48000002
-0.21849532 -0.040353775 0.48000002
-0.21724394 -0.040353775 0.48000002
-0.21599254 -0.040353775 0.48000002
-0.21474116 -0.040353775 0.48000002
-0.21348976 -0.040353775 0.48000002
-0.21223837 -0.040353775 0.48000002
-0.21098697 -0.040353775 0.48000002
-0.20973559 -0.040353775 0.48000002
-0.2084842 -0.040353775 0.48000002
-0.20723282 -0.040353775 0.48000002
-0.20641056 -0.040437847 0.48100004
-0.20515656 -0.040437847 0.48100004
-0.20390256 -0.040437847 0.48100004
-0.20222725 -0.040353775 0.48000002
-0.20097585 -0.040353775 0.48000002
-0.19972445 -0.040353775 0.48000002
-0.19847308 -0.040353775 0.48000002
-0.19722168 -0.040353775 0.48000002
-0.1959703 -0.040353775 0.48000002
-0.1947189 -0.040353775 0.48000002
-0.19346751 -0.040353775 0.48000002
-0.19221611 -0.040353775 0.48000002
-0.19096473 -0.040353775 0.48000002
-0.18971334 -0.040353775 0.48000002
-0.18846196 -0.040353775 0.48000002
-0.18721056 -0.040353775 0.48000002
-0.18595918 -0.040353775 0.48000002
-0.18470778 -0.040353775 0.48000002
-0.18345638 -0.040353775 0.48000002
-0.18220499 -0.040353775 0.48000002
-0.18095361 -0.040353775 0.48000002
-0.17970222 -0.040353775 0.48000002
-0.17845082 -0.040353775 0.48000002
-0.17719944 -0.040353775 0.48000002
-0.17594804 -0.040353775 0.48000002
-0.17469665 -0.040353775 0.48000002
-0.17344525 -0.040353775 0.48000002
-0.17219387 -0.040353775 0.48000002
-0.17094249 -0.040353775 0.48000002
-0.1696911 -0.040353775 0.48000002
-0.1684397 -0.040353775 0.48000002
-0.1671883 -0.040353775 0.48000002
-0.16593692 -0.040353775 0.48000002
-0.16468552 -0.040353775 0.48000002
-0.16343413 -0.040353775 0.48000002
-0.16218275 -0.040353775 0.48000002
-0.16126664 -0.040437847 0.48100004
-0.16001263 -0.040437847 0.48100004
-0.15875864 -0.040437847 0.48100004
-0.15750465 -0.040437847 0.48100004
-0.15625066 -0.040437847 0.48100004
-0.15499665 -0.040437847 0.48100004
-0.15374266 -0.040437847 0.48100004
-0.15248865 -0.040437847 0.48100004
-0.15123464 -0.040437847 0.48100004
-0.14998066 -0.040437847 0.48100004
-0.14872666 -0.040437847 0.48100004
-0.14747266 -0.040437847 0.48100004
-0.14621866 -0.040437847 0.48100004
-0.14496467 -0.040437847 0.48100004
-0.14371066 -0.040437847 0.48100004
-0.14245668 -0.040437847 0.48100004
-0.14120267 -0.040437847 0.48100004
-0.13994868 -0.040437847 0.48100004
-0.13869467 -0.040437847 0.48100004
-0.13744068 -0.040437847 0.48100004
-0.13618669 -0.040437847 0.48100004
-0.1352132 -0.040521916 0.48200002
-0.1339566 -0.040521916 0.48200002
-0.1327 -0.040521916 0.48200002
-0.1314434 -0.040521916 0.48200002
-0.13018678 -0.040521916 0.48200002
-0.12866271 -0.040437847 0.48100004
-0.1274087 -0.040437847 0.48100004
-0.12615471 -0.040437847 0.48100004
-0.1249007 -0.040437847 0.48100004
-0.12364671 -0.040437847 0.48100004
-0.12239271 -0.040437847 0.48100004
-0.12113871 -0.040437847 0.48100004
-0.11988471 -0.040437847 0.48100004
-0.11863071 -0.040437847 0.48100004
-0.11737671 -0.040437847 0.48100004
-0.11612272 -0.040437847 0.48100004
-0.11486872 -0.040437847 0.48100004
-0.11361472 -0.040437847 0.48100004
-0.11236073 -0.040437847 0.48100004
-0.11110672 -0.040437847 0.48100004
-0.10985273 -0.040437847 0.48100004
-0.10859873 -0.040437847 0.48100004
-0.10734473 -0.040437847 0.48100004
-0.10609074 -0.040437847 0.48100004
-0.10483674 -0.040437847 0.48100004
-0.10379809 -0.040521916 0.48200002
-0.10254148 -0.040521916 0.48200002
-0.10128488 -0.040521916 0.48200002
-0.10002828 -0.040521916 0.48200002
-0.098771669 -0.040521916 0.48200002
-0.097515069 -0.040521916 0.48200002
-0.096258461 -0.040521916 0.48200002
-0.095001854 -0.040521916 0.48200002
-0.093745247 -0.040521916 0.48200002
-0.092296764 -0.040437847 0.48100004
-0.091042764 -0.040437847 0.48100004
-0.089788765 -0.040437847 0.48100004
-0.088534772 -0.040437847 0.48100004
-0.087280773 -0.040437847 0.48100004
-0.086026773 -0.040437847 0.48100004
-0.084772781 -0.040437847 0.48100004
-0.083518781 -0.040437847 0.48100004
-0.082264781 -0.040437847 0.48100004
-0.081010789 -0.040437847 0.48100004
-0.079756789 -0.040437847 0.48100004
-0.078502782 -0.040437847 0.48100004
-0.077248789 -0.040437847 0.48100004
-0.07599479 -0.040437847 0.48100004
-0.074740797 -0.040437847 0.48100004
-0.073486798 -0.040437847 0.48100004
-0.072232798 -0.040437847 0.48100004
-0.070978805 -0.040437847 0.48100004
-0.069724806 -0.040437847 0.48100004
-0.068470806 -0.040437847 0.48100004
-0.067216814 -0.040437847 0.48100004
-0.065962814 -0.040437847 0.48100004
-0.064708814 -0.040437847 0.48100004
-0.063454822 -0.040437847 0.48100004
-0.062200814 -0.040437847 0.48100004
-0.061073527 -0.040521916 0.48200002
-0.059816923 -0.040521916 0.48200002
-0.058560319 -0.040521916 0.48200002
-0.057303712 -0.040521916 0.48200002
-0.056047108 -0.040521916 0.48200002
-0.054790504 -0.040521916 0.48200002
-0.053533901 -0.040521916 0.48200002
-0.052277297 -0.040521916 0.48200002
-0.051020693 -0.040521916 0.48200002
-0.049764086 -0.040521916 0.48200002
-0.048507478 -0.040521916 0.48200002
-0.047250874 -0.040521916 0.48200002
-0.045994271 -0.040521916 0.48200002
-0.044737667 -0.040521916 0.48200002
-0.043481063 -0.040521916 0.48200002
-0.042224459 -0.040521916 0.48200002
-0.040967852 -0.040521916 0.48200002
-0.039711248 -0.040521916 0.48200002
-0.038454644 -0.040521916 0.48200002
-0.037198041 -0.040521916 0.48200002
-0.035941433 -0.040521916 0.48200002
-0.034684829 -0.040521916 0.48200002
-0.033428222 -0.040521916 0.48200002
-0.032171618 -0.040521916 0.48200002
-0.030915014 -0.040521916 0.48200002
-0.029658411 -0.040521916 0.48200002
-0.028401807 -0.040521916 0.48200002
-0.027145199 -0.040521916 0.48200002
-0.025888596 -0.040521916 0.48200002
-0.024631992 -0.040521916 0.48200002
-0.023326891 -0.040437847 0.48100004
-0.022072893 -0.040437847 0.48100004
-0.020818895 -0.040437847 0.48100004
-0.019564897 -0.040437847 0.48100004
-0.018310899 -0.040437847 0.48100004
-0.017056903 -0.040437847 0.48100004
-0.015802905 -0.040437847 0.48100004
-0.014548906 -0.040437847 0.48100004
-0.013294909 -0.040437847 0.48100004
-0.012040911 -0.040437847 0.48100004
-0.010786914 -0.040437847 0.48100004
-0.0095527349 -0.040521916 0.48200002
-0.0082961293 -0.040521916 0.48200002
-0.0070395251 -0.040521916 0.48200002
-0.0057829204 -0.040521916 0.48200002
-0.0045263157 -0.040521916 0.48200002
-0.003269711 -0.040521916 0.48200002
-0.0020089296 -0.040437847 0.48100004
-0.000754932 -0.040437847 0.48100004
0.00049906567 -0.040437847 0.48100004
0.0017530634 -0.040437847 0.48100004
0.0030070611 -0.040437847 0.48100004
0.0042610588 -0.040437847 0.48100004
0.0055150567 -0.040437847 0.48100004
0.0067690541 -0.040437847 0.48100004
0.0080230525 -0.040437847 0.48100004
0.0092963362 -0.040521916 0.48200002
0.010552941 -0.040521916 0.48200002
0.011809547 -0.040521916 0.48200002
0.01306615 -0.040521916 0.48200002
0.014322755 -0.040521916 0.48200002
0.01557936 -0.040521916 0.48200002
0.016835963 -0.040521916 0.48200002
0.018092569 -0.040521916 0.48200002
0.019349175 -0.040521916 0.48200002
0.020563029 -0.040437847 0.48100004
0.021817027 -0.040437847 0.48100004
0.023071025 -0.040437847 0.48100004
0.024325021 -0.040437847 0.48100004
0.02557902 -0.040437847 0.48100004
0.026833016 -0.040437847 0.48100004
0.033987857 -0.031862669 0.37900001
0.034975935 -0.031862669 0.37900001
0.035964012 -0.031862669 0.37900001
0.036952086 -0.031862669 0.37900001
0.037840061 -0.0317786 0.37800002
0.051697116 -0.040269706 0.47900003
0.05305643 -0.040353775 0.48000002
0.054194681 -0.040269706 0.47900003
0.055559214 -0.040353775 0.48000002
0.056810606 -0.040353775 0.48000002
0.058061995 -0.040353775 0.48000002
0.059313387 -0.040353775 0.48000002
0.060564775 -0.040353775 0.48000002
0.06194495 -0.040437847 0.48100004
0.063198946 -0.040437847 0.48100004
0.064452946 -0.040437847 0.48100004
0.065706946 -0.040437847 0.48100004
0.066960938 -0.040437847 0.48100004
0.068214945 -0.040437847 0.48100004
0.069468938 -0.040437847 0.48100004
0.070722938 -0.040437847 0.48100004
0.071976937 -0.040437847 0.48100004
0.07323093 -0.040437847 0.48100004
0.074484929 -0.040437847 0.48100004
0.075738929 -0.040437847 0.48100004
0.076832853 -0.040353775 0.48000002
0.078084245 -0.040353775 0.48000002
0.07933563 -0.040353775 0.48000002
0.080587022 -0.040353775 0.48000002
0.081838414 -0.040353775 0.48000002
0.083262913 -0.040437847 0.48100004
0.084516913 -0.040437847 0.48100004
0.08559259 -0.040353775 0.48000002
0.086843982 -0.040353775 0.48000002
0.088095367 -0.040353775 0.48000002
0.089346759 -0.040353775 0.48000002
0.090409406 -0.040269706 0.47900003
0.09165819 -0.040269706 0.47900003
0.092713006 -0.040185634 0.47800002
0.093762621 -0.040101565 0.47700003
0.09500619 -0.040101565 0.47700003
0.096047975 -0.040017493 0.47600001
0.09688016 -0.039849356 0.47400004
0.098115914 -0.039849356 0.47400004
0.09914206 -0.039765283 0.47300002
0.10016299 -0.039681215 0.47200003
0.10218921 -0.039513074 0.47000003
0.1031945 -0.039429002 0.46900001
0.10419457 -0.039344933 0.46800002
0.10518943 -0.039260861 0.46700001
0.1051304 -0.032787442 0.39000002
0.10587499 -0.032703374 0.38900003
0.10661434 -0.032619301 0.38800001
0.10734851 -0.032535233 0.38700002
0.10807744 -0.03245116 0.38600001
0.10880117 -0.032367092 0.38500002
0.10951968 -0.032283019 0.384
0.11052079 -0.032283019 0.384
0.14241195 -0.040858198 0.48600003
0.14367899 -0.040858198 0.48600003
0.14494601 -0.040858198 0.48600003
0.14621305 -0.040858198 0.48600003
0.14778353 -0.040942267 0.48700002
0.14905317 -0.040942267 0.48700002
0.15032281 -0.040942267 0.48700002
0.15159246 -0.040942267 0.48700002
0.15286209 -0.040942267 0.48700002
0.15413174 -0.040942267 0.48700002
0.15540136 -0.040942267 0.48700002
0.15667102 -0.040942267 0.48700002
0.15794064 -0.040942267 0.48700002
0.15921029 -0.040942267 0.48700002
0.16047995 -0.040942267 0.48700002
0.16174957 -0.040942267 0.48700002
0.16301923 -0.040942267 0.48700002
0.16428885 -0.040942267 0.48700002
0.16589846 -0.041026339 0.48800004
0.1671707 -0.041026339 0.48800004
0.16844295 -0.041026339 0.48800004
0.1697152 -0.041026339 0.48800004
0.17098744 -0.041026339 0.48800004
0.17225969 -0.041026339 0.48800004
0.17353193 -0.041026339 0.48800004
0.17516237 -0.041110408 0.48900002
0.17643724 -0.041110408 0.48900002
0.17734869 -0.041026339 0.48800004
0.17862092 -0.041026339 0.48800004
0.17989318 -0.041026339 0.48800004
0.18116541 -0.041026339 0.48800004
0.18243767 -0.041026339 0.48800004
0.18370992 -0.041026339 0.48800004
0.18498217 -0.041026339 0.48800004
0.18625441 -0.041026339 0.48800004
0.18752666 -0.041026339 0.48800004
0.1887989 -0.041026339 0.48800004
0.19007115 -0.041026339 0.48800004
0.1913434 -0.041026339 0.48800004
0.19261564 -0.041026339 0.48800004
0.1938879 -0.041026339 0.48800004
0.19556005 -0.041110408 0.48900002
0.19683491 -0.041110408 0.48900002
0.19810976 -0.041110408 0.48900002
0.19938461 -0.041110408 0.48900002
0.20065947 -0.041110408 0.48900002
0.20193432 -0.041110408 0.48900002
0.20320918 -0.041110408 0.48900002
0.20448403 -0.041110408 0.48900002
0.20575888 -0.041110408 0.48900002
0.20703374 -0.041110408 0.48900002
0.20830859 -0.041110408 0.48900002
0.20958345 -0.041110408 0.48900002
0.21085832 -0.041110408 0.48900002
0.21213315 -0.041110408 0.48900002
0.21340802 -0.041110408 0.48900002
0.21468286 -0.041110408 0.48900002
0.21551611 -0.041026339 0.48800004
0.21723257 -0.041110408 0.48900002
0.21850742 -0.041110408 0.48900002
0.21978228 -0.041110408 0.48900002
0.22105713 -0.041110408 0.48900002
0.22233199 -0.041110408 0.48900002
0.22360684 -0.041110408 0.48900002
0.22488169 -0.041110408 0.48900002
0.22615655 -0.041110408 0.48900002
0.22696632 -0.041026339 0.48800004
0.22823857 -0.041026339 0.48800004
0.22951081 -0.041026339 0.48800004
-0.26980233 -0.039102387 0.48000002
-0.26855096 -0.039102387 0.48000002
-0.26729956 -0.039102387 0.48000002
-0.26604816 -0.039102387 0.48000002
-0.26479679 -0.039102387 0.48000002
-0.26354536 -0.039102387 0.48000002
-0.26229399 -0.039102387 0.48000002
-0.26104259 -0.039102387 0.48000002
-0.25979123 -0.039102387 0.48000002
-0.25800118 -0.039020922 0.47900003
-0.25675243 -0.039020922 0.47900003
-0.25550365 -0.039020922 0.47900003
-0.25425488 -0.039020922 0.47900003
-0.25300607 -0.039020922 0.47900003
-0.25175729 -0.039020922 0.47900003
-0.25050852 -0.039020922 0.47900003
-0.24925974 -0.039020922 0.47900003
-0.24801093 -0.039020922 0.47900003
-0.24676216 -0.039020922 0.47900003
-0.24551338 -0.039020922 0.47900003
-0.24477452 -0.039102387 0.48000002
-0.24352314 -0.039102387 0.48000002
-0.24227175 -0.039102387 0.48000002
-0.24102037 -0.039102387 0.48000002
-0.23976897 -0.039102387 0.48000002
-0.23851757 -0.039102387 0.48000002
-0.23726618 -0.039102387 0.48000002
-0.23601478 -0.039102387 0.48000002
-0.23476341 -0.039102387 0.48000002
-0.23351201 -0.039102387 0.48000002
-0.2327445 -0.039183851 0.48100004
-0.23149051 -0.039183851 0.48100004
-0.2302365 -0.039183851 0.48100004
-0.22898251 -0.039183851 0.48100004
-0.22772852 -0.039183851 0.48100004
-0.22647452 -0.039183851 0.48100004
-0.22475228 -0.039102387 0.48000002
-0.22350089 -0.039102387 0.48000002
-0.22224949 -0.039102387 0.48000002
-0.22099811 -0.039102387 0.48000002
-0.21974671 -0.039102387 0.48000002
-0.21849532 -0.039102387 0.48000002
-0.21724394 -0.039102387 0.48000002
-0.21599254 -0.039102387 0.48000002
-0.21474116 -0.039102387 0.48000002
-0.21348976 -0.039102387 0.48000002
-0.21223837 -0.039102387 0.48000002
-0.21098697 -0.039102387 0.48000002
-0.20973559 -0.039102387 0.48000002
-0.2084842 -0.039102387 0.48000002
-0.20766455 -0.039183851 0.48100004
-0.20641056 -0.039183851 0.48100004
-0.20515656 -0.039183851 0.48100004
-0.20390256 -0.039183851 0.48100004
-0.20264857 -0.039183851 0.48100004
-0.20139456 -0.039183851 0.48100004
-0.19972445 -0.039102387 0.48000002
-0.19847308 -0.039102387 0.48000002
-0.19722168 -0.039102387 0.48000002
-0.1959703 -0.039102387 0.48000002
-0.1947189 -0.039102387 0.48000002
-0.19346751 -0.039102387 0.48000002
-0.19221611 -0.039102387 0.48000002
-0.19096473 -0.039102387 0.48000002
-0.18971334 -0.039102387 0.48000002
-0.18846196 -0.039102387 0.48000002
-0.18721056 -0.039102387 0.48000002
-0.18595918 -0.039102387 0.48000002
-0.18470778 -0.039102387 0.48000002
-0.18345638 -0.039102387 0.48000002
-0.18220499 -0.039102387 0.48000002
-0.18095361 -0.039102387 0.48000002
-0.17970222 -0.039102387 0.48000002
-0.17845082 -0.039102387 0.48000002
-0.17719944 -0.039102387 0.48000002
-0.17594804 -0.039102387 0.48000002
-0.17469665 -0.039102387 0.48000002
-0.17344525 -0.039102387 0.48000002
-0.17219387 -0.039102387 0.48000002
-0.17094249 -0.039102387 0.48000002
-0.1696911 -0.039102387 0.48000002
-0.1684397 -0.039102387 0.48000002
-0.1671883 -0.039102387 0.48000002
-0.16593692 -0.039102387 0.48000002
-0.16468552 -0.039102387 0.48000002
-0.16343413 -0.039102387 0.48000002
-0.16218275 -0.039102387 0.48000002
-0.16093136 -0.039102387 0.48000002
-0.16001263 -0.039183851 0.48100004
-0.15875864 -0.039183851 0.48100004
-0.15750465 -0.039183851 0.48100004
-0.15625066 -0.039183851 0.48100004
-0.15499665 -0.039183851 0.48100004
-0.15374266 -0.039183851 0.48100004
-0.15248865 -0.039183851 0.48100004
-0.15123464 -0.039183851 0.48100004
-0.15029247 -0.039265312 0.48200002
-0.14903586 -0.039265312 0.48200002
-0.14777926 -0.039265312 0.48200002
-0.14652264 -0.039265312 0.48200002
-0.14496467 -0.039183851 0.48100004
-0.14371066 -0.039183851 0.48100004
-0.14245668 -0.039183851 0.48100004
-0.14120267 -0.039183851 0.48100004
-0.13994868 -0.039183851 0.48100004
-0.13869467 -0.039183851 0.48100004
-0.13744068 -0.039183851 0.48100004
-0.13646981 -0.039265312 0.48200002
-0.1352132 -0.039265312 0.48200002
-0.1339566 -0.039265312 0.48200002
-0.1327 -0.039265312 0.48200002
-0.1314434 -0.039265312 0.48200002
-0.13018678 -0.039265312 0.48200002
-0.12893018 -0.039265312 0.48200002
-0.1274087 -0.039183851 0.48100004
-0.12615471 -0.039183851 0.48100004
-0.1249007 -0.039183851 0.48100004
-0.12364671 -0.039183851 0.48100004
-0.12239271 -0.039183851 0.48100004
-0.12113871 -0.039183851 0.48100004
-0.11988471 -0.039183851 0.48100004
-0.11863071 -0.039183851 0.48100004
-0.11737671 -0.039183851 0.48100004
-0.11612272 -0.039183851 0.48100004
-0.11486872 -0.039183851 0.48100004
-0.11337852 -0.039102387 0.48000002
-0.11212713 -0.039102387 0.48000002
-0.11087573 -0.039102387 0.48000002
-0.10985273 -0.039183851 0.48100004
-0.10859873 -0.039183851 0.48100004
-0.10734473 -0.039183851 0.48100004
-0.10609074 -0.039183851 0.48100004
-0.10483674 -0.039183851 0.48100004
-0.10379809 -0.039265312 0.48200002
-0.10254148 -0.039265312 0.48200002
-0.10128488 -0.039265312 0.48200002
-0.10002828 -0.039265312 0.48200002
-0.098771669 -0.039265312 0.48200002
-0.097515069 -0.039265312 0.48200002
-0.096258461 -0.039265312 0.48200002
-0.095001854 -0.039265312 0.48200002
-0.093745247 -0.039265312 0.48200002
-0.092296764 -0.039183851 0.48100004
-0.091042764 -0.039183851 0.48100004
-0.089788765 -0.039183851 0.48100004
-0.088534772 -0.039183851 0.48100004
-0.087280773 -0.039183851 0.48100004
-0.086026773 -0.039183851 0.48100004
-0.084772781 -0.039183851 0.48100004
-0.083518781 -0.039183851 0.48100004
-0.082264781 -0.039183851 0.48100004
-0.081010789 -0.039183851 0.48100004
-0.079756789 -0.039183851 0.48100004
-0.078502782 -0.039183851 0.48100004
-0.077248789 -0.039183851 0.48100004
-0.07599479 -0.039183851 0.48100004
-0.074740797 -0.039183851 0.48100004
-0.073486798 -0.039183851 0.48100004
-0.072232798 -0.039183851 0.48100004
-0.070978805 -0.039183851 0.48100004
-0.069724806 -0.039183851 0.48100004
-0.068470806 -0.039183851 0.48100004
-0.067216814 -0.039183851 0.48100004
-0.065962814 -0.039183851 0.48100004
-0.064708814 -0.039183851 0.48100004
-0.063454822 -0.039183851 0.48100004
-0.062200814 -0.039183851 0.48100004
-0.060946818 -0.039183851 0.48100004
-0.059692826 -0.039183851 0.48100004
-0.058560319 -0.039265312 0.48200002
-0.057303712 -0.039265312 0.48200002
-0.056047108 -0.039265312 0.48200002
-0.054790504 -0.039265312 0.48200002
-0.053533901 -0.039265312 0.48200002
-0.052277297 -0.039265312 0.48200002
-0.051020693 -0.039265312 0.48200002
-0.049764086 -0.039265312 0.48200002
-0.048507478 -0.039265312 0.48200002
-0.047250874 -0.039265312 0.48200002
-0.045994271 -0.039265312 0.48200002
-0.044737667 -0.039265312 0.48200002
-0.043481063 -0.039265312 0.48200002
-0.042224459 -0.039265312 0.48200002
-0.040967852 -0.039265312 0.48200002
-0.039711248 -0.039265312 0.48200002
-0.038454644 -0.039265312 0.48200002
-0.037198041 -0.039265312 0.48200002
-0.035941433 -0.039265312 0.48200002
-0.034684829 -0.039265312 0.48200002
-0.033428222 -0.039265312 0.48200002
-0.032171618 -0.039265312 0.48200002
-0.030915014 -0.039265312 0.48200002
-0.029658411 -0.039265312 0.48200002
-0.028401807 -0.039265312 0.48200002
-0.027145199 -0.039265312 0.48200002
-0.025888596 -0.039265312 0.48200002
-0.024631992 -0.039265312 0.48200002
-0.023375386 -0.039265312 0.48200002
-0.022072893 -0.039183851 0.48100004
-0.020818895 -0.039183851 0.48100004
-0.019564897 -0.039183851 0.48100004
-0.018310899 -0.039183851 0.48100004
-0.017056903 -0.039183851 0.48100004
-0.015802905 -0.039183851 0.48100004
-0.014548906 -0.039183851 0.48100004
-0.013294909 -0.039183851 0.48100004
-0.012040911 -0.039183851 0.48100004
-0.010786914 -0.039183851 0.48100004
-0.0095329154 -0.039183851 0.48100004
-0.0082961293 -0.039265312 0.48200002
-0.0070395251 -0.039265312 0.48200002
-0.0057829204 -0.039265312 0.48200002
-0.0045263157 -0.039265312 0.48200002
-0.0032629275 -0.039183851 0.48100004
-0.0020089296 -0.039183851 0.48100004
-0.000754932 -0.039183851 0.48100004
0.00049906567 -0.039183851 0.48100004
0.0017530634 -0.039183851 0.48100004
0.0030070611 -0.039183851 0.48100004
0.0042610588 -0.039183851 0.48100004
0.0055150567 -0.039183851 0.48100004
0.0067690541 -0.039183851 0.48100004
0.0080230525 -0.039183851 0.48100004
0.0092963362 -0.039265312 0.48200002
0.010552941 -0.039265312 0.48200002
0.011809547 -0.039265312 0.48200002
0.01306615 -0.039265312 0.48200002
0.014322755 -0.039265312 0.48200002
0.01557936 -0.039265312 0.48200002
0.016835963 -0.039265312 0.48200002
0.018092569 -0.039265312 0.48200002
0.019309031 -0.039183851 0.48100004
0.020563029 -0.039183851 0.48100004
0.021817027 -0.039183851 0.48100004
0.023071025 -0.039183851 0.48100004
0.024325021 -0.039183851 0.48100004
0.02557902 -0.039183851 0.48100004
0.026833016 -0.039183851 0.48100004
0.028087014 -0.039183851 0.48100004
0.033987857 -0.030874591 0.37900001
0.034883652 -0.030793129 0.37800002
0.035869122 -0.030793129 0.37800002
0.036854591 -0.030793129 0.37800002
0.037840061 -0.030793129 0.37800002
0.051805042 -0.039102387 0.48000002
0.052945901 -0.039020922 0.47900003
0.054307822 -0.039102387 0.48000002
0.055559214 -0.039102387 0.48000002
0.056810606 -0.039102387 0.48000002
0.058061995 -0.039102387 0.48000002
0.059313387 -0.039102387 0.48000002
0.060564775 -0.039102387 0.48000002
0.061816167 -0.039102387 0.48000002
0.063067555 -0.039102387 0.48000002
0.064452946 -0.039183851 0.48100004
0.065706946 -0.039183851 0.48100004
0.066960938 -0.039183851 0.48100004
0.068214945 -0.039183851 0.48100004
0.069468938 -0.039183851 0.48100004
0.0705759 -0.039102387 0.48000002
0.071976937 -0.039183851 0.48100004
0.07323093 -0.039183851 0.48100004
0.074484929 -0.039183851 0.48100004
0.075581461 -0.039102387 0.48000002
0.076832853 -0.039102387 0.48000002
0.078084245 -0.039102387 0.48000002
0.07933563 -0.039102387 0.48000002
0.080587022 -0.039102387 0.48000002
0.081838414 -0.039102387 0.48000002
0.083262913 -0.039183851 0.48100004
0.084516913 -0.039183851 0.48100004
0.085770912 -0.039183851 0.48100004
0.086843982 -0.039102387 0.48000002
0.088095367 -0.039102387 0.48000002
0.089346759 -0.039102387 0.48000002
0.090598151 -0.039102387 0.48000002
0.09165819 -0.039020922 0.47900003
0.092713006 -0.038939457 0.47800002
0.093762621 -0.038857996 0.47700003
0.09500619 -0.038857996 0.47700003
0.096047975 -0.038776532 0.47600001
