# .PCD v0.7 - Point Cloud Data file format
VERSION 0.7
FIELDS x y z
SIZE 4 4 4
TYPE F F F
COUNT 1 1 1
WIDTH 1350
HEIGHT 1
VIEWPOINT 0 0 0 1 0 0 0
POINTS 1350
DATA ascii
0.13365202 0.0010225859 0.52100003
0.1350103 0.0010225859 0.52100003
0.1363686 0.0010225859 0.52100003
0.13799122 0.0010245485 0.52200001
0.13935211 0.0010245485 0.52200001
0.14098255 0.0010265113 0.523
0.14234605 0.0010265113 0.523
0.14370954 0.0010265113 0.523
0.14535044 0.0010284742 0.52400005
0.14671654 0.0010284742 0.52400005
0.14836524 0.0010304368 0.52500004
0.14973393 0.0010304368 0.52500004
0.15110265 0.0010304368 0.52500004
0.15276177 0.0010323996 0.52600002
0.1541331 0.0010323996 0.52600002
0.15550442 0.0010323996 0.52600002
0.15717396 0.0010343622 0.52700001
0.15854789 0.0010343622 0.52700001
0.16022526 0.001036325 0.528
0.1616018 0.001036325 0.528
0.16297832 0.001036325 0.528
0.16466615 0.0010382878 0.52900004
0.16604528 0.0010382878 0.52900004
0.16774091 0.0010402505 0.53000003
0.16912264 0.0010402505 0.53000003
0.17050439 0.0010402505 0.53000003
0.17188613 0.0010402505 0.53000003
0.1735948 0.0010422132 0.53100002
0.17497915 0.0010422132 0.53100002
0.1763635 0.0010422132 0.53100002
0.17774786 0.0010422132 0.53100002
0.17913219 0.0010422132 0.53100002
0.18085651 0.0010441759 0.53200001
0.1819009 0.0010422132 0.53100002
0.18363042 0.0010441759 0.53200001
0.18501738 0.0010441759 0.53200001
0.18675473 0.0010461388 0.53300005
0.1881443 0.0010461388 0.53300005
0.18988946 0.0010481015 0.53400004
0.19163983 0.0010500642 0.53500003
0.19339542 0.0010520269 0.53600001
0.19479281 0.0010520269 0.53600001
0.19655621 0.0010539896 0.537
0.19832486 0.0010559524 0.53800005
0.19972745 0.0010559524 0.53800005
0.2015039 0.0010579152 0.53900003
0.2029091 0.0010579152 0.53900003
0.20431432 0.0010579152 0.53900003
0.20610118 0.0010598779 0.54000002
0.207509 0.0010598779 0.54000002
0.20930369 0.0010618406 0.54100001
0.21071412 0.0010618406 0.54100001
0.21212453 0.0010618406 0.54100001
0.21353495 0.0010618406 0.54100001
0.21534272 0.0010638034 0.54200006
0.21675573 0.0010638034 0.54200006
0.21857129 0.0010657661 0.54300004
0.21998692 0.0010657661 0.54300004
0.2218103 0.0010677289 0.54400003
0.22363888 0.0010696915 0.54500002
0.22505973 0.0010696915 0.54500002
0.22689612 0.0010716543 0.546
0.22831959 0.0010716543 0.546
0.23016383 0.0010736171 0.54700005
0.2315899 0.0010736171 0.54700005
0.23301595 0.0010736171 0.54700005
0.23487061 0.0010755798 0.54800004
0.23629929 0.0010755798 0.54800004
0.23772795 0.0010755798 0.54800004
0.23959304 0.0010775425 0.54900002
0.24102432 0.0010775425 0.54900002
0.2424556 0.0010775425 0.54900002
0.24433111 0.0010795052 0.55000001
0.245765 0.0010795052 0.55000001
0.24719888 0.0010795052 0.55000001
0.24863277 0.0010795052 0.55000001
0.2505213 0.001081468 0.551
0.2519578 0.001081468 0.551
0.25339428 0.001081468 0.551
0.25529331 0.0010834307 0.55200005
0.2571975 0.0010853935 0.55300003
0.25863919 0.0010853935 0.55300003
0.26055121 0.0010873561 0.55400002
0.26199552 0.0010873561 0.55400002
0.26391536 0.0010893189 0.55500001
-0.24112488 0.0019513047 0.42700002
-0.24001166 0.0019513047 0.42700002
-0.23889846 0.0019513047 0.42700002
-0.23778522 0.0019513047 0.42700002
-0.23667201 0.0019513047 0.42700002
-0.23555881 0.0019513047 0.42700002
-0.23444557 0.0019513047 0.42700002
-0.23387882 0.0019558745 0.42800003
-0.23276299 0.0019558745 0.42800003
-0.23164718 0.0019558745 0.42800003
-0.23106995 0.0019604443 0.42900002
-0.23048754 0.001965014 0.43000001
-0.22936651 0.001965014 0.43000001
-0.22824548 0.001965014 0.43000001
-0.22765264 0.001969584 0.43100002
-0.226529 0.001969584 0.43100002
-0.22540537 0.001969584 0.43100002
-0.22428171 0.001969584 0.43100002
-0.22367582 0.0019741538 0.43200001
-0.22254957 0.0019741538 0.43200001
-0.22142333 0.0019741538 0.43200001
-0.22029705 0.0019741538 0.43200001
-0.21967816 0.0019787236 0.43300003
-0.21854931 0.0019787236 0.43300003
-0.21742046 0.0019787236 0.43300003
-0.21679111 0.0019832933 0.43400002
-0.21565963 0.0019832933 0.43400002
-0.21452817 0.0019832933 0.43400002
-0.2133967 0.0019832933 0.43400002
-0.21226525 0.0019832933 0.43400002
-0.21113378 0.0019832933 0.43400002
-0.21048619 0.0019878631 0.43500003
-0.20935212 0.0019878631 0.43500003
-0.20869669 0.0019924329 0.43600002
-0.20756003 0.0019924329 0.43600002
-0.20642334 0.0019924329 0.43600002
-0.2057575 0.0019970026 0.43700001
-0.20461822 0.0019970026 0.43700001
-0.20347893 0.0019970026 0.43700001
-0.20280266 0.0020015726 0.43800002
-0.20166078 0.0020015726 0.43800002
-0.20051888 0.0020015726 0.43800002
-0.19937699 0.0020015726 0.43800002
-0.19823509 0.0020015726 0.43800002
-0.19709319 0.0020015726 0.43800002
-0.1959513 0.0020015726 0.43800002
-0.19480941 0.0020015726 0.43800002
-0.19366752 0.0020015726 0.43800002
-0.19252561 0.0020015726 0.43800002
-0.19138373 0.0020015726 0.43800002
-0.19024183 0.0020015726 0.43800002
-0.18909994 0.0020015726 0.43800002
-0.18795805 0.0020015726 0.43800002
-0.18681616 0.0020015726 0.43800002
-0.18609816 0.0020061424 0.43900001
-0.18495367 0.0020061424 0.43900001
-0.18380916 0.0020061424 0.43900001
-0.18308076 0.0020107122 0.44000003
-0.18193366 0.0020107122 0.44000003
-0.18078654 0.0020107122 0.44000003
-0.18004771 0.0020152819 0.44100001
-0.17889799 0.0020152819 0.44100001
-0.17774828 0.0020152819 0.44100001
-0.17699902 0.0020198517 0.44200003
-0.1758467 0.0020198517 0.44200003
-0.1750896 0.0020244215 0.44300002
-0.17393468 0.0020244215 0.44300002
-0.17316978 0.0020289915 0.44400004
-0.17201224 0.0020289915 0.44400004
-0.1708547 0.0020289915 0.44400004
-0.16969717 0.0020289915 0.44400004
-0.16853963 0.0020289915 0.44400004
-0.16738209 0.0020289915 0.44400004
-0.16659893 0.0020335612 0.44500002
-0.16543879 0.0020335612 0.44500002
-0.16427864 0.0020335612 0.44500002
-0.1631185 0.0020335612 0.44500002
-0.16232231 0.002038131 0.44600001
-0.16115955 0.002038131 0.44600001
-0.15999681 0.002038131 0.44600001
-0.15919019 0.0020427008 0.44700003
-0.15802483 0.0020427008 0.44700003
-0.15685947 0.0020427008 0.44700003
-0.15604241 0.0020472705 0.44800001
-0.15487446 0.0020472705 0.44800001
-0.15370649 0.0020472705 0.44800001
-0.15253852 0.0020472705 0.44800001
-0.15137056 0.0020472705 0.44800001
-0.1502026 0.0020472705 0.44800001
-0.14903463 0.0020472705 0.44800001
-0.14786667 0.0020472705 0.44800001
-0.1466987 0.0020472705 0.44800001
-0.14585559 0.0020518403 0.44900003
-0.14468502 0.0020518403 0.44900003
-0.14351445 0.0020518403 0.44900003
-0.1426609 0.0020564101 0.45000002
-0.14148772 0.0020564101 0.45000002
-0.14062636 0.0020609801 0.45100003
-0.13945056 0.0020609801 0.45100003
-0.13858138 0.0020655498 0.45200002
-0.13740298 0.0020655498 0.45200002
-0.13652597 0.0020701196 0.45300001
-0.13534497 0.0020701196 0.45300001
-0.13446015 0.0020746894 0.45400003
-0.13327654 0.0020746894 0.45400003
-0.13209294 0.0020746894 0.45400003
-0.13119766 0.0020792591 0.45500001
-0.13001145 0.0020792591 0.45500001
-0.12910837 0.0020838289 0.45600003
-0.12791954 0.0020838289 0.45600003
-0.12700865 0.0020883987 0.45700002
-0.12581721 0.0020883987 0.45700002
-0.12462579 0.0020883987 0.45700002
-0.12343436 0.0020883987 0.45700002
-0.12224294 0.0020883987 0.45700002
-0.1210515 0.0020883987 0.45700002
-0.11986008 0.0020883987 0.45700002
-0.11866865 0.0020883987 0.45700002
-0.11747722 0.0020883987 0.45700002
-0.11628579 0.0020883987 0.45700002
-0.11534622 0.0020929687 0.45800003
-0.11415218 0.0020929687 0.45800003
-0.11295815 0.0020929687 0.45800003
-0.11176411 0.0020929687 0.45800003
-0.11057007 0.0020929687 0.45800003
-0.10937604 0.0020929687 0.45800003
-0.10841821 0.0020975384 0.45900002
-0.10722157 0.0020975384 0.45900002
-0.10602492 0.0020975384 0.45900002
-0.10505666 0.002102108 0.46000001
-0.10385741 0.002102108 0.46000001
-0.10288133 0.002106678 0.46100003
-0.10190003 0.0021112477 0.46200001
-0.10069557 0.0021112477 0.46200001
-0.099491112 0.0021112477 0.46200001
-0.098499395 0.0021158175 0.46300003
-0.097292326 0.0021158175 0.46300003
-0.09608525 0.0021158175 0.46300003
-0.095083103 0.0021203873 0.46400002
-0.093873426 0.0021203873 0.46400002
-0.09266375 0.0021203873 0.46400002
-0.091651164 0.0021249573 0.46500003
-0.09043888 0.0021249573 0.46500003
-0.089226596 0.0021249573 0.46500003
-0.088203587 0.002129527 0.46600002
-0.086988695 0.002129527 0.46600002
-0.085773811 0.002129527 0.46600002
-0.084740371 0.0021340966 0.46700001
-0.083522871 0.0021340966 0.46700001
-0.082305372 0.0021340966 0.46700001
-0.08108788 0.0021340966 0.46700001
-0.080041409 0.0021386666 0.46800002
-0.078821301 0.0021386666 0.46800002
-0.077601202 0.0021386666 0.46800002
-0.076381087 0.0021386666 0.46800002
-0.075321577 0.0021432363 0.46900001
-0.07409887 0.0021432363 0.46900001
-0.072876155 0.0021432363 0.46900001
-0.071653441 0.0021432363 0.46900001
-0.070580907 0.0021478061 0.47000003
-0.069355585 0.0021478061 0.47000003
-0.06813027 0.0021478061 0.47000003
-0.066904947 0.0021478061 0.47000003
-0.065819368 0.0021523759 0.47100002
-0.064591445 0.0021523759 0.47100002
-0.06349805 0.0021569459 0.47200003
-0.062267516 0.0021569459 0.47200003
-0.061166286 0.0021615156 0.47300002
-0.059933148 0.0021615156 0.47300002
-0.05870001 0.0021615156 0.47300002
-0.057588365 0.0021660854 0.47400004
-0.056352615 0.0021660854 0.47400004
-0.055233147 0.0021706552 0.47500002
-0.053994793 0.0021706552 0.47500002
-0.052756436 0.0021706552 0.47500002
-0.051626541 0.0021752249 0.47600001
-0.050385579 0.0021752249 0.47600001
-0.049144614 0.0021752249 0.47600001
-0.04790365 0.0021752249 0.47600001
-0.046760723 0.0021797947 0.47700003
-0.045517154 0.0021797947 0.47700003
-0.044273585 0.0021797947 0.47700003
-0.043120224 0.0021843645 0.47800002
-0.041874047 0.0021843645 0.47800002
-0.040627867 0.0021843645 0.47800002
-0.039381694 0.0021843645 0.47800002
-0.038135517 0.0021843645 0.47800002
-0.036889341 0.0021843645 0.47800002
-0.035717733 0.0021889345 0.47900003
-0.034468949 0.0021889345 0.47900003
-0.033289514 0.0021935042 0.48000002
-0.032038126 0.0021935042 0.48000002
-0.030786736 0.0021935042 0.48000002
-0.029535346 0.0021935042 0.48000002
-0.028342882 0.002198074 0.48100004
-0.027088882 0.002198074 0.48100004
-0.025834886 0.002198074 0.48100004
-0.024631992 0.0022026438 0.48200002
-0.023375386 0.0022026438 0.48200002
-0.022164671 0.0022072135 0.48300001
-0.020905459 0.0022072135 0.48300001
-0.019646246 0.0022072135 0.48300001
-0.018387035 0.0022072135 0.48300001
-0.017127825 0.0022072135 0.48300001
-0.015901467 0.0022117833 0.48400003
-0.014639648 0.0022117833 0.48400003
-0.013377829 0.0022117833 0.48400003
-0.01211601 0.0022117833 0.48400003
-0.010854192 0.0022117833 0.48400003
-0.0096121915 0.0022163531 0.48500001
-0.0083477646 0.0022163531 0.48500001
-0.0070979442 0.0022209231 0.48600003
-0.0058309115 0.0022209231 0.48600003
-0.0045732693 0.0022254928 0.48700002
-0.0033036291 0.0022254928 0.48700002
-0.0020381657 0.0022300626 0.48800004
-0.00076591852 0.0022300626 0.48800004
0.00050736615 0.0022346324 0.48900002
0.0017822203 0.0022346324 0.48900002
0.0030570745 0.0022346324 0.48900002
0.0043319287 0.0022346324 0.48900002
0.0056067826 0.0022346324 0.48900002
0.0068957098 0.0022392021 0.49000001
0.0081731714 0.0022392021 0.49000001
0.0094699189 0.0022437719 0.49100003
0.010749987 0.0022437719 0.49100003
0.012030057 0.0022437719 0.49100003
0.013310124 0.0022437719 0.49100003
0.014590193 0.0022437719 0.49100003
0.01587026 0.0022437719 0.49100003
0.017185258 0.0022483417 0.49200001
0.018467933 0.0022483417 0.49200001
0.019750608 0.0022483417 0.49200001
0.021033283 0.0022483417 0.49200001
0.022361318 0.0022529117 0.49300003
0.023646601 0.0022529117 0.49300003
0.024931882 0.0022529117 0.49300003
0.026217166 0.0022529117 0.49300003
0.027558234 0.0022574812 0.49400002
0.028846122 0.0022574812 0.49400002
0.030195013 0.0022620512 0.49500003
0.031485509 0.0022620512 0.49500003
0.032776006 0.0022620512 0.49500003
0.034135323 0.002266621 0.49600002
0.035428427 0.002266621 0.49600002
0.036795564 0.0022711908 0.49700001
0.038091276 0.0022711908 0.49700001
0.039386984 0.0022711908 0.49700001
0.040764555 0.0022757605 0.49800003
0.042062875 0.0022757605 0.49800003
0.043448258 0.0022803303 0.49900001
0.044749185 0.0022803303 0.49900001
0.046050109 0.0022803303 0.49900001
0.047445923 0.0022849001 0.5
0.048846956 0.0022894701 0.50100005
0.050153099 0.0022894701 0.50100005
0.051561952 0.0022940398 0.50200003
0.052870695 0.0022940398 0.50200003
0.054287367 0.0022986096 0.50300002
0.055598721 0.0022986096 0.50300002
0.057023212 0.0023031794 0.50400001
0.058337174 0.0023031794 0.50400001
0.059651133 0.0023031794 0.50400001
0.060965095 0.0023031794 0.50400001
0.062279053 0.0023031794 0.50400001
0.063593015 0.0023031794 0.50400001
0.06490697 0.0023031794 0.50400001
0.066352323 0.0023077491 0.505
0.067668885 0.0023077491 0.505
0.068985455 0.0023077491 0.505
0.070302017 0.0023077491 0.505
0.071618594 0.0023077491 0.505
0.073079593 0.0023123191 0.50600004
0.074398771 0.0023123191 0.50600004
0.075717941 0.0023123191 0.50600004
0.077037118 0.0023123191 0.50600004
0.078356288 0.0023123191 0.50600004
0.079832919 0.0023168889 0.50700003
0.081154704 0.0023168889 0.50700003
0.082476482 0.0023168889 0.50700003
0.083963543 0.0023214584 0.50800002
0.08545582 0.0023260282 0.509
0.086782813 0.0023260282 0.509
0.08828292 0.0023305982 0.51000005
0.089788236 0.002335168 0.51100004
0.091120452 0.002335168 0.51100004
0.092633583 0.0023397377 0.51200002
0.093968399 0.0023397377 0.51200002
0.095489345 0.0023443075 0.51300001
0.096826769 0.0023443075 0.51300001
0.098355547 0.0023488773 0.514
0.099695578 0.0023488773 0.514
0.1010356 0.0023488773 0.514
0.10257482 0.0023534473 0.51500005
0.10391746 0.0023534473 0.51500005
0.10546448 0.002358017 0.51600003
0.10680973 0.002358017 0.51600003
0.10815497 0.002358017 0.51600003
0.10971243 0.0023625868 0.51700002
0.11106028 0.0023625868 0.51700002
0.11240813 0.0023625868 0.51700002
0.11375598 0.0023625868 0.51700002
0.11532647 0.0023671566 0.51800001
0.11667693 0.0023671566 0.51800001
0.11802738 0.0023671566 0.51800001
0.11937784 0.0023671566 0.51800001
0.1207283 0.0023671566 0.51800001
0.12207876 0.0023671566 0.51800001
0.12366751 0.0023717266 0.51900005
0.12502058 0.0023717266 0.51900005
0.12637365 0.0023717266 0.51900005
0.12797281 0.0023762963 0.52000004
0.12932849 0.0023762963 0.52000004
0.13093546 0.0023808661 0.52100003
0.13229375 0.0023808661 0.52100003
0.13365202 0.0023808661 0.52100003
0.1350103 0.0023808661 0.52100003
0.1363686 0.0023808661 0.52100003
0.13799122 0.0023854356 0.52200001
0.13935211 0.0023854356 0.52200001
0.14098255 0.0023900054 0.523
0.14234605 0.0023900054 0.523
0.14398433 0.0023945754 0.52400005
0.14535044 0.0023945754 0.52400005
0.14699653 0.0023991452 0.52500004
0.14836524 0.0023991452 0.52500004
0.15001914 0.0024037149 0.52600002
0.15139046 0.0024037149 0.52600002
0.15276177 0.0024037149 0.52600002
0.15442611 0.0024082847 0.52700001
0.15580004 0.0024082847 0.52700001
0.15717396 0.0024082847 0.52700001
0.15884873 0.0024128545 0.528
0.16022526 0.0024128545 0.528
0.1616018 0.0024128545 0.528
0.163287 0.0024174245 0.52900004
0.16497742 0.0024219942 0.53000003
0.16635916 0.0024219942 0.53000003
0.16774091 0.0024219942 0.53000003
0.16944174 0.002426564 0.53100002
0.17082609 0.002426564 0.53100002
0.17221044 0.002426564 0.53100002
0.17392172 0.0024311338 0.53200001
0.17530867 0.0024311338 0.53200001
0.17669563 0.0024311338 0.53200001
0.17808259 0.0024311338 0.53200001
0.1798069 0.0024357038 0.53300005
0.18119648 0.0024357038 0.53300005
0.18258603 0.0024357038 0.53300005
0.18397561 0.0024357038 0.53300005
0.18536517 0.0024357038 0.53300005
0.18710512 0.0024402735 0.53400004
0.18849728 0.0024402735 0.53400004
0.19024505 0.0024448431 0.53500003
0.19163983 0.0024448431 0.53500003
0.19339542 0.0024494128 0.53600001
0.19479281 0.0024494128 0.53600001
0.19655621 0.0024539826 0.537
0.19832486 0.0024585526 0.53800005
0.19972745 0.0024585526 0.53800005
0.2015039 0.0024631224 0.53900003
0.2029091 0.0024631224 0.53900003
0.20469338 0.0024676921 0.54000002
0.20610118 0.0024676921 0.54000002
0.207509 0.0024676921 0.54000002
0.20930369 0.0024722619 0.54100001
0.21071412 0.0024722619 0.54100001
0.21212453 0.0024722619 0.54100001
0.21353495 0.0024722619 0.54100001
0.21534272 0.0024768319 0.54200006
0.21675573 0.0024768319 0.54200006
0.21857129 0.0024814017 0.54300004
0.21998692 0.0024814017 0.54300004
0.2218103 0.0024859714 0.54400003
0.22322853 0.0024859714 0.54400003
0.22505973 0.0024905412 0.54500002
0.22689612 0.002495111 0.546
0.22831959 0.002495111 0.546
0.23016383 0.002499681 0.54700005
0.2315899 0.002499681 0.54700005
0.23301595 0.002499681 0.54700005
0.23487061 0.0025042507 0.54800004
0.23629929 0.0025042507 0.54800004
0.23772795 0.0025042507 0.54800004
0.23959304 0.0025088203 0.54900002
0.24102432 0.0025088203 0.54900002
0.24289723 0.00251339 0.55000001
0.24433111 0.00251339 0.55000001
0.245765 0.00251339 0.55000001
0.24719888 0.00251339 0.55000001
0.24863277 0.00251339 0.55000001
0.2505213 0.0025179598 0.551
0.2519578 0.0025179598 0.551
0.25385419 0.0025225298 0.55200005
0.25529331 0.0025225298 0.55200005
0.2571975 0.0025270996 0.55300003
0.25910687 0.0025316693 0.55400002
0.26055121 0.0025316693 0.55400002
0.26199552 0.0025316693 0.55400002
0.26391536 0.0025362391 0.55500001
-0.24112488 0.0030645211 0.42700002
-0.24001166 0.0030645211 0.42700002
-0.23889846 0.0030645211 0.42700002
-0.23778522 0.0030645211 0.42700002
-0.23667201 0.0030645211 0.42700002
-0.23555881 0.0030645211 0.42700002
-0.23444557 0.0030645211 0.42700002
-0.23333237 0.0030645211 0.42700002
-0.23276299 0.0030716981 0.42800003
-0.23164718 0.0030716981 0.42800003
-0.23106995 0.0030788749 0.42900002
-0.22995153 0.0030788749 0.42900002
-0.22936651 0.0030860517 0.43000001
-0.22824548 0.0030860517 0.43000001
-0.22765264 0.0030932284 0.43100002
-0.226529 0.0030932284 0.43100002
-0.22540537 0.0030932284 0.43100002
-0.22428171 0.0030932284 0.43100002
-0.22367582 0.0031004052 0.43200001
-0.22254957 0.0031004052 0.43200001
-0.22142333 0.0031004052 0.43200001
-0.22029705 0.0031004052 0.43200001
-0.21967816 0.0031075822 0.43300003
-0.21854931 0.0031075822 0.43300003
-0.21742046 0.0031075822 0.43300003
-0.21679111 0.003114759 0.43400002
-0.21565963 0.003114759 0.43400002
-0.21452817 0.003114759 0.43400002
-0.2133967 0.003114759 0.43400002
-0.21226525 0.003114759 0.43400002
-0.21113378 0.003114759 0.43400002
-0.21048619 0.003121936 0.43500003
-0.20935212 0.003121936 0.43500003
-0.20821804 0.003121936 0.43500003
-0.20756003 0.0031291128 0.43600002
-0.20642334 0.0031291128 0.43600002
-0.2057575 0.0031362895 0.43700001
-0.20461822 0.0031362895 0.43700001
-0.20347893 0.0031362895 0.43700001
-0.20280266 0.0031434665 0.43800002
-0.20166078 0.0031434665 0.43800002
-0.20051888 0.0031434665 0.43800002
-0.19937699 0.0031434665 0.43800002
-0.19823509 0.0031434665 0.43800002
-0.19709319 0.0031434665 0.43800002
-0.1959513 0.0031434665 0.43800002
-0.19480941 0.0031434665 0.43800002
-0.19366752 0.0031434665 0.43800002
-0.19252561 0.0031434665 0.43800002
-0.19138373 0.0031434665 0.43800002
-0.19024183 0.0031434665 0.43800002
-0.18909994 0.0031434665 0.43800002
-0.18795805 0.0031434665 0.43800002
-0.18681616 0.0031434665 0.43800002
-0.18609816 0.0031506433 0.43900001
-0.18495367 0.0031506433 0.43900001
-0.18380916 0.0031506433 0.43900001
-0.18308076 0.0031578203 0.44000003
-0.18193366 0.0031578203 0.44000003
-0.18078654 0.0031578203 0.44000003
-0.18004771 0.0031649971 0.44100001
-0.17889799 0.0031649971 0.44100001
-0.17774828 0.0031649971 0.44100001
-0.17699902 0.0031721741 0.44200003
-0.1758467 0.0031721741 0.44200003
-0.1750896 0.0031793509 0.44300002
-0.17393468 0.0031793509 0.44300002
-0.17316978 0.0031865279 0.44400004
-0.17201224 0.0031865279 0.44400004
-0.1708547 0.0031865279 0.44400004
-0.16969717 0.0031865279 0.44400004
-0.16891922 0.0031937046 0.44500002
-0.16775908 0.0031937046 0.44500002
-0.16659893 0.0031937046 0.44500002
-0.16543879 0.0031937046 0.44500002
-0.16427864 0.0031937046 0.44500002
-0.16348505 0.0032008814 0.44600001
-0.16232231 0.0032008814 0.44600001
-0.16115955 0.0032008814 0.44600001
-0.15999681 0.0032008814 0.44600001
-0.15919019 0.0032080584 0.44700003
-0.15802483 0.0032080584 0.44700003
-0.15685947 0.0032080584 0.44700003
-0.15569411 0.0032080584 0.44700003
-0.15487446 0.0032152352 0.44800001
-0.15370649 0.0032152352 0.44800001
-0.15253852 0.0032152352 0.44800001
-0.15137056 0.0032152352 0.44800001
-0.1502026 0.0032152352 0.44800001
-0.14903463 0.0032152352 0.44800001
-0.14786667 0.0032152352 0.44800001
-0.1466987 0.0032152352 0.44800001
-0.14585559 0.0032224122 0.44900003
-0.14468502 0.0032224122 0.44900003
-0.14351445 0.0032224122 0.44900003
-0.1426609 0.003229589 0.45000002
-0.14148772 0.003229589 0.45000002
-0.14062636 0.003236766 0.45100003
-0.13945056 0.003236766 0.45100003
-0.13858138 0.0032439427 0.45200002
-0.13740298 0.0032439427 0.45200002
-0.13652597 0.0032511195 0.45300001
-0.13534497 0.0032511195 0.45300001
-0.13446015 0.0032582965 0.45400003
-0.13327654 0.0032582965 0.45400003
-0.13209294 0.0032582965 0.45400003
-0.13119766 0.0032654733 0.45500001
-0.13001145 0.0032654733 0.45500001
-0.12910837 0.0032726503 0.45600003
-0.12791954 0.0032726503 0.45600003
-0.12700865 0.0032798271 0.45700002
-0.12581721 0.0032798271 0.45700002
-0.12462579 0.0032798271 0.45700002
-0.12343436 0.0032798271 0.45700002
-0.12224294 0.0032798271 0.45700002
-0.1210515 0.0032798271 0.45700002
-0.11986008 0.0032798271 0.45700002
-0.11866865 0.0032798271 0.45700002
-0.11747722 0.0032798271 0.45700002
-0.11654025 0.0032870038 0.45800003
-0.11534622 0.0032870038 0.45800003
-0.11415218 0.0032870038 0.45800003
-0.11295815 0.0032870038 0.45800003
-0.11176411 0.0032870038 0.45800003
-0.11057007 0.0032870038 0.45800003
-0.10937604 0.0032870038 0.45800003
-0.10841821 0.0032941806 0.45900002
-0.10722157 0.0032941806 0.45900002
-0.10602492 0.0032941806 0.45900002
-0.10505666 0.0033013574 0.46000001
-0.10385741 0.0033013574 0.46000001
-0.10288133 0.0033085344 0.46100003
-0.10167947 0.0033085344 0.46100003
-0.10069557 0.0033157112 0.46200001
-0.099491112 0.0033157112 0.46200001
-0.098499395 0.0033228882 0.46300003
-0.097292326 0.0033228882 0.46300003
-0.09608525 0.0033228882 0.46300003
-0.095083103 0.0033300649 0.46400002
-0.093873426 0.0033300649 0.46400002
-0.09266375 0.0033300649 0.46400002
-0.091454066 0.0033300649 0.46400002
-0.09043888 0.0033372419 0.46500003
-0.089226596 0.0033372419 0.46500003
-0.088203587 0.0033444187 0.46600002
-0.086988695 0.0033444187 0.46600002
-0.085773811 0.0033444187 0.46600002
-0.084558919 0.0033444187 0.46600002
-0.083522871 0.0033515955 0.46700001
-0.082305372 0.0033515955 0.46700001
-0.08108788 0.0033515955 0.46700001
-0.07987038 0.0033515955 0.46700001
-0.078821301 0.0033587725 0.46800002
-0.077601202 0.0033587725 0.46800002
-0.076381087 0.0033587725 0.46800002
-0.075321577 0.0033659493 0.46900001
-0.07409887 0.0033659493 0.46900001
-0.072876155 0.0033659493 0.46900001
-0.071653441 0.0033659493 0.46900001
-0.070430733 0.0033659493 0.46900001
-0.069355585 0.0033731263 0.47000003
-0.06813027 0.0033731263 0.47000003
-0.066904947 0.0033731263 0.47000003
-0.065819368 0.003380303 0.47100002
-0.064591445 0.003380303 0.47100002
-0.063363515 0.003380303 0.47100002
-0.062267516 0.00338748 0.47200003
-0.061036974 0.00338748 0.47200003
-0.059933148 0.0033946568 0.47300002
-0.05870001 0.0033946568 0.47300002
-0.057588365 0.0034018338 0.47400004
-0.056352615 0.0034018338 0.47400004
-0.055116866 0.0034018338 0.47400004
-0.053994793 0.0034090106 0.47500002
-0.052756436 0.0034090106 0.47500002
-0.051626541 0.0034161874 0.47600001
-0.050385579 0.0034161874 0.47600001
-0.049144614 0.0034161874 0.47600001
-0.04790365 0.0034161874 0.47600001
-0.046760723 0.0034233644 0.47700003
-0.045517154 0.0034233644 0.47700003
-0.044273585 0.0034233644 0.47700003
-0.043030016 0.0034233644 0.47700003
-0.041786447 0.0034233644 0.47700003
-0.040627867 0.0034305411 0.47800002
-0.039381694 0.0034305411 0.47800002
-0.038135517 0.0034305411 0.47800002
-0.036889341 0.0034305411 0.47800002
-0.035717733 0.0034377181 0.47900003
-0.034468949 0.0034377181 0.47900003
-0.033289514 0.0034448949 0.48000002
-0.032038126 0.0034448949 0.48000002
-0.030786736 0.0034448949 0.48000002
-0.029535346 0.0034448949 0.48000002
-0.028342882 0.0034520719 0.48100004
-0.027088882 0.0034520719 0.48100004
-0.025834886 0.0034520719 0.48100004
-0.024631992 0.0034592487 0.48200002
-0.023375386 0.0034592487 0.48200002
-0.022118781 0.0034592487 0.48200002
-0.020905459 0.0034664255 0.48300001
-0.019646246 0.0034664255 0.48300001
-0.018387035 0.0034664255 0.48300001
-0.017127825 0.0034664255 0.48300001
-0.015868613 0.0034664255 0.48300001
-0.014639648 0.0034736025 0.48400003
-0.013377829 0.0034736025 0.48400003
-0.01211601 0.0034736025 0.48400003
-0.010854192 0.0034736025 0.48400003
-0.0096121915 0.0034807792 0.48500001
-0.0083477646 0.0034807792 0.48500001
-0.0070833392 0.0034807792 0.48500001
-0.0058309115 0.003487956 0.48600003
-0.0045638788 0.003487956 0.48600003
-0.0033036291 0.0034951328 0.48700002
-0.0020339889 0.0034951328 0.48700002
-0.00076591852 0.0035023098 0.48800004
0.00050632859 0.0035023098 0.48800004
0.0017822203 0.0035094866 0.48900002
0.0030570745 0.0035094866 0.48900002
0.0043319287 0.0035094866 0.48900002
0.0056067826 0.0035094866 0.48900002
0.0068957098 0.0035166633 0.49000001
0.0081731714 0.0035166633 0.49000001
0.0094699189 0.0035238403 0.49100003
0.010749987 0.0035238403 0.49100003
0.012030057 0.0035238403 0.49100003
0.013310124 0.0035238403 0.49100003
0.014590193 0.0035238403 0.49100003
0.01587026 0.0035238403 0.49100003
0.017185258 0.0035310171 0.49200001
0.018467933 0.0035310171 0.49200001
0.019750608 0.0035310171 0.49200001
0.021033283 0.0035310171 0.49200001
0.022361318 0.0035381941 0.49300003
0.023646601 0.0035381941 0.49300003
0.024931882 0.0035381941 0.49300003
0.026217166 0.0035381941 0.49300003
0.027558234 0.0035453709 0.49400002
0.028904516 0.0035525479 0.49500003
0.030195013 0.0035525479 0.49500003
0.031485509 0.0035525479 0.49500003
0.032776006 0.0035525479 0.49500003
0.034135323 0.0035597247 0.49600002
0.035428427 0.0035597247 0.49600002
0.036795564 0.0035669014 0.49700001
0.038091276 0.0035669014 0.49700001
0.039386984 0.0035669014 0.49700001
0.040764555 0.0035740784 0.49800003
0.042147335 0.0035812552 0.49900001
0.043448258 0.0035812552 0.49900001
0.044749185 0.0035812552 0.49900001
0.046050109 0.0035812552 0.49900001
0.047445923 0.003588432 0.5
0.048749454 0.003588432 0.5
0.050153099 0.0035956092 0.50100005
0.051459238 0.0035956092 0.50100005
0.052870695 0.003602786 0.50200003
0.054179441 0.003602786 0.50200003
0.055598721 0.0036099628 0.50300002
0.056910072 0.0036099628 0.50300002
0.058337174 0.0036171395 0.50400001
0.059651133 0.0036171395 0.50400001
0.060965095 0.0036171395 0.50400001
0.062279053 0.0036171395 0.50400001
0.063593015 0.0036171395 0.50400001
0.06490697 0.0036171395 0.50400001
0.066220932 0.0036171395 0.50400001
0.067668885 0.0036243163 0.505
0.068985455 0.0036243163 0.505
0.070302017 0.0036243163 0.505
0.071618594 0.0036243163 0.505
0.073079593 0.0036314935 0.50600004
0.074398771 0.0036314935 0.50600004
0.075717941 0.0036314935 0.50600004
0.077037118 0.0036314935 0.50600004
0.078356288 0.0036314935 0.50600004
0.079832919 0.0036386703 0.50700003
0.081154704 0.0036386703 0.50700003
0.082639158 0.0036458471 0.50800002
0.083963543 0.0036458471 0.50800002
0.08545582 0.0036530239 0.509
0.086782813 0.0036530239 0.509
0.08828292 0.0036602011 0.51000005
0.089788236 0.0036673779 0.51100004
0.091120452 0.0036673779 0.51100004
0.092633583 0.0036745546 0.51200002
0.093968399 0.0036745546 0.51200002
0.095489345 0.0036817314 0.51300001
0.096826769 0.0036817314 0.51300001
0.098355547 0.0036889079 0.514
0.099695578 0.0036889079 0.514
0.1010356 0.0036889079 0.514
0.10257482 0.0036960852 0.51500005
0.10391746 0.0036960852 0.51500005
0.10546448 0.003703262 0.51600003
0.10680973 0.003703262 0.51600003
0.10836457 0.0037104387 0.51700002
0.10971243 0.0037104387 0.51700002
0.11106028 0.0037104387 0.51700002
0.11240813 0.0037104387 0.51700002
0.11397601 0.0037176155 0.51800001
0.11532647 0.0037176155 0.51800001
0.11667693 0.0037176155 0.51800001
0.11802738 0.0037176155 0.51800001
0.11937784 0.0037176155 0.51800001
0.1207283 0.0037176155 0.51800001
0.12231445 0.0037247927 0.51900005
0.12366751 0.0037247927 0.51900005
0.12502058 0.0037247927 0.51900005
0.12661713 0.0037319695 0.52000004
0.12797281 0.0037319695 0.52000004
0.12932849 0.0037319695 0.52000004
0.13093546 0.0037391463 0.52100003
0.13229375 0.0037391463 0.52100003
0.13365202 0.0037391463 0.52100003
0.1350103 0.0037391463 0.52100003
0.1363686 0.0037391463 0.52100003
0.13799122 0.0037463231 0.52200001
0.13935211 0.0037463231 0.52200001
0.14071299 0.0037463231 0.52200001
0.14234605 0.0037534998 0.523
0.14370954 0.0037534998 0.523
0.14535044 0.0037606771 0.52400005
0.14699653 0.0037678538 0.52500004
0.14836524 0.0037678538 0.52500004
0.15001914 0.0037750306 0.52600002
0.15139046 0.0037750306 0.52600002
0.1530522 0.0037822074 0.52700001
0.15442611 0.0037822074 0.52700001
0.15580004 0.0037822074 0.52700001
0.15747221 0.0037893842 0.528
0.15884873 0.0037893842 0.528
0.16022526 0.0037893842 0.528
0.16190788 0.0037965614 0.52900004
0.16359568 0.0038037382 0.53000003
0.16497742 0.0038037382 0.53000003
0.16635916 0.0038037382 0.53000003
0.16774091 0.0038037382 0.53000003
0.16944174 0.0038109149 0.53100002
0.17082609 0.0038109149 0.53100002
0.17253475 0.0038180917 0.53200001
0.17392172 0.0038180917 0.53200001
0.17530867 0.0038180917 0.53200001
0.17669563 0.0038180917 0.53200001
0.17841735 0.0038252689 0.53300005
0.1798069 0.0038252689 0.53300005
0.18119648 0.0038252689 0.53300005
0.18258603 0.0038252689 0.53300005
0.18397561 0.0038252689 0.53300005
0.18571293 0.0038324457 0.53400004
0.18710512 0.0038324457 0.53400004
0.18885027 0.0038396225 0.53500003
0.19024505 0.0038396225 0.53500003
0.19199802 0.0038467993 0.53600001
0.19339542 0.0038467993 0.53600001
0.19515623 0.003853976 0.537
0.19655621 0.003853976 0.537
0.19832486 0.0038611533 0.53800005
0.19972745 0.0038611533 0.53800005
0.2015039 0.00386833 0.53900003
0.2029091 0.00386833 0.53900003
0.20469338 0.0038755068 0.54000002
0.20610118 0.0038755068 0.54000002
0.20789327 0.0038826836 0.54100001
0.20930369 0.0038826836 0.54100001
0.21071412 0.0038826836 0.54100001
0.21212453 0.0038826836 0.54100001
0.21353495 0.0038826836 0.54100001
0.21534272 0.0038898606 0.54200006
0.21675573 0.0038898606 0.54200006
0.21857129 0.0038970374 0.54300004
0.21998692 0.0038970374 0.54300004
0.2218103 0.0039042141 0.54400003
0.22322853 0.0039042141 0.54400003
0.22505973 0.0039113909 0.54500002
0.22689612 0.0039185677 0.546
0.22831959 0.0039185677 0.546
0.23016383 0.0039257449 0.54700005
0.2315899 0.0039257449 0.54700005
0.23301595 0.0039257449 0.54700005
0.23487061 0.0039329217 0.54800004
0.23629929 0.0039329217 0.54800004
0.23772795 0.0039329217 0.54800004
0.23959304 0.0039400985 0.54900002
0.24102432 0.0039400985 0.54900002
0.24289723 0.0039472752 0.55000001
0.24433111 0.0039472752 0.55000001
0.245765 0.0039472752 0.55000001
0.24719888 0.0039472752 0.55000001
0.24863277 0.0039472752 0.55000001
0.2505213 0.003954452 0.551
0.2519578 0.003954452 0.551
0.25385419 0.0039616292 0.55200005
0.25529331 0.0039616292 0.55200005
0.2571975 0.003968806 0.55300003
0.25910687 0.0039759828 0.55400002
0.26055121 0.0039759828 0.55400002
0.26246843 0.0039831595 0.55500001
0.26391536 0.0039831595 0.55500001
-0.24112488 0.004177737 0.42700002
-0.24001166 0.004177737 0.42700002
-0.23889846 0.004177737 0.42700002
-0.23778522 0.004177737 0.42700002
-0.23667201 0.004177737 0.42700002
-0.23555881 0.004177737 0.42700002
-0.23444557 0.004177737 0.42700002
-0.23333237 0.004177737 0.42700002
-0.23276299 0.0041875211 0.42800003
-0.23164718 0.0041875211 0.42800003
-0.23106995 0.0041973051 0.42900002
-0.22995153 0.0041973051 0.42900002
-0.22936651 0.0042070886 0.43000001
-0.22824548 0.0042070886 0.43000001
-0.22765264 0.0042168731 0.43100002
-0.226529 0.0042168731 0.43100002
-0.22540537 0.0042168731 0.43100002
-0.22480209 0.0042266566 0.43200001
-0.22367582 0.0042266566 0.43200001
-0.22254957 0.0042266566 0.43200001
-0.22142333 0.0042266566 0.43200001
-0.22029705 0.0042266566 0.43200001
-0.21967816 0.0042364406 0.43300003
-0.21854931 0.0042364406 0.43300003
-0.21742046 0.0042364406 0.43300003
-0.21679111 0.0042462246 0.43400002
-0.21565963 0.0042462246 0.43400002
-0.21452817 0.0042462246 0.43400002
-0.2133967 0.0042462246 0.43400002
-0.21226525 0.0042462246 0.43400002
-0.21113378 0.0042462246 0.43400002
-0.21048619 0.0042560087 0.43500003
-0.20935212 0.0042560087 0.43500003
-0.20821804 0.0042560087 0.43500003
-0.20756003 0.0042657927 0.43600002
-0.20642334 0.0042657927 0.43600002
-0.2057575 0.0042755762 0.43700001
-0.20461822 0.0042755762 0.43700001
-0.20347893 0.0042755762 0.43700001
-0.20280266 0.0042853602 0.43800002
-0.20166078 0.0042853602 0.43800002
-0.20051888 0.0042853602 0.43800002
-0.19937699 0.0042853602 0.43800002
-0.19823509 0.0042853602 0.43800002
-0.19709319 0.0042853602 0.43800002
-0.1959513 0.0042853602 0.43800002
-0.19480941 0.0042853602 0.43800002
-0.19366752 0.0042853602 0.43800002
-0.19252561 0.0042853602 0.43800002
-0.19138373 0.0042853602 0.43800002
-0.19024183 0.0042853602 0.43800002
-0.18909994 0.0042853602 0.43800002
-0.18795805 0.0042853602 0.43800002
-0.18681616 0.0042853602 0.43800002
-0.18609816 0.0042951442 0.43900001
-0.18495367 0.0042951442 0.43900001
-0.18380916 0.0042951442 0.43900001
-0.18308076 0.0043049282 0.44000003
-0.18193366 0.0043049282 0.44000003
-0.18078654 0.0043049282 0.44000003
-0.18004771 0.0043147122 0.44100001
-0.17889799 0.0043147122 0.44100001
-0.17774828 0.0043147122 0.44100001
-0.17699902 0.0043244963 0.44200003
-0.1758467 0.0043244963 0.44200003
-0.1750896 0.0043342798 0.44300002
-0.17393468 0.0043342798 0.44300002
-0.17316978 0.0043440643 0.44400004
-0.17201224 0.0043440643 0.44400004
-0.1708547 0.0043440643 0.44400004
-0.16969717 0.0043440643 0.44400004
-0.16891922 0.0043538478 0.44500002
-0.16775908 0.0043538478 0.44500002
-0.16659893 0.0043538478 0.44500002
-0.16543879 0.0043538478 0.44500002
-0.16427864 0.0043538478 0.44500002
-0.16348505 0.0043636318 0.44600001
-0.16232231 0.0043636318 0.44600001
-0.16115955 0.0043636318 0.44600001
-0.15999681 0.0043636318 0.44600001
-0.15883406 0.0043636318 0.44600001
-0.15802483 0.0043734158 0.44700003
-0.15685947 0.0043734158 0.44700003
-0.15569411 0.0043734158 0.44700003
-0.15452877 0.0043734158 0.44700003
-0.15370649 0.0043831994 0.44800001
-0.15253852 0.0043831994 0.44800001
-0.15137056 0.0043831994 0.44800001
-0.1502026 0.0043831994 0.44800001
-0.14903463 0.0043831994 0.44800001
-0.14786667 0.0043831994 0.44800001
-0.1466987 0.0043831994 0.44800001
-0.14585559 0.0043929839 0.44900003
-0.14468502 0.0043929839 0.44900003
-0.14351445 0.0043929839 0.44900003
-0.1426609 0.0044027674 0.45000002
-0.14180213 0.0044125514 0.45100003
-0.14062636 0.0044125514 0.45100003
-0.13945056 0.0044125514 0.45100003
-0.13858138 0.0044223354 0.45200002
-0.13740298 0.0044223354 0.45200002
-0.13652597 0.004432119 0.45300001
-0.13534497 0.004432119 0.45300001
-0.13416398 0.004432119 0.45300001
-0.13327654 0.0044419034 0.45400003
-0.13209294 0.0044419034 0.45400003
-0.13119766 0.004451687 0.45500001
-0.13001145 0.004451687 0.45500001
-0.12910837 0.004461471 0.45600003
-0.12791954 0.004461471 0.45600003
-0.12673073 0.004461471 0.45600003
-0.12581721 0.004471255 0.45700002
-0.12462579 0.004471255 0.45700002
-0.12343436 0.004471255 0.45700002
-0.12224294 0.004471255 0.45700002
-0.1210515 0.004471255 0.45700002
-0.11986008 0.004471255 0.45700002
-0.11866865 0.004471255 0.45700002
-0.11773429 0.004481039 0.45800003
-0.11654025 0.004481039 0.45800003
-0.11534622 0.004481039 0.45800003
-0.11415218 0.004481039 0.45800003
-0.11295815 0.004481039 0.45800003
-0.11176411 0.004481039 0.45800003
-0.11057007 0.004481039 0.45800003
-0.10937604 0.004481039 0.45800003
-0.10841821 0.004490823 0.45900002
-0.10722157 0.004490823 0.45900002
-0.10602492 0.004490823 0.45900002
-0.10505666 0.0045006066 0.46000001
-0.10385741 0.0045006066 0.46000001
-0.10288133 0.0045103906 0.46100003
-0.10167947 0.0045103906 0.46100003
-0.10069557 0.0045201746 0.46200001
-0.099491112 0.0045201746 0.46200001
-0.098286651 0.0045201746 0.46200001
-0.097292326 0.0045299586 0.46300003
-0.09608525 0.0045299586 0.46300003
-0.095083103 0.0045397426 0.46400002
-0.093873426 0.0045397426 0.46400002
-0.09266375 0.0045397426 0.46400002
-0.091454066 0.0045397426 0.46400002
-0.09043888 0.0045495266 0.46500003
-0.089226596 0.0045495266 0.46500003
-0.088014312 0.0045495266 0.46500003
-0.086988695 0.0045593102 0.46600002
-0.085773811 0.0045593102 0.46600002
-0.084558919 0.0045593102 0.46600002
-0.083344027 0.0045593102 0.46600002
-0.082305372 0.0045690942 0.46700001
-0.08108788 0.0045690942 0.46700001
-0.07987038 0.0045690942 0.46700001
-0.078821301 0.0045788782 0.46800002
-0.077601202 0.0045788782 0.46800002
-0.076381087 0.0045788782 0.46800002
-0.075321577 0.0045886622 0.46900001
-0.07409887 0.0045886622 0.46900001
-0.072876155 0.0045886622 0.46900001
-0.071653441 0.0045886622 0.46900001
-0.070430733 0.0045886622 0.46900001
-0.069355585 0.0045984462 0.47000003
-0.06813027 0.0045984462 0.47000003
-0.066904947 0.0045984462 0.47000003
-0.065819368 0.0046082297 0.47100002
-0.064591445 0.0046082297 0.47100002
-0.06349805 0.0046180142 0.47200003
-0.062267516 0.0046180142 0.47200003
-0.061166286 0.0046277978 0.47300002
-0.059933148 0.0046277978 0.47300002
-0.05870001 0.0046277978 0.47300002
-0.057588365 0.0046375818 0.47400004
-0.056352615 0.0046375818 0.47400004
-0.055116866 0.0046375818 0.47400004
-0.053994793 0.0046473658 0.47500002
-0.052756436 0.0046473658 0.47500002
-0.051518083 0.0046473658 0.47500002
-0.050385579 0.0046571493 0.47600001
-0.049144614 0.0046571493 0.47600001
-0.04790365 0.0046571493 0.47600001
-0.046760723 0.0046669338 0.47700003
-0.045517154 0.0046669338 0.47700003
-0.044273585 0.0046669338 0.47700003
-0.043030016 0.0046669338 0.47700003
-0.041786447 0.0046669338 0.47700003
-0.040627867 0.0046767173 0.47800002
-0.039381694 0.0046767173 0.47800002
-0.038135517 0.0046767173 0.47800002
-0.036889341 0.0046767173 0.47800002
-0.035717733 0.0046865013 0.47900003
-0.034468949 0.0046865013 0.47900003
-0.033289514 0.0046962854 0.48000002
-0.032038126 0.0046962854 0.48000002
-0.030786736 0.0046962854 0.48000002
-0.029596878 0.0047060694 0.48100004
-0.028342882 0.0047060694 0.48100004
-0.027088882 0.0047060694 0.48100004
-0.025834886 0.0047060694 0.48100004
-0.024631992 0.0047158534 0.48200002
-0.023375386 0.0047158534 0.48200002
-0.022118781 0.0047158534 0.48200002
-0.020905459 0.0047256369 0.48300001
-0.019646246 0.0047256369 0.48300001
-0.018387035 0.0047256369 0.48300001
-0.017127825 0.0047256369 0.48300001
-0.015868613 0.0047256369 0.48300001
-0.014639648 0.0047354209 0.48400003
-0.013377829 0.0047354209 0.48400003
-0.01211601 0.0047354209 0.48400003
-0.010854192 0.0047354209 0.48400003
-0.0096121915 0.0047452049 0.48500001
-0.0083477646 0.0047452049 0.48500001
-0.0070833392 0.0047452049 0.48500001
-0.0058309115 0.0047549889 0.48600003
-0.0045638788 0.0047549889 0.48600003
-0.0033036291 0.004764773 0.48700002
-0.0020339889 0.004764773 0.48700002
-0.00076591852 0.004774557 0.48800004
0.00050632859 0.004774557 0.48800004
0.0017822203 0.0047843405 0.48900002
0.0030570745 0.0047843405 0.48900002
0.0043319287 0.0047843405 0.48900002
0.0056067826 0.0047843405 0.48900002
0.0068957098 0.0047941245 0.49000001
0.0081731714 0.0047941245 0.49000001
0.0094699189 0.0048039085 0.49100003
0.010749987 0.0048039085 0.49100003
0.012030057 0.0048039085 0.49100003
0.013310124 0.0048039085 0.49100003
0.014590193 0.0048039085 0.49100003
0.01587026 0.0048039085 0.49100003
0.017185258 0.0048136925 0.49200001
0.018467933 0.0048136925 0.49200001
0.019750608 0.0048136925 0.49200001
0.021033283 0.0048136925 0.49200001
0.022361318 0.0048234765 0.49300003
0.023646601 0.0048234765 0.49300003
0.024931882 0.0048234765 0.49300003
0.026270343 0.0048332601 0.49400002
0.027558234 0.0048332601 0.49400002
0.028904516 0.0048430446 0.49500003
0.030195013 0.0048430446 0.49500003
0.031485509 0.0048430446 0.49500003
0.032842219 0.0048528281 0.49600002
0.034135323 0.0048528281 0.49600002
0.035499856 0.0048626121 0.49700001
0.036795564 0.0048626121 0.49700001
0.038091276 0.0048626121 0.49700001
0.039386984 0.0048626121 0.49700001
0.040764555 0.0048723961 0.49800003
0.042147335 0.0048821797 0.49900001
0.043448258 0.0048821797 0.49900001
0.044749185 0.0048821797 0.49900001
0.046050109 0.0048821797 0.49900001
0.047445923 0.0048919637 0.5
0.048749454 0.0048919637 0.5
0.050153099 0.0049017482 0.50100005
0.051459238 0.0049017482 0.50100005
0.052765377 0.0049017482 0.50100005
0.054179441 0.0049115317 0.50200003
0.055488188 0.0049115317 0.50200003
0.056910072 0.0049213157 0.50300002
0.05822143 0.0049213157 0.50300002
0.059651133 0.0049310992 0.50400001
0.060965095 0.0049310992 0.50400001
0.062279053 0.0049310992 0.50400001
0.063593015 0.0049310992 0.50400001
0.06490697 0.0049310992 0.50400001
0.066220932 0.0049310992 0.50400001
0.067668885 0.0049408833 0.505
0.068985455 0.0049408833 0.505
0.070302017 0.0049408833 0.505
0.071618594 0.0049408833 0.505
0.073079593 0.0049506677 0.50600004
0.074398771 0.0049506677 0.50600004
0.075717941 0.0049506677 0.50600004
0.077037118 0.0049506677 0.50600004
0.078356288 0.0049506677 0.50600004
0.079832919 0.0049604513 0.50700003
0.081154704 0.0049604513 0.50700003
0.082639158 0.0049702353 0.50800002
0.083963543 0.0049702353 0.50800002
0.08545582 0.0049800188 0.509
0.086782813 0.0049800188 0.509
0.08828292 0.0049898033 0.51000005
0.089788236 0.0049995873 0.51100004
0.091120452 0.0049995873 0.51100004
0.092633583 0.0050093709 0.51200002
0.093968399 0.0050093709 0.51200002
0.095489345 0.0050191549 0.51300001
0.096826769 0.0050191549 0.51300001
0.098355547 0.0050289389 0.514
0.099695578 0.0050289389 0.514
0.1010356 0.0050289389 0.514
0.10257482 0.0050387229 0.51500005
0.10391746 0.0050387229 0.51500005
0.10546448 0.0050485069 0.51600003
0.10680973 0.0050485069 0.51600003
0.10836457 0.0050582904 0.51700002
0.10971243 0.0050582904 0.51700002
0.11106028 0.0050582904 0.51700002
0.11262555 0.0050680744 0.51800001
0.11397601 0.0050680744 0.51800001
0.11532647 0.0050680744 0.51800001
0.11667693 0.0050680744 0.51800001
0.11802738 0.0050680744 0.51800001
0.11960831 0.0050778589 0.51900005
0.12096138 0.0050778589 0.51900005
0.12231445 0.0050778589 0.51900005
0.12366751 0.0050778589 0.51900005
0.12526146 0.0050876425 0.52000004
0.12661713 0.0050876425 0.52000004
0.12797281 0.0050876425 0.52000004
0.12957719 0.0050974265 0.52100003
0.13093546 0.0050974265 0.52100003
0.13229375 0.0050974265 0.52100003
0.13365202 0.0050974265 0.52100003
0.1350103 0.0050974265 0.52100003
0.1363686 0.0050974265 0.52100003
0.13799122 0.00510721 0.52200001
0.13935211 0.00510721 0.52200001
0.14071299 0.00510721 0.52200001
0.14234605 0.005116994 0.523
0.14370954 0.005116994 0.523
0.14535044 0.0051267785 0.52400005
0.14699653 0.005136562 0.52500004
0.14836524 0.005136562 0.52500004
0.15001914 0.0051463461 0.52600002
0.15139046 0.0051463461 0.52600002
0.1530522 0.0051561296 0.52700001
0.15442611 0.0051561296 0.52700001
0.15609568 0.0051659136 0.528
0.15747221 0.0051659136 0.528
0.15884873 0.0051659136 0.528
0.16052873 0.0051756981 0.52900004
0.16190788 0.0051756981 0.52900004
0.16359568 0.0051854816 0.53000003
0.16497742 0.0051854816 0.53000003
0.16635916 0.0051854816 0.53000003
0.1680574 0.0051952656 0.53100002
0.16944174 0.0051952656 0.53100002
0.17114779 0.0052050492 0.53200001
0.17253475 0.0052050492 0.53200001
0.17392172 0.0052050492 0.53200001
0.17563821 0.0052148337 0.53300005
0.17702778 0.0052148337 0.53300005
0.17841735 0.0052148337 0.53300005
0.1798069 0.0052148337 0.53300005
0.18153644 0.0052246177 0.53400004
0.18292859 0.0052246177 0.53400004
0.18432078 0.0052246177 0.53400004
0.18606071 0.0052344012 0.53500003
0.18745549 0.0052344012 0.53500003
0.18885027 0.0052344012 0.53500003
0.19024505 0.0052344012 0.53500003
0.19199802 0.0052441852 0.53600001
0.19339542 0.0052441852 0.53600001
0.19515623 0.0052539688 0.537
0.19692226 0.0052637532 0.53800005
0.19832486 0.0052637532 0.53800005
0.19972745 0.0052637532 0.53800005
0.2015039 0.0052735372 0.53900003
0.20328555 0.0052833208 0.54000002
0.20469338 0.0052833208 0.54000002
0.20610118 0.0052833208 0.54000002
0.20789327 0.0052931048 0.54100001
0.20930369 0.0052931048 0.54100001
0.21071412 0.0052931048 0.54100001
0.21212453 0.0052931048 0.54100001
0.21353495 0.0052931048 0.54100001
0.21534272 0.0053028893 0.54200006
0.21675573 0.0053028893 0.54200006
0.21857129 0.0053126728 0.54300004
0.21998692 0.0053126728 0.54300004
0.2218103 0.0053224568 0.54400003
0.22322853 0.0053224568 0.54400003
0.22505973 0.0053322404 0.54500002
0.22689612 0.0053420244 0.546
0.22831959 0.0053420244 0.546
0.23016383 0.0053518089 0.54700005
0.2315899 0.0053518089 0.54700005
0.23301595 0.0053518089 0.54700005
0.23487061 0.0053615924 0.54800004
0.23629929 0.0053615924 0.54800004
0.23772795 0.0053615924 0.54800004
0.23959304 0.0053713764 0.54900002
0.24102432 0.0053713764 0.54900002
0.24289723 0.00538116 0.55000001
0.24433111 0.00538116 0.55000001
0.245765 0.00538116 0.55000001
0.24719888 0.00538116 0.55000001
0.24863277 0.00538116 0.55000001
0.2505213 0.005390944 0.551
0.25241509 0.0054007284 0.55200005
0.25385419 0.0054007284 0.55200005
0.25575578 0.005410512 0.55300003
0.2571975 0.005410512 0.55300003
0.25910687 0.005420296 0.55400002
0.26055121 0.005420296 0.55400002
0.26246843 0.0054300795 0.55500001
0.26391536 0.0054300795 0.55500001
-0.24112488 0.0052909534 0.42700002
-0.24001166 0.0052909534 0.42700002
-0.23889846 0.0052909534 0.42700002
-0.23778522 0.0052909534 0.42700002
-0.23667201 0.0052909534 0.42700002
-0.23555881 0.0052909534 0.42700002
-0.23444557 0.0052909534 0.42700002
-0.23333237 0.0052909534 0.42700002
-0.23276299 0.0053033442 0.42800003
-0.23164718 0.0053033442 0.42800003
-0.23106995 0.0053157355 0.42900002
-0.22995153 0.0053157355 0.42900002
-0.22936651 0.0053281263 0.43000001
-0.22824548 0.0053281263 0.43000001
-0.22765264 0.0053405175 0.43100002
-0.226529 0.0053405175 0.43100002
-0.22540537 0.0053405175 0.43100002
-0.22480209 0.0053529083 0.43200001
-0.22367582 0.0053529083 0.43200001
-0.22254957 0.0053529083 0.43200001
-0.22142333 0.0053529083 0.43200001
-0.22080702 0.0053652995 0.43300003
-0.21967816 0.0053652995 0.43300003
-0.21854931 0.0053652995 0.43300003
-0.21742046 0.0053652995 0.43300003
-0.21679111 0.0053776903 0.43400002
-0.21565963 0.0053776903 0.43400002
-0.21452817 0.0053776903 0.43400002
-0.2133967 0.0053776903 0.43400002
-0.21226525 0.0053776903 0.43400002
-0.21113378 0.0053776903 0.43400002
-0.2100023 0.0053776903 0.43400002
-0.20935212 0.0053900816 0.43500003
-0.20821804 0.0053900816 0.43500003
-0.20756003 0.0054024723 0.43600002
-0.20642334 0.0054024723 0.43600002
-0.2057575 0.0054148631 0.43700001
-0.20461822 0.0054148631 0.43700001
-0.20347893 0.0054148631 0.43700001
-0.20280266 0.0054272544 0.43800002
-0.20166078 0.0054272544 0.43800002
-0.20051888 0.0054272544 0.43800002
-0.19937699 0.0054272544 0.43800002
-0.19823509 0.0054272544 0.43800002
-0.19709319 0.0054272544 0.43800002
-0.1959513 0.0054272544 0.43800002
-0.19480941 0.0054272544 0.43800002
-0.19366752 0.0054272544 0.43800002
-0.19252561 0.0054272544 0.43800002
-0.19138373 0.0054272544 0.43800002
-0.19024183 0.0054272544 0.43800002
-0.18953167 0.0054396451 0.43900001
-0.18838717 0.0054396451 0.43900001
-0.18724267 0.0054396451 0.43900001
-0.18609816 0.0054396451 0.43900001
-0.18495367 0.0054396451 0.43900001
-0.18422787 0.0054520364 0.44000003
-0.18308076 0.0054520364 0.44000003
-0.18193366 0.0054520364 0.44000003
-0.18119742 0.0054644272 0.44100001
-0.18004771 0.0054644272 0.44100001
-0.17889799 0.0054644272 0.44100001
-0.17815134 0.0054768184 0.44200003
-0.17699902 0.0054768184 0.44200003
-0.17624454 0.0054892092 0.44300002
