# .PCD v0.7 - Point Cloud Data file format
VERSION 0.7
FIELDS x y z
SIZE 4 4 4
TYPE F F F
COUNT 1 1 1
WIDTH 1332
HEIGHT 1
VIEWPOINT 0 0 0 1 0 0 0
POINTS 1332
DATA ascii
-0.18498296 -0.035958447 0.45600003
-0.18379414 -0.035958447 0.45600003
-0.18260531 -0.035958447 0.45600003
-0.18181434 -0.036037304 0.45700002
-0.18022768 -0.035958447 0.45600003
-0.17903887 -0.035958447 0.45600003
-0.17785004 -0.035958447 0.45600003
-0.17704862 -0.036037304 0.45700002
-0.1758572 -0.036037304 0.45700002
-0.17466576 -0.036037304 0.45700002
-0.17347434 -0.036037304 0.45700002
-0.1722829 -0.036037304 0.45700002
-0.17109148 -0.036037304 0.45700002
-0.16990004 -0.036037304 0.45700002
-0.16870864 -0.036037304 0.45700002
-0.1675172 -0.036037304 0.45700002
-0.16632578 -0.036037304 0.45700002
-0.16513434 -0.036037304 0.45700002
-0.16394292 -0.036037304 0.45700002
-0.16275148 -0.036037304 0.45700002
-0.16156006 -0.036037304 0.45700002
-0.16036864 -0.036037304 0.45700002
-0.1591772 -0.036037304 0.45700002
-0.15798578 -0.036037304 0.45700002
-0.15679434 -0.036037304 0.45700002
-0.15560292 -0.036037304 0.45700002
-0.15441148 -0.036037304 0.45700002
-0.15322007 -0.036037304 0.45700002
-0.15202864 -0.036037304 0.45700002
-0.15083721 -0.036037304 0.45700002
-0.14964578 -0.036037304 0.45700002
-0.14845435 -0.036037304 0.45700002
-0.14726292 -0.036037304 0.45700002
-0.14607149 -0.036037304 0.45700002
-0.14488007 -0.036037304 0.45700002
-0.14368863 -0.036037304 0.45700002
-0.14249721 -0.036037304 0.45700002
-0.14130577 -0.036037304 0.45700002
-0.13980776 -0.035958447 0.45600003
-0.13861893 -0.035958447 0.45600003
-0.13743012 -0.035958447 0.45600003
-0.1362413 -0.035958447 0.45600003
-0.13534865 -0.036037304 0.45700002
-0.13415721 -0.036037304 0.45700002
-0.13296579 -0.036037304 0.45700002
-0.13177435 -0.036037304 0.45700002
-0.13058293 -0.036037304 0.45700002
-0.12939151 -0.036037304 0.45700002
-0.12820007 -0.036037304 0.45700002
-0.12700865 -0.036037304 0.45700002
-0.12581721 -0.036037304 0.45700002
-0.12462579 -0.036037304 0.45700002
-0.12343436 -0.036037304 0.45700002
-0.12224294 -0.036037304 0.45700002
-0.1210515 -0.036037304 0.45700002
-0.11986008 -0.036037304 0.45700002
-0.11866865 -0.036037304 0.45700002
-0.11747722 -0.036037304 0.45700002
-0.11628579 -0.036037304 0.45700002
-0.11509437 -0.036037304 0.45700002
-0.11390293 -0.036037304 0.45700002
-0.1127115 -0.036037304 0.45700002
-0.11152008 -0.036037304 0.45700002
-0.11032865 -0.036037304 0.45700002
-0.10913722 -0.036037304 0.45700002
-0.1079458 -0.036037304 0.45700002
-0.10675437 -0.036037304 0.45700002
-0.10556293 -0.036037304 0.45700002
-0.10437151 -0.036037304 0.45700002
-0.10318008 -0.036037304 0.45700002
-0.10198865 -0.036037304 0.45700002
-0.10079722 -0.036037304 0.45700002
-0.099605799 -0.036037304 0.45700002
-0.098414369 -0.036037304 0.45700002
-0.097222939 -0.036037304 0.45700002
-0.096031517 -0.036037304 0.45700002
-0.094840087 -0.036037304 0.45700002
-0.093853585 -0.03611616 0.45800003
-0.092659548 -0.03611616 0.45800003
-0.09146551 -0.03611616 0.45800003
-0.090271473 -0.03611616 0.45800003
-0.089077435 -0.03611616 0.45800003
-0.088075288 -0.036195014 0.45900002
-0.086878642 -0.036195014 0.45900002
-0.085682005 -0.036195014 0.45900002
-0.084485359 -0.036195014 0.45900002
-0.083288722 -0.036195014 0.45900002
-0.081913225 -0.03611616 0.45800003
-0.080719195 -0.03611616 0.45800003
-0.079525158 -0.03611616 0.45800003
-0.078331128 -0.03611616 0.45800003
-0.07713709 -0.03611616 0.45800003
-0.075943053 -0.03611616 0.45800003
-0.074749015 -0.03611616 0.45800003
-0.073554978 -0.03611616 0.45800003
-0.072360948 -0.03611616 0.45800003
-0.07116691 -0.03611616 0.45800003
-0.069972873 -0.03611616 0.45800003
-0.068778843 -0.03611616 0.45800003
-0.067584805 -0.03611616 0.45800003
-0.066390768 -0.03611616 0.45800003
-0.065196738 -0.03611616 0.45800003
-0.064142443 -0.036195014 0.45900002
-0.062945805 -0.036195014 0.45900002
-0.06174916 -0.036195014 0.45900002
-0.060420599 -0.03611616 0.45800003
-0.059226558 -0.03611616 0.45800003
-0.05803252 -0.03611616 0.45800003
-0.05683849 -0.03611616 0.45800003
-0.055644456 -0.03611616 0.45800003
-0.054450419 -0.03611616 0.45800003
-0.053256381 -0.03611616 0.45800003
-0.052062348 -0.03611616 0.45800003
-0.050868314 -0.03611616 0.45800003
-0.04967428 -0.03611616 0.45800003
-0.048586093 -0.036195014 0.45900002
-0.047286205 -0.03611616 0.45800003
-0.046092171 -0.03611616 0.45800003
-0.044898137 -0.03611616 0.45800003
-0.0437041 -0.03611616 0.45800003
-0.042510066 -0.03611616 0.45800003
-0.041316032 -0.03611616 0.45800003
-0.040121999 -0.03611616 0.45800003
-0.038927961 -0.03611616 0.45800003
-0.037733924 -0.03611616 0.45800003
-0.03653989 -0.03611616 0.45800003
-0.035345856 -0.03611616 0.45800003
-0.034226388 -0.036195014 0.45900002
-0.033029746 -0.036195014 0.45900002
-0.031833101 -0.036195014 0.45900002
-0.030636458 -0.036195014 0.45900002
-0.029439816 -0.036195014 0.45900002
-0.028243175 -0.036195014 0.45900002
-0.027046533 -0.036195014 0.45900002
-0.02584989 -0.036195014 0.45900002
-0.024653248 -0.036195014 0.45900002
-0.023456607 -0.036195014 0.45900002
-0.022259964 -0.036195014 0.45900002
-0.02106332 -0.036195014 0.45900002
-0.019866679 -0.036195014 0.45900002
-0.018670036 -0.036195014 0.45900002
-0.017435327 -0.03611616 0.45800003
-0.016241292 -0.03611616 0.45800003
-0.015047257 -0.03611616 0.45800003
-0.01385322 -0.03611616 0.45800003
-0.012686825 -0.036195014 0.45900002
-0.011490183 -0.036195014 0.45900002
-0.010293541 -0.036195014 0.45900002
-0.0090968991 -0.036195014 0.45900002
-0.0079002557 -0.036195014 0.45900002
-0.0067036138 -0.036195014 0.45900002
-0.0055069719 -0.036195014 0.45900002
-0.0043103294 -0.036195014 0.45900002
-0.0031136875 -0.036195014 0.45900002
-0.0019170451 -0.036195014 0.45900002
-0.00072040287 -0.036195014 0.45900002
0.00047623939 -0.036195014 0.45900002
0.0016728817 -0.036195014 0.45900002
0.0028695238 -0.036195014 0.45900002
0.0040661665 -0.036195014 0.45900002
0.0052628084 -0.036195014 0.45900002
0.0064594503 -0.036195014 0.45900002
0.0076560932 -0.036195014 0.45900002
0.0088527352 -0.036195014 0.45900002
0.010049378 -0.036195014 0.45900002
0.011270521 -0.036273871 0.46000001
0.012469769 -0.036273871 0.46000001
0.01366902 -0.036273871 0.46000001
0.014868268 -0.036273871 0.46000001
0.016067516 -0.036273871 0.46000001
0.017266767 -0.036273871 0.46000001
0.018466016 -0.036273871 0.46000001
0.019665265 -0.036273871 0.46000001
0.020864515 -0.036273871 0.46000001
0.022063764 -0.036273871 0.46000001
0.023263013 -0.036273871 0.46000001
0.024462264 -0.036273871 0.46000001
0.025661511 -0.036273871 0.46000001
0.026860761 -0.036273871 0.46000001
0.028060012 -0.036273871 0.46000001
0.029259259 -0.036273871 0.46000001
0.03045851 -0.036273871 0.46000001
0.031657759 -0.036273871 0.46000001
0.032857008 -0.036273871 0.46000001
0.034056257 -0.036273871 0.46000001
0.035255507 -0.036273871 0.46000001
0.036375504 -0.036195014 0.45900002
0.037572149 -0.036195014 0.45900002
0.038768791 -0.036195014 0.45900002
0.039965436 -0.036195014 0.45900002
0.041162077 -0.036195014 0.45900002
0.042358719 -0.036195014 0.45900002
0.04355536 -0.036195014 0.45900002
0.044752002 -0.036195014 0.45900002
0.045948647 -0.036195014 0.45900002
0.047145288 -0.036195014 0.45900002
0.04834193 -0.036195014 0.45900002
0.049538571 -0.036195014 0.45900002
0.050735213 -0.036195014 0.45900002
0.051931854 -0.036195014 0.45900002
0.0531285 -0.036195014 0.45900002
0.054325141 -0.036195014 0.45900002
0.055521782 -0.036195014 0.45900002
0.056718424 -0.036195014 0.45900002
0.057915065 -0.036195014 0.45900002
0.05924049 -0.036273871 0.46000001
0.060439739 -0.036273871 0.46000001
0.061638989 -0.036273871 0.46000001
0.062701635 -0.036195014 0.45900002
0.063898273 -0.036195014 0.45900002
0.065094925 -0.036195014 0.45900002
0.066291563 -0.036195014 0.45900002
0.067488208 -0.036195014 0.45900002
0.068535209 -0.03611616 0.45800003
0.069729246 -0.03611616 0.45800003
0.070923284 -0.03611616 0.45800003
0.072831139 -0.03587959 0.45500001
0.073692001 -0.035721876 0.45300001
0.074211873 -0.035406452 0.44900003
0.07632006 -0.033750471 0.42800003
0.077074036 -0.033592761 0.42600003
0.078001112 -0.033513904 0.42500001
0.078922972 -0.033435047 0.42400002
0.08002837 -0.033435047 0.42400002
0.080942407 -0.03335619 0.42300001
0.081851237 -0.033277333 0.42200002
0.082951419 -0.033277333 0.42200002
0.083653249 -0.033119623 0.42000002
0.084748216 -0.033119623 0.42000002
0.085638791 -0.033040766 0.41900003
0.086524151 -0.032961909 0.41800001
0.087404311 -0.032883052 0.41700003
0.088491455 -0.032883052 0.41700003
0.089363784 -0.032804195 0.41600001
0.09044832 -0.032804195 0.41600001
0.091532856 -0.032804195 0.41600001
0.092617393 -0.032804195 0.41600001
0.09347669 -0.032725342 0.41500002
0.094558626 -0.032725342 0.41500002
0.095640555 -0.032725342 0.41500002
0.096722484 -0.032725342 0.41500002
0.097804412 -0.032725342 0.41500002
0.099124625 -0.032804195 0.41600001
0.10020916 -0.032804195 0.41600001
0.10153721 -0.032883052 0.41700003
0.10262435 -0.032883052 0.41700003
0.1039602 -0.032961909 0.41800001
0.10530127 -0.033040766 0.41900003
0.10664755 -0.033119623 0.42000002
0.10774251 -0.033119623 0.42000002
0.10883749 -0.033119623 0.42000002
0.11019421 -0.03319848 0.42100003
0.11129177 -0.03319848 0.42100003
0.11485667 -0.033277333 0.42200002
0.11595684 -0.033277333 0.42200002
0.11733441 -0.03335619 0.42300001
0.11843719 -0.03335619 0.42300001
0.11953998 -0.03335619 0.42300001
0.12092798 -0.033435047 0.42400002
0.12289682 -0.033671614 0.42700002
0.13480575 -0.035643023 0.45200002
0.13748841 -0.036037304 0.45700002
0.13928674 -0.036195014 0.45900002
0.14078945 -0.036273871 0.46000001
0.14198869 -0.036273871 0.46000001
0.14318794 -0.036273871 0.46000001
0.14470108 -0.036352728 0.46100003
0.14590295 -0.036352728 0.46100003
0.14710478 -0.036352728 0.46100003
0.14862835 -0.036431581 0.46200001
0.14983281 -0.036431581 0.46200001
0.15071036 -0.036352728 0.46100003
0.15191223 -0.036352728 0.46100003
0.15311408 -0.036352728 0.46100003
0.15431593 -0.036352728 0.46100003
0.15551779 -0.036352728 0.46100003
0.15671965 -0.036352728 0.46100003
0.15826406 -0.036431581 0.46200001
0.15946853 -0.036431581 0.46200001
0.16067298 -0.036431581 0.46200001
0.16187745 -0.036431581 0.46200001
0.16308191 -0.036431581 0.46200001
0.16428638 -0.036431581 0.46200001
0.16584904 -0.036510441 0.46300003
0.16705613 -0.036510441 0.46300003
0.1682632 -0.036510441 0.46300003
0.16910423 -0.036431581 0.46200001
0.17030869 -0.036431581 0.46200001
0.17151316 -0.036431581 0.46200001
0.17271763 -0.036431581 0.46200001
0.17392208 -0.036431581 0.46200001
0.17512655 -0.036431581 0.46200001
0.17633101 -0.036431581 0.46200001
0.17753547 -0.036431581 0.46200001
0.17873994 -0.036431581 0.46200001
0.1799444 -0.036431581 0.46200001
0.18114886 -0.036431581 0.46200001
0.18235333 -0.036431581 0.46200001
0.18355779 -0.036431581 0.46200001
0.18436234 -0.036352728 0.46100003
0.18556421 -0.036352728 0.46100003
0.18676606 -0.036352728 0.46100003
0.18796791 -0.036352728 0.46100003
0.18916976 -0.036352728 0.46100003
0.19037163 -0.036352728 0.46100003
0.19157347 -0.036352728 0.46100003
0.1931935 -0.036431581 0.46200001
0.19439796 -0.036431581 0.46200001
0.19560243 -0.036431581 0.46200001
0.19680688 -0.036431581 0.46200001
0.19801135 -0.036431581 0.46200001
0.19921583 -0.036431581 0.46200001
0.20085409 -0.036510441 0.46300003
0.20206118 -0.036510441 0.46300003
0.20326823 -0.036510441 0.46300003
0.20447531 -0.036510441 0.46300003
0.20568238 -0.036510441 0.46300003
0.20688945 -0.036510441 0.46300003
0.20809652 -0.036510441 0.46300003
0.20930359 -0.036510441 0.46300003
0.21051066 -0.036510441 0.46300003
0.21171774 -0.036510441 0.46300003
0.21292479 -0.036510441 0.46300003
0.21366937 -0.036431581 0.46200001
0.21533895 -0.036510441 0.46300003
0.21654601 -0.036510441 0.46300003
0.21775308 -0.036510441 0.46300003
-0.25575012 -0.034693375 0.45500001
-0.25456393 -0.034693375 0.45500001
-0.25337771 -0.034693375 0.45500001
-0.25274578 -0.034769624 0.45600003
-0.25155696 -0.034769624 0.45600003
-0.25036812 -0.034769624 0.45600003
-0.24917929 -0.034769624 0.45600003
-0.24799047 -0.034769624 0.45600003
-0.24680167 -0.034769624 0.45600003
-0.24561283 -0.034769624 0.45600003
-0.24442402 -0.034769624 0.45600003
-0.2432352 -0.034769624 0.45600003
-0.24204639 -0.034769624 0.45600003
-0.24085754 -0.034769624 0.45600003
-0.23966873 -0.034769624 0.45600003
-0.23847991 -0.034769624 0.45600003
-0.23677072 -0.034693375 0.45500001
-0.23610227 -0.034769624 0.45600003
-0.23491345 -0.034769624 0.45600003
-0.23372464 -0.034769624 0.45600003
-0.23253579 -0.034769624 0.45600003
-0.23134698 -0.034769624 0.45600003
-0.23015817 -0.034769624 0.45600003
-0.22896935 -0.034769624 0.45600003
-0.22778052 -0.034769624 0.45600003
-0.22659169 -0.034769624 0.45600003
-0.22540288 -0.034769624 0.45600003
-0.22421406 -0.034769624 0.45600003
-0.22302525 -0.034769624 0.45600003
-0.22183642 -0.034769624 0.45600003
-0.22064759 -0.034769624 0.45600003
-0.21945877 -0.034769624 0.45600003
-0.21826994 -0.034769624 0.45600003
-0.21708113 -0.034769624 0.45600003
-0.2158923 -0.034769624 0.45600003
-0.21470349 -0.034769624 0.45600003
-0.21351467 -0.034769624 0.45600003
-0.21232586 -0.034769624 0.45600003
-0.21113703 -0.034769624 0.45600003
-0.20994821 -0.034769624 0.45600003
-0.20875938 -0.034769624 0.45600003
-0.20757057 -0.034769624 0.45600003
-0.20638174 -0.034769624 0.45600003
-0.20519291 -0.034769624 0.45600003
-0.20445147 -0.034845874 0.45700002
-0.20326003 -0.034845874 0.45700002
-0.20206861 -0.034845874 0.45700002
-0.20087719 -0.034845874 0.45700002
-0.19968577 -0.034845874 0.45700002
-0.19849433 -0.034845874 0.45700002
-0.19730291 -0.034845874 0.45700002
-0.19611147 -0.034845874 0.45700002
-0.19492005 -0.034845874 0.45700002
-0.19372861 -0.034845874 0.45700002
-0.1925372 -0.034845874 0.45700002
-0.19134577 -0.034845874 0.45700002
-0.19015433 -0.034845874 0.45700002
-0.18896291 -0.034845874 0.45700002
-0.18777147 -0.034845874 0.45700002
-0.18658005 -0.034845874 0.45700002
-0.18498296 -0.034769624 0.45600003
-0.18379414 -0.034769624 0.45600003
-0.18260531 -0.034769624 0.45600003
-0.1814165 -0.034769624 0.45600003
-0.18022768 -0.034769624 0.45600003
-0.17903887 -0.034769624 0.45600003
-0.17785004 -0.034769624 0.45600003
-0.17704862 -0.034845874 0.45700002
-0.1758572 -0.034845874 0.45700002
-0.17466576 -0.034845874 0.45700002
-0.17347434 -0.034845874 0.45700002
-0.1722829 -0.034845874 0.45700002
-0.17109148 -0.034845874 0.45700002
-0.16990004 -0.034845874 0.45700002
-0.16870864 -0.034845874 0.45700002
-0.1675172 -0.034845874 0.45700002
-0.16632578 -0.034845874 0.45700002
-0.16513434 -0.034845874 0.45700002
-0.16394292 -0.034845874 0.45700002
-0.16275148 -0.034845874 0.45700002
-0.16156006 -0.034845874 0.45700002
-0.16036864 -0.034845874 0.45700002
-0.1591772 -0.034845874 0.45700002
-0.15798578 -0.034845874 0.45700002
-0.15679434 -0.034845874 0.45700002
-0.15560292 -0.034845874 0.45700002
-0.15441148 -0.034845874 0.45700002
-0.15322007 -0.034845874 0.45700002
-0.15202864 -0.034845874 0.45700002
-0.15083721 -0.034845874 0.45700002
-0.14964578 -0.034845874 0.45700002
-0.14845435 -0.034845874 0.45700002
-0.14726292 -0.034845874 0.45700002
-0.14607149 -0.034845874 0.45700002
-0.14488007 -0.034845874 0.45700002
-0.14368863 -0.034845874 0.45700002
-0.14249721 -0.034845874 0.45700002
-0.14130577 -0.034845874 0.45700002
-0.13980776 -0.034769624 0.45600003
-0.13861893 -0.034769624 0.45600003
-0.13743012 -0.034769624 0.45600003
-0.1362413 -0.034769624 0.45600003
-0.13534865 -0.034845874 0.45700002
-0.13415721 -0.034845874 0.45700002
-0.13296579 -0.034845874 0.45700002
-0.13177435 -0.034845874 0.45700002
-0.13058293 -0.034845874 0.45700002
-0.12939151 -0.034845874 0.45700002
-0.12820007 -0.034845874 0.45700002
-0.12700865 -0.034845874 0.45700002
-0.12581721 -0.034845874 0.45700002
-0.12462579 -0.034845874 0.45700002
-0.12343436 -0.034845874 0.45700002
-0.12224294 -0.034845874 0.45700002
-0.1210515 -0.034845874 0.45700002
-0.11986008 -0.034845874 0.45700002
-0.11866865 -0.034845874 0.45700002
-0.11747722 -0.034845874 0.45700002
-0.11628579 -0.034845874 0.45700002
-0.11509437 -0.034845874 0.45700002
-0.11390293 -0.034845874 0.45700002
-0.1127115 -0.034845874 0.45700002
-0.11152008 -0.034845874 0.45700002
-0.11032865 -0.034845874 0.45700002
-0.10913722 -0.034845874 0.45700002
-0.1079458 -0.034845874 0.45700002
-0.10675437 -0.034845874 0.45700002
-0.10556293 -0.034845874 0.45700002
-0.10437151 -0.034845874 0.45700002
-0.10318008 -0.034845874 0.45700002
-0.10198865 -0.034845874 0.45700002
-0.10079722 -0.034845874 0.45700002
-0.099605799 -0.034845874 0.45700002
-0.098414369 -0.034845874 0.45700002
-0.097222939 -0.034845874 0.45700002
-0.096031517 -0.034845874 0.45700002
-0.094840087 -0.034845874 0.45700002
-0.093853585 -0.034922123 0.45800003
-0.092659548 -0.034922123 0.45800003
-0.09146551 -0.034922123 0.45800003
-0.090271473 -0.034922123 0.45800003
-0.089077435 -0.034922123 0.45800003
-0.088075288 -0.034998372 0.45900002
-0.086878642 -0.034998372 0.45900002
-0.085682005 -0.034998372 0.45900002
-0.084485359 -0.034998372 0.45900002
-0.083288722 -0.034998372 0.45900002
-0.082092077 -0.034998372 0.45900002
-0.080719195 -0.034922123 0.45800003
-0.079525158 -0.034922123 0.45800003
-0.078331128 -0.034922123 0.45800003
-0.07713709 -0.034922123 0.45800003
-0.075943053 -0.034922123 0.45800003
-0.074749015 -0.034922123 0.45800003
-0.073554978 -0.034922123 0.45800003
-0.072360948 -0.034922123 0.45800003
-0.07116691 -0.034922123 0.45800003
-0.069972873 -0.034922123 0.45800003
-0.068778843 -0.034922123 0.45800003
-0.067584805 -0.034922123 0.45800003
-0.066535726 -0.034998372 0.45900002
-0.065196738 -0.034922123 0.45800003
-0.064142443 -0.034998372 0.45900002
-0.062945805 -0.034998372 0.45900002
-0.06174916 -0.034998372 0.45900002
-0.060420599 -0.034922123 0.45800003
-0.059226558 -0.034922123 0.45800003
-0.05803252 -0.034922123 0.45800003
-0.05683849 -0.034922123 0.45800003
-0.055644456 -0.034922123 0.45800003
-0.054450419 -0.034922123 0.45800003
-0.053256381 -0.034922123 0.45800003
-0.052062348 -0.034922123 0.45800003
-0.050868314 -0.034922123 0.45800003
-0.049782734 -0.034998372 0.45900002
-0.048586093 -0.034998372 0.45900002
-0.047389448 -0.034998372 0.45900002
-0.046192806 -0.034998372 0.45900002
-0.044996165 -0.034998372 0.45900002
-0.043799523 -0.034998372 0.45900002
-0.042510066 -0.034922123 0.45800003
-0.041316032 -0.034922123 0.45800003
-0.040121999 -0.034922123 0.45800003
-0.038927961 -0.034922123 0.45800003
-0.037733924 -0.034922123 0.45800003
-0.03653989 -0.034922123 0.45800003
-0.035423029 -0.034998372 0.45900002
-0.034226388 -0.034998372 0.45900002
-0.033029746 -0.034998372 0.45900002
-0.031833101 -0.034998372 0.45900002
-0.030636458 -0.034998372 0.45900002
-0.029439816 -0.034998372 0.45900002
-0.028243175 -0.034998372 0.45900002
-0.027046533 -0.034998372 0.45900002
-0.02584989 -0.034998372 0.45900002
-0.024653248 -0.034998372 0.45900002
-0.023456607 -0.034998372 0.45900002
-0.022259964 -0.034998372 0.45900002
-0.02106332 -0.034998372 0.45900002
-0.019866679 -0.034998372 0.45900002
-0.018629361 -0.034922123 0.45800003
-0.017435327 -0.034922123 0.45800003
-0.016241292 -0.034922123 0.45800003
-0.015047257 -0.034922123 0.45800003
-0.013883467 -0.034998372 0.45900002
-0.012686825 -0.034998372 0.45900002
-0.011490183 -0.034998372 0.45900002
-0.010293541 -0.034998372 0.45900002
-0.0090968991 -0.034998372 0.45900002
-0.0079002557 -0.034998372 0.45900002
-0.0067036138 -0.034998372 0.45900002
-0.0055069719 -0.034998372 0.45900002
-0.0043103294 -0.034998372 0.45900002
-0.0031136875 -0.034998372 0.45900002
-0.0019170451 -0.034998372 0.45900002
-0.00072040287 -0.034998372 0.45900002
0.00047623939 -0.034998372 0.45900002
0.0016728817 -0.034998372 0.45900002
0.0028695238 -0.034998372 0.45900002
0.0040661665 -0.034998372 0.45900002
0.0052628084 -0.034998372 0.45900002
0.0064594503 -0.034998372 0.45900002
0.0076560932 -0.034998372 0.45900002
0.0088527352 -0.034998372 0.45900002
0.010049378 -0.034998372 0.45900002
0.011270521 -0.035074621 0.46000001
0.012469769 -0.035074621 0.46000001
0.01366902 -0.035074621 0.46000001
0.014868268 -0.035074621 0.46000001
0.016067516 -0.035074621 0.46000001
0.017266767 -0.035074621 0.46000001
0.018466016 -0.035074621 0.46000001
0.019665265 -0.035074621 0.46000001
0.020864515 -0.035074621 0.46000001
0.022063764 -0.035074621 0.46000001
0.023263013 -0.035074621 0.46000001
0.024462264 -0.035074621 0.46000001
0.025661511 -0.035074621 0.46000001
0.026860761 -0.035074621 0.46000001
0.028060012 -0.035074621 0.46000001
0.029259259 -0.035074621 0.46000001
0.03045851 -0.035074621 0.46000001
0.031657759 -0.035074621 0.46000001
0.032857008 -0.035074621 0.46000001
0.034056257 -0.035074621 0.46000001
0.035255507 -0.035074621 0.46000001
0.036375504 -0.034998372 0.45900002
0.037572149 -0.034998372 0.45900002
0.038768791 -0.034998372 0.45900002
0.039965436 -0.034998372 0.45900002
0.041162077 -0.034998372 0.45900002
0.042358719 -0.034998372 0.45900002
0.04355536 -0.034998372 0.45900002
0.044752002 -0.034998372 0.45900002
0.045948647 -0.034998372 0.45900002
0.047145288 -0.034998372 0.45900002
0.04834193 -0.034998372 0.45900002
0.049538571 -0.034998372 0.45900002
0.050735213 -0.034998372 0.45900002
0.051931854 -0.034998372 0.45900002
0.0531285 -0.034998372 0.45900002
0.054325141 -0.034998372 0.45900002
0.055521782 -0.034998372 0.45900002
0.056718424 -0.034998372 0.45900002
0.057915065 -0.034998372 0.45900002
0.05924049 -0.035074621 0.46000001
0.060439739 -0.035074621 0.46000001
0.061638989 -0.035074621 0.46000001
0.062701635 -0.034998372 0.45900002
0.063898273 -0.034998372 0.45900002
0.065094925 -0.034998372 0.45900002
0.066291563 -0.034998372 0.45900002
0.067341179 -0.034922123 0.45800003
0.068535209 -0.034922123 0.45800003
0.069729246 -0.034922123 0.45800003
0.070768423 -0.034845874 0.45700002
0.071802393 -0.034769624 0.45600003
0.072671078 -0.034617126 0.45400003
0.073203981 -0.034312129 0.45000002
0.075379945 -0.032710899 0.42900002
0.075963423 -0.032482151 0.42600003
0.076893106 -0.032405902 0.42500001
0.077817582 -0.032329652 0.42400002
0.078922972 -0.032329652 0.42400002
0.079839617 -0.032253403 0.42300001
0.080942407 -0.032253403 0.42300001
0.081851237 -0.032177154 0.42200002
0.08275485 -0.032100905 0.42100003
0.083653249 -0.032024655 0.42000002
0.084546432 -0.031948406 0.41900003
0.0854344 -0.031872157 0.41800001
0.086317159 -0.031795908 0.41700003
0.087404311 -0.031795908 0.41700003
0.088279247 -0.031719659 0.41600001
0.089363784 -0.031719659 0.41600001
0.09044832 -0.031719659 0.41600001
0.091312833 -0.031643409 0.41500002
0.092394762 -0.031643409 0.41500002
0.09347669 -0.031643409 0.41500002
0.094558626 -0.031643409 0.41500002
0.095640555 -0.031643409 0.41500002
0.096722484 -0.031643409 0.41500002
0.097804412 -0.031643409 0.41500002
0.098886348 -0.031643409 0.41500002
0.10020916 -0.031719659 0.41600001
0.10153721 -0.031795908 0.41700003
0.10287045 -0.031872157 0.41800001
0.1039602 -0.031872157 0.41800001
0.10530127 -0.031948406 0.41900003
0.10664755 -0.032024655 0.42000002
0.10774251 -0.032024655 0.42000002
0.10883749 -0.032024655 0.42000002
0.11019421 -0.032100905 0.42100003
0.11485667 -0.032177154 0.42200002
0.11623162 -0.032253403 0.42300001
0.11733441 -0.032253403 0.42300001
0.11843719 -0.032253403 0.42300001
0.11953998 -0.032253403 0.42300001
0.12092798 -0.032329652 0.42400002
0.12318464 -0.032634649 0.42800003
0.135104 -0.034540877 0.45300001
0.13778926 -0.034922123 0.45800003
0.13959019 -0.035074621 0.46000001
0.14078945 -0.035074621 0.46000001
0.14198869 -0.035074621 0.46000001
0.14349923 -0.035150871 0.46100003
0.14470108 -0.035150871 0.46100003
0.14590295 -0.035150871 0.46100003
0.14710478 -0.035150871 0.46100003
0.14830665 -0.035150871 0.46100003
0.14983281 -0.03522712 0.46200001
0.15071036 -0.035150871 0.46100003
0.15191223 -0.035150871 0.46100003
0.15311408 -0.035150871 0.46100003
0.15431593 -0.035150871 0.46100003
0.15551779 -0.035150871 0.46100003
0.15671965 -0.035150871 0.46100003
0.15792149 -0.035150871 0.46100003
0.15946853 -0.03522712 0.46200001
0.16067298 -0.03522712 0.46200001
0.16187745 -0.03522712 0.46200001
0.16308191 -0.03522712 0.46200001
0.16428638 -0.03522712 0.46200001
0.16549084 -0.03522712 0.46200001
0.16705613 -0.035303369 0.46300003
0.1682632 -0.035303369 0.46300003
0.16947027 -0.035303369 0.46300003
0.17030869 -0.03522712 0.46200001
0.17151316 -0.03522712 0.46200001
0.17271763 -0.03522712 0.46200001
0.17392208 -0.03522712 0.46200001
0.17512655 -0.03522712 0.46200001
0.17633101 -0.03522712 0.46200001
0.17753547 -0.03522712 0.46200001
0.17873994 -0.03522712 0.46200001
0.1799444 -0.03522712 0.46200001
0.18114886 -0.03522712 0.46200001
0.18235333 -0.03522712 0.46200001
0.18355779 -0.03522712 0.46200001
0.18436234 -0.035150871 0.46100003
0.18556421 -0.035150871 0.46100003
0.18676606 -0.035150871 0.46100003
0.18796791 -0.035150871 0.46100003
0.18916976 -0.035150871 0.46100003
0.19037163 -0.035150871 0.46100003
0.19157347 -0.035150871 0.46100003
0.1931935 -0.03522712 0.46200001
0.19439796 -0.03522712 0.46200001
0.19560243 -0.03522712 0.46200001
0.19680688 -0.03522712 0.46200001
0.19801135 -0.03522712 0.46200001
0.19964704 -0.035303369 0.46300003
0.20085409 -0.035303369 0.46300003
0.20206118 -0.035303369 0.46300003
0.20326823 -0.035303369 0.46300003
0.20447531 -0.035303369 0.46300003
0.20568238 -0.035303369 0.46300003
0.20688945 -0.035303369 0.46300003
0.20809652 -0.035303369 0.46300003
0.20930359 -0.035303369 0.46300003
0.21051066 -0.035303369 0.46300003
0.21171774 -0.035303369 0.46300003
0.21292479 -0.035303369 0.46300003
0.21413188 -0.035303369 0.46300003
0.21533895 -0.035303369 0.46300003
0.21654601 -0.035303369 0.46300003
0.21775308 -0.035303369 0.46300003
-0.25575012 -0.033507157 0.45500001
-0.25456393 -0.033507157 0.45500001
-0.25337771 -0.033507157 0.45500001
-0.25219148 -0.033507157 0.45500001
-0.25155696 -0.033580802 0.45600003
-0.25036812 -0.033580802 0.45600003
-0.24917929 -0.033580802 0.45600003
-0.24799047 -0.033580802 0.45600003
-0.24680167 -0.033580802 0.45600003
-0.24561283 -0.033580802 0.45600003
-0.24442402 -0.033580802 0.45600003
-0.2432352 -0.033580802 0.45600003
-0.24204639 -0.033580802 0.45600003
-0.24085754 -0.033580802 0.45600003
-0.23966873 -0.033580802 0.45600003
-0.23847991 -0.033580802 0.45600003
-0.23677072 -0.033507157 0.45500001
-0.23610227 -0.033580802 0.45600003
-0.23491345 -0.033580802 0.45600003
-0.23372464 -0.033580802 0.45600003
-0.23253579 -0.033580802 0.45600003
-0.23134698 -0.033580802 0.45600003
-0.23015817 -0.033580802 0.45600003
-0.22896935 -0.033580802 0.45600003
-0.22778052 -0.033580802 0.45600003
-0.22659169 -0.033580802 0.45600003
-0.22540288 -0.033580802 0.45600003
-0.22421406 -0.033580802 0.45600003
-0.22302525 -0.033580802 0.45600003
-0.22183642 -0.033580802 0.45600003
-0.22064759 -0.033580802 0.45600003
-0.21945877 -0.033580802 0.45600003
-0.21826994 -0.033580802 0.45600003
-0.21708113 -0.033580802 0.45600003
-0.2158923 -0.033580802 0.45600003
-0.21470349 -0.033580802 0.45600003
-0.21351467 -0.033580802 0.45600003
-0.21232586 -0.033580802 0.45600003
-0.21113703 -0.033580802 0.45600003
-0.20994821 -0.033580802 0.45600003
-0.20875938 -0.033580802 0.45600003
-0.20757057 -0.033580802 0.45600003
-0.20638174 -0.033580802 0.45600003
-0.20519291 -0.033580802 0.45600003
-0.20400409 -0.033580802 0.45600003
-0.20326003 -0.033654444 0.45700002
-0.20206861 -0.033654444 0.45700002
-0.20087719 -0.033654444 0.45700002
-0.19968577 -0.033654444 0.45700002
-0.19849433 -0.033654444 0.45700002
-0.19730291 -0.033654444 0.45700002
-0.19611147 -0.033654444 0.45700002
-0.19492005 -0.033654444 0.45700002
-0.19372861 -0.033654444 0.45700002
-0.1925372 -0.033654444 0.45700002
-0.19134577 -0.033654444 0.45700002
-0.19015433 -0.033654444 0.45700002
-0.18896291 -0.033654444 0.45700002
-0.1873606 -0.033580802 0.45600003
-0.18617178 -0.033580802 0.45600003
-0.18498296 -0.033580802 0.45600003
-0.18379414 -0.033580802 0.45600003
-0.18260531 -0.033580802 0.45600003
-0.1814165 -0.033580802 0.45600003
-0.18022768 -0.033580802 0.45600003
-0.17903887 -0.033580802 0.45600003
-0.17785004 -0.033580802 0.45600003
-0.17666122 -0.033580802 0.45600003
-0.17547239 -0.033580802 0.45600003
-0.17428356 -0.033580802 0.45600003
-0.17309475 -0.033580802 0.45600003
-0.1722829 -0.033654444 0.45700002
-0.17109148 -0.033654444 0.45700002
-0.16990004 -0.033654444 0.45700002
-0.16870864 -0.033654444 0.45700002
-0.1675172 -0.033654444 0.45700002
-0.16632578 -0.033654444 0.45700002
-0.16513434 -0.033654444 0.45700002
-0.16394292 -0.033654444 0.45700002
-0.16275148 -0.033654444 0.45700002
-0.16156006 -0.033654444 0.45700002
-0.16036864 -0.033654444 0.45700002
-0.1591772 -0.033654444 0.45700002
-0.15798578 -0.033654444 0.45700002
-0.15679434 -0.033654444 0.45700002
-0.15560292 -0.033654444 0.45700002
-0.15441148 -0.033654444 0.45700002
-0.15322007 -0.033654444 0.45700002
-0.15202864 -0.033654444 0.45700002
-0.15083721 -0.033654444 0.45700002
-0.14964578 -0.033654444 0.45700002
-0.14845435 -0.033654444 0.45700002
-0.14726292 -0.033654444 0.45700002
-0.14607149 -0.033654444 0.45700002
-0.14488007 -0.033654444 0.45700002
-0.14368863 -0.033654444 0.45700002
-0.14249721 -0.033654444 0.45700002
-0.14130577 -0.033654444 0.45700002
-0.13980776 -0.033580802 0.45600003
-0.13861893 -0.033580802 0.45600003
-0.13743012 -0.033580802 0.45600003
-0.13654007 -0.033654444 0.45700002
-0.13534865 -0.033654444 0.45700002
-0.13415721 -0.033654444 0.45700002
-0.13296579 -0.033654444 0.45700002
-0.13177435 -0.033654444 0.45700002
-0.13058293 -0.033654444 0.45700002
-0.12939151 -0.033654444 0.45700002
-0.12820007 -0.033654444 0.45700002
-0.12700865 -0.033654444 0.45700002
-0.12581721 -0.033654444 0.45700002
-0.12462579 -0.033654444 0.45700002
-0.12343436 -0.033654444 0.45700002
-0.12224294 -0.033654444 0.45700002
-0.1210515 -0.033654444 0.45700002
-0.11986008 -0.033654444 0.45700002
-0.11866865 -0.033654444 0.45700002
-0.11747722 -0.033654444 0.45700002
-0.11628579 -0.033654444 0.45700002
-0.11509437 -0.033654444 0.45700002
-0.11390293 -0.033654444 0.45700002
-0.1127115 -0.033654444 0.45700002
-0.11152008 -0.033654444 0.45700002
-0.11032865 -0.033654444 0.45700002
-0.10913722 -0.033654444 0.45700002
-0.1079458 -0.033654444 0.45700002
-0.10698797 -0.033728085 0.45800003
-0.10556293 -0.033654444 0.45700002
-0.10437151 -0.033654444 0.45700002
-0.10318008 -0.033654444 0.45700002
-0.10198865 -0.033654444 0.45700002
-0.10079722 -0.033654444 0.45700002
-0.099605799 -0.033654444 0.45700002
-0.098414369 -0.033654444 0.45700002
-0.097222939 -0.033654444 0.45700002
-0.096031517 -0.033654444 0.45700002
-0.094840087 -0.033654444 0.45700002
-0.093853585 -0.033728085 0.45800003
-0.092659548 -0.033728085 0.45800003
-0.09146551 -0.033728085 0.45800003
-0.090271473 -0.033728085 0.45800003
-0.089077435 -0.033728085 0.45800003
-0.088075288 -0.033801727 0.45900002
-0.086878642 -0.033801727 0.45900002
-0.085682005 -0.033801727 0.45900002
-0.084485359 -0.033801727 0.45900002
-0.083288722 -0.033801727 0.45900002
-0.082092077 -0.033801727 0.45900002
-0.080719195 -0.033728085 0.45800003
-0.079525158 -0.033728085 0.45800003
-0.078331128 -0.033728085 0.45800003
-0.07713709 -0.033728085 0.45800003
-0.075943053 -0.033728085 0.45800003
-0.074749015 -0.033728085 0.45800003
-0.073554978 -0.033728085 0.45800003
-0.072360948 -0.033728085 0.45800003
-0.07116691 -0.033728085 0.45800003
-0.069972873 -0.033728085 0.45800003
-0.068929009 -0.033801727 0.45900002
-0.067732371 -0.033801727 0.45900002
-0.066535726 -0.033801727 0.45900002
-0.065339088 -0.033801727 0.45900002
-0.064142443 -0.033801727 0.45900002
-0.062945805 -0.033801727 0.45900002
-0.06174916 -0.033801727 0.45900002
-0.060420599 -0.033728085 0.45800003
-0.059226558 -0.033728085 0.45800003
-0.05803252 -0.033728085 0.45800003
-0.05683849 -0.033728085 0.45800003
-0.055644456 -0.033728085 0.45800003
-0.054450419 -0.033728085 0.45800003
-0.053256381 -0.033728085 0.45800003
-0.052062348 -0.033728085 0.45800003
-0.050868314 -0.033728085 0.45800003
-0.049782734 -0.033801727 0.45900002
-0.048586093 -0.033801727 0.45900002
-0.047389448 -0.033801727 0.45900002
-0.046192806 -0.033801727 0.45900002
-0.044996165 -0.033801727 0.45900002
-0.043799523 -0.033801727 0.45900002
-0.042602882 -0.033801727 0.45900002
-0.04140624 -0.033801727 0.45900002
-0.040209599 -0.033801727 0.45900002
-0.039012954 -0.033801727 0.45900002
-0.037816312 -0.033801727 0.45900002
-0.036619671 -0.033801727 0.45900002
-0.035423029 -0.033801727 0.45900002
-0.034226388 -0.033801727 0.45900002
-0.033029746 -0.033801727 0.45900002
-0.031833101 -0.033801727 0.45900002
-0.030636458 -0.033801727 0.45900002
-0.029439816 -0.033801727 0.45900002
-0.028243175 -0.033801727 0.45900002
-0.027046533 -0.033801727 0.45900002
-0.02584989 -0.033801727 0.45900002
-0.024653248 -0.033801727 0.45900002
-0.023456607 -0.033801727 0.45900002
-0.022211466 -0.033728085 0.45800003
-0.02106332 -0.033801727 0.45900002
-0.019866679 -0.033801727 0.45900002
-0.018670036 -0.033801727 0.45900002
-0.017435327 -0.033728085 0.45800003
-0.016241292 -0.033728085 0.45800003
-0.015047257 -0.033728085 0.45800003
-0.013883467 -0.033801727 0.45900002
-0.012686825 -0.033801727 0.45900002
-0.011490183 -0.033801727 0.45900002
-0.010293541 -0.033801727 0.45900002
-0.0090968991 -0.033801727 0.45900002
-0.0079002557 -0.033801727 0.45900002
-0.0067036138 -0.033801727 0.45900002
-0.0055069719 -0.033801727 0.45900002
-0.0043103294 -0.033801727 0.45900002
-0.0031136875 -0.033801727 0.45900002
-0.0019170451 -0.033801727 0.45900002
-0.00072040287 -0.033801727 0.45900002
0.00047623939 -0.033801727 0.45900002
0.0016728817 -0.033801727 0.45900002
0.0028695238 -0.033801727 0.45900002
0.0040661665 -0.033801727 0.45900002
0.0052628084 -0.033801727 0.45900002
0.0064594503 -0.033801727 0.45900002
0.0076560932 -0.033801727 0.45900002
0.0088527352 -0.033801727 0.45900002
0.010071271 -0.033875369 0.46000001
0.011270521 -0.033875369 0.46000001
0.012469769 -0.033875369 0.46000001
0.01366902 -0.033875369 0.46000001
0.014868268 -0.033875369 0.46000001
0.016067516 -0.033875369 0.46000001
0.017266767 -0.033875369 0.46000001
0.018466016 -0.033875369 0.46000001
0.019665265 -0.033875369 0.46000001
0.020864515 -0.033875369 0.46000001
0.022063764 -0.033875369 0.46000001
0.023263013 -0.033875369 0.46000001
0.024409086 -0.033801727 0.45900002
0.025661511 -0.033875369 0.46000001
0.026860761 -0.033875369 0.46000001
0.028060012 -0.033875369 0.46000001
0.029259259 -0.033875369 0.46000001
0.03045851 -0.033875369 0.46000001
0.031657759 -0.033875369 0.46000001
0.03278558 -0.033801727 0.45900002
0.033982221 -0.033801727 0.45900002
0.035178863 -0.033801727 0.45900002
0.036375504 -0.033801727 0.45900002
0.037572149 -0.033801727 0.45900002
0.038768791 -0.033801727 0.45900002
0.039965436 -0.033801727 0.45900002
0.041162077 -0.033801727 0.45900002
0.042358719 -0.033801727 0.45900002
0.04355536 -0.033801727 0.45900002
0.044752002 -0.033801727 0.45900002
0.045948647 -0.033801727 0.45900002
0.047145288 -0.033801727 0.45900002
0.04834193 -0.033801727 0.45900002
0.049538571 -0.033801727 0.45900002
0.050735213 -0.033801727 0.45900002
0.051931854 -0.033801727 0.45900002
0.0531285 -0.033801727 0.45900002
0.054325141 -0.033801727 0.45900002
0.055521782 -0.033801727 0.45900002
0.056718424 -0.033801727 0.45900002
0.057915065 -0.033801727 0.45900002
0.05924049 -0.033875369 0.46000001
0.060439739 -0.033875369 0.46000001
0.061504994 -0.033801727 0.45900002
0.062701635 -0.033801727 0.45900002
0.063898273 -0.033801727 0.45900002
0.065094925 -0.033801727 0.45900002
0.066291563 -0.033801727 0.45900002
0.067341179 -0.033728085 0.45800003
0.068535209 -0.033728085 0.45800003
0.069576994 -0.033654444 0.45700002
0.070613571 -0.033580802 0.45600003
0.071487471 -0.033433519 0.45400003
0.072030798 -0.033138949 0.45000002
0.07408841 -0.031518824 0.42800003
0.075028524 -0.031445179 0.42700002
0.075785108 -0.031297896 0.42500001
0.076712184 -0.031224255 0.42400002
0.077817582 -0.031224255 0.42400002
0.078736834 -0.031150611 0.42300001
0.079839617 -0.031150611 0.42300001
0.080751054 -0.03107697 0.42200002
0.081851237 -0.03107697 0.42200002
0.082558282 -0.030929685 0.42000002
0.083454072 -0.030856045 0.41900003
0.084344648 -0.030782402 0.41800001
0.0854344 -0.030782402 0.41800001
0.086317159 -0.03070876 0.41700003
0.087194704 -0.030635117 0.41600001
0.088279247 -0.030635117 0.41600001
0.089363784 -0.030635117 0.41600001
0.090230897 -0.030561475 0.41500002
0.091312833 -0.030561475 0.41500002
0.092394762 -0.030561475 0.41500002
0.09347669 -0.030561475 0.41500002
0.094558626 -0.030561475 0.41500002
0.095640555 -0.030561475 0.41500002
0.096722484 -0.030561475 0.41500002
0.097804412 -0.030561475 0.41500002
0.098886348 -0.030561475 0.41500002
0.10020916 -0.030635117 0.41600001
0.10153721 -0.03070876 0.41700003
0.10287045 -0.030782402 0.41800001
0.1039602 -0.030782402 0.41800001
0.10530127 -0.030856045 0.41900003
0.10664755 -0.030929685 0.42000002
0.10774251 -0.030929685 0.42000002
0.10909662 -0.031003328 0.42100003
0.1126563 -0.03107697 0.42200002
0.11375648 -0.03107697 0.42200002
0.11485667 -0.03107697 0.42200002
0.11623162 -0.031150611 0.42300001
0.11733441 -0.031150611 0.42300001
0.11843719 -0.031150611 0.42300001
0.11982259 -0.031224255 0.42400002
0.12121318 -0.031297896 0.42500001
0.12376026 -0.031666107 0.43000001
0.13599873 -0.033580802 0.45600003
0.13839094 -0.033875369 0.46000001
0.13959019 -0.033875369 0.46000001
0.14078945 -0.033875369 0.46000001
0.14198869 -0.033875369 0.46000001
0.14349923 -0.033949014 0.46100003
0.14470108 -0.033949014 0.46100003
0.14590295 -0.033949014 0.46100003
0.14742388 -0.034022652 0.46200001
0.14830665 -0.033949014 0.46100003
0.14983281 -0.034022652 0.46200001
0.15071036 -0.033949014 0.46100003
0.15191223 -0.033949014 0.46100003
0.15311408 -0.033949014 0.46100003
0.15431593 -0.033949014 0.46100003
0.15551779 -0.033949014 0.46100003
0.15671965 -0.033949014 0.46100003
0.15792149 -0.033949014 0.46100003
0.15912336 -0.033949014 0.46100003
0.16067298 -0.034022652 0.46200001
0.16187745 -0.034022652 0.46200001
0.16308191 -0.034022652 0.46200001
0.16428638 -0.034022652 0.46200001
0.16549084 -0.034022652 0.46200001
0.1666953 -0.034022652 0.46200001
0.1682632 -0.034096297 0.46300003
0.16947027 -0.034096297 0.46300003
0.17067733 -0.034096297 0.46300003
0.1718844 -0.034096297 0.46300003
0.17309149 -0.034096297 0.46300003
0.17429854 -0.034096297 0.46300003
0.17550562 -0.034096297 0.46300003
0.17633101 -0.034022652 0.46200001
0.17753547 -0.034022652 0.46200001
0.17873994 -0.034022652 0.46200001
0.1799444 -0.034022652 0.46200001
0.18114886 -0.034022652 0.46200001
0.18235333 -0.034022652 0.46200001
0.18355779 -0.034022652 0.46200001
0.18476225 -0.034022652 0.46200001
0.18596673 -0.034022652 0.46200001
0.18676606 -0.033949014 0.46100003
0.18796791 -0.033949014 0.46100003
0.18916976 -0.033949014 0.46100003
0.19078457 -0.034022652 0.46200001
0.19198903 -0.034022652 0.46200001
0.1931935 -0.034022652 0.46200001
0.19439796 -0.034022652 0.46200001
0.19560243 -0.034022652 0.46200001
0.19680688 -0.034022652 0.46200001
0.19843996 -0.034096297 0.46300003
0.19964704 -0.034096297 0.46300003
0.20085409 -0.034096297 0.46300003
0.20206118 -0.034096297 0.46300003
0.20326823 -0.034096297 0.46300003
0.20447531 -0.034096297 0.46300003
0.20568238 -0.034096297 0.46300003
0.20688945 -0.034096297 0.46300003
0.20809652 -0.034096297 0.46300003
0.20930359 -0.034096297 0.46300003
0.21051066 -0.034096297 0.46300003
0.21171774 -0.034096297 0.46300003
0.21292479 -0.034096297 0.46300003
0.21413188 -0.034096297 0.46300003
0.21533895 -0.034096297 0.46300003
0.21654601 -0.034096297 0.46300003
0.21775308 -0.034096297 0.46300003
-0.25575012 -0.032320946 0.45500001
-0.25456393 -0.032320946 0.45500001
-0.25337771 -0.032320946 0.45500001
-0.25274578 -0.03239198 0.45600003
-0.25155696 -0.03239198 0.45600003
-0.25036812 -0.03239198 0.45600003
-0.24917929 -0.03239198 0.45600003
-0.24799047 -0.03239198 0.45600003
-0.24680167 -0.03239198 0.45600003
-0.24561283 -0.03239198 0.45600003
-0.24442402 -0.03239198 0.45600003
-0.2432352 -0.03239198 0.45600003
-0.24204639 -0.03239198 0.45600003
-0.24085754 -0.03239198 0.45600003
-0.23966873 -0.03239198 0.45600003
-0.23847991 -0.03239198 0.45600003
-0.2372911 -0.03239198 0.45600003
-0.23610227 -0.03239198 0.45600003
-0.23491345 -0.03239198 0.45600003
-0.23372464 -0.03239198 0.45600003
-0.23253579 -0.03239198 0.45600003
-0.23134698 -0.03239198 0.45600003
-0.23015817 -0.03239198 0.45600003
-0.22896935 -0.03239198 0.45600003
-0.22778052 -0.03239198 0.45600003
-0.22659169 -0.03239198 0.45600003
-0.22540288 -0.03239198 0.45600003
-0.22421406 -0.03239198 0.45600003
-0.22302525 -0.03239198 0.45600003
-0.22183642 -0.03239198 0.45600003
-0.22064759 -0.03239198 0.45600003
-0.21945877 -0.03239198 0.45600003
-0.21826994 -0.03239198 0.45600003
-0.21708113 -0.03239198 0.45600003
-0.2158923 -0.03239198 0.45600003
-0.21470349 -0.03239198 0.45600003
-0.21351467 -0.03239198 0.45600003
-0.21232586 -0.03239198 0.45600003
-0.21113703 -0.03239198 0.45600003
-0.20994821 -0.03239198 0.45600003
-0.20875938 -0.03239198 0.45600003
-0.20757057 -0.03239198 0.45600003
-0.20638174 -0.03239198 0.45600003
-0.20519291 -0.03239198 0.45600003
-0.20400409 -0.03239198 0.45600003
-0.20326003 -0.032463014 0.45700002
-0.20206861 -0.032463014 0.45700002
-0.20087719 -0.032463014 0.45700002
-0.19968577 -0.032463014 0.45700002
-0.19849433 -0.032463014 0.45700002
-0.19730291 -0.032463014 0.45700002
-0.19611147 -0.032463014 0.45700002
-0.19492005 -0.032463014 0.45700002
-0.19372861 -0.032463014 0.45700002
-0.1925372 -0.032463014 0.45700002
-0.19134577 -0.032463014 0.45700002
-0.19015433 -0.032463014 0.45700002
-0.18854943 -0.03239198 0.45600003
-0.1873606 -0.03239198 0.45600003
-0.18617178 -0.03239198 0.45600003
-0.18498296 -0.03239198 0.45600003
-0.18379414 -0.03239198 0.45600003
-0.18260531 -0.03239198 0.45600003
-0.1814165 -0.03239198 0.45600003
-0.18022768 -0.03239198 0.45600003
-0.17903887 -0.03239198 0.45600003
-0.17785004 -0.03239198 0.45600003
-0.17666122 -0.03239198 0.45600003
-0.17547239 -0.03239198 0.45600003
-0.17428356 -0.03239198 0.45600003
-0.17309475 -0.03239198 0.45600003
-0.17190592 -0.03239198 0.45600003
-0.17071711 -0.03239198 0.45600003
-0.16990004 -0.032463014 0.45700002
-0.16870864 -0.032463014 0.45700002
-0.1675172 -0.032463014 0.45700002
-0.16632578 -0.032463014 0.45700002
-0.16513434 -0.032463014 0.45700002
-0.16394292 -0.032463014 0.45700002
-0.16275148 -0.032463014 0.45700002
-0.16156006 -0.032463014 0.45700002
-0.16036864 -0.032463014 0.45700002
-0.1591772 -0.032463014 0.45700002
-0.15798578 -0.032463014 0.45700002
-0.15679434 -0.032463014 0.45700002
-0.15560292 -0.032463014 0.45700002
-0.15441148 -0.032463014 0.45700002
-0.15322007 -0.032463014 0.45700002
-0.15202864 -0.032463014 0.45700002
-0.15083721 -0.032463014 0.45700002
-0.14964578 -0.032463014 0.45700002
-0.14845435 -0.032463014 0.45700002
-0.14726292 -0.032463014 0.45700002
-0.14607149 -0.032463014 0.45700002
-0.14488007 -0.032463014 0.45700002
-0.14368863 -0.032463014 0.45700002
-0.14249721 -0.032463014 0.45700002
-0.14130577 -0.032463014 0.45700002
-0.14011435 -0.032463014 0.45700002
-0.13861893 -0.03239198 0.45600003
-0.13743012 -0.03239198 0.45600003
-0.13654007 -0.032463014 0.45700002
-0.13534865 -0.032463014 0.45700002
-0.13415721 -0.032463014 0.45700002
-0.13296579 -0.032463014 0.45700002
-0.13177435 -0.032463014 0.45700002
-0.13058293 -0.032463014 0.45700002
-0.12939151 -0.032463014 0.45700002
-0.12820007 -0.032463014 0.45700002
-0.12700865 -0.032463014 0.45700002
-0.12581721 -0.032463014 0.45700002
-0.12462579 -0.032463014 0.45700002
-0.12343436 -0.032463014 0.45700002
-0.12224294 -0.032463014 0.45700002
-0.1210515 -0.032463014 0.45700002
-0.11986008 -0.032463014 0.45700002
-0.11866865 -0.032463014 0.45700002
-0.11747722 -0.032463014 0.45700002
-0.11628579 -0.032463014 0.45700002
-0.11509437 -0.032463014 0.45700002
-0.11390293 -0.032463014 0.45700002
-0.1127115 -0.032463014 0.45700002
-0.11152008 -0.032463014 0.45700002
-0.11057007 -0.032534052 0.45800003
-0.10937604 -0.032534052 0.45800003
-0.10818201 -0.032534052 0.45800003
-0.10698797 -0.032534052 0.45800003
-0.10556293 -0.032463014 0.45700002
-0.10437151 -0.032463014 0.45700002
-0.10318008 -0.032463014 0.45700002
-0.10198865 -0.032463014 0.45700002
-0.10079722 -0.032463014 0.45700002
-0.099605799 -0.032463014 0.45700002
-0.098414369 -0.032463014 0.45700002
-0.097435683 -0.032534052 0.45800003
-0.096241653 -0.032534052 0.45800003
-0.095047615 -0.032534052 0.45800003
-0.093853585 -0.032534052 0.45800003
-0.092659548 -0.032534052 0.45800003
-0.09146551 -0.032534052 0.45800003
-0.090271473 -0.032534052 0.45800003
-0.089077435 -0.032534052 0.45800003
-0.088075288 -0.032605086 0.45900002
-0.086878642 -0.032605086 0.45900002
-0.085682005 -0.032605086 0.45900002
-0.084485359 -0.032605086 0.45900002
-0.083288722 -0.032605086 0.45900002
-0.082092077 -0.032605086 0.45900002
-0.080719195 -0.032534052 0.45800003
-0.079525158 -0.032534052 0.45800003
-0.078331128 -0.032534052 0.45800003
-0.07713709 -0.032534052 0.45800003
-0.075943053 -0.032534052 0.45800003
-0.074749015 -0.032534052 0.45800003
-0.073554978 -0.032534052 0.45800003
-0.072360948 -0.032534052 0.45800003
-0.07116691 -0.032534052 0.45800003
-0.069972873 -0.032534052 0.45800003
-0.068929009 -0.032605086 0.45900002
-0.067732371 -0.032605086 0.45900002
-0.066535726 -0.032605086 0.45900002
-0.065339088 -0.032605086 0.45900002
-0.064142443 -0.032605086 0.45900002
-0.062945805 -0.032605086 0.45900002
-0.06174916 -0.032605086 0.45900002
-0.060552519 -0.032605086 0.45900002
-0.05935587 -0.032605086 0.45900002
-0.058159228 -0.032605086 0.45900002
-0.056962591 -0.032605086 0.45900002
-0.055644456 -0.032534052 0.45800003
-0.054450419 -0.032534052 0.45800003
-0.053256381 -0.032534052 0.45800003
-0.052062348 -0.032534052 0.45800003
-0.05097938 -0.032605086 0.45900002
-0.049782734 -0.032605086 0.45900002
-0.048586093 -0.032605086 0.45900002
-0.047389448 -0.032605086 0.45900002
-0.046192806 -0.032605086 0.45900002
-0.044996165 -0.032605086 0.45900002
-0.043799523 -0.032605086 0.45900002
-0.042602882 -0.032605086 0.45900002
-0.04140624 -0.032605086 0.45900002
-0.040209599 -0.032605086 0.45900002
-0.039012954 -0.032605086 0.45900002
-0.037816312 -0.032605086 0.45900002
-0.036619671 -0.032605086 0.45900002
-0.035423029 -0.032605086 0.45900002
-0.034226388 -0.032605086 0.45900002
-0.033029746 -0.032605086 0.45900002
-0.031833101 -0.032605086 0.45900002
-0.030636458 -0.032605086 0.45900002
-0.029439816 -0.032605086 0.45900002
-0.028243175 -0.032605086 0.45900002
-0.027046533 -0.032605086 0.45900002
-0.02584989 -0.032605086 0.45900002
-0.024653248 -0.032605086 0.45900002
-0.023405503 -0.032534052 0.45800003
-0.022211466 -0.032534052 0.45800003
-0.02106332 -0.032605086 0.45900002
-0.019866679 -0.032605086 0.45900002
-0.018670036 -0.032605086 0.45900002
-0.017435327 -0.032534052 0.45800003
-0.016241292 -0.032534052 0.45800003
-0.015080111 -0.032605086 0.45900002
-0.013883467 -0.032605086 0.45900002
-0.012686825 -0.032605086 0.45900002
-0.011490183 -0.032605086 0.45900002
-0.010293541 -0.032605086 0.45900002
-0.0090968991 -0.032605086 0.45900002
-0.0079002557 -0.032605086 0.45900002
-0.0067036138 -0.032605086 0.45900002
-0.0055069719 -0.032605086 0.45900002
-0.0043103294 -0.032605086 0.45900002
-0.0031136875 -0.032605086 0.45900002
-0.0019170451 -0.032605086 0.45900002
-0.00072040287 -0.032605086 0.45900002
0.00047623939 -0.032605086 0.45900002
0.0016728817 -0.032605086 0.45900002
0.0028695238 -0.032605086 0.45900002
0.0040661665 -0.032605086 0.45900002
0.0052628084 -0.032605086 0.45900002
0.0064594503 -0.032605086 0.45900002
0.0076560932 -0.032605086 0.45900002
0.0088527352 -0.032605086 0.45900002
0.010071271 -0.032676119 0.46000001
0.011270521 -0.032676119 0.46000001
0.012469769 -0.032676119 0.46000001
0.01366902 -0.032676119 0.46000001
0.014868268 -0.032676119 0.46000001
0.016067516 -0.032676119 0.46000001
