# .PCD v0.7 - Point Cloud Data file format
VERSION 0.7
FIELDS x y z
SIZE 4 4 4
TYPE F F F
COUNT 1 1 1
WIDTH 1355
HEIGHT 1
VIEWPOINT 0 0 0 1 0 0 0
POINTS 1355
DATA ascii
0.023326306 -0.074001193 0.55400002
0.024767425 -0.074001193 0.55400002
0.026255855 -0.074134767 0.55500001
0.027699579 -0.074134767 0.55500001
0.029143298 -0.074134767 0.55500001
0.030587021 -0.074134767 0.55500001
0.032030746 -0.074134767 0.55500001
0.033474468 -0.074134767 0.55500001
0.034981109 -0.074268349 0.55600005
0.036427431 -0.074268349 0.55600005
0.037873756 -0.074268349 0.55600005
0.039320081 -0.074268349 0.55600005
0.040693082 -0.074134767 0.55500001
0.042060882 -0.074001193 0.55400002
0.043423481 -0.073867619 0.55300003
0.044780876 -0.073734045 0.55200005
0.046133064 -0.073600464 0.551
0.047393732 -0.073333316 0.54900002
0.048643991 -0.07306616 0.54700005
0.049883842 -0.072799005 0.54500002
0.051113293 -0.072531857 0.54300004
0.052429065 -0.072398283 0.54200006
0.053640299 -0.072131127 0.54000002
0.05494307 -0.071997553 0.53900003
0.056345172 -0.071997553 0.53900003
0.05830133 -0.066253774 0.49600002
0.059231143 -0.065853052 0.49300003
0.060268093 -0.065585896 0.49100003
0.061545331 -0.065585896 0.49100003
0.062694624 -0.065452315 0.49000001
0.063969262 -0.065452315 0.49000001
0.064977601 -0.065185167 0.48800004
0.066111282 -0.065051593 0.48700002
0.067378111 -0.065051593 0.48700002
0.068503998 -0.064918019 0.48600003
0.06962467 -0.064784437 0.48500001
0.070740148 -0.064650863 0.48400003
0.071850412 -0.064517282 0.48300001
0.072955489 -0.064383708 0.48200002
0.073901393 -0.06411656 0.48000002
0.074993454 -0.063982986 0.47900003
0.076239482 -0.063982986 0.47900003
0.077323735 -0.063849404 0.47800002
0.078402795 -0.06371583 0.47700003
0.079643615 -0.06371583 0.47700003
0.080884442 -0.06371583 0.47700003
0.082125254 -0.06371583 0.47700003
0.083366074 -0.06371583 0.47700003
0.084606901 -0.06371583 0.47700003
0.085847721 -0.06371583 0.47700003
0.087271117 -0.063849404 0.47800002
0.088514537 -0.063849404 0.47800002
0.089757957 -0.063849404 0.47800002
0.091191769 -0.063982986 0.47900003
0.092437789 -0.063982986 0.47900003
0.093683816 -0.063982986 0.47900003
0.095128015 -0.06411656 0.48000002
0.096376643 -0.06411656 0.48000002
0.097625263 -0.06411656 0.48000002
0.098873891 -0.06411656 0.48000002
0.10033111 -0.064250134 0.48100004
0.10179352 -0.064383708 0.48200002
0.10304735 -0.064383708 0.48200002
0.10430118 -0.064383708 0.48200002
0.10577399 -0.064517282 0.48300001
0.10703043 -0.064517282 0.48300001
0.10851105 -0.064650863 0.48400003
0.10999688 -0.064784437 0.48500001
0.11125851 -0.064784437 0.48500001
0.11275215 -0.064918019 0.48600003
0.11401638 -0.064918019 0.48600003
0.11551781 -0.065051593 0.48700002
0.11678465 -0.065051593 0.48700002
0.11805148 -0.065051593 0.48700002
0.14608878 -0.078809939 0.59000003
0.14762355 -0.078809939 0.59000003
0.14941113 -0.078943513 0.59100002
0.15094851 -0.078943513 0.59100002
0.15248588 -0.078943513 0.59100002
0.15402323 -0.078943513 0.59100002
0.15582381 -0.079077087 0.59200001
0.1573638 -0.079077087 0.59200001
0.15890376 -0.079077087 0.59200001
0.16071476 -0.079210669 0.59300005
0.16253096 -0.079344243 0.59400004
0.16407612 -0.079344243 0.59400004
0.16590013 -0.079477817 0.59500003
0.16744789 -0.079477817 0.59500003
0.16927969 -0.079611391 0.59600002
0.17111669 -0.079744965 0.597
0.17266966 -0.079744965 0.597
0.17422265 -0.079744965 0.597
0.17577563 -0.079744965 0.597
0.17762566 -0.079878546 0.59800005
0.17918122 -0.079878546 0.59800005
0.1807368 -0.079878546 0.59800005
0.18229239 -0.079878546 0.59800005
0.1841554 -0.08001212 0.59900004
0.18571357 -0.08001212 0.59900004
0.18758439 -0.080145694 0.60000002
0.18946043 -0.080279268 0.60100001
0.1910238 -0.080279268 0.60100001
0.19290765 -0.08041285 0.60200006
0.19479667 -0.080546424 0.60300004
0.19669089 -0.080680005 0.60400003
0.19859034 -0.080813579 0.60500002
0.20016411 -0.080813579 0.60500002
0.20207134 -0.080947153 0.60600001
0.2039838 -0.081080735 0.60700005
0.20556279 -0.081080735 0.60700005
0.20748304 -0.081214309 0.60800004
0.20906463 -0.081214309 0.60800004
0.21064621 -0.081214309 0.60800004
0.21257687 -0.081347883 0.60900003
0.21451271 -0.081481457 0.61000001
0.21609952 -0.081481457 0.61000001
0.21768631 -0.081481457 0.61000001
0.21927309 -0.081481457 0.61000001
0.22122194 -0.081615031 0.611
0.22281136 -0.081615031 0.611
0.22440074 -0.081615031 0.611
0.22636002 -0.081748612 0.61200005
0.22795202 -0.081748612 0.61200005
0.22991908 -0.081882186 0.61300004
0.23151369 -0.081882186 0.61300004
0.23310828 -0.081882186 0.61300004
0.23508576 -0.08201576 0.61400002
0.23668295 -0.08201576 0.61400002
0.23828015 -0.08201576 0.61400002
0.23987736 -0.08201576 0.61400002
0.24186783 -0.082149334 0.61500001
0.24346763 -0.082149334 0.61500001
0.24506742 -0.082149334 0.61500001
0.24666722 -0.082149334 0.61500001
0.24826704 -0.082149334 0.61500001
0.25027314 -0.082282916 0.61600006
0.25187552 -0.082282916 0.61600006
0.25347793 -0.082282916 0.61600006
0.25508034 -0.082282916 0.61600006
0.25668275 -0.082282916 0.61600006
0.25828514 -0.082282916 0.61600006
0.26030943 -0.08241649 0.61700004
0.26191443 -0.08241649 0.61700004
0.26437363 -0.082683645 0.61900002
0.26598385 -0.082683645 0.61900002
0.26802632 -0.082817219 0.62
0.27007407 -0.082950801 0.62100005
0.27212697 -0.083084375 0.62200004
0.27462518 -0.083351523 0.62400001
0.2762484 -0.083351523 0.62400001
0.27876222 -0.083618678 0.62600005
0.28039065 -0.083618678 0.62600005
0.28246957 -0.083752252 0.62700003
0.28455371 -0.083885826 0.62800002
0.28618732 -0.083885826 0.62800002
0.28782094 -0.083885826 0.62800002
0.28991544 -0.0840194 0.62900001
0.29155165 -0.0840194 0.62900001
0.29318789 -0.0840194 0.62900001
0.29529285 -0.084152982 0.63000005
0.29693165 -0.084152982 0.63000005
0.29857048 -0.084152982 0.63000005
0.30020931 -0.084152982 0.63000005
0.30232725 -0.084286556 0.63100004
0.30396867 -0.084286556 0.63100004
0.30561009 -0.084286556 0.63100004
0.30725151 -0.084286556 0.63100004
-0.26641703 -0.062736958 0.47900003
-0.26517102 -0.062736958 0.47900003
-0.26392499 -0.062736958 0.47900003
-0.26267898 -0.062736958 0.47900003
-0.26143295 -0.062736958 0.47900003
-0.26073009 -0.062867932 0.48000002
-0.25948149 -0.062867932 0.48000002
-0.25823286 -0.062867932 0.48000002
-0.25698423 -0.062867932 0.48000002
-0.25573561 -0.062867932 0.48000002
-0.25501716 -0.062998913 0.48100004
-0.25376594 -0.062998913 0.48100004
-0.25251472 -0.062998913 0.48100004
-0.25178587 -0.063129887 0.48200002
-0.25053203 -0.063129887 0.48200002
-0.2492782 -0.063129887 0.48200002
-0.24802439 -0.063129887 0.48200002
-0.24677055 -0.063129887 0.48200002
-0.24551673 -0.063129887 0.48200002
-0.24476966 -0.063260861 0.48300001
-0.24351323 -0.063260861 0.48300001
-0.24225681 -0.063260861 0.48300001
-0.24149935 -0.063391834 0.48400003
-0.24024032 -0.063391834 0.48400003
-0.23898129 -0.063391834 0.48400003
-0.23821342 -0.063522808 0.48500001
-0.23695178 -0.063522808 0.48500001
-0.23569015 -0.063522808 0.48500001
-0.23442852 -0.063522808 0.48500001
-0.23364766 -0.063653782 0.48600003
-0.23238343 -0.063653782 0.48600003
-0.23111919 -0.063653782 0.48600003
-0.2303279 -0.063784756 0.48700002
-0.22906107 -0.063784756 0.48700002
-0.22826199 -0.063915737 0.48800004
-0.22699255 -0.063915737 0.48800004
-0.22572312 -0.063915737 0.48800004
-0.22445369 -0.063915737 0.48800004
-0.22364159 -0.064046711 0.48900002
-0.22282429 -0.064177684 0.49000001
-0.22154965 -0.064177684 0.49000001
-0.22072455 -0.064308658 0.49100003
-0.21944731 -0.064308658 0.49100003
-0.21861441 -0.064439632 0.49200001
-0.21733458 -0.064439632 0.49200001
-0.21605472 -0.064439632 0.49200001
-0.21477489 -0.064439632 0.49200001
-0.213929 -0.064570613 0.49300003
-0.21264656 -0.064570613 0.49300003
-0.21136412 -0.064570613 0.49300003
-0.21008167 -0.064570613 0.49300003
-0.20879923 -0.064570613 0.49300003
-0.2079377 -0.06470158 0.49400002
-0.20665267 -0.06470158 0.49400002
-0.20536762 -0.06470158 0.49400002
-0.2044957 -0.064832561 0.49500003
-0.20320806 -0.064832561 0.49500003
-0.20232832 -0.064963534 0.49600002
-0.20103809 -0.064963534 0.49600002
-0.19974783 -0.064963534 0.49600002
-0.19845758 -0.064963534 0.49600002
-0.19716735 -0.064963534 0.49600002
-0.1958771 -0.064963534 0.49600002
-0.19458686 -0.064963534 0.49600002
-0.1932966 -0.064963534 0.49600002
-0.19239347 -0.065094508 0.49700001
-0.19110061 -0.065094508 0.49700001
-0.18980777 -0.065094508 0.49700001
-0.18851493 -0.065094508 0.49700001
-0.18759878 -0.065225482 0.49800003
-0.18630333 -0.065225482 0.49800003
-0.1850079 -0.065225482 0.49800003
-0.18408135 -0.065356456 0.49900001
-0.18314959 -0.065487429 0.5
-0.18184893 -0.065487429 0.5
-0.18054828 -0.065487429 0.5
-0.17960614 -0.065618411 0.50100005
-0.1783029 -0.065618411 0.50100005
-0.17735292 -0.065749384 0.50200003
-0.17604707 -0.065749384 0.50200003
-0.17474122 -0.065749384 0.50200003
-0.17378086 -0.065880358 0.50300002
-0.1724724 -0.065880358 0.50300002
-0.17116393 -0.065880358 0.50300002
-0.17019317 -0.066011332 0.50400001
-0.1688821 -0.066011332 0.50400001
-0.16757105 -0.066011332 0.50400001
-0.16626 -0.066011332 0.50400001
-0.16494894 -0.066011332 0.50400001
-0.16363788 -0.066011332 0.50400001
-0.16232683 -0.066011332 0.50400001
-0.16101578 -0.066011332 0.50400001
-0.15970473 -0.066011332 0.50400001
-0.15839365 -0.066011332 0.50400001
-0.1570826 -0.066011332 0.50400001
-0.15577155 -0.066011332 0.50400001
-0.15476696 -0.066142306 0.505
-0.15345329 -0.066142306 0.505
-0.15213963 -0.066142306 0.505
-0.15112466 -0.066273287 0.50600004
-0.15010446 -0.066404261 0.50700003
-0.14907907 -0.066535227 0.50800002
-0.14775759 -0.066535227 0.50800002
-0.14672439 -0.066666201 0.509
-0.145686 -0.066797182 0.51000005
-0.14435935 -0.066797182 0.51000005
-0.14303268 -0.066797182 0.51000005
-0.14198385 -0.066928156 0.51100004
-0.14065459 -0.066928156 0.51100004
-0.13932534 -0.066928156 0.51100004
-0.13799608 -0.066928156 0.51100004
-0.13693425 -0.067059129 0.51200002
-0.13560238 -0.067059129 0.51200002
-0.13427052 -0.067059129 0.51200002
-0.13319829 -0.067190103 0.51300001
-0.13186383 -0.067190103 0.51300001
-0.13052934 -0.067190103 0.51300001
-0.12944672 -0.067321077 0.514
-0.12810966 -0.067321077 0.514
-0.12701924 -0.067452058 0.51500005
-0.12567957 -0.067452058 0.51500005
-0.1243399 -0.067452058 0.51500005
-0.12323906 -0.067583032 0.51600003
-0.12189679 -0.067583032 0.51600003
-0.12055452 -0.067583032 0.51600003
-0.11921224 -0.067583032 0.51600003
-0.11786997 -0.067583032 0.51600003
-0.1165277 -0.067583032 0.51600003
-0.11540865 -0.067714006 0.51700002
-0.11406378 -0.067714006 0.51700002
-0.1127189 -0.067714006 0.51700002
-0.11137404 -0.067714006 0.51700002
-0.11024198 -0.067844979 0.51800001
-0.1088945 -0.067844979 0.51800001
-0.10775466 -0.067975961 0.51900005
-0.10640459 -0.067975961 0.51900005
-0.10505451 -0.067975961 0.51900005
-0.10370443 -0.067975961 0.51900005
-0.10255157 -0.068106934 0.52000004
-0.10119889 -0.068106934 0.52000004
-0.10003822 -0.068237908 0.52100003
-0.09868294 -0.068237908 0.52100003
-0.097514473 -0.068368882 0.52200001
-0.096156597 -0.068368882 0.52200001
-0.094980314 -0.068499848 0.523
-0.093619838 -0.068499848 0.523
-0.09243577 -0.068630829 0.52400005
-0.091072686 -0.068630829 0.52400005
-0.089880809 -0.068761803 0.52500004
-0.088515118 -0.068761803 0.52500004
-0.087149441 -0.068761803 0.52500004
-0.085947149 -0.068892777 0.52600002
-0.084578864 -0.068892777 0.52600002
-0.083210573 -0.068892777 0.52600002
-0.081997886 -0.069023751 0.52700001
-0.080627002 -0.069023751 0.52700001
-0.07925611 -0.069023751 0.52700001
-0.077885233 -0.069023751 0.52700001
-0.076659523 -0.069154724 0.528
-0.075286038 -0.069154724 0.528
-0.074052542 -0.069285706 0.52900004
-0.072676457 -0.069285706 0.52900004
-0.071300372 -0.069285706 0.52900004
-0.070056461 -0.069416679 0.53000003
-0.068677768 -0.069416679 0.53000003
-0.067426056 -0.069547653 0.53100002
-0.066169143 -0.069678627 0.53200001
-0.06478525 -0.069678627 0.53200001
-0.063401356 -0.069678627 0.53200001
-0.062134042 -0.069809608 0.53300005
-0.060747553 -0.069809608 0.53300005
-0.059361055 -0.069809608 0.53300005
-0.057974562 -0.069809608 0.53300005
-0.056694236 -0.069940582 0.53400004
-0.055305138 -0.069940582 0.53400004
-0.053916041 -0.069940582 0.53400004
-0.052625313 -0.070071556 0.53500003
-0.051233616 -0.070071556 0.53500003
-0.049841918 -0.070071556 0.53500003
-0.048450224 -0.070071556 0.53500003
-0.047146484 -0.070202529 0.53600001
-0.045752186 -0.070202529 0.53600001
-0.044357888 -0.070202529 0.53600001
-0.04296359 -0.070202529 0.53600001
-0.041646846 -0.070333496 0.537
-0.040249947 -0.070333496 0.537
-0.038925402 -0.070464477 0.53800005
-0.037525903 -0.070464477 0.53800005
-0.03619355 -0.070595451 0.53900003
-0.034791451 -0.070595451 0.53900003
-0.033389349 -0.070595451 0.53900003
-0.03204659 -0.070726424 0.54000002
-0.030641887 -0.070726424 0.54000002
-0.029237183 -0.070726424 0.54000002
-0.027832482 -0.070726424 0.54000002
-0.026427777 -0.070726424 0.54000002
-0.025069412 -0.070857398 0.54100001
-0.023662109 -0.070857398 0.54100001
-0.022254804 -0.070857398 0.54100001
-0.020886036 -0.070988379 0.54200006
-0.019476132 -0.070988379 0.54200006
-0.018066226 -0.070988379 0.54200006
-0.01668705 -0.071119353 0.54300004
-0.015274543 -0.071119353 0.54300004
-0.013887565 -0.071250327 0.54400003
-0.012472456 -0.071250327 0.54400003
-0.011077673 -0.071381301 0.54500002
-0.0096599637 -0.071381301 0.54500002
-0.008257377 -0.071512274 0.546
-0.0068370663 -0.071512274 0.546
-0.0054266769 -0.071643256 0.54700005
-0.0040037646 -0.071643256 0.54700005
-0.0025855703 -0.071774229 0.54800004
-0.0011600569 -0.071774229 0.54800004
0.00026545665 -0.071774229 0.54800004
0.001694056 -0.071905203 0.54900002
0.0031221707 -0.071905203 0.54900002
0.0045585735 -0.072036177 0.55000001
0.0059892898 -0.072036177 0.55000001
0.0074200062 -0.072036177 0.55000001
0.008866814 -0.072167151 0.551
0.010300132 -0.072167151 0.551
0.011733448 -0.072167151 0.551
0.013190663 -0.072298132 0.55200005
0.014626582 -0.072298132 0.55200005
0.016062502 -0.072298132 0.55200005
0.017498421 -0.072298132 0.55200005
0.01896864 -0.072429098 0.55300003
0.020407159 -0.072429098 0.55300003
0.02184568 -0.072429098 0.55300003
0.023326306 -0.072560072 0.55400002
0.024767425 -0.072560072 0.55400002
0.026255855 -0.072691046 0.55500001
0.027699579 -0.072691046 0.55500001
0.029143298 -0.072691046 0.55500001
0.030587021 -0.072691046 0.55500001
0.032030746 -0.072691046 0.55500001
0.033534784 -0.072822027 0.55600005
0.034981109 -0.072822027 0.55600005
0.036427431 -0.072822027 0.55600005
0.037873756 -0.072822027 0.55600005
0.039320081 -0.072822027 0.55600005
0.040693082 -0.072691046 0.55500001
0.042060882 -0.072560072 0.55400002
0.043423481 -0.072429098 0.55300003
0.044780876 -0.072298132 0.55200005
0.046049342 -0.072036177 0.55000001
0.047307406 -0.071774229 0.54800004
0.048643991 -0.071643256 0.54700005
0.049883842 -0.071381301 0.54500002
0.051019162 -0.070988379 0.54200006
0.052332327 -0.070857398 0.54100001
0.053540967 -0.070595451 0.53900003
0.05494307 -0.070595451 0.53900003
0.058536414 -0.065225482 0.49800003
0.060390837 -0.064439632 0.49200001
0.061670676 -0.064439632 0.49200001
0.062694624 -0.064177684 0.49000001
0.063969262 -0.064177684 0.49000001
0.064977601 -0.063915737 0.48800004
0.066111282 -0.063784756 0.48700002
0.067378111 -0.063784756 0.48700002
0.068503998 -0.063653782 0.48600003
0.06962467 -0.063522808 0.48500001
0.070740148 -0.063391834 0.48400003
0.071850412 -0.063260861 0.48300001
0.072955489 -0.063129887 0.48200002
0.074055359 -0.062998913 0.48100004
0.075150013 -0.062867932 0.48000002
0.076239482 -0.062736958 0.47900003
0.077323735 -0.062605985 0.47800002
0.078567162 -0.062605985 0.47800002
0.079643615 -0.062475011 0.47700003
0.080884442 -0.062475011 0.47700003
0.082125254 -0.062475011 0.47700003
0.083366074 -0.062475011 0.47700003
0.084606901 -0.062475011 0.47700003
0.085847721 -0.062475011 0.47700003
0.087271117 -0.062605985 0.47800002
0.088514537 -0.062605985 0.47800002
0.089757957 -0.062605985 0.47800002
0.091191769 -0.062736958 0.47900003
0.092437789 -0.062736958 0.47900003
0.093683816 -0.062736958 0.47900003
0.094929837 -0.062736958 0.47900003
0.096376643 -0.062867932 0.48000002
0.097625263 -0.062867932 0.48000002
0.098873891 -0.062867932 0.48000002
0.10033111 -0.062998913 0.48100004
0.10158233 -0.062998913 0.48100004
0.10304735 -0.063129887 0.48200002
0.10430118 -0.063129887 0.48200002
0.10577399 -0.063260861 0.48300001
0.10703043 -0.063260861 0.48300001
0.10851105 -0.063391834 0.48400003
0.10999688 -0.063522808 0.48500001
0.11125851 -0.063522808 0.48500001
0.11275215 -0.063653782 0.48600003
0.11401638 -0.063653782 0.48600003
0.11528061 -0.063653782 0.48600003
0.11678465 -0.063784756 0.48700002
0.11805148 -0.063784756 0.48700002
0.14608878 -0.077275172 0.59000003
0.14762355 -0.077275172 0.59000003
0.14941113 -0.077406146 0.59100002
0.15094851 -0.077406146 0.59100002
0.15248588 -0.077406146 0.59100002
0.15402323 -0.077406146 0.59100002
0.15582381 -0.077537119 0.59200001
0.1573638 -0.077537119 0.59200001
0.15917219 -0.077668101 0.59300005
0.16098578 -0.077799074 0.59400004
0.16253096 -0.077799074 0.59400004
0.16435234 -0.077930048 0.59500003
0.16590013 -0.077930048 0.59500003
0.16772932 -0.078061014 0.59600002
0.16956371 -0.078191988 0.597
0.17111669 -0.078191988 0.597
0.17266966 -0.078191988 0.597
0.1745145 -0.078322969 0.59800005
0.17607008 -0.078322969 0.59800005
0.17762566 -0.078322969 0.59800005
0.17918122 -0.078322969 0.59800005
0.1807368 -0.078322969 0.59800005
0.18259722 -0.078453943 0.59900004
0.1841554 -0.078453943 0.59900004
0.18602361 -0.078584917 0.60000002
0.18789703 -0.078715891 0.60100001
0.18946043 -0.078715891 0.60100001
0.19134165 -0.078846872 0.60200006
0.19322808 -0.078977846 0.60300004
0.19511971 -0.079108819 0.60400003
0.19669089 -0.079108819 0.60400003
0.19859034 -0.079239793 0.60500002
0.20049496 -0.079370767 0.60600001
0.20240481 -0.079501748 0.60700005
0.2039838 -0.079501748 0.60700005
0.20556279 -0.079501748 0.60700005
0.20748304 -0.079632722 0.60800004
0.20906463 -0.079632722 0.60800004
0.21064621 -0.079632722 0.60800004
0.21257687 -0.079763696 0.60900003
0.21451271 -0.079894669 0.61000001
0.21609952 -0.079894669 0.61000001
0.21768631 -0.079894669 0.61000001
0.21927309 -0.079894669 0.61000001
0.22122194 -0.080025636 0.611
0.22281136 -0.080025636 0.611
0.22440074 -0.080025636 0.611
0.22599013 -0.080025636 0.611
0.22795202 -0.080156617 0.61200005
0.22991908 -0.080287591 0.61300004
0.23151369 -0.080287591 0.61300004
0.23310828 -0.080287591 0.61300004
0.23470289 -0.080287591 0.61300004
0.23668295 -0.080418564 0.61400002
0.23828015 -0.080418564 0.61400002
0.23987736 -0.080418564 0.61400002
0.24147455 -0.080418564 0.61400002
0.24307175 -0.080418564 0.61400002
0.24466895 -0.080418564 0.61400002
0.24626614 -0.080418564 0.61400002
0.24826704 -0.080549538 0.61500001
0.24986683 -0.080549538 0.61500001
0.25187552 -0.080680519 0.61600006
0.25347793 -0.080680519 0.61600006
0.25508034 -0.080680519 0.61600006
0.25668275 -0.080680519 0.61600006
0.25828514 -0.080680519 0.61600006
0.26030943 -0.080811493 0.61700004
0.26233894 -0.080942467 0.61800003
0.26437363 -0.081073441 0.61900002
0.26598385 -0.081073441 0.61900002
0.26845866 -0.081335396 0.62100005
0.27050894 -0.081466369 0.62200004
0.27212697 -0.081466369 0.62200004
0.27418509 -0.081597343 0.62300003
0.2762484 -0.081728317 0.62400001
0.27876222 -0.081990264 0.62600005
0.28039065 -0.081990264 0.62600005
0.28246957 -0.082121238 0.62700003
0.28455371 -0.082252212 0.62800002
0.28618732 -0.082252212 0.62800002
0.28782094 -0.082252212 0.62800002
0.28991544 -0.082383186 0.62900001
0.29155165 -0.082383186 0.62900001
0.29318789 -0.082383186 0.62900001
0.29482409 -0.082383186 0.62900001
0.29646033 -0.082383186 0.62900001
0.29809654 -0.082383186 0.62900001
0.30020931 -0.082514167 0.63000005
0.30184814 -0.082514167 0.63000005
0.30396867 -0.082645141 0.63100004
0.30561009 -0.082645141 0.63100004
0.30725151 -0.082645141 0.63100004
-0.26641703 -0.061490934 0.47900003
-0.26517102 -0.061490934 0.47900003
-0.26392499 -0.061490934 0.47900003
-0.26267898 -0.061490934 0.47900003
-0.26197875 -0.061619304 0.48000002
-0.26073009 -0.061619304 0.48000002
-0.25948149 -0.061619304 0.48000002
-0.25823286 -0.061619304 0.48000002
-0.25751963 -0.061747681 0.48100004
-0.25626841 -0.061747681 0.48100004
-0.25501716 -0.061747681 0.48100004
-0.25376594 -0.061747681 0.48100004
-0.25251472 -0.061747681 0.48100004
-0.25178587 -0.061876055 0.48200002
-0.25053203 -0.061876055 0.48200002
-0.2492782 -0.061876055 0.48200002
-0.24802439 -0.061876055 0.48200002
-0.24677055 -0.061876055 0.48200002
-0.2460261 -0.062004425 0.48300001
-0.24476966 -0.062004425 0.48300001
-0.24351323 -0.062004425 0.48300001
-0.24225681 -0.062004425 0.48300001
-0.24149935 -0.062132802 0.48400003
-0.24024032 -0.062132802 0.48400003
-0.23898129 -0.062132802 0.48400003
-0.23821342 -0.062261172 0.48500001
-0.23695178 -0.062261172 0.48500001
-0.23569015 -0.062261172 0.48500001
-0.23442852 -0.062261172 0.48500001
-0.23364766 -0.062389549 0.48600003
-0.23238343 -0.062389549 0.48600003
-0.23111919 -0.062389549 0.48600003
-0.2303279 -0.062517919 0.48700002
-0.22906107 -0.062517919 0.48700002
-0.22826199 -0.0626463 0.48800004
-0.22699255 -0.0626463 0.48800004
-0.22572312 -0.0626463 0.48800004
-0.22491363 -0.062774666 0.48900002
-0.22364159 -0.062774666 0.48900002
-0.22282429 -0.062903039 0.49000001
-0.22154965 -0.062903039 0.49000001
-0.22072455 -0.063031413 0.49100003
-0.21944731 -0.063031413 0.49100003
-0.21861441 -0.063159786 0.49200001
-0.21733458 -0.063159786 0.49200001
-0.21605472 -0.063159786 0.49200001
-0.21477489 -0.063159786 0.49200001
-0.213929 -0.06328816 0.49300003
-0.21264656 -0.06328816 0.49300003
-0.21136412 -0.06328816 0.49300003
-0.21008167 -0.06328816 0.49300003
-0.20922275 -0.063416533 0.49400002
-0.2079377 -0.063416533 0.49400002
-0.20665267 -0.063416533 0.49400002
-0.20536762 -0.063416533 0.49400002
-0.2044957 -0.063544914 0.49500003
-0.20320806 -0.063544914 0.49500003
-0.20192042 -0.063544914 0.49500003
-0.20103809 -0.06367328 0.49600002
-0.19974783 -0.06367328 0.49600002
-0.19845758 -0.06367328 0.49600002
-0.19716735 -0.06367328 0.49600002
-0.1958771 -0.06367328 0.49600002
-0.19458686 -0.06367328 0.49600002
-0.1932966 -0.06367328 0.49600002
-0.19200636 -0.06367328 0.49600002
-0.19071612 -0.06367328 0.49600002
-0.18980777 -0.063801654 0.49700001
-0.18851493 -0.063801654 0.49700001
-0.18759878 -0.063930027 0.49800003
-0.18630333 -0.063930027 0.49800003
-0.1850079 -0.063930027 0.49800003
-0.18408135 -0.064058401 0.49900001
-0.18278329 -0.064058401 0.49900001
-0.18184893 -0.064186774 0.5
-0.18054828 -0.064186774 0.5
-0.17960614 -0.064315155 0.50100005
-0.1783029 -0.064315155 0.50100005
-0.17735292 -0.064443529 0.50200003
-0.17604707 -0.064443529 0.50200003
-0.17474122 -0.064443529 0.50200003
-0.17343538 -0.064443529 0.50200003
-0.1724724 -0.064571895 0.50300002
-0.17116393 -0.064571895 0.50300002
-0.16985548 -0.064571895 0.50300002
-0.16854703 -0.064571895 0.50300002
-0.16757105 -0.064700268 0.50400001
-0.16626 -0.064700268 0.50400001
-0.16494894 -0.064700268 0.50400001
-0.16363788 -0.064700268 0.50400001
-0.16232683 -0.064700268 0.50400001
-0.16101578 -0.064700268 0.50400001
-0.15970473 -0.064700268 0.50400001
-0.15839365 -0.064700268 0.50400001
-0.1570826 -0.064700268 0.50400001
-0.15577155 -0.064700268 0.50400001
-0.15476696 -0.064828642 0.505
-0.15345329 -0.064828642 0.505
-0.15213963 -0.064828642 0.505
-0.15112466 -0.064957023 0.50600004
-0.15010446 -0.065085396 0.50700003
-0.14907907 -0.065213762 0.50800002
-0.14775759 -0.065213762 0.50800002
-0.14672439 -0.065342136 0.509
-0.14540033 -0.065342136 0.509
-0.14435935 -0.065470517 0.51000005
-0.14303268 -0.065470517 0.51000005
-0.141706 -0.065470517 0.51000005
-0.14037934 -0.065470517 0.51000005
-0.13932534 -0.06559889 0.51100004
-0.13799608 -0.06559889 0.51100004
-0.13693425 -0.065727256 0.51200002
-0.13560238 -0.065727256 0.51200002
-0.13427052 -0.065727256 0.51200002
-0.13319829 -0.06585563 0.51300001
-0.13186383 -0.06585563 0.51300001
-0.13052934 -0.06585563 0.51300001
-0.12944672 -0.065984003 0.514
-0.12810966 -0.065984003 0.514
-0.12701924 -0.066112384 0.51500005
-0.12567957 -0.066112384 0.51500005
-0.1243399 -0.066112384 0.51500005
-0.12300023 -0.066112384 0.51500005
-0.12189679 -0.066240758 0.51600003
-0.12055452 -0.066240758 0.51600003
-0.11921224 -0.066240758 0.51600003
-0.11786997 -0.066240758 0.51600003
-0.1165277 -0.066240758 0.51600003
-0.11540865 -0.066369124 0.51700002
-0.11406378 -0.066369124 0.51700002
-0.1127189 -0.066369124 0.51700002
-0.11137404 -0.066369124 0.51700002
-0.11024198 -0.066497497 0.51800001
-0.1088945 -0.066497497 0.51800001
-0.10775466 -0.066625878 0.51900005
-0.10640459 -0.066625878 0.51900005
-0.10505451 -0.066625878 0.51900005
-0.10370443 -0.066625878 0.51900005
-0.10255157 -0.066754252 0.52000004
-0.10119889 -0.066754252 0.52000004
-0.10003822 -0.066882625 0.52100003
-0.09868294 -0.066882625 0.52100003
-0.097514473 -0.067010991 0.52200001
-0.096156597 -0.067010991 0.52200001
-0.094980314 -0.067139365 0.523
-0.093619838 -0.067139365 0.523
-0.09243577 -0.067267746 0.52400005
-0.091072686 -0.067267746 0.52400005
-0.089880809 -0.067396119 0.52500004
-0.088515118 -0.067396119 0.52500004
-0.087149441 -0.067396119 0.52500004
-0.085947149 -0.067524493 0.52600002
-0.084578864 -0.067524493 0.52600002
-0.083210573 -0.067524493 0.52600002
-0.081997886 -0.067652859 0.52700001
-0.080627002 -0.067652859 0.52700001
-0.07925611 -0.067652859 0.52700001
-0.077885233 -0.067652859 0.52700001
-0.076659523 -0.067781232 0.528
-0.075286038 -0.067781232 0.528
-0.074052542 -0.067909613 0.52900004
-0.072676457 -0.067909613 0.52900004
-0.071300372 -0.067909613 0.52900004
-0.070056461 -0.068037987 0.53000003
-0.068807349 -0.068166353 0.53100002
-0.067426056 -0.068166353 0.53100002
-0.066169143 -0.068294726 0.53200001
-0.06478525 -0.068294726 0.53200001
-0.063401356 -0.068294726 0.53200001
-0.062134042 -0.068423107 0.53300005
-0.060747553 -0.068423107 0.53300005
-0.059361055 -0.068423107 0.53300005
-0.058083329 -0.068551481 0.53400004
-0.056694236 -0.068551481 0.53400004
-0.055305138 -0.068551481 0.53400004
-0.054017007 -0.068679854 0.53500003
-0.052625313 -0.068679854 0.53500003
-0.051233616 -0.068679854 0.53500003
-0.049841918 -0.068679854 0.53500003
-0.048540782 -0.06880822 0.53600001
-0.047146484 -0.06880822 0.53600001
-0.045752186 -0.06880822 0.53600001
-0.044440642 -0.068936594 0.537
-0.043043748 -0.068936594 0.537
-0.041646846 -0.068936594 0.537
-0.040324904 -0.069064975 0.53800005
-0.038925402 -0.069064975 0.53800005
-0.037595652 -0.069193348 0.53900003
-0.03619355 -0.069193348 0.53900003
-0.034791451 -0.069193348 0.53900003
-0.033389349 -0.069193348 0.53900003
-0.03204659 -0.069321722 0.54000002
-0.030641887 -0.069321722 0.54000002
-0.029237183 -0.069321722 0.54000002
-0.027832482 -0.069321722 0.54000002
-0.026476717 -0.069450088 0.54100001
-0.025069412 -0.069450088 0.54100001
-0.023662109 -0.069450088 0.54100001
-0.022295943 -0.069578469 0.54200006
-0.020886036 -0.069578469 0.54200006
-0.019476132 -0.069578469 0.54200006
-0.018066226 -0.069578469 0.54200006
-0.01668705 -0.069706842 0.54300004
-0.015274543 -0.069706842 0.54300004
-0.013887565 -0.069835216 0.54400003
-0.012472456 -0.069835216 0.54400003
-0.011057347 -0.069835216 0.54400003
-0.0096599637 -0.069963589 0.54500002
-0.0082422541 -0.069963589 0.54500002
-0.0068370663 -0.070091955 0.546
-0.005416756 -0.070091955 0.546
-0.0040037646 -0.070220336 0.54700005
-0.0025808522 -0.070220336 0.54700005
-0.0011600569 -0.07034871 0.54800004
0.00026545665 -0.07034871 0.54800004
0.001694056 -0.070477083 0.54900002
0.0031221707 -0.070477083 0.54900002
0.0045585735 -0.070605457 0.55000001
0.0059892898 -0.070605457 0.55000001
0.0074200062 -0.070605457 0.55000001
0.008866814 -0.070733823 0.551
0.010300132 -0.070733823 0.551
0.011733448 -0.070733823 0.551
0.013190663 -0.070862204 0.55200005
0.014626582 -0.070862204 0.55200005
0.016062502 -0.070862204 0.55200005
0.017498421 -0.070862204 0.55200005
0.01896864 -0.070990577 0.55300003
0.020407159 -0.070990577 0.55300003
0.02184568 -0.070990577 0.55300003
0.023326306 -0.071118951 0.55400002
0.024767425 -0.071118951 0.55400002
0.026255855 -0.071247317 0.55500001
0.027699579 -0.071247317 0.55500001
0.029143298 -0.071247317 0.55500001
0.030587021 -0.071247317 0.55500001
0.032030746 -0.071247317 0.55500001
0.033534784 -0.071375698 0.55600005
0.034981109 -0.071375698 0.55600005
0.036427431 -0.071375698 0.55600005
0.037873756 -0.071375698 0.55600005
0.039320081 -0.071375698 0.55600005
0.040693082 -0.071247317 0.55500001
0.042060882 -0.071118951 0.55400002
0.043423481 -0.070990577 0.55300003
0.044699747 -0.070733823 0.551
0.046049342 -0.070605457 0.55000001
0.047307406 -0.07034871 0.54800004
0.048555057 -0.070091955 0.546
0.049792312 -0.069835216 0.54400003
0.051019162 -0.069578469 0.54200006
0.052235596 -0.069321722 0.54000002
0.053540967 -0.069193348 0.53900003
0.054841135 -0.069064975 0.53800005
0.056136094 -0.068936594 0.537
0.058653958 -0.064058401 0.49900001
0.059471432 -0.063544914 0.49500003
0.060513586 -0.06328816 0.49300003
0.061670676 -0.063159786 0.49200001
0.062822573 -0.063031413 0.49100003
0.063969262 -0.062903039 0.49000001
0.064977601 -0.0626463 0.48800004
0.066111282 -0.062517919 0.48700002
0.067378111 -0.062517919 0.48700002
0.068503998 -0.062389549 0.48600003
0.06962467 -0.062261172 0.48500001
0.070740148 -0.062132802 0.48400003
0.071850412 -0.062004425 0.48300001
0.072955489 -0.061876055 0.48200002
0.074055359 -0.061747681 0.48100004
0.075150013 -0.061619304 0.48000002
0.076239482 -0.061490934 0.47900003
0.077485502 -0.061490934 0.47900003
0.078567162 -0.061362557 0.47800002
0.079810582 -0.061362557 0.47800002
0.080884442 -0.061234187 0.47700003
0.082125254 -0.061234187 0.47700003
0.083366074 -0.061234187 0.47700003
0.084606901 -0.061234187 0.47700003
0.086027689 -0.061362557 0.47800002
0.087271117 -0.061362557 0.47800002
0.088514537 -0.061362557 0.47800002
0.089757957 -0.061362557 0.47800002
0.091191769 -0.061490934 0.47900003
0.092437789 -0.061490934 0.47900003
0.093683816 -0.061490934 0.47900003
0.094929837 -0.061490934 0.47900003
0.096175864 -0.061490934 0.47900003
0.097625263 -0.061619304 0.48000002
0.098873891 -0.061619304 0.48000002
0.10033111 -0.061747681 0.48100004
0.10158233 -0.061747681 0.48100004
0.10304735 -0.061876055 0.48200002
0.10430118 -0.061876055 0.48200002
0.105555 -0.061876055 0.48200002
0.10703043 -0.062004425 0.48300001
0.10851105 -0.062132802 0.48400003
0.10977009 -0.062132802 0.48400003
0.11125851 -0.062261172 0.48500001
0.11275215 -0.062389549 0.48600003
0.11401638 -0.062389549 0.48600003
0.11528061 -0.062389549 0.48600003
0.11678465 -0.062517919 0.48700002
0.11805148 -0.062517919 0.48700002
0.14608878 -0.075740397 0.59000003
0.14762355 -0.075740397 0.59000003
0.14941113 -0.07586877 0.59100002
0.15094851 -0.07586877 0.59100002
0.15248588 -0.07586877 0.59100002
0.15428385 -0.075997144 0.59200001
0.15582381 -0.075997144 0.59200001
0.1573638 -0.075997144 0.59200001
0.15917219 -0.076125517 0.59300005
0.16098578 -0.076253891 0.59400004
0.16253096 -0.076253891 0.59400004
0.16435234 -0.076382264 0.59500003
0.16590013 -0.076382264 0.59500003
0.16772932 -0.076510638 0.59600002
0.16956371 -0.076639012 0.597
0.17111669 -0.076639012 0.597
0.17266966 -0.076639012 0.597
0.1745145 -0.076767385 0.59800005
0.17607008 -0.076767385 0.59800005
0.17762566 -0.076767385 0.59800005
0.17918122 -0.076767385 0.59800005
0.18103904 -0.076895759 0.59900004
0.18259722 -0.076895759 0.59900004
0.1841554 -0.076895759 0.59900004
0.18602361 -0.077024132 0.60000002
0.18789703 -0.077152506 0.60100001
0.18946043 -0.077152506 0.60100001
0.19134165 -0.077280886 0.60200006
0.19322808 -0.077409253 0.60300004
0.19511971 -0.077537626 0.60400003
0.19701652 -0.077666 0.60500002
0.19859034 -0.077666 0.60500002
0.20049496 -0.077794373 0.60600001
0.20240481 -0.077922754 0.60700005
0.2039838 -0.077922754 0.60700005
0.20590143 -0.07805112 0.60800004
0.20748304 -0.07805112 0.60800004
0.20906463 -0.07805112 0.60800004
0.21064621 -0.07805112 0.60800004
0.21257687 -0.078179494 0.60900003
0.21451271 -0.078307867 0.61000001
0.21609952 -0.078307867 0.61000001
0.21768631 -0.078307867 0.61000001
0.21927309 -0.078307867 0.61000001
0.22122194 -0.078436241 0.611
0.22281136 -0.078436241 0.611
0.22440074 -0.078436241 0.611
0.22599013 -0.078436241 0.611
0.22795202 -0.078564622 0.61200005
0.22991908 -0.078692988 0.61300004
0.23151369 -0.078692988 0.61300004
0.23310828 -0.078692988 0.61300004
0.23470289 -0.078692988 0.61300004
0.23629747 -0.078692988 0.61300004
0.23789206 -0.078692988 0.61300004
0.23987736 -0.078821361 0.61400002
0.24147455 -0.078821361 0.61400002
0.24307175 -0.078821361 0.61400002
0.24466895 -0.078821361 0.61400002
0.24626614 -0.078821361 0.61400002
0.24826704 -0.078949735 0.61500001
0.25027314 -0.079078116 0.61600006
0.25187552 -0.079078116 0.61600006
0.25347793 -0.079078116 0.61600006
0.25549442 -0.079206482 0.61700004
0.25709945 -0.079206482 0.61700004
0.25870442 -0.079206482 0.61700004
0.26030943 -0.079206482 0.61700004
0.26233894 -0.079334855 0.61800003
0.26437363 -0.079463229 0.61900002
0.26641354 -0.079591602 0.62
0.26845866 -0.079719983 0.62100005
0.27050894 -0.079848349 0.62200004
0.27212697 -0.079848349 0.62200004
0.27462518 -0.080105096 0.62400001
0.27669108 -0.08023347 0.625
0.27876222 -0.080361851 0.62600005
0.28039065 -0.080361851 0.62600005
0.28246957 -0.080490217 0.62700003
0.28410059 -0.080490217 0.62700003
0.28618732 -0.08061859 0.62800002
0.28782094 -0.08061859 0.62800002
0.28945455 -0.08061859 0.62800002
0.29155165 -0.080746964 0.62900001
0.29318789 -0.080746964 0.62900001
0.29482409 -0.080746964 0.62900001
0.29646033 -0.080746964 0.62900001
0.29809654 -0.080746964 0.62900001
0.29973277 -0.080746964 0.62900001
0.30184814 -0.080875345 0.63000005
0.30348694 -0.080875345 0.63000005
0.30512577 -0.080875345 0.63000005
0.30725151 -0.081003718 0.63100004
-0.26641703 -0.060244914 0.47900003
-0.26517102 -0.060244914 0.47900003
-0.26392499 -0.060244914 0.47900003
-0.26322737 -0.060370684 0.48000002
-0.26197875 -0.060370684 0.48000002
-0.26073009 -0.060370684 0.48000002
-0.25948149 -0.060370684 0.48000002
-0.25877085 -0.060496457 0.48100004
-0.25751963 -0.060496457 0.48100004
-0.25626841 -0.060496457 0.48100004
-0.25501716 -0.060496457 0.48100004
-0.25376594 -0.060496457 0.48100004
-0.25303969 -0.06062223 0.48200002
-0.25178587 -0.06062223 0.48200002
-0.25053203 -0.06062223 0.48200002
-0.2492782 -0.06062223 0.48200002
-0.24802439 -0.06062223 0.48200002
-0.24677055 -0.06062223 0.48200002
-0.2460261 -0.060748 0.48300001
-0.24476966 -0.060748 0.48300001
-0.24351323 -0.060748 0.48300001
-0.24225681 -0.060748 0.48300001
-0.24149935 -0.060873773 0.48400003
-0.24024032 -0.060873773 0.48400003
-0.23898129 -0.060873773 0.48400003
-0.23821342 -0.060999546 0.48500001
-0.23695178 -0.060999546 0.48500001
-0.23569015 -0.060999546 0.48500001
-0.23442852 -0.060999546 0.48500001
-0.23364766 -0.061125319 0.48600003
-0.23238343 -0.061125319 0.48600003
-0.23111919 -0.061125319 0.48600003
-0.2303279 -0.061251089 0.48700002
-0.22906107 -0.061251089 0.48700002
-0.22779423 -0.061251089 0.48700002
-0.22699255 -0.061376862 0.48800004
-0.22572312 -0.061376862 0.48800004
-0.22445369 -0.061376862 0.48800004
-0.22364159 -0.061502635 0.48900002
-0.22282429 -0.061628405 0.49000001
-0.22154965 -0.061628405 0.49000001
-0.22072455 -0.061754178 0.49100003
-0.21944731 -0.061754178 0.49100003
-0.21861441 -0.061879952 0.49200001
-0.21733458 -0.061879952 0.49200001
-0.21605472 -0.061879952 0.49200001
-0.21521144 -0.062005725 0.49300003
-0.213929 -0.062005725 0.49300003
-0.21264656 -0.062005725 0.49300003
-0.21136412 -0.062005725 0.49300003
-0.21050778 -0.062131494 0.49400002
-0.20922275 -0.062131494 0.49400002
-0.2079377 -0.062131494 0.49400002
-0.20665267 -0.062131494 0.49400002
-0.20578335 -0.062257271 0.49500003
-0.2044957 -0.062257271 0.49500003
-0.20320806 -0.062257271 0.49500003
-0.20192042 -0.062257271 0.49500003
-0.20103809 -0.062383041 0.49600002
-0.19974783 -0.062383041 0.49600002
-0.19845758 -0.062383041 0.49600002
-0.19716735 -0.062383041 0.49600002
-0.1958771 -0.062383041 0.49600002
-0.19458686 -0.062383041 0.49600002
-0.1932966 -0.062383041 0.49600002
-0.19200636 -0.062383041 0.49600002
-0.19071612 -0.062383041 0.49600002
-0.18942587 -0.062383041 0.49600002
-0.18851493 -0.062508814 0.49700001
-0.18722208 -0.062508814 0.49700001
-0.18630333 -0.062634587 0.49800003
-0.1850079 -0.062634587 0.49800003
-0.18408135 -0.062760353 0.49900001
-0.18278329 -0.062760353 0.49900001
-0.18184893 -0.062886126 0.5
-0.18054828 -0.062886126 0.5
-0.17924763 -0.062886126 0.5
-0.1783029 -0.063011907 0.50100005
-0.17699963 -0.063011907 0.50100005
-0.17604707 -0.063137673 0.50200003
-0.17474122 -0.063137673 0.50200003
-0.17343538 -0.063137673 0.50200003
-0.1724724 -0.063263446 0.50300002
-0.17116393 -0.063263446 0.50300002
-0.16985548 -0.063263446 0.50300002
-0.16854703 -0.063263446 0.50300002
-0.16723858 -0.063263446 0.50300002
-0.16626 -0.063389219 0.50400001
-0.16494894 -0.063389219 0.50400001
-0.16363788 -0.063389219 0.50400001
-0.16232683 -0.063389219 0.50400001
-0.16101578 -0.063389219 0.50400001
-0.15970473 -0.063389219 0.50400001
-0.15839365 -0.063389219 0.50400001
-0.1570826 -0.063389219 0.50400001
-0.15577155 -0.063389219 0.50400001
-0.15476696 -0.063514985 0.505
-0.15345329 -0.063514985 0.505
-0.15213963 -0.063514985 0.505
-0.15112466 -0.063640766 0.50600004
-0.15010446 -0.063766539 0.50700003
-0.14878561 -0.063766539 0.50700003
-0.14775759 -0.063892305 0.50800002
-0.14643614 -0.063892305 0.50800002
-0.14540033 -0.064018078 0.509
-0.14435935 -0.064143859 0.51000005
-0.14303268 -0.064143859 0.51000005
-0.141706 -0.064143859 0.51000005
-0.14037934 -0.064143859 0.51000005
-0.13932534 -0.064269625 0.51100004
-0.13799608 -0.064269625 0.51100004
-0.13693425 -0.064395398 0.51200002
-0.13560238 -0.064395398 0.51200002
-0.13427052 -0.064395398 0.51200002
-0.13319829 -0.064521164 0.51300001
-0.13186383 -0.064521164 0.51300001
-0.13078378 -0.064646937 0.514
-0.12944672 -0.064646937 0.514
-0.12810966 -0.064646937 0.514
-0.12701924 -0.064772718 0.51500005
-0.12567957 -0.064772718 0.51500005
-0.1243399 -0.064772718 0.51500005
-0.12300023 -0.064772718 0.51500005
-0.12189679 -0.064898483 0.51600003
-0.12055452 -0.064898483 0.51600003
-0.11921224 -0.064898483 0.51600003
-0.11786997 -0.064898483 0.51600003
-0.1165277 -0.064898483 0.51600003
-0.11540865 -0.065024257 0.51700002
-0.11406378 -0.065024257 0.51700002
-0.1127189 -0.065024257 0.51700002
-0.11137404 -0.065024257 0.51700002
-0.11024198 -0.06515003 0.51800001
-0.1088945 -0.06515003 0.51800001
-0.10754703 -0.06515003 0.51800001
-0.10640459 -0.065275803 0.51900005
-0.10505451 -0.065275803 0.51900005
-0.10370443 -0.065275803 0.51900005
-0.10255157 -0.065401576 0.52000004
-0.10119889 -0.065401576 0.52000004
-0.10003822 -0.06552735 0.52100003
-0.09868294 -0.06552735 0.52100003
-0.097514473 -0.065653116 0.52200001
-0.096340805 -0.065778889 0.523
-0.094980314 -0.065778889 0.523
-0.093619838 -0.065778889 0.523
-0.09243577 -0.065904669 0.52400005
-0.091072686 -0.065904669 0.52400005
-0.089880809 -0.066030435 0.52500004
-0.088515118 -0.066030435 0.52500004
-0.087315433 -0.066156209 0.52600002
-0.085947149 -0.066156209 0.52600002
-0.084578864 -0.066156209 0.52600002
-0.083210573 -0.066156209 0.52600002
-0.081997886 -0.066281982 0.52700001
-0.080627002 -0.066281982 0.52700001
-0.07925611 -0.066281982 0.52700001
-0.077885233 -0.066281982 0.52700001
-0.076659523 -0.066407748 0.528
-0.075286038 -0.066407748 0.528
-0.074052542 -0.066533528 0.52900004
-0.072676457 -0.066533528 0.52900004
-0.071435153 -0.066659302 0.53000003
-0.070056461 -0.066659302 0.53000003
-0.068807349 -0.066785067 0.53100002
-0.067553028 -0.066910841 0.53200001
-0.066169143 -0.066910841 0.53200001
-0.06478525 -0.066910841 0.53200001
-0.063520536 -0.067036614 0.53300005
-0.062134042 -0.067036614 0.53300005
-0.060747553 -0.067036614 0.53300005
-0.059472427 -0.067162387 0.53400004
-0.058083329 -0.067162387 0.53400004
-0.056694236 -0.067162387 0.53400004
-0.055408705 -0.06728816 0.53500003
-0.054017007 -0.06728816 0.53500003
-0.052625313 -0.06728816 0.53500003
-0.051233616 -0.06728816 0.53500003
-0.04993508 -0.067413926 0.53600001
-0.048540782 -0.067413926 0.53600001
-0.047146484 -0.067413926 0.53600001
-0.045752186 -0.067413926 0.53600001
-0.044440642 -0.067539699 0.537
-0.043043748 -0.067539699 0.537
-0.041724406 -0.06766548 0.53800005
-0.040324904 -0.06766548 0.53800005
-0.038997754 -0.067791246 0.53900003
-0.037595652 -0.067791246 0.53900003
-0.03619355 -0.067791246 0.53900003
-0.034791451 -0.067791246 0.53900003
-0.033451293 -0.067917019 0.54000002
-0.03204659 -0.067917019 0.54000002
-0.030698631 -0.068042792 0.54100001
-0.029291326 -0.068042792 0.54100001
-0.027884023 -0.068042792 0.54100001
-0.026476717 -0.068042792 0.54100001
-0.025069412 -0.068042792 0.54100001
-0.023705849 -0.068168566 0.54200006
-0.022295943 -0.068168566 0.54200006
-0.020886036 -0.068168566 0.54200006
-0.019476132 -0.068168566 0.54200006
-0.018066226 -0.068168566 0.54200006
-0.01668705 -0.068294339 0.54300004
-0.015274543 -0.068294339 0.54300004
-0.013862036 -0.068294339 0.54300004
-0.012472456 -0.068420112 0.54400003
-0.011057347 -0.068420112 0.54400003
-0.0096599637 -0.068545878 0.54500002
-0.0082422541 -0.068545878 0.54500002
-0.0068370663 -0.068671651 0.546
-0.005416756 -0.068671651 0.546
-0.0040037646 -0.068797432 0.54700005
-0.0025808522 -0.068797432 0.54700005
-0.0011600569 -0.068923198 0.54800004
0.00026545665 -0.068923198 0.54800004
0.001694056 -0.069048971 0.54900002
0.0031221707 -0.069048971 0.54900002
0.0045585735 -0.069174744 0.55000001
0.0059892898 -0.069174744 0.55000001
0.0074200062 -0.069174744 0.55000001
0.008866814 -0.06930051 0.551
0.010300132 -0.06930051 0.551
0.011754745 -0.069426291 0.55200005
0.013190663 -0.069426291 0.55200005
0.014626582 -0.069426291 0.55200005
0.016062502 -0.069426291 0.55200005
0.017498421 -0.069426291 0.55200005
0.01896864 -0.069552056 0.55300003
0.020407159 -0.069552056 0.55300003
0.02184568 -0.069552056 0.55300003
0.023326306 -0.06967783 0.55400002
0.024767425 -0.06967783 0.55400002
0.026255855 -0.069803603 0.55500001
0.027699579 -0.069803603 0.55500001
0.029143298 -0.069803603 0.55500001
0.030587021 -0.069803603 0.55500001
0.032030746 -0.069803603 0.55500001
0.033534784 -0.069929376 0.55600005
0.034981109 -0.069929376 0.55600005
0.036427431 -0.069929376 0.55600005
0.037873756 -0.069929376 0.55600005
0.039320081 -0.069929376 0.55600005
0.040693082 -0.069803603 0.55500001
0.042060882 -0.06967783 0.55400002
0.043423481 -0.069552056 0.55300003
0.044699747 -0.06930051 0.551
0.045965616 -0.069048971 0.54900002
0.047307406 -0.068923198 0.54800004
0.048555057 -0.068671651 0.546
0.049792312 -0.068420112 0.54400003
0.051019162 -0.068168566 0.54200006
0.052235596 -0.067917019 0.54000002
0.053540967 -0.067791246 0.53900003
0.054841135 -0.06766548 0.53800005
0.056031559 -0.067413926 0.53600001
0.056783032 -0.066659302 0.53000003
0.057393547 -0.065778889 0.523
0.059006587 -0.063137673 0.50200003
0.059831865 -0.062634587 0.49800003
0.060759079 -0.062257271 0.49500003
0.061796024 -0.062005725 0.49300003
0.062822573 -0.061754178 0.49100003
0.063969262 -0.061628405 0.49000001
0.06511075 -0.061502635 0.48900002
0.066247039 -0.061376862 0.48800004
0.067378111 -0.061251089 0.48700002
0.068503998 -0.061125319 0.48600003
0.06962467 -0.060999546 0.48500001
0.070740148 -0.060873773 0.48400003
0.071850412 -0.060748 0.48300001
0.072955489 -0.06062223 0.48200002
0.074055359 -0.060496457 0.48100004
0.075150013 -0.060370684 0.48000002
0.076239482 -0.060244914 0.47900003
0.077485502 -0.060244914 0.47900003
0.078567162 -0.060119137 0.47800002
0.079810582 -0.060119137 0.47800002
0.080884442 -0.059993368 0.47700003
0.082125254 -0.059993368 0.47700003
0.083366074 -0.059993368 0.47700003
0.084606901 -0.059993368 0.47700003
0.085847721 -0.059993368 0.47700003
0.087271117 -0.060119137 0.47800002
0.088514537 -0.060119137 0.47800002
0.089757957 -0.060119137 0.47800002
0.091001384 -0.060119137 0.47800002
0.092437789 -0.060244914 0.47900003
0.093683816 -0.060244914 0.47900003
0.094929837 -0.060244914 0.47900003
0.096175864 -0.060244914 0.47900003
0.097421885 -0.060244914 0.47900003
0.098873891 -0.060370684 0.48000002
0.10012252 -0.060370684 0.48000002
0.10158233 -0.060496457 0.48100004
0.10304735 -0.06062223 0.48200002
0.10430118 -0.06062223 0.48200002
0.105555 -0.06062223 0.48200002
0.10703043 -0.060748 0.48300001
0.10828685 -0.060748 0.48300001
0.10977009 -0.060873773 0.48400003
0.11125851 -0.060999546 0.48500001
0.11252014 -0.060999546 0.48500001
0.11401638 -0.061125319 0.48600003
0.11528061 -0.061125319 0.48600003
0.11654484 -0.061125319 0.48600003
0.11805148 -0.061251089 0.48700002
0.14608878 -0.074205637 0.59000003
0.14762355 -0.074205637 0.59000003
0.14941113 -0.074331403 0.59100002
0.15094851 -0.074331403 0.59100002
0.15248588 -0.074331403 0.59100002
0.15428385 -0.074457176 0.59200001
0.15582381 -0.074457176 0.59200001
0.1573638 -0.074457176 0.59200001
0.15917219 -0.074582949 0.59300005
0.16098578 -0.074708723 0.59400004
0.16253096 -0.074708723 0.59400004
0.16435234 -0.074834496 0.59500003
0.16590013 -0.074834496 0.59500003
0.16772932 -0.074960262 0.59600002
0.16956371 -0.075086035 0.597
0.17111669 -0.075086035 0.597
0.17266966 -0.075086035 0.597
0.1745145 -0.075211816 0.59800005
0.17607008 -0.075211816 0.59800005
0.17762566 -0.075211816 0.59800005
0.17918122 -0.075211816 0.59800005
0.18103904 -0.075337581 0.59900004
0.18259722 -0.075337581 0.59900004
0.1841554 -0.075337581 0.59900004
0.18602361 -0.075463355 0.60000002
0.18789703 -0.075589128 0.60100001
0.18977568 -0.075714901 0.60200006
0.19134165 -0.075714901 0.60200006
0.19354852 -0.075966448 0.60400003
0.19511971 -0.075966448 0.60400003
0.19701652 -0.076092213 0.60500002
0.19891858 -0.076217987 0.60600001
0.20082583 -0.076343767 0.60700005
0.20240481 -0.076343767 0.60700005
0.20431985 -0.076469533 0.60800004
0.20590143 -0.076469533 0.60800004
0.20748304 -0.076469533 0.60800004
0.20906463 -0.076469533 0.60800004
0.21099266 -0.076595306 0.60900003
0.21257687 -0.076595306 0.60900003
0.21451271 -0.07672108 0.61000001
0.21609952 -0.07672108 0.61000001
0.21768631 -0.07672108 0.61000001
0.21927309 -0.07672108 0.61000001
0.22122194 -0.076846845 0.611
0.22281136 -0.076846845 0.611
0.22440074 -0.076846845 0.611
0.22599013 -0.076846845 0.611
0.22795202 -0.076972626 0.61200005
0.22991908 -0.077098392 0.61300004
0.23151369 -0.077098392 0.61300004
0.23310828 -0.077098392 0.61300004
0.23470289 -0.077098392 0.61300004
0.23629747 -0.077098392 0.61300004
0.23789206 -0.077098392 0.61300004
0.23987736 -0.077224165 0.61400002
0.24147455 -0.077224165 0.61400002
0.24307175 -0.077224165 0.61400002
0.24506742 -0.077349938 0.61500001
0.24666722 -0.077349938 0.61500001
0.24867074 -0.077475712 0.61600006
0.25027314 -0.077475712 0.61600006
0.25187552 -0.077475712 0.61600006
0.25388941 -0.077601485 0.61700004
0.25549442 -0.077601485 0.61700004
0.25709945 -0.077601485 0.61700004
0.25870442 -0.077601485 0.61700004
0.26073131 -0.077727258 0.61800003
0.26276341 -0.077853024 0.61900002
0.26480073 -0.077978797 0.62
0.26684326 -0.078104578 0.62100005
0.26845866 -0.078104578 0.62100005
0.27050894 -0.078230344 0.62200004
0.27256447 -0.078356117 0.62300003
0.27462518 -0.07848189 0.62400001
0.27669108 -0.078607656 0.625
0.27876222 -0.078733437 0.62600005
0.28039065 -0.078733437 0.62600005
0.28246957 -0.07885921 0.62700003
0.28410059 -0.07885921 0.62700003
0.28618732 -0.078984976 0.62800002
0.28782094 -0.078984976 0.62800002
0.28945455 -0.078984976 0.62800002
0.29108816 -0.078984976 0.62800002
0.29272178 -0.078984976 0.62800002
0.29482409 -0.079110749 0.62900001
0.29646033 -0.079110749 0.62900001
0.29809654 -0.079110749 0.62900001
0.29973277 -0.079110749 0.62900001
0.30136898 -0.079110749 0.62900001
