# .PCD v0.7 - Point Cloud Data file format
VERSION 0.7
FIELDS x y z
SIZE 4 4 4
TYPE F F F
COUNT 1 1 1
WIDTH 1385
HEIGHT 1
VIEWPOINT 0 0 0 1 0 0 0
POINTS 1385
DATA ascii
-0.23278847 -0.034888696 0.509
-0.23146442 -0.034888696 0.509
-0.23014034 -0.034888696 0.509
-0.22881629 -0.034888696 0.509
-0.22749223 -0.034888696 0.509
-0.22616816 -0.034888696 0.509
-0.2248441 -0.034888696 0.509
-0.22395918 -0.034957241 0.51000005
-0.22263253 -0.034957241 0.51000005
-0.22130586 -0.034957241 0.51000005
-0.2199792 -0.034957241 0.51000005
-0.21865255 -0.034957241 0.51000005
-0.21732587 -0.034957241 0.51000005
-0.2159992 -0.034957241 0.51000005
-0.21467254 -0.034957241 0.51000005
-0.21334589 -0.034957241 0.51000005
-0.21201922 -0.034957241 0.51000005
-0.21069254 -0.034957241 0.51000005
-0.20936589 -0.034957241 0.51000005
-0.20803922 -0.034957241 0.51000005
-0.20630722 -0.034888696 0.509
-0.20498314 -0.034888696 0.509
-0.20365909 -0.034888696 0.509
-0.20233503 -0.034888696 0.509
-0.2014059 -0.034957241 0.51000005
-0.20007925 -0.034957241 0.51000005
-0.19875257 -0.034957241 0.51000005
-0.1974259 -0.034957241 0.51000005
-0.19609924 -0.034957241 0.51000005
-0.19477259 -0.034957241 0.51000005
-0.19344592 -0.034957241 0.51000005
-0.19249594 -0.035025787 0.51100004
-0.19116668 -0.035025787 0.51100004
-0.18983743 -0.035025787 0.51100004
-0.18850815 -0.035025787 0.51100004
-0.18717889 -0.035025787 0.51100004
-0.18584962 -0.035025787 0.51100004
-0.18452035 -0.035025787 0.51100004
-0.18319109 -0.035025787 0.51100004
-0.18186183 -0.035025787 0.51100004
-0.18053256 -0.035025787 0.51100004
-0.17920329 -0.035025787 0.51100004
-0.17787403 -0.035025787 0.51100004
-0.17654477 -0.035025787 0.51100004
-0.17521551 -0.035025787 0.51100004
-0.17422651 -0.035094328 0.51200002
-0.17289464 -0.035094328 0.51200002
-0.17156278 -0.035094328 0.51200002
-0.17023093 -0.035094328 0.51200002
-0.16889906 -0.035094328 0.51200002
-0.16789445 -0.03516287 0.51300001
-0.16655999 -0.03516287 0.51300001
-0.16522552 -0.03516287 0.51300001
-0.16389106 -0.03516287 0.51300001
-0.16287346 -0.035231411 0.514
-0.16153638 -0.035231411 0.514
-0.16019931 -0.035231411 0.514
-0.15886225 -0.035231411 0.514
-0.15752518 -0.035231411 0.514
-0.1561881 -0.035231411 0.514
-0.15485103 -0.035231411 0.514
-0.1532153 -0.03516287 0.51300001
-0.15188085 -0.03516287 0.51300001
-0.15054639 -0.03516287 0.51300001
-0.1492119 -0.03516287 0.51300001
-0.14758918 -0.035094328 0.51200002
-0.14625731 -0.035094328 0.51200002
-0.14492545 -0.035094328 0.51200002
-0.14359359 -0.035094328 0.51200002
-0.14226171 -0.035094328 0.51200002
-0.14092985 -0.035094328 0.51200002
-0.13959798 -0.035094328 0.51200002
-0.13853617 -0.03516287 0.51300001
-0.13693425 -0.035094328 0.51200002
-0.13586722 -0.03516287 0.51300001
-0.13453276 -0.03516287 0.51300001
-0.13319829 -0.03516287 0.51300001
-0.13212086 -0.035231411 0.514
-0.13078378 -0.035231411 0.514
-0.12944672 -0.035231411 0.514
-0.12810966 -0.035231411 0.514
-0.1267726 -0.035231411 0.514
-0.12543552 -0.035231411 0.514
-0.12409845 -0.035231411 0.514
-0.12276138 -0.035231411 0.514
-0.12142431 -0.035231411 0.514
-0.12008724 -0.035231411 0.514
-0.11851914 -0.03516287 0.51300001
-0.11718468 -0.03516287 0.51300001
-0.1158502 -0.03516287 0.51300001
-0.11451574 -0.03516287 0.51300001
-0.11318128 -0.03516287 0.51300001
-0.11162878 -0.035094328 0.51200002
-0.11029692 -0.035094328 0.51200002
-0.10896505 -0.035094328 0.51200002
-0.10763318 -0.035094328 0.51200002
-0.10630132 -0.035094328 0.51200002
-0.10496945 -0.035094328 0.51200002
-0.10363758 -0.035094328 0.51200002
-0.10250553 -0.03516287 0.51300001
-0.10117106 -0.03516287 0.51300001
-0.099836588 -0.03516287 0.51300001
-0.098694138 -0.035231411 0.514
-0.097357064 -0.035231411 0.514
-0.096019998 -0.035231411 0.514
-0.094867148 -0.035299961 0.51500005
-0.093527474 -0.035299961 0.51500005
-0.092187807 -0.035299961 0.51500005
-0.091024533 -0.035368502 0.51600003
-0.089682259 -0.035368502 0.51600003
-0.088339992 -0.035368502 0.51600003
-0.086997718 -0.035368502 0.51600003
-0.085655451 -0.035368502 0.51600003
-0.084313169 -0.035368502 0.51600003
-0.082970902 -0.035368502 0.51600003
-0.081628628 -0.035368502 0.51600003
-0.080286361 -0.035368502 0.51600003
-0.078944087 -0.035368502 0.51600003
-0.077601813 -0.035368502 0.51600003
-0.076259546 -0.035368502 0.51600003
-0.074917272 -0.035368502 0.51600003
-0.073574997 -0.035368502 0.51600003
-0.072232723 -0.035368502 0.51600003
-0.070890456 -0.035368502 0.51600003
-0.06954819 -0.035368502 0.51600003
-0.068205908 -0.035368502 0.51600003
-0.066863641 -0.035368502 0.51600003
-0.065394387 -0.035299961 0.51500005
-0.064179093 -0.035368502 0.51600003
-0.062715046 -0.035299961 0.51500005
-0.061375376 -0.035299961 0.51500005
-0.060035706 -0.035299961 0.51500005
-0.058696039 -0.035299961 0.51500005
-0.057356369 -0.035299961 0.51500005
-0.056016695 -0.035299961 0.51500005
-0.05457085 -0.035231411 0.514
-0.053337354 -0.035299961 0.51500005
-0.05189671 -0.035231411 0.514
-0.050658014 -0.035299961 0.51500005
-0.049318343 -0.035299961 0.51500005
-0.047978673 -0.035299961 0.51500005
-0.046638999 -0.035299961 0.51500005
-0.045299329 -0.035299961 0.51500005
-0.043874297 -0.035231411 0.514
-0.042537227 -0.035231411 0.514
-0.041200161 -0.035231411 0.514
-0.039863091 -0.035231411 0.514
-0.038526021 -0.035231411 0.514
-0.037188951 -0.035231411 0.514
-0.035782132 -0.03516287 0.51300001
-0.034447663 -0.03516287 0.51300001
-0.033113196 -0.03516287 0.51300001
-0.031716783 -0.035094328 0.51200002
-0.030384915 -0.035094328 0.51200002
-0.029053049 -0.035094328 0.51200002
-0.027721182 -0.035094328 0.51200002
-0.012292772 -0.029953556 0.43700001
-0.011156003 -0.029953556 0.43700001
-0.010019234 -0.029953556 0.43700001
-0.0077279713 -0.029885013 0.43600002
-0.0065635564 -0.029747926 0.43400002
-0.0054220692 -0.029679382 0.43300003
-0.0042857849 -0.029610839 0.43200001
-0.003154703 -0.029542295 0.43100002
-0.0020288234 -0.029473752 0.43000001
-0.00090814673 -0.029405208 0.42900002
0.00020732747 -0.029336665 0.42800003
0.0013206848 -0.029336665 0.42800003
0.0024283549 -0.029268121 0.42700002
0.0035391108 -0.029268121 0.42700002
0.0046498668 -0.029268121 0.42700002
0.0057606231 -0.029268121 0.42700002
0.0068552871 -0.029199578 0.42600003
0.0079634413 -0.029199578 0.42600003
0.009071596 -0.029199578 0.42600003
0.010179752 -0.029199578 0.42600003
0.011261407 -0.029131033 0.42500001
0.012366962 -0.029131033 0.42500001
0.013472515 -0.029131033 0.42500001
0.014543768 -0.029062491 0.42400002
0.015646718 -0.029062491 0.42400002
0.016749671 -0.029062491 0.42400002
0.017852623 -0.029062491 0.42400002
0.018955575 -0.029062491 0.42400002
0.020058528 -0.029062491 0.42400002
0.02116148 -0.029062491 0.42400002
0.02226443 -0.029062491 0.42400002
0.023367384 -0.029062491 0.42400002
0.024470337 -0.029062491 0.42400002
0.025573287 -0.029062491 0.42400002
0.026676241 -0.029062491 0.42400002
0.027779192 -0.029062491 0.42400002
0.028882144 -0.029062491 0.42400002
0.030055815 -0.029131033 0.42500001
0.031161368 -0.029131033 0.42500001
0.032266922 -0.029131033 0.42500001
0.033372477 -0.029131033 0.42500001
0.034559153 -0.029199578 0.42600003
0.035667308 -0.029199578 0.42600003
0.036775462 -0.029199578 0.42600003
0.037883621 -0.029199578 0.42600003
0.048854142 -0.035574134 0.51900005
0.050204214 -0.035574134 0.51900005
0.051554289 -0.035574134 0.51900005
0.052904367 -0.035574134 0.51900005
0.054254442 -0.035574134 0.51900005
0.055604521 -0.035574134 0.51900005
0.056954596 -0.035574134 0.51900005
0.058304671 -0.035574134 0.51900005
0.059654746 -0.035574134 0.51900005
0.061004821 -0.035574134 0.51900005
0.0623549 -0.035574134 0.51900005
0.063582227 -0.035505589 0.51800001
0.064929694 -0.035505589 0.51800001
0.066277176 -0.035505589 0.51800001
0.067624643 -0.035505589 0.51800001
0.068972126 -0.035505589 0.51800001
0.070319593 -0.035505589 0.51800001
0.071667068 -0.035505589 0.51800001
0.073014542 -0.035505589 0.51800001
0.074362017 -0.035505589 0.51800001
0.075709492 -0.035505589 0.51800001
0.077056967 -0.035505589 0.51800001
0.078555815 -0.035574134 0.51900005
0.079905882 -0.035574134 0.51900005
0.081255957 -0.035574134 0.51900005
0.08260604 -0.035574134 0.51900005
0.083956107 -0.035574134 0.51900005
0.08530619 -0.035574134 0.51900005
0.086656265 -0.035574134 0.51900005
0.08800634 -0.035574134 0.51900005
0.089356415 -0.035574134 0.51900005
0.090881258 -0.035642676 0.52000004
0.092233941 -0.035642676 0.52000004
0.093586616 -0.035642676 0.52000004
0.094756722 -0.035574134 0.51900005
0.096106797 -0.035574134 0.51900005
0.097456865 -0.035574134 0.51900005
0.098806947 -0.035574134 0.51900005
0.10015702 -0.035574134 0.51900005
0.1015071 -0.035574134 0.51900005
0.10285717 -0.035574134 0.51900005
0.10420725 -0.035574134 0.51900005
0.10555732 -0.035574134 0.51900005
0.1069074 -0.035574134 0.51900005
0.10825748 -0.035574134 0.51900005
0.10960755 -0.035574134 0.51900005
0.11095763 -0.035574134 0.51900005
0.1123077 -0.035574134 0.51900005
0.11387677 -0.035642676 0.52000004
0.11522945 -0.035642676 0.52000004
0.11658213 -0.035642676 0.52000004
0.11793481 -0.035642676 0.52000004
0.11928748 -0.035642676 0.52000004
0.12064016 -0.035642676 0.52000004
0.12199283 -0.035642676 0.52000004
0.12334551 -0.035642676 0.52000004
0.12493799 -0.035711221 0.52100003
0.12629327 -0.035711221 0.52100003
0.12764855 -0.035711221 0.52100003
0.12900382 -0.035711221 0.52100003
0.1303591 -0.035711221 0.52100003
0.13171437 -0.035711221 0.52100003
0.13306966 -0.035711221 0.52100003
0.13442494 -0.035711221 0.52100003
0.13604082 -0.035779763 0.52200001
0.1373987 -0.035779763 0.52200001
0.13875659 -0.035779763 0.52200001
0.14011447 -0.035779763 0.52200001
0.14147235 -0.035779763 0.52200001
0.14283022 -0.035779763 0.52200001
0.14418811 -0.035779763 0.52200001
0.14582482 -0.035848305 0.523
0.1471853 -0.035848305 0.523
0.14854577 -0.035848305 0.523
0.14990625 -0.035848305 0.523
0.15126672 -0.035848305 0.523
0.15262721 -0.035848305 0.523
0.15369327 -0.035779763 0.52200001
0.15505114 -0.035779763 0.52200001
0.15640903 -0.035779763 0.52200001
0.15776689 -0.035779763 0.52200001
0.15912479 -0.035779763 0.52200001
0.16048266 -0.035779763 0.52200001
0.16153051 -0.035711221 0.52100003
0.16319841 -0.035779763 0.52200001
0.16455631 -0.035779763 0.52200001
0.16591419 -0.035779763 0.52200001
0.16727206 -0.035779763 0.52200001
0.16862994 -0.035779763 0.52200001
0.16998781 -0.035779763 0.52200001
0.17134571 -0.035779763 0.52200001
0.17270358 -0.035779763 0.52200001
0.17439491 -0.035848305 0.523
0.17575538 -0.035848305 0.523
0.17711586 -0.035848305 0.523
0.17847635 -0.035848305 0.523
0.17983684 -0.035848305 0.523
0.18119732 -0.035848305 0.523
0.18255779 -0.035848305 0.523
0.18356661 -0.035779763 0.52200001
0.1849245 -0.035779763 0.52200001
0.18628238 -0.035779763 0.52200001
0.18764025 -0.035779763 0.52200001
0.18899813 -0.035779763 0.52200001
0.19035602 -0.035779763 0.52200001
0.1917139 -0.035779763 0.52200001
0.19307178 -0.035779763 0.52200001
0.19442965 -0.035779763 0.52200001
0.19578753 -0.035779763 0.52200001
0.19714542 -0.035779763 0.52200001
0.1985033 -0.035779763 0.52200001
0.19986117 -0.035779763 0.52200001
0.20121905 -0.035779763 0.52200001
0.20257692 -0.035779763 0.52200001
0.20393482 -0.035779763 0.52200001
0.20568597 -0.035848305 0.523
0.20704645 -0.035848305 0.523
0.20840693 -0.035848305 0.523
0.2097674 -0.035848305 0.523
0.21112789 -0.035848305 0.523
0.21248837 -0.035848305 0.523
0.21384886 -0.035848305 0.523
0.21520934 -0.035848305 0.523
0.21656981 -0.035848305 0.523
0.2179303 -0.035848305 0.523
0.21929078 -0.035848305 0.523
0.22065125 -0.035848305 0.523
0.22201173 -0.035848305 0.523
0.22337222 -0.035848305 0.523
0.2247327 -0.035848305 0.523
0.22609319 -0.035848305 0.523
0.22745366 -0.035848305 0.523
0.22881414 -0.035848305 0.523
0.23017463 -0.035848305 0.523
0.23153511 -0.035848305 0.523
0.23289558 -0.035848305 0.523
0.23425606 -0.035848305 0.523
0.23561653 -0.035848305 0.523
0.23697704 -0.035848305 0.523
0.23833752 -0.035848305 0.523
0.23969799 -0.035848305 0.523
0.24105847 -0.035848305 0.523
0.24241894 -0.035848305 0.523
0.24377944 -0.035848305 0.523
0.24513991 -0.035848305 0.523
0.24650039 -0.035848305 0.523
0.24786088 -0.035848305 0.523
0.24922137 -0.035848305 0.523
0.25058183 -0.035848305 0.523
0.25194231 -0.035848305 0.523
-0.28233242 -0.03363058 0.51000005
-0.28100574 -0.03363058 0.51000005
-0.27967909 -0.03363058 0.51000005
-0.27835241 -0.03363058 0.51000005
-0.27648252 -0.033564635 0.509
-0.27515849 -0.033564635 0.509
-0.27437243 -0.03363058 0.51000005
-0.27304578 -0.03363058 0.51000005
-0.2717191 -0.03363058 0.51000005
-0.27039242 -0.03363058 0.51000005
-0.26906577 -0.03363058 0.51000005
-0.26773909 -0.03363058 0.51000005
-0.26641247 -0.03363058 0.51000005
-0.26456597 -0.033564635 0.509
-0.26324192 -0.033564635 0.509
-0.26191786 -0.033564635 0.509
-0.26008183 -0.033498693 0.50800002
-0.25876036 -0.033498693 0.50800002
-0.2574389 -0.033498693 0.50800002
-0.25561327 -0.033432752 0.50700003
-0.25429443 -0.033432752 0.50700003
-0.25297555 -0.033432752 0.50700003
-0.25165671 -0.033432752 0.50700003
-0.25033784 -0.033432752 0.50700003
-0.24901898 -0.033432752 0.50700003
-0.24770011 -0.033432752 0.50700003
-0.24638125 -0.033432752 0.50700003
-0.2450624 -0.033432752 0.50700003
-0.2442243 -0.033498693 0.50800002
-0.24290283 -0.033498693 0.50800002
-0.24158137 -0.033498693 0.50800002
-0.2402599 -0.033498693 0.50800002
-0.23940879 -0.033564635 0.509
-0.23808473 -0.033564635 0.509
-0.23676065 -0.033564635 0.509
-0.23543659 -0.033564635 0.509
-0.23411253 -0.033564635 0.509
-0.23278847 -0.033564635 0.509
-0.23146442 -0.033564635 0.509
-0.23014034 -0.033564635 0.509
-0.22881629 -0.033564635 0.509
-0.22704528 -0.033498693 0.50800002
-0.22616816 -0.033564635 0.509
-0.2248441 -0.033564635 0.509
-0.22352003 -0.033564635 0.509
-0.22219597 -0.033564635 0.509
-0.22087191 -0.033564635 0.509
-0.2199792 -0.03363058 0.51000005
-0.21865255 -0.03363058 0.51000005
-0.21732587 -0.03363058 0.51000005
-0.2159992 -0.03363058 0.51000005
-0.21467254 -0.03363058 0.51000005
-0.21334589 -0.03363058 0.51000005
-0.21201922 -0.03363058 0.51000005
-0.21069254 -0.03363058 0.51000005
-0.20895535 -0.033564635 0.509
-0.20763129 -0.033564635 0.509
-0.20630722 -0.033564635 0.509
-0.20498314 -0.033564635 0.509
-0.20365909 -0.033564635 0.509
-0.20233503 -0.033564635 0.509
-0.20101097 -0.033564635 0.509
-0.20007925 -0.03363058 0.51000005
-0.19875257 -0.03363058 0.51000005
-0.1974259 -0.03363058 0.51000005
-0.19609924 -0.03363058 0.51000005
-0.19477259 -0.03363058 0.51000005
-0.19344592 -0.03363058 0.51000005
-0.19249594 -0.033696521 0.51100004
-0.19116668 -0.033696521 0.51100004
-0.18983743 -0.033696521 0.51100004
-0.18850815 -0.033696521 0.51100004
-0.18717889 -0.033696521 0.51100004
-0.18584962 -0.033696521 0.51100004
-0.18452035 -0.033696521 0.51100004
-0.18319109 -0.033696521 0.51100004
-0.18221772 -0.033762462 0.51200002
-0.18088584 -0.033762462 0.51200002
-0.17920329 -0.033696521 0.51100004
-0.17787403 -0.033696521 0.51100004
-0.17654477 -0.033696521 0.51100004
-0.17555839 -0.033762462 0.51200002
-0.17422651 -0.033762462 0.51200002
-0.17289464 -0.033762462 0.51200002
-0.17156278 -0.033762462 0.51200002
-0.17023093 -0.033762462 0.51200002
-0.16922893 -0.033828408 0.51300001
-0.16789445 -0.033828408 0.51300001
-0.16655999 -0.033828408 0.51300001
-0.16554759 -0.033894349 0.514
-0.16421053 -0.033894349 0.514
-0.16287346 -0.033894349 0.514
-0.16153638 -0.033894349 0.514
-0.16019931 -0.033894349 0.514
-0.15886225 -0.033894349 0.514
-0.15752518 -0.033894349 0.514
-0.1561881 -0.033894349 0.514
-0.15485103 -0.033894349 0.514
-0.15351397 -0.033894349 0.514
-0.15188085 -0.033828408 0.51300001
-0.15054639 -0.033828408 0.51300001
-0.1492119 -0.033828408 0.51300001
-0.14787744 -0.033828408 0.51300001
-0.14625731 -0.033762462 0.51200002
-0.14492545 -0.033762462 0.51200002
-0.14359359 -0.033762462 0.51200002
-0.14226171 -0.033762462 0.51200002
-0.14092985 -0.033762462 0.51200002
-0.13987063 -0.033828408 0.51300001
-0.13853617 -0.033828408 0.51300001
-0.1372017 -0.033828408 0.51300001
-0.13586722 -0.033828408 0.51300001
-0.134795 -0.033894349 0.514
-0.13345793 -0.033894349 0.514
-0.13212086 -0.033894349 0.514
-0.13078378 -0.033894349 0.514
-0.12944672 -0.033894349 0.514
-0.12810966 -0.033894349 0.514
-0.1267726 -0.033894349 0.514
-0.12543552 -0.033894349 0.514
-0.12409845 -0.033894349 0.514
-0.12276138 -0.033894349 0.514
-0.12142431 -0.033894349 0.514
-0.12008724 -0.033894349 0.514
-0.11851914 -0.033828408 0.51300001
-0.11718468 -0.033828408 0.51300001
-0.1158502 -0.033828408 0.51300001
-0.11451574 -0.033828408 0.51300001
-0.11296065 -0.033762462 0.51200002
-0.11162878 -0.033762462 0.51200002
-0.11029692 -0.033762462 0.51200002
-0.10896505 -0.033762462 0.51200002
-0.10763318 -0.033762462 0.51200002
-0.10630132 -0.033762462 0.51200002
-0.10496945 -0.033762462 0.51200002
-0.10363758 -0.033762462 0.51200002
-0.10230572 -0.033762462 0.51200002
-0.10117106 -0.033828408 0.51300001
-0.099836588 -0.033828408 0.51300001
-0.098694138 -0.033894349 0.514
-0.097357064 -0.033894349 0.514
-0.096019998 -0.033894349 0.514
-0.094867148 -0.033960294 0.51500005
-0.093527474 -0.033960294 0.51500005
-0.092187807 -0.033960294 0.51500005
-0.091024533 -0.034026235 0.51600003
-0.089682259 -0.034026235 0.51600003
-0.088339992 -0.034026235 0.51600003
-0.086997718 -0.034026235 0.51600003
-0.085655451 -0.034026235 0.51600003
-0.084313169 -0.034026235 0.51600003
-0.082970902 -0.034026235 0.51600003
-0.081628628 -0.034026235 0.51600003
-0.080286361 -0.034026235 0.51600003
-0.078944087 -0.034026235 0.51600003
-0.077601813 -0.034026235 0.51600003
-0.076259546 -0.034026235 0.51600003
-0.074917272 -0.034026235 0.51600003
-0.073574997 -0.034026235 0.51600003
-0.072232723 -0.034026235 0.51600003
-0.070890456 -0.034026235 0.51600003
-0.06954819 -0.034026235 0.51600003
-0.068205908 -0.034026235 0.51600003
-0.066863641 -0.034026235 0.51600003
-0.065394387 -0.033960294 0.51500005
-0.064179093 -0.034026235 0.51600003
-0.062715046 -0.033960294 0.51500005
-0.061375376 -0.033960294 0.51500005
-0.060035706 -0.033960294 0.51500005
-0.058696039 -0.033960294 0.51500005
-0.057356369 -0.033960294 0.51500005
-0.05590792 -0.033894349 0.514
-0.05457085 -0.033894349 0.514
-0.053337354 -0.033960294 0.51500005
-0.05189671 -0.033894349 0.514
-0.050658014 -0.033960294 0.51500005
-0.049222574 -0.033894349 0.514
-0.047885504 -0.033894349 0.514
-0.046548437 -0.033894349 0.514
-0.045211367 -0.033894349 0.514
-0.043874297 -0.033894349 0.514
-0.042537227 -0.033894349 0.514
-0.041200161 -0.033894349 0.514
-0.039863091 -0.033894349 0.514
-0.038526021 -0.033894349 0.514
-0.037116598 -0.033828408 0.51300001
-0.035782132 -0.033828408 0.51300001
-0.034447663 -0.033828408 0.51300001
-0.033113196 -0.033828408 0.51300001
-0.031716783 -0.033762462 0.51200002
-0.030384915 -0.033762462 0.51200002
-0.029053049 -0.033762462 0.51200002
-0.027721182 -0.033762462 0.51200002
-0.01456631 -0.028816789 0.43700001
-0.01339881 -0.028750848 0.43600002
-0.012264642 -0.028750848 0.43600002
-0.011130475 -0.028750848 0.43600002
-0.0099963071 -0.028750848 0.43600002
-0.0088418126 -0.028684907 0.43500003
-0.0077102468 -0.028684907 0.43500003
-0.0065635564 -0.028618963 0.43400002
-0.0054220692 -0.028553022 0.43300003
-0.0042857849 -0.028487079 0.43200001
-0.003154703 -0.028421137 0.43100002
-0.0020288234 -0.028355194 0.43000001
-0.00091026357 -0.028355194 0.43000001
0.00020781187 -0.028289253 0.42900002
0.0013206848 -0.028223312 0.42800003
0.002434042 -0.028223312 0.42800003
0.0035391108 -0.028157366 0.42700002
0.0046498668 -0.028157366 0.42700002
0.0057606231 -0.028157366 0.42700002
0.006871379 -0.028157366 0.42700002
0.0079821348 -0.028157366 0.42700002
0.009071596 -0.028091425 0.42600003
0.010179752 -0.028091425 0.42600003
0.011287905 -0.028091425 0.42600003
0.012396061 -0.028091425 0.42600003
0.013472515 -0.028025482 0.42500001
0.014578069 -0.028025482 0.42500001
0.015646718 -0.02795954 0.42400002
0.016749671 -0.02795954 0.42400002
0.017852623 -0.02795954 0.42400002
0.018955575 -0.02795954 0.42400002
0.020058528 -0.02795954 0.42400002
0.02116148 -0.02795954 0.42400002
0.02226443 -0.02795954 0.42400002
0.023367384 -0.02795954 0.42400002
0.024470337 -0.02795954 0.42400002
0.025573287 -0.02795954 0.42400002
0.026676241 -0.02795954 0.42400002
0.027779192 -0.02795954 0.42400002
0.028882144 -0.02795954 0.42400002
0.030055815 -0.028025482 0.42500001
0.031161368 -0.028025482 0.42500001
0.032266922 -0.028025482 0.42500001
0.033372477 -0.028025482 0.42500001
0.034559153 -0.028091425 0.42600003
0.035667308 -0.028091425 0.42600003
0.036775462 -0.028091425 0.42600003
0.037883621 -0.028091425 0.42600003
0.048854142 -0.034224063 0.51900005
0.050204214 -0.034224063 0.51900005
0.051554289 -0.034224063 0.51900005
0.052904367 -0.034224063 0.51900005
0.054254442 -0.034224063 0.51900005
0.055604521 -0.034224063 0.51900005
0.056954596 -0.034224063 0.51900005
0.058304671 -0.034224063 0.51900005
0.059654746 -0.034224063 0.51900005
0.061004821 -0.034224063 0.51900005
0.0623549 -0.034224063 0.51900005
0.063704975 -0.034224063 0.51900005
0.064929694 -0.034158118 0.51800001
0.066277176 -0.034158118 0.51800001
0.067624643 -0.034158118 0.51800001
0.068972126 -0.034158118 0.51800001
0.070319593 -0.034158118 0.51800001
0.071667068 -0.034158118 0.51800001
0.073014542 -0.034158118 0.51800001
0.074362017 -0.034158118 0.51800001
0.075709492 -0.034158118 0.51800001
0.077205732 -0.034224063 0.51900005
0.078555815 -0.034224063 0.51900005
0.079905882 -0.034224063 0.51900005
0.081255957 -0.034224063 0.51900005
0.08260604 -0.034224063 0.51900005
0.083956107 -0.034224063 0.51900005
0.08530619 -0.034224063 0.51900005
0.086823232 -0.034290005 0.52000004
0.088175908 -0.034290005 0.52000004
0.089528583 -0.034290005 0.52000004
0.090881258 -0.034290005 0.52000004
0.092233941 -0.034290005 0.52000004
0.093586616 -0.034290005 0.52000004
0.094939299 -0.034290005 0.52000004
0.096291967 -0.034290005 0.52000004
0.097644642 -0.034290005 0.52000004
0.098806947 -0.034224063 0.51900005
0.10015702 -0.034224063 0.51900005
0.1015071 -0.034224063 0.51900005
0.10285717 -0.034224063 0.51900005
0.10420725 -0.034224063 0.51900005
0.10555732 -0.034224063 0.51900005
0.1069074 -0.034224063 0.51900005
0.10825748 -0.034224063 0.51900005
0.10960755 -0.034224063 0.51900005
0.11095763 -0.034224063 0.51900005
0.1123077 -0.034224063 0.51900005
0.11365778 -0.034224063 0.51900005
0.11522945 -0.034290005 0.52000004
0.11658213 -0.034290005 0.52000004
0.11793481 -0.034290005 0.52000004
0.11928748 -0.034290005 0.52000004
0.12064016 -0.034290005 0.52000004
0.12199283 -0.034290005 0.52000004
0.12334551 -0.034290005 0.52000004
0.12469819 -0.034290005 0.52000004
0.12605086 -0.034290005 0.52000004
0.12740354 -0.034290005 0.52000004
0.12900382 -0.034355946 0.52100003
0.1303591 -0.034355946 0.52100003
0.13171437 -0.034355946 0.52100003
0.13306966 -0.034355946 0.52100003
0.13442494 -0.034355946 0.52100003
0.13604082 -0.034421887 0.52200001
0.1373987 -0.034421887 0.52200001
0.13875659 -0.034421887 0.52200001
0.14011447 -0.034421887 0.52200001
0.14147235 -0.034421887 0.52200001
0.14310384 -0.034487829 0.523
0.14446431 -0.034487829 0.523
0.14582482 -0.034487829 0.523
0.1471853 -0.034487829 0.523
0.14854577 -0.034487829 0.523
0.14990625 -0.034487829 0.523
0.15126672 -0.034487829 0.523
0.15262721 -0.034487829 0.523
0.15369327 -0.034421887 0.52200001
0.15505114 -0.034421887 0.52200001
0.15640903 -0.034421887 0.52200001
0.15776689 -0.034421887 0.52200001
0.15881996 -0.034355946 0.52100003
0.16017523 -0.034355946 0.52100003
0.16153051 -0.034355946 0.52100003
0.16288579 -0.034355946 0.52100003
0.16424108 -0.034355946 0.52100003
0.16591419 -0.034421887 0.52200001
0.16727206 -0.034421887 0.52200001
0.16862994 -0.034421887 0.52200001
0.16998781 -0.034421887 0.52200001
0.17134571 -0.034421887 0.52200001
0.17270358 -0.034421887 0.52200001
0.17439491 -0.034487829 0.523
0.17575538 -0.034487829 0.523
0.17711586 -0.034487829 0.523
0.1781351 -0.034421887 0.52200001
0.17949298 -0.034421887 0.52200001
0.18119732 -0.034487829 0.523
0.18220873 -0.034421887 0.52200001
0.18356661 -0.034421887 0.52200001
0.1849245 -0.034421887 0.52200001
0.18628238 -0.034421887 0.52200001
0.18764025 -0.034421887 0.52200001
0.18899813 -0.034421887 0.52200001
0.19035602 -0.034421887 0.52200001
0.1917139 -0.034421887 0.52200001
0.19307178 -0.034421887 0.52200001
0.19405718 -0.034355946 0.52100003
0.19578753 -0.034421887 0.52200001
0.19714542 -0.034421887 0.52200001
0.1985033 -0.034421887 0.52200001
0.19986117 -0.034421887 0.52200001
0.20121905 -0.034421887 0.52200001
0.20257692 -0.034421887 0.52200001
0.20393482 -0.034421887 0.52200001
0.2052927 -0.034421887 0.52200001
0.20704645 -0.034487829 0.523
0.20840693 -0.034487829 0.523
0.2097674 -0.034487829 0.523
0.21112789 -0.034487829 0.523
0.21248837 -0.034487829 0.523
0.21384886 -0.034487829 0.523
0.21520934 -0.034487829 0.523
0.21656981 -0.034487829 0.523
0.2179303 -0.034487829 0.523
0.21929078 -0.034487829 0.523
0.22022937 -0.034421887 0.52200001
0.22158724 -0.034421887 0.52200001
0.22337222 -0.034487829 0.523
0.22430301 -0.034421887 0.52200001
0.22609319 -0.034487829 0.523
0.22745366 -0.034487829 0.523
0.22881414 -0.034487829 0.523
0.23017463 -0.034487829 0.523
0.23153511 -0.034487829 0.523
0.23289558 -0.034487829 0.523
0.23425606 -0.034487829 0.523
0.23561653 -0.034487829 0.523
0.23697704 -0.034487829 0.523
0.23833752 -0.034487829 0.523
0.23969799 -0.034487829 0.523
0.24105847 -0.034487829 0.523
0.24241894 -0.034487829 0.523
0.24377944 -0.034487829 0.523
0.24513991 -0.034487829 0.523
0.24650039 -0.034487829 0.523
0.24786088 -0.034487829 0.523
0.24922137 -0.034487829 0.523
0.25058183 -0.034487829 0.523
0.25194231 -0.034487829 0.523
0.25330278 -0.034487829 0.523
-0.28233242 -0.032303918 0.51000005
-0.28100574 -0.032303918 0.51000005
-0.27967909 -0.032303918 0.51000005
-0.27780661 -0.032240573 0.509
-0.27648252 -0.032240573 0.509
-0.27515849 -0.032240573 0.509
-0.27383441 -0.032240573 0.509
-0.27304578 -0.032303918 0.51000005
-0.2717191 -0.032303918 0.51000005
-0.27039242 -0.032303918 0.51000005
-0.26906577 -0.032303918 0.51000005
-0.26773909 -0.032303918 0.51000005
-0.26641247 -0.032303918 0.51000005
-0.26508579 -0.032303918 0.51000005
-0.26324192 -0.032240573 0.509
-0.26191786 -0.032240573 0.509
-0.26059377 -0.032240573 0.509
-0.25876036 -0.032177232 0.50800002
-0.2574389 -0.032177232 0.50800002
-0.25611743 -0.032177232 0.50800002
-0.25429443 -0.032113891 0.50700003
-0.25297555 -0.032113891 0.50700003
-0.25165671 -0.032113891 0.50700003
-0.25033784 -0.032113891 0.50700003
-0.24901898 -0.032113891 0.50700003
-0.24770011 -0.032113891 0.50700003
-0.24638125 -0.032113891 0.50700003
-0.24554574 -0.032177232 0.50800002
-0.2442243 -0.032177232 0.50800002
-0.24290283 -0.032177232 0.50800002
-0.24158137 -0.032177232 0.50800002
-0.24073285 -0.032240573 0.509
-0.23940879 -0.032240573 0.509
-0.23808473 -0.032240573 0.509
-0.23676065 -0.032240573 0.509
-0.23543659 -0.032240573 0.509
-0.23411253 -0.032240573 0.509
-0.23278847 -0.032240573 0.509
-0.23100968 -0.032177232 0.50800002
-0.2296882 -0.032177232 0.50800002
-0.22836675 -0.032177232 0.50800002
-0.22704528 -0.032177232 0.50800002
-0.22572383 -0.032177232 0.50800002
-0.2248441 -0.032240573 0.509
-0.22352003 -0.032240573 0.509
-0.22219597 -0.032240573 0.509
-0.22087191 -0.032240573 0.509
-0.21954785 -0.032240573 0.509
-0.2182238 -0.032240573 0.509
-0.21732587 -0.032303918 0.51000005
-0.2159992 -0.032303918 0.51000005
-0.21467254 -0.032303918 0.51000005
-0.21292754 -0.032240573 0.509
-0.21160348 -0.032240573 0.509
-0.21027941 -0.032240573 0.509
-0.20895535 -0.032240573 0.509
-0.20763129 -0.032240573 0.509
-0.20630722 -0.032240573 0.509
-0.20458044 -0.032177232 0.50800002
-0.20325898 -0.032177232 0.50800002
-0.20233503 -0.032240573 0.509
-0.20101097 -0.032240573 0.509
-0.19968691 -0.032240573 0.509
-0.19836284 -0.032240573 0.509
-0.1974259 -0.032303918 0.51000005
-0.19609924 -0.032303918 0.51000005
-0.19477259 -0.032303918 0.51000005
-0.19344592 -0.032303918 0.51000005
-0.19249594 -0.032367256 0.51100004
-0.19116668 -0.032367256 0.51100004
-0.18983743 -0.032367256 0.51100004
-0.18850815 -0.032367256 0.51100004
-0.1875452 -0.032430597 0.51200002
-0.18621331 -0.032430597 0.51200002
-0.18488145 -0.032430597 0.51200002
-0.18354958 -0.032430597 0.51200002
-0.18221772 -0.032430597 0.51200002
-0.18088584 -0.032430597 0.51200002
-0.17955399 -0.032430597 0.51200002
-0.17822212 -0.032430597 0.51200002
-0.17689025 -0.032430597 0.51200002
-0.17555839 -0.032430597 0.51200002
-0.17422651 -0.032430597 0.51200002
-0.17289464 -0.032430597 0.51200002
-0.17156278 -0.032430597 0.51200002
-0.1705634 -0.032493938 0.51300001
-0.16922893 -0.032493938 0.51300001
-0.16789445 -0.032493938 0.51300001
-0.16688466 -0.032557279 0.514
-0.16554759 -0.032557279 0.514
-0.16421053 -0.032557279 0.514
-0.16287346 -0.032557279 0.514
-0.16153638 -0.032557279 0.514
-0.16019931 -0.032557279 0.514
-0.15886225 -0.032557279 0.514
-0.15752518 -0.032557279 0.514
-0.1561881 -0.032557279 0.514
-0.15485103 -0.032557279 0.514
-0.15351397 -0.032557279 0.514
-0.1521769 -0.032557279 0.514
-0.15083984 -0.032557279 0.514
-0.1492119 -0.032493938 0.51300001
-0.14787744 -0.032493938 0.51300001
-0.14625731 -0.032430597 0.51200002
-0.14492545 -0.032430597 0.51200002
-0.14359359 -0.032430597 0.51200002
-0.14226171 -0.032430597 0.51200002
-0.14092985 -0.032430597 0.51200002
-0.13987063 -0.032493938 0.51300001
-0.13853617 -0.032493938 0.51300001
-0.1372017 -0.032493938 0.51300001
-0.13613206 -0.032557279 0.514
-0.134795 -0.032557279 0.514
-0.13345793 -0.032557279 0.514
-0.13237792 -0.03262062 0.51500005
-0.13103825 -0.03262062 0.51500005
-0.12969857 -0.03262062 0.51500005
-0.12835892 -0.03262062 0.51500005
-0.12701924 -0.03262062 0.51500005
-0.12567957 -0.03262062 0.51500005
-0.1243399 -0.03262062 0.51500005
-0.12300023 -0.03262062 0.51500005
-0.12142431 -0.032557279 0.514
-0.12008724 -0.032557279 0.514
-0.11851914 -0.032493938 0.51300001
-0.11718468 -0.032493938 0.51300001
-0.1158502 -0.032493938 0.51300001
-0.11451574 -0.032493938 0.51300001
-0.11296065 -0.032430597 0.51200002
-0.11162878 -0.032430597 0.51200002
-0.11029692 -0.032430597 0.51200002
-0.10896505 -0.032430597 0.51200002
-0.10763318 -0.032430597 0.51200002
-0.10630132 -0.032430597 0.51200002
-0.10496945 -0.032430597 0.51200002
-0.10384 -0.032493938 0.51300001
-0.10250553 -0.032493938 0.51300001
-0.10117106 -0.032493938 0.51300001
-0.099836588 -0.032493938 0.51300001
-0.098502129 -0.032493938 0.51300001
-0.097167656 -0.032493938 0.51300001
-0.096019998 -0.032557279 0.514
-0.094867148 -0.03262062 0.51500005
-0.093527474 -0.03262062 0.51500005
-0.092187807 -0.03262062 0.51500005
-0.091024533 -0.032683961 0.51600003
-0.089682259 -0.032683961 0.51600003
-0.088339992 -0.032683961 0.51600003
-0.086997718 -0.032683961 0.51600003
-0.085655451 -0.032683961 0.51600003
-0.084313169 -0.032683961 0.51600003
-0.082970902 -0.032683961 0.51600003
-0.081628628 -0.032683961 0.51600003
-0.080286361 -0.032683961 0.51600003
-0.078944087 -0.032683961 0.51600003
-0.077601813 -0.032683961 0.51600003
-0.076259546 -0.032683961 0.51600003
-0.074917272 -0.032683961 0.51600003
-0.073574997 -0.032683961 0.51600003
-0.072372705 -0.032747302 0.51700002
-0.071027838 -0.032747302 0.51700002
-0.06954819 -0.032683961 0.51600003
-0.068205908 -0.032683961 0.51600003
-0.066863641 -0.032683961 0.51600003
-0.065521367 -0.032683961 0.51600003
-0.064179093 -0.032683961 0.51600003
-0.062836826 -0.032683961 0.51600003
-0.061375376 -0.03262062 0.51500005
-0.060035706 -0.03262062 0.51500005
-0.058696039 -0.03262062 0.51500005
-0.057356369 -0.03262062 0.51500005
-0.05590792 -0.032557279 0.514
-0.05457085 -0.032557279 0.514
-0.053337354 -0.03262062 0.51500005
-0.05189671 -0.032557279 0.514
-0.050559644 -0.032557279 0.514
-0.049222574 -0.032557279 0.514
-0.047885504 -0.032557279 0.514
-0.046548437 -0.032557279 0.514
-0.045211367 -0.032557279 0.514
-0.043874297 -0.032557279 0.514
-0.042537227 -0.032557279 0.514
-0.041200161 -0.032557279 0.514
-0.039863091 -0.032557279 0.514
-0.038451068 -0.032493938 0.51300001
-0.037116598 -0.032493938 0.51300001
-0.035782132 -0.032493938 0.51300001
-0.034447663 -0.032493938 0.51300001
-0.033113196 -0.032493938 0.51300001
-0.031716783 -0.032430597 0.51200002
-0.030384915 -0.032430597 0.51200002
-0.029053049 -0.032430597 0.51200002
-0.027721182 -0.032430597 0.51200002
-0.026389316 -0.032430597 0.51200002
-0.01339881 -0.02761668 0.43600002
-0.012236512 -0.02755334 0.43500003
-0.011104946 -0.02755334 0.43500003
-0.0099733798 -0.02755334 0.43500003
-0.0088418126 -0.02755334 0.43500003
-0.0076925219 -0.027489997 0.43400002
-0.0065484336 -0.027426658 0.43300003
-0.0054095471 -0.027363315 0.43200001
-0.0042758645 -0.027299976 0.43100002
-0.003154703 -0.027299976 0.43100002
-0.0020288234 -0.027236633 0.43000001
-0.00091026357 -0.027236633 0.43000001
0.00020781187 -0.027173294 0.42900002
0.0013237705 -0.027173294 0.42900002
0.002434042 -0.027109953 0.42800003
0.0035473993 -0.027109953 0.42800003
0.0046607568 -0.027109953 0.42800003
0.0057741143 -0.027109953 0.42800003
0.006871379 -0.027046612 0.42700002
0.0079821348 -0.027046612 0.42700002
0.0090928907 -0.027046612 0.42700002
0.010179752 -0.02698327 0.42600003
0.011287905 -0.02698327 0.42600003
0.012396061 -0.02698327 0.42600003
0.013472515 -0.026919929 0.42500001
0.014578069 -0.026919929 0.42500001
0.015646718 -0.026856588 0.42400002
0.016749671 -0.026856588 0.42400002
0.017852623 -0.026856588 0.42400002
0.018955575 -0.026856588 0.42400002
0.020058528 -0.026856588 0.42400002
0.02116148 -0.026856588 0.42400002
0.02226443 -0.026856588 0.42400002
0.023367384 -0.026856588 0.42400002
0.024470337 -0.026856588 0.42400002
0.025573287 -0.026856588 0.42400002
0.026676241 -0.026856588 0.42400002
0.027779192 -0.026856588 0.42400002
0.028882144 -0.026856588 0.42400002
0.030055815 -0.026919929 0.42500001
0.031161368 -0.026919929 0.42500001
0.032266922 -0.026919929 0.42500001
0.033372477 -0.026919929 0.42500001
0.034559153 -0.02698327 0.42600003
0.035667308 -0.02698327 0.42600003
0.036775462 -0.02698327 0.42600003
0.037883621 -0.02698327 0.42600003
0.048854142 -0.032873984 0.51900005
0.050204214 -0.032873984 0.51900005
0.051554289 -0.032873984 0.51900005
0.052904367 -0.032873984 0.51900005
0.054254442 -0.032873984 0.51900005
0.055604521 -0.032873984 0.51900005
0.056954596 -0.032873984 0.51900005
0.058304671 -0.032873984 0.51900005
0.059654746 -0.032873984 0.51900005
0.061004821 -0.032873984 0.51900005
0.0623549 -0.032873984 0.51900005
0.063704975 -0.032873984 0.51900005
0.06505505 -0.032873984 0.51900005
0.066277176 -0.032810643 0.51800001
0.067624643 -0.032810643 0.51800001
0.068972126 -0.032810643 0.51800001
0.070319593 -0.032810643 0.51800001
0.071667068 -0.032810643 0.51800001
0.073014542 -0.032810643 0.51800001
0.074362017 -0.032810643 0.51800001
0.075855657 -0.032873984 0.51900005
0.077205732 -0.032873984 0.51900005
0.078555815 -0.032873984 0.51900005
0.079905882 -0.032873984 0.51900005
0.081255957 -0.032873984 0.51900005
0.08260604 -0.032873984 0.51900005
0.083956107 -0.032873984 0.51900005
0.085470557 -0.032937326 0.52000004
0.086823232 -0.032937326 0.52000004
0.088175908 -0.032937326 0.52000004
0.089528583 -0.032937326 0.52000004
0.090881258 -0.032937326 0.52000004
0.092233941 -0.032937326 0.52000004
0.093586616 -0.032937326 0.52000004
0.094939299 -0.032937326 0.52000004
0.096291967 -0.032937326 0.52000004
0.097644642 -0.032937326 0.52000004
0.098997325 -0.032937326 0.52000004
0.10015702 -0.032873984 0.51900005
0.1015071 -0.032873984 0.51900005
0.10285717 -0.032873984 0.51900005
0.10420725 -0.032873984 0.51900005
0.10555732 -0.032873984 0.51900005
0.1069074 -0.032873984 0.51900005
0.10825748 -0.032873984 0.51900005
0.10960755 -0.032873984 0.51900005
0.11095763 -0.032873984 0.51900005
0.1123077 -0.032873984 0.51900005
0.11365778 -0.032873984 0.51900005
0.11500785 -0.032873984 0.51900005
0.11658213 -0.032937326 0.52000004
0.11793481 -0.032937326 0.52000004
0.11928748 -0.032937326 0.52000004
0.12064016 -0.032937326 0.52000004
0.12199283 -0.032937326 0.52000004
0.12334551 -0.032937326 0.52000004
0.12469819 -0.032937326 0.52000004
0.12605086 -0.032937326 0.52000004
0.12740354 -0.032937326 0.52000004
0.12900382 -0.033000667 0.52100003
0.1303591 -0.033000667 0.52100003
0.13171437 -0.033000667 0.52100003
0.13306966 -0.033000667 0.52100003
0.13442494 -0.033000667 0.52100003
0.13604082 -0.033064008 0.52200001
0.1373987 -0.033064008 0.52200001
0.13875659 -0.033064008 0.52200001
0.14011447 -0.033064008 0.52200001
0.14174336 -0.033127345 0.523
0.14310384 -0.033127345 0.523
0.14446431 -0.033127345 0.523
0.14582482 -0.033127345 0.523
0.1471853 -0.033127345 0.523
0.14854577 -0.033127345 0.523
0.14990625 -0.033127345 0.523
0.15126672 -0.033127345 0.523
0.15262721 -0.033127345 0.523
0.15369327 -0.033064008 0.52200001
0.15505114 -0.033064008 0.52200001
0.15640903 -0.033064008 0.52200001
0.15776689 -0.033064008 0.52200001
0.15881996 -0.033000667 0.52100003
0.16017523 -0.033000667 0.52100003
0.16153051 -0.033000667 0.52100003
0.16288579 -0.033000667 0.52100003
0.16424108 -0.033000667 0.52100003
0.16559635 -0.033000667 0.52100003
0.16727206 -0.033064008 0.52200001
0.16862994 -0.033064008 0.52200001
0.16998781 -0.033064008 0.52200001
0.17134571 -0.033064008 0.52200001
0.17270358 -0.033064008 0.52200001
0.17439491 -0.033127345 0.523
0.17575538 -0.033127345 0.523
0.17711586 -0.033127345 0.523
0.1781351 -0.033064008 0.52200001
0.17949298 -0.033064008 0.52200001
0.18085086 -0.033064008 0.52200001
0.18220873 -0.033064008 0.52200001
0.18356661 -0.033064008 0.52200001
0.1849245 -0.033064008 0.52200001
0.18628238 -0.033064008 0.52200001
0.18764025 -0.033064008 0.52200001
0.18899813 -0.033064008 0.52200001
0.19035602 -0.033064008 0.52200001
0.19134663 -0.033000667 0.52100003
0.19270191 -0.033000667 0.52100003
0.19405718 -0.033000667 0.52100003
0.19541246 -0.033000667 0.52100003
0.19676775 -0.033000667 0.52100003
0.19812302 -0.033000667 0.52100003
0.19986117 -0.033064008 0.52200001
0.20121905 -0.033064008 0.52200001
0.20257692 -0.033064008 0.52200001
0.20393482 -0.033064008 0.52200001
0.2052927 -0.033064008 0.52200001
0.20704645 -0.033127345 0.523
0.20840693 -0.033127345 0.523
0.2097674 -0.033127345 0.523
0.21112789 -0.033127345 0.523
0.21248837 -0.033127345 0.523
0.21384886 -0.033127345 0.523
0.21520934 -0.033127345 0.523
0.21656981 -0.033127345 0.523
0.2179303 -0.033127345 0.523
0.21929078 -0.033127345 0.523
0.22065125 -0.033127345 0.523
0.22201173 -0.033127345 0.523
0.22337222 -0.033127345 0.523
0.2247327 -0.033127345 0.523
0.22609319 -0.033127345 0.523
0.22745366 -0.033127345 0.523
0.22881414 -0.033127345 0.523
0.23017463 -0.033127345 0.523
0.23153511 -0.033127345 0.523
0.23289558 -0.033127345 0.523
0.23425606 -0.033127345 0.523
0.23561653 -0.033127345 0.523
0.23697704 -0.033127345 0.523
0.23833752 -0.033127345 0.523
0.23969799 -0.033127345 0.523
0.24105847 -0.033127345 0.523
0.24241894 -0.033127345 0.523
0.24377944 -0.033127345 0.523
0.24513991 -0.033127345 0.523
0.24650039 -0.033127345 0.523
0.24786088 -0.033127345 0.523
0.24922137 -0.033127345 0.523
0.25058183 -0.033127345 0.523
0.25194231 -0.033127345 0.523
0.25330278 -0.033127345 0.523
-0.28233242 -0.030977251 0.51000005
-0.28100574 -0.030977251 0.51000005
-0.27913067 -0.03091651 0.509
-0.27780661 -0.03091651 0.509
-0.27648252 -0.03091651 0.509
-0.27515849 -0.03091651 0.509
-0.27383441 -0.03091651 0.509
-0.27251038 -0.03091651 0.509
-0.27118629 -0.03091651 0.509
-0.2698622 -0.03091651 0.509
-0.26906577 -0.030977251 0.51000005
-0.26773909 -0.030977251 0.51000005
-0.26641247 -0.030977251 0.51000005
-0.26508579 -0.030977251 0.51000005
-0.26375911 -0.030977251 0.51000005
-0.26243246 -0.030977251 0.51000005
-0.26059377 -0.03091651 0.509
-0.25926974 -0.03091651 0.509
-0.25794566 -0.03091651 0.509
-0.25611743 -0.030855771 0.50800002
-0.254796 -0.030855771 0.50800002
-0.2534745 -0.030855771 0.50800002
-0.25215307 -0.030855771 0.50800002
-0.2508316 -0.030855771 0.50800002
-0.24951014 -0.030855771 0.50800002
-0.24818866 -0.030855771 0.50800002
-0.24686721 -0.030855771 0.50800002
-0.24554574 -0.030855771 0.50800002
-0.2442243 -0.030855771 0.50800002
-0.24290283 -0.030855771 0.50800002
-0.24205691 -0.03091651 0.509
-0.24073285 -0.03091651 0.509
-0.23940879 -0.03091651 0.509
-0.23808473 -0.03091651 0.509
-0.23676065 -0.03091651 0.509
-0.23543659 -0.03091651 0.509
-0.23365259 -0.030855771 0.50800002
-0.23233114 -0.030855771 0.50800002
-0.23100968 -0.030855771 0.50800002
-0.2296882 -0.030855771 0.50800002
-0.22836675 -0.030855771 0.50800002
-0.22659835 -0.030795032 0.50700003
-0.2252795 -0.030795032 0.50700003
-0.22440237 -0.030855771 0.50800002
-0.2230809 -0.030855771 0.50800002
-0.22175944 -0.030855771 0.50800002
-0.22043797 -0.030855771 0.50800002
-0.21911652 -0.030855771 0.50800002
-0.2182238 -0.03091651 0.509
-0.21689971 -0.03091651 0.509
-0.21557565 -0.03091651 0.509
-0.21425159 -0.03091651 0.509
-0.21292754 -0.03091651 0.509
-0.21160348 -0.03091651 0.509
-0.21027941 -0.03091651 0.509
-0.20895535 -0.03091651 0.509
-0.20722337 -0.030855771 0.50800002
-0.20590191 -0.030855771 0.50800002
-0.20458044 -0.030855771 0.50800002
-0.20325898 -0.030855771 0.50800002
-0.20233503 -0.03091651 0.509
-0.20101097 -0.03091651 0.509
-0.19968691 -0.03091651 0.509
-0.19836284 -0.03091651 0.509
-0.1974259 -0.030977251 0.51000005
-0.19609924 -0.030977251 0.51000005
-0.19477259 -0.030977251 0.51000005
-0.19344592 -0.030977251 0.51000005
-0.19249594 -0.03103799 0.51100004
-0.19116668 -0.03103799 0.51100004
-0.18983743 -0.03103799 0.51100004
-0.18887706 -0.031098729 0.51200002
-0.1875452 -0.031098729 0.51200002
-0.18621331 -0.031098729 0.51200002
-0.18488145 -0.031098729 0.51200002
-0.18354958 -0.031098729 0.51200002
-0.18221772 -0.031098729 0.51200002
-0.18088584 -0.031098729 0.51200002
-0.17955399 -0.031098729 0.51200002
-0.17822212 -0.031098729 0.51200002
-0.17689025 -0.031098729 0.51200002
-0.17555839 -0.031098729 0.51200002
-0.17422651 -0.031098729 0.51200002
-0.17323233 -0.031159468 0.51300001
-0.17189786 -0.031159468 0.51300001
-0.1705634 -0.031159468 0.51300001
-0.16922893 -0.031159468 0.51300001
-0.16822173 -0.031220207 0.514
-0.16688466 -0.031220207 0.514
-0.16554759 -0.031220207 0.514
-0.16453002 -0.03128095 0.51500005
-0.16319035 -0.03128095 0.51500005
-0.16185068 -0.03128095 0.51500005
-0.160511 -0.03128095 0.51500005
-0.15917134 -0.03128095 0.51500005
-0.15783167 -0.03128095 0.51500005
-0.15649198 -0.03128095 0.51500005
-0.15485103 -0.031220207 0.514
-0.15351397 -0.031220207 0.514
-0.1521769 -0.031220207 0.514
-0.15083984 -0.031220207 0.514
-0.1492119 -0.031159468 0.51300001
-0.14787744 -0.031159468 0.51300001
-0.14654297 -0.031159468 0.51300001
-0.14520851 -0.031159468 0.51300001
-0.14387403 -0.031159468 0.51300001
-0.14253956 -0.031159468 0.51300001
-0.1412051 -0.031159468 0.51300001
-0.13987063 -0.031159468 0.51300001
-0.13880621 -0.031220207 0.514
-0.1372017 -0.031159468 0.51300001
-0.13613206 -0.031220207 0.514
-0.134795 -0.031220207 0.514
-0.1337176 -0.03128095 0.51500005
-0.13237792 -0.03128095 0.51500005
-0.13103825 -0.03128095 0.51500005
-0.12969857 -0.03128095 0.51500005
-0.12835892 -0.03128095 0.51500005
-0.12701924 -0.03128095 0.51500005
-0.12567957 -0.03128095 0.51500005
-0.1243399 -0.03128095 0.51500005
-0.12300023 -0.03128095 0.51500005
-0.12142431 -0.031220207 0.514
-0.12008724 -0.031220207 0.514
-0.11851914 -0.031159468 0.51300001
-0.11718468 -0.031159468 0.51300001
-0.1158502 -0.031159468 0.51300001
-0.11451574 -0.031159468 0.51300001
-0.11296065 -0.031098729 0.51200002
-0.11162878 -0.031098729 0.51200002
-0.11029692 -0.031098729 0.51200002
-0.10896505 -0.031098729 0.51200002
-0.10763318 -0.031098729 0.51200002
-0.10630132 -0.031098729 0.51200002
-0.10496945 -0.031098729 0.51200002
-0.10384 -0.031159468 0.51300001
-0.10250553 -0.031159468 0.51300001
-0.10117106 -0.031159468 0.51300001
-0.099836588 -0.031159468 0.51300001
-0.098502129 -0.031159468 0.51300001
-0.097357064 -0.031220207 0.514
-0.096019998 -0.031220207 0.514
-0.094867148 -0.03128095 0.51500005
-0.093527474 -0.03128095 0.51500005
-0.092187807 -0.03128095 0.51500005
-0.090848126 -0.03128095 0.51500005
-0.089508459 -0.03128095 0.51500005
-0.088339992 -0.031341691 0.51600003
-0.086997718 -0.031341691 0.51600003
-0.085655451 -0.031341691 0.51600003
-0.084313169 -0.031341691 0.51600003
-0.082970902 -0.031341691 0.51600003
-0.081628628 -0.031341691 0.51600003
-0.080286361 -0.031341691 0.51600003
-0.078944087 -0.031341691 0.51600003
-0.077752203 -0.031402428 0.51700002
-0.076407336 -0.031402428 0.51700002
-0.075062454 -0.031402428 0.51700002
-0.073574997 -0.031341691 0.51600003
-0.072372705 -0.031402428 0.51700002
-0.071027838 -0.031402428 0.51700002
-0.06954819 -0.031341691 0.51600003
-0.068205908 -0.031341691 0.51600003
-0.066863641 -0.031341691 0.51600003
-0.065521367 -0.031341691 0.51600003
-0.064179093 -0.031341691 0.51600003
-0.062836826 -0.031341691 0.51600003
-0.061375376 -0.03128095 0.51500005
-0.060035706 -0.03128095 0.51500005
-0.058696039 -0.03128095 0.51500005
-0.057356369 -0.03128095 0.51500005
-0.056016695 -0.03128095 0.51500005
-0.054677024 -0.03128095 0.51500005
-0.05323378 -0.031220207 0.514
-0.05189671 -0.031220207 0.514
-0.050559644 -0.031220207 0.514
-0.049222574 -0.031220207 0.514
-0.047885504 -0.031220207 0.514
-0.046548437 -0.031220207 0.514
-0.045211367 -0.031220207 0.514
-0.043874297 -0.031220207 0.514
-0.04245447 -0.031159468 0.51300001
-0.041120004 -0.031159468 0.51300001
-0.039785538 -0.031159468 0.51300001
-0.038451068 -0.031159468 0.51300001
-0.037116598 -0.031159468 0.51300001
-0.035782132 -0.031159468 0.51300001
-0.034447663 -0.031159468 0.51300001
-0.033048652 -0.031098729 0.51200002
-0.031716783 -0.031098729 0.51200002
-0.030384915 -0.031098729 0.51200002
-0.029053049 -0.031098729 0.51200002
-0.027667038 -0.03103799 0.51100004
-0.026389316 -0.031098729 0.51200002
-0.01339881 -0.026482511 0.43600002
-0.012236512 -0.026421772 0.43500003
-0.011104946 -0.026421772 0.43500003
-0.0099733798 -0.026421772 0.43500003
-0.0088418126 -0.026421772 0.43500003
-0.0076925219 -0.026361031 0.43400002
-0.0065484336 -0.026300292 0.43300003
-0.0054095471 -0.026239553 0.43200001
-0.0042758645 -0.026178814 0.43100002
-0.003154703 -0.026178814 0.43100002
-0.0020288234 -0.026118074 0.43000001
-0.00091026357 -0.026118074 0.43000001
0.00020781187 -0.026057335 0.42900002
0.0013237705 -0.026057335 0.42900002
0.002434042 -0.025996596 0.42800003
0.0035473993 -0.025996596 0.42800003
0.0046607568 -0.025996596 0.42800003
0.0057741143 -0.025996596 0.42800003
0.0068874718 -0.025996596 0.42800003
0.0079821348 -0.025935855 0.42700002
0.0090928907 -0.025935855 0.42700002
0.010203647 -0.025935855 0.42700002
0.011287905 -0.025875116 0.42600003
0.012396061 -0.025875116 0.42600003
0.013472515 -0.025814375 0.42500001
0.014578069 -0.025814375 0.42500001
0.015646718 -0.025753636 0.42400002
0.016749671 -0.025753636 0.42400002
0.017852623 -0.025753636 0.42400002
0.018955575 -0.025753636 0.42400002
0.020058528 -0.025753636 0.42400002
0.02116148 -0.025753636 0.42400002
0.02226443 -0.025753636 0.42400002
0.023367384 -0.025753636 0.42400002
0.024470337 -0.025753636 0.42400002
0.025573287 -0.025753636 0.42400002
0.026676241 -0.025753636 0.42400002
0.027779192 -0.025753636 0.42400002
0.028882144 -0.025753636 0.42400002
0.030055815 -0.025814375 0.42500001
0.031161368 -0.025814375 0.42500001
0.032266922 -0.025814375 0.42500001
0.033372477 -0.025814375 0.42500001
0.034559153 -0.025875116 0.42600003
0.035667308 -0.025875116 0.42600003
0.036775462 -0.025875116 0.42600003
0.037883621 -0.025875116 0.42600003
0.047504064 -0.031523909 0.51900005
0.048854142 -0.031523909 0.51900005
0.050204214 -0.031523909 0.51900005
0.051554289 -0.031523909 0.51900005
0.052904367 -0.031523909 0.51900005
0.054254442 -0.031523909 0.51900005
0.055604521 -0.031523909 0.51900005
0.056954596 -0.031523909 0.51900005
0.058304671 -0.031523909 0.51900005
