# .PCD v0.7 - Point Cloud Data file format
VERSION 0.7
FIELDS x y z
SIZE 4 4 4
TYPE F F F
COUNT 1 1 1
WIDTH 1386
HEIGHT 1
VIEWPOINT 0 0 0 1 0 0 0
POINTS 1386
DATA ascii
0.014025589 0.010845945 0.48200002
0.015279417 0.010845945 0.48200002
0.016567547 0.010868447 0.48300001
0.017823974 0.010868447 0.48300001
0.019080402 0.010868447 0.48300001
0.020336833 0.010868447 0.48300001
0.02159326 0.010868447 0.48300001
0.022896998 0.01089095 0.48400003
0.024156028 0.01089095 0.48400003
0.025467567 0.010913451 0.48500001
0.0267292 0.010913451 0.48500001
0.027990833 0.010913451 0.48500001
0.029252462 0.010913451 0.48500001
0.030577013 0.010935954 0.48600003
0.031841245 0.010935954 0.48600003
0.033173595 0.010958456 0.48700002
0.034440428 0.010958456 0.48700002
0.035780586 0.010980957 0.48800004
0.03705002 0.010980957 0.48800004
0.038397979 0.011003459 0.48900002
0.039670013 0.011003459 0.48900002
0.041025776 0.011025961 0.49000001
0.042300414 0.011025961 0.49000001
0.043663982 0.011048463 0.49100003
0.045032751 0.011070965 0.49200001
0.046312593 0.011070965 0.49200001
0.047592431 0.011070965 0.49200001
0.04887227 0.011070965 0.49200001
0.050254051 0.011093467 0.49300003
0.051536493 0.011093467 0.49300003
0.052818935 0.011093467 0.49300003
0.054101378 0.011093467 0.49300003
0.05549616 0.011115969 0.49400002
0.056781199 0.011115969 0.49400002
0.058066241 0.011115969 0.49400002
0.059351288 0.011115969 0.49400002
0.06063633 0.011115969 0.49400002
0.062046718 0.011138471 0.49500003
0.063334368 0.011138471 0.49500003
0.064752556 0.011160973 0.49600002
0.066042811 0.011160973 0.49600002
0.0674688 0.011183474 0.49700001
0.068761647 0.011183474 0.49700001
0.070195451 0.011205977 0.49800003
0.071490899 0.011205977 0.49800003
0.072786354 0.011205977 0.49800003
0.074081793 0.011205977 0.49800003
0.075528607 0.011228479 0.49900001
0.076826654 0.011228479 0.49900001
0.078281261 0.01125098 0.5
0.079581916 0.01125098 0.5
0.080882564 0.01125098 0.5
0.082347594 0.011273483 0.50100005
0.083650842 0.011273483 0.50100005
0.085123666 0.011295984 0.50200003
0.086429514 0.011295984 0.50200003
0.08773537 0.011295984 0.50200003
0.089218594 0.011318486 0.50300002
0.090707019 0.011340988 0.50400001
0.092018083 0.011340988 0.50400001
0.093329132 0.011340988 0.50400001
0.094640188 0.011340988 0.50400001
0.096141621 0.01136349 0.505
0.097455278 0.01136349 0.505
0.098768942 0.01136349 0.505
0.10008259 0.01136349 0.505
0.10139626 0.01136349 0.505
0.10270991 0.01136349 0.505
0.10402357 0.01136349 0.505
0.10533722 0.01136349 0.505
0.10665088 0.01136349 0.505
0.10775075 0.011340988 0.50400001
0.10906181 0.011340988 0.50400001
0.11037286 0.011340988 0.50400001
0.11168392 0.011340988 0.50400001
0.11299498 0.011340988 0.50400001
0.11430603 0.011340988 0.50400001
0.11561709 0.011340988 0.50400001
0.10271651 0.0085282428 0.37900001
0.10342879 0.0085057411 0.37800002
0.10441208 0.0085057411 0.37800002
0.10511655 0.0084832394 0.377
0.10581581 0.0084607378 0.37600002
0.10650988 0.0084382361 0.37500003
0.10748537 0.0084382361 0.37500003
0.10817162 0.0084157335 0.37400001
0.10885268 0.0083932318 0.37300003
0.10982297 0.0083932318 0.37300003
0.11049622 0.0083707292 0.37200001
0.1114639 0.0083707292 0.37200001
0.11243158 0.0083707292 0.37200001
0.11309444 0.0083482275 0.37100002
0.11405952 0.0083482275 0.37100002
0.15256864 0.010980957 0.48800004
0.15352283 0.010958456 0.48700002
0.15447183 0.010935954 0.48600003
0.15541561 0.010913451 0.48500001
0.1563542 0.01089095 0.48400003
0.15728757 0.010868447 0.48300001
0.15821578 0.010845945 0.48200002
0.15913875 0.010823444 0.48100004
0.16005652 0.010800942 0.48000002
0.16096909 0.01077844 0.47900003
0.16187645 0.010755938 0.47800002
0.16243738 0.010710933 0.47600001
0.16333173 0.010688432 0.47500002
0.1642209 0.01066593 0.47400004
0.16510485 0.010643427 0.47300002
0.16563194 0.010598424 0.47100002
0.16685717 0.010598424 0.47100002
0.16736865 0.01055342 0.46900001
0.16822919 0.010530918 0.46800002
0.16872247 0.010485914 0.46600002
0.16957003 0.010463412 0.46500003
0.17041236 0.01044091 0.46400002
0.17124949 0.010418409 0.46300003
0.17208141 0.010395906 0.46200001
0.17290814 0.010373404 0.46100003
0.17410736 0.010373404 0.46100003
0.17492628 0.010350902 0.46000001
0.17574 0.0103284 0.45900002
0.17654853 0.010305898 0.45800003
0.17735183 0.010283397 0.45700002
0.17814997 0.010260895 0.45600003
0.17894286 0.010238392 0.45500001
0.17933469 0.010193388 0.45300001
0.1801146 0.010170886 0.45200002
0.18048821 0.010125883 0.45000002
0.18085143 0.010080879 0.44800001
0.18161054 0.010058377 0.44700003
0.18195553 0.010013373 0.44500002
0.18229012 0.0099683693 0.44300002
0.18302841 0.0099458676 0.44200003
0.18376151 0.009923365 0.44100001
0.18448938 0.0099008633 0.44000003
0.18521205 0.0098783607 0.43900001
0.18550503 0.0098333573 0.43700001
0.18621472 0.0098108556 0.43600002
0.18734887 0.0098108556 0.43600002
0.18805075 0.0097883539 0.43500003
0.18874741 0.0097658513 0.43400002
0.18900135 0.009720847 0.43200001
0.19012512 0.009720847 0.43200001
0.19036348 0.0096758427 0.43000001
0.19103673 0.009653341 0.42900002
0.19170478 0.0096308393 0.42800003
0.19191712 0.009585836 0.42600003
0.19257216 0.0095633334 0.42500001
0.19276629 0.0095183291 0.42300001
0.19340833 0.0094958274 0.42200002
0.19358425 0.009450824 0.42000002
0.19421329 0.0094283223 0.41900003
0.19483711 0.0094058197 0.41800001
0.19498701 0.0093608154 0.41600001
0.19512652 0.009315812 0.41400003
0.19572952 0.0092933103 0.41300002
0.19632736 0.0092708087 0.41200003
-0.23245893 0.010442957 0.41600001
-0.23137678 0.010442957 0.41600001
-0.23029466 0.010442957 0.41600001
-0.22921251 0.010442957 0.41600001
-0.22867878 0.010468061 0.41700003
-0.22759403 0.010468061 0.41700003
-0.22650927 0.010468061 0.41700003
-0.22542454 0.010468061 0.41700003
-0.2243398 0.010468061 0.41700003
-0.22379044 0.010493164 0.41800001
-0.22270308 0.010493164 0.41800001
-0.22161573 0.010493164 0.41800001
-0.22052841 0.010493164 0.41800001
-0.21944106 0.010493164 0.41800001
-0.21835372 0.010493164 0.41800001
-0.21726637 0.010493164 0.41800001
-0.2166962 0.010518268 0.41900003
-0.21560627 0.010518268 0.41900003
-0.21502827 0.010543371 0.42000002
-0.21393575 0.010543371 0.42000002
-0.21284319 0.010543371 0.42000002
-0.21225481 0.010568474 0.42100003
-0.21166123 0.010593577 0.42200002
-0.21056348 0.010593577 0.42200002
-0.20946573 0.010593577 0.42200002
-0.20886174 0.01061868 0.42300001
-0.20776139 0.01061868 0.42300001
-0.20666103 0.01061868 0.42300001
-0.20604666 0.010643784 0.42400002
-0.2049437 0.010643784 0.42400002
-0.20384075 0.010643784 0.42400002
-0.20273781 0.010643784 0.42400002
-0.20163484 0.010643784 0.42400002
-0.20053189 0.010643784 0.42400002
-0.19942895 0.010643784 0.42400002
-0.19832599 0.010643784 0.42400002
-0.19722302 0.010643784 0.42400002
-0.19612008 0.010643784 0.42400002
-0.19501713 0.010643784 0.42400002
-0.19391418 0.010643784 0.42400002
-0.19281124 0.010643784 0.42400002
-0.19170827 0.010643784 0.42400002
-0.19105485 0.010668887 0.42500001
-0.1899493 0.010668887 0.42500001
-0.18884376 0.010668887 0.42500001
-0.18773821 0.010668887 0.42500001
-0.18707179 0.010693991 0.42600003
-0.18596363 0.010693991 0.42600003
-0.18485548 0.010693991 0.42600003
-0.18417865 0.010719093 0.42700002
-0.1830679 0.010719093 0.42700002
-0.18238327 0.010744197 0.42800003
-0.18126991 0.010744197 0.42800003
-0.18015656 0.010744197 0.42800003
-0.1790432 0.010744197 0.42800003
-0.17834558 0.0107693 0.42900002
-0.1772296 0.0107693 0.42900002
-0.17611365 0.0107693 0.42900002
-0.17499769 0.0107693 0.42900002
-0.17388174 0.0107693 0.42900002
-0.17316848 0.010794403 0.43000001
-0.17204992 0.010794403 0.43000001
-0.17132889 0.010819507 0.43100002
-0.17020772 0.010819507 0.43100002
-0.16908656 0.010819507 0.43100002
-0.16835511 0.01084461 0.43200001
-0.16723134 0.01084461 0.43200001
-0.16649209 0.010869713 0.43300003
-0.16536574 0.010869713 0.43300003
-0.16461867 0.010894816 0.43400002
-0.1634897 0.010894816 0.43400002
-0.16236074 0.010894816 0.43400002
-0.16160329 0.010919919 0.43500003
-0.16047172 0.010919919 0.43500003
-0.15970644 0.010945023 0.43600002
-0.15857227 0.010945023 0.43600002
-0.15743811 0.010945023 0.43600002
-0.15630394 0.010945023 0.43600002
-0.15481389 0.010919919 0.43500003
-0.1540356 0.010945023 0.43600002
-0.15290144 0.010945023 0.43600002
-0.15176727 0.010945023 0.43600002
-0.15063311 0.010945023 0.43600002
-0.14949894 0.010945023 0.43600002
-0.14836477 0.010945023 0.43600002
-0.1472306 0.010945023 0.43600002
-0.14609644 0.010945023 0.43600002
-0.14529474 0.010970126 0.43700001
-0.14448786 0.010995229 0.43800002
-0.14334849 0.010995229 0.43800002
-0.14253379 0.011020333 0.43900001
-0.14139183 0.011020333 0.43900001
-0.14056933 0.011045435 0.44000003
-0.13942477 0.011045435 0.44000003
-0.13859445 0.011070538 0.44100001
-0.13744728 0.011070538 0.44100001
-0.1363001 0.011070538 0.44100001
-0.13515294 0.011070538 0.44100001
-0.13400576 0.011070538 0.44100001
-0.13285857 0.011070538 0.44100001
-0.13171141 0.011070538 0.44100001
-0.13056424 0.011070538 0.44100001
-0.12941706 0.011070538 0.44100001
-0.12856075 0.011095642 0.44200003
-0.12741098 0.011095642 0.44200003
-0.1262612 0.011095642 0.44200003
-0.12539448 0.011120745 0.44300002
-0.12424211 0.011120745 0.44300002
-0.12336758 0.011145849 0.44400004
-0.1222126 0.011145849 0.44400004
-0.12133028 0.011170952 0.44500002
-0.1201727 0.011170952 0.44500002
-0.11928257 0.011196055 0.44600001
-0.11812238 0.011196055 0.44600001
-0.1169622 0.011196055 0.44600001
-0.11606167 0.011221158 0.44700003
-0.1148989 0.011221158 0.44700003
-0.11399055 0.011246261 0.44800001
-0.11282516 0.011246261 0.44800001
-0.11165978 0.011246261 0.44800001
-0.11049441 0.011246261 0.44800001
-0.10957306 0.011271365 0.44900003
-0.10840508 0.011271365 0.44900003
-0.10723709 0.011271365 0.44900003
-0.1060691 0.011271365 0.44900003
-0.10490112 0.011271365 0.44900003
-0.10373314 0.011271365 0.44900003
-0.10279358 0.011296468 0.45000002
-0.10162299 0.011296468 0.45000002
-0.10067564 0.011321572 0.45100003
-0.099502452 0.011321572 0.45100003
-0.098547287 0.011346675 0.45200002
-0.097371496 0.011346675 0.45200002
-0.096195705 0.011346675 0.45200002
-0.09523014 0.011371777 0.45300001
-0.094051749 0.011371777 0.45300001
-0.093078382 0.011396881 0.45400003
-0.091897391 0.011396881 0.45400003
-0.090716399 0.011396881 0.45400003
-0.089732617 0.011421984 0.45500001
-0.088549025 0.011421984 0.45500001
-0.087365434 0.011421984 0.45500001
-0.08637125 0.011447088 0.45600003
-0.085185058 0.011447088 0.45600003
-0.084183075 0.011472191 0.45700002
-0.082994275 0.011472191 0.45700002
-0.081805483 0.011472191 0.45700002
-0.080616683 0.011472191 0.45700002
-0.07942789 0.011472191 0.45700002
-0.078239098 0.011472191 0.45700002
-0.077218905 0.011497295 0.45800003
-0.076027513 0.011497295 0.45800003
-0.074836113 0.011497295 0.45800003
-0.07364472 0.011497295 0.45800003
-0.07245332 0.011497295 0.45800003
-0.071417518 0.011522397 0.45900002
-0.070223518 0.011522397 0.45900002
-0.069179907 0.0115475 0.46000001
-0.067983314 0.0115475 0.46000001
-0.066931903 0.011572604 0.46100003
-0.065732703 0.011572604 0.46100003
-0.064673483 0.011597707 0.46200001
-0.063471682 0.011597707 0.46200001
-0.062269885 0.011597707 0.46200001
-0.06106808 0.011597707 0.46200001
-0.059866279 0.011597707 0.46200001
-0.058791459 0.011622811 0.46300003
-0.057587057 0.011622811 0.46300003
-0.056382652 0.011622811 0.46300003
-0.055178251 0.011622811 0.46300003
-0.054090418 0.011647914 0.46400002
-0.052883416 0.011647914 0.46400002
-0.051787786 0.011673017 0.46500003
-0.050578181 0.011673017 0.46500003
-0.049368575 0.011673017 0.46500003
-0.048262537 0.01169812 0.46600002
-0.047050327 0.01169812 0.46600002
-0.045838125 0.01169812 0.46600002
-0.044625916 0.01169812 0.46600002
-0.043506872 0.011723223 0.46700001
-0.042292062 0.011723223 0.46700001
-0.041077252 0.011723223 0.46700001
-0.039862446 0.011723223 0.46700001
-0.038647637 0.011723223 0.46700001
-0.037512988 0.011748327 0.46800002
-0.036295578 0.011748327 0.46800002
-0.035078168 0.011748327 0.46800002
-0.033933111 0.01177343 0.46900001
-0.032713097 0.01177343 0.46900001
-0.031560238 0.011798534 0.47000003
-0.030337628 0.011798534 0.47000003
-0.029176962 0.011823636 0.47100002
-0.027951749 0.011823636 0.47100002
-0.026726535 0.011823636 0.47100002
-0.025555465 0.01184874 0.47200003
-0.024327651 0.01184874 0.47200003
-0.023099836 0.01184874 0.47200003
-0.021872021 0.01184874 0.47200003
-0.020644207 0.01184874 0.47200003
-0.019416392 0.01184874 0.47200003
-0.018227112 0.011873843 0.47300002
-0.016996697 0.011873843 0.47300002
-0.015799614 0.011898947 0.47400004
-0.014566597 0.011898947 0.47400004
-0.013361708 0.01192405 0.47500002
-0.01212609 0.01192405 0.47500002
-0.010913399 0.011949153 0.47600001
-0.0096751787 0.011949153 0.47600001
-0.0084369592 0.011949153 0.47600001
-0.0072138631 0.011974256 0.47700003
-0.005973042 0.011974256 0.47700003
-0.0047421418 0.011999359 0.47800002
-0.0034987193 0.011999359 0.47800002
-0.0022600149 0.012024463 0.47900003
-0.0010139913 0.012024463 0.47900003
0.00023203237 0.012024463 0.47900003
0.0014811418 0.012049566 0.48000002
0.0027297668 0.012049566 0.48000002
0.0039783916 0.012049566 0.48000002
0.0052270168 0.012049566 0.48000002
0.0064756419 0.012049566 0.48000002
0.007724267 0.012049566 0.48000002
0.0089915851 0.01207467 0.48100004
0.010242811 0.01207467 0.48100004
0.011517935 0.012099773 0.48200002
0.012771761 0.012099773 0.48200002
0.014025589 0.012099773 0.48200002
0.015311116 0.012124876 0.48300001
0.016567547 0.012124876 0.48300001
0.017823974 0.012124876 0.48300001
0.019080402 0.012124876 0.48300001
0.020336833 0.012124876 0.48300001
0.021637967 0.012149979 0.48400003
0.022896998 0.012149979 0.48400003
0.024205938 0.012175082 0.48500001
0.025467567 0.012175082 0.48500001
0.0267292 0.012175082 0.48500001
0.027990833 0.012175082 0.48500001
0.029312778 0.012200186 0.48600003
0.030577013 0.012200186 0.48600003
0.031906758 0.012225289 0.48700002
0.033173595 0.012225289 0.48700002
0.034440428 0.012225289 0.48700002
0.035780586 0.012250393 0.48800004
0.03705002 0.012250393 0.48800004
0.038397979 0.012275496 0.48900002
0.039670013 0.012275496 0.48900002
0.041025776 0.012300598 0.49000001
0.042300414 0.012300598 0.49000001
0.043663982 0.012325702 0.49100003
0.045032751 0.012350805 0.49200001
0.046312593 0.012350805 0.49200001
0.047592431 0.012350805 0.49200001
0.04887227 0.012350805 0.49200001
0.050254051 0.012375909 0.49300003
0.051536493 0.012375909 0.49300003
0.052818935 0.012375909 0.49300003
0.054101378 0.012375909 0.49300003
0.05549616 0.012401012 0.49400002
0.056781199 0.012401012 0.49400002
0.058066241 0.012401012 0.49400002
0.059351288 0.012401012 0.49400002
0.06063633 0.012401012 0.49400002
0.062046718 0.012426116 0.49500003
0.063462317 0.012451218 0.49600002
0.064752556 0.012451218 0.49600002
0.066042811 0.012451218 0.49600002
0.0674688 0.012476321 0.49700001
0.068761647 0.012476321 0.49700001
0.070054494 0.012476321 0.49700001
0.071490899 0.012501425 0.49800003
0.072786354 0.012501425 0.49800003
0.074081793 0.012501425 0.49800003
0.075528607 0.012526528 0.49900001
0.076980613 0.012551631 0.5
0.078281261 0.012551631 0.5
0.079581916 0.012551631 0.5
0.081044339 0.012576736 0.50100005
0.082347594 0.012576736 0.50100005
0.083650842 0.012576736 0.50100005
0.085123666 0.012601838 0.50200003
0.086429514 0.012601838 0.50200003
0.087910138 0.012626941 0.50300002
0.089218594 0.012626941 0.50300002
0.090707019 0.012652044 0.50400001
0.092018083 0.012652044 0.50400001
0.093329132 0.012652044 0.50400001
0.094827965 0.012677147 0.505
0.096141621 0.012677147 0.505
0.097455278 0.012677147 0.505
0.098768942 0.012677147 0.505
0.10008259 0.012677147 0.505
0.10139626 0.012677147 0.505
0.10270991 0.012677147 0.505
0.10402357 0.012677147 0.505
0.10533722 0.012677147 0.505
0.10665088 0.012677147 0.505
0.10796455 0.012677147 0.505
0.10927819 0.012677147 0.505
0.11059185 0.012677147 0.505
0.11190552 0.012677147 0.505
0.11321916 0.012677147 0.505
0.11453283 0.012677147 0.505
0.1037024 0.0095141362 0.37900001
0.10441208 0.0094890334 0.37800002
0.10511655 0.0094639296 0.377
0.10609724 0.0094639296 0.377
0.1067939 0.0094388267 0.37600002
0.10748537 0.0094137238 0.37500003
0.10817162 0.00938862 0.37400001
0.10885268 0.0093635172 0.37300003
0.10982297 0.0093635172 0.37300003
0.11079326 0.0093635172 0.37300003
0.1114639 0.0093384134 0.37200001
0.11243158 0.0093384134 0.37200001
0.11339927 0.0093384134 0.37200001
0.11436696 0.0093384134 0.37200001
0.1150246 0.0093133105 0.37100002
0.15289235 0.012175082 0.48500001
0.15383615 0.012149979 0.48400003
0.15477473 0.012124876 0.48300001
0.1557081 0.012099773 0.48200002
0.15663628 0.01207467 0.48100004
0.15755928 0.012049566 0.48000002
0.15847705 0.012024463 0.47900003
0.15938962 0.011999359 0.47800002
0.16029699 0.011974256 0.47700003
0.16119914 0.011949153 0.47600001
0.16209613 0.01192405 0.47500002
0.16264403 0.011873843 0.47300002
0.16352798 0.01184874 0.47200003
0.16440673 0.011823636 0.47100002
0.16492862 0.01177343 0.46900001
0.16579439 0.011748327 0.46800002
0.16665493 0.011723223 0.46700001
0.16751027 0.01169812 0.46600002
0.16836041 0.011673017 0.46500003
0.16884069 0.011622811 0.46300003
0.16967782 0.011597707 0.46200001
0.17050976 0.011572604 0.46100003
0.17133647 0.0115475 0.46000001
0.172158 0.011522397 0.45900002
0.17335202 0.011522397 0.45900002
0.17416574 0.011497295 0.45800003
0.17497425 0.011472191 0.45700002
0.17577757 0.011447088 0.45600003
0.17657568 0.011421984 0.45500001
0.17697792 0.011371777 0.45300001
0.17776303 0.011346675 0.45200002
0.17854294 0.011321572 0.45100003
0.17891915 0.011271365 0.44900003
0.17928496 0.011221158 0.44700003
0.17964038 0.011170952 0.44500002
0.18039167 0.011145849 0.44400004
0.18072887 0.011095642 0.44200003
0.18146715 0.011070538 0.44100001
0.18220024 0.011045435 0.44000003
0.18292812 0.011020333 0.43900001
0.18365079 0.010995229 0.43800002
0.18436825 0.010970126 0.43700001
0.18508053 0.010945023 0.43600002
0.18578762 0.010919919 0.43500003
0.18648948 0.010894816 0.43400002
0.18718615 0.010869713 0.43300003
0.1878776 0.01084461 0.43200001
0.18856385 0.010819507 0.43100002
0.18924493 0.010794403 0.43000001
0.18992078 0.0107693 0.42900002
0.19014612 0.010719093 0.42700002
0.19080897 0.010693991 0.42600003
0.1914666 0.010668887 0.42500001
0.19166595 0.01061868 0.42300001
0.19231059 0.010593577 0.42200002
0.1924917 0.010543371 0.42000002
0.19312334 0.010518268 0.41900003
0.19328624 0.010468061 0.41700003
0.19390488 0.010442957 0.41600001
0.19404958 0.010392752 0.41400003
0.19465519 0.010367648 0.41300002
0.19525561 0.010342545 0.41200003
0.19585083 0.010317441 0.41100001
-0.23245893 0.011525099 0.41600001
-0.23137678 0.011525099 0.41600001
-0.23084827 0.011552804 0.41700003
-0.22976351 0.011552804 0.41700003
-0.22867878 0.011552804 0.41700003
-0.22759403 0.011552804 0.41700003
-0.22650927 0.011552804 0.41700003
-0.22542454 0.011552804 0.41700003
-0.2243398 0.011552804 0.41700003
-0.22379044 0.011580508 0.41800001
-0.22270308 0.011580508 0.41800001
-0.22161573 0.011580508 0.41800001
-0.22052841 0.011580508 0.41800001
-0.21944106 0.011580508 0.41800001
-0.21835372 0.011580508 0.41800001
-0.21726637 0.011580508 0.41800001
-0.2166962 0.011608213 0.41900003
-0.21560627 0.011608213 0.41900003
-0.21451631 0.011608213 0.41900003
-0.21393575 0.011635917 0.42000002
-0.21284319 0.011635917 0.42000002
-0.21225481 0.011663623 0.42100003
-0.21115968 0.011663623 0.42100003
-0.21056348 0.011691327 0.42200002
-0.20946573 0.011691327 0.42200002
-0.20836799 0.011691327 0.42200002
-0.20776139 0.011719031 0.42300001
-0.20666103 0.011719031 0.42300001
-0.20556068 0.011719031 0.42300001
-0.2049437 0.011746736 0.42400002
-0.20384075 0.011746736 0.42400002
-0.20273781 0.011746736 0.42400002
-0.20163484 0.011746736 0.42400002
-0.20053189 0.011746736 0.42400002
-0.19942895 0.011746736 0.42400002
-0.19832599 0.011746736 0.42400002
-0.19722302 0.011746736 0.42400002
-0.19612008 0.011746736 0.42400002
-0.19501713 0.011746736 0.42400002
-0.19391418 0.011746736 0.42400002
-0.19281124 0.011746736 0.42400002
-0.19170827 0.011746736 0.42400002
-0.19060533 0.011746736 0.42400002
-0.1899493 0.01177444 0.42500001
-0.18884376 0.01177444 0.42500001
-0.18773821 0.01177444 0.42500001
-0.18707179 0.011802145 0.42600003
-0.18596363 0.011802145 0.42600003
-0.18528941 0.011829849 0.42700002
-0.18417865 0.011829849 0.42700002
-0.18349664 0.011857554 0.42800003
-0.18238327 0.011857554 0.42800003
-0.18126991 0.011857554 0.42800003
-0.18015656 0.011857554 0.42800003
-0.1790432 0.011857554 0.42800003
-0.17834558 0.011885259 0.42900002
-0.1772296 0.011885259 0.42900002
-0.17611365 0.011885259 0.42900002
-0.17499769 0.011885259 0.42900002
-0.17428705 0.011912963 0.43000001
-0.17316848 0.011912963 0.43000001
-0.17204992 0.011912963 0.43000001
-0.17132889 0.011940668 0.43100002
-0.17020772 0.011940668 0.43100002
-0.16947888 0.011968372 0.43200001
-0.16835511 0.011968372 0.43200001
-0.16723134 0.011968372 0.43200001
-0.16610758 0.011968372 0.43200001
-0.16536574 0.011996077 0.43300003
-0.16461867 0.012023781 0.43400002
-0.1634897 0.012023781 0.43400002
-0.16236074 0.012023781 0.43400002
-0.16160329 0.012051486 0.43500003
-0.16047172 0.012051486 0.43500003
-0.15970644 0.01207919 0.43600002
-0.15857227 0.01207919 0.43600002
-0.15743811 0.01207919 0.43600002
-0.15630394 0.01207919 0.43600002
-0.15516979 0.01207919 0.43600002
-0.1540356 0.01207919 0.43600002
-0.15290144 0.01207919 0.43600002
-0.15176727 0.01207919 0.43600002
-0.15063311 0.01207919 0.43600002
-0.14949894 0.01207919 0.43600002
-0.14836477 0.01207919 0.43600002
-0.1472306 0.01207919 0.43600002
-0.14643151 0.012106895 0.43700001
-0.14529474 0.012106895 0.43700001
-0.14448786 0.0121346 0.43800002
-0.14334849 0.0121346 0.43800002
-0.14253379 0.012162304 0.43900001
-0.14139183 0.012162304 0.43900001
-0.14056933 0.012190009 0.44000003
-0.13942477 0.012190009 0.44000003
-0.13859445 0.012217714 0.44100001
-0.13744728 0.012217714 0.44100001
-0.1363001 0.012217714 0.44100001
-0.13515294 0.012217714 0.44100001
-0.13400576 0.012217714 0.44100001
-0.13285857 0.012217714 0.44100001
-0.13171141 0.012217714 0.44100001
-0.1308603 0.012245419 0.44200003
-0.12971054 0.012245419 0.44200003
-0.12856075 0.012245419 0.44200003
-0.12741098 0.012245419 0.44200003
-0.12654686 0.012273123 0.44300002
-0.12539448 0.012273123 0.44300002
-0.12452257 0.012300828 0.44400004
-0.12336758 0.012300828 0.44400004
-0.1222126 0.012300828 0.44400004
-0.12133028 0.012328532 0.44500002
-0.1201727 0.012328532 0.44500002
-0.11928257 0.012356237 0.44600001
-0.11812238 0.012356237 0.44600001
-0.11722445 0.012383942 0.44700003
-0.11606167 0.012383942 0.44700003
-0.11515594 0.012411646 0.44800001
-0.11399055 0.012411646 0.44800001
-0.11282516 0.012411646 0.44800001
-0.11165978 0.012411646 0.44800001
-0.11074104 0.012439351 0.44900003
-0.10957306 0.012439351 0.44900003
-0.10840508 0.012439351 0.44900003
-0.10723709 0.012439351 0.44900003
-0.1060691 0.012439351 0.44900003
-0.10490112 0.012439351 0.44900003
-0.10373314 0.012439351 0.44900003
-0.10279358 0.012467055 0.45000002
-0.10162299 0.012467055 0.45000002
-0.10067564 0.01249476 0.45100003
-0.099502452 0.01249476 0.45100003
-0.098547287 0.012522464 0.45200002
-0.097371496 0.012522464 0.45200002
-0.096195705 0.012522464 0.45200002
-0.09523014 0.012550168 0.45300001
-0.094051749 0.012550168 0.45300001
-0.093078382 0.012577873 0.45400003
-0.091897391 0.012577873 0.45400003
-0.090716399 0.012577873 0.45400003
-0.089732617 0.012605578 0.45500001
-0.088549025 0.012605578 0.45500001
-0.087365434 0.012605578 0.45500001
-0.08637125 0.012633283 0.45600003
-0.085185058 0.012633283 0.45600003
-0.084183075 0.012660987 0.45700002
-0.082994275 0.012660987 0.45700002
-0.081805483 0.012660987 0.45700002
-0.080616683 0.012660987 0.45700002
-0.07942789 0.012660987 0.45700002
-0.078239098 0.012660987 0.45700002
-0.077218905 0.012688692 0.45800003
-0.076027513 0.012688692 0.45800003
-0.074836113 0.012688692 0.45800003
-0.07364472 0.012688692 0.45800003
-0.07245332 0.012688692 0.45800003
-0.071417518 0.012716396 0.45900002
-0.070223518 0.012716396 0.45900002
-0.069179907 0.0127441 0.46000001
-0.068131104 0.012771805 0.46100003
-0.066931903 0.012771805 0.46100003
-0.065875284 0.012799509 0.46200001
-0.064673483 0.012799509 0.46200001
-0.063471682 0.012799509 0.46200001
-0.062269885 0.012799509 0.46200001
-0.06106808 0.012799509 0.46200001
-0.059995864 0.012827215 0.46300003
-0.058791459 0.012827215 0.46300003
-0.057587057 0.012827215 0.46300003
-0.056382652 0.012827215 0.46300003
-0.055297423 0.012854919 0.46400002
-0.054090418 0.012854919 0.46400002
-0.052883416 0.012854919 0.46400002
-0.051787786 0.012882624 0.46500003
-0.050578181 0.012882624 0.46500003
-0.049474742 0.012910328 0.46600002
-0.048262537 0.012910328 0.46600002
-0.047050327 0.012910328 0.46600002
-0.045838125 0.012910328 0.46600002
-0.044721678 0.012938032 0.46700001
-0.043506872 0.012938032 0.46700001
-0.042292062 0.012938032 0.46700001
-0.041077252 0.012938032 0.46700001
-0.039862446 0.012938032 0.46700001
-0.038647637 0.012938032 0.46700001
-0.037512988 0.012965737 0.46800002
-0.036295578 0.012965737 0.46800002
-0.035078168 0.012965737 0.46800002
-0.033933111 0.012993441 0.46900001
-0.032713097 0.012993441 0.46900001
-0.031493086 0.012993441 0.46900001
-0.030337628 0.013021146 0.47000003
-0.029115016 0.013021146 0.47000003
-0.027951749 0.013048851 0.47100002
-0.026726535 0.013048851 0.47100002
-0.02550132 0.013048851 0.47100002
-0.024276109 0.013048851 0.47100002
-0.023099836 0.013076556 0.47200003
-0.021872021 0.013076556 0.47200003
-0.020644207 0.013076556 0.47200003
-0.019457528 0.01310426 0.47300002
-0.018227112 0.01310426 0.47300002
-0.016996697 0.01310426 0.47300002
-0.015799614 0.013131965 0.47400004
-0.014597327 0.013159669 0.47500002
-0.013361708 0.013159669 0.47500002
-0.01212609 0.013159669 0.47500002
-0.010913399 0.013187373 0.47600001
-0.0096751787 0.013187373 0.47600001
-0.0084369592 0.013187373 0.47600001
-0.0072138631 0.013215078 0.47700003
-0.005973042 0.013215078 0.47700003
-0.0047421418 0.013242782 0.47800002
-0.0034987193 0.013242782 0.47800002
-0.0022600149 0.013270487 0.47900003
-0.0010139913 0.013270487 0.47900003
0.00023203237 0.013270487 0.47900003
0.0014811418 0.013298192 0.48000002
0.0027297668 0.013298192 0.48000002
0.0039783916 0.013298192 0.48000002
0.0052270168 0.013298192 0.48000002
0.006489133 0.013325897 0.48100004
0.0077403593 0.013325897 0.48100004
0.0089915851 0.013325897 0.48100004
0.010264106 0.013353601 0.48200002
0.011517935 0.013353601 0.48200002
0.012771761 0.013353601 0.48200002
0.014025589 0.013353601 0.48200002
0.015311116 0.013381305 0.48300001
0.016567547 0.013381305 0.48300001
0.017823974 0.013381305 0.48300001
0.019080402 0.013381305 0.48300001
0.020378938 0.01340901 0.48400003
0.021637967 0.01340901 0.48400003
0.022944305 0.013436714 0.48500001
0.024205938 0.013436714 0.48500001
0.025467567 0.013436714 0.48500001
0.0267292 0.013436714 0.48500001
0.028048547 0.013464419 0.48600003
0.029312778 0.013464419 0.48600003
0.030577013 0.013464419 0.48600003
0.031906758 0.013492123 0.48700002
0.033173595 0.013492123 0.48700002
0.034511149 0.013519828 0.48800004
0.035780586 0.013519828 0.48800004
0.03705002 0.013519828 0.48800004
0.038397979 0.013547533 0.48900002
0.039670013 0.013547533 0.48900002
0.041025776 0.013575237 0.49000001
0.042300414 0.013575237 0.49000001
0.043663982 0.013602942 0.49100003
0.045032751 0.013630646 0.49200001
0.046312593 0.013630646 0.49200001
0.047592431 0.013630646 0.49200001
0.04887227 0.013630646 0.49200001
0.050254051 0.013658351 0.49300003
0.051536493 0.013658351 0.49300003
0.052818935 0.013658351 0.49300003
0.054101378 0.013658351 0.49300003
0.05549616 0.013686055 0.49400002
0.056781199 0.013686055 0.49400002
0.058066241 0.013686055 0.49400002
0.059351288 0.013686055 0.49400002
0.060759079 0.01371376 0.49500003
0.062046718 0.01371376 0.49500003
0.063462317 0.013741464 0.49600002
0.064752556 0.013741464 0.49600002
0.066042811 0.013741464 0.49600002
0.0674688 0.013769169 0.49700001
0.068761647 0.013769169 0.49700001
0.070054494 0.013769169 0.49700001
0.071490899 0.013796874 0.49800003
0.072786354 0.013796874 0.49800003
0.074230552 0.013824578 0.49900001
0.075528607 0.013824578 0.49900001
0.076980613 0.013852282 0.5
0.078281261 0.013852282 0.5
0.079581916 0.013852282 0.5
0.081044339 0.013879988 0.50100005
0.082347594 0.013879988 0.50100005
0.08381781 0.013907692 0.50200003
0.085123666 0.013907692 0.50200003
0.086429514 0.013907692 0.50200003
0.087910138 0.013935396 0.50300002
0.08939597 0.013963101 0.50400001
0.090707019 0.013963101 0.50400001
0.092018083 0.013963101 0.50400001
0.093329132 0.013963101 0.50400001
0.094827965 0.013990805 0.505
0.096141621 0.013990805 0.505
0.097455278 0.013990805 0.505
0.098768942 0.013990805 0.505
0.10008259 0.013990805 0.505
0.10139626 0.013990805 0.505
0.10270991 0.013990805 0.505
0.10402357 0.013990805 0.505
0.10533722 0.013990805 0.505
0.10665088 0.013990805 0.505
0.10796455 0.013990805 0.505
0.10927819 0.013990805 0.505
0.11059185 0.013990805 0.505
0.11190552 0.013990805 0.505
0.11321916 0.013990805 0.505
0.11453283 0.013990805 0.505
0.10441208 0.010472327 0.37800002
0.10539538 0.010472327 0.37800002
0.10609724 0.010444621 0.377
0.1067939 0.010416917 0.37600002
0.10748537 0.010389213 0.37500003
0.10846085 0.010389213 0.37500003
0.10914452 0.010361508 0.37400001
0.10982297 0.010333803 0.37300003
0.11079326 0.010333803 0.37300003
0.1114639 0.010306098 0.37200001
0.11243158 0.010306098 0.37200001
0.11339927 0.010306098 0.37200001
0.11436696 0.010306098 0.37200001
0.11533464 0.010306098 0.37200001
0.11598969 0.010278394 0.37100002
0.1535183 0.013381305 0.48300001
0.15445428 0.013353601 0.48200002
0.15538506 0.013325897 0.48100004
0.15631063 0.013298192 0.48000002
0.15690278 0.013242782 0.47800002
0.15781535 0.013215078 0.47700003
0.15872271 0.013187373 0.47600001
0.15962487 0.013159669 0.47500002
0.16052185 0.013131965 0.47400004
0.16107236 0.013076556 0.47200003
0.16195631 0.013048851 0.47100002
0.16283506 0.013021146 0.47000003
0.16370861 0.012993441 0.46900001
0.1642253 0.012938032 0.46700001
0.16508587 0.012910328 0.46600002
0.16594121 0.012882624 0.46500003
0.16679133 0.012854919 0.46400002
0.16727421 0.012799509 0.46200001
0.16811135 0.012771805 0.46100003
0.16894329 0.0127441 0.46000001
0.16977002 0.012716396 0.45900002
0.17059155 0.012688692 0.45800003
0.17140786 0.012660987 0.45700002
0.17259666 0.012660987 0.45700002
0.17340519 0.012633283 0.45600003
0.17382562 0.012577873 0.45400003
0.17462113 0.012550168 0.45300001
0.17541145 0.012522464 0.45200002
0.17619656 0.01249476 0.45100003
0.17658319 0.012439351 0.44900003
0.17735527 0.012411646 0.44800001
0.17772369 0.012356237 0.44600001
0.17848279 0.012328532 0.44500002
0.17883301 0.012273123 0.44300002
0.18031998 0.012217714 0.44100001
0.18064417 0.012162304 0.43900001
0.18137205 0.0121346 0.43800002
0.18209472 0.012106895 0.43700001
0.1828122 0.01207919 0.43600002
0.18352447 0.012051486 0.43500003
0.18423153 0.012023781 0.43400002
0.18493342 0.011996077 0.43300003
0.18563008 0.011968372 0.43200001
0.18675384 0.011968372 0.43200001
0.18700778 0.011912963 0.43000001
0.18768886 0.011885259 0.42900002
0.18836471 0.011857554 0.42800003
0.18903536 0.011829849 0.42700002
0.18970081 0.011802145 0.42600003
0.18991315 0.011746736 0.42400002
0.19056559 0.011719031 0.42300001
0.19075973 0.011663623 0.42100003
0.19139916 0.011635917 0.42000002
0.19157507 0.011580508 0.41800001
0.19220151 0.011552804 0.41700003
0.19282272 0.011525099 0.41600001
0.19297265 0.011469691 0.41400003
0.19358087 0.011441986 0.41300002
0.19418389 0.011414282 0.41200003
0.19478169 0.011386576 0.41100001
0.19489779 0.011331167 0.40900001
-0.23301774 0.012637547 0.41700003
-0.23193298 0.012637547 0.41700003
-0.23084827 0.012637547 0.41700003
-0.22976351 0.012637547 0.41700003
-0.22867878 0.012637547 0.41700003
-0.22759403 0.012637547 0.41700003
-0.22650927 0.012637547 0.41700003
-0.22542454 0.012637547 0.41700003
-0.2243398 0.012637547 0.41700003
-0.22379044 0.012667852 0.41800001
-0.22270308 0.012667852 0.41800001
-0.22161573 0.012667852 0.41800001
-0.22052841 0.012667852 0.41800001
-0.21944106 0.012667852 0.41800001
-0.21835372 0.012667852 0.41800001
-0.21726637 0.012667852 0.41800001
-0.21617901 0.012667852 0.41800001
-0.21560627 0.012698159 0.41900003
-0.21451631 0.012698159 0.41900003
-0.21393575 0.012728464 0.42000002
-0.21284319 0.012728464 0.42000002
-0.21175063 0.012728464 0.42000002
-0.21115968 0.012758771 0.42100003
-0.21006452 0.012758771 0.42100003
-0.20946573 0.012789076 0.42200002
-0.20836799 0.012789076 0.42200002
-0.20776139 0.012819381 0.42300001
-0.20666103 0.012819381 0.42300001
-0.20556068 0.012819381 0.42300001
-0.20446034 0.012819381 0.42300001
-0.20335999 0.012819381 0.42300001
-0.20273781 0.012849688 0.42400002
-0.20163484 0.012849688 0.42400002
-0.20053189 0.012849688 0.42400002
-0.19942895 0.012849688 0.42400002
-0.19832599 0.012849688 0.42400002
-0.19722302 0.012849688 0.42400002
-0.19612008 0.012849688 0.42400002
-0.19501713 0.012849688 0.42400002
-0.19391418 0.012849688 0.42400002
-0.19281124 0.012849688 0.42400002
-0.19170827 0.012849688 0.42400002
-0.19060533 0.012849688 0.42400002
-0.1899493 0.012879994 0.42500001
-0.18884376 0.012879994 0.42500001
-0.18773821 0.012879994 0.42500001
-0.18707179 0.0129103 0.42600003
-0.18596363 0.0129103 0.42600003
-0.18528941 0.012940605 0.42700002
-0.18417865 0.012940605 0.42700002
-0.18349664 0.012970911 0.42800003
-0.18238327 0.012970911 0.42800003
-0.18126991 0.012970911 0.42800003
-0.18015656 0.012970911 0.42800003
-0.1790432 0.012970911 0.42800003
-0.17834558 0.013001218 0.42900002
-0.1772296 0.013001218 0.42900002
-0.17611365 0.013001218 0.42900002
-0.17499769 0.013001218 0.42900002
-0.17428705 0.013031523 0.43000001
-0.17316848 0.013031523 0.43000001
-0.17245004 0.013061829 0.43100002
-0.17132889 0.013061829 0.43100002
-0.17060263 0.013092134 0.43200001
-0.16947888 0.013092134 0.43200001
-0.16835511 0.013092134 0.43200001
-0.16723134 0.013092134 0.43200001
-0.16610758 0.013092134 0.43200001
-0.16536574 0.013122441 0.43300003
-0.16461867 0.013152746 0.43400002
-0.1634897 0.013152746 0.43400002
-0.16236074 0.013152746 0.43400002
-0.16123177 0.013152746 0.43400002
-0.16047172 0.013183053 0.43500003
-0.15934016 0.013183053 0.43500003
-0.15857227 0.013213358 0.43600002
-0.15743811 0.013213358 0.43600002
-0.15630394 0.013213358 0.43600002
-0.15481389 0.013183053 0.43500003
-0.1540356 0.013213358 0.43600002
-0.15290144 0.013213358 0.43600002
-0.15176727 0.013213358 0.43600002
-0.15063311 0.013213358 0.43600002
-0.14949894 0.013213358 0.43600002
-0.14836477 0.013213358 0.43600002
-0.1472306 0.013213358 0.43600002
-0.14643151 0.013243664 0.43700001
-0.14529474 0.013243664 0.43700001
-0.14448786 0.01327397 0.43800002
-0.14334849 0.01327397 0.43800002
-0.14253379 0.013304275 0.43900001
-0.14139183 0.013304275 0.43900001
-0.14056933 0.013334582 0.44000003
-0.13942477 0.013334582 0.44000003
-0.13859445 0.013364888 0.44100001
-0.13744728 0.013364888 0.44100001
-0.1363001 0.013364888 0.44100001
-0.13515294 0.013364888 0.44100001
-0.13400576 0.013364888 0.44100001
-0.13315985 0.013395194 0.44200003
-0.13201007 0.013395194 0.44200003
-0.1308603 0.013395194 0.44200003
-0.12971054 0.013395194 0.44200003
-0.12856075 0.013395194 0.44200003
-0.12741098 0.013395194 0.44200003
-0.12654686 0.013425499 0.44300002
-0.12539448 0.013425499 0.44300002
-0.12424211 0.013425499 0.44300002
-0.12336758 0.013455805 0.44400004
-0.1222126 0.013455805 0.44400004
-0.12133028 0.013486112 0.44500002
-0.1201727 0.013486112 0.44500002
-0.11928257 0.013516417 0.44600001
-0.11812238 0.013516417 0.44600001
-0.11722445 0.013546723 0.44700003
-0.11606167 0.013546723 0.44700003
-0.11515594 0.013577028 0.44800001
-0.11399055 0.013577028 0.44800001
-0.11282516 0.013577028 0.44800001
-0.11165978 0.013577028 0.44800001
-0.11074104 0.013607335 0.44900003
-0.10957306 0.013607335 0.44900003
-0.10840508 0.013607335 0.44900003
-0.10723709 0.013607335 0.44900003
-0.1060691 0.013607335 0.44900003
-0.10490112 0.013607335 0.44900003
-0.10396416 0.013637641 0.45000002
-0.10279358 0.013637641 0.45000002
-0.10162299 0.013637641 0.45000002
-0.10067564 0.013667947 0.45100003
-0.099502452 0.013667947 0.45100003
-0.098547287 0.013698252 0.45200002
-0.097371496 0.013698252 0.45200002
-0.096195705 0.013698252 0.45200002
-0.09523014 0.013728558 0.45300001
-0.094051749 0.013728558 0.45300001
-0.093078382 0.013758864 0.45400003
-0.091897391 0.013758864 0.45400003
-0.090716399 0.013758864 0.45400003
-0.089732617 0.013789169 0.45500001
-0.088549025 0.013789169 0.45500001
-0.087365434 0.013789169 0.45500001
-0.08637125 0.013819476 0.45600003
-0.085185058 0.013819476 0.45600003
-0.084183075 0.013849781 0.45700002
-0.082994275 0.013849781 0.45700002
-0.081805483 0.013849781 0.45700002
-0.080616683 0.013849781 0.45700002
-0.07942789 0.013849781 0.45700002
-0.078410305 0.013880088 0.45800003
-0.077218905 0.013880088 0.45800003
-0.076027513 0.013880088 0.45800003
-0.074836113 0.013880088 0.45800003
-0.07364472 0.013880088 0.45800003
-0.072611511 0.013910393 0.45900002
-0.071417518 0.013910393 0.45900002
-0.070376508 0.013940698 0.46000001
-0.069179907 0.013940698 0.46000001
-0.068131104 0.013971005 0.46100003
-0.066931903 0.013971005 0.46100003
-0.065875284 0.014001311 0.46200001
-0.064673483 0.014001311 0.46200001
-0.063471682 0.014001311 0.46200001
-0.062269885 0.014001311 0.46200001
-0.06106808 0.014001311 0.46200001
-0.059995864 0.014031617 0.46300003
-0.058791459 0.014031617 0.46300003
-0.057587057 0.014031617 0.46300003
-0.056504428 0.014061922 0.46400002
-0.055297423 0.014061922 0.46400002
-0.054090418 0.014061922 0.46400002
-0.052997392 0.014092228 0.46500003
-0.051787786 0.014092228 0.46500003
-0.050578181 0.014092228 0.46500003
-0.049474742 0.014122535 0.46600002
-0.048262537 0.014122535 0.46600002
-0.047050327 0.014122535 0.46600002
-0.045838125 0.014122535 0.46600002
-0.044721678 0.01415284 0.46700001
-0.043506872 0.01415284 0.46700001
-0.042292062 0.01415284 0.46700001
-0.041077252 0.01415284 0.46700001
-0.039862446 0.01415284 0.46700001
-0.038647637 0.01415284 0.46700001
-0.037512988 0.014183146 0.46800002
-0.036295578 0.014183146 0.46800002
-0.035078168 0.014183146 0.46800002
-0.033860758 0.014183146 0.46800002
-0.032713097 0.014213451 0.46900001
-0.031493086 0.014213451 0.46900001
-0.03027308 0.014213451 0.46900001
-0.029115016 0.014243758 0.47000003
-0.027892403 0.014243758 0.47000003
-0.026726535 0.014274064 0.47100002
-0.02550132 0.014274064 0.47100002
-0.024276109 0.014274064 0.47100002
-0.023099836 0.01430437 0.47200003
-0.021872021 0.01430437 0.47200003
-0.020644207 0.01430437 0.47200003
-0.019457528 0.014334675 0.47300002
-0.018227112 0.014334675 0.47300002
-0.017032631 0.014364982 0.47400004
-0.015799614 0.014364982 0.47400004
-0.014597327 0.014395287 0.47500002
-0.013361708 0.014395287 0.47500002
-0.01212609 0.014395287 0.47500002
-0.010913399 0.014425592 0.47600001
-0.0096751787 0.014425592 0.47600001
-0.0084546842 0.014455899 0.47700003
-0.0072138631 0.014455899 0.47700003
-0.005973042 0.014455899 0.47700003
-0.0047421418 0.014486205 0.47800002
-0.0034987193 0.014486205 0.47800002
-0.0022600149 0.014516511 0.47900003
-0.0010139913 0.014516511 0.47900003
0.00023251677 0.014546816 0.48000002
0.0014811418 0.014546816 0.48000002
0.0027297668 0.014546816 0.48000002
0.0039783916 0.014546816 0.48000002
0.0052270168 0.014546816 0.48000002
0.006489133 0.014577122 0.48100004
0.0077403593 0.014577122 0.48100004
0.0089915851 0.014577122 0.48100004
0.010264106 0.014607429 0.48200002
0.011517935 0.014607429 0.48200002
0.012771761 0.014607429 0.48200002
0.014025589 0.014607429 0.48200002
0.015311116 0.014637734 0.48300001
0.016567547 0.014637734 0.48300001
0.017823974 0.014637734 0.48300001
0.019119907 0.01466804 0.48400003
0.020378938 0.01466804 0.48400003
0.021682674 0.014698345 0.48500001
0.022944305 0.014698345 0.48500001
0.024205938 0.014698345 0.48500001
0.025467567 0.014698345 0.48500001
0.026784312 0.014728652 0.48600003
0.028048547 0.014728652 0.48600003
0.029373091 0.014758958 0.48700002
0.030639928 0.014758958 0.48700002
0.031906758 0.014758958 0.48700002
0.033173595 0.014758958 0.48700002
0.034511149 0.014789264 0.48800004
0.035780586 0.014789264 0.48800004
0.037125941 0.014819569 0.48900002
0.038397979 0.014819569 0.48900002
0.039751139 0.014849875 0.49000001
0.041025776 0.014849875 0.49000001
0.042300414 0.014849875 0.49000001
0.043663982 0.014880181 0.49100003
0.045032751 0.014910487 0.49200001
0.046312593 0.014910487 0.49200001
0.047592431 0.014910487 0.49200001
0.04887227 0.014910487 0.49200001
0.050254051 0.014940793 0.49300003
0.051536493 0.014940793 0.49300003
0.052818935 0.014940793 0.49300003
0.054211114 0.014971099 0.49400002
0.05549616 0.014971099 0.49400002
0.056781199 0.014971099 0.49400002
0.058066241 0.014971099 0.49400002
0.059351288 0.014971099 0.49400002
0.060759079 0.015001405 0.49500003
0.062046718 0.015001405 0.49500003
0.063462317 0.01503171 0.49600002
0.064752556 0.01503171 0.49600002
0.066042811 0.01503171 0.49600002
0.0674688 0.015062016 0.49700001
0.068761647 0.015062016 0.49700001
0.070054494 0.015062016 0.49700001
0.071490899 0.015092322 0.49800003
0.072786354 0.015092322 0.49800003
0.074230552 0.015122628 0.49900001
0.075528607 0.015122628 0.49900001
0.076980613 0.015152933 0.5
0.078281261 0.015152933 0.5
0.079581916 0.015152933 0.5
0.081044339 0.01518324 0.50100005
0.082347594 0.01518324 0.50100005
0.08381781 0.015213545 0.50200003
0.085123666 0.015213545 0.50200003
0.086601682 0.015243852 0.50300002
0.087910138 0.015243852 0.50300002
0.08939597 0.015274157 0.50400001
0.090707019 0.015274157 0.50400001
0.092200652 0.015304462 0.505
0.093329132 0.015274157 0.50400001
0.094827965 0.015304462 0.505
0.096141621 0.015304462 0.505
0.097455278 0.015304462 0.505
0.098768942 0.015304462 0.505
0.10008259 0.015304462 0.505
0.10139626 0.015304462 0.505
0.10291331 0.015334769 0.50600004
0.10402357 0.015304462 0.505
0.10533722 0.015304462 0.505
0.10665088 0.015304462 0.505
0.10796455 0.015304462 0.505
0.10927819 0.015304462 0.505
0.11059185 0.015304462 0.505
0.11190552 0.015304462 0.505
0.11321916 0.015304462 0.505
0.11453283 0.015304462 0.505
0.1160759 0.015334769 0.50600004
0.11739216 0.015334769 0.50600004
0.11894301 0.015365075 0.50700003
0.10609724 0.011425312 0.377
0.10777199 0.011395006 0.37600002
0.10846085 0.0113647 0.37500003
0.10914452 0.011334394 0.37400001
0.10982297 0.011304089 0.37300003
0.11079326 0.011304089 0.37300003
0.1114639 0.011273783 0.37200001
0.11243158 0.011273783 0.37200001
0.11339927 0.011273783 0.37200001
0.11436696 0.011273783 0.37200001
0.11533464 0.011273783 0.37200001
0.11598969 0.011243477 0.37100002
0.11695477 0.011243477 0.37100002
0.15381339 0.014546816 0.48000002
0.15473898 0.014516511 0.47900003
0.15565935 0.014486205 0.47800002
0.15657453 0.014455899 0.47700003
0.15748449 0.014425592 0.47600001
0.15805581 0.014364982 0.47400004
0.15895277 0.014334675 0.47300002
0.15984453 0.01430437 0.47200003
0.16073111 0.014274064 0.47100002
0.16126859 0.014213451 0.46900001
0.16214216 0.014183146 0.46800002
0.16301049 0.01415284 0.46700001
0.16352199 0.014092228 0.46500003
0.16437733 0.014061922 0.46400002
0.1648706 0.014001311 0.46200001
0.16571295 0.013971005 0.46100003
0.16655007 0.013940698 0.46000001
0.16738202 0.013910393 0.45900002
0.16820875 0.013880088 0.45800003
0.16903028 0.013849781 0.45700002
0.16984659 0.013819476 0.45600003
0.17065771 0.013789169 0.45500001
0.17146365 0.013758864 0.45400003
0.17226435 0.013728558 0.45300001
0.17305987 0.013698252 0.45200002
0.17385018 0.013667947 0.45100003
0.17463528 0.013637641 0.45000002
0.17502452 0.013577028 0.44800001
0.17579663 0.013546723 0.44700003
0.17616764 0.013486112 0.44500002
0.17692673 0.013455805 0.44400004
0.17727953 0.013395194 0.44200003
0.17802563 0.013364888 0.44100001
0.17876652 0.013334582 0.44000003
0.17909332 0.01327397 0.43800002
0.17982118 0.013243664 0.43700001
0.18054385 0.013213358 0.43600002
0.18126135 0.013183053 0.43500003
0.18197362 0.013152746 0.43400002
0.18310258 0.013152746 0.43400002
0.18338254 0.013092134 0.43200001
0.18450631 0.013092134 0.43200001
0.18520038 0.013061829 0.43100002
0.18588923 0.013031523 0.43000001
0.18657289 0.013001218 0.42900002
0.18725136 0.012970911 0.42800003
0.18748452 0.0129103 0.42600003
0.18814994 0.012879994 0.42500001
0.1888102 0.012849688 0.42400002
0.18901733 0.012789076 0.42200002
0.18966457 0.012758771 0.42100003
0.19030662 0.012728464 0.42000002
0.19048773 0.012667852 0.41800001
0.19111677 0.012637547 0.41700003
0.19174059 0.01260724 0.41600001
0.19189569 0.01254663 0.41400003
0.19250652 0.012516323 0.41300002
0.19311215 0.012486017 0.41200003
0.19371255 0.012455711 0.41100001
0.19383384 0.0123951 0.40900001
0.19442126 0.012364795 0.40800002
-0.23301774 0.01372229 0.41700003
-0.23193298 0.01372229 0.41700003
-0.23084827 0.01372229 0.41700003
-0.22976351 0.01372229 0.41700003
-0.22867878 0.01372229 0.41700003
-0.22759403 0.01372229 0.41700003
-0.22650927 0.01372229 0.41700003
-0.22542454 0.01372229 0.41700003
-0.22487777 0.013755198 0.41800001
-0.22379044 0.013755198 0.41800001
-0.22270308 0.013755198 0.41800001
-0.22161573 0.013755198 0.41800001
-0.22052841 0.013755198 0.41800001
-0.21944106 0.013755198 0.41800001
-0.21835372 0.013755198 0.41800001
-0.21726637 0.013755198 0.41800001
-0.21617901 0.013755198 0.41800001
-0.21560627 0.013788105 0.41900003
-0.21451631 0.013788105 0.41900003
-0.21342638 0.013788105 0.41900003
-0.21284319 0.013821011 0.42000002
-0.21175063 0.013821011 0.42000002
-0.21115968 0.01385392 0.42100003
-0.21006452 0.01385392 0.42100003
-0.20946573 0.013886826 0.42200002
-0.20836799 0.013886826 0.42200002
-0.20727023 0.013886826 0.42200002
-0.20666103 0.013919733 0.42300001
-0.20556068 0.013919733 0.42300001
-0.20446034 0.013919733 0.42300001
-0.20335999 0.013919733 0.42300001
-0.20225964 0.013919733 0.42300001
-0.20163484 0.013952641 0.42400002
-0.20053189 0.013952641 0.42400002
-0.19942895 0.013952641 0.42400002
-0.19832599 0.013952641 0.42400002
-0.19722302 0.013952641 0.42400002
-0.19612008 0.013952641 0.42400002
-0.19501713 0.013952641 0.42400002
-0.19391418 0.013952641 0.42400002
-0.19281124 0.013952641 0.42400002
-0.19170827 0.013952641 0.42400002
-0.19060533 0.013952641 0.42400002
-0.1899493 0.013985547 0.42500001
-0.18884376 0.013985547 0.42500001
-0.18773821 0.013985547 0.42500001
-0.18707179 0.014018456 0.42600003
-0.18596363 0.014018456 0.42600003
-0.18528941 0.014051362 0.42700002
-0.18417865 0.014051362 0.42700002
-0.18349664 0.014084269 0.42800003
-0.18238327 0.014084269 0.42800003
-0.18126991 0.014084269 0.42800003
-0.18015656 0.014084269 0.42800003
-0.1790432 0.014084269 0.42800003
-0.17834558 0.014117177 0.42900002
-0.1772296 0.014117177 0.42900002
-0.17611365 0.014117177 0.42900002
-0.17540561 0.014150083 0.43000001
-0.17428705 0.014150083 0.43000001
-0.17316848 0.014150083 0.43000001
-0.17245004 0.01418299 0.43100002
-0.17132889 0.01418299 0.43100002
-0.17060263 0.014215898 0.43200001
-0.16947888 0.014215898 0.43200001
-0.16835511 0.014215898 0.43200001
-0.16723134 0.014215898 0.43200001
-0.16610758 0.014215898 0.43200001
-0.16536574 0.014248805 0.43300003
-0.16423938 0.014248805 0.43300003
-0.1634897 0.014281712 0.43400002
-0.16236074 0.014281712 0.43400002
-0.16123177 0.014281712 0.43400002
-0.16047172 0.01431462 0.43500003
-0.15934016 0.01431462 0.43500003
-0.15820858 0.01431462 0.43500003
-0.15707701 0.01431462 0.43500003
-0.15594545 0.01431462 0.43500003
-0.15516979 0.014347526 0.43600002
-0.1540356 0.014347526 0.43600002
-0.15290144 0.014347526 0.43600002
-0.15176727 0.014347526 0.43600002
-0.15063311 0.014347526 0.43600002
-0.14949894 0.014347526 0.43600002
-0.14836477 0.014347526 0.43600002
-0.14756827 0.014380434 0.43700001
-0.14643151 0.014380434 0.43700001
-0.14529474 0.014380434 0.43700001
-0.14448786 0.014413341 0.43800002
