# .PCD v0.7 - Point Cloud Data file format
VERSION 0.7
FIELDS x y z
SIZE 4 4 4
TYPE F F F
COUNT 1 1 1
WIDTH 1333
HEIGHT 1
VIEWPOINT 0 0 0 1 0 0 0
POINTS 1333
DATA ascii
-0.21466582 -0.026182134 0.43200001
-0.21353957 -0.026182134 0.43200001
-0.21241331 -0.026182134 0.43200001
-0.21177617 -0.02624274 0.43300003
-0.2106473 -0.02624274 0.43300003
-0.20951843 -0.02624274 0.43300003
-0.20838958 -0.02624274 0.43300003
-0.20726071 -0.02624274 0.43300003
-0.20613186 -0.02624274 0.43300003
-0.20547645 -0.026303347 0.43400002
-0.20434499 -0.026303347 0.43400002
-0.20321351 -0.026303347 0.43400002
-0.20208205 -0.026303347 0.43400002
-0.20095058 -0.026303347 0.43400002
-0.19981912 -0.026303347 0.43400002
-0.19868766 -0.026303347 0.43400002
-0.1975562 -0.026303347 0.43400002
-0.19642472 -0.026303347 0.43400002
-0.19529325 -0.026303347 0.43400002
-0.19416179 -0.026303347 0.43400002
-0.19303031 -0.026303347 0.43400002
-0.19145671 -0.02624274 0.43300003
-0.19076739 -0.026303347 0.43400002
-0.18963593 -0.026303347 0.43400002
-0.18850446 -0.026303347 0.43400002
-0.187373 -0.026303347 0.43400002
-0.18624152 -0.026303347 0.43400002
-0.18511008 -0.026303347 0.43400002
-0.1839786 -0.026303347 0.43400002
-0.18284714 -0.026303347 0.43400002
-0.18171567 -0.026303347 0.43400002
-0.18058419 -0.026303347 0.43400002
-0.17945273 -0.026303347 0.43400002
-0.17832127 -0.026303347 0.43400002
-0.17678154 -0.02624274 0.43300003
-0.17565268 -0.02624274 0.43300003
-0.17452383 -0.02624274 0.43300003
-0.17339496 -0.02624274 0.43300003
-0.17226611 -0.02624274 0.43300003
-0.17153248 -0.026303347 0.43400002
-0.17040102 -0.026303347 0.43400002
-0.16926955 -0.026303347 0.43400002
-0.16813809 -0.026303347 0.43400002
-0.16700661 -0.026303347 0.43400002
-0.16587514 -0.026303347 0.43400002
-0.16474369 -0.026303347 0.43400002
-0.16361222 -0.026303347 0.43400002
-0.16248076 -0.026303347 0.43400002
-0.16134928 -0.026303347 0.43400002
-0.16021782 -0.026303347 0.43400002
-0.15908635 -0.026303347 0.43400002
-0.15795489 -0.026303347 0.43400002
-0.15682343 -0.026303347 0.43400002
-0.15569197 -0.026303347 0.43400002
-0.15456049 -0.026303347 0.43400002
-0.15342903 -0.026303347 0.43400002
-0.15229756 -0.026303347 0.43400002
-0.1511661 -0.026303347 0.43400002
-0.15003464 -0.026303347 0.43400002
-0.14890316 -0.026303347 0.43400002
-0.1477717 -0.026303347 0.43400002
-0.14664023 -0.026303347 0.43400002
-0.14550877 -0.026303347 0.43400002
-0.14437731 -0.026303347 0.43400002
-0.14324585 -0.026303347 0.43400002
-0.14211437 -0.026303347 0.43400002
-0.14098291 -0.026303347 0.43400002
-0.13985144 -0.026303347 0.43400002
-0.13903962 -0.026363956 0.43500003
-0.13790554 -0.026363956 0.43500003
-0.13677146 -0.026363956 0.43500003
-0.13563739 -0.026363956 0.43500003
-0.13450332 -0.026363956 0.43500003
-0.13336925 -0.026363956 0.43500003
-0.13223517 -0.026363956 0.43500003
-0.1311011 -0.026363956 0.43500003
-0.12996702 -0.026363956 0.43500003
-0.12883297 -0.026363956 0.43500003
-0.12740532 -0.026303347 0.43400002
-0.12627386 -0.026303347 0.43400002
-0.12514238 -0.026303347 0.43400002
-0.12401093 -0.026303347 0.43400002
-0.12287945 -0.026303347 0.43400002
-0.12174799 -0.026303347 0.43400002
-0.12089445 -0.026363956 0.43500003
-0.11976037 -0.026363956 0.43500003
-0.1186263 -0.026363956 0.43500003
-0.11749222 -0.026363956 0.43500003
-0.11635816 -0.026363956 0.43500003
-0.11522408 -0.026363956 0.43500003
-0.11409001 -0.026363956 0.43500003
-0.11295594 -0.026363956 0.43500003
-0.11182187 -0.026363956 0.43500003
-0.11068779 -0.026363956 0.43500003
-0.10955372 -0.026363956 0.43500003
-0.10817041 -0.026303347 0.43400002
-0.10728557 -0.026363956 0.43500003
-0.1061515 -0.026363956 0.43500003
-0.10501743 -0.026363956 0.43500003
-0.10388336 -0.026363956 0.43500003
-0.10274929 -0.026363956 0.43500003
-0.10161521 -0.026363956 0.43500003
-0.10048113 -0.026363956 0.43500003
-0.099347062 -0.026363956 0.43500003
-0.098212987 -0.026363956 0.43500003
-0.097078919 -0.026363956 0.43500003
-0.095944844 -0.026363956 0.43500003
-0.094810769 -0.026363956 0.43500003
-0.093676701 -0.026363956 0.43500003
-0.092542626 -0.026363956 0.43500003
-0.091408558 -0.026363956 0.43500003
-0.090274483 -0.026363956 0.43500003
-0.089140408 -0.026363956 0.43500003
-0.08800634 -0.026363956 0.43500003
-0.086872265 -0.026363956 0.43500003
-0.08573819 -0.026363956 0.43500003
-0.084604114 -0.026363956 0.43500003
-0.083470047 -0.026363956 0.43500003
-0.082335971 -0.026363956 0.43500003
-0.081201896 -0.026363956 0.43500003
-0.080067828 -0.026363956 0.43500003
-0.078933753 -0.026363956 0.43500003
-0.077799685 -0.026363956 0.43500003
-0.07666561 -0.026363956 0.43500003
-0.075531535 -0.026363956 0.43500003
-0.074397467 -0.026363956 0.43500003
-0.073263392 -0.026363956 0.43500003
-0.072295137 -0.026424561 0.43600002
-0.071158446 -0.026424561 0.43600002
-0.070021771 -0.026424561 0.43600002
-0.068885088 -0.026424561 0.43600002
-0.067748412 -0.026424561 0.43600002
-0.06661173 -0.026424561 0.43600002
-0.065475054 -0.026424561 0.43600002
-0.064338371 -0.026424561 0.43600002
-0.063201696 -0.026424561 0.43600002
-0.061922666 -0.026363956 0.43500003
-0.06078859 -0.026363956 0.43500003
-0.059654519 -0.026363956 0.43500003
-0.058520447 -0.026363956 0.43500003
-0.057386376 -0.026363956 0.43500003
-0.056252297 -0.026363956 0.43500003
-0.05524493 -0.026424561 0.43600002
-0.054108255 -0.026424561 0.43600002
-0.052850083 -0.026363956 0.43500003
-0.051716007 -0.026363956 0.43500003
-0.050581936 -0.026363956 0.43500003
-0.049447864 -0.026363956 0.43500003
-0.048313789 -0.026363956 0.43500003
-0.047179718 -0.026363956 0.43500003
-0.046045646 -0.026363956 0.43500003
-0.044911571 -0.026363956 0.43500003
-0.043777499 -0.026363956 0.43500003
-0.042643428 -0.026363956 0.43500003
-0.041604776 -0.026424561 0.43600002
-0.040468097 -0.026424561 0.43600002
-0.039331418 -0.026424561 0.43600002
-0.038194738 -0.026424561 0.43600002
-0.036973063 -0.026363956 0.43500003
-0.035921376 -0.026424561 0.43600002
-0.034784697 -0.026424561 0.43600002
-0.033648018 -0.026424561 0.43600002
-0.032511339 -0.026424561 0.43600002
-0.031374659 -0.026424561 0.43600002
-0.030237976 -0.026424561 0.43600002
-0.029101297 -0.026424561 0.43600002
-0.027964618 -0.026424561 0.43600002
-0.026827939 -0.026424561 0.43600002
-0.02569126 -0.026424561 0.43600002
-0.024610896 -0.026485167 0.43700001
-0.023471611 -0.026485167 0.43700001
-0.022332324 -0.026485167 0.43700001
-0.021144539 -0.026424561 0.43600002
-0.02005375 -0.026485167 0.43700001
-0.018914463 -0.026485167 0.43700001
-0.017775176 -0.026485167 0.43700001
-0.016635889 -0.026485167 0.43700001
-0.015461142 -0.026424561 0.43600002
-0.014324462 -0.026424561 0.43600002
-0.013218028 -0.026485167 0.43700001
-0.012078742 -0.026485167 0.43700001
-0.010939455 -0.026485167 0.43700001
-0.0097777424 -0.026424561 0.43600002
-0.0086410632 -0.026424561 0.43600002
-0.0075043826 -0.026424561 0.43600002
-0.006367703 -0.026424561 0.43600002
-0.0052310233 -0.026424561 0.43600002
-0.0040943436 -0.026424561 0.43600002
-0.0029644475 -0.026485167 0.43700001
-0.0018209841 -0.026424561 0.43600002
-0.00068430422 -0.026424561 0.43600002
0.00045237553 -0.026424561 0.43600002
0.0015890553 -0.026424561 0.43600002
0.0027257351 -0.026424561 0.43600002
0.003862415 -0.026424561 0.43600002
0.0049990946 -0.026424561 0.43600002
0.0061357743 -0.026424561 0.43600002
0.0072724544 -0.026424561 0.43600002
0.0084091341 -0.026424561 0.43600002
0.0095677078 -0.026485167 0.43700001
0.010706995 -0.026485167 0.43700001
0.011846281 -0.026485167 0.43700001
0.012985568 -0.026485167 0.43700001
0.014124854 -0.026485167 0.43700001
0.01526414 -0.026485167 0.43700001
0.016403429 -0.026485167 0.43700001
0.017542714 -0.026485167 0.43700001
0.018682001 -0.026485167 0.43700001
0.01982129 -0.026485167 0.43700001
0.020960575 -0.026485167 0.43700001
0.022099862 -0.026485167 0.43700001
0.023239151 -0.026485167 0.43700001
0.024378436 -0.026485167 0.43700001
0.025517723 -0.026485167 0.43700001
0.026657011 -0.026485167 0.43700001
0.027796295 -0.026485167 0.43700001
0.028869372 -0.026424561 0.43600002
0.030006051 -0.026424561 0.43600002
0.031071303 -0.026363956 0.43500003
0.032131337 -0.026303347 0.43400002
0.033186164 -0.02624274 0.43300003
0.03415652 -0.026121527 0.43100002
0.035198309 -0.02606092 0.43000001
0.036234885 -0.026000313 0.42900002
0.037266243 -0.025939707 0.42800003
0.038292389 -0.0258791 0.42700002
0.039405603 -0.0258791 0.42700002
0.069914527 -0.025636673 0.42300001
0.07101731 -0.025636673 0.42300001
0.072290599 -0.02569728 0.42400002
0.073569097 -0.025757886 0.42500001
0.074677102 -0.025757886 0.42500001
0.075785108 -0.025757886 0.42500001
0.076893106 -0.025757886 0.42500001
0.078184642 -0.025818493 0.42600003
0.079481386 -0.0258791 0.42700002
0.080594607 -0.0258791 0.42700002
0.081899174 -0.025939707 0.42800003
0.083208956 -0.026000313 0.42900002
0.084523953 -0.02606092 0.43000001
0.08564499 -0.02606092 0.43000001
0.086967811 -0.026121527 0.43100002
0.088091455 -0.026121527 0.43100002
0.0892151 -0.026121527 0.43100002
0.090548351 -0.026182134 0.43200001
0.091674604 -0.026182134 0.43200001
0.092800848 -0.026182134 0.43200001
0.0939271 -0.026182134 0.43200001
0.095053352 -0.026182134 0.43200001
0.095956966 -0.026121527 0.43100002
0.097080611 -0.026121527 0.43100002
0.098204255 -0.026121527 0.43100002
0.099097438 -0.02606092 0.43000001
0.10021847 -0.02606092 0.43000001
0.10133951 -0.02606092 0.43000001
0.10246055 -0.02606092 0.43000001
0.1033407 -0.026000313 0.42900002
0.10421564 -0.025939707 0.42800003
0.10533147 -0.025939707 0.42800003
0.10619858 -0.0258791 0.42700002
0.10731179 -0.0258791 0.42700002
0.10842501 -0.0258791 0.42700002
0.1092817 -0.025818493 0.42600003
0.11013316 -0.025757886 0.42500001
0.11124118 -0.025757886 0.42500001
0.11208482 -0.02569728 0.42400002
0.11292326 -0.025636673 0.42300001
0.11375648 -0.025576066 0.42200002
0.11485667 -0.025576066 0.42200002
0.11568207 -0.025515459 0.42100003
0.11650226 -0.025454853 0.42000002
0.11703723 -0.025333639 0.41800001
0.11784439 -0.025273032 0.41700003
0.11864632 -0.025212424 0.41600001
0.11915524 -0.025091212 0.41400003
0.11994413 -0.025030605 0.41300002
0.12043479 -0.02490939 0.41100001
0.12121067 -0.024848785 0.41000003
0.12168307 -0.024727572 0.40800002
0.12184421 -0.024545752 0.40500003
0.12229315 -0.024424538 0.40300003
0.12273168 -0.024303325 0.40100002
0.12315976 -0.024182109 0.39900002
0.12357742 -0.024060896 0.39700001
0.12398465 -0.023939682 0.39500001
0.12469796 -0.023879075 0.39400002
0.12508693 -0.023757862 0.39200002
0.12578721 -0.023697257 0.39100003
0.12615794 -0.023576042 0.38900003
0.12684517 -0.023515435 0.38800001
0.12752718 -0.023454828 0.38700002
0.12820397 -0.023394221 0.38600001
0.12854081 -0.023273008 0.384
0.12920459 -0.023212401 0.38300002
0.12986314 -0.023151794 0.38200003
0.13051647 -0.023091188 0.38100001
0.13081942 -0.022969974 0.37900001
0.13145971 -0.022909367 0.37800002
0.13174443 -0.022788154 0.37600002
0.13237168 -0.022727547 0.37500003
0.13299374 -0.02266694 0.37400001
0.13325235 -0.022545725 0.37200001
0.13386138 -0.02248512 0.37100002
0.13446519 -0.022424512 0.37
0.13506377 -0.022363907 0.36900002
0.13528851 -0.022242693 0.36700001
0.13550282 -0.022121478 0.36500001
0.13570671 -0.022000264 0.36300001
0.13590017 -0.021879053 0.36100003
0.13646226 -0.021818444 0.36000001
0.13663745 -0.021697231 0.35800001
0.13718651 -0.021636626 0.35700002
0.13734345 -0.02151541 0.35500002
0.13748999 -0.021394197 0.35300002
0.13801819 -0.021333592 0.35200003
0.13854116 -0.021272983 0.35100001
0.13905895 -0.021212377 0.35000002
0.13957149 -0.02115177 0.34900001
0.14007883 -0.021091163 0.34800002
0.14058095 -0.021030556 0.347
0.14067014 -0.020909345 0.34500003
0.14074887 -0.020788129 0.34300002
0.1408172 -0.020666916 0.34100002
0.14045952 -0.020485096 0.33800003
0.14050438 -0.020363882 0.33600003
0.14053878 -0.020242669 0.33400002
0.14056279 -0.020121455 0.33200002
0.14100234 -0.020060848 0.33100003
0.14100809 -0.019939635 0.32900003
0.14143461 -0.019879028 0.32800001
0.14185591 -0.019818421 0.32700002
0.14227201 -0.019757813 0.32600001
0.14268288 -0.019697208 0.32500002
0.14308855 -0.019636599 0.324
0.143489 -0.019575994 0.32300001
0.14343739 -0.019454779 0.32100001
0.1438248 -0.019394174 0.32000002
0.144207 -0.019333566 0.31900001
0.14458399 -0.019272961 0.31800002
-0.24451305 -0.025113882 0.43300003
-0.2433842 -0.025113882 0.43300003
-0.24225534 -0.025113882 0.43300003
-0.24112648 -0.025113882 0.43300003
-0.23999763 -0.025113882 0.43300003
-0.23886877 -0.025113882 0.43300003
-0.23773989 -0.025113882 0.43300003
-0.23661104 -0.025113882 0.43300003
-0.23493834 -0.025055882 0.43200001
-0.23381209 -0.025055882 0.43200001
-0.23268582 -0.025055882 0.43200001
-0.23155957 -0.025055882 0.43200001
-0.22989993 -0.024997883 0.43100002
-0.22877629 -0.024997883 0.43100002
-0.22765264 -0.024997883 0.43100002
-0.226529 -0.024997883 0.43100002
-0.22540537 -0.024997883 0.43100002
-0.22428171 -0.024997883 0.43100002
-0.22315806 -0.024997883 0.43100002
-0.22203442 -0.024997883 0.43100002
-0.22091079 -0.024997883 0.43100002
-0.21978712 -0.024997883 0.43100002
-0.21866348 -0.024997883 0.43100002
-0.21804456 -0.025055882 0.43200001
-0.21691832 -0.025055882 0.43200001
-0.21579207 -0.025055882 0.43200001
-0.21466582 -0.025055882 0.43200001
-0.21403387 -0.025113882 0.43300003
-0.21290502 -0.025113882 0.43300003
-0.21177617 -0.025113882 0.43300003
-0.2106473 -0.025113882 0.43300003
-0.20951843 -0.025113882 0.43300003
-0.20838958 -0.025113882 0.43300003
-0.20773937 -0.025171882 0.43400002
-0.20660791 -0.025171882 0.43400002
-0.20547645 -0.025171882 0.43400002
-0.20434499 -0.025171882 0.43400002
-0.20321351 -0.025171882 0.43400002
-0.20208205 -0.025171882 0.43400002
-0.20095058 -0.025171882 0.43400002
-0.19981912 -0.025171882 0.43400002
-0.19868766 -0.025171882 0.43400002
-0.1975562 -0.025171882 0.43400002
-0.19642472 -0.025171882 0.43400002
-0.19529325 -0.025171882 0.43400002
-0.19416179 -0.025171882 0.43400002
-0.19303031 -0.025171882 0.43400002
-0.19189887 -0.025171882 0.43400002
-0.19076739 -0.025171882 0.43400002
-0.18963593 -0.025171882 0.43400002
-0.18850446 -0.025171882 0.43400002
-0.187373 -0.025171882 0.43400002
-0.18624152 -0.025171882 0.43400002
-0.18511008 -0.025171882 0.43400002
-0.1839786 -0.025171882 0.43400002
-0.18284714 -0.025171882 0.43400002
-0.18171567 -0.025171882 0.43400002
-0.18058419 -0.025171882 0.43400002
-0.17945273 -0.025171882 0.43400002
-0.17832127 -0.025171882 0.43400002
-0.17678154 -0.025113882 0.43300003
-0.17565268 -0.025113882 0.43300003
-0.17452383 -0.025113882 0.43300003
-0.17339496 -0.025113882 0.43300003
-0.17226611 -0.025113882 0.43300003
-0.17153248 -0.025171882 0.43400002
-0.17040102 -0.025171882 0.43400002
-0.16926955 -0.025171882 0.43400002
-0.16813809 -0.025171882 0.43400002
-0.16700661 -0.025171882 0.43400002
-0.16587514 -0.025171882 0.43400002
-0.16474369 -0.025171882 0.43400002
-0.16361222 -0.025171882 0.43400002
-0.16248076 -0.025171882 0.43400002
-0.16134928 -0.025171882 0.43400002
-0.16021782 -0.025171882 0.43400002
-0.15908635 -0.025171882 0.43400002
-0.15795489 -0.025171882 0.43400002
-0.15682343 -0.025171882 0.43400002
-0.15569197 -0.025171882 0.43400002
-0.15456049 -0.025171882 0.43400002
-0.15342903 -0.025171882 0.43400002
-0.15229756 -0.025171882 0.43400002
-0.1511661 -0.025171882 0.43400002
-0.15003464 -0.025171882 0.43400002
-0.14890316 -0.025171882 0.43400002
-0.1477717 -0.025171882 0.43400002
-0.14664023 -0.025171882 0.43400002
-0.14550877 -0.025171882 0.43400002
-0.14437731 -0.025171882 0.43400002
-0.14324585 -0.025171882 0.43400002
-0.14211437 -0.025171882 0.43400002
-0.14098291 -0.025171882 0.43400002
-0.13985144 -0.025171882 0.43400002
-0.13903962 -0.025229882 0.43500003
-0.13790554 -0.025229882 0.43500003
-0.13677146 -0.025229882 0.43500003
-0.13563739 -0.025229882 0.43500003
-0.13450332 -0.025229882 0.43500003
-0.13336925 -0.025229882 0.43500003
-0.13223517 -0.025229882 0.43500003
-0.1311011 -0.025229882 0.43500003
-0.12996702 -0.025229882 0.43500003
-0.12883297 -0.025229882 0.43500003
-0.12769888 -0.025229882 0.43500003
-0.12656482 -0.025229882 0.43500003
-0.12514238 -0.025171882 0.43400002
-0.12401093 -0.025171882 0.43400002
-0.12287945 -0.025171882 0.43400002
-0.12202851 -0.025229882 0.43500003
-0.12089445 -0.025229882 0.43500003
-0.11976037 -0.025229882 0.43500003
-0.1186263 -0.025229882 0.43500003
-0.11749222 -0.025229882 0.43500003
-0.11635816 -0.025229882 0.43500003
-0.11522408 -0.025229882 0.43500003
-0.11409001 -0.025229882 0.43500003
-0.11295594 -0.025229882 0.43500003
-0.11182187 -0.025229882 0.43500003
-0.11043333 -0.025171882 0.43400002
-0.10955372 -0.025229882 0.43500003
-0.10817041 -0.025171882 0.43400002
-0.10728557 -0.025229882 0.43500003
-0.1061515 -0.025229882 0.43500003
-0.10501743 -0.025229882 0.43500003
-0.10388336 -0.025229882 0.43500003
-0.10274929 -0.025229882 0.43500003
-0.10161521 -0.025229882 0.43500003
-0.10048113 -0.025229882 0.43500003
-0.099347062 -0.025229882 0.43500003
-0.098212987 -0.025229882 0.43500003
-0.097078919 -0.025229882 0.43500003
-0.095944844 -0.025229882 0.43500003
-0.094810769 -0.025229882 0.43500003
-0.093676701 -0.025229882 0.43500003
-0.092542626 -0.025229882 0.43500003
-0.091408558 -0.025229882 0.43500003
-0.090274483 -0.025229882 0.43500003
-0.089140408 -0.025229882 0.43500003
-0.08800634 -0.025229882 0.43500003
-0.086872265 -0.025229882 0.43500003
-0.08573819 -0.025229882 0.43500003
-0.084604114 -0.025229882 0.43500003
-0.083470047 -0.025229882 0.43500003
-0.082335971 -0.025229882 0.43500003
-0.081201896 -0.025229882 0.43500003
-0.080067828 -0.025229882 0.43500003
-0.078933753 -0.025229882 0.43500003
-0.077799685 -0.025229882 0.43500003
-0.07666561 -0.025229882 0.43500003
-0.075531535 -0.025229882 0.43500003
-0.074397467 -0.025229882 0.43500003
-0.073263392 -0.025229882 0.43500003
-0.072295137 -0.025287881 0.43600002
-0.071158446 -0.025287881 0.43600002
-0.070021771 -0.025287881 0.43600002
-0.068885088 -0.025287881 0.43600002
-0.067748412 -0.025287881 0.43600002
-0.06661173 -0.025287881 0.43600002
-0.065475054 -0.025287881 0.43600002
-0.064338371 -0.025287881 0.43600002
-0.063201696 -0.025287881 0.43600002
-0.061922666 -0.025229882 0.43500003
-0.06078859 -0.025229882 0.43500003
-0.059654519 -0.025229882 0.43500003
-0.058520447 -0.025229882 0.43500003
-0.057386376 -0.025229882 0.43500003
-0.056252297 -0.025229882 0.43500003
-0.05524493 -0.025287881 0.43600002
-0.054108255 -0.025287881 0.43600002
-0.052850083 -0.025229882 0.43500003
-0.051716007 -0.025229882 0.43500003
-0.050581936 -0.025229882 0.43500003
-0.049447864 -0.025229882 0.43500003
-0.048313789 -0.025229882 0.43500003
-0.047179718 -0.025229882 0.43500003
-0.046151496 -0.025287881 0.43600002
-0.045014814 -0.025287881 0.43600002
-0.043878134 -0.025287881 0.43600002
-0.042741455 -0.025287881 0.43600002
-0.041604776 -0.025287881 0.43600002
-0.040468097 -0.025287881 0.43600002
-0.039331418 -0.025287881 0.43600002
-0.038194738 -0.025287881 0.43600002
-0.036973063 -0.025229882 0.43500003
-0.035921376 -0.025287881 0.43600002
-0.034784697 -0.025287881 0.43600002
-0.033648018 -0.025287881 0.43600002
-0.032511339 -0.025287881 0.43600002
-0.031374659 -0.025287881 0.43600002
-0.030237976 -0.025287881 0.43600002
-0.029101297 -0.025287881 0.43600002
-0.027964618 -0.025287881 0.43600002
-0.026827939 -0.025287881 0.43600002
-0.02569126 -0.025287881 0.43600002
-0.024610896 -0.025345881 0.43700001
-0.023471611 -0.025345881 0.43700001
-0.022332324 -0.025345881 0.43700001
-0.021144539 -0.025287881 0.43600002
-0.02005375 -0.025345881 0.43700001
-0.018914463 -0.025345881 0.43700001
-0.017775176 -0.025345881 0.43700001
-0.01659782 -0.025287881 0.43600002
-0.015461142 -0.025287881 0.43600002
-0.014324462 -0.025287881 0.43600002
-0.013187782 -0.025287881 0.43600002
-0.012078742 -0.025345881 0.43700001
-0.010939455 -0.025345881 0.43700001
-0.0097777424 -0.025287881 0.43600002
-0.0086410632 -0.025287881 0.43600002
-0.0075043826 -0.025287881 0.43600002
-0.006367703 -0.025287881 0.43600002
-0.0052310233 -0.025287881 0.43600002
-0.0041037342 -0.025345881 0.43700001
-0.0029644475 -0.025345881 0.43700001
-0.0018251606 -0.025345881 0.43700001
-0.00068587373 -0.025345881 0.43700001
0.00045237553 -0.025287881 0.43600002
0.0015890553 -0.025287881 0.43600002
0.0027257351 -0.025287881 0.43600002
0.003862415 -0.025287881 0.43600002
0.0049990946 -0.025287881 0.43600002
0.0061357743 -0.025287881 0.43600002
0.0072724544 -0.025287881 0.43600002
0.0084091341 -0.025287881 0.43600002
0.0095677078 -0.025345881 0.43700001
0.010706995 -0.025345881 0.43700001
0.011846281 -0.025345881 0.43700001
0.012985568 -0.025345881 0.43700001
0.014124854 -0.025345881 0.43700001
0.01526414 -0.025345881 0.43700001
0.016403429 -0.025345881 0.43700001
0.017542714 -0.025345881 0.43700001
0.018682001 -0.025345881 0.43700001
0.01982129 -0.025345881 0.43700001
0.020960575 -0.025345881 0.43700001
0.022099862 -0.025345881 0.43700001
0.023239151 -0.025345881 0.43700001
0.024378436 -0.025345881 0.43700001
0.025517723 -0.025345881 0.43700001
0.026657011 -0.025345881 0.43700001
0.027732689 -0.025287881 0.43600002
0.028869372 -0.025287881 0.43600002
0.02993723 -0.025229882 0.43500003
0.031071303 -0.025229882 0.43500003
0.032131337 -0.025171882 0.43400002
0.03310952 -0.025055882 0.43200001
0.03415652 -0.024997883 0.43100002
0.035116456 -0.024881884 0.42900002
0.036150422 -0.024823885 0.42800003
0.037179172 -0.024765885 0.42700002
0.038292389 -0.024765885 0.42700002
0.067548886 -0.024475886 0.42200002
0.068811737 -0.024533885 0.42300001
0.071353093 -0.024649885 0.42500001
0.072461091 -0.024649885 0.42500001
0.073742203 -0.024707885 0.42600003
0.074852817 -0.024707885 0.42600003
0.075963423 -0.024707885 0.42600003
0.077074036 -0.024707885 0.42600003
0.078368172 -0.024765885 0.42700002
0.079481386 -0.024765885 0.42700002
0.080783352 -0.024823885 0.42800003
0.082090527 -0.024881884 0.42900002
0.083402917 -0.024939884 0.43000001
0.084523953 -0.024939884 0.43000001
0.085844167 -0.024997883 0.43100002
0.087169588 -0.025055882 0.43200001
0.08829584 -0.025055882 0.43200001
0.089629091 -0.025113882 0.43300003
0.090757959 -0.025113882 0.43300003
0.091886811 -0.025113882 0.43300003
0.093015671 -0.025113882 0.43300003
0.094144531 -0.025113882 0.43300003
0.09527339 -0.025113882 0.43300003
0.096402243 -0.025113882 0.43300003
0.097531103 -0.025113882 0.43300003
0.098432109 -0.025055882 0.43200001
0.099558353 -0.025055882 0.43200001
0.10068461 -0.025055882 0.43200001
0.10157519 -0.024997883 0.43100002
0.10269883 -0.024997883 0.43100002
0.10358158 -0.024939884 0.43000001
0.10470263 -0.024939884 0.43000001
0.10557757 -0.024881884 0.42900002
0.10669599 -0.024881884 0.42900002
0.10756311 -0.024823885 0.42800003
0.10867894 -0.024823885 0.42800003
0.10953822 -0.024765885 0.42700002
0.11039231 -0.024707885 0.42600003
0.11150292 -0.024707885 0.42600003
0.11234917 -0.024649885 0.42500001
0.11345718 -0.024649885 0.42500001
0.11429561 -0.024591886 0.42400002
0.11512884 -0.024533885 0.42300001
0.11595684 -0.024475886 0.42200002
0.11677965 -0.024417887 0.42100003
0.11759721 -0.024359886 0.42000002
0.11840959 -0.024301887 0.41900003
0.11893152 -0.024185887 0.41700003
0.11973086 -0.024127888 0.41600001
0.12052497 -0.024069889 0.41500002
0.12102085 -0.023953889 0.41300002
0.1215063 -0.023837889 0.41100001
0.12227956 -0.02377989 0.41000003
0.1224459 -0.023605889 0.40700001
0.12290007 -0.023489891 0.40500003
0.1233438 -0.023373891 0.40300003
0.1237771 -0.023257891 0.40100002
0.12419998 -0.023141893 0.39900002
0.12461242 -0.023025893 0.39700001
0.12533094 -0.022967894 0.39600003
0.12572514 -0.022851894 0.39400002
0.12643062 -0.022793893 0.39300001
0.12713087 -0.022735894 0.39200002
0.12782593 -0.022677895 0.39100003
0.12818624 -0.022561895 0.38900003
0.12886824 -0.022503894 0.38800001
0.12954505 -0.022445895 0.38700002
0.12987928 -0.022329897 0.38500002
0.13054304 -0.022271896 0.384
0.13085903 -0.022155898 0.38200003
0.13150977 -0.022097897 0.38100001
0.13215527 -0.022039898 0.38000003
0.13244519 -0.021923898 0.37800002
0.13307767 -0.021865897 0.377
0.13370493 -0.021807898 0.37600002
0.13396877 -0.021691898 0.37400001
0.13458301 -0.021633899 0.37300003
0.13519202 -0.021575898 0.37200001
0.13579583 -0.021517899 0.37100002
0.13602579 -0.021401901 0.36900002
0.1362453 -0.021285901 0.36700001
0.1364544 -0.021169901 0.36500001
0.13665307 -0.021053901 0.36300001
0.13684131 -0.020937903 0.36100003
0.13740079 -0.020879902 0.36000001
0.13757078 -0.020763902 0.35800001
0.13811722 -0.020705903 0.35700002
0.13826898 -0.020589905 0.35500002
0.13880236 -0.020531904 0.354
0.13933058 -0.020473905 0.35300002
0.13985357 -0.020415906 0.35200003
0.14037132 -0.020357905 0.35100001
0.14088389 -0.020299906 0.35000002
0.14139122 -0.020241905 0.34900001
0.1414856 -0.020125905 0.347
0.1419799 -0.020067906 0.34600002
0.14205605 -0.019951906 0.34400001
0.14253731 -0.019893907 0.34300002
0.14175887 -0.019661909 0.33900002
0.14185432 -0.019313909 0.333
0.14229387 -0.01925591 0.33200002
0.14229701 -0.01913991 0.33000001
0.14272355 -0.019081911 0.32900003
0.14314485 -0.01902391 0.32800001
0.14356093 -0.018965911 0.32700002
0.14353019 -0.018849913 0.32500002
0.14393324 -0.018791912 0.324
0.14388424 -0.018675914 0.32200003
0.14427425 -0.018617913 0.32100001
0.14465907 -0.018559914 0.32000002
0.14503865 -0.018501913 0.31900001
-0.24451305 -0.023985025 0.43300003
-0.2433842 -0.023985025 0.43300003
-0.24225534 -0.023985025 0.43300003
-0.24112648 -0.023985025 0.43300003
-0.23999763 -0.023985025 0.43300003
-0.23886877 -0.023985025 0.43300003
-0.23773989 -0.023985025 0.43300003
-0.23661104 -0.023985025 0.43300003
-0.23548219 -0.023985025 0.43300003
-0.23381209 -0.023929631 0.43200001
-0.23268582 -0.023929631 0.43200001
-0.23155957 -0.023929631 0.43200001
-0.23043334 -0.023929631 0.43200001
-0.22877629 -0.02387424 0.43100002
-0.22765264 -0.02387424 0.43100002
-0.226529 -0.02387424 0.43100002
-0.22540537 -0.02387424 0.43100002
-0.22428171 -0.02387424 0.43100002
-0.22315806 -0.02387424 0.43100002
-0.22203442 -0.02387424 0.43100002
-0.22091079 -0.02387424 0.43100002
-0.21978712 -0.02387424 0.43100002
-0.21866348 -0.02387424 0.43100002
-0.21804456 -0.023929631 0.43200001
-0.21691832 -0.023929631 0.43200001
-0.21579207 -0.023929631 0.43200001
-0.21466582 -0.023929631 0.43200001
-0.21403387 -0.023985025 0.43300003
-0.21290502 -0.023985025 0.43300003
-0.21177617 -0.023985025 0.43300003
-0.21113378 -0.024040418 0.43400002
-0.2100023 -0.024040418 0.43400002
-0.20887084 -0.024040418 0.43400002
-0.20773937 -0.024040418 0.43400002
-0.20660791 -0.024040418 0.43400002
-0.20547645 -0.024040418 0.43400002
-0.20434499 -0.024040418 0.43400002
-0.20321351 -0.024040418 0.43400002
-0.20208205 -0.024040418 0.43400002
-0.20095058 -0.024040418 0.43400002
-0.19981912 -0.024040418 0.43400002
-0.19868766 -0.024040418 0.43400002
-0.1975562 -0.024040418 0.43400002
-0.19642472 -0.024040418 0.43400002
-0.19529325 -0.024040418 0.43400002
-0.19416179 -0.024040418 0.43400002
-0.19303031 -0.024040418 0.43400002
-0.19189887 -0.024040418 0.43400002
-0.19076739 -0.024040418 0.43400002
-0.18963593 -0.024040418 0.43400002
-0.18850446 -0.024040418 0.43400002
-0.187373 -0.024040418 0.43400002
-0.18624152 -0.024040418 0.43400002
-0.18511008 -0.024040418 0.43400002
-0.1839786 -0.024040418 0.43400002
-0.18284714 -0.024040418 0.43400002
-0.18171567 -0.024040418 0.43400002
-0.18058419 -0.024040418 0.43400002
-0.17945273 -0.024040418 0.43400002
-0.17832127 -0.024040418 0.43400002
-0.17718981 -0.024040418 0.43400002
-0.17565268 -0.023985025 0.43300003
-0.17452383 -0.023985025 0.43300003
-0.17339496 -0.023985025 0.43300003
-0.17266394 -0.024040418 0.43400002
-0.17153248 -0.024040418 0.43400002
-0.17040102 -0.024040418 0.43400002
-0.16926955 -0.024040418 0.43400002
-0.16813809 -0.024040418 0.43400002
-0.16700661 -0.024040418 0.43400002
-0.16587514 -0.024040418 0.43400002
-0.16474369 -0.024040418 0.43400002
-0.16361222 -0.024040418 0.43400002
-0.16248076 -0.024040418 0.43400002
-0.16134928 -0.024040418 0.43400002
-0.16021782 -0.024040418 0.43400002
-0.15908635 -0.024040418 0.43400002
-0.15795489 -0.024040418 0.43400002
-0.15682343 -0.024040418 0.43400002
-0.15569197 -0.024040418 0.43400002
-0.15456049 -0.024040418 0.43400002
-0.15342903 -0.024040418 0.43400002
-0.15229756 -0.024040418 0.43400002
-0.1511661 -0.024040418 0.43400002
-0.15003464 -0.024040418 0.43400002
-0.14890316 -0.024040418 0.43400002
-0.1477717 -0.024040418 0.43400002
-0.14664023 -0.024040418 0.43400002
-0.14550877 -0.024040418 0.43400002
-0.14437731 -0.024040418 0.43400002
-0.14324585 -0.024040418 0.43400002
-0.14211437 -0.024040418 0.43400002
-0.14098291 -0.024040418 0.43400002
-0.14017369 -0.024095811 0.43500003
-0.13903962 -0.024095811 0.43500003
-0.13790554 -0.024095811 0.43500003
-0.13677146 -0.024095811 0.43500003
-0.13563739 -0.024095811 0.43500003
-0.13450332 -0.024095811 0.43500003
-0.13336925 -0.024095811 0.43500003
-0.13223517 -0.024095811 0.43500003
-0.1311011 -0.024095811 0.43500003
-0.12996702 -0.024095811 0.43500003
-0.12883297 -0.024095811 0.43500003
-0.12769888 -0.024095811 0.43500003
-0.12656482 -0.024095811 0.43500003
-0.12543073 -0.024095811 0.43500003
-0.12429667 -0.024095811 0.43500003
-0.12316259 -0.024095811 0.43500003
-0.12202851 -0.024095811 0.43500003
-0.12089445 -0.024095811 0.43500003
-0.11976037 -0.024095811 0.43500003
-0.1186263 -0.024095811 0.43500003
-0.11749222 -0.024095811 0.43500003
-0.11635816 -0.024095811 0.43500003
-0.11522408 -0.024095811 0.43500003
-0.11409001 -0.024095811 0.43500003
-0.11295594 -0.024095811 0.43500003
-0.1115648 -0.024040418 0.43400002
-0.11043333 -0.024040418 0.43400002
-0.10955372 -0.024095811 0.43500003
-0.10817041 -0.024040418 0.43400002
-0.10703894 -0.024040418 0.43400002
-0.1061515 -0.024095811 0.43500003
-0.10501743 -0.024095811 0.43500003
-0.10388336 -0.024095811 0.43500003
-0.10274929 -0.024095811 0.43500003
-0.10161521 -0.024095811 0.43500003
-0.10048113 -0.024095811 0.43500003
-0.099347062 -0.024095811 0.43500003
-0.098212987 -0.024095811 0.43500003
-0.097078919 -0.024095811 0.43500003
-0.095944844 -0.024095811 0.43500003
-0.094810769 -0.024095811 0.43500003
-0.093676701 -0.024095811 0.43500003
-0.092542626 -0.024095811 0.43500003
-0.091408558 -0.024095811 0.43500003
-0.090274483 -0.024095811 0.43500003
-0.089140408 -0.024095811 0.43500003
-0.08800634 -0.024095811 0.43500003
-0.086872265 -0.024095811 0.43500003
-0.08573819 -0.024095811 0.43500003
-0.084604114 -0.024095811 0.43500003
-0.083470047 -0.024095811 0.43500003
-0.082335971 -0.024095811 0.43500003
-0.081201896 -0.024095811 0.43500003
-0.080067828 -0.024095811 0.43500003
-0.078933753 -0.024095811 0.43500003
-0.077799685 -0.024095811 0.43500003
-0.07666561 -0.024095811 0.43500003
-0.075531535 -0.024095811 0.43500003
-0.074397467 -0.024095811 0.43500003
-0.073263392 -0.024095811 0.43500003
-0.072295137 -0.024151202 0.43600002
-0.071158446 -0.024151202 0.43600002
-0.070021771 -0.024151202 0.43600002
-0.068885088 -0.024151202 0.43600002
-0.067748412 -0.024151202 0.43600002
-0.06661173 -0.024151202 0.43600002
-0.065475054 -0.024151202 0.43600002
-0.064338371 -0.024151202 0.43600002
-0.063201696 -0.024151202 0.43600002
-0.062065013 -0.024151202 0.43600002
-0.06078859 -0.024095811 0.43500003
-0.059654519 -0.024095811 0.43500003
-0.058520447 -0.024095811 0.43500003
-0.057386376 -0.024095811 0.43500003
-0.056252297 -0.024095811 0.43500003
-0.055118226 -0.024095811 0.43500003
-0.054108255 -0.024151202 0.43600002
-0.052850083 -0.024095811 0.43500003
-0.051716007 -0.024095811 0.43500003
-0.050581936 -0.024095811 0.43500003
-0.049447864 -0.024095811 0.43500003
-0.048313789 -0.024095811 0.43500003
-0.047179718 -0.024095811 0.43500003
-0.046151496 -0.024151202 0.43600002
-0.045014814 -0.024151202 0.43600002
-0.043878134 -0.024151202 0.43600002
-0.042741455 -0.024151202 0.43600002
-0.041604776 -0.024151202 0.43600002
-0.040468097 -0.024151202 0.43600002
-0.039331418 -0.024151202 0.43600002
-0.038194738 -0.024151202 0.43600002
-0.036973063 -0.024095811 0.43500003
-0.035921376 -0.024151202 0.43600002
-0.034784697 -0.024151202 0.43600002
-0.033648018 -0.024151202 0.43600002
-0.032511339 -0.024151202 0.43600002
-0.031374659 -0.024151202 0.43600002
-0.030237976 -0.024151202 0.43600002
-0.029101297 -0.024151202 0.43600002
-0.027964618 -0.024151202 0.43600002
-0.026827939 -0.024151202 0.43600002
-0.02569126 -0.024151202 0.43600002
-0.024554579 -0.024151202 0.43600002
-0.023417899 -0.024151202 0.43600002
-0.02228122 -0.024151202 0.43600002
-0.021193035 -0.024206594 0.43700001
-0.02005375 -0.024206594 0.43700001
-0.018871181 -0.024151202 0.43600002
-0.0177345 -0.024151202 0.43600002
-0.01659782 -0.024151202 0.43600002
-0.015461142 -0.024151202 0.43600002
-0.014324462 -0.024151202 0.43600002
-0.013187782 -0.024151202 0.43600002
-0.012051103 -0.024151202 0.43600002
-0.010939455 -0.024206594 0.43700001
-0.0097777424 -0.024151202 0.43600002
-0.0086410632 -0.024151202 0.43600002
-0.0075043826 -0.024151202 0.43600002
-0.006367703 -0.024151202 0.43600002
-0.0052430211 -0.024206594 0.43700001
-0.0041037342 -0.024206594 0.43700001
-0.0029644475 -0.024206594 0.43700001
-0.0018251606 -0.024206594 0.43700001
-0.00068587373 -0.024206594 0.43700001
0.00045341309 -0.024206594 0.43700001
0.0015926999 -0.024206594 0.43700001
0.0027257351 -0.024151202 0.43600002
0.003862415 -0.024151202 0.43600002
0.0049990946 -0.024151202 0.43600002
0.0061357743 -0.024151202 0.43600002
0.0072724544 -0.024151202 0.43600002
0.0084091341 -0.024151202 0.43600002
0.0095677078 -0.024206594 0.43700001
0.010706995 -0.024206594 0.43700001
0.011846281 -0.024206594 0.43700001
0.012985568 -0.024206594 0.43700001
0.014124854 -0.024206594 0.43700001
0.01526414 -0.024206594 0.43700001
0.016403429 -0.024206594 0.43700001
0.017542714 -0.024206594 0.43700001
0.018682001 -0.024206594 0.43700001
0.01982129 -0.024206594 0.43700001
0.020960575 -0.024206594 0.43700001
0.022099862 -0.024206594 0.43700001
0.023239151 -0.024206594 0.43700001
0.024378436 -0.024206594 0.43700001
0.025517723 -0.024206594 0.43700001
0.026657011 -0.024206594 0.43700001
0.027732689 -0.024151202 0.43600002
0.028869372 -0.024151202 0.43600002
0.02993723 -0.024095811 0.43500003
0.031071303 -0.024095811 0.43500003
0.032131337 -0.024040418 0.43400002
0.033032876 -0.02387424 0.43100002
0.034077272 -0.023818847 0.43000001
0.035034601 -0.023708062 0.42800003
0.036065958 -0.023652669 0.42700002
0.037092105 -0.023597276 0.42600003
0.038113032 -0.023541883 0.42500001
0.065193668 -0.023320314 0.42100003
0.066606164 -0.023431098 0.42300001
0.067869022 -0.023486491 0.42400002
0.069137089 -0.023541883 0.42500001
0.071520984 -0.023597276 0.42600003
0.07263159 -0.023597276 0.42600003
0.073915303 -0.023652669 0.42700002
0.075028524 -0.023652669 0.42700002
0.076141745 -0.023652669 0.42700002
0.077254958 -0.023652669 0.42700002
0.07855171 -0.023708062 0.42800003
0.079667531 -0.023708062 0.42800003
0.080972098 -0.023763454 0.42900002
0.082090527 -0.023763454 0.42900002
0.083402917 -0.023818847 0.43000001
0.084720522 -0.02387424 0.43100002
0.086043335 -0.023929631 0.43200001
0.087169588 -0.023929631 0.43200001
0.088500232 -0.023985025 0.43300003
0.089629091 -0.023985025 0.43300003
0.090967558 -0.024040418 0.43400002
0.092099018 -0.024040418 0.43400002
0.093230486 -0.024040418 0.43400002
0.094361953 -0.024040418 0.43400002
0.095493414 -0.024040418 0.43400002
0.096624881 -0.024040418 0.43400002
0.097756349 -0.024040418 0.43400002
0.098659962 -0.023985025 0.43300003
0.099788822 -0.023985025 0.43300003
0.10091767 -0.023985025 0.43300003
0.10181086 -0.023929631 0.43200001
0.10293711 -0.023929631 0.43200001
0.10382248 -0.02387424 0.43100002
0.10470263 -0.023818847 0.43000001
0.10582367 -0.023818847 0.43000001
0.10669599 -0.023763454 0.42900002
0.10781442 -0.023763454 0.42900002
0.10867894 -0.023708062 0.42800003
0.10979475 -0.023708062 0.42800003
0.11065144 -0.023652669 0.42700002
0.11176466 -0.023652669 0.42700002
0.11261353 -0.023597276 0.42600003
0.11345718 -0.023541883 0.42500001
0.11456517 -0.023541883 0.42500001
0.11540101 -0.023486491 0.42400002
0.11623162 -0.023431098 0.42300001
0.11733441 -0.023431098 0.42300001
0.1181572 -0.023375705 0.42200002
0.11869219 -0.02326492 0.42000002
0.11950194 -0.023209527 0.41900003
0.12030649 -0.023154134 0.41800001
0.12081539 -0.023043349 0.41600001
0.12160691 -0.022987956 0.41500002
0.12209757 -0.022877172 0.41300002
0.1225778 -0.022766385 0.41100001
0.12334846 -0.022710994 0.41000003
0.12381043 -0.022600207 0.40800002
0.12426199 -0.022489423 0.40600002
0.12470311 -0.022378637 0.40400001
0.12482254 -0.022212459 0.40100002
0.12555407 -0.022157066 0.40000001
0.12596393 -0.022046283 0.39800003
0.12636334 -0.021935496 0.39600003
0.12707402 -0.021880103 0.39500001
0.1277795 -0.02182471 0.39400002
0.12815285 -0.021713926 0.39200002
0.1288453 -0.021658534 0.39100003
0.12953252 -0.021603139 0.39000002
0.13021454 -0.021547748 0.38900003
0.13055398 -0.021436961 0.38700002
0.13122295 -0.021381568 0.38600001
0.13188672 -0.021326177 0.38500002
0.13220011 -0.02121539 0.38300002
0.13285083 -0.021159999 0.38200003
0.13314596 -0.021049215 0.38000003
0.13378364 -0.020993819 0.37900001
0.13441613 -0.020938428 0.37800002
0.13468519 -0.020827642 0.37600002
0.13530463 -0.02077225 0.37500003
0.13555545 -0.020661466 0.37300003
0.13616185 -0.020606071 0.37200001
0.13639441 -0.020495286 0.37
0.13698778 -0.020439895 0.36900002
0.1372021 -0.020329108 0.36700001
0.13740598 -0.020218322 0.36500001
0.13759944 -0.020107538 0.36300001
0.13778245 -0.019996753 0.36100003
0.13833934 -0.01994136 0.36000001
0.1385041 -0.019830573 0.35800001
0.13904795 -0.019775182 0.35700002
0.13919447 -0.019664397 0.35500002
0.13972527 -0.019609002 0.354
0.14025088 -0.019553611 0.35300002
0.14077125 -0.01949822 0.35200003
0.1412864 -0.019442827 0.35100001
0.14179635 -0.019387433 0.35000002
0.14230108 -0.01933204 0.34900001
0.1428006 -0.019276649 0.34800002
0.14288196 -0.019165862 0.34600002
0.14295287 -0.019055078 0.34400001
0.1425952 -0.0188889 0.34100002
0.14264266 -0.018778114 0.33900002
0.14267969 -0.018667329 0.33700001
0.14270629 -0.018556543 0.33500001
0.14315107 -0.018501151 0.33400002
0.14315942 -0.018390365 0.33200002
0.14359117 -0.018334974 0.33100003
0.14358127 -0.018224187 0.32900003
0.14399995 -0.018168794 0.32800001
0.14441346 -0.018113403 0.32700002
0.14437747 -0.018002616 0.32500002
0.14477792 -0.017947223 0.324
0.14472371 -0.017836438 0.32200003
0.14511113 -0.017781045 0.32100001
0.14549333 -0.017725654 0.32000002
-0.24451305 -0.022856165 0.43300003
-0.2433842 -0.022856165 0.43300003
-0.24225534 -0.022856165 0.43300003
-0.24112648 -0.022856165 0.43300003
-0.23999763 -0.022856165 0.43300003
-0.23886877 -0.022856165 0.43300003
-0.23773989 -0.022856165 0.43300003
-0.23661104 -0.022856165 0.43300003
-0.23548219 -0.022856165 0.43300003
-0.23381209 -0.022803379 0.43200001
-0.23268582 -0.022803379 0.43200001
-0.23155957 -0.022803379 0.43200001
-0.23043334 -0.022803379 0.43200001
-0.22877629 -0.022750594 0.43100002
-0.22765264 -0.022750594 0.43100002
-0.226529 -0.022750594 0.43100002
-0.22540537 -0.022750594 0.43100002
-0.22428171 -0.022750594 0.43100002
-0.22315806 -0.022750594 0.43100002
-0.22203442 -0.022750594 0.43100002
-0.22091079 -0.022750594 0.43100002
-0.21978712 -0.022750594 0.43100002
-0.21866348 -0.022750594 0.43100002
-0.21804456 -0.022803379 0.43200001
-0.21691832 -0.022803379 0.43200001
-0.21579207 -0.022803379 0.43200001
-0.21466582 -0.022803379 0.43200001
-0.21403387 -0.022856165 0.43300003
-0.21290502 -0.022856165 0.43300003
-0.21226525 -0.02290895 0.43400002
-0.21113378 -0.02290895 0.43400002
-0.2100023 -0.02290895 0.43400002
-0.20887084 -0.02290895 0.43400002
-0.20773937 -0.02290895 0.43400002
-0.20660791 -0.02290895 0.43400002
-0.20547645 -0.02290895 0.43400002
-0.20434499 -0.02290895 0.43400002
-0.20321351 -0.02290895 0.43400002
-0.20208205 -0.02290895 0.43400002
-0.20095058 -0.02290895 0.43400002
-0.19981912 -0.02290895 0.43400002
-0.19868766 -0.02290895 0.43400002
-0.1975562 -0.02290895 0.43400002
-0.19642472 -0.02290895 0.43400002
-0.19529325 -0.02290895 0.43400002
-0.19416179 -0.02290895 0.43400002
-0.19303031 -0.02290895 0.43400002
-0.19189887 -0.02290895 0.43400002
-0.19076739 -0.02290895 0.43400002
-0.18963593 -0.02290895 0.43400002
-0.18850446 -0.02290895 0.43400002
-0.187373 -0.02290895 0.43400002
-0.18624152 -0.02290895 0.43400002
-0.18511008 -0.02290895 0.43400002
-0.1839786 -0.02290895 0.43400002
-0.18284714 -0.02290895 0.43400002
-0.18171567 -0.02290895 0.43400002
-0.18058419 -0.02290895 0.43400002
-0.17945273 -0.02290895 0.43400002
-0.17832127 -0.02290895 0.43400002
-0.17718981 -0.02290895 0.43400002
-0.17605834 -0.02290895 0.43400002
-0.17492688 -0.02290895 0.43400002
-0.1737954 -0.02290895 0.43400002
-0.17266394 -0.02290895 0.43400002
-0.17153248 -0.02290895 0.43400002
-0.17040102 -0.02290895 0.43400002
-0.16926955 -0.02290895 0.43400002
-0.16813809 -0.02290895 0.43400002
-0.16700661 -0.02290895 0.43400002
-0.16587514 -0.02290895 0.43400002
-0.16474369 -0.02290895 0.43400002
-0.16361222 -0.02290895 0.43400002
-0.16248076 -0.02290895 0.43400002
-0.16134928 -0.02290895 0.43400002
-0.16021782 -0.02290895 0.43400002
-0.15908635 -0.02290895 0.43400002
-0.15795489 -0.02290895 0.43400002
-0.15682343 -0.02290895 0.43400002
-0.15569197 -0.02290895 0.43400002
-0.15456049 -0.02290895 0.43400002
-0.15342903 -0.02290895 0.43400002
-0.15229756 -0.02290895 0.43400002
-0.1511661 -0.02290895 0.43400002
-0.15003464 -0.02290895 0.43400002
-0.14890316 -0.02290895 0.43400002
-0.1477717 -0.02290895 0.43400002
-0.14664023 -0.02290895 0.43400002
-0.14550877 -0.02290895 0.43400002
-0.14437731 -0.02290895 0.43400002
-0.14324585 -0.02290895 0.43400002
-0.14244182 -0.022961738 0.43500003
-0.14130776 -0.022961738 0.43500003
-0.14017369 -0.022961738 0.43500003
-0.13903962 -0.022961738 0.43500003
-0.13790554 -0.022961738 0.43500003
-0.13677146 -0.022961738 0.43500003
-0.13563739 -0.022961738 0.43500003
-0.13450332 -0.022961738 0.43500003
-0.13336925 -0.022961738 0.43500003
-0.13223517 -0.022961738 0.43500003
-0.1311011 -0.022961738 0.43500003
-0.12996702 -0.022961738 0.43500003
-0.12883297 -0.022961738 0.43500003
-0.12769888 -0.022961738 0.43500003
-0.12656482 -0.022961738 0.43500003
-0.12543073 -0.022961738 0.43500003
-0.12429667 -0.022961738 0.43500003
-0.12316259 -0.022961738 0.43500003
-0.12202851 -0.022961738 0.43500003
-0.12089445 -0.022961738 0.43500003
-0.11976037 -0.022961738 0.43500003
-0.1186263 -0.022961738 0.43500003
-0.11749222 -0.022961738 0.43500003
-0.11635816 -0.022961738 0.43500003
-0.11522408 -0.022961738 0.43500003
-0.11409001 -0.022961738 0.43500003
-0.11295594 -0.022961738 0.43500003
-0.1115648 -0.02290895 0.43400002
-0.11043333 -0.02290895 0.43400002
-0.10955372 -0.022961738 0.43500003
-0.10817041 -0.02290895 0.43400002
-0.10703894 -0.02290895 0.43400002
-0.1061515 -0.022961738 0.43500003
-0.10501743 -0.022961738 0.43500003
-0.10388336 -0.022961738 0.43500003
-0.10274929 -0.022961738 0.43500003
-0.10161521 -0.022961738 0.43500003
-0.10048113 -0.022961738 0.43500003
-0.099347062 -0.022961738 0.43500003
-0.098212987 -0.022961738 0.43500003
-0.097078919 -0.022961738 0.43500003
-0.095944844 -0.022961738 0.43500003
-0.094810769 -0.022961738 0.43500003
-0.09346135 -0.02290895 0.43400002
-0.092542626 -0.022961738 0.43500003
-0.091408558 -0.022961738 0.43500003
-0.090274483 -0.022961738 0.43500003
-0.089140408 -0.022961738 0.43500003
-0.08800634 -0.022961738 0.43500003
-0.086872265 -0.022961738 0.43500003
-0.08573819 -0.022961738 0.43500003
-0.084604114 -0.022961738 0.43500003
-0.083470047 -0.022961738 0.43500003
-0.082335971 -0.022961738 0.43500003
-0.081201896 -0.022961738 0.43500003
-0.080067828 -0.022961738 0.43500003
-0.078933753 -0.022961738 0.43500003
-0.077799685 -0.022961738 0.43500003
-0.07666561 -0.022961738 0.43500003
-0.075531535 -0.022961738 0.43500003
-0.074397467 -0.022961738 0.43500003
-0.073431812 -0.023014521 0.43600002
-0.072295137 -0.023014521 0.43600002
-0.071158446 -0.023014521 0.43600002
-0.070021771 -0.023014521 0.43600002
-0.068885088 -0.023014521 0.43600002
-0.067748412 -0.023014521 0.43600002
-0.06661173 -0.023014521 0.43600002
-0.065475054 -0.023014521 0.43600002
-0.064338371 -0.023014521 0.43600002
-0.063201696 -0.023014521 0.43600002
-0.062065013 -0.023014521 0.43600002
-0.06078859 -0.022961738 0.43500003
-0.059654519 -0.022961738 0.43500003
-0.058520447 -0.022961738 0.43500003
-0.057386376 -0.022961738 0.43500003
-0.056381609 -0.023014521 0.43600002
-0.055118226 -0.022961738 0.43500003
-0.053984154 -0.022961738 0.43500003
-0.052971575 -0.023014521 0.43600002
-0.051716007 -0.022961738 0.43500003
-0.050581936 -0.022961738 0.43500003
-0.049447864 -0.022961738 0.43500003
-0.048313789 -0.022961738 0.43500003
-0.047288176 -0.023014521 0.43600002
-0.046151496 -0.023014521 0.43600002
-0.045014814 -0.023014521 0.43600002
-0.043777499 -0.022961738 0.43500003
-0.042741455 -0.023014521 0.43600002
-0.041604776 -0.023014521 0.43600002
-0.040468097 -0.023014521 0.43600002
-0.039331418 -0.023014521 0.43600002
-0.038194738 -0.023014521 0.43600002
-0.037058055 -0.023014521 0.43600002
-0.035921376 -0.023014521 0.43600002
-0.034784697 -0.023014521 0.43600002
-0.033648018 -0.023014521 0.43600002
-0.032511339 -0.023014521 0.43600002
-0.031374659 -0.023014521 0.43600002
-0.030237976 -0.023014521 0.43600002
-0.029101297 -0.023014521 0.43600002
-0.027964618 -0.023014521 0.43600002
-0.026889471 -0.023067307 0.43700001
-0.025750184 -0.023067307 0.43700001
-0.024610896 -0.023067307 0.43700001
-0.023471611 -0.023067307 0.43700001
-0.022332324 -0.023067307 0.43700001
-0.021193035 -0.023067307 0.43700001
-0.02005375 -0.023067307 0.43700001
-0.018871181 -0.023014521 0.43600002
-0.0177345 -0.023014521 0.43600002
-0.01659782 -0.023014521 0.43600002
-0.015461142 -0.023014521 0.43600002
-0.014324462 -0.023014521 0.43600002
-0.013187782 -0.023014521 0.43600002
-0.012051103 -0.023014521 0.43600002
-0.010939455 -0.023067307 0.43700001
-0.0097777424 -0.023014521 0.43600002
-0.0086410632 -0.023014521 0.43600002
-0.0075043826 -0.023014521 0.43600002
-0.0063823075 -0.023067307 0.43700001
-0.0052430211 -0.023067307 0.43700001
-0.0041037342 -0.023067307 0.43700001
-0.0029644475 -0.023067307 0.43700001
-0.0018251606 -0.023067307 0.43700001
-0.00068587373 -0.023067307 0.43700001
0.00045341309 -0.023067307 0.43700001
0.0015926999 -0.023067307 0.43700001
0.0027319868 -0.023067307 0.43700001
0.003862415 -0.023014521 0.43600002
0.0049990946 -0.023014521 0.43600002
0.0061357743 -0.023014521 0.43600002
0.0072724544 -0.023014521 0.43600002
0.0084091341 -0.023014521 0.43600002
0.0095677078 -0.023067307 0.43700001
0.010706995 -0.023067307 0.43700001
0.011846281 -0.023067307 0.43700001
0.012985568 -0.023067307 0.43700001
0.014124854 -0.023067307 0.43700001
0.01526414 -0.023067307 0.43700001
0.016403429 -0.023067307 0.43700001
0.017542714 -0.023067307 0.43700001
0.018682001 -0.023067307 0.43700001
0.01982129 -0.023067307 0.43700001
0.020960575 -0.023067307 0.43700001
0.022099862 -0.023067307 0.43700001
0.023239151 -0.023067307 0.43700001
0.024378436 -0.023067307 0.43700001
0.025517723 -0.023067307 0.43700001
0.026657011 -0.023067307 0.43700001
0.027732689 -0.023014521 0.43600002
0.028869372 -0.023014521 0.43600002
0.02993723 -0.022961738 0.43500003
0.030999873 -0.02290895 0.43400002
0.032131337 -0.02290895 0.43400002
0.032956231 -0.022697808 0.43000001
0.033839524 -0.022539452 0.42700002
0.034870885 -0.022486666 0.42600003
0.035897028 -0.022433879 0.42500001
0.036830891 -0.022328308 0.42300001
0.065658234 -0.022381095 0.42400002
0.066921085 -0.022433879 0.42500001
0.068029091 -0.022433879 0.42500001
0.069299765 -0.022486666 0.42600003
0.070410378 -0.022486666 0.42600003
0.071688876 -0.022539452 0.42700002
0.072802089 -0.022539452 0.42700002
0.07408841 -0.022592237 0.42800003
0.075204238 -0.022592237 0.42800003
0.07632006 -0.022592237 0.42800003
0.077435888 -0.022592237 0.42800003
0.07855171 -0.022592237 0.42800003
0.079853669 -0.022645023 0.42900002
