# .PCD v0.7 - Point Cloud Data file format
VERSION 0.7
FIELDS x y z
SIZE 4 4 4
TYPE F F F
COUNT 1 1 1
WIDTH 1340
HEIGHT 1
VIEWPOINT 0 0 0 1 0 0 0
POINTS 1340
DATA ascii
-0.1375885 -0.053458523 0.43400002
-0.13645704 -0.053458523 0.43400002
-0.13532558 -0.053458523 0.43400002
-0.13419411 -0.053458523 0.43400002
-0.13306265 -0.053458523 0.43400002
-0.13193117 -0.053458523 0.43400002
-0.13079971 -0.053458523 0.43400002
-0.12996702 -0.0535817 0.43500003
-0.12883297 -0.0535817 0.43500003
-0.12769888 -0.0535817 0.43500003
-0.12656482 -0.0535817 0.43500003
-0.12543073 -0.0535817 0.43500003
-0.12429667 -0.0535817 0.43500003
-0.12316259 -0.0535817 0.43500003
-0.12202851 -0.0535817 0.43500003
-0.12089445 -0.0535817 0.43500003
-0.11976037 -0.0535817 0.43500003
-0.1186263 -0.0535817 0.43500003
-0.11749222 -0.0535817 0.43500003
-0.11635816 -0.0535817 0.43500003
-0.1149592 -0.053458523 0.43400002
-0.11382774 -0.053458523 0.43400002
-0.11269626 -0.053458523 0.43400002
-0.1115648 -0.053458523 0.43400002
-0.11043333 -0.053458523 0.43400002
-0.10930187 -0.053458523 0.43400002
-0.10817041 -0.053458523 0.43400002
-0.10728557 -0.0535817 0.43500003
-0.1061515 -0.0535817 0.43500003
-0.10501743 -0.0535817 0.43500003
-0.10388336 -0.0535817 0.43500003
-0.10274929 -0.0535817 0.43500003
-0.10161521 -0.0535817 0.43500003
-0.10071212 -0.053704876 0.43600002
-0.099575445 -0.053704876 0.43600002
-0.098438762 -0.053704876 0.43600002
-0.097302087 -0.053704876 0.43600002
-0.096165404 -0.053704876 0.43600002
-0.095028728 -0.053704876 0.43600002
-0.093892045 -0.053704876 0.43600002
-0.09275537 -0.053704876 0.43600002
-0.091618687 -0.053704876 0.43600002
-0.090482011 -0.053704876 0.43600002
-0.089345329 -0.053704876 0.43600002
-0.088208653 -0.053704876 0.43600002
-0.08707197 -0.053704876 0.43600002
-0.085935287 -0.053704876 0.43600002
-0.084798604 -0.053704876 0.43600002
-0.083661929 -0.053704876 0.43600002
-0.082525246 -0.053704876 0.43600002
-0.081201896 -0.0535817 0.43500003
-0.080067828 -0.0535817 0.43500003
-0.078933753 -0.0535817 0.43500003
-0.077799685 -0.0535817 0.43500003
-0.07666561 -0.0535817 0.43500003
-0.075531535 -0.0535817 0.43500003
-0.074568495 -0.053704876 0.43600002
-0.073431812 -0.053704876 0.43600002
-0.072295137 -0.053704876 0.43600002
-0.071158446 -0.053704876 0.43600002
-0.070182368 -0.053828049 0.43700001
-0.069043078 -0.053828049 0.43700001
-0.067903794 -0.053828049 0.43700001
-0.066764511 -0.053828049 0.43700001
-0.065625221 -0.053828049 0.43700001
-0.064485937 -0.053828049 0.43700001
-0.063346647 -0.053828049 0.43700001
-0.062207364 -0.053828049 0.43700001
-0.061068077 -0.053828049 0.43700001
-0.05992879 -0.053828049 0.43700001
-0.058789503 -0.053828049 0.43700001
-0.057650216 -0.053828049 0.43700001
-0.056510925 -0.053828049 0.43700001
-0.05549835 -0.05395123 0.43800002
-0.05435646 -0.05395123 0.43800002
-0.053214565 -0.05395123 0.43800002
-0.05207267 -0.05395123 0.43800002
-0.050930776 -0.05395123 0.43800002
-0.049788881 -0.05395123 0.43800002
-0.048646986 -0.05395123 0.43800002
-0.047505096 -0.05395123 0.43800002
-0.046363201 -0.05395123 0.43800002
-0.045221306 -0.05395123 0.43800002
-0.044079412 -0.05395123 0.43800002
-0.042937517 -0.05395123 0.43800002
-0.041795626 -0.05395123 0.43800002
-0.040653732 -0.05395123 0.43800002
-0.039511837 -0.05395123 0.43800002
-0.038369942 -0.05395123 0.43800002
-0.037228048 -0.05395123 0.43800002
-0.036086153 -0.05395123 0.43800002
-0.034944262 -0.05395123 0.43800002
-0.033802368 -0.05395123 0.43800002
-0.032660473 -0.05395123 0.43800002
-0.031518582 -0.05395123 0.43800002
-0.030376684 -0.05395123 0.43800002
-0.029234791 -0.05395123 0.43800002
-0.028092897 -0.05395123 0.43800002
-0.026951004 -0.05395123 0.43800002
-0.025809111 -0.05395123 0.43800002
-0.024667215 -0.05395123 0.43800002
-0.023525322 -0.05395123 0.43800002
-0.022383429 -0.05395123 0.43800002
-0.021241533 -0.05395123 0.43800002
-0.02009964 -0.05395123 0.43800002
-0.018957747 -0.05395123 0.43800002
-0.017856527 -0.054074403 0.43900001
-0.016712027 -0.054074403 0.43900001
-0.015567525 -0.054074403 0.43900001
-0.014423025 -0.054074403 0.43900001
-0.013278523 -0.054074403 0.43900001
-0.012134022 -0.054074403 0.43900001
-0.010989521 -0.054074403 0.43900001
-0.0098450212 -0.054074403 0.43900001
-0.0087005198 -0.054074403 0.43900001
-0.0075560184 -0.054074403 0.43900001
-0.0064115175 -0.054074403 0.43900001
-0.0052670166 -0.054074403 0.43900001
-0.0041225157 -0.054074403 0.43900001
-0.0029780148 -0.054074403 0.43900001
-0.0018335137 -0.054074403 0.43900001
-0.00068901276 -0.054074403 0.43900001
0.00045548822 -0.054074403 0.43900001
0.0015999891 -0.054074403 0.43900001
0.00274449 -0.054074403 0.43900001
0.0038889912 -0.054074403 0.43900001
0.0050334921 -0.054074403 0.43900001
0.006177993 -0.054074403 0.43900001
0.0073224939 -0.054074403 0.43900001
0.0084862821 -0.054197583 0.44000003
0.0096333902 -0.054197583 0.44000003
0.010780498 -0.054197583 0.44000003
0.011927607 -0.054197583 0.44000003
0.013074715 -0.054197583 0.44000003
0.014221822 -0.054197583 0.44000003
0.01536893 -0.054197583 0.44000003
0.016516039 -0.054197583 0.44000003
0.017663147 -0.054197583 0.44000003
0.018810254 -0.054197583 0.44000003
0.019957364 -0.054197583 0.44000003
0.02110447 -0.054197583 0.44000003
0.022251578 -0.054197583 0.44000003
0.023398688 -0.054197583 0.44000003
0.024545794 -0.054197583 0.44000003
0.025692903 -0.054197583 0.44000003
0.026840013 -0.054197583 0.44000003
0.027987117 -0.054197583 0.44000003
0.029134229 -0.054197583 0.44000003
0.030212514 -0.054074403 0.43900001
0.031357013 -0.054074403 0.43900001
0.032501515 -0.054074403 0.43900001
0.033646014 -0.054074403 0.43900001
0.034790516 -0.054074403 0.43900001
0.035935018 -0.054074403 0.43900001
0.037079521 -0.054074403 0.43900001
0.038224019 -0.054074403 0.43900001
0.039368521 -0.054074403 0.43900001
0.04051302 -0.054074403 0.43900001
0.041657522 -0.054074403 0.43900001
0.042802021 -0.054074403 0.43900001
0.043946527 -0.054074403 0.43900001
0.045091026 -0.054074403 0.43900001
0.046235528 -0.054074403 0.43900001
0.047380026 -0.054074403 0.43900001
0.048524529 -0.054074403 0.43900001
0.049669027 -0.054074403 0.43900001
0.052729476 -0.047546059 0.38600001
0.053596593 -0.047422882 0.38500002
0.054458495 -0.047299705 0.384
0.055315185 -0.047176529 0.38300002
0.05631369 -0.047176529 0.38300002
0.057162557 -0.047053356 0.38200003
0.058158454 -0.047053356 0.38200003
0.058999494 -0.046930175 0.38100001
0.059992786 -0.046930175 0.38100001
0.060826011 -0.046807002 0.38000003
0.061654016 -0.046683826 0.37900001
0.062476814 -0.046560649 0.37800002
0.06346228 -0.046560649 0.37800002
0.064277254 -0.046437472 0.377
0.065087013 -0.046314295 0.37600002
0.065891564 -0.046191122 0.37500003
0.066869214 -0.046191122 0.37500003
0.067665935 -0.046067942 0.37400001
0.068640977 -0.046067942 0.37400001
0.06961602 -0.046067942 0.37400001
0.070402317 -0.045944769 0.37300003
0.071374752 -0.045944769 0.37300003
0.072347187 -0.045944769 0.37300003
0.073123045 -0.045821588 0.37200001
0.074092872 -0.045821588 0.37200001
0.0750627 -0.045821588 0.37200001
0.076032527 -0.045821588 0.37200001
0.076795362 -0.045698415 0.37100002
0.077762589 -0.045698415 0.37100002
0.078729808 -0.045698415 0.37100002
0.079697028 -0.045698415 0.37100002
0.080664247 -0.045698415 0.37100002
0.081411436 -0.045575235 0.37
0.082376048 -0.045575235 0.37
0.08334066 -0.045575235 0.37
0.084305272 -0.045575235 0.37
0.085039429 -0.045452062 0.36900002
0.086001441 -0.045452062 0.36900002
0.086963445 -0.045452062 0.36900002
0.087925449 -0.045452062 0.36900002
0.088887453 -0.045452062 0.36900002
0.089849465 -0.045452062 0.36900002
0.090811476 -0.045452062 0.36900002
0.09177348 -0.045452062 0.36900002
0.092735477 -0.045452062 0.36900002
0.093697496 -0.045452062 0.36900002
0.094659492 -0.045452062 0.36900002
0.095880635 -0.045575235 0.37
0.096845254 -0.045575235 0.37
0.097809866 -0.045575235 0.37
0.098774485 -0.045575235 0.37
0.10000866 -0.045698415 0.37100002
0.10097589 -0.045698415 0.37100002
0.1019431 -0.045698415 0.37100002
0.10318771 -0.045821588 0.37200001
0.10443753 -0.045944769 0.37300003
0.10540997 -0.045944769 0.37300003
0.10695282 -0.046191122 0.37500003
0.10793047 -0.046191122 0.37500003
0.10919853 -0.046314295 0.37600002
0.11047181 -0.046437472 0.377
0.11175033 -0.046560649 0.37800002
0.11303402 -0.046683826 0.37900001
0.11462381 -0.046930175 0.38100001
0.11592056 -0.047053356 0.38200003
0.11691646 -0.047053356 0.38200003
0.11822102 -0.047176529 0.38300002
0.11921953 -0.047176529 0.38300002
0.12053191 -0.047299705 0.384
0.12184953 -0.047422882 0.38500002
0.1446438 -0.054936636 0.44600001
0.14580655 -0.054936636 0.44600001
0.1469693 -0.054936636 0.44600001
0.14813206 -0.054936636 0.44600001
0.14929481 -0.054936636 0.44600001
0.15045755 -0.054936636 0.44600001
0.15162031 -0.054936636 0.44600001
0.15278305 -0.054936636 0.44600001
0.1539458 -0.054936636 0.44600001
0.15510856 -0.054936636 0.44600001
0.15627131 -0.054936636 0.44600001
0.15743405 -0.054936636 0.44600001
0.1585968 -0.054936636 0.44600001
0.15975955 -0.054936636 0.44600001
0.1609223 -0.054936636 0.44600001
0.16208506 -0.054936636 0.44600001
0.16361384 -0.055059817 0.44700003
0.1647792 -0.055059817 0.44700003
0.16594455 -0.055059817 0.44700003
0.16710992 -0.055059817 0.44700003
0.16827527 -0.055059817 0.44700003
0.16944063 -0.055059817 0.44700003
0.17060597 -0.055059817 0.44700003
0.17177135 -0.055059817 0.44700003
0.17293669 -0.055059817 0.44700003
0.17410205 -0.055059817 0.44700003
0.17526741 -0.055059817 0.44700003
0.17643277 -0.055059817 0.44700003
0.17759813 -0.055059817 0.44700003
0.17876348 -0.055059817 0.44700003
0.17992885 -0.055059817 0.44700003
0.1810942 -0.055059817 0.44700003
0.18225956 -0.055059817 0.44700003
0.18342492 -0.055059817 0.44700003
0.18459028 -0.055059817 0.44700003
0.18575563 -0.055059817 0.44700003
0.18692099 -0.055059817 0.44700003
0.18808635 -0.055059817 0.44700003
0.18925171 -0.055059817 0.44700003
0.19041705 -0.055059817 0.44700003
0.19201101 -0.05518299 0.44800001
0.19317898 -0.05518299 0.44800001
0.19434693 -0.05518299 0.44800001
0.1955149 -0.05518299 0.44800001
0.19668287 -0.05518299 0.44800001
0.19785084 -0.05518299 0.44800001
0.19857456 -0.055059817 0.44700003
0.19973992 -0.055059817 0.44700003
0.20090528 -0.055059817 0.44700003
0.20207064 -0.055059817 0.44700003
0.20323598 -0.055059817 0.44700003
0.20440136 -0.055059817 0.44700003
0.2055667 -0.055059817 0.44700003
0.20719455 -0.05518299 0.44800001
0.20836252 -0.05518299 0.44800001
0.20953047 -0.05518299 0.44800001
-0.24225427 -0.05172421 0.42900002
-0.24113585 -0.05172421 0.42900002
-0.24001743 -0.05172421 0.42900002
-0.23889898 -0.05172421 0.42900002
-0.23778056 -0.05172421 0.42900002
-0.23666212 -0.05172421 0.42900002
-0.23554368 -0.05172421 0.42900002
-0.23442525 -0.05172421 0.42900002
-0.23330683 -0.05172421 0.42900002
-0.2321884 -0.05172421 0.42900002
-0.23106995 -0.05172421 0.42900002
-0.22995153 -0.05172421 0.42900002
-0.22883311 -0.05172421 0.42900002
-0.22771469 -0.05172421 0.42900002
-0.22712442 -0.051844779 0.43000001
-0.22600339 -0.051844779 0.43000001
-0.22488236 -0.051844779 0.43000001
-0.22376134 -0.051844779 0.43000001
-0.22264028 -0.051844779 0.43000001
-0.22151925 -0.051844779 0.43000001
-0.22039822 -0.051844779 0.43000001
-0.21927716 -0.051844779 0.43000001
-0.21815613 -0.051844779 0.43000001
-0.2170351 -0.051844779 0.43000001
-0.21591407 -0.051844779 0.43000001
-0.21479303 -0.051844779 0.43000001
-0.21367198 -0.051844779 0.43000001
-0.21255095 -0.051844779 0.43000001
-0.21142991 -0.051844779 0.43000001
-0.21030888 -0.051844779 0.43000001
-0.20918784 -0.051844779 0.43000001
-0.20806679 -0.051844779 0.43000001
-0.20694576 -0.051844779 0.43000001
-0.20582472 -0.051844779 0.43000001
-0.20470369 -0.051844779 0.43000001
-0.20358264 -0.051844779 0.43000001
-0.20293246 -0.051965352 0.43100002
-0.20180881 -0.051965352 0.43100002
-0.20068517 -0.051965352 0.43100002
-0.19956152 -0.051965352 0.43100002
-0.19843788 -0.051965352 0.43100002
-0.19731423 -0.051965352 0.43100002
-0.1961906 -0.051965352 0.43100002
-0.19506694 -0.051965352 0.43100002
-0.19394331 -0.051965352 0.43100002
-0.19281967 -0.051965352 0.43100002
-0.19169602 -0.051965352 0.43100002
-0.19057238 -0.051965352 0.43100002
-0.18944873 -0.051965352 0.43100002
-0.18832509 -0.051965352 0.43100002
-0.18763578 -0.052085917 0.43200001
-0.18650953 -0.052085917 0.43200001
-0.18538328 -0.052085917 0.43200001
-0.18425703 -0.052085917 0.43200001
-0.18313077 -0.052085917 0.43200001
-0.18242584 -0.05220649 0.43300003
-0.18129697 -0.05220649 0.43300003
-0.18016811 -0.05220649 0.43300003
-0.17903925 -0.05220649 0.43300003
-0.17791039 -0.05220649 0.43300003
-0.17678154 -0.05220649 0.43300003
-0.17565268 -0.05220649 0.43300003
-0.17452383 -0.05220649 0.43300003
-0.17299451 -0.052085917 0.43200001
-0.17226611 -0.05220649 0.43300003
-0.17113724 -0.05220649 0.43300003
-0.17000839 -0.05220649 0.43300003
-0.16887952 -0.05220649 0.43300003
-0.16775067 -0.05220649 0.43300003
-0.16662182 -0.05220649 0.43300003
-0.16549295 -0.05220649 0.43300003
-0.1643641 -0.05220649 0.43300003
-0.16323523 -0.05220649 0.43300003
-0.16248076 -0.052327055 0.43400002
-0.16134928 -0.052327055 0.43400002
-0.16021782 -0.052327055 0.43400002
-0.15908635 -0.052327055 0.43400002
-0.15795489 -0.052327055 0.43400002
-0.15682343 -0.052327055 0.43400002
-0.15569197 -0.052327055 0.43400002
-0.15456049 -0.052327055 0.43400002
-0.15342903 -0.052327055 0.43400002
-0.15229756 -0.052327055 0.43400002
-0.1511661 -0.052327055 0.43400002
-0.15003464 -0.052327055 0.43400002
-0.14890316 -0.052327055 0.43400002
-0.1477717 -0.052327055 0.43400002
-0.14664023 -0.052327055 0.43400002
-0.14550877 -0.052327055 0.43400002
-0.14437731 -0.052327055 0.43400002
-0.14324585 -0.052327055 0.43400002
-0.14244182 -0.052447628 0.43500003
-0.14130776 -0.052447628 0.43500003
-0.14017369 -0.052447628 0.43500003
-0.13871998 -0.052327055 0.43400002
-0.1375885 -0.052327055 0.43400002
-0.13645704 -0.052327055 0.43400002
-0.13532558 -0.052327055 0.43400002
-0.13419411 -0.052327055 0.43400002
-0.13306265 -0.052327055 0.43400002
-0.13193117 -0.052327055 0.43400002
-0.1311011 -0.052447628 0.43500003
-0.12996702 -0.052447628 0.43500003
-0.12883297 -0.052447628 0.43500003
-0.12769888 -0.052447628 0.43500003
-0.12656482 -0.052447628 0.43500003
-0.12543073 -0.052447628 0.43500003
-0.12429667 -0.052447628 0.43500003
-0.12316259 -0.052447628 0.43500003
-0.12202851 -0.052447628 0.43500003
-0.12089445 -0.052447628 0.43500003
-0.11976037 -0.052447628 0.43500003
-0.1186263 -0.052447628 0.43500003
-0.11749222 -0.052447628 0.43500003
-0.11635816 -0.052447628 0.43500003
-0.1149592 -0.052327055 0.43400002
-0.11382774 -0.052327055 0.43400002
-0.11269626 -0.052327055 0.43400002
-0.1115648 -0.052327055 0.43400002
-0.11043333 -0.052327055 0.43400002
-0.10930187 -0.052327055 0.43400002
-0.10817041 -0.052327055 0.43400002
-0.10728557 -0.052447628 0.43500003
-0.1061515 -0.052447628 0.43500003
-0.10501743 -0.052447628 0.43500003
-0.10388336 -0.052447628 0.43500003
-0.10274929 -0.052447628 0.43500003
-0.10161521 -0.052447628 0.43500003
-0.10048113 -0.052447628 0.43500003
-0.099575445 -0.052568197 0.43600002
-0.098438762 -0.052568197 0.43600002
-0.097302087 -0.052568197 0.43600002
-0.096165404 -0.052568197 0.43600002
-0.095028728 -0.052568197 0.43600002
-0.093892045 -0.052568197 0.43600002
-0.09275537 -0.052568197 0.43600002
-0.091618687 -0.052568197 0.43600002
-0.090482011 -0.052568197 0.43600002
-0.089345329 -0.052568197 0.43600002
-0.088208653 -0.052568197 0.43600002
-0.08707197 -0.052568197 0.43600002
-0.085935287 -0.052568197 0.43600002
-0.084798604 -0.052568197 0.43600002
-0.083661929 -0.052568197 0.43600002
-0.082525246 -0.052568197 0.43600002
-0.08138857 -0.052568197 0.43600002
-0.080251887 -0.052568197 0.43600002
-0.078933753 -0.052447628 0.43500003
-0.077978529 -0.052568197 0.43600002
-0.076841854 -0.052568197 0.43600002
-0.075705171 -0.052568197 0.43600002
-0.074568495 -0.052568197 0.43600002
-0.073431812 -0.052568197 0.43600002
-0.072295137 -0.052568197 0.43600002
-0.071158446 -0.052568197 0.43600002
-0.070182368 -0.052688763 0.43700001
-0.069043078 -0.052688763 0.43700001
-0.067903794 -0.052688763 0.43700001
-0.066764511 -0.052688763 0.43700001
-0.065625221 -0.052688763 0.43700001
-0.064485937 -0.052688763 0.43700001
-0.063346647 -0.052688763 0.43700001
-0.062207364 -0.052688763 0.43700001
-0.061068077 -0.052688763 0.43700001
-0.05992879 -0.052688763 0.43700001
-0.058789503 -0.052688763 0.43700001
-0.057650216 -0.052688763 0.43700001
-0.056640241 -0.052809335 0.43800002
-0.05549835 -0.052809335 0.43800002
-0.05435646 -0.052809335 0.43800002
-0.053214565 -0.052809335 0.43800002
-0.05207267 -0.052809335 0.43800002
-0.050930776 -0.052809335 0.43800002
-0.049788881 -0.052809335 0.43800002
-0.048646986 -0.052809335 0.43800002
-0.047505096 -0.052809335 0.43800002
-0.046363201 -0.052809335 0.43800002
-0.045221306 -0.052809335 0.43800002
-0.044079412 -0.052809335 0.43800002
-0.042937517 -0.052809335 0.43800002
-0.041795626 -0.052809335 0.43800002
-0.040653732 -0.052809335 0.43800002
-0.039511837 -0.052809335 0.43800002
-0.038369942 -0.052809335 0.43800002
-0.037228048 -0.052809335 0.43800002
-0.036086153 -0.052809335 0.43800002
-0.034944262 -0.052809335 0.43800002
-0.033802368 -0.052809335 0.43800002
-0.032660473 -0.052809335 0.43800002
-0.031518582 -0.052809335 0.43800002
-0.030376684 -0.052809335 0.43800002
-0.029234791 -0.052809335 0.43800002
-0.028092897 -0.052809335 0.43800002
-0.026951004 -0.052809335 0.43800002
-0.025809111 -0.052809335 0.43800002
-0.024667215 -0.052809335 0.43800002
-0.023525322 -0.052809335 0.43800002
-0.022383429 -0.052809335 0.43800002
-0.021241533 -0.052809335 0.43800002
-0.02009964 -0.052809335 0.43800002
-0.018957747 -0.052809335 0.43800002
-0.017856527 -0.052929904 0.43900001
-0.016712027 -0.052929904 0.43900001
-0.015567525 -0.052929904 0.43900001
-0.014423025 -0.052929904 0.43900001
-0.013278523 -0.052929904 0.43900001
-0.012134022 -0.052929904 0.43900001
-0.010989521 -0.052929904 0.43900001
-0.0098450212 -0.052929904 0.43900001
-0.0087005198 -0.052929904 0.43900001
-0.0075560184 -0.052929904 0.43900001
-0.0064115175 -0.052929904 0.43900001
-0.0052670166 -0.052929904 0.43900001
-0.0041225157 -0.052929904 0.43900001
-0.0029780148 -0.052929904 0.43900001
-0.0018335137 -0.052929904 0.43900001
-0.00068901276 -0.052929904 0.43900001
0.00045548822 -0.052929904 0.43900001
0.0015999891 -0.052929904 0.43900001
0.00274449 -0.052929904 0.43900001
0.0038889912 -0.052929904 0.43900001
0.0050334921 -0.052929904 0.43900001
0.006177993 -0.052929904 0.43900001
0.0073391744 -0.053050473 0.44000003
0.0084862821 -0.053050473 0.44000003
0.0096333902 -0.053050473 0.44000003
0.010780498 -0.053050473 0.44000003
0.011927607 -0.053050473 0.44000003
0.013074715 -0.053050473 0.44000003
0.014221822 -0.053050473 0.44000003
0.01536893 -0.053050473 0.44000003
0.016516039 -0.053050473 0.44000003
0.017663147 -0.053050473 0.44000003
0.018810254 -0.053050473 0.44000003
0.019957364 -0.053050473 0.44000003
0.02110447 -0.053050473 0.44000003
0.022251578 -0.053050473 0.44000003
0.023398688 -0.053050473 0.44000003
0.024545794 -0.053050473 0.44000003
0.025692903 -0.053050473 0.44000003
0.026840013 -0.053050473 0.44000003
0.027987117 -0.053050473 0.44000003
0.029134229 -0.053050473 0.44000003
0.030212514 -0.052929904 0.43900001
0.031428445 -0.053050473 0.44000003
0.032575551 -0.053050473 0.44000003
0.033646014 -0.052929904 0.43900001
0.034790516 -0.052929904 0.43900001
0.035935018 -0.052929904 0.43900001
0.037079521 -0.052929904 0.43900001
0.038224019 -0.052929904 0.43900001
0.039368521 -0.052929904 0.43900001
0.04051302 -0.052929904 0.43900001
0.041657522 -0.052929904 0.43900001
0.042802021 -0.052929904 0.43900001
0.043946527 -0.052929904 0.43900001
0.045091026 -0.052929904 0.43900001
0.046235528 -0.052929904 0.43900001
0.047380026 -0.052929904 0.43900001
0.048524529 -0.052929904 0.43900001
0.049335059 -0.04714258 0.39100003
0.052729476 -0.046539731 0.38600001
0.053596593 -0.046419166 0.38500002
0.054458495 -0.046298593 0.384
0.055315185 -0.046178024 0.38300002
0.05631369 -0.046178024 0.38300002
0.057162557 -0.046057459 0.38200003
0.058158454 -0.046057459 0.38200003
0.058999494 -0.045936886 0.38100001
0.059835326 -0.045816317 0.38000003
0.060826011 -0.045816317 0.38000003
0.061654016 -0.045695748 0.37900001
0.062476814 -0.045575179 0.37800002
0.06346228 -0.045575179 0.37800002
0.064277254 -0.04545461 0.377
0.065087013 -0.045334041 0.37600002
0.065891564 -0.045213472 0.37500003
0.066869214 -0.045213472 0.37500003
0.067665935 -0.045092903 0.37400001
0.068640977 -0.045092903 0.37400001
0.06961602 -0.045092903 0.37400001
0.070402317 -0.044972334 0.37300003
0.071374752 -0.044972334 0.37300003
0.072347187 -0.044972334 0.37300003
0.073123045 -0.044851761 0.37200001
0.074092872 -0.044851761 0.37200001
0.0750627 -0.044851761 0.37200001
0.076032527 -0.044851761 0.37200001
0.076795362 -0.044731196 0.37100002
0.077762589 -0.044731196 0.37100002
0.078729808 -0.044731196 0.37100002
0.079697028 -0.044731196 0.37100002
0.080446824 -0.044610623 0.37
0.081411436 -0.044610623 0.37
0.082376048 -0.044610623 0.37
0.083115421 -0.044490054 0.36900002
0.084077425 -0.044490054 0.36900002
0.085039429 -0.044490054 0.36900002
0.086001441 -0.044490054 0.36900002
0.086963445 -0.044490054 0.36900002
0.087925449 -0.044490054 0.36900002
0.088887453 -0.044490054 0.36900002
0.089849465 -0.044490054 0.36900002
0.090811476 -0.044490054 0.36900002
0.09177348 -0.044490054 0.36900002
0.092735477 -0.044490054 0.36900002
0.093697496 -0.044490054 0.36900002
0.094659492 -0.044490054 0.36900002
0.095621504 -0.044490054 0.36900002
0.096583515 -0.044490054 0.36900002
0.097809866 -0.044610623 0.37
0.098774485 -0.044610623 0.37
0.09973909 -0.044610623 0.37
0.10097589 -0.044731196 0.37100002
0.1019431 -0.044731196 0.37100002
0.10318771 -0.044851761 0.37200001
0.10443753 -0.044972334 0.37300003
0.10540997 -0.044972334 0.37300003
0.1066676 -0.045092903 0.37400001
0.10793047 -0.045213472 0.37500003
0.10919853 -0.045334041 0.37600002
0.11047181 -0.04545461 0.377
0.11175033 -0.045575179 0.37800002
0.11303402 -0.045695748 0.37900001
0.11432296 -0.045816317 0.38000003
0.1156171 -0.045936886 0.38100001
0.11691646 -0.046057459 0.38200003
0.11791235 -0.046057459 0.38200003
0.11921953 -0.046178024 0.38300002
0.12053191 -0.046298593 0.384
0.12184953 -0.046419166 0.38500002
0.14348105 -0.053773887 0.44600001
0.1446438 -0.053773887 0.44600001
0.14580655 -0.053773887 0.44600001
0.1469693 -0.053773887 0.44600001
0.14813206 -0.053773887 0.44600001
0.14929481 -0.053773887 0.44600001
0.15045755 -0.053773887 0.44600001
0.15162031 -0.053773887 0.44600001
0.15278305 -0.053773887 0.44600001
0.1539458 -0.053773887 0.44600001
0.15510856 -0.053773887 0.44600001
0.15627131 -0.053773887 0.44600001
0.15743405 -0.053773887 0.44600001
0.1585968 -0.053773887 0.44600001
0.15975955 -0.053773887 0.44600001
0.16128312 -0.05389446 0.44700003
0.16244848 -0.05389446 0.44700003
0.16361384 -0.05389446 0.44700003
0.1647792 -0.05389446 0.44700003
0.16594455 -0.05389446 0.44700003
0.16710992 -0.05389446 0.44700003
0.16827527 -0.05389446 0.44700003
0.16944063 -0.05389446 0.44700003
0.17060597 -0.05389446 0.44700003
0.17177135 -0.05389446 0.44700003
0.17293669 -0.05389446 0.44700003
0.17410205 -0.05389446 0.44700003
0.17526741 -0.05389446 0.44700003
0.17643277 -0.05389446 0.44700003
0.17759813 -0.05389446 0.44700003
0.17876348 -0.05389446 0.44700003
0.17992885 -0.05389446 0.44700003
0.1810942 -0.05389446 0.44700003
0.18225956 -0.05389446 0.44700003
0.18342492 -0.05389446 0.44700003
0.18459028 -0.05389446 0.44700003
0.18575563 -0.05389446 0.44700003
0.18692099 -0.05389446 0.44700003
0.18808635 -0.05389446 0.44700003
0.18925171 -0.05389446 0.44700003
0.19041705 -0.05389446 0.44700003
0.19201101 -0.054015025 0.44800001
0.19317898 -0.054015025 0.44800001
0.19434693 -0.054015025 0.44800001
0.1955149 -0.054015025 0.44800001
0.19668287 -0.054015025 0.44800001
0.19785084 -0.054015025 0.44800001
0.19857456 -0.05389446 0.44700003
0.19973992 -0.05389446 0.44700003
0.20090528 -0.05389446 0.44700003
0.20207064 -0.05389446 0.44700003
0.20323598 -0.05389446 0.44700003
0.20440136 -0.05389446 0.44700003
0.20602658 -0.054015025 0.44800001
0.20719455 -0.054015025 0.44800001
0.20836252 -0.054015025 0.44800001
0.20999819 -0.054135598 0.44900003
-0.24225427 -0.050605781 0.42900002
-0.24113585 -0.050605781 0.42900002
-0.24001743 -0.050605781 0.42900002
-0.23889898 -0.050605781 0.42900002
-0.23778056 -0.050605781 0.42900002
-0.23666212 -0.050605781 0.42900002
-0.23554368 -0.050605781 0.42900002
-0.23442525 -0.050605781 0.42900002
-0.23330683 -0.050605781 0.42900002
-0.2321884 -0.050605781 0.42900002
-0.23106995 -0.050605781 0.42900002
-0.22995153 -0.050605781 0.42900002
-0.22936651 -0.050723743 0.43000001
-0.22824548 -0.050723743 0.43000001
-0.22712442 -0.050723743 0.43000001
-0.22600339 -0.050723743 0.43000001
-0.22488236 -0.050723743 0.43000001
-0.22376134 -0.050723743 0.43000001
-0.22264028 -0.050723743 0.43000001
-0.22151925 -0.050723743 0.43000001
-0.22039822 -0.050723743 0.43000001
-0.21927716 -0.050723743 0.43000001
-0.21815613 -0.050723743 0.43000001
-0.2170351 -0.050723743 0.43000001
-0.21591407 -0.050723743 0.43000001
-0.21479303 -0.050723743 0.43000001
-0.21367198 -0.050723743 0.43000001
-0.21255095 -0.050723743 0.43000001
-0.21142991 -0.050723743 0.43000001
-0.21030888 -0.050723743 0.43000001
-0.20918784 -0.050723743 0.43000001
-0.20806679 -0.050723743 0.43000001
-0.20694576 -0.050723743 0.43000001
-0.20582472 -0.050723743 0.43000001
-0.20470369 -0.050723743 0.43000001
-0.20358264 -0.050723743 0.43000001
-0.20246162 -0.050723743 0.43000001
-0.20180881 -0.050841708 0.43100002
-0.20068517 -0.050841708 0.43100002
-0.19956152 -0.050841708 0.43100002
-0.19843788 -0.050841708 0.43100002
-0.19731423 -0.050841708 0.43100002
-0.1961906 -0.050841708 0.43100002
-0.19506694 -0.050841708 0.43100002
-0.19394331 -0.050841708 0.43100002
-0.19281967 -0.050841708 0.43100002
-0.19169602 -0.050841708 0.43100002
-0.19057238 -0.050841708 0.43100002
-0.18944873 -0.050841708 0.43100002
-0.18832509 -0.050841708 0.43100002
-0.18720144 -0.050841708 0.43100002
-0.18650953 -0.050959665 0.43200001
-0.18538328 -0.050959665 0.43200001
-0.18425703 -0.050959665 0.43200001
-0.18313077 -0.050959665 0.43200001
-0.18200453 -0.050959665 0.43200001
-0.18129697 -0.05107763 0.43300003
-0.18016811 -0.05107763 0.43300003
-0.17903925 -0.05107763 0.43300003
-0.17791039 -0.05107763 0.43300003
-0.17678154 -0.05107763 0.43300003
-0.175247 -0.050959665 0.43200001
-0.17412075 -0.050959665 0.43200001
-0.17299451 -0.050959665 0.43200001
-0.17186826 -0.050959665 0.43200001
-0.17074201 -0.050959665 0.43200001
-0.16961576 -0.050959665 0.43200001
-0.16887952 -0.05107763 0.43300003
-0.16775067 -0.05107763 0.43300003
-0.16662182 -0.05107763 0.43300003
-0.16549295 -0.05107763 0.43300003
-0.1643641 -0.05107763 0.43300003
-0.16323523 -0.05107763 0.43300003
-0.16248076 -0.051195592 0.43400002
-0.16134928 -0.051195592 0.43400002
-0.16021782 -0.051195592 0.43400002
-0.15908635 -0.051195592 0.43400002
-0.15795489 -0.051195592 0.43400002
-0.15682343 -0.051195592 0.43400002
-0.15569197 -0.051195592 0.43400002
-0.15456049 -0.051195592 0.43400002
-0.15342903 -0.051195592 0.43400002
-0.15229756 -0.051195592 0.43400002
-0.1511661 -0.051195592 0.43400002
-0.15003464 -0.051195592 0.43400002
-0.14890316 -0.051195592 0.43400002
-0.1477717 -0.051195592 0.43400002
-0.14664023 -0.051195592 0.43400002
-0.14550877 -0.051195592 0.43400002
-0.14470997 -0.051313557 0.43500003
-0.14357591 -0.051313557 0.43500003
-0.14244182 -0.051313557 0.43500003
-0.14130776 -0.051313557 0.43500003
-0.14017369 -0.051313557 0.43500003
-0.13903962 -0.051313557 0.43500003
-0.13790554 -0.051313557 0.43500003
-0.13677146 -0.051313557 0.43500003
-0.13563739 -0.051313557 0.43500003
-0.13450332 -0.051313557 0.43500003
-0.13336925 -0.051313557 0.43500003
-0.13223517 -0.051313557 0.43500003
-0.1311011 -0.051313557 0.43500003
-0.12996702 -0.051313557 0.43500003
-0.12883297 -0.051313557 0.43500003
-0.12769888 -0.051313557 0.43500003
-0.12656482 -0.051313557 0.43500003
-0.12543073 -0.051313557 0.43500003
-0.12429667 -0.051313557 0.43500003
-0.12316259 -0.051313557 0.43500003
-0.12202851 -0.051313557 0.43500003
-0.12089445 -0.051313557 0.43500003
-0.11976037 -0.051313557 0.43500003
-0.1186263 -0.051313557 0.43500003
-0.11749222 -0.051313557 0.43500003
-0.11635816 -0.051313557 0.43500003
-0.1149592 -0.051195592 0.43400002
-0.11382774 -0.051195592 0.43400002
-0.11269626 -0.051195592 0.43400002
-0.1115648 -0.051195592 0.43400002
-0.11043333 -0.051195592 0.43400002
-0.10930187 -0.051195592 0.43400002
-0.10817041 -0.051195592 0.43400002
-0.10703894 -0.051195592 0.43400002
-0.1061515 -0.051313557 0.43500003
-0.10501743 -0.051313557 0.43500003
-0.10388336 -0.051313557 0.43500003
-0.10274929 -0.051313557 0.43500003
-0.10161521 -0.051313557 0.43500003
-0.10048113 -0.051313557 0.43500003
-0.099347062 -0.051313557 0.43500003
-0.098438762 -0.051431518 0.43600002
-0.097302087 -0.051431518 0.43600002
-0.096165404 -0.051431518 0.43600002
-0.095028728 -0.051431518 0.43600002
-0.093892045 -0.051431518 0.43600002
-0.09275537 -0.051431518 0.43600002
-0.091618687 -0.051431518 0.43600002
-0.090482011 -0.051431518 0.43600002
-0.089345329 -0.051431518 0.43600002
-0.088208653 -0.051431518 0.43600002
-0.08707197 -0.051431518 0.43600002
-0.085935287 -0.051431518 0.43600002
-0.084798604 -0.051431518 0.43600002
-0.083661929 -0.051431518 0.43600002
-0.082525246 -0.051431518 0.43600002
-0.08138857 -0.051431518 0.43600002
-0.080251887 -0.051431518 0.43600002
-0.079115212 -0.051431518 0.43600002
-0.077978529 -0.051431518 0.43600002
-0.076841854 -0.051431518 0.43600002
-0.075705171 -0.051431518 0.43600002
-0.074568495 -0.051431518 0.43600002
-0.073431812 -0.051431518 0.43600002
-0.072295137 -0.051431518 0.43600002
-0.071321651 -0.051549476 0.43700001
-0.070182368 -0.051549476 0.43700001
-0.069043078 -0.051549476 0.43700001
-0.067903794 -0.051549476 0.43700001
-0.066764511 -0.051549476 0.43700001
-0.065625221 -0.051549476 0.43700001
-0.064485937 -0.051549476 0.43700001
-0.063346647 -0.051549476 0.43700001
-0.062207364 -0.051549476 0.43700001
-0.061068077 -0.051549476 0.43700001
-0.05992879 -0.051549476 0.43700001
-0.058789503 -0.051549476 0.43700001
-0.057782143 -0.051667441 0.43800002
-0.056640241 -0.051667441 0.43800002
-0.05549835 -0.051667441 0.43800002
-0.05435646 -0.051667441 0.43800002
-0.053214565 -0.051667441 0.43800002
-0.05207267 -0.051667441 0.43800002
-0.050930776 -0.051667441 0.43800002
-0.049788881 -0.051667441 0.43800002
-0.048646986 -0.051667441 0.43800002
-0.047505096 -0.051667441 0.43800002
-0.046363201 -0.051667441 0.43800002
-0.045221306 -0.051667441 0.43800002
-0.044079412 -0.051667441 0.43800002
-0.042937517 -0.051667441 0.43800002
-0.041795626 -0.051667441 0.43800002
-0.040653732 -0.051667441 0.43800002
-0.039511837 -0.051667441 0.43800002
-0.038369942 -0.051667441 0.43800002
-0.037228048 -0.051667441 0.43800002
-0.036086153 -0.051667441 0.43800002
-0.034944262 -0.051667441 0.43800002
-0.033802368 -0.051667441 0.43800002
-0.032660473 -0.051667441 0.43800002
-0.031518582 -0.051667441 0.43800002
-0.030376684 -0.051667441 0.43800002
-0.029234791 -0.051667441 0.43800002
-0.028092897 -0.051667441 0.43800002
-0.026951004 -0.051667441 0.43800002
-0.025809111 -0.051667441 0.43800002
-0.024667215 -0.051667441 0.43800002
-0.023525322 -0.051667441 0.43800002
-0.022383429 -0.051667441 0.43800002
-0.021241533 -0.051667441 0.43800002
-0.02009964 -0.051667441 0.43800002
-0.018957747 -0.051667441 0.43800002
-0.017856527 -0.051785402 0.43900001
-0.016712027 -0.051785402 0.43900001
-0.015567525 -0.051785402 0.43900001
-0.014423025 -0.051785402 0.43900001
-0.013278523 -0.051785402 0.43900001
-0.012134022 -0.051785402 0.43900001
-0.010989521 -0.051785402 0.43900001
-0.0098450212 -0.051785402 0.43900001
-0.0087005198 -0.051785402 0.43900001
-0.0075560184 -0.051785402 0.43900001
-0.0064115175 -0.051785402 0.43900001
-0.0052670166 -0.051785402 0.43900001
-0.0041225157 -0.051785402 0.43900001
-0.0029780148 -0.051785402 0.43900001
-0.0018335137 -0.051785402 0.43900001
-0.00068901276 -0.051785402 0.43900001
0.00045548822 -0.051785402 0.43900001
0.0015963446 -0.051667441 0.43800002
0.00274449 -0.051785402 0.43900001
0.0038889912 -0.051785402 0.43900001
0.0050334921 -0.051785402 0.43900001
0.0061920662 -0.051903367 0.44000003
0.0073391744 -0.051903367 0.44000003
0.0084862821 -0.051903367 0.44000003
0.0096333902 -0.051903367 0.44000003
0.010780498 -0.051903367 0.44000003
0.011954715 -0.052021328 0.44100001
0.013104429 -0.052021328 0.44100001
0.014254144 -0.052021328 0.44100001
0.01536893 -0.051903367 0.44000003
0.016516039 -0.051903367 0.44000003
0.017663147 -0.051903367 0.44000003
0.018810254 -0.051903367 0.44000003
0.019957364 -0.051903367 0.44000003
0.02110447 -0.051903367 0.44000003
0.022251578 -0.051903367 0.44000003
0.023398688 -0.051903367 0.44000003
0.024545794 -0.051903367 0.44000003
0.025692903 -0.051903367 0.44000003
0.026840013 -0.051903367 0.44000003
0.027987117 -0.051903367 0.44000003
0.029134229 -0.051903367 0.44000003
0.030281337 -0.051903367 0.44000003
0.031428445 -0.051903367 0.44000003
0.032575551 -0.051903367 0.44000003
0.033722658 -0.051903367 0.44000003
0.034869768 -0.051903367 0.44000003
0.035935018 -0.051785402 0.43900001
0.037079521 -0.051785402 0.43900001
0.038224019 -0.051785402 0.43900001
0.039368521 -0.051785402 0.43900001
0.04051302 -0.051785402 0.43900001
0.041657522 -0.051785402 0.43900001
0.042802021 -0.051785402 0.43900001
0.043946527 -0.051785402 0.43900001
0.044988316 -0.051667441 0.43800002
0.046235528 -0.051785402 0.43900001
0.047380026 -0.051785402 0.43900001
0.052729476 -0.045533407 0.38600001
0.053596593 -0.045415446 0.38500002
0.054458495 -0.045297481 0.384
0.055315185 -0.04517952 0.38300002
0.05631369 -0.04517952 0.38300002
0.057162557 -0.045061558 0.38200003
0.058158454 -0.045061558 0.38200003
0.058999494 -0.044943597 0.38100001
0.059835326 -0.044825636 0.38000003
0.060826011 -0.044825636 0.38000003
0.061654016 -0.044707671 0.37900001
0.062476814 -0.044589709 0.37800002
0.06346228 -0.044589709 0.37800002
0.064277254 -0.044471744 0.377
0.065087013 -0.044353787 0.37600002
0.065891564 -0.044235826 0.37500003
0.066869214 -0.044235826 0.37500003
0.067665935 -0.04411786 0.37400001
0.068640977 -0.04411786 0.37400001
0.06961602 -0.04411786 0.37400001
0.070402317 -0.043999899 0.37300003
0.071374752 -0.043999899 0.37300003
0.072347187 -0.043999899 0.37300003
0.073123045 -0.043881934 0.37200001
0.074092872 -0.043881934 0.37200001
0.0750627 -0.043881934 0.37200001
0.075828142 -0.043763977 0.37100002
0.076795362 -0.043763977 0.37100002
0.077762589 -0.043763977 0.37100002
0.078729808 -0.043763977 0.37100002
0.079482213 -0.043646012 0.37
0.080446824 -0.043646012 0.37
0.081411436 -0.043646012 0.37
0.082153417 -0.04352805 0.36900002
0.083115421 -0.04352805 0.36900002
0.084077425 -0.04352805 0.36900002
0.085039429 -0.04352805 0.36900002
0.086001441 -0.04352805 0.36900002
0.086727776 -0.043410089 0.36800003
0.087687172 -0.043410089 0.36800003
0.088646568 -0.043410089 0.36800003
0.08960598 -0.043410089 0.36800003
0.090565376 -0.043410089 0.36800003
0.091524772 -0.043410089 0.36800003
0.092735477 -0.04352805 0.36900002
0.093697496 -0.04352805 0.36900002
0.094659492 -0.04352805 0.36900002
0.095621504 -0.04352805 0.36900002
0.096583515 -0.04352805 0.36900002
0.097545519 -0.04352805 0.36900002
0.098507531 -0.04352805 0.36900002
0.09973909 -0.043646012 0.37
0.10070371 -0.043646012 0.37
0.1019431 -0.043763977 0.37100002
0.10318771 -0.043881934 0.37200001
0.10415753 -0.043881934 0.37200001
0.10540997 -0.043999899 0.37300003
0.1066676 -0.04411786 0.37400001
0.10793047 -0.044235826 0.37500003
0.10890811 -0.044235826 0.37500003
0.11047181 -0.044471744 0.377
0.11145468 -0.044471744 0.377
0.11273579 -0.044589709 0.37800002
0.11402211 -0.044707671 0.37900001
0.11531364 -0.044825636 0.38000003
0.11691646 -0.045061558 0.38200003
0.11791235 -0.045061558 0.38200003
0.11890826 -0.045061558 0.38200003
0.12021803 -0.04517952 0.38300002
0.12153303 -0.045297481 0.384
0.14348105 -0.052611139 0.44600001
0.1446438 -0.052611139 0.44600001
0.14580655 -0.052611139 0.44600001
0.1469693 -0.052611139 0.44600001
0.14813206 -0.052611139 0.44600001
0.14929481 -0.052611139 0.44600001
0.15045755 -0.052611139 0.44600001
0.15162031 -0.052611139 0.44600001
0.15278305 -0.052611139 0.44600001
0.1539458 -0.052611139 0.44600001
0.15510856 -0.052611139 0.44600001
0.15627131 -0.052611139 0.44600001
0.15743405 -0.052611139 0.44600001
0.1585968 -0.052611139 0.44600001
0.15975955 -0.052611139 0.44600001
0.16128312 -0.0527291 0.44700003
0.16244848 -0.0527291 0.44700003
0.16361384 -0.0527291 0.44700003
0.1647792 -0.0527291 0.44700003
0.16594455 -0.0527291 0.44700003
0.16710992 -0.0527291 0.44700003
0.16827527 -0.0527291 0.44700003
0.16944063 -0.0527291 0.44700003
0.17060597 -0.0527291 0.44700003
0.17177135 -0.0527291 0.44700003
0.17293669 -0.0527291 0.44700003
0.17410205 -0.0527291 0.44700003
0.17526741 -0.0527291 0.44700003
0.17643277 -0.0527291 0.44700003
0.17759813 -0.0527291 0.44700003
0.17876348 -0.0527291 0.44700003
0.17992885 -0.0527291 0.44700003
0.1810942 -0.0527291 0.44700003
0.18225956 -0.0527291 0.44700003
0.18342492 -0.0527291 0.44700003
0.18459028 -0.0527291 0.44700003
0.18575563 -0.0527291 0.44700003
0.18692099 -0.0527291 0.44700003
0.18808635 -0.0527291 0.44700003
0.18925171 -0.0527291 0.44700003
0.19084305 -0.052847061 0.44800001
0.19201101 -0.052847061 0.44800001
0.19317898 -0.052847061 0.44800001
0.19434693 -0.052847061 0.44800001
0.1955149 -0.052847061 0.44800001
0.19668287 -0.052847061 0.44800001
0.19785084 -0.052847061 0.44800001
0.19857456 -0.0527291 0.44700003
0.19973992 -0.0527291 0.44700003
0.20090528 -0.0527291 0.44700003
0.20207064 -0.0527291 0.44700003
0.20323598 -0.0527291 0.44700003
0.20440136 -0.0527291 0.44700003
0.20602658 -0.052847061 0.44800001
0.20719455 -0.052847061 0.44800001
0.20836252 -0.052847061 0.44800001
0.20999819 -0.052965026 0.44900003
-0.24225427 -0.049487352 0.42900002
-0.24113585 -0.049487352 0.42900002
-0.24001743 -0.049487352 0.42900002
-0.23889898 -0.049487352 0.42900002
-0.23778056 -0.049487352 0.42900002
-0.23666212 -0.049487352 0.42900002
-0.23554368 -0.049487352 0.42900002
-0.23442525 -0.049487352 0.42900002
-0.23330683 -0.049487352 0.42900002
-0.2321884 -0.049487352 0.42900002
-0.23160857 -0.049602706 0.43000001
-0.23048754 -0.049602706 0.43000001
-0.22936651 -0.049602706 0.43000001
-0.22824548 -0.049602706 0.43000001
-0.22712442 -0.049602706 0.43000001
-0.22600339 -0.049602706 0.43000001
-0.22488236 -0.049602706 0.43000001
-0.22376134 -0.049602706 0.43000001
-0.22264028 -0.049602706 0.43000001
-0.22151925 -0.049602706 0.43000001
-0.22039822 -0.049602706 0.43000001
-0.21927716 -0.049602706 0.43000001
-0.21815613 -0.049602706 0.43000001
-0.2170351 -0.049602706 0.43000001
-0.21591407 -0.049602706 0.43000001
-0.21479303 -0.049602706 0.43000001
-0.21367198 -0.049602706 0.43000001
-0.21255095 -0.049602706 0.43000001
-0.21142991 -0.049602706 0.43000001
-0.21030888 -0.049602706 0.43000001
-0.20918784 -0.049602706 0.43000001
-0.20806679 -0.049602706 0.43000001
-0.20694576 -0.049602706 0.43000001
-0.20582472 -0.049602706 0.43000001
-0.20470369 -0.049602706 0.43000001
-0.20358264 -0.049602706 0.43000001
-0.20246162 -0.049602706 0.43000001
-0.20134057 -0.049602706 0.43000001
-0.20021954 -0.049602706 0.43000001
-0.19956152 -0.049718063 0.43100002
-0.19843788 -0.049718063 0.43100002
-0.19731423 -0.049718063 0.43100002
-0.1961906 -0.049718063 0.43100002
-0.19506694 -0.049718063 0.43100002
-0.19394331 -0.049718063 0.43100002
-0.19281967 -0.049718063 0.43100002
-0.19169602 -0.049718063 0.43100002
-0.19057238 -0.049718063 0.43100002
-0.18944873 -0.049718063 0.43100002
-0.18832509 -0.049718063 0.43100002
-0.18720144 -0.049718063 0.43100002
-0.1860778 -0.049718063 0.43100002
-0.18538328 -0.049833417 0.43200001
-0.18425703 -0.049833417 0.43200001
-0.18313077 -0.049833417 0.43200001
-0.18200453 -0.049833417 0.43200001
-0.18087827 -0.049833417 0.43200001
-0.17975201 -0.049833417 0.43200001
-0.17903925 -0.049948774 0.43300003
-0.1774995 -0.049833417 0.43200001
-0.17637326 -0.049833417 0.43200001
-0.175247 -0.049833417 0.43200001
-0.17412075 -0.049833417 0.43200001
-0.17299451 -0.049833417 0.43200001
-0.17186826 -0.049833417 0.43200001
-0.17074201 -0.049833417 0.43200001
-0.16961576 -0.049833417 0.43200001
-0.1684895 -0.049833417 0.43200001
-0.16775067 -0.049948774 0.43300003
-0.16662182 -0.049948774 0.43300003
-0.16549295 -0.049948774 0.43300003
-0.1643641 -0.049948774 0.43300003
-0.16323523 -0.049948774 0.43300003
-0.16248076 -0.050064128 0.43400002
-0.16134928 -0.050064128 0.43400002
-0.16021782 -0.050064128 0.43400002
-0.15908635 -0.050064128 0.43400002
-0.15795489 -0.050064128 0.43400002
-0.15682343 -0.050064128 0.43400002
-0.15569197 -0.050064128 0.43400002
-0.15456049 -0.050064128 0.43400002
-0.15342903 -0.050064128 0.43400002
-0.15229756 -0.050064128 0.43400002
-0.1511661 -0.050064128 0.43400002
-0.15003464 -0.050064128 0.43400002
-0.14890316 -0.050064128 0.43400002
-0.1477717 -0.050064128 0.43400002
-0.14697811 -0.050179485 0.43500003
-0.14584406 -0.050179485 0.43500003
-0.14470997 -0.050179485 0.43500003
-0.14357591 -0.050179485 0.43500003
-0.14244182 -0.050179485 0.43500003
-0.14130776 -0.050179485 0.43500003
-0.14017369 -0.050179485 0.43500003
-0.13903962 -0.050179485 0.43500003
-0.1375885 -0.050064128 0.43400002
-0.13645704 -0.050064128 0.43400002
-0.13532558 -0.050064128 0.43400002
-0.13419411 -0.050064128 0.43400002
-0.13306265 -0.050064128 0.43400002
-0.13223517 -0.050179485 0.43500003
-0.1311011 -0.050179485 0.43500003
-0.12996702 -0.050179485 0.43500003
-0.12883297 -0.050179485 0.43500003
-0.12769888 -0.050179485 0.43500003
-0.12656482 -0.050179485 0.43500003
-0.12543073 -0.050179485 0.43500003
-0.12429667 -0.050179485 0.43500003
-0.12316259 -0.050179485 0.43500003
-0.12202851 -0.050179485 0.43500003
-0.12089445 -0.050179485 0.43500003
-0.11976037 -0.050179485 0.43500003
-0.1186263 -0.050179485 0.43500003
-0.11749222 -0.050179485 0.43500003
-0.11635816 -0.050179485 0.43500003
-0.11522408 -0.050179485 0.43500003
-0.11409001 -0.050179485 0.43500003
-0.11269626 -0.050064128 0.43400002
-0.1115648 -0.050064128 0.43400002
-0.11043333 -0.050064128 0.43400002
-0.10930187 -0.050064128 0.43400002
-0.10817041 -0.050064128 0.43400002
-0.10703894 -0.050064128 0.43400002
-0.1061515 -0.050179485 0.43500003
-0.10501743 -0.050179485 0.43500003
-0.10364454 -0.050064128 0.43400002
-0.10274929 -0.050179485 0.43500003
-0.10161521 -0.050179485 0.43500003
-0.10048113 -0.050179485 0.43500003
-0.099347062 -0.050179485 0.43500003
-0.098438762 -0.050294839 0.43600002
-0.097302087 -0.050294839 0.43600002
-0.096165404 -0.050294839 0.43600002
-0.095028728 -0.050294839 0.43600002
-0.093892045 -0.050294839 0.43600002
-0.09275537 -0.050294839 0.43600002
-0.091618687 -0.050294839 0.43600002
-0.090482011 -0.050294839 0.43600002
-0.089345329 -0.050294839 0.43600002
-0.088208653 -0.050294839 0.43600002
-0.08707197 -0.050294839 0.43600002
-0.085935287 -0.050294839 0.43600002
-0.084798604 -0.050294839 0.43600002
-0.083661929 -0.050294839 0.43600002
-0.082525246 -0.050294839 0.43600002
-0.08138857 -0.050294839 0.43600002
-0.080251887 -0.050294839 0.43600002
-0.079115212 -0.050294839 0.43600002
-0.077978529 -0.050294839 0.43600002
-0.076841854 -0.050294839 0.43600002
-0.075705171 -0.050294839 0.43600002
-0.074568495 -0.050294839 0.43600002
-0.073431812 -0.050294839 0.43600002
-0.072460949 -0.050410192 0.43700001
-0.071321651 -0.050410192 0.43700001
-0.070182368 -0.050410192 0.43700001
-0.069043078 -0.050410192 0.43700001
-0.067903794 -0.050410192 0.43700001
-0.066764511 -0.050410192 0.43700001
-0.065625221 -0.050410192 0.43700001
-0.064485937 -0.050410192 0.43700001
-0.063346647 -0.050410192 0.43700001
-0.062207364 -0.050410192 0.43700001
-0.061068077 -0.050410192 0.43700001
-0.05992879 -0.050410192 0.43700001
-0.058789503 -0.050410192 0.43700001
-0.057782143 -0.05052555 0.43800002
-0.056640241 -0.05052555 0.43800002
-0.05549835 -0.05052555 0.43800002
-0.05435646 -0.05052555 0.43800002
-0.053214565 -0.05052555 0.43800002
-0.05207267 -0.05052555 0.43800002
-0.050930776 -0.05052555 0.43800002
-0.049788881 -0.05052555 0.43800002
-0.048646986 -0.05052555 0.43800002
-0.047505096 -0.05052555 0.43800002
-0.046363201 -0.05052555 0.43800002
-0.045221306 -0.05052555 0.43800002
-0.044079412 -0.05052555 0.43800002
-0.042937517 -0.05052555 0.43800002
-0.041795626 -0.05052555 0.43800002
-0.040653732 -0.05052555 0.43800002
-0.039511837 -0.05052555 0.43800002
-0.038369942 -0.05052555 0.43800002
-0.037228048 -0.05052555 0.43800002
-0.036086153 -0.05052555 0.43800002
-0.034944262 -0.05052555 0.43800002
-0.033802368 -0.05052555 0.43800002
-0.032660473 -0.05052555 0.43800002
-0.031518582 -0.05052555 0.43800002
-0.030376684 -0.05052555 0.43800002
-0.029234791 -0.05052555 0.43800002
-0.028092897 -0.05052555 0.43800002
-0.026951004 -0.05052555 0.43800002
-0.025809111 -0.05052555 0.43800002
-0.024667215 -0.05052555 0.43800002
-0.023525322 -0.05052555 0.43800002
-0.022383429 -0.05052555 0.43800002
-0.021241533 -0.05052555 0.43800002
-0.02009964 -0.05052555 0.43800002
-0.018957747 -0.05052555 0.43800002
-0.017856527 -0.050640903 0.43900001
-0.016712027 -0.050640903 0.43900001
-0.015567525 -0.050640903 0.43900001
-0.014423025 -0.050640903 0.43900001
-0.013278523 -0.050640903 0.43900001
-0.012134022 -0.050640903 0.43900001
-0.010989521 -0.050640903 0.43900001
-0.0098450212 -0.050640903 0.43900001
-0.0087005198 -0.050640903 0.43900001
-0.0075560184 -0.050640903 0.43900001
-0.0064115175 -0.050640903 0.43900001
-0.0052670166 -0.050640903 0.43900001
-0.0041225157 -0.050640903 0.43900001
-0.0029780148 -0.050640903 0.43900001
-0.0018335137 -0.050640903 0.43900001
-0.00068901276 -0.050640903 0.43900001
0.00045548822 -0.050640903 0.43900001
0.0015999891 -0.050640903 0.43900001
0.00274449 -0.050640903 0.43900001
0.0038889912 -0.050640903 0.43900001
0.0050334921 -0.050640903 0.43900001
0.006177993 -0.050640903 0.43900001
0.0073391744 -0.050756257 0.44000003
0.0084862821 -0.050756257 0.44000003
0.0096333902 -0.050756257 0.44000003
0.010780498 -0.050756257 0.44000003
0.011954715 -0.050871611 0.44100001
0.013104429 -0.050871611 0.44100001
0.014254144 -0.050871611 0.44100001
0.015403858 -0.050871611 0.44100001
0.016553575 -0.050871611 0.44100001
0.017663147 -0.050756257 0.44000003
0.018810254 -0.050756257 0.44000003
0.019957364 -0.050756257 0.44000003
0.02110447 -0.050756257 0.44000003
0.022251578 -0.050756257 0.44000003
0.023398688 -0.050756257 0.44000003
0.024545794 -0.050756257 0.44000003
0.025692903 -0.050756257 0.44000003
0.026840013 -0.050756257 0.44000003
0.027987117 -0.050756257 0.44000003
0.029134229 -0.050756257 0.44000003
0.030281337 -0.050756257 0.44000003
0.031428445 -0.050756257 0.44000003
0.032575551 -0.050756257 0.44000003
0.033722658 -0.050756257 0.44000003
0.034869768 -0.050756257 0.44000003
0.036016878 -0.050756257 0.44000003
0.037079521 -0.050640903 0.43900001
0.038224019 -0.050640903 0.43900001
0.039368521 -0.050640903 0.43900001
0.04051302 -0.050640903 0.43900001
0.041657522 -0.050640903 0.43900001
0.042802021 -0.050640903 0.43900001
0.043946527 -0.050640903 0.43900001
0.045091026 -0.050640903 0.43900001
0.046235528 -0.050640903 0.43900001
0.047380026 -0.050640903 0.43900001
0.049208879 -0.044988502 0.39000002
0.052729476 -0.04452708 0.38600001
0.053457379 -0.044296369 0.384
0.054458495 -0.044296369 0.384
0.055315185 -0.044181015 0.38300002
0.05631369 -0.044181015 0.38300002
0.057162557 -0.044065662 0.38200003
0.058006205 -0.043950304 0.38100001
0.058999494 -0.043950304 0.38100001
0.059835326 -0.043834951 0.38000003
0.060665939 -0.043719593 0.37900001
0.061654016 -0.043719593 0.37900001
0.062476814 -0.04360424 0.37800002
0.063294388 -0.043488882 0.377
0.064277254 -0.043488882 0.377
