# .PCD v0.7 - Point Cloud Data file format
VERSION 0.7
FIELDS x y z
SIZE 4 4 4
TYPE F F F
COUNT 1 1 1
WIDTH 1391
HEIGHT 1
VIEWPOINT 0 0 0 1 0 0 0
POINTS 1391
DATA ascii
0.073782325 0.039729074 0.53000003
0.075164072 0.039729074 0.53000003
0.07654582 0.039729074 0.53000003
0.07792756 0.039729074 0.53000003
0.079458944 0.039804034 0.53100002
0.080843292 0.039804034 0.53100002
0.082382493 0.039878994 0.53200001
0.083769456 0.039878994 0.53200001
0.085316487 0.039953958 0.53300005
0.08670605 0.039953958 0.53300005
0.088095613 0.039953958 0.53300005
0.089485176 0.039953958 0.53300005
0.091045238 0.040028919 0.53400004
0.092437409 0.040028919 0.53400004
0.093829587 0.040028919 0.53400004
0.095221758 0.040028919 0.53400004
0.096794851 0.040103879 0.53500003
0.09818963 0.040103879 0.53500003
0.099584408 0.040103879 0.53500003
0.10116793 0.040178835 0.53600001
0.10256532 0.040178835 0.53600001
0.1039627 0.040178835 0.53600001
0.10536009 0.040178835 0.53600001
0.10675748 0.040178835 0.53600001
0.10835664 0.040253796 0.537
0.10996103 0.04032876 0.53800005
0.11136363 0.04032876 0.53800005
0.11297584 0.04040372 0.53900003
0.11459325 0.04047868 0.54000002
0.11600106 0.04047868 0.54000002
0.1176263 0.040553641 0.54100001
0.11903672 0.040553641 0.54100001
0.12066979 0.040628605 0.54200006
0.12208281 0.040628605 0.54200006
0.12372369 0.040703561 0.54300004
0.12513933 0.040703561 0.54300004
0.12678804 0.040778521 0.54400003
0.12820627 0.040778521 0.54400003
0.12986279 0.040853482 0.54500002
0.13152452 0.040928442 0.546
0.13294798 0.040928442 0.546
0.13437144 0.040928442 0.546
0.13604362 0.041003406 0.54700005
0.13746968 0.041003406 0.54700005
0.13889575 0.041003406 0.54700005
0.14032181 0.041003406 0.54700005
0.14174788 0.041003406 0.54700005
0.14343569 0.041078366 0.54800004
0.14486435 0.041078366 0.54800004
0.14629303 0.041078366 0.54800004
0.14772169 0.041078366 0.54800004
0.14915037 0.041078366 0.54800004
0.15057904 0.041078366 0.54800004
0.15228508 0.041153323 0.54900002
0.15371636 0.041153323 0.54900002
0.15514764 0.041153323 0.54900002
0.15686412 0.041228283 0.55000001
0.15829802 0.041228283 0.55000001
0.15973188 0.041228283 0.55000001
0.16145881 0.041303243 0.551
0.16289531 0.041303243 0.551
0.16463004 0.041378208 0.55200005
0.16606915 0.041378208 0.55200005
0.16781169 0.041453168 0.55300003
0.16925341 0.041453168 0.55300003
0.17100377 0.041528128 0.55400002
0.1724481 0.041528128 0.55400002
0.17420627 0.041603085 0.55500001
0.1756532 0.041603085 0.55500001
0.17741923 0.041678049 0.55600005
0.17886877 0.041678049 0.55600005
0.18064259 0.041753009 0.55700004
0.18209474 0.041753009 0.55700004
0.1838764 0.041827969 0.55800003
0.18533114 0.041827969 0.55800003
0.18678589 0.041827969 0.55800003
0.18857796 0.04190293 0.55900002
0.19003531 0.04190293 0.55900002
0.19183521 0.04197789 0.56
0.19329518 0.04197789 0.56
0.19510292 0.042052854 0.56100005
0.19656549 0.042052854 0.56100005
0.19838104 0.04212781 0.56200004
0.19984621 0.04212781 0.56200004
0.20166957 0.042202771 0.56300002
0.20313735 0.042202771 0.56300002
0.20460513 0.042202771 0.56300002
0.20607291 0.042202771 0.56300002
0.20790932 0.042277731 0.56400001
0.20937969 0.042277731 0.56400001
0.21122393 0.042352691 0.565
0.21269691 0.042352691 0.565
0.2141699 0.042352691 0.565
0.21602458 0.042427655 0.56600004
0.21750018 0.042427655 0.56600004
0.21897577 0.042427655 0.56600004
0.22084087 0.042502616 0.56700003
0.22231907 0.042502616 0.56700003
0.22379728 0.042502616 0.56700003
0.2256728 0.042577572 0.56800002
0.2271536 0.042577572 0.56800002
0.22863442 0.042577572 0.56800002
0.23052034 0.042652532 0.56900001
0.23200378 0.042652532 0.56900001
0.23348719 0.042652532 0.56900001
0.23538359 0.042727496 0.57000005
0.2368696 0.042727496 0.57000005
0.23835564 0.042727496 0.57000005
0.24026242 0.042802457 0.57100004
0.24175106 0.042802457 0.57100004
0.24366567 0.042877417 0.57200003
0.24515691 0.042877417 0.57200003
0.24664816 0.042877417 0.57200003
0.2485732 0.042952377 0.57300001
0.25006706 0.042952377 0.57300001
0.25199991 0.043027334 0.574
0.25349638 0.043027334 0.574
0.25543708 0.043102298 0.57500005
0.25693616 0.043102298 0.57500005
0.25888464 0.043177258 0.57600003
0.26038632 0.043177258 0.57600003
0.261888 0.043177258 0.57600003
0.26384693 0.043252219 0.57700002
0.26581109 0.043327179 0.57800001
0.26731795 0.043327179 0.57800001
0.26928997 0.043402143 0.57900006
0.27126715 0.043477103 0.58000004
0.27277926 0.043477103 0.58000004
0.27476424 0.04355206 0.58100003
0.27627897 0.04355206 0.58100003
0.27827179 0.04362702 0.58200002
-0.25125343 0.034672711 0.44700003
-0.2500881 0.034672711 0.44700003
-0.24947958 0.034750279 0.44800001
-0.24831162 0.034750279 0.44800001
-0.24714366 0.034750279 0.44800001
-0.24597567 0.034750279 0.44800001
-0.24535418 0.034827847 0.44900003
-0.24418361 0.034827847 0.44900003
-0.24301304 0.034827847 0.44900003
-0.24184245 0.034827847 0.44900003
-0.2412079 0.034905415 0.45000002
-0.24003473 0.034905415 0.45000002
-0.23886156 0.034905415 0.45000002
-0.23768836 0.034905415 0.45000002
-0.23704079 0.034982983 0.45100003
-0.23586501 0.034982983 0.45100003
-0.23468924 0.034982983 0.45100003
-0.23351343 0.034982983 0.45100003
-0.2328528 0.035060551 0.45200002
-0.23167442 0.035060551 0.45200002
-0.23100594 0.035138115 0.45300001
-0.22982495 0.035138115 0.45300001
-0.22864395 0.035138115 0.45300001
-0.2279651 0.035215687 0.45400003
-0.22678149 0.035215687 0.45400003
-0.22559787 0.035215687 0.45400003
-0.22490858 0.035293251 0.45500001
-0.22372235 0.035293251 0.45500001
-0.22253615 0.035293251 0.45500001
-0.22183642 0.035370819 0.45600003
-0.22064759 0.035370819 0.45600003
-0.21945877 0.035370819 0.45600003
-0.2187486 0.035448387 0.45700002
-0.21755718 0.035448387 0.45700002
-0.21636575 0.035448387 0.45700002
-0.21517433 0.035448387 0.45700002
-0.2139829 0.035448387 0.45700002
-0.21279147 0.035448387 0.45700002
-0.21160004 0.035448387 0.45700002
-0.21040861 0.035448387 0.45700002
-0.20921718 0.035448387 0.45700002
-0.20848097 0.035525955 0.45800003
-0.20728692 0.035525955 0.45800003
-0.20609288 0.035525955 0.45800003
-0.20489886 0.035525955 0.45800003
-0.20370482 0.035525955 0.45800003
-0.20251079 0.035525955 0.45800003
-0.2017563 0.035603523 0.45900002
-0.20055966 0.035603523 0.45900002
-0.19936301 0.035603523 0.45900002
-0.19816639 0.035603523 0.45900002
-0.19739886 0.035681091 0.46000001
-0.19619961 0.035681091 0.46000001
-0.19500035 0.035681091 0.46000001
-0.19380112 0.035681091 0.46000001
-0.19302057 0.035758659 0.46100003
-0.1918187 0.035758659 0.46100003
-0.19061685 0.035758659 0.46100003
-0.18982586 0.035836224 0.46200001
-0.1886214 0.035836224 0.46200001
-0.18782261 0.035913795 0.46300003
-0.18661554 0.035913795 0.46300003
-0.18540847 0.035913795 0.46300003
-0.18459924 0.03599136 0.46400002
-0.18338956 0.03599136 0.46400002
-0.18257253 0.036068931 0.46500003
-0.18136023 0.036068931 0.46500003
-0.18014796 0.036068931 0.46500003
-0.17893566 0.036068931 0.46500003
-0.17810556 0.036146495 0.46600002
-0.17689069 0.036146495 0.46600002
-0.17567579 0.036146495 0.46600002
-0.1744609 0.036146495 0.46600002
-0.17361778 0.036224063 0.46700001
-0.17240028 0.036224063 0.46700001
-0.17118278 0.036224063 0.46700001
-0.17032924 0.036301631 0.46800002
-0.16910914 0.036301631 0.46800002
-0.16824776 0.036379199 0.46900001
-0.16702504 0.036379199 0.46900001
-0.16580234 0.036379199 0.46900001
-0.16457961 0.036379199 0.46900001
-0.1633569 0.036379199 0.46900001
-0.16247991 0.036456767 0.47000003
-0.16125458 0.036456767 0.47000003
-0.16002926 0.036456767 0.47000003
-0.15914181 0.036534335 0.47100002
-0.15791389 0.036534335 0.47100002
-0.15668596 0.036534335 0.47100002
-0.15545805 0.036534335 0.47100002
-0.15455757 0.036611903 0.47200003
-0.15332705 0.036611903 0.47200003
-0.15241873 0.036689468 0.47300002
-0.1511856 0.036689468 0.47300002
-0.14995246 0.036689468 0.47300002
-0.14903373 0.036767039 0.47400004
-0.14779799 0.036767039 0.47400004
-0.14656223 0.036767039 0.47400004
-0.14563309 0.036844604 0.47500002
-0.14439473 0.036844604 0.47500002
-0.14315638 0.036844604 0.47500002
-0.14191802 0.036844604 0.47500002
-0.14097583 0.036922172 0.47600001
-0.13973486 0.036922172 0.47600001
-0.13878487 0.03699974 0.47700003
-0.13754129 0.03699974 0.47700003
-0.13629773 0.03699974 0.47700003
-0.13505416 0.03699974 0.47700003
-0.13381058 0.03699974 0.47700003
-0.13284492 0.037077308 0.47800002
-0.13159874 0.037077308 0.47800002
-0.13035257 0.037077308 0.47800002
-0.1293765 0.037154876 0.47900003
-0.12812772 0.037154876 0.47900003
-0.12687893 0.037154876 0.47900003
-0.12563016 0.037154876 0.47900003
-0.12464103 0.037232444 0.48000002
-0.12338965 0.037232444 0.48000002
-0.12213825 0.037232444 0.48000002
-0.12113871 0.037310012 0.48100004
-0.11988471 0.037310012 0.48100004
-0.11863071 0.037310012 0.48100004
-0.11737671 0.037310012 0.48100004
-0.11612272 0.037310012 0.48100004
-0.11486872 0.037310012 0.48100004
-0.11361472 0.037310012 0.48100004
-0.11236073 0.037310012 0.48100004
-0.11110672 0.037310012 0.48100004
-0.10985273 0.037310012 0.48100004
-0.10882451 0.037387576 0.48200002
-0.1075679 0.037387576 0.48200002
-0.10653186 0.037465144 0.48300001
-0.10527264 0.037465144 0.48300001
-0.10422879 0.037542712 0.48400003
-0.10296697 0.037542712 0.48400003
-0.10170515 0.037542712 0.48400003
-0.10065085 0.03762028 0.48500001
-0.099591352 0.037697848 0.48600003
-0.098324321 0.037697848 0.48600003
-0.09705729 0.037697848 0.48600003
-0.09598735 0.037775416 0.48700002
-0.094912201 0.037852984 0.48800004
-0.093639955 0.037852984 0.48800004
-0.092556983 0.037930552 0.48900002
-0.091282129 0.037930552 0.48900002
-0.090007275 0.037930552 0.48900002
-0.08891388 0.038008116 0.49000001
-0.087636419 0.038008116 0.49000001
-0.0865352 0.038085688 0.49100003
-0.085255139 0.038085688 0.49100003
-0.083975069 0.038085688 0.49100003
-0.082695 0.038085688 0.49100003
-0.081414931 0.038085688 0.49100003
-0.080134861 0.038085688 0.49100003
-0.079015389 0.038163252 0.49200001
-0.077732712 0.038163252 0.49200001
-0.076450042 0.038163252 0.49200001
-0.075320147 0.03824082 0.49300003
-0.074034862 0.03824082 0.49300003
-0.072749585 0.03824082 0.49300003
-0.0714643 0.03824082 0.49300003
-0.070179015 0.03824082 0.49300003
-0.068893738 0.03824082 0.49300003
-0.067745589 0.038318388 0.49400002
-0.066457704 0.038318388 0.49400002
-0.065169811 0.038318388 0.49400002
-0.064011231 0.038395956 0.49500003
-0.062720738 0.038395956 0.49500003
-0.061430246 0.038395956 0.49500003
-0.060261242 0.038473524 0.49600002
-0.059087023 0.038551092 0.49700001
-0.057791311 0.038551092 0.49700001
-0.056609277 0.03862866 0.49800003
-0.055422023 0.038706224 0.49900001
-0.054121099 0.038706224 0.49900001
-0.052926026 0.038783792 0.5
-0.051622491 0.038783792 0.5
-0.05031896 0.038783792 0.5
-0.049113464 0.038861364 0.50100005
-0.047807325 0.038861364 0.50100005
-0.046501186 0.038861364 0.50100005
-0.045285258 0.038938928 0.50200003
-0.043976512 0.038938928 0.50200003
-0.042667761 0.038938928 0.50200003
-0.041359019 0.038938928 0.50200003
-0.040050272 0.038938928 0.50200003
-0.038741525 0.038938928 0.50200003
-0.037432782 0.038938928 0.50200003
-0.036124036 0.038938928 0.50200003
-0.034815285 0.038938928 0.50200003
-0.033506542 0.038938928 0.50200003
-0.032197796 0.038938928 0.50200003
-0.030889051 0.038938928 0.50200003
-0.029639229 0.039016496 0.50300002
-0.028327875 0.039016496 0.50300002
-0.027070232 0.039094064 0.50400001
-0.025756273 0.039094064 0.50400001
-0.024442311 0.039094064 0.50400001
-0.023128351 0.039094064 0.50400001
-0.021857675 0.039171629 0.505
-0.020541105 0.039171629 0.505
-0.019224539 0.039171629 0.505
-0.017943436 0.0392492 0.50600004
-0.016624263 0.0392492 0.50600004
-0.015305086 0.0392492 0.50600004
-0.013985913 0.0392492 0.50600004
-0.012691771 0.039326768 0.50700003
-0.01136999 0.039326768 0.50700003
-0.010068027 0.039404333 0.50800002
-0.0087436382 0.039404333 0.50800002
-0.007433855 0.039481901 0.509
-0.0061068595 0.039481901 0.509
0.011275446 0.039947309 0.51500005
0.012618084 0.039947309 0.51500005
0.013987829 0.040024877 0.51600003
0.015362789 0.040102445 0.51700002
0.016710641 0.040102445 0.51700002
0.01809342 0.040180009 0.51800001
0.019443881 0.040180009 0.51800001
0.020794339 0.040180009 0.51800001
0.022144798 0.040180009 0.51800001
0.023495259 0.040180009 0.51800001
0.024845717 0.040180009 0.51800001
0.026196174 0.040180009 0.51800001
0.027546635 0.040180009 0.51800001
0.028952882 0.040257581 0.51900005
0.030305948 0.040257581 0.51900005
0.031659015 0.040257581 0.51900005
0.033012077 0.040257581 0.51900005
0.034365147 0.040257581 0.51900005
0.035787035 0.040335149 0.52000004
0.037214134 0.040412713 0.52100003
0.038572412 0.040412713 0.52100003
0.040007334 0.040490281 0.52200001
0.04136822 0.040490281 0.52200001
0.06237331 0.040878117 0.52700001
0.063868195 0.040955685 0.528
0.065244719 0.040955685 0.528
0.066621251 0.040955685 0.528
0.068126567 0.041033257 0.52900004
0.069505706 0.041033257 0.52900004
0.070884839 0.041033257 0.52900004
0.072400577 0.041110821 0.53000003
0.073782325 0.041110821 0.53000003
0.075164072 0.041110821 0.53000003
0.07654582 0.041110821 0.53000003
0.07792756 0.041110821 0.53000003
0.079309307 0.041110821 0.53000003
0.080843292 0.041188389 0.53100002
0.08222764 0.041188389 0.53100002
0.083769456 0.041265957 0.53200001
0.085156411 0.041265957 0.53200001
0.08670605 0.041343525 0.53300005
0.088095613 0.041343525 0.53300005
0.089485176 0.041343525 0.53300005
0.090874746 0.041343525 0.53300005
0.092437409 0.041421093 0.53400004
0.093829587 0.041421093 0.53400004
0.095221758 0.041421093 0.53400004
0.096794851 0.041498661 0.53500003
0.09818963 0.041498661 0.53500003
0.099584408 0.041498661 0.53500003
0.10116793 0.041576225 0.53600001
0.10256532 0.041576225 0.53600001
0.1039627 0.041576225 0.53600001
0.10536009 0.041576225 0.53600001
0.10675748 0.041576225 0.53600001
0.10835664 0.041653793 0.537
0.10996103 0.041731365 0.53800005
0.11136363 0.041731365 0.53800005
0.11297584 0.041808929 0.53900003
0.11459325 0.041886497 0.54000002
0.11600106 0.041886497 0.54000002
0.1176263 0.041964065 0.54100001
0.11903672 0.041964065 0.54100001
0.12066979 0.042041637 0.54200006
0.12208281 0.042041637 0.54200006
0.12372369 0.042119201 0.54300004
0.12513933 0.042119201 0.54300004
0.12678804 0.042196769 0.54400003
0.12820627 0.042196769 0.54400003
0.12986279 0.042274334 0.54500002
0.13128364 0.042274334 0.54500002
0.13294798 0.042351902 0.546
0.13437144 0.042351902 0.546
0.13604362 0.042429473 0.54700005
0.13746968 0.042429473 0.54700005
0.13889575 0.042429473 0.54700005
0.14032181 0.042429473 0.54700005
0.14174788 0.042429473 0.54700005
0.14317395 0.042429473 0.54700005
0.14486435 0.042507041 0.54800004
0.14629303 0.042507041 0.54800004
0.14772169 0.042507041 0.54800004
0.14915037 0.042507041 0.54800004
0.1508538 0.042584606 0.54900002
0.15228508 0.042584606 0.54900002
0.15371636 0.042584606 0.54900002
0.15514764 0.042584606 0.54900002
0.15686412 0.042662174 0.55000001
0.15829802 0.042662174 0.55000001
0.1600223 0.042739738 0.551
0.16145881 0.042739738 0.551
0.16319095 0.042817309 0.55200005
0.16463004 0.042817309 0.55200005
0.16606915 0.042817309 0.55200005
0.16781169 0.042894877 0.55300003
0.16955946 0.042972442 0.55400002
0.17100377 0.042972442 0.55400002
0.1724481 0.042972442 0.55400002
0.17420627 0.04305001 0.55500001
0.1756532 0.04305001 0.55500001
0.17741923 0.043127581 0.55600005
0.17886877 0.043127581 0.55600005
0.18031828 0.043127581 0.55600005
0.18209474 0.043205149 0.55700004
0.18354689 0.043205149 0.55700004
0.18533114 0.043282714 0.55800003
0.18678589 0.043282714 0.55800003
0.18857796 0.043360282 0.55900002
0.19003531 0.043360282 0.55900002
0.19183521 0.043437846 0.56
0.19329518 0.043437846 0.56
0.19510292 0.043515418 0.56100005
0.19656549 0.043515418 0.56100005
0.19838104 0.043592986 0.56200004
0.19984621 0.043592986 0.56200004
0.20166957 0.043670554 0.56300002
0.20313735 0.043670554 0.56300002
0.20460513 0.043670554 0.56300002
0.20643893 0.043748118 0.56400001
0.20790932 0.043748118 0.56400001
0.20937969 0.043748118 0.56400001
0.21122393 0.043825686 0.565
0.21269691 0.043825686 0.565
0.2141699 0.043825686 0.565
0.21602458 0.043903258 0.56600004
0.21750018 0.043903258 0.56600004
0.21897577 0.043903258 0.56600004
0.22084087 0.043980822 0.56700003
0.22231907 0.043980822 0.56700003
0.22379728 0.043980822 0.56700003
0.2256728 0.04405839 0.56800002
0.2271536 0.04405839 0.56800002
0.22863442 0.04405839 0.56800002
0.23052034 0.044135958 0.56900001
0.23200378 0.044135958 0.56900001
0.23348719 0.044135958 0.56900001
0.23538359 0.044213526 0.57000005
0.2368696 0.044213526 0.57000005
0.23835564 0.044213526 0.57000005
0.24026242 0.044291094 0.57100004
0.24175106 0.044291094 0.57100004
0.24366567 0.044368662 0.57200003
0.24515691 0.044368662 0.57200003
0.24664816 0.044368662 0.57200003
0.2485732 0.044446226 0.57300001
0.25006706 0.044446226 0.57300001
0.25199991 0.044523794 0.574
0.25349638 0.044523794 0.574
0.25543708 0.044601366 0.57500005
0.25693616 0.044601366 0.57500005
0.25888464 0.04467893 0.57600003
0.26038632 0.04467893 0.57600003
0.261888 0.04467893 0.57600003
0.26384693 0.044756498 0.57700002
0.26581109 0.044834066 0.57800001
0.26731795 0.044834066 0.57800001
0.26928997 0.044911634 0.57900006
0.27126715 0.044989202 0.58000004
0.27277926 0.044989202 0.58000004
0.27476424 0.04506677 0.58100003
0.27627897 0.04506677 0.58100003
0.27827179 0.045144334 0.58200002
-0.25125343 0.035838071 0.44700003
-0.2500881 0.035838071 0.44700003
-0.24947958 0.035918243 0.44800001
-0.24831162 0.035918243 0.44800001
-0.24714366 0.035918243 0.44800001
-0.24597567 0.035918243 0.44800001
-0.24535418 0.035998419 0.44900003
-0.24418361 0.035998419 0.44900003
-0.24301304 0.035998419 0.44900003
-0.24184245 0.035998419 0.44900003
-0.2412079 0.036078591 0.45000002
-0.24003473 0.036078591 0.45000002
-0.23886156 0.036078591 0.45000002
-0.23768836 0.036078591 0.45000002
-0.23704079 0.03615877 0.45100003
-0.23586501 0.03615877 0.45100003
-0.23468924 0.03615877 0.45100003
-0.23351343 0.03615877 0.45100003
-0.2328528 0.036238942 0.45200002
-0.23167442 0.036238942 0.45200002
-0.23100594 0.036319114 0.45300001
-0.22982495 0.036319114 0.45300001
-0.22864395 0.036319114 0.45300001
-0.22746296 0.036319114 0.45300001
-0.22678149 0.036399294 0.45400003
-0.22559787 0.036399294 0.45400003
-0.22441427 0.036399294 0.45400003
-0.22372235 0.036479466 0.45500001
-0.22253615 0.036479466 0.45500001
-0.22134992 0.036479466 0.45500001
-0.22064759 0.036559641 0.45600003
-0.21945877 0.036559641 0.45600003
-0.21826994 0.036559641 0.45600003
-0.21755718 0.036639813 0.45700002
-0.21636575 0.036639813 0.45700002
-0.21517433 0.036639813 0.45700002
-0.2139829 0.036639813 0.45700002
-0.21279147 0.036639813 0.45700002
-0.21160004 0.036639813 0.45700002
-0.21040861 0.036639813 0.45700002
-0.20921718 0.036639813 0.45700002
-0.20802577 0.036639813 0.45700002
-0.20728692 0.036719993 0.45800003
-0.20609288 0.036719993 0.45800003
-0.20489886 0.036719993 0.45800003
-0.20370482 0.036719993 0.45800003
-0.20251079 0.036719993 0.45800003
-0.2017563 0.036800165 0.45900002
-0.20055966 0.036800165 0.45900002
-0.19936301 0.036800165 0.45900002
-0.19816639 0.036800165 0.45900002
-0.19739886 0.036880337 0.46000001
-0.19619961 0.036880337 0.46000001
-0.19500035 0.036880337 0.46000001
-0.19380112 0.036880337 0.46000001
-0.19302057 0.036960516 0.46100003
-0.1918187 0.036960516 0.46100003
-0.19103034 0.037040688 0.46200001
-0.18982586 0.037040688 0.46200001
-0.1886214 0.037040688 0.46200001
-0.18782261 0.037120864 0.46300003
-0.18661554 0.037120864 0.46300003
-0.18540847 0.037120864 0.46300003
-0.18459924 0.037201039 0.46400002
-0.18338956 0.037201039 0.46400002
-0.18217988 0.037201039 0.46400002
-0.18136023 0.037281215 0.46500003
-0.18014796 0.037281215 0.46500003
-0.17893566 0.037281215 0.46500003
-0.17810556 0.037361387 0.46600002
-0.17689069 0.037361387 0.46600002
-0.17567579 0.037361387 0.46600002
-0.1744609 0.037361387 0.46600002
-0.17361778 0.037441559 0.46700001
-0.17240028 0.037441559 0.46700001
-0.17118278 0.037441559 0.46700001
-0.17032924 0.037521739 0.46800002
-0.16910914 0.037521739 0.46800002
-0.16824776 0.037601911 0.46900001
-0.16702504 0.037601911 0.46900001
-0.16580234 0.037601911 0.46900001
-0.16457961 0.037601911 0.46900001
-0.16370521 0.037682086 0.47000003
-0.16247991 0.037682086 0.47000003
-0.16125458 0.037682086 0.47000003
-0.16002926 0.037682086 0.47000003
-0.15914181 0.037762262 0.47100002
-0.15791389 0.037762262 0.47100002
-0.15668596 0.037762262 0.47100002
-0.15545805 0.037762262 0.47100002
-0.15455757 0.037842438 0.47200003
-0.15332705 0.037842438 0.47200003
-0.15241873 0.03792261 0.47300002
-0.1511856 0.03792261 0.47300002
-0.14995246 0.03792261 0.47300002
-0.14903373 0.038002785 0.47400004
-0.14779799 0.038002785 0.47400004
-0.14656223 0.038002785 0.47400004
-0.14563309 0.038082961 0.47500002
-0.14439473 0.038082961 0.47500002
-0.14315638 0.038082961 0.47500002
-0.14191802 0.038082961 0.47500002
-0.14097583 0.038163133 0.47600001
-0.13973486 0.038163133 0.47600001
-0.13878487 0.038243309 0.47700003
-0.13754129 0.038243309 0.47700003
-0.13629773 0.038243309 0.47700003
-0.13505416 0.038243309 0.47700003
-0.13409109 0.038323484 0.47800002
-0.13284492 0.038323484 0.47800002
-0.13159874 0.038323484 0.47800002
-0.13035257 0.038323484 0.47800002
-0.1293765 0.03840366 0.47900003
-0.12812772 0.03840366 0.47900003
-0.12687893 0.03840366 0.47900003
-0.12589243 0.038483832 0.48000002
-0.12464103 0.038483832 0.48000002
-0.12338965 0.038483832 0.48000002
-0.12239271 0.038564008 0.48100004
-0.12113871 0.038564008 0.48100004
-0.11988471 0.038564008 0.48100004
-0.11863071 0.038564008 0.48100004
-0.11737671 0.038564008 0.48100004
-0.11612272 0.038564008 0.48100004
-0.11486872 0.038564008 0.48100004
-0.11361472 0.038564008 0.48100004
-0.11236073 0.038564008 0.48100004
-0.11110672 0.038564008 0.48100004
-0.10985273 0.038564008 0.48100004
-0.10882451 0.038644183 0.48200002
-0.1075679 0.038644183 0.48200002
-0.10653186 0.038724355 0.48300001
-0.1054906 0.038804531 0.48400003
-0.10422879 0.038804531 0.48400003
-0.10296697 0.038804531 0.48400003
-0.10191528 0.038884707 0.48500001
-0.10065085 0.038884707 0.48500001
-0.099591352 0.038964882 0.48600003
-0.098324321 0.038964882 0.48600003
-0.097256996 0.039045054 0.48700002
-0.09598735 0.039045054 0.48700002
-0.094912201 0.03912523 0.48800004
-0.093639955 0.03912523 0.48800004
-0.092556983 0.039205406 0.48900002
-0.091282129 0.039205406 0.48900002
-0.090007275 0.039205406 0.48900002
-0.08891388 0.039285578 0.49000001
-0.087636419 0.039285578 0.49000001
-0.0865352 0.039365754 0.49100003
-0.085255139 0.039365754 0.49100003
-0.083975069 0.039365754 0.49100003
-0.082695 0.039365754 0.49100003
-0.081414931 0.039365754 0.49100003
-0.080134861 0.039365754 0.49100003
-0.079015389 0.039445929 0.49200001
-0.077732712 0.039445929 0.49200001
-0.076450042 0.039445929 0.49200001
-0.075320147 0.039526105 0.49300003
-0.074034862 0.039526105 0.49300003
-0.072749585 0.039526105 0.49300003
-0.0714643 0.039526105 0.49300003
-0.070179015 0.039526105 0.49300003
-0.068893738 0.039526105 0.49300003
-0.067745589 0.039606277 0.49400002
-0.066457704 0.039606277 0.49400002
-0.065169811 0.039606277 0.49400002
-0.064011231 0.039686453 0.49500003
-0.062720738 0.039686453 0.49500003
-0.061430246 0.039686453 0.49500003
-0.060261242 0.039766628 0.49600002
-0.059087023 0.0398468 0.49700001
-0.057791311 0.0398468 0.49700001
-0.056609277 0.039926976 0.49800003
-0.055422023 0.040007152 0.49900001
-0.054121099 0.040007152 0.49900001
-0.052820176 0.040007152 0.49900001
-0.051622491 0.040087324 0.5
-0.05031896 0.040087324 0.5
-0.049113464 0.040167503 0.50100005
-0.047807325 0.040167503 0.50100005
-0.046501186 0.040167503 0.50100005
-0.045285258 0.040247675 0.50200003
-0.043976512 0.040247675 0.50200003
-0.042667761 0.040247675 0.50200003
-0.041359019 0.040247675 0.50200003
-0.040050272 0.040247675 0.50200003
-0.038741525 0.040247675 0.50200003
-0.037432782 0.040247675 0.50200003
-0.036124036 0.040247675 0.50200003
-0.034815285 0.040247675 0.50200003
-0.033506542 0.040247675 0.50200003
-0.032197796 0.040247675 0.50200003
-0.030889051 0.040247675 0.50200003
-0.029639229 0.040327851 0.50300002
-0.028327875 0.040327851 0.50300002
-0.027070232 0.040408023 0.50400001
-0.025756273 0.040408023 0.50400001
-0.024442311 0.040408023 0.50400001
-0.023128351 0.040408023 0.50400001
-0.021857675 0.040488195 0.505
-0.020541105 0.040488195 0.505
-0.01926261 0.040568374 0.50600004
-0.017943436 0.040568374 0.50600004
-0.016624263 0.040568374 0.50600004
-0.015305086 0.040568374 0.50600004
-0.013985913 0.040568374 0.50600004
-0.012691771 0.04064855 0.50700003
-0.01136999 0.04064855 0.50700003
-0.010068027 0.040728722 0.50800002
-0.0087436382 0.040728722 0.50800002
0.012642585 0.04137012 0.51600003
0.013987829 0.04137012 0.51600003
0.015362789 0.041450296 0.51700002
0.016742963 0.041530468 0.51800001
0.01809342 0.041530468 0.51800001
0.019443881 0.041530468 0.51800001
0.020794339 0.041530468 0.51800001
0.022144798 0.041530468 0.51800001
0.023495259 0.041530468 0.51800001
0.024845717 0.041530468 0.51800001
0.026246749 0.041610647 0.51900005
0.027546635 0.041530468 0.51800001
0.028952882 0.041610647 0.51900005
0.030305948 0.041610647 0.51900005
0.031659015 0.041610647 0.51900005
0.033012077 0.041610647 0.51900005
0.034431361 0.041690819 0.52000004
0.035787035 0.041690819 0.52000004
0.037214134 0.041770995 0.52100003
0.065244719 0.042332213 0.528
0.066747434 0.042412393 0.52900004
0.068126567 0.042412393 0.52900004
0.069505706 0.042412393 0.52900004
0.070884839 0.042412393 0.52900004
0.072400577 0.042492565 0.53000003
0.073782325 0.042492565 0.53000003
0.075164072 0.042492565 0.53000003
0.07654582 0.042492565 0.53000003
0.07792756 0.042492565 0.53000003
0.079458944 0.04257274 0.53100002
0.080843292 0.04257274 0.53100002
0.08222764 0.04257274 0.53100002
0.083769456 0.042652912 0.53200001
0.085156411 0.042652912 0.53200001
0.08670605 0.042733092 0.53300005
0.088095613 0.042733092 0.53300005
0.089485176 0.042733092 0.53300005
0.090874746 0.042733092 0.53300005
0.092437409 0.042813264 0.53400004
0.093829587 0.042813264 0.53400004
0.095221758 0.042813264 0.53400004
0.096794851 0.04289344 0.53500003
0.09818963 0.04289344 0.53500003
0.099584408 0.04289344 0.53500003
0.10097919 0.04289344 0.53500003
0.10256532 0.042973612 0.53600001
0.1039627 0.042973612 0.53600001
0.10536009 0.042973612 0.53600001
0.10675748 0.042973612 0.53600001
0.10835664 0.043053787 0.537
0.10996103 0.043133963 0.53800005
0.11136363 0.043133963 0.53800005
0.11297584 0.043214139 0.53900003
0.11438105 0.043214139 0.53900003
0.11600106 0.043294311 0.54000002
0.1176263 0.043374486 0.54100001
0.11903672 0.043374486 0.54100001
0.12066979 0.043454662 0.54200006
0.12208281 0.043454662 0.54200006
0.12372369 0.043534838 0.54300004
0.12513933 0.043534838 0.54300004
0.12678804 0.04361501 0.54400003
0.12820627 0.04361501 0.54400003
0.12986279 0.043695185 0.54500002
0.13128364 0.043695185 0.54500002
0.13294798 0.043775357 0.546
0.13437144 0.043775357 0.546
0.13604362 0.043855537 0.54700005
0.13746968 0.043855537 0.54700005
0.13889575 0.043855537 0.54700005
0.14032181 0.043855537 0.54700005
0.14174788 0.043855537 0.54700005
0.14317395 0.043855537 0.54700005
0.14486435 0.043935709 0.54800004
0.14629303 0.043935709 0.54800004
0.14772169 0.043935709 0.54800004
0.14915037 0.043935709 0.54800004
0.1508538 0.044015884 0.54900002
0.15228508 0.044015884 0.54900002
0.15371636 0.044015884 0.54900002
0.15543024 0.044096056 0.55000001
0.15686412 0.044096056 0.55000001
0.15858582 0.044176232 0.551
0.1600223 0.044176232 0.551
0.16145881 0.044176232 0.551
0.16289531 0.044176232 0.551
0.16463004 0.044256408 0.55200005
0.16606915 0.044256408 0.55200005
0.16781169 0.044336583 0.55300003
0.16955946 0.044416755 0.55400002
0.17100377 0.044416755 0.55400002
0.1724481 0.044416755 0.55400002
0.17420627 0.044496931 0.55500001
0.1756532 0.044496931 0.55500001
0.17741923 0.044577107 0.55600005
0.17886877 0.044577107 0.55600005
0.18031828 0.044577107 0.55600005
0.18209474 0.044657283 0.55700004
0.18354689 0.044657283 0.55700004
0.18533114 0.044737455 0.55800003
0.18678589 0.044737455 0.55800003
0.18857796 0.04481763 0.55900002
0.19003531 0.04481763 0.55900002
0.19149266 0.04481763 0.55900002
0.19329518 0.044897802 0.56
0.19510292 0.044977982 0.56100005
0.19656549 0.044977982 0.56100005
0.19838104 0.045058154 0.56200004
0.19984621 0.045058154 0.56200004
0.20166957 0.045138329 0.56300002
0.20313735 0.045138329 0.56300002
0.20460513 0.045138329 0.56300002
0.20607291 0.045138329 0.56300002
0.20790932 0.045218501 0.56400001
0.20937969 0.045218501 0.56400001
0.21122393 0.045298677 0.565
0.21269691 0.045298677 0.565
0.2141699 0.045298677 0.565
0.21602458 0.045378853 0.56600004
0.21750018 0.045378853 0.56600004
0.21897577 0.045378853 0.56600004
0.22084087 0.045459028 0.56700003
0.22231907 0.045459028 0.56700003
0.22379728 0.045459028 0.56700003
0.2256728 0.0455392 0.56800002
0.2271536 0.0455392 0.56800002
0.22863442 0.0455392 0.56800002
0.23052034 0.045619376 0.56900001
0.23200378 0.045619376 0.56900001
0.23348719 0.045619376 0.56900001
0.23538359 0.045699552 0.57000005
0.2368696 0.045699552 0.57000005
0.23835564 0.045699552 0.57000005
0.24026242 0.045779727 0.57100004
0.24175106 0.045779727 0.57100004
0.24366567 0.045859899 0.57200003
0.24515691 0.045859899 0.57200003
0.24664816 0.045859899 0.57200003
0.2485732 0.045940075 0.57300001
0.25006706 0.045940075 0.57300001
0.25199991 0.046020247 0.574
0.25349638 0.046020247 0.574
0.25543708 0.046100426 0.57500005
0.25693616 0.046100426 0.57500005
0.25888464 0.046180598 0.57600003
0.26038632 0.046180598 0.57600003
0.26234263 0.046260774 0.57700002
0.26384693 0.046260774 0.57700002
0.26581109 0.046340946 0.57800001
0.26731795 0.046340946 0.57800001
0.26928997 0.046421126 0.57900006
0.27126715 0.046501298 0.58000004
0.27277926 0.046501298 0.58000004
0.27476424 0.046581473 0.58100003
0.27627897 0.046581473 0.58100003
0.27827179 0.046661645 0.58200002
-0.25125343 0.037003428 0.44700003
-0.2500881 0.037003428 0.44700003
-0.24892271 0.037003428 0.44700003
-0.24831162 0.037086207 0.44800001
-0.24714366 0.037086207 0.44800001
-0.24597567 0.037086207 0.44800001
-0.24535418 0.037168991 0.44900003
-0.24418361 0.037168991 0.44900003
-0.24301304 0.037168991 0.44900003
-0.24184245 0.037168991 0.44900003
-0.2412079 0.03725177 0.45000002
-0.24003473 0.03725177 0.45000002
-0.23886156 0.03725177 0.45000002
-0.23768836 0.03725177 0.45000002
-0.23704079 0.037334554 0.45100003
-0.23586501 0.037334554 0.45100003
-0.23468924 0.037334554 0.45100003
-0.23351343 0.037334554 0.45100003
-0.2328528 0.037417334 0.45200002
-0.23167442 0.037417334 0.45200002
-0.230496 0.037417334 0.45200002
-0.22982495 0.037500117 0.45300001
-0.22864395 0.037500117 0.45300001
-0.22746296 0.037500117 0.45300001
-0.22678149 0.037582897 0.45400003
-0.22559787 0.037582897 0.45400003
-0.22441427 0.037582897 0.45400003
-0.22372235 0.03766568 0.45500001
-0.22253615 0.03766568 0.45500001
-0.22134992 0.03766568 0.45500001
-0.22064759 0.037748463 0.45600003
-0.21945877 0.037748463 0.45600003
-0.21826994 0.037748463 0.45600003
-0.21755718 0.037831243 0.45700002
-0.21636575 0.037831243 0.45700002
-0.21517433 0.037831243 0.45700002
-0.2139829 0.037831243 0.45700002
-0.21279147 0.037831243 0.45700002
-0.21160004 0.037831243 0.45700002
-0.21040861 0.037831243 0.45700002
-0.20921718 0.037831243 0.45700002
-0.20802577 0.037831243 0.45700002
-0.20728692 0.037914027 0.45800003
-0.20609288 0.037914027 0.45800003
-0.20489886 0.037914027 0.45800003
-0.20370482 0.037914027 0.45800003
-0.20295295 0.037996806 0.45900002
-0.2017563 0.037996806 0.45900002
-0.20055966 0.037996806 0.45900002
-0.19936301 0.037996806 0.45900002
-0.1985981 0.038079586 0.46000001
-0.19739886 0.038079586 0.46000001
-0.19619961 0.038079586 0.46000001
-0.19542427 0.038162369 0.46100003
-0.19422242 0.038162369 0.46100003
-0.19302057 0.038162369 0.46100003
-0.19223478 0.038245153 0.46200001
-0.19103034 0.038245153 0.46200001
-0.18982586 0.038245153 0.46200001
-0.1886214 0.038245153 0.46200001
-0.18782261 0.038327932 0.46300003
-0.18661554 0.038327932 0.46300003
-0.18540847 0.038327932 0.46300003
-0.18459924 0.038410716 0.46400002
-0.18338956 0.038410716 0.46400002
-0.18217988 0.038410716 0.46400002
-0.18136023 0.038493499 0.46500003
-0.18014796 0.038493499 0.46500003
-0.17893566 0.038493499 0.46500003
-0.17772338 0.038493499 0.46500003
-0.17689069 0.038576279 0.46600002
-0.17567579 0.038576279 0.46600002
-0.1744609 0.038576279 0.46600002
-0.17361778 0.038659059 0.46700001
-0.17240028 0.038659059 0.46700001
-0.17118278 0.038659059 0.46700001
-0.17032924 0.038741842 0.46800002
-0.16910914 0.038741842 0.46800002
-0.16824776 0.038824622 0.46900001
-0.16702504 0.038824622 0.46900001
-0.16580234 0.038824622 0.46900001
-0.16457961 0.038824622 0.46900001
-0.16370521 0.038907405 0.47000003
-0.16247991 0.038907405 0.47000003
-0.16125458 0.038907405 0.47000003
-0.16002926 0.038907405 0.47000003
-0.15914181 0.038990188 0.47100002
-0.15791389 0.038990188 0.47100002
-0.15668596 0.038990188 0.47100002
-0.15545805 0.038990188 0.47100002
-0.15455757 0.039072968 0.47200003
-0.15332705 0.039072968 0.47200003
-0.15241873 0.039155751 0.47300002
-0.1511856 0.039155751 0.47300002
-0.14995246 0.039155751 0.47300002
-0.14903373 0.039238535 0.47400004
-0.14779799 0.039238535 0.47400004
-0.14656223 0.039238535 0.47400004
-0.14563309 0.039321315 0.47500002
-0.14439473 0.039321315 0.47500002
-0.14315638 0.039321315 0.47500002
-0.14191802 0.039321315 0.47500002
-0.14097583 0.039404094 0.47600001
-0.13973486 0.039404094 0.47600001
-0.13878487 0.039486878 0.47700003
-0.13754129 0.039486878 0.47700003
-0.13629773 0.039486878 0.47700003
-0.13505416 0.039486878 0.47700003
-0.13409109 0.039569657 0.47800002
-0.13284492 0.039569657 0.47800002
-0.13159874 0.039569657 0.47800002
-0.13035257 0.039569657 0.47800002
-0.12910639 0.039569657 0.47800002
-0.12812772 0.039652441 0.47900003
-0.12687893 0.039652441 0.47900003
-0.12589243 0.039735224 0.48000002
-0.12464103 0.039735224 0.48000002
-0.12338965 0.039735224 0.48000002
-0.12239271 0.039818004 0.48100004
-0.12113871 0.039818004 0.48100004
-0.11988471 0.039818004 0.48100004
-0.11863071 0.039818004 0.48100004
-0.11737671 0.039818004 0.48100004
-0.11612272 0.039818004 0.48100004
-0.11486872 0.039818004 0.48100004
-0.11361472 0.039818004 0.48100004
-0.11236073 0.039818004 0.48100004
-0.11110672 0.039818004 0.48100004
-0.10985273 0.039818004 0.48100004
-0.10882451 0.039900787 0.48200002
-0.1075679 0.039900787 0.48200002
-0.10653186 0.039983567 0.48300001
-0.1054906 0.04006635 0.48400003
-0.10422879 0.04006635 0.48400003
-0.10296697 0.04006635 0.48400003
-0.10191528 0.04014913 0.48500001
-0.10085839 0.040231913 0.48600003
-0.099591352 0.040231913 0.48600003
-0.098324321 0.040231913 0.48600003
-0.097256996 0.040314693 0.48700002
-0.09598735 0.040314693 0.48700002
-0.094912201 0.040397476 0.48800004
-0.093639955 0.040397476 0.48800004
-0.092556983 0.040480256 0.48900002
-0.091282129 0.040480256 0.48900002
-0.090007275 0.040480256 0.48900002
-0.08891388 0.040563039 0.49000001
-0.087636419 0.040563039 0.49000001
-0.0865352 0.040645823 0.49100003
-0.085255139 0.040645823 0.49100003
-0.083975069 0.040645823 0.49100003
-0.082695 0.040645823 0.49100003
-0.081414931 0.040645823 0.49100003
-0.080134861 0.040645823 0.49100003
-0.079015389 0.040728603 0.49200001
-0.077732712 0.040728603 0.49200001
-0.076450042 0.040728603 0.49200001
-0.075320147 0.040811386 0.49300003
-0.074034862 0.040811386 0.49300003
-0.072749585 0.040811386 0.49300003
-0.0714643 0.040811386 0.49300003
-0.070179015 0.040811386 0.49300003
-0.068893738 0.040811386 0.49300003
-0.067745589 0.040894166 0.49400002
-0.066457704 0.040894166 0.49400002
-0.065169811 0.040894166 0.49400002
-0.064011231 0.040976949 0.49500003
-0.062720738 0.040976949 0.49500003
-0.061430246 0.040976949 0.49500003
-0.060261242 0.041059729 0.49600002
-0.059087023 0.041142512 0.49700001
-0.057791311 0.041142512 0.49700001
-0.056609277 0.041225292 0.49800003
-0.055422023 0.041308075 0.49900001
-0.054121099 0.041308075 0.49900001
-0.052820176 0.041308075 0.49900001
-0.051622491 0.041390855 0.5
-0.05031896 0.041390855 0.5
-0.049113464 0.041473642 0.50100005
-0.047807325 0.041473642 0.50100005
-0.046501186 0.041473642 0.50100005
-0.045195051 0.041473642 0.50100005
-0.043888912 0.041473642 0.50100005
-0.042667761 0.041556422 0.50200003
-0.041359019 0.041556422 0.50200003
-0.040050272 0.041556422 0.50200003
-0.038741525 0.041556422 0.50200003
-0.037432782 0.041556422 0.50200003
-0.036124036 0.041556422 0.50200003
-0.034815285 0.041556422 0.50200003
-0.033506542 0.041556422 0.50200003
-0.032261934 0.041639201 0.50300002
-0.030950582 0.041639201 0.50300002
-0.029639229 0.041639201 0.50300002
-0.028327875 0.041639201 0.50300002
-0.027070232 0.041721981 0.50400001
-0.025756273 0.041721981 0.50400001
-0.024442311 0.041721981 0.50400001
-0.023128351 0.041721981 0.50400001
-0.021814393 0.041721981 0.50400001
-0.020541105 0.041804764 0.505
-0.019224539 0.041804764 0.505
-0.017943436 0.041887548 0.50600004
-0.016624263 0.041887548 0.50600004
-0.015305086 0.041887548 0.50600004
0.015392505 0.042880926 0.51800001
0.016742963 0.042880926 0.51800001
0.01809342 0.042880926 0.51800001
0.019443881 0.042880926 0.51800001
0.020794339 0.042880926 0.51800001
0.022144798 0.042880926 0.51800001
0.023495259 0.042880926 0.51800001
0.024893684 0.042963713 0.51900005
0.026246749 0.042963713 0.51900005
0.027599817 0.042963713 0.51900005
0.028952882 0.042963713 0.51900005
0.030305948 0.042963713 0.51900005
0.031659015 0.042963713 0.51900005
0.066747434 0.043791529 0.52900004
0.068126567 0.043791529 0.52900004
0.069637097 0.043874308 0.53000003
0.071018837 0.043874308 0.53000003
0.072400577 0.043874308 0.53000003
0.073782325 0.043874308 0.53000003
0.075164072 0.043874308 0.53000003
0.07654582 0.043874308 0.53000003
0.07792756 0.043874308 0.53000003
0.079309307 0.043874308 0.53000003
0.080843292 0.043957088 0.53100002
0.08222764 0.043957088 0.53100002
0.083611995 0.043957088 0.53100002
0.085156411 0.044039872 0.53200001
0.086543366 0.044039872 0.53200001
0.088095613 0.044122655 0.53300005
0.089485176 0.044122655 0.53300005
0.090874746 0.044122655 0.53300005
0.09226431 0.044122655 0.53300005
0.093829587 0.044205435 0.53400004
0.095221758 0.044205435 0.53400004
0.096613929 0.044205435 0.53400004
0.09818963 0.044288218 0.53500003
0.099584408 0.044288218 0.53500003
0.10097919 0.044288218 0.53500003
0.10256532 0.044370998 0.53600001
0.1039627 0.044370998 0.53600001
0.10536009 0.044370998 0.53600001
0.10695665 0.044453777 0.537
0.10835664 0.044453777 0.537
0.10996103 0.044536564 0.53800005
0.11136363 0.044536564 0.53800005
0.11297584 0.044619344 0.53900003
0.11459325 0.044702124 0.54000002
0.11600106 0.044702124 0.54000002
0.1176263 0.044784907 0.54100001
0.11903672 0.044784907 0.54100001
0.12066979 0.044867691 0.54200006
0.12208281 0.044867691 0.54200006
0.12372369 0.04495047 0.54300004
0.12513933 0.04495047 0.54300004
0.12678804 0.045033254 0.54400003
0.12820627 0.045033254 0.54400003
0.12986279 0.045116033 0.54500002
0.13152452 0.045198813 0.546
0.13294798 0.045198813 0.546
0.13437144 0.045198813 0.546
0.13604362 0.0452816 0.54700005
0.13746968 0.0452816 0.54700005
0.13889575 0.0452816 0.54700005
0.14032181 0.0452816 0.54700005
0.14174788 0.0452816 0.54700005
0.14317395 0.0452816 0.54700005
0.14486435 0.04536438 0.54800004
0.14629303 0.04536438 0.54800004
0.14772169 0.04536438 0.54800004
0.14915037 0.04536438 0.54800004
0.1508538 0.04544716 0.54900002
0.15228508 0.04544716 0.54900002
0.15371636 0.04544716 0.54900002
0.15543024 0.045529943 0.55000001
0.15686412 0.045529943 0.55000001
0.15858582 0.045612723 0.551
0.1600223 0.045612723 0.551
0.16145881 0.045612723 0.551
0.16319095 0.045695506 0.55200005
0.16463004 0.045695506 0.55200005
0.16636999 0.045778289 0.55300003
0.16781169 0.045778289 0.55300003
0.16955946 0.045861069 0.55400002
0.17100377 0.045861069 0.55400002
0.1724481 0.045861069 0.55400002
0.17420627 0.045943849 0.55500001
0.1756532 0.045943849 0.55500001
0.17741923 0.046026636 0.55600005
0.17886877 0.046026636 0.55600005
0.18031828 0.046026636 0.55600005
0.18209474 0.046109416 0.55700004
0.18354689 0.046109416 0.55700004
0.18533114 0.046192195 0.55800003
0.18678589 0.046192195 0.55800003
0.18857796 0.046274979 0.55900002
0.19003531 0.046274979 0.55900002
0.19149266 0.046274979 0.55900002
0.19329518 0.046357758 0.56
0.19510292 0.046440542 0.56100005
0.19656549 0.046440542 0.56100005
0.19838104 0.046523325 0.56200004
0.19984621 0.046523325 0.56200004
0.20166957 0.046606105 0.56300002
0.20313735 0.046606105 0.56300002
0.20460513 0.046606105 0.56300002
0.20607291 0.046606105 0.56300002
0.20790932 0.046688884 0.56400001
0.20937969 0.046688884 0.56400001
0.21122393 0.046771664 0.565
0.21269691 0.046771664 0.565
0.2141699 0.046771664 0.565
0.21602458 0.046854451 0.56600004
0.21750018 0.046854451 0.56600004
0.21897577 0.046854451 0.56600004
0.22084087 0.046937231 0.56700003
0.22231907 0.046937231 0.56700003
0.22379728 0.046937231 0.56700003
0.2256728 0.047020014 0.56800002
0.2271536 0.047020014 0.56800002
0.22863442 0.047020014 0.56800002
0.23052034 0.047102794 0.56900001
0.23200378 0.047102794 0.56900001
0.23348719 0.047102794 0.56900001
0.23538359 0.047185577 0.57000005
0.2368696 0.047185577 0.57000005
0.23835564 0.047185577 0.57000005
0.24026242 0.047268361 0.57100004
0.24175106 0.047268361 0.57100004
0.24366567 0.047351141 0.57200003
0.24515691 0.047351141 0.57200003
0.24664816 0.047351141 0.57200003
0.2485732 0.04743392 0.57300001
0.25006706 0.04743392 0.57300001
0.25199991 0.0475167 0.574
0.25349638 0.0475167 0.574
0.25543708 0.047599487 0.57500005
0.25693616 0.047599487 0.57500005
0.25888464 0.047682267 0.57600003
0.26038632 0.047682267 0.57600003
0.26234263 0.04776505 0.57700002
0.26384693 0.04776505 0.57700002
0.26581109 0.04784783 0.57800001
0.26731795 0.04784783 0.57800001
0.26928997 0.047930613 0.57900006
0.27126715 0.048013397 0.58000004
0.27277926 0.048013397 0.58000004
0.27476424 0.048096176 0.58100003
0.27627897 0.048096176 0.58100003
0.27827179 0.048178956 0.58200002
-0.25125343 0.038168784 0.44700003
-0.2500881 0.038168784 0.44700003
-0.24892271 0.038168784 0.44700003
-0.24831162 0.038254172 0.44800001
-0.24714366 0.038254172 0.44800001
-0.24597567 0.038254172 0.44800001
-0.24535418 0.038339563 0.44900003
-0.24418361 0.038339563 0.44900003
-0.24301304 0.038339563 0.44900003
-0.24184245 0.038339563 0.44900003
-0.2412079 0.03842495 0.45000002
-0.24003473 0.03842495 0.45000002
-0.23886156 0.03842495 0.45000002
-0.23768836 0.03842495 0.45000002
-0.23704079 0.038510337 0.45100003
-0.23586501 0.038510337 0.45100003
-0.23468924 0.038510337 0.45100003
-0.23351343 0.038510337 0.45100003
-0.2328528 0.038595729 0.45200002
-0.23167442 0.038595729 0.45200002
-0.230496 0.038595729 0.45200002
-0.22982495 0.038681116 0.45300001
-0.22864395 0.038681116 0.45300001
-0.22746296 0.038681116 0.45300001
-0.22678149 0.038766503 0.45400003
-0.22559787 0.038766503 0.45400003
-0.22441427 0.038766503 0.45400003
-0.22372235 0.038851891 0.45500001
-0.22253615 0.038851891 0.45500001
-0.22134992 0.038851891 0.45500001
-0.22064759 0.038937282 0.45600003
-0.21945877 0.038937282 0.45600003
-0.21826994 0.038937282 0.45600003
-0.21755718 0.039022669 0.45700002
-0.21636575 0.039022669 0.45700002
-0.21517433 0.039022669 0.45700002
-0.2139829 0.039022669 0.45700002
-0.21279147 0.039022669 0.45700002
-0.21160004 0.039022669 0.45700002
-0.21040861 0.039022669 0.45700002
-0.20921718 0.039022669 0.45700002
-0.20802577 0.039022669 0.45700002
-0.20728692 0.03910806 0.45800003
-0.20609288 0.03910806 0.45800003
-0.20489886 0.03910806 0.45800003
-0.20370482 0.03910806 0.45800003
-0.20295295 0.039193448 0.45900002
-0.2017563 0.039193448 0.45900002
-0.20055966 0.039193448 0.45900002
-0.19979735 0.039278835 0.46000001
-0.1985981 0.039278835 0.46000001
-0.19739886 0.039278835 0.46000001
-0.19662614 0.039364226 0.46100003
-0.19542427 0.039364226 0.46100003
-0.19422242 0.039364226 0.46100003
-0.19302057 0.039364226 0.46100003
-0.19223478 0.039449614 0.46200001
-0.19103034 0.039449614 0.46200001
-0.18982586 0.039449614 0.46200001
-0.18902968 0.039535005 0.46300003
-0.18782261 0.039535005 0.46300003
-0.18661554 0.039535005 0.46300003
-0.18540847 0.039535005 0.46300003
-0.18459924 0.039620392 0.46400002
-0.18338956 0.039620392 0.46400002
-0.18217988 0.039620392 0.46400002
-0.18136023 0.039705783 0.46500003
-0.18014796 0.039705783 0.46500003
-0.17893566 0.039705783 0.46500003
-0.17810556 0.039791171 0.46600002
-0.17689069 0.039791171 0.46600002
-0.17567579 0.039791171 0.46600002
-0.1744609 0.039791171 0.46600002
-0.17361778 0.039876558 0.46700001
-0.17240028 0.039876558 0.46700001
-0.17154934 0.039961949 0.46800002
-0.17032924 0.039961949 0.46800002
-0.16947047 0.040047336 0.46900001
-0.16824776 0.040047336 0.46900001
-0.16702504 0.040047336 0.46900001
-0.16580234 0.040047336 0.46900001
-0.16457961 0.040047336 0.46900001
-0.16370521 0.040132724 0.47000003
-0.16247991 0.040132724 0.47000003
-0.16125458 0.040132724 0.47000003
-0.16002926 0.040132724 0.47000003
-0.15880394 0.040132724 0.47000003
-0.15791389 0.040218115 0.47100002
-0.15668596 0.040218115 0.47100002
-0.15545805 0.040218115 0.47100002
-0.15455757 0.040303502 0.47200003
-0.15332705 0.040303502 0.47200003
-0.15241873 0.04038889 0.47300002
-0.1511856 0.04038889 0.47300002
-0.14995246 0.04038889 0.47300002
-0.14903373 0.040474281 0.47400004
-0.14779799 0.040474281 0.47400004
-0.14656223 0.040474281 0.47400004
-0.14563309 0.040559668 0.47500002
-0.14439473 0.040559668 0.47500002
-0.14315638 0.040559668 0.47500002
-0.14191802 0.040559668 0.47500002
-0.14097583 0.040645055 0.47600001
-0.13973486 0.040645055 0.47600001
-0.13878487 0.040730447 0.47700003
-0.13754129 0.040730447 0.47700003
-0.13629773 0.040730447 0.47700003
-0.13505416 0.040730447 0.47700003
-0.13409109 0.040815834 0.47800002
-0.13284492 0.040815834 0.47800002
-0.13159874 0.040815834 0.47800002
-0.13035257 0.040815834 0.47800002
-0.1293765 0.040901225 0.47900003
-0.12812772 0.040901225 0.47900003
-0.1271438 0.040986612 0.48000002
-0.12589243 0.040986612 0.48000002
-0.12464103 0.040986612 0.48000002
-0.12364671 0.041072004 0.48100004
-0.12239271 0.041072004 0.48100004
-0.12113871 0.041072004 0.48100004
-0.11988471 0.041072004 0.48100004
-0.11863071 0.041072004 0.48100004
-0.11737671 0.041072004 0.48100004
-0.11612272 0.041072004 0.48100004
-0.11486872 0.041072004 0.48100004
-0.11361472 0.041072004 0.48100004
-0.11236073 0.041072004 0.48100004
-0.11110672 0.041072004 0.48100004
-0.11008111 0.041157391 0.48200002
-0.10882451 0.041157391 0.48200002
-0.10779107 0.041242778 0.48300001
-0.10653186 0.041242778 0.48300001
-0.1054906 0.041328169 0.48400003
-0.10422879 0.041328169 0.48400003
-0.10317971 0.041413557 0.48500001
-0.10191528 0.041413557 0.48500001
-0.10085839 0.041498944 0.48600003
-0.099591352 0.041498944 0.48600003
-0.098324321 0.041498944 0.48600003
-0.097256996 0.041584335 0.48700002
-0.09598735 0.041584335 0.48700002
-0.094912201 0.041669723 0.48800004
-0.093639955 0.041669723 0.48800004
-0.092556983 0.04175511 0.48900002
-0.091282129 0.04175511 0.48900002
-0.090007275 0.04175511 0.48900002
-0.08891388 0.041840497 0.49000001
-0.087636419 0.041840497 0.49000001
-0.086358957 0.041840497 0.49000001
-0.085255139 0.041925889 0.49100003
-0.083975069 0.041925889 0.49100003
-0.082695 0.041925889 0.49100003
-0.081414931 0.041925889 0.49100003
-0.080298066 0.042011276 0.49200001
-0.079015389 0.042011276 0.49200001
-0.077732712 0.042011276 0.49200001
-0.076605432 0.042096667 0.49300003
-0.075320147 0.042096667 0.49300003
-0.074034862 0.042096667 0.49300003
-0.072749585 0.042096667 0.49300003
-0.0714643 0.042096667 0.49300003
-0.070179015 0.042096667 0.49300003
-0.068893738 0.042096667 0.49300003
-0.067745589 0.042182054 0.49400002
-0.066457704 0.042182054 0.49400002
-0.065169811 0.042182054 0.49400002
