# .PCD v0.7 - Point Cloud Data file format
VERSION 0.7
FIELDS x y z rgb
SIZE 4 4 4 4
TYPE F F F F
COUNT 1 1 1 1
WIDTH 1461
HEIGHT 1
VIEWPOINT 0 0 0 1 0 0 0
POINTS 1461
DATA ascii
-0 -0 0 0
-0 -0 0 0
-0 -0 0 0
-0 -0 0 0
-0 -0 0 0
-0 -0 0 0
-0 -0 0 0
-0 -0 0 0
-0 -0 0 0
-0 -0 0 0
-0 -0 0 0
-0 -0 0 0
-0 -0 0 0
-0 -0 0 0
-0 -0 0 0
-0 -0 0 0
-0 -0 0 0
-0 -0 0 0
-0 -0 0 0
-0 -0 0 0
-0 -0 0 0
-0 -0 0 0
-0 -0 0 0
-0 -0 0 0
-0 -0 0 0
-0.31017888 -0.12959887 0.55700004 0
-0.30817246 -0.12936619 0.55600005 0
-0.30672297 -0.12936619 0.55600005 0
-0.30527341 -0.12936619 0.55600005 0
-0.3032774 -0.12913351 0.55500001 0
-0.30128667 -0.12890084 0.55400002 0
-0.29984236 -0.12890084 0.55400002 0
-0.2978594 -0.12866817 0.55300003 0
-0.29641771 -0.12866817 0.55300003 0
-0.29444262 -0.12843551 0.55200005 0
-0.29247269 -0.12820281 0.551 0
-0.290508 -0.12797014 0.55000001 0
-0.28907412 -0.12797014 0.55000001 0
-0.28711727 -0.12773748 0.54900002 0
-0.28568599 -0.12773748 0.54900002 0
-0.28373694 -0.12750481 0.54800004 0
-0.28179312 -0.12727214 0.54700005 0
-0.28036705 -0.12727214 0.54700005 0
-0.27894098 -0.12727214 0.54700005 0
-0.2775149 -0.12727214 0.54700005 0
-0.27608886 -0.12727214 0.54700005 0
-0.27416065 -0.12703945 0.546 0
-0.27273721 -0.12703945 0.546 0
-0.27131373 -0.12703945 0.546 0
-0.26939598 -0.12680678 0.54500002 0
-0.26797512 -0.12680678 0.54500002 0
-0.2665543 -0.12680678 0.54500002 0
-0.26513344 -0.12680678 0.54500002 0
-0.26322868 -0.12657411 0.54400003 0
-0.26181045 -0.12657411 0.54400003 0
-0.25991356 -0.12634145 0.54300004 0
-0.25849792 -0.12634145 0.54300004 0
-0.25660884 -0.12610878 0.54200006 0
-0.25519583 -0.12610878 0.54200006 0
-0.25331452 -0.12587608 0.54100001 0
-0.25190413 -0.12587608 0.54100001 0
-0.25003067 -0.12564342 0.54000002 0
-0.24862288 -0.12564342 0.54000002 0
-0.24675725 -0.12541075 0.53900003 0
-0.24535206 -0.12541075 0.53900003 0
-0.24349426 -0.12517808 0.53800005 0
-0.24209164 -0.12517808 0.53800005 0
-0.24024166 -0.12494539 0.537 0
-0.23884165 -0.12494539 0.537 0
-0.23699951 -0.12471273 0.53600001 0
-0.23560213 -0.12471273 0.53600001 0
-0.23420474 -0.12471273 0.53600001 0
-0.23280735 -0.12471273 0.53600001 0
-0.23097824 -0.12448005 0.53500003 0
-0.22958346 -0.12448005 0.53500003 0
-0.22776216 -0.12424739 0.53400004 0
-0.22636999 -0.12424739 0.53400004 0
-0.22455652 -0.12401471 0.53300005 0
-0.22316696 -0.12401471 0.53300005 0
-0.22136126 -0.12378203 0.53200001 0
-0.21997432 -0.12378203 0.53200001 0
-0.21858735 -0.12378203 0.53200001 0
-0.21679214 -0.12354936 0.53100002 0
-0.21500212 -0.12331669 0.53000003 0
-0.21362038 -0.12331669 0.53000003 0
-0.21223864 -0.12331669 0.53000003 0
-0.2108569 -0.12331669 0.53000003 0
-0.20828943 -0.12261867 0.52700001 0
-0.205345 -0.12168797 0.523 0
-0 -0 0 0
-0 -0 0 0
-0 -0 0 0
-0.1914826 -0.11656918 0.50100005 0
-0.18865809 -0.11563848 0.49700001 0
-0.1866084 -0.11517314 0.49500003 0
-0.18531792 -0.11517314 0.49500003 0
-0.18402742 -0.11517314 0.49500003 0
-0.18273692 -0.11517314 0.49500003 0
-0.18144642 -0.11517314 0.49500003 0
-0.18051988 -0.11540581 0.49600002 0
-0.17958811 -0.11563848 0.49700001 0
-0.17829241 -0.11563848 0.49700001 0
-0.17735283 -0.11587115 0.49800003 0
-0.17640804 -0.11610383 0.49900001 0
-0.17510711 -0.11610383 0.49900001 0
-0.17415448 -0.11633649 0.5 0
-0.17319667 -0.11656918 0.50100005 0
-0.17223361 -0.11680185 0.50200003 0
-0.17126536 -0.11703452 0.50300002 0
-0.17062975 -0.11749986 0.505 0
-0.16964848 -0.11773254 0.50600004 0
-0.1683293 -0.11773254 0.50600004 0
-0.16734019 -0.11796521 0.50700003 0
-0.16634585 -0.11819788 0.50800002 0
-0.16534631 -0.11843055 0.509 0
-0.16401932 -0.11843055 0.509 0
-0.16269232 -0.11843055 0.509 0
-0.16136532 -0.11843055 0.509 0
-0.16003832 -0.11843055 0.509 0
-0.15839952 -0.11819788 0.50800002 0
-0.15707512 -0.11819788 0.50800002 0
-0.15544416 -0.11796521 0.50700003 0
-0.15412237 -0.11796521 0.50700003 0
-0.15280059 -0.11796521 0.50700003 0
-0.15147881 -0.11796521 0.50700003 0
-0.15045319 -0.11819788 0.50800002 0
-0.14912879 -0.11819788 0.50800002 0
-0.14780442 -0.11819788 0.50800002 0
-0.14648002 -0.11819788 0.50800002 0
-0.14515565 -0.11819788 0.50800002 0
-0.14383125 -0.11819788 0.50800002 0
-0.14250685 -0.11819788 0.50800002 0
-0.14118248 -0.11819788 0.50800002 0
-0.13985808 -0.11819788 0.50800002 0
-0.1385337 -0.11819788 0.50800002 0
-0.13720931 -0.11819788 0.50800002 0
-0.13588493 -0.11819788 0.50800002 0
-0.13429564 -0.11796521 0.50700003 0
-0.13297388 -0.11796521 0.50700003 0
-0.13165209 -0.11796521 0.50700003 0
-0.13007325 -0.11773254 0.50600004 0
-0.12875408 -0.11773254 0.50600004 0
-0.12743491 -0.11773254 0.50600004 0
-0.12586647 -0.11749986 0.505 0
-0.12454991 -0.11749986 0.505 0
-0.12298932 -0.11726719 0.50400001 0
-0.12167536 -0.11726719 0.50400001 0
-0.12012259 -0.11703452 0.50300002 0
-0.11857504 -0.11680185 0.50200003 0
-0.11726629 -0.11680185 0.50200003 0
-0.11572655 -0.11656918 0.50100005 0
-0.11442041 -0.11656918 0.50100005 0
-0.11288849 -0.11633649 0.5 0
-0.11136179 -0.11610383 0.49900001 0
-0.11006086 -0.11610383 0.49900001 0
-0.10875994 -0.11610383 0.49900001 0
-0.10745902 -0.11610383 0.49900001 0
-0.10594535 -0.11587115 0.49800003 0
-0.1044369 -0.11563848 0.49700001 0
-0.10314119 -0.11563848 0.49700001 0
-0.10184547 -0.11563848 0.49700001 0
-0.10054976 -0.11563848 0.49700001 0
-0.099254057 -0.11563848 0.49700001 0
-0.097958341 -0.11563848 0.49700001 0
-0.096662626 -0.11563848 0.49700001 0
-0.095366918 -0.11563848 0.49700001 0
-0.094071209 -0.11563848 0.49700001 0
-0.092775501 -0.11563848 0.49700001 0
-0.091479786 -0.11563848 0.49700001 0
-0.090184078 -0.11563848 0.49700001 0
-0.08888837 -0.11563848 0.49700001 0
-0.087592654 -0.11563848 0.49700001 0
-0.086123317 -0.11540581 0.49600002 0
-0.08483021 -0.11540581 0.49600002 0
-0.083537109 -0.11540581 0.49600002 0
-0.082078196 -0.11517314 0.49500003 0
-0.080787688 -0.11517314 0.49500003 0
-0.079336591 -0.11494046 0.49400002 0
-0.077890709 -0.11470779 0.49300003 0
-0.076605432 -0.11470779 0.49300003 0
-0.075167365 -0.11447512 0.49200001 0
-0.073734522 -0.11424244 0.49100003 0
-0.072454453 -0.11424244 0.49100003 0
-0.071029425 -0.11400977 0.49000001 0
-0.069751963 -0.11400977 0.49000001 0
-0.068474501 -0.11400977 0.49000001 0
-0.067059904 -0.11377709 0.48900002 0
-0.06578505 -0.11377709 0.48900002 0
-0 -0 0 0
-0 -0 0 0
-0 -0 0 0
-0 -0 0 0
-0 -0 0 0
-0 -0 0 0
-0 -0 0 0
-0 -0 0 0
-0 -0 0 0
-0 -0 0 0
-0.043187641 -0.094930582 0.40800002 0
-0.042227197 -0.095163256 0.40900001 0
-0.04126155 -0.09539593 0.41000003 0
-0.040290684 -0.095628604 0.41100001 0
-0.039219182 -0.095628604 0.41100001 0
-0.038333312 -0.096093945 0.41300002 0
-0.037256595 -0.096093945 0.41300002 0
-0.036179878 -0.096093945 0.41300002 0
-0.035103157 -0.096093945 0.41300002 0
-0.03402644 -0.096093945 0.41300002 0
-0 -0 0 0
-0 -0 0 0
-0.035121195 -0.10958898 0.47100002 0
-0.033893269 -0.10958898 0.47100002 0
-0.032665338 -0.10958898 0.47100002 0
-0.031437412 -0.10958898 0.47100002 0
-0.030273624 -0.10982166 0.47200003 0
-0.029043091 -0.10982166 0.47200003 0
-0.027871482 -0.11005433 0.47300002 0
-0.026694657 -0.110287 0.47400004 0
-0.025512621 -0.11051968 0.47500002 0
-0.024376474 -0.11098503 0.47700003 0
-0.023181399 -0.11121769 0.47800002 0
-0.021981113 -0.11145037 0.47900003 0
-0.020775612 -0.11168304 0.48000002 0
-0.019564897 -0.11191572 0.48100004 0
-0.018310899 -0.11191572 0.48100004 0
-0.017056903 -0.11191572 0.48100004 0
-0.015802905 -0.11191572 0.48100004 0
-0.014548906 -0.11191572 0.48100004 0
-0.013294909 -0.11191572 0.48100004 0
-0.012040911 -0.11191572 0.48100004 0
-0.010786914 -0.11191572 0.48100004 0
-0.0095130969 -0.11168304 0.48000002 0
-0.0082617057 -0.11168304 0.48000002 0
-0.0070103151 -0.11168304 0.48000002 0
-0.0057589249 -0.11168304 0.48000002 0
-0.0044981437 -0.11145037 0.47900003 0
-0.0032493602 -0.11145037 0.47900003 0
-0.0019963998 -0.11121769 0.47800002 0
-0.00075022347 -0.11121769 0.47800002 0
0.00049595302 -0.11121769 0.47800002 0
0.0017421294 -0.11121769 0.47800002 0
0.0029883059 -0.11121769 0.47800002 0
0.0042256238 -0.11098503 0.47700003 0
0.0054691932 -0.11098503 0.47700003 0
0.0067127626 -0.11098503 0.47700003 0
0.0079563325 -0.11098503 0.47700003 0
0.0091999015 -0.11098503 0.47700003 0
0.01044347 -0.11098503 0.47700003 0
0.01168704 -0.11098503 0.47700003 0
0.0129035 -0.11075234 0.47600001 0
0.014144463 -0.11075234 0.47600001 0
0.015385426 -0.11075234 0.47600001 0
0.016591458 -0.11051968 0.47500002 0
0.017829815 -0.11051968 0.47500002 0
0.019068168 -0.11051968 0.47500002 0
0.020306524 -0.11051968 0.47500002 0
0.021499524 -0.110287 0.47400004 0
0.022735272 -0.110287 0.47400004 0
0.023971019 -0.110287 0.47400004 0
0.025153589 -0.11005433 0.47300002 0
0.026386729 -0.11005433 0.47300002 0
0.027561478 -0.10982166 0.47200003 0
0.028792012 -0.10982166 0.47200003 0
0.029958937 -0.10958898 0.47100002 0
0.031120652 -0.10935631 0.47000003 0
0.032345973 -0.10935631 0.47000003 0
0.033499863 -0.10912363 0.46900001 0
0.034722574 -0.10912363 0.46900001 0
0.035868645 -0.10889097 0.46800002 0
0.0370095 -0.10865829 0.46700001 0
0.038227003 -0.10865829 0.46700001 0
0.039444499 -0.10865829 0.46700001 0
0.040661998 -0.10865829 0.46700001 0
0.041879497 -0.10865829 0.46700001 0
0.04300471 -0.10842562 0.46600002 0
0.044314492 -0.10865829 0.46700001 0
0.045434494 -0.10842562 0.46600002 0
0.046649389 -0.10842562 0.46600002 0
0.047864281 -0.10842562 0.46600002 0
0.049079169 -0.10842562 0.46600002 0
0.05029406 -0.10842562 0.46600002 0
0.051508952 -0.10842562 0.46600002 0
0.052723844 -0.10842562 0.46600002 0
0.053822991 -0.10819295 0.46500003 0
0.055035274 -0.10819295 0.46500003 0
0.056126595 -0.10796027 0.46400002 0
0.057336271 -0.10796027 0.46400002 0
0.058419775 -0.1077276 0.46300003 0
0.059626844 -0.1077276 0.46300003 0
0.060833916 -0.1077276 0.46300003 0
0.062040985 -0.1077276 0.46300003 0
0.063248053 -0.1077276 0.46300003 0
0.064315908 -0.10749492 0.46200001 0
0.065520383 -0.10749492 0.46200001 0
0.066724844 -0.10749492 0.46200001 0
0.067782275 -0.10726225 0.46100003 0
0.068984129 -0.10726225 0.46100003 0
0.070185989 -0.10726225 0.46100003 0
0.071232982 -0.10702958 0.46000001 0
0.072432235 -0.10702958 0.46000001 0
0.07363148 -0.10702958 0.46000001 0
0.074830733 -0.10702958 0.46000001 0
0.075864702 -0.10679691 0.45900002 0
0.07706134 -0.10679691 0.45900002 0
0.078087486 -0.10656424 0.45800003 0
0.079281524 -0.10656424 0.45800003 0
0.080475561 -0.10656424 0.45800003 0
0.081491277 -0.10633156 0.45700002 0
0.082501784 -0.10609889 0.45600003 0
0.083690606 -0.10609889 0.45600003 0
0.084879428 -0.10609889 0.45600003 0
0.085879497 -0.10586622 0.45500001 0
0.087065712 -0.10586622 0.45500001 0
0.088251926 -0.10586622 0.45500001 0
0.089438133 -0.10586622 0.45500001 0
0.090425178 -0.10563354 0.45400003 0
0.091608785 -0.10563354 0.45400003 0
0.092792392 -0.10563354 0.45400003 0
0.093975998 -0.10563354 0.45400003 0
0.095159613 -0.10563354 0.45400003 0
0.096343219 -0.10563354 0.45400003 0
0.097312003 -0.10540087 0.45300001 0
0.098493002 -0.10540087 0.45300001 0
0.099674001 -0.10540087 0.45300001 0
0.100855 -0.10540087 0.45300001 0
0.102036 -0.10540087 0.45300001 0
0.10298915 -0.10516819 0.45200002 0
0.10416754 -0.10516819 0.45200002 0
0.10534593 -0.10516819 0.45200002 0
0.10628866 -0.10493553 0.45100003 0
0.10746444 -0.10493553 0.45100003 0
0.10839934 -0.10470285 0.45000002 0
0.10957252 -0.10470285 0.45000002 0
0.1107457 -0.10470285 0.45000002 0
0.11167017 -0.10447018 0.44900003 0
0.11284073 -0.10447018 0.44900003 0
0.11375739 -0.1042375 0.44800001 0
0.11492535 -0.1042375 0.44800001 0
0.11609332 -0.1042375 0.44800001 0
0.11726128 -0.1042375 0.44800001 0
0.11842924 -0.1042375 0.44800001 0
0.11959721 -0.1042375 0.44800001 0
0.12076517 -0.1042375 0.44800001 0
0.12193314 -0.1042375 0.44800001 0
0.1231011 -0.1042375 0.44800001 0
0.12426907 -0.1042375 0.44800001 0
0.12515704 -0.10400483 0.44700003 0
0.1263224 -0.10400483 0.44700003 0
0.12748775 -0.10400483 0.44700003 0
0.12836529 -0.10377216 0.44600001 0
0.12952805 -0.10377216 0.44600001 0
0.1306908 -0.10377216 0.44600001 0
0.13155793 -0.10353949 0.44500002 0
0.13271806 -0.10353949 0.44500002 0
0.13357736 -0.10330682 0.44400004 0
0.13473488 -0.10330682 0.44400004 0
0.13589244 -0.10330682 0.44400004 0
0.13704996 -0.10330682 0.44400004 0
0.13789622 -0.10307414 0.44300002 0
0.13905114 -0.10307414 0.44300002 0
0.14020608 -0.10307414 0.44300002 0
0.141361 -0.10307414 0.44300002 0
0.14219423 -0.10284147 0.44200003 0
0.14334655 -0.10284147 0.44200003 0
0.14449887 -0.10284147 0.44200003 0
0.14565121 -0.10284147 0.44200003 0
0.14647138 -0.10260879 0.44100001 0
0.1476211 -0.10260879 0.44100001 0
0.14843346 -0.10237612 0.44000003 0
0.14958058 -0.10237612 0.44000003 0
0.15072767 -0.10237612 0.44000003 0
0.15152961 -0.10214344 0.43900001 0
0.15267411 -0.10214344 0.43900001 0
0.15381862 -0.10214344 0.43900001 0
0.15496311 -0.10214344 0.43900001 0
0.15575202 -0.10191078 0.43800002 0
0.15689391 -0.10191078 0.43800002 0
0.15803581 -0.10191078 0.43800002 0
0.15917771 -0.10191078 0.43800002 0
0.1603196 -0.10191078 0.43800002 0
0.1614615 -0.10191078 0.43800002 0
0.16260338 -0.10191078 0.43800002 0
0.16374528 -0.10191078 0.43800002 0
0.16451071 -0.1016781 0.43700001 0
0.16565001 -0.1016781 0.43700001 0
0.16640761 -0.10144543 0.43600002 0
0.16754431 -0.10144543 0.43600002 0
0.16868098 -0.10144543 0.43600002 0
0.16942818 -0.10121275 0.43500003 0
0.17056224 -0.10121275 0.43500003 0
0.17130162 -0.10098008 0.43400002 0
0.17243308 -0.10098008 0.43400002 0
0.17356454 -0.10098008 0.43400002 0
0.17429349 -0.10074741 0.43300003 0
0.17542234 -0.10074741 0.43300003 0
0.17655121 -0.10074741 0.43300003 0
0.17726971 -0.10051473 0.43200001 0
0.17839597 -0.10051473 0.43200001 0
0.17910665 -0.10028207 0.43100002 0
0.1802303 -0.10028207 0.43100002 0
0.18135394 -0.10028207 0.43100002 0
0.18247759 -0.10028207 0.43100002 0
0.18360123 -0.10028207 0.43100002 0
0.18472488 -0.10028207 0.43100002 0
0.18541732 -0.10004938 0.43000001 0
0.18653835 -0.10004938 0.43000001 0
0.1876594 -0.10004938 0.43000001 0
0.18878043 -0.10004938 0.43000001 0
0.18990147 -0.10004938 0.43000001 0
0.1910225 -0.10004938 0.43000001 0
0.1916967 -0.099816717 0.42900002 0
0.19281512 -0.099816717 0.42900002 0
0.19393356 -0.099816717 0.42900002 0
0.19505198 -0.099816717 0.42900002 0
0.19617042 -0.099816717 0.42900002 0
0.19682898 -0.09958405 0.42800003 0
0.19794481 -0.09958405 0.42800003 0
0.19906063 -0.09958405 0.42800003 0
-0 -0 0 0
-0 -0 0 0
-0 -0 0 0
-0 -0 0 0
-0 -0 0 0
-0 -0 0 0
-0 -0 0 0
-0 -0 0 0
-0 -0 0 0
-0 -0 0 0
-0 -0 0 0
-0 -0 0 0
-0 -0 0 0
-0 -0 0 0
-0 -0 0 0
-0 -0 0 0
-0 -0 0 0
-0 -0 0 0
-0 -0 0 0
-0 -0 0 0
-0 -0 0 0
-0 -0 0 0
-0 -0 0 0
-0 -0 0 0
-0 -0 0 0
-0 -0 0 0
-0 -0 0 0
-0 -0 0 0
-0 -0 0 0
-0 -0 0 0
-0 -0 0 0
-0 -0 0 0
-0 -0 0 0
-0 -0 0 0
-0 -0 0 0
-0 -0 0 0
-0 -0 0 0
-0 -0 0 0
-0 -0 0 0
-0 -0 0 0
-0.31017888 -0.12814674 0.55700004 0
-0.30872673 -0.12814674 0.55700004 0
-0.30672297 -0.12791666 0.55600005 0
-0.30527341 -0.12791666 0.55600005 0
-0.3032774 -0.12768659 0.55500001 0
-0.3018305 -0.12768659 0.55500001 0
-0.29984236 -0.12745653 0.55400002 0
-0.29839802 -0.12745653 0.55400002 0
-0.29641771 -0.12722647 0.55300003 0
-0.29444262 -0.1269964 0.55200005 0
-0.29247269 -0.12676632 0.551 0
-0.290508 -0.12653627 0.55000001 0
-0.28907412 -0.12653627 0.55000001 0
-0.28711727 -0.12630621 0.54900002 0
-0.28568599 -0.12630621 0.54900002 0
-0.28373694 -0.12607613 0.54800004 0
-0.28230828 -0.12607613 0.54800004 0
-0.28036705 -0.12584607 0.54700005 0
-0.27894098 -0.12584607 0.54700005 0
-0.2775149 -0.12584607 0.54700005 0
-0.27608886 -0.12584607 0.54700005 0
-0.27416065 -0.125616 0.546 0
-0.27273721 -0.125616 0.546 0
-0.27131373 -0.125616 0.546 0
-0.26989028 -0.125616 0.546 0
-0.26797512 -0.12538594 0.54500002 0
-0.2665543 -0.12538594 0.54500002 0
-0.26513344 -0.12538594 0.54500002 0
-0.26371256 -0.12538594 0.54500002 0
-0.26181045 -0.12515587 0.54400003 0
-0.26039222 -0.12515587 0.54400003 0
-0.25849792 -0.12492581 0.54300004 0
-0.25708228 -0.12492581 0.54300004 0
-0.25519583 -0.12469575 0.54200006 0
-0.25331452 -0.12446567 0.54100001 0
-0.25190413 -0.12446567 0.54100001 0
-0.25003067 -0.12423561 0.54000002 0
-0.24862288 -0.12423561 0.54000002 0
-0.24675725 -0.12400554 0.53900003 0
-0.24535206 -0.12400554 0.53900003 0
-0.24349426 -0.12377548 0.53800005 0
-0.24209164 -0.12377548 0.53800005 0
-0.24024166 -0.1235454 0.537 0
-0.23884165 -0.1235454 0.537 0
-0.23699951 -0.12331534 0.53600001 0
-0.23560213 -0.12331534 0.53600001 0
-0.23420474 -0.12331534 0.53600001 0
-0.23280735 -0.12331534 0.53600001 0
-0.23097824 -0.12308528 0.53500003 0
-0.22958346 -0.12308528 0.53500003 0
-0.22776216 -0.12285522 0.53400004 0
-0.22636999 -0.12285522 0.53400004 0
-0.22455652 -0.12262515 0.53300005 0
-0.22316696 -0.12262515 0.53300005 0
-0.22177738 -0.12262515 0.53300005 0
-0.21997432 -0.12239508 0.53200001 0
-0.21858735 -0.12239508 0.53200001 0
-0.21679214 -0.12216501 0.53100002 0
-0.21540777 -0.12216501 0.53100002 0
-0.21402344 -0.12216501 0.53100002 0
-0.21223864 -0.12193495 0.53000003 0
-0.21125473 -0.12216501 0.53100002 0
-0.20907992 -0.12170488 0.52900004 0
-0.20613027 -0.12078462 0.52500004 0
-0.20320146 -0.11986435 0.52100003 0
-0 -0 0 0
-0 -0 0 0
-0 -0 0 0
-0.18941727 -0.1148029 0.49900001 0
-0.18698539 -0.1141127 0.49600002 0
-0.18531792 -0.11388264 0.49500003 0
-0.18402742 -0.11388264 0.49500003 0
-0.18273692 -0.11388264 0.49500003 0
-0.18181297 -0.1141127 0.49600002 0
-0.18051988 -0.1141127 0.49600002 0
-0.17958811 -0.11434276 0.49700001 0
-0.17829241 -0.11434276 0.49700001 0
-0.17735283 -0.11457284 0.49800003 0
-0.17640804 -0.1148029 0.49900001 0
-0.17510711 -0.1148029 0.49900001 0
-0.17415448 -0.11503296 0.5 0
-0.17319667 -0.11526304 0.50100005 0
-0.17257671 -0.11572316 0.50300002 0
-0.17160584 -0.11595323 0.50400001 0
-0.17062975 -0.11618329 0.505 0
-0.16964848 -0.11641337 0.50600004 0
-0.16866197 -0.11664343 0.50700003 0
-0.16767025 -0.1168735 0.50800002 0
-0.1666733 -0.11710355 0.509 0
-0.16534631 -0.11710355 0.509 0
-0.16401932 -0.11710355 0.509 0
-0.16269232 -0.11710355 0.509 0
-0.16136532 -0.11710355 0.509 0
-0.16003832 -0.11710355 0.509 0
-0.15871133 -0.11710355 0.509 0
-0.15707512 -0.1168735 0.50800002 0
-0.15575075 -0.1168735 0.50800002 0
-0.15442635 -0.1168735 0.50800002 0
-0.15310197 -0.1168735 0.50800002 0
-0.15177758 -0.1168735 0.50800002 0
-0.15045319 -0.1168735 0.50800002 0
-0.14912879 -0.1168735 0.50800002 0
-0.14780442 -0.1168735 0.50800002 0
-0.14648002 -0.1168735 0.50800002 0
-0.14544138 -0.11710355 0.509 0
-0.14411438 -0.11710355 0.509 0
-0.14278738 -0.11710355 0.509 0
-0.14146039 -0.11710355 0.509 0
-0.14013338 -0.11710355 0.509 0
-0.1388064 -0.11710355 0.509 0
-0.13720931 -0.1168735 0.50800002 0
-0.13588493 -0.1168735 0.50800002 0
-0.13456053 -0.1168735 0.50800002 0
-0.13323615 -0.1168735 0.50800002 0
-0.13165209 -0.11664343 0.50700003 0
-0.13033031 -0.11664343 0.50700003 0
-0.12900853 -0.11664343 0.50700003 0
-0.12743491 -0.11641337 0.50600004 0
-0.12611572 -0.11641337 0.50600004 0
-0.12479655 -0.11641337 0.50600004 0
-0.12323334 -0.11618329 0.505 0
-0.12191678 -0.11618329 0.505 0
-0.1203614 -0.11595323 0.50400001 0
-0.11881123 -0.11572316 0.50300002 0
-0.11726629 -0.1154931 0.50200003 0
-0.11572655 -0.11526304 0.50100005 0
-0.11442041 -0.11526304 0.50100005 0
-0.11311428 -0.11526304 0.50100005 0
-0.11136179 -0.1148029 0.49900001 0
-0.11006086 -0.1148029 0.49900001 0
-0.10875994 -0.1148029 0.49900001 0
-0.10745902 -0.1148029 0.49900001 0
-0.10594535 -0.11457284 0.49800003 0
-0.1044369 -0.11434276 0.49700001 0
-0.10314119 -0.11434276 0.49700001 0
-0.10184547 -0.11434276 0.49700001 0
-0.10054976 -0.11434276 0.49700001 0
-0.099254057 -0.11434276 0.49700001 0
-0.097761244 -0.1141127 0.49600002 0
-0.096662626 -0.11434276 0.49700001 0
-0.095175035 -0.1141127 0.49600002 0
-0.094071209 -0.11434276 0.49700001 0
-0.092775501 -0.11434276 0.49700001 0
-0.091479786 -0.11434276 0.49700001 0
-0.090184078 -0.11434276 0.49700001 0
-0.08888837 -0.11434276 0.49700001 0
-0.087592654 -0.11434276 0.49700001 0
-0.086123317 -0.1141127 0.49600002 0
-0.08483021 -0.1141127 0.49600002 0
-0.083537109 -0.1141127 0.49600002 0
-0.082244001 -0.1141127 0.49600002 0
-0.080787688 -0.11388264 0.49500003 0
-0.079497196 -0.11388264 0.49500003 0
-0.078048699 -0.11365257 0.49400002 0
-0.076605432 -0.11342251 0.49300003 0
-0.075320147 -0.11342251 0.49300003 0
-0.073884688 -0.11319244 0.49200001 0
-0.072454453 -0.11296237 0.49100003 0
-0.071174383 -0.11296237 0.49100003 0
-0.069751963 -0.11273231 0.49000001 0
-0.068334758 -0.11250225 0.48900002 0
-0.067059904 -0.11250225 0.48900002 0
-0.06578505 -0.11250225 0.48900002 0
-0.064510196 -0.11250225 0.48900002 0
-0 -0 0 0
-0 -0 0 0
-0 -0 0 0
-0 -0 0 0
-0 -0 0 0
-0 -0 0 0
-0 -0 0 0
-0 -0 0 0
-0 -0 0 0
-0 -0 0 0
-0 -0 0 0
-0.041362185 -0.094557099 0.41100001 0
-0.040290684 -0.094557099 0.41100001 0
-0.039314605 -0.094787166 0.41200003 0
-0.038333312 -0.095017232 0.41300002 0
-0.037256595 -0.095017232 0.41300002 0
-0.036267482 -0.095247298 0.41400003 0
-0.035188157 -0.095247298 0.41400003 0
-0.034108832 -0.095247298 0.41400003 0
-0 -0 0 0
-0 -0 0 0
-0 -0 0 0
-0.033893269 -0.10836106 0.47100002 0
-0.032665338 -0.10836106 0.47100002 0
-0.031437412 -0.10836106 0.47100002 0
-0.030209485 -0.10836106 0.47100002 0
-0.029043091 -0.10859112 0.47200003 0
-0.027871482 -0.10882119 0.47300002 0
-0.026694657 -0.10905126 0.47400004 0
-0.02556633 -0.10951138 0.47600001 0
-0.024376474 -0.10974146 0.47700003 0
-0.023181399 -0.10997152 0.47800002 0
-0.021981113 -0.11020159 0.47900003 0
-0.020775612 -0.11043165 0.48000002 0
-0.019564897 -0.11066172 0.48100004 0
-0.018348968 -0.11089178 0.48200002 0
-0.017092364 -0.11089178 0.48200002 0
-0.015835758 -0.11089178 0.48200002 0
-0.014579153 -0.11089178 0.48200002 0
-0.013294909 -0.11066172 0.48100004 0
-0.012040911 -0.11066172 0.48100004 0
-0.010786914 -0.11066172 0.48100004 0
-0.0095329154 -0.11066172 0.48100004 0
-0.0082617057 -0.11043165 0.48000002 0
-0.0070103151 -0.11043165 0.48000002 0
-0.0057589249 -0.11043165 0.48000002 0
-0.0045075342 -0.11043165 0.48000002 0
-0.0032493602 -0.11020159 0.47900003 0
-0.0020005766 -0.11020159 0.47900003 0
-0.00075179298 -0.11020159 0.47900003 0
0.00049595302 -0.10997152 0.47800002 0
0.0017421294 -0.10997152 0.47800002 0
0.0029883059 -0.10997152 0.47800002 0
0.0042344825 -0.10997152 0.47800002 0
0.0054806587 -0.10997152 0.47800002 0
0.0067268349 -0.10997152 0.47800002 0
0.0079563325 -0.10974146 0.47700003 0
0.0091999015 -0.10974146 0.47700003 0
0.01044347 -0.10974146 0.47700003 0
0.01168704 -0.10974146 0.47700003 0
0.012930609 -0.10974146 0.47700003 0
0.014144463 -0.10951138 0.47600001 0
0.015385426 -0.10951138 0.47600001 0
0.016591458 -0.10928132 0.47500002 0
0.017829815 -0.10928132 0.47500002 0
0.019068168 -0.10928132 0.47500002 0
0.020306524 -0.10928132 0.47500002 0
0.021544881 -0.10928132 0.47500002 0
0.022735272 -0.10905126 0.47400004 0
0.023971019 -0.10905126 0.47400004 0
0.025206769 -0.10905126 0.47400004 0
0.026386729 -0.10882119 0.47300002 0
0.02761987 -0.10882119 0.47300002 0
0.028792012 -0.10859112 0.47200003 0
0.029958937 -0.10836106 0.47100002 0
0.031186866 -0.10836106 0.47100002 0
0.032345973 -0.10813099 0.47000003 0
0.033499863 -0.10790092 0.46900001 0
0.034722574 -0.10790092 0.46900001 0
0.035945289 -0.10790092 0.46900001 0
0.037088752 -0.10767086 0.46800002 0
0.038227003 -0.10744079 0.46700001 0
0.039444499 -0.10744079 0.46700001 0
0.040661998 -0.10744079 0.46700001 0
0.041879497 -0.10744079 0.46700001 0
0.043096993 -0.10744079 0.46700001 0
0.044219602 -0.10721073 0.46600002 0
0.045531992 -0.10744079 0.46700001 0
0.046649389 -0.10721073 0.46600002 0
0.047966991 -0.10744079 0.46700001 0
0.049079169 -0.10721073 0.46600002 0
0.05029406 -0.10721073 0.46600002 0
0.051508952 -0.10721073 0.46600002 0
0.052610703 -0.10698067 0.46500003 0
0.053822991 -0.10698067 0.46500003 0
0.055035274 -0.10698067 0.46500003 0
0.056126595 -0.10675059 0.46400002 0
0.057336271 -0.10675059 0.46400002 0
0.058545951 -0.10675059 0.46400002 0
0.059626844 -0.10652053 0.46300003 0
0.060833916 -0.10652053 0.46300003 0
0.062040985 -0.10652053 0.46300003 0
0.063248053 -0.10652053 0.46300003 0
0.064455122 -0.10652053 0.46300003 0
0.065520383 -0.10629046 0.46200001 0
0.066724844 -0.10629046 0.46200001 0
0.067929305 -0.10629046 0.46200001 0
0.068984129 -0.1060604 0.46100003 0
0.070185989 -0.1060604 0.46100003 0
0.071387842 -0.1060604 0.46100003 0
0.072589695 -0.1060604 0.46100003 0
0.07363148 -0.10583033 0.46000001 0
0.074830733 -0.10583033 0.46000001 0
0.076029979 -0.10583033 0.46000001 0
0.07706134 -0.10560027 0.45900002 0
0.078257985 -0.10560027 0.45900002 0
0.079281524 -0.1053702 0.45800003 0
0.080475561 -0.1053702 0.45800003 0
0.081669599 -0.1053702 0.45800003 0
0.082682706 -0.10514013 0.45700002 0
0.083874136 -0.10514013 0.45700002 0
0.084879428 -0.10491007 0.45600003 0
0.086068243 -0.10491007 0.45600003 0
0.087257065 -0.10491007 0.45600003 0
0.088445887 -0.10491007 0.45600003 0
0.089438133 -0.10468 0.45500001 0
0.090624347 -0.10468 0.45500001 0
0.091810562 -0.10468 0.45500001 0
0.092996776 -0.10468 0.45500001 0
0.093975998 -0.10444994 0.45400003 0
0.095159613 -0.10444994 0.45400003 0
0.096343219 -0.10444994 0.45400003 0
0.097526826 -0.10444994 0.45400003 0
0.098493002 -0.10421987 0.45300001 0
0.099674001 -0.10421987 0.45300001 0
0.100855 -0.10421987 0.45300001 0
0.102036 -0.10421987 0.45300001 0
0.10298915 -0.1039898 0.45200002 0
0.10416754 -0.1039898 0.45200002 0
0.10534593 -0.1039898 0.45200002 0
0.10628866 -0.10375974 0.45100003 0
0.10746444 -0.10375974 0.45100003 0
0.10864022 -0.10375974 0.45100003 0
0.10957252 -0.10352967 0.45000002 0
0.1107457 -0.10352967 0.45000002 0
0.11167017 -0.10329961 0.44900003 0
0.11284073 -0.10329961 0.44900003 0
0.11401132 -0.10329961 0.44900003 0
0.11518188 -0.10329961 0.44900003 0
0.11609332 -0.10306954 0.44800001 0
0.11726128 -0.10306954 0.44800001 0
0.11842924 -0.10306954 0.44800001 0
0.11959721 -0.10306954 0.44800001 0
0.12076517 -0.10306954 0.44800001 0
0.12193314 -0.10306954 0.44800001 0
0.1231011 -0.10306954 0.44800001 0
0.12426907 -0.10306954 0.44800001 0
0.12543702 -0.10306954 0.44800001 0
0.126605 -0.10306954 0.44800001 0
0.12748775 -0.10283948 0.44700003 0
0.12865311 -0.10283948 0.44700003 0
0.12952805 -0.1026094 0.44600001 0
0.1306908 -0.1026094 0.44600001 0
0.13155793 -0.10237934 0.44500002 0
0.13271806 -0.10237934 0.44500002 0
0.1338782 -0.10237934 0.44500002 0
0.13473488 -0.10214928 0.44400004 0
0.13589244 -0.10214928 0.44400004 0
0.13704996 -0.10214928 0.44400004 0
0.13820751 -0.10214928 0.44400004 0
0.13936503 -0.10214928 0.44400004 0
0.14020608 -0.10191921 0.44300002 0
0.141361 -0.10191921 0.44300002 0
0.14251593 -0.10191921 0.44300002 0
0.14334655 -0.10168914 0.44200003 0
0.14449887 -0.10168914 0.44200003 0
0.14565121 -0.10168914 0.44200003 0
0.14680351 -0.10168914 0.44200003 0
0.1476211 -0.10145908 0.44100001 0
0.14877081 -0.10145908 0.44100001 0
0.14992052 -0.10145908 0.44100001 0
0.15072767 -0.10122901 0.44000003 0
0.1518748 -0.10122901 0.44000003 0
0.15267411 -0.10099895 0.43900001 0
0.15381862 -0.10099895 0.43900001 0
0.15496311 -0.10099895 0.43900001 0
0.15610762 -0.10099895 0.43900001 0
0.15725212 -0.10099895 0.43900001 0
0.15803581 -0.10076888 0.43800002 0
0.15917771 -0.10076888 0.43800002 0
0.1603196 -0.10076888 0.43800002 0
0.1614615 -0.10076888 0.43800002 0
0.16260338 -0.10076888 0.43800002 0
0.16337143 -0.10053881 0.43700001 0
0.16451071 -0.10053881 0.43700001 0
0.16565001 -0.10053881 0.43700001 0
0.16640761 -0.10030875 0.43600002 0
0.16754431 -0.10030875 0.43600002 0
0.16868098 -0.10030875 0.43600002 0
0.16942818 -0.10007869 0.43500003 0
0.17056224 -0.10007869 0.43500003 0
0.17130162 -0.099848613 0.43400002 0
0.17243308 -0.099848613 0.43400002 0
0.17356454 -0.099848613 0.43400002 0
0.17469601 -0.099848613 0.43400002 0
0.17542234 -0.099618554 0.43300003 0
0.17655121 -0.099618554 0.43300003 0
0.17768006 -0.099618554 0.43300003 0
0.17839597 -0.09938848 0.43200001 0
0.17952222 -0.09938848 0.43200001 0
0.18064846 -0.09938848 0.43200001 0
0.18135394 -0.099158421 0.43100002 0
0.18247759 -0.099158421 0.43100002 0
0.18360123 -0.099158421 0.43100002 0
0.18472488 -0.099158421 0.43100002 0
0.18584853 -0.099158421 0.43100002 0
0.18697217 -0.099158421 0.43100002 0
0.1876594 -0.098928347 0.43000001 0
0.18878043 -0.098928347 0.43000001 0
0.18990147 -0.098928347 0.43000001 0
0.1910225 -0.098928347 0.43000001 0
0.19214354 -0.098928347 0.43000001 0
0.19326457 -0.098928347 0.43000001 0
0.19393356 -0.098698288 0.42900002 0
0.19505198 -0.098698288 0.42900002 0
0.19617042 -0.098698288 0.42900002 0
0.19728884 -0.098698288 0.42900002 0
0.19794481 -0.098468222 0.42800003 0
0.19906063 -0.098468222 0.42800003 0
-0 -0 0 0
-0 -0 0 0
-0 -0 0 0
-0 -0 0 0
-0 -0 0 0
-0 -0 0 0
-0 -0 0 0
-0 -0 0 0
-0 -0 0 0
-0 -0 0 0
-0 -0 0 0
-0 -0 0 0
-0 -0 0 0
-0 -0 0 0
-0 -0 0 0
-0 -0 0 0
-0 -0 0 0
-0 -0 0 0
-0 -0 0 0
-0 -0 0 0
-0 -0 0 0
-0 -0 0 0
-0 -0 0 0
-0 -0 0 0
-0 -0 0 0
-0 -0 0 0
-0 -0 0 0
-0 -0 0 0
-0 -0 0 0
-0 -0 0 0
-0 -0 0 0
-0 -0 0 0
-0 -0 0 0
-0 -0 0 0
-0 -0 0 0
-0 -0 0 0
-0 -0 0 0
-0 -0 0 0
-0 -0 0 0
-0 -0 0 0
-0.31017888 -0.12669459 0.55700004 0
-0.30872673 -0.12669459 0.55700004 0
-0.30727461 -0.12669459 0.55700004 0
-0.30527341 -0.12646714 0.55600005 0
-0.30382389 -0.12646714 0.55600005 0
-0.3018305 -0.12623967 0.55500001 0
-0.29984236 -0.12601222 0.55400002 0
-0.29839802 -0.12601222 0.55400002 0
-0.29641771 -0.12578475 0.55300003 0
-0.29444262 -0.1255573 0.55200005 0
-0.29247269 -0.12532984 0.551 0
-0.29103619 -0.12532984 0.551 0
-0.28907412 -0.12510237 0.55000001 0
-0.28711727 -0.12487492 0.54900002 0
-0.28568599 -0.12487492 0.54900002 0
-0.28373694 -0.12464747 0.54800004 0
-0.28230828 -0.12464747 0.54800004 0
-0.28036705 -0.12442001 0.54700005 0
-0.27894098 -0.12442001 0.54700005 0
-0.2775149 -0.12442001 0.54700005 0
-0.27608886 -0.12442001 0.54700005 0
-0.27416065 -0.12419254 0.546 0
-0.27273721 -0.12419254 0.546 0
-0.27131373 -0.12419254 0.546 0
-0.26989028 -0.12419254 0.546 0
-0.26797512 -0.12396508 0.54500002 0
-0.2665543 -0.12396508 0.54500002 0
-0.26513344 -0.12396508 0.54500002 0
-0.26371256 -0.12396508 0.54500002 0
-0.26181045 -0.12373763 0.54400003 0
-0.26039222 -0.12373763 0.54400003 0
-0.25849792 -0.12351017 0.54300004 0
-0.25708228 -0.12351017 0.54300004 0
-0.25519583 -0.12328272 0.54200006 0
-0.25378278 -0.12328272 0.54200006 0
-0.25190413 -0.12305525 0.54100001 0
-0.25003067 -0.12282779 0.54000002 0
-0.24862288 -0.12282779 0.54000002 0
-0.24721505 -0.12282779 0.54000002 0
-0.24535206 -0.12260034 0.53900003 0
-0.24394684 -0.12260034 0.53900003 0
-0.24209164 -0.12237288 0.53800005 0
-0.24068905 -0.12237288 0.53800005 0
-0.23884165 -0.12214541 0.537 0
-0.23744167 -0.12214541 0.537 0
-0.23560213 -0.12191796 0.53600001 0
-0.23420474 -0.12191796 0.53600001 0
-0.23280735 -0.12191796 0.53600001 0
-0.23097824 -0.1216905 0.53500003 0
-0.22958346 -0.1216905 0.53500003 0
-0.22818868 -0.1216905 0.53500003 0
-0.22636999 -0.12146305 0.53400004 0
-0.22455652 -0.12123559 0.53300005 0
-0.22316696 -0.12123559 0.53300005 0
-0.22177738 -0.12123559 0.53300005 0
-0.21997432 -0.12100812 0.53200001 0
-0.21858735 -0.12100812 0.53200001 0
-0.2172004 -0.12100812 0.53200001 0
-0.21540777 -0.12078066 0.53100002 0
-0.21402344 -0.12078066 0.53100002 0
-0.21263908 -0.12078066 0.53100002 0
-0.21125473 -0.12078066 0.53100002 0
-0.20947514 -0.1205532 0.53000003 0
-0.20730814 -0.12009828 0.528 0
-0.20398149 -0.11896098 0.523 0
-0 -0 0 0
-0 -0 0 0
-0 -0 0 0
-0.19017647 -0.1139569 0.50100005 0
-0.18773936 -0.11327452 0.49800003 0
-0.1856923 -0.1128196 0.49600002 0
-0.18402742 -0.11259215 0.49500003 0
-0.18273692 -0.11259215 0.49500003 0
-0.18181297 -0.1128196 0.49600002 0
-0.18051988 -0.1128196 0.49600002 0
-0.17958811 -0.11304706 0.49700001 0
-0.17829241 -0.11304706 0.49700001 0
-0.17735283 -0.11327452 0.49800003 0
-0.17640804 -0.11350197 0.49900001 0
-0.17510711 -0.11350197 0.49900001 0
-0.1745028 -0.1139569 0.50100005 0
-0.17354237 -0.11418436 0.50200003 0
-0.17257671 -0.11441182 0.50300002 0
-0.17160584 -0.11463927 0.50400001 0
-0.17096765 -0.11509419 0.50600004 0
-0.16998374 -0.11532165 0.50700003 0
-0.16899462 -0.11554911 0.50800002 0
-0.1680003 -0.11577656 0.509 0
-0.1666733 -0.11577656 0.509 0
-0.16534631 -0.11577656 0.509 0
-0.16434157 -0.11600403 0.51000005 0
-0.16269232 -0.11577656 0.509 0
-0.16136532 -0.11577656 0.509 0
-0.16003832 -0.11577656 0.509 0
-0.15871133 -0.11577656 0.509 0
-0.15707512 -0.11554911 0.50800002 0
-0.15575075 -0.11554911 0.50800002 0
-0.15442635 -0.11554911 0.50800002 0
-0.15310197 -0.11554911 0.50800002 0
-0.15177758 -0.11554911 0.50800002 0
-0.15074936 -0.11577656 0.509 0
-0.14942236 -0.11577656 0.509 0
-0.14809537 -0.11577656 0.509 0
-0.14676838 -0.11577656 0.509 0
-0.14544138 -0.11577656 0.509 0
-0.14411438 -0.11577656 0.509 0
-0.14278738 -0.11577656 0.509 0
-0.14146039 -0.11577656 0.509 0
-0.14013338 -0.11577656 0.509 0
-0.1388064 -0.11577656 0.509 0
-0.13747939 -0.11577656 0.509 0
-0.13615242 -0.11577656 0.509 0
-0.13482541 -0.11577656 0.509 0
-0.13323615 -0.11554911 0.50800002 0
-0.13191175 -0.11554911 0.50800002 0
-0.13058737 -0.11554911 0.50800002 0
-0.12926298 -0.11554911 0.50800002 0
-0.12768675 -0.11532165 0.50700003 0
-0.12636496 -0.11532165 0.50700003 0
-0.12479655 -0.11509419 0.50600004 0
-0.12347738 -0.11509419 0.50600004 0
-0.12191678 -0.11486673 0.505 0
-0.1203614 -0.11463927 0.50400001 0
-0.11904744 -0.11463927 0.50400001 0
-0.11749989 -0.11441182 0.50300002 0
-0.11595754 -0.11418436 0.50200003 0
-0.11442041 -0.1139569 0.50100005 0
-0.11311428 -0.1139569 0.50100005 0
-0.11158495 -0.11372943 0.5 0
-0.11006086 -0.11350197 0.49900001 0
-0.10875994 -0.11350197 0.49900001 0
-0.10724367 -0.11327452 0.49800003 0
-0.10594535 -0.11327452 0.49800003 0
-0.1044369 -0.11304706 0.49700001 0
-0.10314119 -0.11304706 0.49700001 0
-0.10184547 -0.11304706 0.49700001 0
-0.10054976 -0.11304706 0.49700001 0
-0.099254057 -0.11304706 0.49700001 0
-0.097761244 -0.1128196 0.49600002 0
-0.096468136 -0.1128196 0.49600002 0
-0.095175035 -0.1128196 0.49600002 0
-0.093881935 -0.1128196 0.49600002 0
-0.092775501 -0.11304706 0.49700001 0
-0.091479786 -0.11304706 0.49700001 0
-0.090184078 -0.11304706 0.49700001 0
-0.08888837 -0.11304706 0.49700001 0
-0.087592654 -0.11304706 0.49700001 0
-0.086123317 -0.1128196 0.49600002 0
-0.085001238 -0.11304706 0.49700001 0
-0.083537109 -0.1128196 0.49600002 0
-0.082244001 -0.1128196 0.49600002 0
-0.080787688 -0.11259215 0.49500003 0
-0.079497196 -0.11259215 0.49500003 0
-0.078048699 -0.11236468 0.49400002 0
-0.076760814 -0.11236468 0.49400002 0
-0.075320147 -0.11213723 0.49300003 0
-0.073884688 -0.11190976 0.49200001 0
-0.072454453 -0.11168231 0.49100003 0
-0.071174383 -0.11168231 0.49100003 0
-0.069751963 -0.11145484 0.49000001 0
-0.068474501 -0.11145484 0.49000001 0
-0.067059904 -0.11122739 0.48900002 0
-0.06578505 -0.11122739 0.48900002 0
-0.064378276 -0.11099993 0.48800004 0
-0 -0 0 0
-0 -0 0 0
-0 -0 0 0
-0 -0 0 0
-0 -0 0 0
-0 -0 0 0
-0 -0 0 0
-0 -0 0 0
-0 -0 0 0
-0 -0 0 0
-0 -0 0 0
-0 -0 0 0
-0.040388715 -0.09371306 0.41200003 0
-0.039410029 -0.093940511 0.41300002 0
-0.038426131 -0.094167978 0.41400003 0
-0.037346806 -0.094167978 0.41400003 0
-0.036267482 -0.094167978 0.41400003 0
-0.035188157 -0.094167978 0.41400003 0
-0 -0 0 0
-0 -0 0 0
-0 -0 0 0
-0 -0 0 0
-0 -0 0 0
-0 -0 0 0
-0 -0 0 0
-0 -0 0 0
-0 -0 0 0
-0.027871482 -0.10758805 0.47300002 0
-0.026694657 -0.10781551 0.47400004 0
-0.02556633 -0.10827042 0.47600001 0
-0.024376474 -0.10849789 0.47700003 0
-0.023181399 -0.10872534 0.47800002 0
-0.021981113 -0.10895281 0.47900003 0
-0.020775612 -0.10918026 0.48000002 0
-0.019564897 -0.10940772 0.48100004 0
-0.018310899 -0.10940772 0.48100004 0
-0.017092364 -0.10963517 0.48200002 0
-0.015835758 -0.10963517 0.48200002 0
-0.014579153 -0.10963517 0.48200002 0
-0.013322549 -0.10963517 0.48200002 0
-0.012040911 -0.10940772 0.48100004 0
-0.010786914 -0.10940772 0.48100004 0
-0.0095329154 -0.10940772 0.48100004 0
-0.0082789175 -0.10940772 0.48100004 0
-0.0070249201 -0.10940772 0.48100004 0
-0.0057589249 -0.10918026 0.48000002 0
-0.0045075342 -0.10918026 0.48000002 0
-0.0032561438 -0.10918026 0.48000002 0
-0.0020047531 -0.10918026 0.48000002 0
-0.00075179298 -0.10895281 0.47900003 0
0.00049699057 -0.10895281 0.47900003 0
0.0017421294 -0.10872534 0.47800002 0
0.0029883059 -0.10872534 0.47800002 0
0.0042344825 -0.10872534 0.47800002 0
0.0054806587 -0.10872534 0.47800002 0
0.0067268349 -0.10872534 0.47800002 0
0.0079730116 -0.10872534 0.47800002 0
0.0091999015 -0.10849789 0.47700003 0
0.01044347 -0.10849789 0.47700003 0
0.01168704 -0.10849789 0.47700003 0
0.012930609 -0.10849789 0.47700003 0
0.014174179 -0.10849789 0.47700003 0
0.015385426 -0.10827042 0.47600001 0
0.016626388 -0.10827042 0.47600001 0
0.017829815 -0.10804296 0.47500002 0
0.019068168 -0.10804296 0.47500002 0
0.020306524 -0.10804296 0.47500002 0
0.021544881 -0.10804296 0.47500002 0
0.022735272 -0.10781551 0.47400004 0
0.023971019 -0.10781551 0.47400004 0
0.025206769 -0.10781551 0.47400004 0
0.026386729 -0.10758805 0.47300002 0
0.02761987 -0.10758805 0.47300002 0
0.028792012 -0.10736059 0.47200003 0
0.030022545 -0.10736059 0.47200003 0
0.031186866 -0.10713313 0.47100002 0
0.032414794 -0.10713313 0.47100002 0
0.033571292 -0.10690568 0.47000003 0
0.034722574 -0.10667821 0.46900001 0
0.035945289 -0.10667821 0.46900001 0
0.037168 -0.10667821 0.46900001 0
0.038308859 -0.10645075 0.46800002 0
0.039444499 -0.10622329 0.46700001 0
0.040661998 -0.10622329 0.46700001 0
0.041879497 -0.10622329 0.46700001 0
0.043096993 -0.10622329 0.46700001 0
0.044314492 -0.10622329 0.46700001 0
0.045434494 -0.10599583 0.46600002 0
0.046749491 -0.10622329 0.46700001 0
0.047864281 -0.10599583 0.46600002 0
0.049079169 -0.10599583 0.46600002 0
0.05029406 -0.10599583 0.46600002 0
0.051508952 -0.10599583 0.46600002 0
0.052610703 -0.10576838 0.46500003 0
0.053822991 -0.10576838 0.46500003 0
0.055035274 -0.10576838 0.46500003 0
0.056126595 -0.10554092 0.46400002 0
0.057336271 -0.10554092 0.46400002 0
0.058545951 -0.10554092 0.46400002 0
0.059626844 -0.10531346 0.46300003 0
0.060833916 -0.10531346 0.46300003 0
0.062040985 -0.10531346 0.46300003 0
0.063248053 -0.10531346 0.46300003 0
0.064455122 -0.10531346 0.46300003 0
0.065662198 -0.10531346 0.46300003 0
0.066724844 -0.105086 0.46200001 0
0.067929305 -0.105086 0.46200001 0
0.069133766 -0.105086 0.46200001 0
0.070338234 -0.105086 0.46200001 0
0.071387842 -0.10485854 0.46100003 0
0.072589695 -0.10485854 0.46100003 0
0.073791556 -0.10485854 0.46100003 0
0.074830733 -0.10463108 0.46000001 0
0.076029979 -0.10463108 0.46000001 0
0.077229232 -0.10463108 0.46000001 0
0.078257985 -0.10440362 0.45900002 0
0.079454623 -0.10440362 0.45900002 0
0.080475561 -0.10417617 0.45800003 0
0.081669599 -0.10417617 0.45800003 0
0.082863636 -0.10417617 0.45800003 0
0.083874136 -0.1039487 0.45700002 0
0.085065559 -0.1039487 0.45700002 0
0.086256988 -0.1039487 0.45700002 0
0.087448418 -0.1039487 0.45700002 0
0.088445887 -0.10372125 0.45600003 0
0.089634709 -0.10372125 0.45600003 0
0.090823531 -0.10372125 0.45600003 0
0.092012346 -0.10372125 0.45600003 0
0.092996776 -0.10349379 0.45500001 0
0.09418299 -0.10349379 0.45500001 0
0.095369212 -0.10349379 0.45500001 0
0.096343219 -0.10326633 0.45400003 0
0.097526826 -0.10326633 0.45400003 0
0.098710433 -0.10326633 0.45400003 0
0.099674001 -0.10303887 0.45300001 0
0.100855 -0.10303887 0.45300001 0
0.102036 -0.10303887 0.45300001 0
0.10298915 -0.10281141 0.45200002 0
0.10416754 -0.10281141 0.45200002 0
0.10534593 -0.10281141 0.45200002 0
0.10652433 -0.10281141 0.45200002 0
0.10746444 -0.10258395 0.45100003 0
0.10864022 -0.10258395 0.45100003 0
0.10957252 -0.10235649 0.45000002 0
0.1107457 -0.10235649 0.45000002 0
0.11191887 -0.10235649 0.45000002 0
0.11284073 -0.10212903 0.44900003 0
0.11401132 -0.10212903 0.44900003 0
0.11518188 -0.10212903 0.44900003 0
0.11635245 -0.10212903 0.44900003 0
0.11752304 -0.10212903 0.44900003 0
0.1186936 -0.10212903 0.44900003 0
0.11959721 -0.10190158 0.44800001 0
0.12103474 -0.10212903 0.44900003 0
0.12193314 -0.10190158 0.44800001 0
0.1231011 -0.10190158 0.44800001 0
0.12426907 -0.10190158 0.44800001 0
0.12543702 -0.10190158 0.44800001 0
0.126605 -0.10190158 0.44800001 0
0.12777296 -0.10190158 0.44800001 0
0.12865311 -0.10167412 0.44700003 0
0.12981847 -0.10167412 0.44700003 0
0.1306908 -0.10144666 0.44600001 0
0.13185355 -0.10144666 0.44600001 0
0.13271806 -0.1012192 0.44500002 0
0.1338782 -0.1012192 0.44500002 0
0.13503835 -0.1012192 0.44500002 0
0.13589244 -0.10099174 0.44400004 0
0.13704996 -0.10099174 0.44400004 0
0.13820751 -0.10099174 0.44400004 0
0.13936503 -0.10099174 0.44400004 0
0.14020608 -0.10076428 0.44300002 0
0.141361 -0.10076428 0.44300002 0
0.14251593 -0.10076428 0.44300002 0
0.14367086 -0.10076428 0.44300002 0
0.14449887 -0.10053682 0.44200003 0
0.14565121 -0.10053682 0.44200003 0
0.14680351 -0.10053682 0.44200003 0
0.14795585 -0.10053682 0.44200003 0
0.14877081 -0.10030936 0.44100001 0
0.14992052 -0.10030936 0.44100001 0
0.15107024 -0.10030936 0.44100001 0
0.1518748 -0.10008191 0.44000003 0
0.15302189 -0.10008191 0.44000003 0
0.15416901 -0.10008191 0.44000003 0
0.15496311 -0.099854447 0.43900001 0
0.15610762 -0.099854447 0.43900001 0
0.15725212 -0.099854447 0.43900001 0
0.15839662 -0.099854447 0.43900001 0
0.15917771 -0.099626988 0.43800002 0
0.1603196 -0.099626988 0.43800002 0
0.1614615 -0.099626988 0.43800002 0
0.16260338 -0.099626988 0.43800002 0
0.16337143 -0.099399522 0.43700001 0
0.16451071 -0.099399522 0.43700001 0
0.16565001 -0.099399522 0.43700001 0
0.16640761 -0.099172071 0.43600002 0
0.16754431 -0.099172071 0.43600002 0
0.1682941 -0.098944612 0.43500003 0
0.16942818 -0.098944612 0.43500003 0
0.17056224 -0.098944612 0.43500003 0
0.17130162 -0.098717153 0.43400002 0
0.17243308 -0.098717153 0.43400002 0
0.17356454 -0.098717153 0.43400002 0
0.17469601 -0.098717153 0.43400002 0
0.17582747 -0.098717153 0.43400002 0
0.17695895 -0.098717153 0.43400002 0
0.17768006 -0.098489694 0.43300003 0
0.17880893 -0.098489694 0.43300003 0
0.17993778 -0.098489694 0.43300003 0
0.18064846 -0.098262236 0.43200001 0
0.18177471 -0.098262236 0.43200001 0
0.18290097 -0.098262236 0.43200001 0
0.18402721 -0.098262236 0.43200001 0
0.18472488 -0.098034777 0.43100002 0
0.18584853 -0.098034777 0.43100002 0
0.18697217 -0.098034777 0.43100002 0
0.18809582 -0.098034777 0.43100002 0
0.18921946 -0.098034777 0.43100002 0
0.18990147 -0.097807311 0.43000001 0
0.1910225 -0.097807311 0.43000001 0
0.19214354 -0.097807311 0.43000001 0
0.19326457 -0.097807311 0.43000001 0
0.19438562 -0.097807311 0.43000001 0
0.19550665 -0.097807311 0.43000001 0
0.19617042 -0.097579859 0.42900002 0
0.19728884 -0.097579859 0.42900002 0
0.19840728 -0.097579859 0.42900002 0
0.19952571 -0.097579859 0.42900002 0
-0 -0 0 0
-0 -0 0 0
-0 -0 0 0
-0 -0 0 0
-0 -0 0 0
-0 -0 0 0
-0 -0 0 0
-0 -0 0 0
-0 -0 0 0
-0 -0 0 0
-0 -0 0 0
-0 -0 0 0
-0 -0 0 0
-0 -0 0 0
-0 -0 0 0
-0 -0 0 0
-0 -0 0 0
-0 -0 0 0
-0 -0 0 0
-0 -0 0 0
-0 -0 0 0
-0 -0 0 0
-0 -0 0 0
-0 -0 0 0
-0 -0 0 0
-0 -0 0 0
-0 -0 0 0
-0 -0 0 0
-0 -0 0 0
-0 -0 0 0
-0 -0 0 0
-0 -0 0 0
-0 -0 0 0
-0 -0 0 0
-0 -0 0 0
-0 -0 0 0
-0 -0 0 0
-0 -0 0 0
-0 -0 0 0
-0 -0 0 0
-0.31017888 -0.12524246 0.55700004 0
-0.30872673 -0.12524246 0.55700004 0
-0.30727461 -0.12524246 0.55700004 0
-0.30527341 -0.12501761 0.55600005 0
-0.30382389 -0.12501761 0.55600005 0
-0.3018305 -0.12479275 0.55500001 0
-0.3003836 -0.12479275 0.55500001 0
-0.29839802 -0.1245679 0.55400002 0
-0.29641771 -0.12434305 0.55300003 0
-0.29444262 -0.1241182 0.55200005 0
-0.29300353 -0.1241182 0.55200005 0
-0.29103619 -0.12389334 0.551 0
-0.28907412 -0.12366849 0.55000001 0
-0.28764024 -0.12366849 0.55000001 0
-0.28568599 -0.12344365 0.54900002 0
-0.28373694 -0.1232188 0.54800004 0
-0.28230828 -0.1232188 0.54800004 0
-0.28036705 -0.12299395 0.54700005 0
-0.27894098 -0.12299395 0.54700005 0
-0.2775149 -0.12299395 0.54700005 0
-0.27608886 -0.12299395 0.54700005 0
-0.27416065 -0.12276909 0.546 0
-0.27273721 -0.12276909 0.546 0
-0.27131373 -0.12276909 0.546 0
-0.26989028 -0.12276909 0.546 0
-0.2684668 -0.12276909 0.546 0
-0.2665543 -0.12254424 0.54500002 0
-0.26513344 -0.12254424 0.54500002 0
-0.26371256 -0.12254424 0.54500002 0
-0.26181045 -0.12231939 0.54400003 0
-0.26039222 -0.12231939 0.54400003 0
-0.25849792 -0.12209453 0.54300004 0
-0.25708228 -0.12209453 0.54300004 0
-0.25519583 -0.12186969 0.54200006 0
-0.25378278 -0.12186969 0.54200006 0
-0.25190413 -0.12164482 0.54100001 0
-0.25049371 -0.12164482 0.54100001 0
-0.24862288 -0.12141998 0.54000002 0
-0.24721505 -0.12141998 0.54000002 0
-0.24535206 -0.12119513 0.53900003 0
-0.24394684 -0.12119513 0.53900003 0
-0.24209164 -0.12097028 0.53800005 0
-0.24068905 -0.12097028 0.53800005 0
-0.23884165 -0.12074542 0.537 0
-0.23744167 -0.12074542 0.537 0
-0.23560213 -0.12052057 0.53600001 0
-0.23420474 -0.12052057 0.53600001 0
-0.23280735 -0.12052057 0.53600001 0
-0.23097824 -0.12029572 0.53500003 0
-0.22958346 -0.12029572 0.53500003 0
-0.22818868 -0.12029572 0.53500003 0
-0.22636999 -0.12007087 0.53400004 0
-0.22497782 -0.12007087 0.53400004 0
-0.22316696 -0.11984602 0.53300005 0
-0.22177738 -0.11984602 0.53300005 0
-0.22038782 -0.11984602 0.53300005 0
-0.21899825 -0.11984602 0.53300005 0
-0.2172004 -0.11962116 0.53200001 0
-0.21581344 -0.11962116 0.53200001 0
-0.21442649 -0.11962116 0.53200001 0
-0.21263908 -0.11939631 0.53100002 0
-0.21125473 -0.11939631 0.53100002 0
-0.20987038 -0.11939631 0.53100002 0
-0.20809342 -0.11917146 0.53000003 0
-0.20515157 -0.11827205 0.52600002 0
-0 -0 0 0
-0 -0 0 0
-0 -0 0 0
-0.19131525 -0.11332531 0.50400001 0
-0.18811634 -0.11220105 0.49900001 0
-0.18606667 -0.11175135 0.49700001 0
-0.18402742 -0.11130165 0.49500003 0
-0.18273692 -0.11130165 0.49500003 0
-0.18181297 -0.1115265 0.49600002 0
-0.18051988 -0.1115265 0.49600002 0
-0.17958811 -0.11175135 0.49700001 0
-0.17829241 -0.11175135 0.49700001 0
-0.17735283 -0.11197621 0.49800003 0
-0.17640804 -0.11220105 0.49900001 0
-0.17545801 -0.1124259 0.5 0
-0.1745028 -0.11265077 0.50100005 0
-0.17354237 -0.11287561 0.50200003 0
-0.17291979 -0.11332531 0.50400001 0
-0.17228682 -0.11377502 0.50600004 0
-0.17130552 -0.11399987 0.50700003 0
-0.17031902 -0.11422472 0.50800002 0
-0.16932729 -0.11444957 0.509 0
-0.1680003 -0.11444957 0.509 0
-0.16700077 -0.11467443 0.51000005 0
-0.16567117 -0.11467443 0.51000005 0
-0.16434157 -0.11467443 0.51000005 0
-0.16301197 -0.11467443 0.51000005 0
-0.16168235 -0.11467443 0.51000005 0
-0.16035275 -0.11467443 0.51000005 0
-0.15871133 -0.11444957 0.509 0
-0.15738432 -0.11444957 0.509 0
-0.15575075 -0.11422472 0.50800002 0
-0.15442635 -0.11422472 0.50800002 0
-0.15310197 -0.11422472 0.50800002 0
-0.15207635 -0.11444957 0.509 0
-0.15074936 -0.11444957 0.509 0
-0.14942236 -0.11444957 0.509 0
-0.14809537 -0.11444957 0.509 0
-0.14676838 -0.11444957 0.509 0
-0.14544138 -0.11444957 0.509 0
-0.14411438 -0.11444957 0.509 0
-0.14278738 -0.11444957 0.509 0
-0.14146039 -0.11444957 0.509 0
-0.14013338 -0.11444957 0.509 0
-0.1388064 -0.11444957 0.509 0
-0.13747939 -0.11444957 0.509 0
-0.13615242 -0.11444957 0.509 0
-0.13482541 -0.11444957 0.509 0
-0.13349842 -0.11444957 0.509 0
-0.13217142 -0.11444957 0.509 0
-0.13084443 -0.11444957 0.509 0
-0.12926298 -0.11422472 0.50800002 0
-0.1279386 -0.11422472 0.50800002 0
-0.12636496 -0.11399987 0.50700003 0
-0.12504318 -0.11399987 0.50700003 0
-0.12347738 -0.11377502 0.50600004 0
-0.12215821 -0.11377502 0.50600004 0
-0.12060021 -0.11355016 0.505 0
-0.11904744 -0.11332531 0.50400001 0
-0.11773348 -0.11332531 0.50400001 0
-0.11595754 -0.11287561 0.50200003 0
-0.11442041 -0.11265077 0.50100005 0
-0.11311428 -0.11265077 0.50100005 0
-0.11158495 -0.1124259 0.5 0
-0.11006086 -0.11220105 0.49900001 0
-0.10875994 -0.11220105 0.49900001 0
-0.10724367 -0.11197621 0.49800003 0
-0.10594535 -0.11197621 0.49800003 0
-0.1044369 -0.11175135 0.49700001 0
-0.10314119 -0.11175135 0.49700001 0
-0.10184547 -0.11175135 0.49700001 0
-0.10054976 -0.11175135 0.49700001 0
