# .PCD v0.7 - Point Cloud Data file format
VERSION 0.7
FIELDS x y z
SIZE 4 4 4
TYPE F F F
COUNT 1 1 1
WIDTH 1345
HEIGHT 1
VIEWPOINT 0 0 0 1 0 0 0
POINTS 1345
DATA ascii
0.12385689 -0.08211489 0.49800003
0.12540652 -0.082279779 0.49900001
0.12670745 -0.082279779 0.49900001
0.12800837 -0.082279779 0.49900001
0.12956843 -0.082444668 0.5
0.13087197 -0.082444668 0.5
0.13217549 -0.082444668 0.5
0.133746 -0.082609564 0.50100005
0.13532169 -0.082774453 0.50200003
0.13690262 -0.082939342 0.50300002
0.13848874 -0.083104223 0.50400001
0.13980269 -0.083104223 0.50400001
0.14111665 -0.083104223 0.50400001
0.14271322 -0.083269112 0.505
0.14402978 -0.083269112 0.505
0.14563417 -0.083434008 0.50600004
0.14695334 -0.083434008 0.50600004
0.14856555 -0.083598897 0.50700003
0.14988734 -0.083598897 0.50700003
0.15180559 -0.083928674 0.509
0.15313259 -0.083928674 0.509
0.15476306 -0.084093571 0.51000005
0.15609266 -0.084093571 0.51000005
0.15773092 -0.08425846 0.51100004
0.15906315 -0.08425846 0.51100004
0.16039534 -0.08425846 0.51100004
0.16172756 -0.08425846 0.51100004
0.16305976 -0.08425846 0.51100004
0.16439198 -0.08425846 0.51100004
0.16572417 -0.08425846 0.51100004
0.1670564 -0.08425846 0.51100004
0.16838861 -0.08425846 0.51100004
0.16972081 -0.08425846 0.51100004
0.17105302 -0.08425846 0.51100004
0.17238523 -0.08425846 0.51100004
0.17405739 -0.084423341 0.51200002
0.17539221 -0.084423341 0.51200002
0.1770722 -0.08458823 0.51300001
0.17875738 -0.084753118 0.514
0.18009742 -0.084753118 0.514
0.18143745 -0.084753118 0.514
0.18277748 -0.084753118 0.514
0.1841175 -0.084753118 0.514
0.18509673 -0.08458823 0.51300001
0.18607076 -0.084423341 0.51200002
0.18740556 -0.084423341 0.51200002
0.18837175 -0.08425846 0.51100004
0.18933272 -0.084093571 0.51000005
0.19028847 -0.083928674 0.509
0.191239 -0.083763786 0.50800002
0.19180529 -0.083434008 0.50600004
0.19274276 -0.083269112 0.505
0.19367506 -0.083104223 0.50400001
0.19460213 -0.082939342 0.50300002
0.19552401 -0.082774453 0.50200003
0.19644065 -0.082609564 0.50100005
0.1977468 -0.082609564 0.50100005
0.19865562 -0.082444668 0.5
0.19915932 -0.08211489 0.49800003
0.1996526 -0.081785113 0.49600002
0.19973029 -0.081290446 0.49300003
0.19938461 -0.080630891 0.48900002
0.19523951 -0.076508656 0.46400002
0.19475566 -0.075849093 0.46000001
0.19467694 -0.075354427 0.45700002
0.19501118 -0.07502465 0.45500001
0.19576621 -0.074859761 0.45400003
0.19694981 -0.074859761 0.45400003
0.197697 -0.074694872 0.45300001
0.19887799 -0.074694872 0.45300001
0.200059 -0.074694872 0.45300001
0.20123999 -0.074694872 0.45300001
0.20242099 -0.074694872 0.45300001
0.20360199 -0.074694872 0.45300001
0.20478299 -0.074694872 0.45300001
0.24928094 -0.088875361 0.53900003
0.25255907 -0.089040242 0.54000002
0.25396687 -0.089040242 0.54000002
0.2558476 -0.089205131 0.54100001
-0.22919013 -0.06556204 0.40400001
-0.22870159 -0.065724328 0.40500003
-0.22764574 -0.065724328 0.40500003
-0.22658987 -0.065724328 0.40500003
-0.22553401 -0.065724328 0.40500003
-0.2250324 -0.065886609 0.40600002
-0.22397394 -0.065886609 0.40600002
-0.22291546 -0.065886609 0.40600002
-0.22240344 -0.066048883 0.40700001
-0.22134237 -0.066048883 0.40700001
-0.2202813 -0.066048883 0.40700001
-0.21922021 -0.066048883 0.40700001
-0.21815914 -0.066048883 0.40700001
-0.21763149 -0.066211171 0.40800002
-0.21656781 -0.066211171 0.40800002
-0.21550411 -0.066211171 0.40800002
-0.21496603 -0.066373453 0.40900001
-0.21389975 -0.066373453 0.40900001
-0.21283346 -0.066373453 0.40900001
-0.21228492 -0.066535734 0.41000003
-0.21121603 -0.066535734 0.41000003
-0.21014714 -0.066535734 0.41000003
-0.20958817 -0.066698015 0.41100001
-0.20851667 -0.066698015 0.41100001
-0.20744519 -0.066698015 0.41100001
-0.20637369 -0.066698015 0.41100001
-0.20580171 -0.066860303 0.41200003
-0.20472759 -0.066860303 0.41200003
-0.20414779 -0.067022584 0.41300002
-0.20307106 -0.067022584 0.41300002
-0.20199434 -0.067022584 0.41300002
-0.20140412 -0.067184865 0.41400003
-0.20032479 -0.067184865 0.41400003
-0.19924547 -0.067184865 0.41400003
-0.1986448 -0.067347147 0.41500002
-0.19756287 -0.067347147 0.41500002
-0.19648093 -0.067347147 0.41500002
-0.19539902 -0.067347147 0.41500002
-0.19431707 -0.067347147 0.41500002
-0.19323514 -0.067347147 0.41500002
-0.19215322 -0.067347147 0.41500002
-0.19107129 -0.067347147 0.41500002
-0.19044715 -0.067509428 0.41600001
-0.18936262 -0.067509428 0.41600001
-0.18827806 -0.067509428 0.41600001
-0.18719353 -0.067509428 0.41600001
-0.18655638 -0.067671709 0.41700003
-0.18546923 -0.067671709 0.41700003
-0.1843821 -0.067671709 0.41700003
-0.18373449 -0.06783399 0.41800001
-0.18264474 -0.06783399 0.41800001
-0.18155499 -0.06783399 0.41800001
-0.18046524 -0.06783399 0.41800001
-0.17937548 -0.06783399 0.41800001
-0.17828573 -0.06783399 0.41800001
-0.17719598 -0.06783399 0.41800001
-0.17652754 -0.067996278 0.41900003
-0.17543519 -0.067996278 0.41900003
-0.1747589 -0.06815856 0.42000002
-0.17366394 -0.06815856 0.42000002
-0.17256896 -0.06815856 0.42000002
-0.17188229 -0.068320841 0.42100003
-0.17078471 -0.068320841 0.42100003
-0.1700902 -0.068483122 0.42200002
-0.16899 -0.068483122 0.42200002
-0.16788983 -0.068483122 0.42200002
-0.16678965 -0.068483122 0.42200002
-0.1660821 -0.068645403 0.42300001
-0.16497929 -0.068645403 0.42300001
-0.16387652 -0.068645403 0.42300001
-0.16315854 -0.068807691 0.42400002
-0.16205314 -0.068807691 0.42400002
-0.16132735 -0.068969965 0.42500001
-0.16021933 -0.068969965 0.42500001
-0.15911134 -0.068969965 0.42500001
-0.15800333 -0.068969965 0.42500001
-0.1572645 -0.069132254 0.42600003
-0.15615389 -0.069132254 0.42600003
-0.15504329 -0.069132254 0.42600003
-0.15393268 -0.069132254 0.42600003
-0.15318081 -0.069294535 0.42700002
-0.15206759 -0.069294535 0.42700002
-0.15095437 -0.069294535 0.42700002
-0.14984114 -0.069294535 0.42700002
-0.14872792 -0.069294535 0.42700002
-0.14796042 -0.069456816 0.42800003
-0.1468446 -0.069456816 0.42800003
-0.14572878 -0.069456816 0.42800003
-0.14461295 -0.069456816 0.42800003
-0.14349714 -0.069456816 0.42800003
-0.14271396 -0.069619097 0.42900002
-0.14159554 -0.069619097 0.42900002
-0.14047711 -0.069619097 0.42900002
-0.13968353 -0.069781378 0.43000001
-0.13856249 -0.069781378 0.43000001
-0.13744146 -0.069781378 0.43000001
-0.13663743 -0.069943666 0.43100002
-0.13551378 -0.069943666 0.43100002
-0.13470195 -0.070105948 0.43200001
-0.13357569 -0.070105948 0.43200001
-0.13275605 -0.070268229 0.43300003
-0.13162719 -0.070268229 0.43300003
-0.13049833 -0.070268229 0.43300003
-0.12966825 -0.07043051 0.43400002
-0.12853679 -0.07043051 0.43400002
-0.12740532 -0.07043051 0.43400002
-0.12627386 -0.07043051 0.43400002
-0.12514238 -0.07043051 0.43400002
-0.12429667 -0.070592791 0.43500003
-0.12316259 -0.070592791 0.43500003
-0.12230904 -0.070755072 0.43600002
-0.12117236 -0.070755072 0.43600002
-0.12003568 -0.070755072 0.43600002
-0.118899 -0.070755072 0.43600002
-0.11776232 -0.070755072 0.43600002
-0.11689314 -0.070917353 0.43700001
-0.11575384 -0.070917353 0.43700001
-0.11461456 -0.070917353 0.43700001
-0.11347526 -0.070917353 0.43700001
-0.11233599 -0.070917353 0.43700001
-0.11145115 -0.071079642 0.43800002
-0.11030927 -0.071079642 0.43800002
-0.10916737 -0.071079642 0.43800002
-0.10827211 -0.071241923 0.43900001
-0.1071276 -0.071241923 0.43900001
-0.1059831 -0.071241923 0.43900001
-0.10507742 -0.071404204 0.44000003
-0.10393031 -0.071404204 0.44000003
-0.1030168 -0.071566485 0.44100001
-0.10186708 -0.071566485 0.44100001
-0.10071736 -0.071566485 0.44100001
-0.099793427 -0.071728773 0.44200003
-0.098641105 -0.071728773 0.44200003
-0.097488783 -0.071728773 0.44200003
-0.096554413 -0.071891047 0.44300002
-0.095399484 -0.071891047 0.44300002
-0.094244562 -0.071891047 0.44300002
-0.093299769 -0.072053336 0.44400004
-0.092142232 -0.072053336 0.44400004
-0.090984695 -0.072053336 0.44400004
-0.090029471 -0.072215617 0.44500002
-0.088869326 -0.072215617 0.44500002
-0.087906279 -0.072377898 0.44600001
-0.086743526 -0.072377898 0.44600001
-0.085580774 -0.072377898 0.44600001
-0.084418029 -0.072377898 0.44600001
-0.083255276 -0.072377898 0.44600001
-0.08227659 -0.072540179 0.44700003
-0.081111237 -0.072540179 0.44700003
-0.079945877 -0.072540179 0.44700003
-0.078780524 -0.072540179 0.44700003
-0.077615164 -0.072540179 0.44700003
-0.076449811 -0.072540179 0.44700003
-0.075452872 -0.07270246 0.44800001
-0.074284904 -0.07270246 0.44800001
-0.073116936 -0.07270246 0.44800001
-0.071948975 -0.07270246 0.44800001
-0.070781007 -0.07270246 0.44800001
-0.069768436 -0.072864749 0.44900003
-0.068597861 -0.072864749 0.44900003
-0.067427292 -0.072864749 0.44900003
-0.066404283 -0.073027022 0.45000002
-0.065231107 -0.073027022 0.45000002
-0.064200282 -0.073189311 0.45100003
-0.063164234 -0.073351592 0.45200002
-0.061985843 -0.073351592 0.45200002
-0.060941979 -0.073513873 0.45300001
-0.059892904 -0.073676154 0.45400003
-0.058709294 -0.073676154 0.45400003
-0.057525687 -0.073676154 0.45400003
-0.056466185 -0.073838435 0.45500001
-0.05527997 -0.073838435 0.45500001
-0.054212641 -0.074000724 0.45600003
-0.053023823 -0.074000724 0.45600003
-0.051835001 -0.074000724 0.45600003
-0.050757244 -0.074163005 0.45700002
-0.049565818 -0.074163005 0.45700002
-0.048374388 -0.074163005 0.45700002
-0.047182959 -0.074163005 0.45700002
-0.045991533 -0.074163005 0.45700002
-0.044898137 -0.074325286 0.45800003
-0.0437041 -0.074325286 0.45800003
-0.042510066 -0.074325286 0.45800003
-0.041316032 -0.074325286 0.45800003
-0.040209599 -0.074487567 0.45900002
-0.039012954 -0.074487567 0.45900002
-0.037816312 -0.074487567 0.45900002
-0.036699452 -0.074649848 0.46000001
-0.035500202 -0.074649848 0.46000001
-0.034300953 -0.074649848 0.46000001
-0.033101704 -0.074649848 0.46000001
-0.031902451 -0.074649848 0.46000001
-0.030769952 -0.074812129 0.46100003
-0.029632233 -0.07497441 0.46200001
-0.02842777 -0.07497441 0.46200001
-0.027223308 -0.07497441 0.46200001
-0.026075162 -0.075136699 0.46300003
-0.024868092 -0.075136699 0.46300003
-0.023661021 -0.075136699 0.46300003
-0.022453949 -0.075136699 0.46300003
-0.021292768 -0.07529898 0.46400002
-0.020083092 -0.07529898 0.46400002
-0.018873412 -0.07529898 0.46400002
-0.017663736 -0.07529898 0.46400002
-0.016489521 -0.075461261 0.46500003
-0.015277237 -0.075461261 0.46500003
-0.014064951 -0.075461261 0.46500003
-0.012852667 -0.075461261 0.46500003
-0.011665414 -0.075623542 0.46600002
-0.010450523 -0.075623542 0.46600002
-0.0092356317 -0.075623542 0.46600002
-0.0080379508 -0.075785823 0.46700001
-0.0068204524 -0.075785823 0.46700001
-0.0056029535 -0.075785823 0.46700001
-0.004394846 -0.075948104 0.46800002
-0.0031747401 -0.075948104 0.46800002
-0.0019588107 -0.076110385 0.46900001
-0.00073609792 -0.076110385 0.46900001
0.00048661497 -0.076110385 0.46900001
0.0017129725 -0.076272674 0.47000003
0.0029382925 -0.076272674 0.47000003
0.0041636126 -0.076272674 0.47000003
0.0053889323 -0.076272674 0.47000003
0.0066283252 -0.076434955 0.47100002
0.0078562526 -0.076434955 0.47100002
0.0090841791 -0.076434955 0.47100002
0.010312106 -0.076434955 0.47100002
0.011564535 -0.076597236 0.47200003
0.012795068 -0.076597236 0.47200003
0.014055318 -0.076759517 0.47300002
0.015288458 -0.076759517 0.47300002
0.016521599 -0.076759517 0.47300002
0.017792279 -0.076921806 0.47400004
0.019028027 -0.076921806 0.47400004
0.020306524 -0.077084087 0.47500002
0.021544881 -0.077084087 0.47500002
0.022783235 -0.077084087 0.47500002
0.024072161 -0.07724636 0.47600001
0.025313124 -0.07724636 0.47600001
0.026609873 -0.077408649 0.47700003
0.027853442 -0.077408649 0.47700003
0.029097013 -0.077408649 0.47700003
0.030404186 -0.07757093 0.47800002
0.031650364 -0.07757093 0.47800002
0.032896541 -0.07757093 0.47800002
0.034142718 -0.07757093 0.47800002
0.035314858 -0.077408649 0.47700003
0.036481783 -0.07724636 0.47600001
0.037643496 -0.077084087 0.47500002
0.038800001 -0.076921806 0.47400004
0.039782356 -0.076434955 0.47100002
0.040923212 -0.076272674 0.47000003
0.041969176 -0.075948104 0.46800002
0.04300471 -0.075623542 0.46600002
0.044029817 -0.07529898 0.46400002
0.045141999 -0.075136699 0.46300003
0.046248965 -0.07497441 0.46200001
0.048236612 -0.074325286 0.45800003
0.049106862 -0.073838435 0.45500001
0.053316444 -0.067184865 0.41400003
0.054395769 -0.067184865 0.41400003
0.055475093 -0.067184865 0.41400003
0.056554418 -0.067184865 0.41400003
0.057633743 -0.067184865 0.41400003
0.058713071 -0.067184865 0.41400003
0.059792396 -0.067184865 0.41400003
0.06087172 -0.067184865 0.41400003
0.061951041 -0.067184865 0.41400003
0.06303037 -0.067184865 0.41400003
0.076841153 -0.079193756 0.48800004
0.078273468 -0.079356037 0.48900002
0.079548322 -0.079356037 0.48900002
0.080823176 -0.079356037 0.48900002
0.08209803 -0.079356037 0.48900002
0.083372883 -0.079356037 0.48900002
0.084647737 -0.079356037 0.48900002
0.085922599 -0.079356037 0.48900002
0.087197453 -0.079356037 0.48900002
0.088472307 -0.079356037 0.48900002
0.089747161 -0.079356037 0.48900002
0.091022015 -0.079356037 0.48900002
0.092485607 -0.079518318 0.49000001
0.093763068 -0.079518318 0.49000001
0.09504053 -0.079518318 0.49000001
0.09651456 -0.079680599 0.49100003
0.09779463 -0.079680599 0.49100003
0.099276476 -0.07984288 0.49200001
0.10076354 -0.080005169 0.49300003
0.10204883 -0.080005169 0.49300003
0.10354371 -0.080167443 0.49400002
0.10504381 -0.080329731 0.49500003
0.10633431 -0.080329731 0.49500003
0.10762481 -0.080329731 0.49500003
0.10913533 -0.080492012 0.49600002
0.1102058 -0.080329731 0.49500003
0.1114963 -0.080329731 0.49500003
0.11278679 -0.080329731 0.49500003
0.11407729 -0.080329731 0.49500003
0.11536779 -0.080329731 0.49500003
0.11665828 -0.080329731 0.49500003
0.11794878 -0.080329731 0.49500003
0.11923927 -0.080329731 0.49500003
0.12077327 -0.080492012 0.49600002
0.12231247 -0.080654293 0.49700001
0.12360818 -0.080654293 0.49700001
0.1251552 -0.080816574 0.49800003
0.12670745 -0.080978855 0.49900001
0.12800837 -0.080978855 0.49900001
0.1293093 -0.080978855 0.49900001
0.13087197 -0.081141137 0.5
0.13217549 -0.081141137 0.5
0.133746 -0.081303425 0.50100005
0.13532169 -0.081465706 0.50200003
0.13690262 -0.081627987 0.50300002
0.13848874 -0.081790268 0.50400001
0.13980269 -0.081790268 0.50400001
0.14111665 -0.081790268 0.50400001
0.14271322 -0.08195255 0.505
0.14402978 -0.08195255 0.505
0.14563417 -0.082114838 0.50600004
0.14695334 -0.082114838 0.50600004
0.14827253 -0.082114838 0.50600004
0.14988734 -0.082277119 0.50700003
0.15150735 -0.0824394 0.50800002
0.15313259 -0.082601674 0.509
0.15445958 -0.082601674 0.509
0.15609266 -0.08276397 0.51000005
0.15742226 -0.08276397 0.51000005
0.15906315 -0.082926251 0.51100004
0.16039534 -0.082926251 0.51100004
0.16172756 -0.082926251 0.51100004
0.16305976 -0.082926251 0.51100004
0.16439198 -0.082926251 0.51100004
0.16572417 -0.082926251 0.51100004
0.16672948 -0.08276397 0.51000005
0.16838861 -0.082926251 0.51100004
0.16972081 -0.082926251 0.51100004
0.17105302 -0.082926251 0.51100004
0.17238523 -0.082926251 0.51100004
0.17371744 -0.082926251 0.51100004
0.17539221 -0.083088525 0.51200002
0.1770722 -0.083250806 0.51300001
0.17840961 -0.083250806 0.51300001
0.17974705 -0.083250806 0.51300001
0.18108445 -0.083250806 0.51300001
0.18242189 -0.083250806 0.51300001
0.1837593 -0.083250806 0.51300001
0.18509673 -0.083250806 0.51300001
0.18607076 -0.083088525 0.51200002
0.18703954 -0.082926251 0.51100004
0.18800312 -0.08276397 0.51000005
0.18896146 -0.082601674 0.509
0.18991461 -0.0824394 0.50800002
0.19086255 -0.082277119 0.50700003
0.19180529 -0.082114838 0.50600004
0.1923611 -0.081790268 0.50400001
0.19367506 -0.081790268 0.50400001
0.19421525 -0.081465706 0.50200003
0.19513452 -0.081303425 0.50100005
0.19644065 -0.081303425 0.50100005
0.19695738 -0.080978855 0.49900001
0.19825831 -0.080978855 0.49900001
0.19795957 -0.080329731 0.49500003
0.19804248 -0.07984288 0.49200001
0.19810976 -0.079356037 0.48900002
0.19361168 -0.075136699 0.46300003
0.19355641 -0.074649848 0.46000001
0.19390891 -0.074325286 0.45800003
0.19425096 -0.074000724 0.45600003
0.1945826 -0.073676154 0.45400003
0.195335 -0.073513873 0.45300001
0.19651599 -0.073513873 0.45300001
0.19726057 -0.073351592 0.45200002
0.19843897 -0.073351592 0.45200002
0.19961737 -0.073351592 0.45200002
0.20079575 -0.073351592 0.45200002
0.20197415 -0.073351592 0.45200002
0.24555597 -0.087145582 0.537
0.24695596 -0.087145582 0.537
0.24881847 -0.08730787 0.53800005
0.25068617 -0.087470151 0.53900003
0.25209135 -0.087470151 0.53900003
0.25396687 -0.087632433 0.54000002
0.2553747 -0.087632433 0.54000002
-0.22975744 -0.064668462 0.40500003
-0.22870159 -0.064668462 0.40500003
-0.22764574 -0.064668462 0.40500003
-0.22658987 -0.064668462 0.40500003
-0.22553401 -0.064668462 0.40500003
-0.2250324 -0.064828135 0.40600002
-0.22397394 -0.064828135 0.40600002
-0.22291546 -0.064828135 0.40600002
-0.22240344 -0.064987808 0.40700001
-0.22134237 -0.064987808 0.40700001
-0.2202813 -0.064987808 0.40700001
-0.21922021 -0.064987808 0.40700001
-0.21869516 -0.065147489 0.40800002
-0.21763149 -0.065147489 0.40800002
-0.21656781 -0.065147489 0.40800002
-0.21550411 -0.065147489 0.40800002
-0.21496603 -0.065307163 0.40900001
-0.21389975 -0.065307163 0.40900001
-0.21335384 -0.065466844 0.41000003
-0.21228492 -0.065466844 0.41000003
-0.21121603 -0.065466844 0.41000003
-0.21014714 -0.065466844 0.41000003
-0.20958817 -0.065626517 0.41100001
-0.20851667 -0.065626517 0.41100001
-0.20744519 -0.065626517 0.41100001
-0.20637369 -0.065626517 0.41100001
-0.20580171 -0.06578619 0.41200003
-0.20472759 -0.06578619 0.41200003
-0.20414779 -0.065945864 0.41300002
-0.20307106 -0.065945864 0.41300002
-0.20199434 -0.065945864 0.41300002
-0.20140412 -0.066105545 0.41400003
-0.20032479 -0.066105545 0.41400003
-0.19924547 -0.066105545 0.41400003
-0.1986448 -0.066265218 0.41500002
-0.19756287 -0.066265218 0.41500002
-0.19648093 -0.066265218 0.41500002
-0.19539902 -0.066265218 0.41500002
-0.19431707 -0.066265218 0.41500002
-0.19323514 -0.066265218 0.41500002
-0.19215322 -0.066265218 0.41500002
-0.19107129 -0.066265218 0.41500002
-0.19044715 -0.066424891 0.41600001
-0.18936262 -0.066424891 0.41600001
-0.18827806 -0.066424891 0.41600001
-0.18719353 -0.066424891 0.41600001
-0.18655638 -0.066584565 0.41700003
-0.18546923 -0.066584565 0.41700003
-0.1843821 -0.066584565 0.41700003
-0.18329494 -0.066584565 0.41700003
-0.18264474 -0.066744238 0.41800001
-0.18155499 -0.066744238 0.41800001
-0.18046524 -0.066744238 0.41800001
-0.17937548 -0.066744238 0.41800001
-0.17828573 -0.066744238 0.41800001
-0.17719598 -0.066744238 0.41800001
-0.17652754 -0.066903919 0.41900003
-0.17543519 -0.066903919 0.41900003
-0.1747589 -0.067063592 0.42000002
-0.17366394 -0.067063592 0.42000002
-0.17256896 -0.067063592 0.42000002
-0.17188229 -0.067223266 0.42100003
-0.17078471 -0.067223266 0.42100003
-0.1700902 -0.067382939 0.42200002
-0.16899 -0.067382939 0.42200002
-0.16788983 -0.067382939 0.42200002
-0.16678965 -0.067382939 0.42200002
-0.1660821 -0.067542613 0.42300001
-0.16497929 -0.067542613 0.42300001
-0.16387652 -0.067542613 0.42300001
-0.16315854 -0.067702293 0.42400002
-0.16205314 -0.067702293 0.42400002
-0.16132735 -0.067861967 0.42500001
-0.16021933 -0.067861967 0.42500001
-0.15911134 -0.067861967 0.42500001
-0.15800333 -0.067861967 0.42500001
-0.1572645 -0.068021648 0.42600003
-0.15615389 -0.068021648 0.42600003
-0.15540724 -0.068181321 0.42700002
-0.15429401 -0.068181321 0.42700002
-0.15318081 -0.068181321 0.42700002
-0.15206759 -0.068181321 0.42700002
-0.15095437 -0.068181321 0.42700002
-0.14984114 -0.068181321 0.42700002
-0.14872792 -0.068181321 0.42700002
-0.14761472 -0.068181321 0.42700002
-0.1468446 -0.068340994 0.42800003
-0.14572878 -0.068340994 0.42800003
-0.14461295 -0.068340994 0.42800003
-0.14349714 -0.068340994 0.42800003
-0.14271396 -0.068500668 0.42900002
-0.14159554 -0.068500668 0.42900002
-0.14047711 -0.068500668 0.42900002
-0.13968353 -0.068660341 0.43000001
-0.13856249 -0.068660341 0.43000001
-0.13744146 -0.068660341 0.43000001
-0.13663743 -0.068820022 0.43100002
-0.13551378 -0.068820022 0.43100002
-0.13470195 -0.068979695 0.43200001
-0.13357569 -0.068979695 0.43200001
-0.13275605 -0.069139369 0.43300003
-0.13162719 -0.069139369 0.43300003
-0.13079971 -0.069299042 0.43400002
-0.12966825 -0.069299042 0.43400002
-0.12853679 -0.069299042 0.43400002
-0.12740532 -0.069299042 0.43400002
-0.12627386 -0.069299042 0.43400002
-0.12514238 -0.069299042 0.43400002
-0.12429667 -0.069458723 0.43500003
-0.12316259 -0.069458723 0.43500003
-0.12202851 -0.069458723 0.43500003
-0.12117236 -0.069618396 0.43600002
-0.12003568 -0.069618396 0.43600002
-0.118899 -0.069618396 0.43600002
-0.11776232 -0.069618396 0.43600002
-0.11689314 -0.06977807 0.43700001
-0.11575384 -0.06977807 0.43700001
-0.11461456 -0.06977807 0.43700001
-0.11347526 -0.06977807 0.43700001
-0.11233599 -0.06977807 0.43700001
-0.11145115 -0.069937743 0.43800002
-0.11030927 -0.069937743 0.43800002
-0.10916737 -0.069937743 0.43800002
-0.10827211 -0.070097417 0.43900001
-0.1071276 -0.070097417 0.43900001
-0.1059831 -0.070097417 0.43900001
-0.10507742 -0.070257097 0.44000003
-0.10393031 -0.070257097 0.44000003
-0.1030168 -0.070416771 0.44100001
-0.10186708 -0.070416771 0.44100001
-0.10071736 -0.070416771 0.44100001
-0.099793427 -0.070576452 0.44200003
-0.098641105 -0.070576452 0.44200003
-0.097488783 -0.070576452 0.44200003
-0.096554413 -0.070736118 0.44300002
-0.095399484 -0.070736118 0.44300002
-0.094244562 -0.070736118 0.44300002
-0.093299769 -0.070895799 0.44400004
-0.092142232 -0.070895799 0.44400004
-0.090984695 -0.070895799 0.44400004
-0.090029471 -0.071055472 0.44500002
-0.088869326 -0.071055472 0.44500002
-0.087709181 -0.071055472 0.44500002
-0.086743526 -0.071215145 0.44600001
-0.085580774 -0.071215145 0.44600001
-0.084418029 -0.071215145 0.44600001
-0.08344195 -0.071374826 0.44700003
-0.08227659 -0.071374826 0.44700003
-0.081111237 -0.071374826 0.44700003
-0.079945877 -0.071374826 0.44700003
-0.078780524 -0.071374826 0.44700003
-0.077615164 -0.071374826 0.44700003
-0.076620832 -0.0715345 0.44800001
-0.075452872 -0.0715345 0.44800001
-0.074284904 -0.0715345 0.44800001
-0.073116936 -0.0715345 0.44800001
-0.071948975 -0.0715345 0.44800001
-0.070781007 -0.0715345 0.44800001
-0.069768436 -0.071694173 0.44900003
-0.068597861 -0.071694173 0.44900003
-0.067427292 -0.071694173 0.44900003
-0.066404283 -0.071853846 0.45000002
-0.065231107 -0.071853846 0.45000002
-0.064200282 -0.072013527 0.45100003
-0.063164234 -0.072173201 0.45200002
-0.061985843 -0.072173201 0.45200002
-0.060941979 -0.072332874 0.45300001
-0.059892904 -0.072492547 0.45400003
-0.058709294 -0.072492547 0.45400003
-0.057525687 -0.072492547 0.45400003
-0.056466185 -0.072652221 0.45500001
-0.05527997 -0.072652221 0.45500001
-0.054212641 -0.072811902 0.45600003
-0.053023823 -0.072811902 0.45600003
-0.051835001 -0.072811902 0.45600003
-0.050757244 -0.072971575 0.45700002
-0.049565818 -0.072971575 0.45700002
-0.048374388 -0.072971575 0.45700002
-0.047182959 -0.072971575 0.45700002
-0.045991533 -0.072971575 0.45700002
-0.044898137 -0.073131248 0.45800003
-0.0437041 -0.073131248 0.45800003
-0.042510066 -0.073131248 0.45800003
-0.041316032 -0.073131248 0.45800003
-0.040209599 -0.073290922 0.45900002
-0.039012954 -0.073290922 0.45900002
-0.037816312 -0.073290922 0.45900002
-0.036619671 -0.073290922 0.45900002
-0.035500202 -0.073450595 0.46000001
-0.034300953 -0.073450595 0.46000001
-0.033101704 -0.073450595 0.46000001
-0.031902451 -0.073450595 0.46000001
-0.030769952 -0.073610276 0.46100003
-0.029632233 -0.073769949 0.46200001
-0.02842777 -0.073769949 0.46200001
-0.027223308 -0.073769949 0.46200001
-0.026018843 -0.073769949 0.46200001
-0.024868092 -0.07392963 0.46300003
-0.023661021 -0.07392963 0.46300003
-0.022453949 -0.07392963 0.46300003
-0.021292768 -0.074089304 0.46400002
-0.020083092 -0.074089304 0.46400002
-0.018873412 -0.074089304 0.46400002
-0.017663736 -0.074089304 0.46400002
-0.016489521 -0.074248977 0.46500003
-0.015277237 -0.074248977 0.46500003
-0.014064951 -0.074248977 0.46500003
-0.012852667 -0.074248977 0.46500003
-0.011665414 -0.07440865 0.46600002
-0.010450523 -0.07440865 0.46600002
-0.0092554502 -0.074568324 0.46700001
-0.0080379508 -0.074568324 0.46700001
-0.0068204524 -0.074568324 0.46700001
-0.0056149517 -0.074728005 0.46800002
-0.004394846 -0.074728005 0.46800002
-0.0031747401 -0.074728005 0.46800002
-0.0019588107 -0.074887678 0.46900001
-0.00073609792 -0.074887678 0.46900001
0.00048661497 -0.074887678 0.46900001
0.0017129725 -0.075047351 0.47000003
0.0029382925 -0.075047351 0.47000003
0.0041636126 -0.075047351 0.47000003
0.0053889323 -0.075047351 0.47000003
0.0066283252 -0.075207025 0.47100002
0.0078562526 -0.075207025 0.47100002
0.0090841791 -0.075207025 0.47100002
0.010312106 -0.075207025 0.47100002
0.011564535 -0.075366706 0.47200003
0.012795068 -0.075366706 0.47200003
0.014055318 -0.075526379 0.47300002
0.015288458 -0.075526379 0.47300002
0.016556529 -0.075686052 0.47400004
0.017792279 -0.075686052 0.47400004
0.019028027 -0.075686052 0.47400004
0.020306524 -0.075845726 0.47500002
0.021544881 -0.075845726 0.47500002
0.022783235 -0.075845726 0.47500002
0.024072161 -0.076005399 0.47600001
0.025366304 -0.07616508 0.47700003
0.026609873 -0.07616508 0.47700003
0.027853442 -0.07616508 0.47700003
0.029158011 -0.076324753 0.47800002
0.030404186 -0.076324753 0.47800002
0.031650364 -0.076324753 0.47800002
0.032896541 -0.076324753 0.47800002
0.034142718 -0.076324753 0.47800002
0.035388894 -0.076324753 0.47800002
0.036558427 -0.07616508 0.47700003
0.037722744 -0.076005399 0.47600001
0.038800001 -0.075686052 0.47400004
0.039951283 -0.075526379 0.47300002
0.041010283 -0.075207025 0.47100002
0.042058852 -0.074887678 0.46900001
0.043096993 -0.074568324 0.46700001
0.044124711 -0.074248977 0.46500003
0.045239497 -0.074089304 0.46400002
0.046349071 -0.07392963 0.46300003
0.047350716 -0.073610276 0.46100003
0.054395769 -0.066105545 0.41400003
0.055475093 -0.066105545 0.41400003
0.056554418 -0.066105545 0.41400003
0.057633743 -0.066105545 0.41400003
0.058713071 -0.066105545 0.41400003
0.059792396 -0.066105545 0.41400003
0.06087172 -0.066105545 0.41400003
0.061951041 -0.066105545 0.41400003
0.06303037 -0.066105545 0.41400003
0.06410969 -0.066105545 0.41400003
0.076841153 -0.07792151 0.48800004
0.078273468 -0.078081183 0.48900002
0.079548322 -0.078081183 0.48900002
0.080823176 -0.078081183 0.48900002
0.08209803 -0.078081183 0.48900002
0.083372883 -0.078081183 0.48900002
0.084647737 -0.078081183 0.48900002
0.085922599 -0.078081183 0.48900002
0.087197453 -0.078081183 0.48900002
0.088472307 -0.078081183 0.48900002
0.089747161 -0.078081183 0.48900002
0.091022015 -0.078081183 0.48900002
0.092485607 -0.078240857 0.49000001
0.093763068 -0.078240857 0.49000001
0.09504053 -0.078240857 0.49000001
0.09651456 -0.07840053 0.49100003
0.09779463 -0.07840053 0.49100003
0.099276476 -0.078560203 0.49200001
0.10076354 -0.078719884 0.49300003
0.10225582 -0.078879558 0.49400002
0.10375332 -0.079039238 0.49500003
0.10504381 -0.079039238 0.49500003
0.10633431 -0.079039238 0.49500003
0.10784223 -0.079198904 0.49600002
0.10913533 -0.079198904 0.49600002
0.1102058 -0.079039238 0.49500003
0.1114963 -0.079039238 0.49500003
0.11278679 -0.079039238 0.49500003
0.11407729 -0.079039238 0.49500003
0.11536779 -0.079039238 0.49500003
0.11665828 -0.079039238 0.49500003
0.11794878 -0.079039238 0.49500003
0.11923927 -0.079039238 0.49500003
0.12052978 -0.079039238 0.49500003
0.12231247 -0.079358578 0.49700001
0.12360818 -0.079358578 0.49700001
0.1251552 -0.079518259 0.49800003
0.12670745 -0.079677932 0.49900001
0.12800837 -0.079677932 0.49900001
0.1293093 -0.079677932 0.49900001
0.13087197 -0.079837605 0.5
0.13217549 -0.079837605 0.5
0.133746 -0.079997286 0.50100005
0.13532169 -0.08015696 0.50200003
0.13690262 -0.080316633 0.50300002
0.13848874 -0.080476306 0.50400001
0.13980269 -0.080476306 0.50400001
0.14111665 -0.080476306 0.50400001
0.14271322 -0.08063598 0.505
0.14402978 -0.08063598 0.505
0.14563417 -0.080795661 0.50600004
0.14695334 -0.080795661 0.50600004
0.14827253 -0.080795661 0.50600004
0.14988734 -0.080955334 0.50700003
0.15150735 -0.081115007 0.50800002
0.15283175 -0.081115007 0.50800002
0.15445958 -0.081274681 0.509
0.15578659 -0.081274681 0.509
0.15742226 -0.081434369 0.51000005
0.15875186 -0.081434369 0.51000005
0.16039534 -0.081594035 0.51100004
0.16141106 -0.081434369 0.51000005
0.16274066 -0.081434369 0.51000005
0.16407028 -0.081434369 0.51000005
0.16539986 -0.081434369 0.51000005
0.16672948 -0.081434369 0.51000005
0.16805908 -0.081434369 0.51000005
0.16938868 -0.081434369 0.51000005
0.17071828 -0.081434369 0.51000005
0.17238523 -0.081594035 0.51100004
0.17371744 -0.081594035 0.51100004
0.17504965 -0.081594035 0.51100004
0.17672703 -0.081753708 0.51200002
0.17806184 -0.081753708 0.51200002
0.17974705 -0.081913382 0.51300001
0.18073148 -0.081753708 0.51200002
0.18242189 -0.081913382 0.51300001
0.18340111 -0.081753708 0.51200002
0.18473592 -0.081753708 0.51200002
0.18570733 -0.081594035 0.51100004
0.18667351 -0.081434369 0.51000005
0.18763447 -0.081274681 0.509
0.18896146 -0.081274681 0.509
0.18954077 -0.080955334 0.50700003
0.1904861 -0.080795661 0.50600004
0.19104715 -0.080476306 0.50400001
0.19197944 -0.080316633 0.50300002
0.19290653 -0.08015696 0.50200003
0.19382837 -0.079997286 0.50100005
0.19513452 -0.079997286 0.50100005
0.19604854 -0.079837605 0.5
0.19656268 -0.079518259 0.49800003
0.19746369 -0.079358578 0.49700001
0.19755964 -0.078879558 0.49400002
0.19602986 -0.077761829 0.48700002
0.1924046 -0.07392963 0.46300003
0.191939 -0.073290922 0.45900002
0.19229409 -0.072971575 0.45700002
0.19263875 -0.072652221 0.45500001
0.19339898 -0.072492547 0.45400003
0.19415399 -0.072332874 0.45300001
0.19490379 -0.072173201 0.45200002
0.19608217 -0.072173201 0.45200002
0.19726057 -0.072173201 0.45200002
0.19799995 -0.072013527 0.45100003
0.19917575 -0.072013527 0.45100003
0.24230394 -0.085585915 0.53600001
0.24370131 -0.085585915 0.53600001
0.24509871 -0.085585915 0.53600001
0.24695596 -0.085745588 0.537
0.24881847 -0.085905269 0.53800005
0.25022107 -0.085905269 0.53800005
0.25209135 -0.086064942 0.53900003
0.25349659 -0.086064942 0.53900003
0.2553747 -0.086224616 0.54000002
-0.22975744 -0.063612603 0.40500003
-0.22870159 -0.063612603 0.40500003
-0.22764574 -0.063612603 0.40500003
-0.22658987 -0.063612603 0.40500003
-0.22553401 -0.063612603 0.40500003
-0.2250324 -0.063769668 0.40600002
-0.22397394 -0.063769668 0.40600002
-0.22291546 -0.063769668 0.40600002
-0.22240344 -0.063926734 0.40700001
-0.22134237 -0.063926734 0.40700001
-0.2202813 -0.063926734 0.40700001
-0.21975884 -0.064083807 0.40800002
-0.21869516 -0.064083807 0.40800002
-0.21763149 -0.064083807 0.40800002
-0.21656781 -0.064083807 0.40800002
-0.21550411 -0.064083807 0.40800002
-0.21496603 -0.064240873 0.40900001
-0.21389975 -0.064240873 0.40900001
-0.21283346 -0.064240873 0.40900001
-0.21228492 -0.064397946 0.41000003
-0.21121603 -0.064397946 0.41000003
-0.21014714 -0.064397946 0.41000003
-0.20958817 -0.064555012 0.41100001
-0.20851667 -0.064555012 0.41100001
-0.20744519 -0.064555012 0.41100001
-0.20637369 -0.064555012 0.41100001
-0.20580171 -0.064712085 0.41200003
-0.20472759 -0.064712085 0.41200003
-0.20414779 -0.064869151 0.41300002
-0.20307106 -0.064869151 0.41300002
-0.20248345 -0.065026216 0.41400003
-0.20140412 -0.065026216 0.41400003
-0.20032479 -0.065026216 0.41400003
-0.19972673 -0.065183282 0.41500002
-0.1986448 -0.065183282 0.41500002
-0.19756287 -0.065183282 0.41500002
-0.19648093 -0.065183282 0.41500002
-0.19539902 -0.065183282 0.41500002
-0.19431707 -0.065183282 0.41500002
-0.19323514 -0.065183282 0.41500002
-0.19215322 -0.065183282 0.41500002
-0.19107129 -0.065183282 0.41500002
-0.19044715 -0.065340348 0.41600001
-0.18936262 -0.065340348 0.41600001
-0.18827806 -0.065340348 0.41600001
-0.18719353 -0.065340348 0.41600001
-0.18655638 -0.065497421 0.41700003
-0.18546923 -0.065497421 0.41700003
-0.1843821 -0.065497421 0.41700003
-0.18329494 -0.065497421 0.41700003
-0.18264474 -0.065654486 0.41800001
-0.18155499 -0.065654486 0.41800001
-0.18046524 -0.065654486 0.41800001
-0.17937548 -0.065654486 0.41800001
-0.17828573 -0.065654486 0.41800001
-0.17719598 -0.065654486 0.41800001
-0.17652754 -0.06581156 0.41900003
-0.17543519 -0.06581156 0.41900003
-0.1747589 -0.065968625 0.42000002
-0.17366394 -0.065968625 0.42000002
-0.17256896 -0.065968625 0.42000002
-0.17188229 -0.066125698 0.42100003
-0.17078471 -0.066125698 0.42100003
-0.1700902 -0.066282764 0.42200002
-0.16899 -0.066282764 0.42200002
-0.16788983 -0.066282764 0.42200002
-0.16678965 -0.066282764 0.42200002
-0.1660821 -0.06643983 0.42300001
-0.16497929 -0.06643983 0.42300001
-0.16387652 -0.06643983 0.42300001
-0.16277373 -0.06643983 0.42300001
-0.16205314 -0.066596895 0.42400002
-0.16094775 -0.066596895 0.42400002
-0.16021933 -0.066753969 0.42500001
-0.15911134 -0.066753969 0.42500001
-0.15800333 -0.066753969 0.42500001
-0.1572645 -0.066911034 0.42600003
-0.15615389 -0.066911034 0.42600003
-0.15540724 -0.0670681 0.42700002
-0.15429401 -0.0670681 0.42700002
-0.15318081 -0.0670681 0.42700002
-0.15206759 -0.0670681 0.42700002
-0.15095437 -0.0670681 0.42700002
-0.14984114 -0.0670681 0.42700002
-0.14872792 -0.0670681 0.42700002
-0.14761472 -0.0670681 0.42700002
-0.1465015 -0.0670681 0.42700002
-0.14538829 -0.0670681 0.42700002
-0.14461295 -0.067225173 0.42800003
-0.14349714 -0.067225173 0.42800003
-0.14238131 -0.067225173 0.42800003
-0.14159554 -0.067382239 0.42900002
-0.14047711 -0.067382239 0.42900002
-0.13968353 -0.067539304 0.43000001
-0.13856249 -0.067539304 0.43000001
-0.13744146 -0.067539304 0.43000001
-0.13663743 -0.067696378 0.43100002
-0.13551378 -0.067696378 0.43100002
-0.13470195 -0.067853443 0.43200001
-0.13357569 -0.067853443 0.43200001
-0.13275605 -0.068010509 0.43300003
-0.13162719 -0.068010509 0.43300003
-0.13079971 -0.068167582 0.43400002
-0.12966825 -0.068167582 0.43400002
-0.12853679 -0.068167582 0.43400002
-0.12740532 -0.068167582 0.43400002
-0.12627386 -0.068167582 0.43400002
-0.12514238 -0.068167582 0.43400002
-0.12429667 -0.068324648 0.43500003
-0.12316259 -0.068324648 0.43500003
-0.12202851 -0.068324648 0.43500003
-0.12117236 -0.068481714 0.43600002
-0.12003568 -0.068481714 0.43600002
-0.118899 -0.068481714 0.43600002
-0.11776232 -0.068481714 0.43600002
-0.11689314 -0.068638779 0.43700001
-0.11575384 -0.068638779 0.43700001
-0.11461456 -0.068638779 0.43700001
-0.11347526 -0.068638779 0.43700001
-0.11233599 -0.068638779 0.43700001
-0.11145115 -0.068795852 0.43800002
-0.11030927 -0.068795852 0.43800002
-0.10916737 -0.068795852 0.43800002
-0.10802547 -0.068795852 0.43800002
-0.1071276 -0.068952918 0.43900001
-0.1059831 -0.068952918 0.43900001
-0.10507742 -0.069109991 0.44000003
-0.10393031 -0.069109991 0.44000003
-0.1027832 -0.069109991 0.44000003
-0.10186708 -0.069267057 0.44100001
-0.10071736 -0.069267057 0.44100001
-0.099567644 -0.069267057 0.44100001
-0.098641105 -0.06942413 0.44200003
-0.097488783 -0.06942413 0.44200003
-0.096554413 -0.069581196 0.44300002
-0.095399484 -0.069581196 0.44300002
-0.094244562 -0.069581196 0.44300002
-0.093299769 -0.069738261 0.44400004
-0.092142232 -0.069738261 0.44400004
-0.090984695 -0.069738261 0.44400004
-0.090029471 -0.069895327 0.44500002
-0.088869326 -0.069895327 0.44500002
-0.087709181 -0.069895327 0.44500002
-0.086743526 -0.070052393 0.44600001
-0.085580774 -0.070052393 0.44600001
-0.084418029 -0.070052393 0.44600001
-0.08344195 -0.070209466 0.44700003
-0.08227659 -0.070209466 0.44700003
-0.081111237 -0.070209466 0.44700003
-0.079945877 -0.070209466 0.44700003
-0.078780524 -0.070209466 0.44700003
-0.077615164 -0.070209466 0.44700003
-0.076620832 -0.070366532 0.44800001
-0.075452872 -0.070366532 0.44800001
-0.074284904 -0.070366532 0.44800001
-0.073116936 -0.070366532 0.44800001
-0.071948975 -0.070366532 0.44800001
-0.070939004 -0.070523605 0.44900003
-0.069768436 -0.070523605 0.44900003
-0.068597861 -0.070523605 0.44900003
-0.067427292 -0.070523605 0.44900003
-0.066404283 -0.07068067 0.45000002
-0.065231107 -0.07068067 0.45000002
-0.064200282 -0.070837744 0.45100003
-0.063024491 -0.070837744 0.45100003
-0.061985843 -0.070994809 0.45200002
-0.060941979 -0.071151875 0.45300001
-0.059892904 -0.071308941 0.45400003
-0.058709294 -0.071308941 0.45400003
-0.057652391 -0.071466006 0.45500001
-0.056466185 -0.071466006 0.45500001
-0.055401467 -0.071623079 0.45600003
-0.054212641 -0.071623079 0.45600003
-0.053023823 -0.071623079 0.45600003
-0.051948674 -0.071780145 0.45700002
-0.050757244 -0.071780145 0.45700002
-0.049565818 -0.071780145 0.45700002
-0.048374388 -0.071780145 0.45700002
-0.047182959 -0.071780145 0.45700002
-0.045991533 -0.071780145 0.45700002
-0.044898137 -0.071937218 0.45800003
-0.0437041 -0.071937218 0.45800003
-0.042510066 -0.071937218 0.45800003
-0.041316032 -0.071937218 0.45800003
-0.040209599 -0.072094284 0.45900002
-0.039012954 -0.072094284 0.45900002
-0.037816312 -0.072094284 0.45900002
-0.036619671 -0.072094284 0.45900002
-0.035500202 -0.07225135 0.46000001
-0.034300953 -0.07225135 0.46000001
-0.033101704 -0.07225135 0.46000001
-0.031902451 -0.07225135 0.46000001
-0.030769952 -0.072408423 0.46100003
-0.029632233 -0.072565489 0.46200001
-0.02842777 -0.072565489 0.46200001
-0.027223308 -0.072565489 0.46200001
-0.026018843 -0.072565489 0.46200001
-0.024868092 -0.072722554 0.46300003
-0.023661021 -0.072722554 0.46300003
-0.022453949 -0.072722554 0.46300003
-0.021292768 -0.07287962 0.46400002
-0.020083092 -0.07287962 0.46400002
-0.018873412 -0.07287962 0.46400002
-0.017663736 -0.07287962 0.46400002
-0.016489521 -0.073036693 0.46500003
-0.015277237 -0.073036693 0.46500003
-0.014064951 -0.073036693 0.46500003
-0.012880307 -0.073193759 0.46600002
-0.011665414 -0.073193759 0.46600002
-0.010450523 -0.073193759 0.46600002
-0.0092554502 -0.073350824 0.46700001
-0.0080379508 -0.073350824 0.46700001
-0.0068204524 -0.073350824 0.46700001
-0.0056149517 -0.073507898 0.46800002
-0.004394846 -0.073507898 0.46800002
-0.0031747401 -0.073507898 0.46800002
-0.0019588107 -0.073664963 0.46900001
-0.00073609792 -0.073664963 0.46900001
0.00048661497 -0.073664963 0.46900001
0.0017129725 -0.073822036 0.47000003
0.0029382925 -0.073822036 0.47000003
0.0041636126 -0.073822036 0.47000003
0.0053889323 -0.073822036 0.47000003
0.0066283252 -0.073979102 0.47100002
0.0078562526 -0.073979102 0.47100002
0.0090841791 -0.073979102 0.47100002
0.010334001 -0.074136168 0.47200003
0.011564535 -0.074136168 0.47200003
0.012795068 -0.074136168 0.47200003
0.014055318 -0.074293241 0.47300002
0.015288458 -0.074293241 0.47300002
0.016556529 -0.074450307 0.47400004
0.017792279 -0.074450307 0.47400004
0.019028027 -0.074450307 0.47400004
0.020263774 -0.074450307 0.47400004
0.021544881 -0.074607372 0.47500002
0.022783235 -0.074607372 0.47500002
0.024072161 -0.074764438 0.47600001
0.025366304 -0.074921511 0.47700003
0.026609873 -0.074921511 0.47700003
0.027853442 -0.074921511 0.47700003
0.029158011 -0.075078577 0.47800002
0.030404186 -0.075078577 0.47800002
0.031650364 -0.075078577 0.47800002
0.032896541 -0.075078577 0.47800002
0.034142718 -0.075078577 0.47800002
0.035388894 -0.075078577 0.47800002
0.036558427 -0.074921511 0.47700003
0.037801996 -0.074921511 0.47700003
0.038881857 -0.074607372 0.47500002
0.040035747 -0.074450307 0.47400004
0.041097354 -0.074136168 0.47200003
0.04214853 -0.073822036 0.47000003
0.043281566 -0.073664963 0.46900001
0.044314492 -0.073350824 0.46700001
0.045336995 -0.073036693 0.46500003
0.046449177 -0.07287962 0.46400002
0.04755614 -0.072722554 0.46300003
0.04865789 -0.072565489 0.46200001
0.05452716 -0.065183282 0.41500002
0.056554418 -0.065026216 0.41400003
0.057633743 -0.065026216 0.41400003
0.058713071 -0.065026216 0.41400003
0.059792396 -0.065026216 0.41400003
0.06087172 -0.065026216 0.41400003
0.061951041 -0.065026216 0.41400003
0.06303037 -0.065026216 0.41400003
0.06410969 -0.065026216 0.41400003
0.078273468 -0.076806329 0.48900002
0.079548322 -0.076806329 0.48900002
0.080823176 -0.076806329 0.48900002
0.08209803 -0.076806329 0.48900002
0.083372883 -0.076806329 0.48900002
0.084647737 -0.076806329 0.48900002
0.085922599 -0.076806329 0.48900002
0.087197453 -0.076806329 0.48900002
0.088472307 -0.076806329 0.48900002
0.089747161 -0.076806329 0.48900002
0.091208152 -0.076963395 0.49000001
0.092485607 -0.076963395 0.49000001
0.093763068 -0.076963395 0.49000001
0.095234498 -0.077120468 0.49100003
0.09651456 -0.077120468 0.49100003
0.097993799 -0.077277534 0.49200001
0.099276476 -0.077277534 0.49200001
0.10076354 -0.077434599 0.49300003
0.10225582 -0.077591665 0.49400002
0.10375332 -0.077748738 0.49500003
0.10504381 -0.077748738 0.49500003
0.10654913 -0.077905804 0.49600002
0.10784223 -0.077905804 0.49600002
0.10913533 -0.077905804 0.49600002
0.1102058 -0.077748738 0.49500003
0.1114963 -0.077748738 0.49500003
0.11278679 -0.077748738 0.49500003
0.11407729 -0.077748738 0.49500003
0.11513472 -0.077591665 0.49400002
0.1164226 -0.077591665 0.49400002
0.11771049 -0.077591665 0.49400002
0.11923927 -0.077748738 0.49500003
0.12077327 -0.077905804 0.49600002
0.12206637 -0.077905804 0.49600002
0.12360818 -0.07806287 0.49700001
0.1251552 -0.078219943 0.49800003
0.12645353 -0.078219943 0.49800003
0.12775184 -0.078219943 0.49800003
0.1293093 -0.078377008 0.49900001
0.13087197 -0.078534074 0.5
0.13243985 -0.078691147 0.50100005
0.133746 -0.078691147 0.50100005
0.13532169 -0.078848213 0.50200003
0.13690262 -0.079005279 0.50300002
0.13848874 -0.079162344 0.50400001
0.13980269 -0.079162344 0.50400001
0.14111665 -0.079162344 0.50400001
0.14271322 -0.079319417 0.505
0.14402978 -0.079319417 0.505
0.14563417 -0.079476491 0.50600004
0.14695334 -0.079476491 0.50600004
0.14827253 -0.079476491 0.50600004
0.14988734 -0.079633556 0.50700003
0.15150735 -0.079790622 0.50800002
0.15283175 -0.079790622 0.50800002
0.15445958 -0.079947688 0.509
0.15578659 -0.079947688 0.509
0.15742226 -0.080104761 0.51000005
0.15875186 -0.080104761 0.51000005
0.16008146 -0.080104761 0.51000005
0.16141106 -0.080104761 0.51000005
0.16274066 -0.080104761 0.51000005
0.16407028 -0.080104761 0.51000005
0.16539986 -0.080104761 0.51000005
0.16672948 -0.080104761 0.51000005
0.16805908 -0.080104761 0.51000005
0.16938868 -0.080104761 0.51000005
0.17071828 -0.080104761 0.51000005
0.17238523 -0.080261827 0.51100004
0.17371744 -0.080261827 0.51100004
0.17504965 -0.080261827 0.51100004
0.17638186 -0.080261827 0.51100004
0.17806184 -0.080418892 0.51200002
0.17939666 -0.080418892 0.51200002
0.18073148 -0.080418892 0.51200002
0.18206629 -0.080418892 0.51200002
0.1830429 -0.080261827 0.51100004
0.18437512 -0.080261827 0.51100004
0.18570733 -0.080261827 0.51100004
0.18630747 -0.079947688 0.509
0.18726584 -0.079790622 0.50800002
0.18821898 -0.079633556 0.50700003
0.18916693 -0.079476491 0.50600004
0.19010963 -0.079319417 0.505
0.19104715 -0.079162344 0.50400001
0.19159777 -0.078848213 0.50200003
0.19252226 -0.078691147 0.50100005
0.19382837 -0.078691147 0.50100005
0.19474502 -0.078534074 0.5
0.19565645 -0.078377008 0.49900001
0.19616798 -0.07806287 0.49700001
0.19666907 -0.077748738 0.49500003
0.19040079 -0.07287962 0.46400002
0.19037163 -0.072408423 0.46100003
0.19032679 -0.071937218 0.45800003
0.19026633 -0.071466006 0.45500001
0.19103177 -0.071308941 0.45400003
0.19179198 -0.071151875 0.45300001
0.19254699 -0.070994809 0.45200002
0.19372539 -0.070994809 0.45200002
0.1944726 -0.070837744 0.45100003
0.19564837 -0.070837744 0.45100003
0.19682416 -0.070837744 0.45100003
0.19799995 -0.070837744 0.45100003
0.1987341 -0.07068067 0.45000002
0.23950917 -0.084188528 0.53600001
0.24090654 -0.084188528 0.53600001
0.24230394 -0.084188528 0.53600001
0.24370131 -0.084188528 0.53600001
0.24509871 -0.084188528 0.53600001
0.24695596 -0.084345594 0.537
0.24835595 -0.084345594 0.537
0.25022107 -0.084502675 0.53800005
0.25162366 -0.084502675 0.53800005
0.25349659 -0.08465974 0.53900003
0.2553747 -0.084816806 0.54000002
-0.22975744 -0.062556744 0.40500003
-0.22870159 -0.062556744 0.40500003
-0.22764574 -0.062556744 0.40500003
-0.22658987 -0.062556744 0.40500003
-0.22553401 -0.062556744 0.40500003
-0.2250324 -0.062711202 0.40600002
-0.22397394 -0.062711202 0.40600002
-0.22291546 -0.062711202 0.40600002
-0.22240344 -0.06286566 0.40700001
-0.22134237 -0.06286566 0.40700001
-0.2202813 -0.06286566 0.40700001
-0.21975884 -0.063020125 0.40800002
-0.21869516 -0.063020125 0.40800002
-0.21763149 -0.063020125 0.40800002
-0.21656781 -0.063020125 0.40800002
-0.21550411 -0.063020125 0.40800002
-0.21496603 -0.063174583 0.40900001
-0.21389975 -0.063174583 0.40900001
-0.21283346 -0.063174583 0.40900001
-0.21228492 -0.063329048 0.41000003
-0.21121603 -0.063329048 0.41000003
-0.21014714 -0.063329048 0.41000003
-0.20958817 -0.063483506 0.41100001
-0.20851667 -0.063483506 0.41100001
-0.20744519 -0.063483506 0.41100001
-0.20637369 -0.063483506 0.41100001
-0.20580171 -0.063637972 0.41200003
-0.20472759 -0.063637972 0.41200003
-0.20414779 -0.06379243 0.41300002
-0.20307106 -0.06379243 0.41300002
-0.20248345 -0.063946895 0.41400003
-0.20140412 -0.063946895 0.41400003
-0.20032479 -0.063946895 0.41400003
-0.19972673 -0.064101353 0.41500002
-0.1986448 -0.064101353 0.41500002
-0.19756287 -0.064101353 0.41500002
-0.19648093 -0.064101353 0.41500002
-0.19539902 -0.064101353 0.41500002
-0.19431707 -0.064101353 0.41500002
-0.19323514 -0.064101353 0.41500002
-0.19215322 -0.064101353 0.41500002
-0.19107129 -0.064101353 0.41500002
-0.19044715 -0.064255811 0.41600001
-0.18936262 -0.064255811 0.41600001
-0.18827806 -0.064255811 0.41600001
-0.18719353 -0.064255811 0.41600001
-0.18655638 -0.064410277 0.41700003
-0.18546923 -0.064410277 0.41700003
-0.1843821 -0.064410277 0.41700003
-0.18373449 -0.064564735 0.41800001
-0.18264474 -0.064564735 0.41800001
-0.18155499 -0.064564735 0.41800001
-0.18046524 -0.064564735 0.41800001
-0.17937548 -0.064564735 0.41800001
-0.17828573 -0.064564735 0.41800001
-0.17719598 -0.064564735 0.41800001
-0.17652754 -0.0647192 0.41900003
-0.17543519 -0.0647192 0.41900003
-0.1747589 -0.064873658 0.42000002
-0.17366394 -0.064873658 0.42000002
-0.17256896 -0.064873658 0.42000002
-0.17188229 -0.065028124 0.42100003
-0.17078471 -0.065028124 0.42100003
-0.1700902 -0.065182582 0.42200002
-0.16899 -0.065182582 0.42200002
-0.16788983 -0.065182582 0.42200002
-0.16678965 -0.065182582 0.42200002
-0.16568947 -0.065182582 0.42200002
-0.16497929 -0.06533704 0.42300001
-0.16387652 -0.06533704 0.42300001
-0.16277373 -0.06533704 0.42300001
-0.16205314 -0.065491505 0.42400002
-0.16094775 -0.065491505 0.42400002
-0.16021933 -0.065645963 0.42500001
-0.15911134 -0.065645963 0.42500001
-0.15800333 -0.065645963 0.42500001
-0.1572645 -0.065800428 0.42600003
-0.15615389 -0.065800428 0.42600003
-0.15540724 -0.065954886 0.42700002
-0.15429401 -0.065954886 0.42700002
-0.15318081 -0.065954886 0.42700002
-0.15206759 -0.065954886 0.42700002
-0.15095437 -0.065954886 0.42700002
-0.14984114 -0.065954886 0.42700002
-0.14872792 -0.065954886 0.42700002
-0.14761472 -0.065954886 0.42700002
-0.1465015 -0.065954886 0.42700002
-0.14538829 -0.065954886 0.42700002
-0.14427507 -0.065954886 0.42700002
-0.14349714 -0.066109352 0.42800003
-0.14238131 -0.066109352 0.42800003
-0.14126548 -0.066109352 0.42800003
-0.14047711 -0.06626381 0.42900002
-0.13935868 -0.06626381 0.42900002
-0.13856249 -0.066418268 0.43000001
-0.13744146 -0.066418268 0.43000001
-0.13663743 -0.066572733 0.43100002
-0.13551378 -0.066572733 0.43100002
-0.13470195 -0.066727191 0.43200001
-0.13357569 -0.066727191 0.43200001
-0.13275605 -0.066881657 0.43300003
-0.13162719 -0.066881657 0.43300003
-0.13079971 -0.067036115 0.43400002
-0.12966825 -0.067036115 0.43400002
-0.12853679 -0.067036115 0.43400002
-0.12740532 -0.067036115 0.43400002
-0.12627386 -0.067036115 0.43400002
-0.12514238 -0.067036115 0.43400002
-0.12429667 -0.06719058 0.43500003
-0.12316259 -0.06719058 0.43500003
-0.12202851 -0.06719058 0.43500003
-0.12117236 -0.067345038 0.43600002
-0.12003568 -0.067345038 0.43600002
-0.118899 -0.067345038 0.43600002
-0.11776232 -0.067345038 0.43600002
