# .PCD v0.7 - Point Cloud Data file format
VERSION 0.7
FIELDS x y z rgb
SIZE 4 4 4 4
TYPE F F F F
COUNT 1 1 1 1
WIDTH 1486
HEIGHT 1
VIEWPOINT 0 0 0 1 0 0 0
POINTS 1486
DATA ascii
0.17840961 -0.049815215 0.51300001 0
0.18009742 -0.049912319 0.514 0
0.18143745 -0.049912319 0.514 0
0.18277748 -0.049912319 0.514 0
0.1841175 -0.049912319 0.514 0
0.18545754 -0.049912319 0.514 0
0.18716101 -0.050009429 0.51500005 0
0.18850364 -0.050009429 0.51500005 0
0.19021492 -0.050106537 0.51600003 0
0.19156015 -0.050106537 0.51600003 0
0.19327925 -0.05020364 0.51700002 0
0.19462709 -0.05020364 0.51700002 0
0.19597495 -0.05020364 0.51700002 0
0.1973228 -0.05020364 0.51700002 0
0.19867066 -0.05020364 0.51700002 0
0.2000185 -0.05020364 0.51700002 0
0.20136635 -0.05020364 0.51700002 0
0.2027142 -0.05020364 0.51700002 0
0.20406206 -0.05020364 0.51700002 0
0.20540991 -0.05020364 0.51700002 0
0.20675777 -0.05020364 0.51700002 0
0.20810562 -0.05020364 0.51700002 0
0.20945346 -0.05020364 0.51700002 0
0.21080132 -0.05020364 0.51700002 0
0.21173882 -0.050106537 0.51600003 0
0.21308407 -0.050106537 0.51600003 0
0.21484487 -0.05020364 0.51700002 0
0.21577457 -0.050106537 0.51600003 0
0.21754058 -0.05020364 0.51700002 0
0.21888843 -0.05020364 0.51700002 0
0.22023627 -0.05020364 0.51700002 0
0.22158414 -0.05020364 0.51700002 0
0.222932 -0.05020364 0.51700002 0
0.22427984 -0.05020364 0.51700002 0
0.22606412 -0.050300743 0.51800001 0
0.22741456 -0.050300743 0.51800001 0
0.22876503 -0.050300743 0.51800001 0
0.23011547 -0.050300743 0.51800001 0
0.23146594 -0.050300743 0.51800001 0
0.2328164 -0.050300743 0.51800001 0
0.23416686 -0.050300743 0.51800001 0
0.23551731 -0.050300743 0.51800001 0
0.23641051 -0.05020364 0.51700002 0
0.23775835 -0.05020364 0.51700002 0
0.23910621 -0.05020364 0.51700002 0
0.24045406 -0.05020364 0.51700002 0
0.24180192 -0.05020364 0.51700002 0
0.24267946 -0.050106537 0.51600003 0
0.24449761 -0.05020364 0.51700002 0
-0 -0 0 0
-0 -0 0 0
-0 -0 0 0
-0 -0 0 0
-0 -0 0 0
-0 -0 0 0
-0 -0 0 0
-0 -0 0 0
-0 -0 0 0
-0 -0 0 0
-0 -0 0 0
-0 -0 0 0
-0 -0 0 0
-0 -0 0 0
-0 -0 0 0
-0 -0 0 0
-0 -0 0 0
-0 -0 0 0
-0 -0 0 0
-0 -0 0 0
-0 -0 0 0
-0 -0 0 0
-0 -0 0 0
-0 -0 0 0
-0 -0 0 0
-0 -0 0 0
-0 -0 0 0
-0 -0 0 0
-0 -0 0 0
-0 -0 0 0
-0 -0 0 0
-0 -0 0 0
-0 -0 0 0
-0 -0 0 0
-0 -0 0 0
-0 -0 0 0
-0 -0 0 0
-0 -0 0 0
-0 -0 0 0
-0 -0 0 0
-0 -0 0 0
-0 -0 0 0
-0 -0 0 0
-0 -0 0 0
-0 -0 0 0
-0.27694318 -0.04677682 0.49500003 0
-0.27565268 -0.04677682 0.49500003 0
-0.27436218 -0.04677682 0.49500003 0
-0.27307168 -0.04677682 0.49500003 0
-0.27233022 -0.046871316 0.49600002 0
-0.27103713 -0.046871316 0.49600002 0
-0.26974404 -0.046871316 0.49600002 0
-0.26790971 -0.04677682 0.49500003 0
-0.26715779 -0.046871316 0.49600002 0
-0.2658647 -0.046871316 0.49600002 0
-0.26457161 -0.046871316 0.49600002 0
-0.26327851 -0.046871316 0.49600002 0
-0.2614572 -0.04677682 0.49500003 0
-0.2601667 -0.04677682 0.49500003 0
-0.25887623 -0.04677682 0.49500003 0
-0.25758573 -0.04677682 0.49500003 0
-0.25629523 -0.04677682 0.49500003 0
-0.25500473 -0.04677682 0.49500003 0
-0.25371423 -0.04677682 0.49500003 0
-0.25242373 -0.04677682 0.49500003 0
-0.25113323 -0.04677682 0.49500003 0
-0.24984275 -0.04677682 0.49500003 0
-0.24855226 -0.04677682 0.49500003 0
-0.24726176 -0.04677682 0.49500003 0
-0.24646816 -0.046871316 0.49600002 0
-0.24468076 -0.04677682 0.49500003 0
-0.24339026 -0.04677682 0.49500003 0
-0.24209978 -0.04677682 0.49500003 0
-0.24080926 -0.04677682 0.49500003 0
-0.23951876 -0.04677682 0.49500003 0
-0.23822828 -0.04677682 0.49500003 0
-0.23693778 -0.04677682 0.49500003 0
-0.23564729 -0.04677682 0.49500003 0
-0.23435678 -0.04677682 0.49500003 0
-0.23306629 -0.04677682 0.49500003 0
-0.23177579 -0.04677682 0.49500003 0
-0.23048531 -0.04677682 0.49500003 0
-0.22919479 -0.04677682 0.49500003 0
-0.2279043 -0.04677682 0.49500003 0
-0.2266138 -0.04677682 0.49500003 0
-0.22577851 -0.046871316 0.49600002 0
-0.2244854 -0.046871316 0.49600002 0
-0.22319229 -0.046871316 0.49600002 0
-0.22145182 -0.04677682 0.49500003 0
-0.22060609 -0.046871316 0.49600002 0
-0.21931298 -0.046871316 0.49600002 0
-0.21801987 -0.046871316 0.49600002 0
-0.21672678 -0.046871316 0.49600002 0
-0.21543367 -0.046871316 0.49600002 0
-0.21414058 -0.046871316 0.49600002 0
-0.21284746 -0.046871316 0.49600002 0
-0.21155436 -0.046871316 0.49600002 0
-0.21026126 -0.046871316 0.49600002 0
-0.20896816 -0.046871316 0.49600002 0
-0.20767505 -0.046871316 0.49600002 0
-0.20679803 -0.046965815 0.49700001 0
-0.20550233 -0.046965815 0.49700001 0
-0.2042066 -0.046965815 0.49700001 0
-0.2029109 -0.046965815 0.49700001 0
-0.20161518 -0.046965815 0.49700001 0
-0.20031948 -0.046965815 0.49700001 0
-0.19862333 -0.046871316 0.49600002 0
-0.19733022 -0.046871316 0.49600002 0
-0.19643235 -0.046965815 0.49700001 0
-0.19513665 -0.046965815 0.49700001 0
-0.19384092 -0.046965815 0.49700001 0
-0.19215782 -0.046871316 0.49600002 0
-0.1908647 -0.046871316 0.49600002 0
-0.18957159 -0.046871316 0.49600002 0
-0.1882785 -0.046871316 0.49600002 0
-0.18698539 -0.046871316 0.49600002 0
-0.1856923 -0.046871316 0.49600002 0
-0.18439919 -0.046871316 0.49600002 0
-0.18310608 -0.046871316 0.49600002 0
-0.18217953 -0.046965815 0.49700001 0
-0.18088382 -0.046965815 0.49700001 0
-0.17958811 -0.046965815 0.49700001 0
-0.17829241 -0.046965815 0.49700001 0
-0.17699669 -0.046965815 0.49700001 0
-0.17570099 -0.046965815 0.49700001 0
-0.17440526 -0.046965815 0.49700001 0
-0.17345786 -0.047060315 0.49800003 0
-0.17215955 -0.047060315 0.49800003 0
-0.17086123 -0.047060315 0.49800003 0
-0.16956292 -0.047060315 0.49800003 0
-0.1682646 -0.047060315 0.49800003 0
-0.16696629 -0.047060315 0.49800003 0
-0.16566797 -0.047060315 0.49800003 0
-0.16436966 -0.047060315 0.49800003 0
-0.16307133 -0.047060315 0.49800003 0
-0.16177303 -0.047060315 0.49800003 0
-0.16047469 -0.047060315 0.49800003 0
-0.15917638 -0.047060315 0.49800003 0
-0.15787806 -0.047060315 0.49800003 0
-0.15657973 -0.047060315 0.49800003 0
-0.15528142 -0.047060315 0.49800003 0
-0.1539831 -0.047060315 0.49800003 0
-0.15268479 -0.047060315 0.49800003 0
-0.15169045 -0.047154814 0.49900001 0
-0.15038954 -0.047154814 0.49900001 0
-0.14908861 -0.047154814 0.49900001 0
-0.14778769 -0.047154814 0.49900001 0
-0.14648676 -0.047154814 0.49900001 0
-0.14518584 -0.047154814 0.49900001 0
-0.14388491 -0.047154814 0.49900001 0
-0.142584 -0.047154814 0.49900001 0
-0.14128307 -0.047154814 0.49900001 0
-0.13998213 -0.047154814 0.49900001 0
-0.1386812 -0.047154814 0.49900001 0
-0.13738027 -0.047154814 0.49900001 0
-0.13607936 -0.047154814 0.49900001 0
-0.13477843 -0.047154814 0.49900001 0
-0.13347751 -0.047154814 0.49900001 0
-0.13217658 -0.047154814 0.49900001 0
-0.13087566 -0.047154814 0.49900001 0
-0.1298344 -0.04724931 0.5 0
-0.12853087 -0.04724931 0.5 0
-0.12722734 -0.04724931 0.5 0
-0.12592381 -0.04724931 0.5 0
-0.12462027 -0.04724931 0.5 0
-0.12331674 -0.04724931 0.5 0
-0.12201321 -0.04724931 0.5 0
-0.12095111 -0.047343813 0.50100005 0
-0.11964497 -0.047343813 0.50100005 0
-0.11833883 -0.047343813 0.50100005 0
-0.11703269 -0.047343813 0.50100005 0
-0.11572655 -0.047343813 0.50100005 0
-0.11464879 -0.047438309 0.50200003 0
-0.11334005 -0.047438309 0.50200003 0
-0.11225447 -0.047532808 0.50300002 0
-0.11094312 -0.047532808 0.50300002 0
-0.10963176 -0.047532808 0.50300002 0
-0.10832041 -0.047532808 0.50300002 0
-0.10700906 -0.047532808 0.50300002 0
-0.10569771 -0.047532808 0.50300002 0
-0.10438635 -0.047532808 0.50300002 0
-0.103075 -0.047532808 0.50300002 0
-0.10156134 -0.047438309 0.50200003 0
-0.10005289 -0.047343813 0.50100005 0
-0.098352537 -0.047154814 0.49900001 0
-0.096273646 -0.04677682 0.49500003 0
-0 -0 0 0
-0 -0 0 0
-0 -0 0 0
-0 -0 0 0
-0 -0 0 0
-0.082807474 -0.043752864 0.46300003 0
-0.081776649 -0.04384736 0.46400002 0
-0 -0 0 0
-0 -0 0 0
-0.079831839 -0.04479235 0.47400004 0
-0.078596085 -0.04479235 0.47400004 0
-0.077523537 -0.044886846 0.47500002 0
-0.075963981 -0.044697847 0.47300002 0
-0.074572854 -0.044603352 0.47200003 0
-0.073186927 -0.044508852 0.47100002 0
-0.071959004 -0.044508852 0.47100002 0
-0.070731074 -0.044508852 0.47100002 0
-0.069503151 -0.044508852 0.47100002 0
-0.068275221 -0.044508852 0.47100002 0
-0.067047298 -0.044508852 0.47100002 0
-0.066098861 -0.044697847 0.47300002 0
-0.065002859 -0.04479235 0.47400004 0
-0.064036168 -0.044981346 0.47600001 0
-0.063059047 -0.045170341 0.47800002 0
-0.062071498 -0.04535934 0.48000002 0
-0.061073527 -0.045548338 0.48200002 0
-0.060065128 -0.045737334 0.48400003 0
-0.059167791 -0.046020828 0.48700002 0
-0.058135923 -0.046209827 0.48900002 0
-0.057093631 -0.046398826 0.49100003 0
-0.055927236 -0.046493322 0.49200001 0
-0.054866694 -0.046682321 0.49400002 0
-0.053687267 -0.04677682 0.49500003 0
-0.052502621 -0.046871316 0.49600002 0
-0.051312756 -0.046965815 0.49700001 0
-0.050117686 -0.047060315 0.49800003 0
-0.048819371 -0.047060315 0.49800003 0
-0.047521051 -0.047060315 0.49800003 0
-0.046315551 -0.047154814 0.49900001 0
-0.045014627 -0.047154814 0.49900001 0
-0.043713704 -0.047154814 0.49900001 0
-0.042412773 -0.047154814 0.49900001 0
-0.041111849 -0.047154814 0.49900001 0
-0.039810926 -0.047154814 0.49900001 0
-0.038510002 -0.047154814 0.49900001 0
-0.037209079 -0.047154814 0.49900001 0
-0.035908155 -0.047154814 0.49900001 0
-0.034607224 -0.047154814 0.49900001 0
-0.033306301 -0.047154814 0.49900001 0
-0.032069515 -0.04724931 0.5 0
-0.030765984 -0.04724931 0.5 0
-0.029462453 -0.04724931 0.5 0
-0.02815892 -0.04724931 0.5 0
-0.026855389 -0.04724931 0.5 0
-0.025602963 -0.047343813 0.50100005 0
-0.024296824 -0.047343813 0.50100005 0
-0.022990685 -0.047343813 0.50100005 0
-0.021684546 -0.047343813 0.50100005 0
-0.020378405 -0.047343813 0.50100005 0
-0.019072268 -0.047343813 0.50100005 0
-0.01780159 -0.047438309 0.50200003 0
-0.016492845 -0.047438309 0.50200003 0
-0.015184097 -0.047438309 0.50200003 0
-0.013875352 -0.047438309 0.50200003 0
-0.012566606 -0.047438309 0.50200003 0
-0.01125786 -0.047438309 0.50200003 0
-0.0099491142 -0.047438309 0.50200003 0
-0.0086403675 -0.047438309 0.50200003 0
-0.0073316214 -0.047438309 0.50200003 0
-0.0060228757 -0.047438309 0.50200003 0
-0.0047141295 -0.047438309 0.50200003 0
-0.0034053838 -0.047438309 0.50200003 0
-0.0020966376 -0.047438309 0.50200003 0
-0.00078789162 -0.047438309 0.50200003 0
0.00051981688 -0.047343813 0.50100005 0
0.0018259559 -0.047343813 0.50100005 0
0.0031320949 -0.047343813 0.50100005 0
0.0044293748 -0.04724931 0.5 0
0.0057329065 -0.04724931 0.5 0
0.0070364382 -0.04724931 0.5 0
0.0083399704 -0.04724931 0.5 0
0.0096435016 -0.04724931 0.5 0
0.010947034 -0.04724931 0.5 0
0.012250566 -0.04724931 0.5 0
0.013554097 -0.04724931 0.5 0
0.014887346 -0.047343813 0.50100005 0
0.016193485 -0.047343813 0.50100005 0
0.017499622 -0.047343813 0.50100005 0
0.018843299 -0.047438309 0.50200003 0
0.020152044 -0.047438309 0.50200003 0
0.02150354 -0.047532808 0.50300002 0
0.022860251 -0.047627304 0.50400001 0
0.024174212 -0.047627304 0.50400001 0
0.02548817 -0.047627304 0.50400001 0
0.02685531 -0.047721803 0.505 0
0.028171876 -0.047721803 0.505 0
0.029546838 -0.047816306 0.50600004 0
0.030866014 -0.047816306 0.50600004 0
0.032185186 -0.047816306 0.50600004 0
0.033438146 -0.047721803 0.505 0
0.034754712 -0.047721803 0.505 0
0.036071278 -0.047721803 0.505 0
0.037387844 -0.047721803 0.505 0
0.038704414 -0.047721803 0.505 0
0.04002098 -0.047721803 0.505 0
0.041255694 -0.047627304 0.50400001 0
0.042569652 -0.047627304 0.50400001 0
0.043970682 -0.047721803 0.505 0
0.045197573 -0.047627304 0.50400001 0
0.046511531 -0.047627304 0.50400001 0
0.047825493 -0.047627304 0.50400001 0
0.049139451 -0.047627304 0.50400001 0
0.050553519 -0.047721803 0.505 0
0.051767375 -0.047627304 0.50400001 0
0.053186651 -0.047721803 0.505 0
0.054503217 -0.047721803 0.505 0
0.055819783 -0.047721803 0.505 0
0.057136353 -0.047721803 0.505 0
0.058452923 -0.047721803 0.505 0
0.059887849 -0.047816306 0.50600004 0
0.061207023 -0.047816306 0.50600004 0
0.062526196 -0.047816306 0.50600004 0
0.063845374 -0.047816306 0.50600004 0
0.065164544 -0.047816306 0.50600004 0
0.066483721 -0.047816306 0.50600004 0
0.067802891 -0.047816306 0.50600004 0
0.069122069 -0.047816306 0.50600004 0
0.070302017 -0.047721803 0.505 0
0.071618594 -0.047721803 0.505 0
0.072935164 -0.047721803 0.505 0
0.074251726 -0.047721803 0.505 0
0.075418659 -0.047627304 0.50400001 0
0.076732613 -0.047627304 0.50400001 0
0.078046575 -0.047627304 0.50400001 0
0.079360537 -0.047627304 0.50400001 0
0.080514431 -0.047532808 0.50300002 0
0 -0 0 0
0 -0 0 0
0 -0 0 0
0 -0 0 0
0 -0 0 0
0 -0 0 0
0 -0 0 0
0 -0 0 0
0 -0 0 0
0 -0 0 0
0 -0 0 0
0 -0 0 0
0.098919742 -0.0481943 0.51000005 0
0.10024935 -0.0481943 0.51000005 0
0.10157895 -0.0481943 0.51000005 0
0.10290855 -0.0481943 0.51000005 0
0.10423815 -0.0481943 0.51000005 0
0.10556775 -0.0481943 0.51000005 0
0.10710696 -0.0482888 0.51100004 0
0.10822696 -0.0481943 0.51000005 0
0.10955657 -0.0481943 0.51000005 0
0.11088617 -0.0481943 0.51000005 0
0.11221577 -0.0481943 0.51000005 0
0.11354537 -0.0481943 0.51000005 0
0.11487497 -0.0481943 0.51000005 0
0.11620457 -0.0481943 0.51000005 0
0.11753418 -0.0481943 0.51000005 0
0.11886378 -0.0481943 0.51000005 0
0.12019338 -0.0481943 0.51000005 0
0.12152299 -0.0481943 0.51000005 0
0.12285259 -0.0481943 0.51000005 0
0.12418219 -0.0481943 0.51000005 0
0.1255118 -0.0481943 0.51000005 0
0.1268414 -0.0481943 0.51000005 0
0.128171 -0.0481943 0.51000005 0
0.12924667 -0.048099797 0.509 0
0.1308302 -0.0481943 0.51000005 0
0.13215981 -0.0481943 0.51000005 0
0.13348942 -0.0481943 0.51000005 0
0.13481902 -0.0481943 0.51000005 0
0.13588165 -0.048099797 0.509 0
0.13720864 -0.048099797 0.509 0
0.13880783 -0.0481943 0.51000005 0
0.14013742 -0.0481943 0.51000005 0
0.14146703 -0.0481943 0.51000005 0
0.14279662 -0.0481943 0.51000005 0
0.14412624 -0.0481943 0.51000005 0
0.14574103 -0.0482888 0.51100004 0
0.14707325 -0.0482888 0.51100004 0
0.14840545 -0.0482888 0.51100004 0
0.14973767 -0.0482888 0.51100004 0
0.15106988 -0.0482888 0.51100004 0
0.15240209 -0.0482888 0.51100004 0
0.15403515 -0.048383296 0.51200002 0
0.15536995 -0.048383296 0.51200002 0
0.15670478 -0.048383296 0.51200002 0
0.15803958 -0.048383296 0.51200002 0
0.15937442 -0.048383296 0.51200002 0
0.16070922 -0.048383296 0.51200002 0
0.16204405 -0.048383296 0.51200002 0
0.16337885 -0.048383296 0.51200002 0
0.16471368 -0.048383296 0.51200002 0
0.16604848 -0.048383296 0.51200002 0
0.16738331 -0.048383296 0.51200002 0
0.16871813 -0.048383296 0.51200002 0
0.17005295 -0.048383296 0.51200002 0
0.17138776 -0.048383296 0.51200002 0
0.17272258 -0.048383296 0.51200002 0
0.17405739 -0.048383296 0.51200002 0
0.17573476 -0.048477791 0.51300001 0
0.1770722 -0.048477791 0.51300001 0
0.17840961 -0.048477791 0.51300001 0
0.18009742 -0.048572291 0.514 0
0.18143745 -0.048572291 0.514 0
0.18277748 -0.048572291 0.514 0
0.1841175 -0.048572291 0.514 0
0.18581837 -0.048666794 0.51500005 0
0.18716101 -0.048666794 0.51500005 0
0.18850364 -0.048666794 0.51500005 0
0.19021492 -0.04876129 0.51600003 0
0.19156015 -0.04876129 0.51600003 0
0.19290541 -0.04876129 0.51600003 0
0.19425064 -0.04876129 0.51600003 0
0.19597495 -0.048855789 0.51700002 0
0.1973228 -0.048855789 0.51700002 0
0.19867066 -0.048855789 0.51700002 0
0.2000185 -0.048855789 0.51700002 0
0.20136635 -0.048855789 0.51700002 0
0.2027142 -0.048855789 0.51700002 0
0.20406206 -0.048855789 0.51700002 0
0.20540991 -0.048855789 0.51700002 0
0.20675777 -0.048855789 0.51700002 0
0.20810562 -0.048855789 0.51700002 0
0.20945346 -0.048855789 0.51700002 0
0.21039359 -0.04876129 0.51600003 0
0.21173882 -0.04876129 0.51600003 0
0.21308407 -0.04876129 0.51600003 0
0.21484487 -0.048855789 0.51700002 0
0.21577457 -0.04876129 0.51600003 0
0.2171198 -0.04876129 0.51600003 0
0.21888843 -0.048855789 0.51700002 0
0.22023627 -0.048855789 0.51700002 0
0.22158414 -0.048855789 0.51700002 0
0.222932 -0.048855789 0.51700002 0
0.22427984 -0.048855789 0.51700002 0
0.22562769 -0.048855789 0.51700002 0
0.22697555 -0.048855789 0.51700002 0
0.22876503 -0.048950285 0.51800001 0
0.23011547 -0.048950285 0.51800001 0
0.23146594 -0.048950285 0.51800001 0
0.2328164 -0.048950285 0.51800001 0
0.2337148 -0.048855789 0.51700002 0
0.23506264 -0.048855789 0.51700002 0
0.23641051 -0.048855789 0.51700002 0
0.23775835 -0.048855789 0.51700002 0
0.23910621 -0.048855789 0.51700002 0
0.24045406 -0.048855789 0.51700002 0
0.24133421 -0.04876129 0.51600003 0
0.24314977 -0.048855789 0.51700002 0
0.24449761 -0.048855789 0.51700002 0
-0 -0 0 0
-0 -0 0 0
-0 -0 0 0
-0 -0 0 0
-0 -0 0 0
-0 -0 0 0
-0 -0 0 0
-0 -0 0 0
-0 -0 0 0
-0 -0 0 0
-0 -0 0 0
-0 -0 0 0
-0 -0 0 0
-0 -0 0 0
-0 -0 0 0
-0 -0 0 0
-0 -0 0 0
-0 -0 0 0
-0 -0 0 0
-0 -0 0 0
-0 -0 0 0
-0 -0 0 0
-0 -0 0 0
-0 -0 0 0
-0 -0 0 0
-0 -0 0 0
-0 -0 0 0
-0 -0 0 0
-0 -0 0 0
-0 -0 0 0
-0 -0 0 0
-0 -0 0 0
-0 -0 0 0
-0 -0 0 0
-0 -0 0 0
-0 -0 0 0
-0 -0 0 0
-0 -0 0 0
-0 -0 0 0
-0 -0 0 0
-0 -0 0 0
-0 -0 0 0
-0 -0 0 0
-0 -0 0 0
-0 -0 0 0
-0.27694318 -0.04548632 0.49500003 0
-0.27565268 -0.04548632 0.49500003 0
-0.27436218 -0.04548632 0.49500003 0
-0.27362335 -0.045578212 0.49600002 0
-0.27233022 -0.045578212 0.49600002 0
-0.27103713 -0.045578212 0.49600002 0
-0.26974404 -0.045578212 0.49600002 0
-0.26845095 -0.045578212 0.49600002 0
-0.26715779 -0.045578212 0.49600002 0
-0.2658647 -0.045578212 0.49600002 0
-0.26457161 -0.045578212 0.49600002 0
-0.26327851 -0.045578212 0.49600002 0
-0.26198539 -0.045578212 0.49600002 0
-0.2601667 -0.04548632 0.49500003 0
-0.25887623 -0.04548632 0.49500003 0
-0.25758573 -0.04548632 0.49500003 0
-0.25629523 -0.04548632 0.49500003 0
-0.25500473 -0.04548632 0.49500003 0
-0.25371423 -0.04548632 0.49500003 0
-0.25242373 -0.04548632 0.49500003 0
-0.25113323 -0.04548632 0.49500003 0
-0.24984275 -0.04548632 0.49500003 0
-0.24855226 -0.04548632 0.49500003 0
-0.24726176 -0.04548632 0.49500003 0
-0.24646816 -0.045578212 0.49600002 0
-0.24517506 -0.045578212 0.49600002 0
-0.24388196 -0.045578212 0.49600002 0
-0.24258886 -0.045578212 0.49600002 0
-0.24129574 -0.045578212 0.49600002 0
-0.24000263 -0.045578212 0.49600002 0
-0.23870954 -0.045578212 0.49600002 0
-0.23741643 -0.045578212 0.49600002 0
-0.23564729 -0.04548632 0.49500003 0
-0.23435678 -0.04548632 0.49500003 0
-0.23306629 -0.04548632 0.49500003 0
-0.23177579 -0.04548632 0.49500003 0
-0.23048531 -0.04548632 0.49500003 0
-0.22919479 -0.04548632 0.49500003 0
-0.22836472 -0.045578212 0.49600002 0
-0.2270716 -0.045578212 0.49600002 0
-0.22577851 -0.045578212 0.49600002 0
-0.2244854 -0.045578212 0.49600002 0
-0.22319229 -0.045578212 0.49600002 0
-0.2218992 -0.045578212 0.49600002 0
-0.22060609 -0.045578212 0.49600002 0
-0.21931298 -0.045578212 0.49600002 0
-0.21801987 -0.045578212 0.49600002 0
-0.21672678 -0.045578212 0.49600002 0
-0.21543367 -0.045578212 0.49600002 0
-0.21414058 -0.045578212 0.49600002 0
-0.21284746 -0.045578212 0.49600002 0
-0.21155436 -0.045578212 0.49600002 0
-0.21026126 -0.045578212 0.49600002 0
-0.20938946 -0.0456701 0.49700001 0
-0.20809375 -0.0456701 0.49700001 0
-0.20679803 -0.0456701 0.49700001 0
-0.20550233 -0.0456701 0.49700001 0
-0.2042066 -0.0456701 0.49700001 0
-0.2029109 -0.0456701 0.49700001 0
-0.20161518 -0.0456701 0.49700001 0
-0.20031948 -0.0456701 0.49700001 0
-0.19902377 -0.0456701 0.49700001 0
-0.19772807 -0.0456701 0.49700001 0
-0.19643235 -0.0456701 0.49700001 0
-0.19513665 -0.0456701 0.49700001 0
-0.19384092 -0.0456701 0.49700001 0
-0.19254522 -0.0456701 0.49700001 0
-0.1912495 -0.0456701 0.49700001 0
-0.18995379 -0.0456701 0.49700001 0
-0.18865809 -0.0456701 0.49700001 0
-0.18736237 -0.0456701 0.49700001 0
-0.18606667 -0.0456701 0.49700001 0
-0.18477096 -0.0456701 0.49700001 0
-0.18347524 -0.0456701 0.49700001 0
-0.18217953 -0.0456701 0.49700001 0
-0.18088382 -0.0456701 0.49700001 0
-0.17958811 -0.0456701 0.49700001 0
-0.17829241 -0.0456701 0.49700001 0
-0.17699669 -0.0456701 0.49700001 0
-0.17570099 -0.0456701 0.49700001 0
-0.17440526 -0.0456701 0.49700001 0
-0.17310955 -0.0456701 0.49700001 0
-0.17215955 -0.045761995 0.49800003 0
-0.17086123 -0.045761995 0.49800003 0
-0.16956292 -0.045761995 0.49800003 0
-0.1682646 -0.045761995 0.49800003 0
-0.16696629 -0.045761995 0.49800003 0
-0.16566797 -0.045761995 0.49800003 0
-0.16436966 -0.045761995 0.49800003 0
-0.16307133 -0.045761995 0.49800003 0
-0.16177303 -0.045761995 0.49800003 0
-0.16047469 -0.045761995 0.49800003 0
-0.15917638 -0.045761995 0.49800003 0
-0.15787806 -0.045761995 0.49800003 0
-0.15657973 -0.045761995 0.49800003 0
-0.15528142 -0.045761995 0.49800003 0
-0.1539831 -0.045761995 0.49800003 0
-0.15268479 -0.045761995 0.49800003 0
-0.15169045 -0.045853883 0.49900001 0
-0.15038954 -0.045853883 0.49900001 0
-0.14908861 -0.045853883 0.49900001 0
-0.14778769 -0.045853883 0.49900001 0
-0.14648676 -0.045853883 0.49900001 0
-0.14518584 -0.045853883 0.49900001 0
-0.14388491 -0.045853883 0.49900001 0
-0.142584 -0.045853883 0.49900001 0
-0.14128307 -0.045853883 0.49900001 0
-0.13998213 -0.045853883 0.49900001 0
-0.1386812 -0.045853883 0.49900001 0
-0.13738027 -0.045853883 0.49900001 0
-0.13607936 -0.045853883 0.49900001 0
-0.13477843 -0.045853883 0.49900001 0
-0.133745 -0.045945775 0.5 0
-0.13244146 -0.045945775 0.5 0
-0.13113794 -0.045945775 0.5 0
-0.1298344 -0.045945775 0.5 0
-0.12853087 -0.045945775 0.5 0
-0.12722734 -0.045945775 0.5 0
-0.12592381 -0.045945775 0.5 0
-0.12462027 -0.045945775 0.5 0
-0.12331674 -0.045945775 0.5 0
-0.12201321 -0.045945775 0.5 0
-0.12070968 -0.045945775 0.5 0
-0.11964497 -0.04603767 0.50100005 0
-0.11833883 -0.04603767 0.50100005 0
-0.11703269 -0.04603767 0.50100005 0
-0.11572655 -0.04603767 0.50100005 0
-0.11464879 -0.046129562 0.50200003 0
-0.11334005 -0.046129562 0.50200003 0
-0.11225447 -0.04622145 0.50300002 0
-0.11094312 -0.04622145 0.50300002 0
-0.10963176 -0.04622145 0.50300002 0
-0.10832041 -0.04622145 0.50300002 0
-0.10700906 -0.04622145 0.50300002 0
-0.10569771 -0.04622145 0.50300002 0
-0.10438635 -0.04622145 0.50300002 0
-0.103075 -0.04622145 0.50300002 0
-0.10176365 -0.04622145 0.50300002 0
-0.10025259 -0.046129562 0.50200003 0
-0.098746739 -0.04603767 0.50100005 0
-0.096857123 -0.045761995 0.49800003 0
-0 -0 0 0
-0 -0 0 0
-0 -0 0 0
-0 -0 0 0
-0 -0 0 0
-0 -0 0 0
-0.081600405 -0.042545792 0.46300003 0
-0 -0 0 0
-0 -0 0 0
-0 -0 0 0
-0 -0 0 0
-0 -0 0 0
-0.076285183 -0.043648489 0.47500002 0
-0 -0 0 0
-0 -0 0 0
-0 -0 0 0
-0 -0 0 0
-0 -0 0 0
-0.067695387 -0.042913355 0.46700001 0
-0 -0 0 0
-0 -0 0 0
-0 -0 0 0
-0 -0 0 0
-0 -0 0 0
-0.06168355 -0.043832272 0.47700003 0
-0.060693402 -0.044016056 0.47900003 0
-0.059816923 -0.044291727 0.48200002 0
-0.059167791 -0.044751186 0.48700002 0
-0.058135923 -0.044934969 0.48900002 0
-0.057093631 -0.045118753 0.49100003 0
-0.056040909 -0.045302536 0.49300003 0
-0.054866694 -0.045394428 0.49400002 0
-0.053687267 -0.04548632 0.49500003 0
-0.052502621 -0.045578212 0.49600002 0
-0.051312756 -0.0456701 0.49700001 0
-0.050017048 -0.0456701 0.49700001 0
-0.048819371 -0.045761995 0.49800003 0
-0.047521051 -0.045761995 0.49800003 0
-0.046222735 -0.045761995 0.49800003 0
-0.044924419 -0.045761995 0.49800003 0
-0.0436261 -0.045761995 0.49800003 0
-0.042412773 -0.045853883 0.49900001 0
-0.041111849 -0.045853883 0.49900001 0
-0.039810926 -0.045853883 0.49900001 0
-0.038510002 -0.045853883 0.49900001 0
-0.037209079 -0.045853883 0.49900001 0
-0.035908155 -0.045853883 0.49900001 0
-0.034607224 -0.045853883 0.49900001 0
-0.033306301 -0.045853883 0.49900001 0
-0.032069515 -0.045945775 0.5 0
-0.030765984 -0.045945775 0.5 0
-0.029462453 -0.045945775 0.5 0
-0.02815892 -0.045945775 0.5 0
-0.026855389 -0.045945775 0.5 0
-0.025602963 -0.04603767 0.50100005 0
-0.024296824 -0.04603767 0.50100005 0
-0.022990685 -0.04603767 0.50100005 0
-0.021684546 -0.04603767 0.50100005 0
-0.020378405 -0.04603767 0.50100005 0
-0.019110335 -0.046129562 0.50200003 0
-0.01780159 -0.046129562 0.50200003 0
-0.016492845 -0.046129562 0.50200003 0
-0.015184097 -0.046129562 0.50200003 0
-0.013875352 -0.046129562 0.50200003 0
-0.012566606 -0.046129562 0.50200003 0
-0.01125786 -0.046129562 0.50200003 0
-0.0099491142 -0.046129562 0.50200003 0
-0.0086403675 -0.046129562 0.50200003 0
-0.0073170168 -0.04603767 0.50100005 0
-0.0060228757 -0.046129562 0.50200003 0
-0.0047141295 -0.046129562 0.50200003 0
-0.0033986003 -0.04603767 0.50100005 0
-0.0020966376 -0.046129562 0.50200003 0
-0.00078632211 -0.04603767 0.50100005 0
0.00051981688 -0.04603767 0.50100005 0
0.0018259559 -0.04603767 0.50100005 0
0.0031258429 -0.045945775 0.5 0
0.0044293748 -0.045945775 0.5 0
0.005721441 -0.045853883 0.49900001 0
0.0070223655 -0.045853883 0.49900001 0
0.0083232904 -0.045853883 0.49900001 0
0.0096242148 -0.045853883 0.49900001 0
0.01092514 -0.045853883 0.49900001 0
0.012226065 -0.045853883 0.49900001 0
0.013554097 -0.045945775 0.5 0
0.014857629 -0.045945775 0.5 0
0.016193485 -0.04603767 0.50100005 0
0.017534552 -0.046129562 0.50200003 0
0.018843299 -0.046129562 0.50200003 0
0.020152044 -0.046129562 0.50200003 0
0.02150354 -0.04622145 0.50300002 0
0.022860251 -0.046313342 0.50400001 0
0.024174212 -0.046313342 0.50400001 0
0.025538741 -0.046405233 0.505 0
0.026908491 -0.046497129 0.50600004 0
0.028227665 -0.046497129 0.50600004 0
0.029546838 -0.046497129 0.50600004 0
0.030866014 -0.046497129 0.50600004 0
0.032185186 -0.046497129 0.50600004 0
0.033504363 -0.046497129 0.50600004 0
0.034823537 -0.046497129 0.50600004 0
0.036142711 -0.046497129 0.50600004 0
0.037387844 -0.046405233 0.505 0
0.038704414 -0.046405233 0.505 0
0.04002098 -0.046405233 0.505 0
0.04133755 -0.046405233 0.505 0
0.042654116 -0.046405233 0.505 0
0.043970682 -0.046405233 0.505 0
0.045287248 -0.046405233 0.505 0
0.046603814 -0.046405233 0.505 0
0.047825493 -0.046313342 0.50400001 0
0.049139451 -0.046313342 0.50400001 0
0.050453413 -0.046313342 0.50400001 0
0.051767375 -0.046313342 0.50400001 0
0.053186651 -0.046405233 0.505 0
0.054503217 -0.046405233 0.505 0
0.055819783 -0.046405233 0.505 0
0.057136353 -0.046405233 0.505 0
0.058452923 -0.046405233 0.505 0
0.059887849 -0.046497129 0.50600004 0
0.061207023 -0.046497129 0.50600004 0
0.062526196 -0.046497129 0.50600004 0
0.063845374 -0.046497129 0.50600004 0
0.065164544 -0.046497129 0.50600004 0
0.066483721 -0.046497129 0.50600004 0
0.067802891 -0.046497129 0.50600004 0
0.069122069 -0.046497129 0.50600004 0
0.070441239 -0.046497129 0.50600004 0
0.071760423 -0.046497129 0.50600004 0
0.072935164 -0.046405233 0.505 0
0.074251726 -0.046405233 0.505 0
0.075568296 -0.046405233 0.505 0
0.076884858 -0.046405233 0.505 0
0.078201428 -0.046405233 0.505 0
0.079360537 -0.046313342 0.50400001 0
0 -0 0 0
0 -0 0 0
0 -0 0 0
0 -0 0 0
0 -0 0 0
0 -0 0 0
0.076961346 -0.040248502 0.43800002 0
0.078103237 -0.040248502 0.43800002 0
0.079245135 -0.040248502 0.43800002 0
0.080387026 -0.040248502 0.43800002 0
0.081528917 -0.040248502 0.43800002 0
0.082670815 -0.040248502 0.43800002 0
0 -0 0 0
0.098919742 -0.046864696 0.51000005 0
0.10024935 -0.046864696 0.51000005 0
0.10157895 -0.046864696 0.51000005 0
0.10290855 -0.046864696 0.51000005 0
0.10423815 -0.046864696 0.51000005 0
0.10556775 -0.046864696 0.51000005 0
0.10689736 -0.046864696 0.51000005 0
0.10822696 -0.046864696 0.51000005 0
0.10955657 -0.046864696 0.51000005 0
0.11088617 -0.046864696 0.51000005 0
0.11221577 -0.046864696 0.51000005 0
0.11354537 -0.046864696 0.51000005 0
0.11487497 -0.046864696 0.51000005 0
0.11620457 -0.046864696 0.51000005 0
0.11753418 -0.046864696 0.51000005 0
0.11886378 -0.046864696 0.51000005 0
0.12019338 -0.046864696 0.51000005 0
0.12152299 -0.046864696 0.51000005 0
0.12285259 -0.046864696 0.51000005 0
0.12418219 -0.046864696 0.51000005 0
0.1255118 -0.046864696 0.51000005 0
0.1268414 -0.046864696 0.51000005 0
0.128171 -0.046864696 0.51000005 0
0.12950061 -0.046864696 0.51000005 0
0.1308302 -0.046864696 0.51000005 0
0.13215981 -0.046864696 0.51000005 0
0.13348942 -0.046864696 0.51000005 0
0.13481902 -0.046864696 0.51000005 0
0.13614862 -0.046864696 0.51000005 0
0.13747822 -0.046864696 0.51000005 0
0.13880783 -0.046864696 0.51000005 0
0.14013742 -0.046864696 0.51000005 0
0.14146703 -0.046864696 0.51000005 0
0.14279662 -0.046864696 0.51000005 0
0.14412624 -0.046864696 0.51000005 0
0.14574103 -0.046956584 0.51100004 0
0.14707325 -0.046956584 0.51100004 0
0.14840545 -0.046956584 0.51100004 0
0.14973767 -0.046956584 0.51100004 0
0.15106988 -0.046956584 0.51100004 0
0.15270032 -0.047048476 0.51200002 0
0.15403515 -0.047048476 0.51200002 0
0.15536995 -0.047048476 0.51200002 0
0.15670478 -0.047048476 0.51200002 0
0.15803958 -0.047048476 0.51200002 0
0.15937442 -0.047048476 0.51200002 0
0.16070922 -0.047048476 0.51200002 0
0.16204405 -0.047048476 0.51200002 0
0.16337885 -0.047048476 0.51200002 0
0.16471368 -0.047048476 0.51200002 0
0.16604848 -0.047048476 0.51200002 0
0.16738331 -0.047048476 0.51200002 0
0.16871813 -0.047048476 0.51200002 0
0.17005295 -0.047048476 0.51200002 0
0.17138776 -0.047048476 0.51200002 0
0.17272258 -0.047048476 0.51200002 0
0.17405739 -0.047048476 0.51200002 0
0.17573476 -0.047140367 0.51300001 0
0.1770722 -0.047140367 0.51300001 0
0.17840961 -0.047140367 0.51300001 0
0.18009742 -0.047232255 0.514 0
0.18143745 -0.047232255 0.514 0
0.18277748 -0.047232255 0.514 0
0.1841175 -0.047232255 0.514 0
0.18545754 -0.047232255 0.514 0
0.18716101 -0.047324151 0.51500005 0
0.18850364 -0.047324151 0.51500005 0
0.19021492 -0.047416043 0.51600003 0
0.19156015 -0.047416043 0.51600003 0
0.19290541 -0.047416043 0.51600003 0
0.19425064 -0.047416043 0.51600003 0
0.19597495 -0.047507934 0.51700002 0
0.1973228 -0.047507934 0.51700002 0
0.19867066 -0.047507934 0.51700002 0
0.2000185 -0.047507934 0.51700002 0
0.20136635 -0.047507934 0.51700002 0
0.2027142 -0.047507934 0.51700002 0
0.20406206 -0.047507934 0.51700002 0
0.20540991 -0.047507934 0.51700002 0
0.20675777 -0.047507934 0.51700002 0
0.20810562 -0.047507934 0.51700002 0
0.20945346 -0.047507934 0.51700002 0
0.21039359 -0.047416043 0.51600003 0
0.21173882 -0.047416043 0.51600003 0
0.21308407 -0.047416043 0.51600003 0
0.21442932 -0.047416043 0.51600003 0
0.21577457 -0.047416043 0.51600003 0
0.2171198 -0.047416043 0.51600003 0
0.21888843 -0.047507934 0.51700002 0
0.22023627 -0.047507934 0.51700002 0
0.22158414 -0.047507934 0.51700002 0
0.222932 -0.047507934 0.51700002 0
0.22427984 -0.047507934 0.51700002 0
0.22562769 -0.047507934 0.51700002 0
0.22697555 -0.047507934 0.51700002 0
0.22876503 -0.047599822 0.51800001 0
0.23011547 -0.047599822 0.51800001 0
0.23101911 -0.047507934 0.51700002 0
0.23236695 -0.047507934 0.51700002 0
0.2337148 -0.047507934 0.51700002 0
0.23506264 -0.047507934 0.51700002 0
0.23641051 -0.047507934 0.51700002 0
0.23775835 -0.047507934 0.51700002 0
0.23910621 -0.047507934 0.51700002 0
0.24045406 -0.047507934 0.51700002 0
0.24133421 -0.047416043 0.51600003 0
0.24267946 -0.047416043 0.51600003 0
0.24402471 -0.047416043 0.51600003 0
-0 -0 0 0
-0 -0 0 0
-0 -0 0 0
-0 -0 0 0
-0 -0 0 0
-0 -0 0 0
-0 -0 0 0
-0 -0 0 0
-0 -0 0 0
-0 -0 0 0
-0 -0 0 0
-0 -0 0 0
-0 -0 0 0
-0 -0 0 0
-0 -0 0 0
-0 -0 0 0
-0 -0 0 0
-0 -0 0 0
-0 -0 0 0
-0 -0 0 0
-0 -0 0 0
-0 -0 0 0
-0 -0 0 0
-0 -0 0 0
-0 -0 0 0
-0 -0 0 0
-0 -0 0 0
-0 -0 0 0
-0 -0 0 0
-0 -0 0 0
-0 -0 0 0
-0 -0 0 0
-0 -0 0 0
-0 -0 0 0
-0 -0 0 0
-0 -0 0 0
-0 -0 0 0
-0 -0 0 0
-0 -0 0 0
-0 -0 0 0
-0 -0 0 0
-0 -0 0 0
-0 -0 0 0
-0 -0 0 0
-0 -0 0 0
-0.27694318 -0.044195823 0.49500003 0
-0.27565268 -0.044195823 0.49500003 0
-0.27491644 -0.044285107 0.49600002 0
-0.27362335 -0.044285107 0.49600002 0
-0.27233022 -0.044285107 0.49600002 0
-0.27103713 -0.044285107 0.49600002 0
-0.26974404 -0.044285107 0.49600002 0
-0.26845095 -0.044285107 0.49600002 0
-0.26715779 -0.044285107 0.49600002 0
-0.2658647 -0.044285107 0.49600002 0
-0.26457161 -0.044285107 0.49600002 0
-0.26327851 -0.044285107 0.49600002 0
-0.26198539 -0.044285107 0.49600002 0
-0.2601667 -0.044195823 0.49500003 0
-0.25887623 -0.044195823 0.49500003 0
-0.25758573 -0.044195823 0.49500003 0
-0.25629523 -0.044195823 0.49500003 0
-0.25500473 -0.044195823 0.49500003 0
-0.25371423 -0.044195823 0.49500003 0
-0.25242373 -0.044195823 0.49500003 0
-0.25113323 -0.044195823 0.49500003 0
-0.24984275 -0.044195823 0.49500003 0
-0.24855226 -0.044195823 0.49500003 0
-0.24726176 -0.044195823 0.49500003 0
-0.24646816 -0.044285107 0.49600002 0
-0.24517506 -0.044285107 0.49600002 0
-0.24388196 -0.044285107 0.49600002 0
-0.24258886 -0.044285107 0.49600002 0
-0.24129574 -0.044285107 0.49600002 0
-0.24000263 -0.044285107 0.49600002 0
-0.23822828 -0.044195823 0.49500003 0
-0.23693778 -0.044195823 0.49500003 0
-0.23564729 -0.044195823 0.49500003 0
-0.23435678 -0.044195823 0.49500003 0
-0.23306629 -0.044195823 0.49500003 0
-0.23177579 -0.044195823 0.49500003 0
-0.23048531 -0.044195823 0.49500003 0
-0.22965781 -0.044285107 0.49600002 0
-0.22836472 -0.044285107 0.49600002 0
-0.2270716 -0.044285107 0.49600002 0
-0.22577851 -0.044285107 0.49600002 0
-0.2244854 -0.044285107 0.49600002 0
-0.22319229 -0.044285107 0.49600002 0
-0.2218992 -0.044285107 0.49600002 0
-0.22060609 -0.044285107 0.49600002 0
-0.21931298 -0.044285107 0.49600002 0
-0.21801987 -0.044285107 0.49600002 0
-0.21672678 -0.044285107 0.49600002 0
-0.21543367 -0.044285107 0.49600002 0
-0.21414058 -0.044285107 0.49600002 0
-0.21327658 -0.044374391 0.49700001 0
-0.21155436 -0.044285107 0.49600002 0
-0.21068516 -0.044374391 0.49700001 0
-0.20938946 -0.044374391 0.49700001 0
-0.20809375 -0.044374391 0.49700001 0
-0.20679803 -0.044374391 0.49700001 0
-0.20550233 -0.044374391 0.49700001 0
-0.2042066 -0.044374391 0.49700001 0
-0.2029109 -0.044374391 0.49700001 0
-0.20161518 -0.044374391 0.49700001 0
-0.20031948 -0.044374391 0.49700001 0
-0.19902377 -0.044374391 0.49700001 0
-0.19772807 -0.044374391 0.49700001 0
-0.19643235 -0.044374391 0.49700001 0
-0.19513665 -0.044374391 0.49700001 0
-0.19384092 -0.044374391 0.49700001 0
-0.19215782 -0.044285107 0.49600002 0
-0.1908647 -0.044285107 0.49600002 0
-0.18957159 -0.044285107 0.49600002 0
-0.1882785 -0.044285107 0.49600002 0
-0.18698539 -0.044285107 0.49600002 0
-0.18606667 -0.044374391 0.49700001 0
-0.18477096 -0.044374391 0.49700001 0
-0.18347524 -0.044374391 0.49700001 0
-0.18217953 -0.044374391 0.49700001 0
-0.18088382 -0.044374391 0.49700001 0
-0.17958811 -0.044374391 0.49700001 0
-0.17829241 -0.044374391 0.49700001 0
-0.17699669 -0.044374391 0.49700001 0
-0.17570099 -0.044374391 0.49700001 0
-0.17440526 -0.044374391 0.49700001 0
-0.17310955 -0.044374391 0.49700001 0
-0.17181385 -0.044374391 0.49700001 0
-0.17086123 -0.044463675 0.49800003 0
-0.16956292 -0.044463675 0.49800003 0
-0.16792671 -0.044374391 0.49700001 0
-0.16696629 -0.044463675 0.49800003 0
-0.16566797 -0.044463675 0.49800003 0
-0.16436966 -0.044463675 0.49800003 0
-0.16307133 -0.044463675 0.49800003 0
-0.16177303 -0.044463675 0.49800003 0
-0.16047469 -0.044463675 0.49800003 0
-0.15917638 -0.044463675 0.49800003 0
-0.15787806 -0.044463675 0.49800003 0
-0.15657973 -0.044463675 0.49800003 0
-0.15528142 -0.044463675 0.49800003 0
-0.1539831 -0.044463675 0.49800003 0
-0.15268479 -0.044463675 0.49800003 0
-0.15169045 -0.04455296 0.49900001 0
-0.15038954 -0.04455296 0.49900001 0
-0.14908861 -0.04455296 0.49900001 0
-0.14778769 -0.04455296 0.49900001 0
-0.14648676 -0.04455296 0.49900001 0
-0.14518584 -0.04455296 0.49900001 0
-0.14388491 -0.04455296 0.49900001 0
-0.142584 -0.04455296 0.49900001 0
-0.14128307 -0.04455296 0.49900001 0
-0.13998213 -0.04455296 0.49900001 0
-0.1386812 -0.04455296 0.49900001 0
-0.13738027 -0.04455296 0.49900001 0
-0.13607936 -0.04455296 0.49900001 0
-0.13477843 -0.04455296 0.49900001 0
-0.133745 -0.044642244 0.5 0
-0.13244146 -0.044642244 0.5 0
-0.13113794 -0.044642244 0.5 0
-0.1298344 -0.044642244 0.5 0
-0.12853087 -0.044642244 0.5 0
-0.12722734 -0.044642244 0.5 0
-0.12592381 -0.044642244 0.5 0
-0.12462027 -0.044642244 0.5 0
-0.12356339 -0.044731531 0.50100005 0
-0.12201321 -0.044642244 0.5 0
-0.12070968 -0.044642244 0.5 0
-0.11940615 -0.044642244 0.5 0
-0.11833883 -0.044731531 0.50100005 0
-0.11703269 -0.044731531 0.50100005 0
-0.11572655 -0.044731531 0.50100005 0
-0.11464879 -0.044820815 0.50200003 0
-0.11334005 -0.044820815 0.50200003 0
-0.11225447 -0.044910099 0.50300002 0
-0.11094312 -0.044910099 0.50300002 0
-0.10963176 -0.044910099 0.50300002 0
-0.10832041 -0.044910099 0.50300002 0
-0.10700906 -0.044910099 0.50300002 0
-0.10569771 -0.044910099 0.50300002 0
-0.10438635 -0.044910099 0.50300002 0
-0.103075 -0.044910099 0.50300002 0
-0.10176365 -0.044910099 0.50300002 0
-0.10025259 -0.044820815 0.50200003 0
-0.098943837 -0.044820815 0.50200003 0
-0.097246103 -0.044642244 0.5 0
-0 -0 0 0
-0 -0 0 0
-0 -0 0 0
-0 -0 0 0
-0 -0 0 0
-0 -0 0 0
-0 -0 0 0
-0 -0 0 0
-0 -0 0 0
-0.08151605 -0.043213695 0.48400003 0
-0 -0 0 0
-0 -0 0 0
-0 -0 0 0
-0 -0 0 0
-0.072565384 -0.041695856 0.46700001 0
-0.071347885 -0.041695856 0.46700001 0
-0.070130385 -0.041695856 0.46700001 0
-0 -0 0 0
-0 -0 0 0
-0 -0 0 0
-0 -0 0 0
-0 -0 0 0
-0 -0 0 0
-0 -0 0 0
-0 -0 0 0
-0 -0 0 0
-0 -0 0 0
-0.058924802 -0.043302979 0.48500001 0
-0.058254808 -0.043749399 0.49000001 0
-0.057093631 -0.043838687 0.49100003 0
-0.055927236 -0.043927968 0.49200001 0
-0.054866694 -0.044106539 0.49400002 0
-0.053687267 -0.044195823 0.49500003 0
-0.052502621 -0.044285107 0.49600002 0
-0.051312756 -0.044374391 0.49700001 0
-0.050017048 -0.044374391 0.49700001 0
-0.048721336 -0.044374391 0.49700001 0
-0.047521051 -0.044463675 0.49800003 0
-0.046222735 -0.044463675 0.49800003 0
-0.044924419 -0.044463675 0.49800003 0
-0.0436261 -0.044463675 0.49800003 0
-0.042412773 -0.04455296 0.49900001 0
-0.041111849 -0.04455296 0.49900001 0
-0.039810926 -0.04455296 0.49900001 0
-0.038510002 -0.04455296 0.49900001 0
-0.037209079 -0.04455296 0.49900001 0
-0.035908155 -0.04455296 0.49900001 0
-0.034607224 -0.04455296 0.49900001 0
-0.033306301 -0.04455296 0.49900001 0
-0.032069515 -0.044642244 0.5 0
-0.030765984 -0.044642244 0.5 0
-0.029462453 -0.044642244 0.5 0
-0.02815892 -0.044642244 0.5 0
-0.026855389 -0.044642244 0.5 0
-0.025602963 -0.044731531 0.50100005 0
-0.024296824 -0.044731531 0.50100005 0
-0.022990685 -0.044731531 0.50100005 0
-0.021684546 -0.044731531 0.50100005 0
-0.020378405 -0.044731531 0.50100005 0
-0.019072268 -0.044731531 0.50100005 0
-0.01780159 -0.044820815 0.50200003 0
-0.016492845 -0.044820815 0.50200003 0
-0.015184097 -0.044820815 0.50200003 0
-0.013875352 -0.044820815 0.50200003 0
-0.012566606 -0.044820815 0.50200003 0
-0.01125786 -0.044820815 0.50200003 0
-0.0099491142 -0.044820815 0.50200003 0
-0.0086403675 -0.044820815 0.50200003 0
-0.0073316214 -0.044820815 0.50200003 0
-0.0060108779 -0.044731531 0.50100005 0
-0.0047141295 -0.044820815 0.50200003 0
-0.0033986003 -0.044731531 0.50100005 0
-0.0020924611 -0.044731531 0.50100005 0
-0.00078632211 -0.044731531 0.50100005 0
0.00051981688 -0.044731531 0.50100005 0
0.0018223111 -0.044642244 0.5 0
0.0031258429 -0.044642244 0.5 0
0.0044205161 -0.04455296 0.49900001 0
0.005721441 -0.04455296 0.49900001 0
0.0070223655 -0.04455296 0.49900001 0
0.0083232904 -0.04455296 0.49900001 0
0.0096242148 -0.04455296 0.49900001 0
0.01092514 -0.04455296 0.49900001 0
0.012226065 -0.04455296 0.49900001 0
0.013554097 -0.044642244 0.5 0
0.014857629 -0.044642244 0.5 0
0.016193485 -0.044731531 0.50100005 0
0.017534552 -0.044820815 0.50200003 0
0.018880835 -0.044910099 0.50300002 0
0.020192187 -0.044910099 0.50300002 0
0.021546289 -0.044999383 0.50400001 0
0.022860251 -0.044999383 0.50400001 0
0.024222175 -0.045088664 0.505 0
0.025589315 -0.045177955 0.50600004 0
0.026908491 -0.045177955 0.50600004 0
0.028283451 -0.045267239 0.50700003 0
0.02960523 -0.045267239 0.50700003 0
0.030927014 -0.045267239 0.50700003 0
0.032248791 -0.045267239 0.50700003 0
0.033570576 -0.045267239 0.50700003 0
0.034823537 -0.045177955 0.50600004 0
0.036142711 -0.045177955 0.50600004 0
0.037461884 -0.045177955 0.50600004 0
0.038704414 -0.045088664 0.505 0
0.04002098 -0.045088664 0.505 0
0.04133755 -0.045088664 0.505 0
0.042654116 -0.045088664 0.505 0
0.043970682 -0.045088664 0.505 0
0.045287248 -0.045088664 0.505 0
0.046603814 -0.045088664 0.505 0
0.047825493 -0.044999383 0.50400001 0
0.049139451 -0.044999383 0.50400001 0
0.050453413 -0.044999383 0.50400001 0
0.051767375 -0.044999383 0.50400001 0
0.053081334 -0.044999383 0.50400001 0
0.054503217 -0.045088664 0.505 0
0.055819783 -0.045088664 0.505 0
0.057136353 -0.045088664 0.505 0
0.058452923 -0.045088664 0.505 0
0.059887849 -0.045177955 0.50600004 0
0.061207023 -0.045177955 0.50600004 0
0.062526196 -0.045177955 0.50600004 0
0.063845374 -0.045177955 0.50600004 0
0.065164544 -0.045177955 0.50600004 0
0.066483721 -0.045177955 0.50600004 0
0.067802891 -0.045177955 0.50600004 0
0.069122069 -0.045177955 0.50600004 0
0.070441239 -0.045177955 0.50600004 0
0.071760423 -0.045177955 0.50600004 0
0.073079593 -0.045177955 0.50600004 0
0.074251726 -0.045088664 0.505 0
0.075568296 -0.045088664 0.505 0
0.076884858 -0.045088664 0.505 0
0.078201428 -0.045088664 0.505 0
0.07951799 -0.045088664 0.505 0
0 -0 0 0
0 -0 0 0
0 -0 0 0
0 -0 0 0
0 -0 0 0
0 -0 0 0
0.076785631 -0.03901732 0.43700001 0
0.077924922 -0.03901732 0.43700001 0
0.079064205 -0.03901732 0.43700001 0
0.080203488 -0.03901732 0.43700001 0
0.081528917 -0.039106607 0.43800002 0
0 -0 0 0
0 -0 0 0
0.098919742 -0.045535091 0.51000005 0
0.10024935 -0.045535091 0.51000005 0
0.10157895 -0.045535091 0.51000005 0
0.10290855 -0.045535091 0.51000005 0
0.10423815 -0.045535091 0.51000005 0
0.10556775 -0.045535091 0.51000005 0
0.10689736 -0.045535091 0.51000005 0
0.10822696 -0.045535091 0.51000005 0
0.10955657 -0.045535091 0.51000005 0
0.11088617 -0.045535091 0.51000005 0
0.11221577 -0.045535091 0.51000005 0
0.11354537 -0.045535091 0.51000005 0
0.11487497 -0.045535091 0.51000005 0
0.11620457 -0.045535091 0.51000005 0
0.11753418 -0.045535091 0.51000005 0
0.11886378 -0.045535091 0.51000005 0
0.12042905 -0.045624375 0.51100004 0
0.12176126 -0.045624375 0.51100004 0
0.12285259 -0.045535091 0.51000005 0
0.12418219 -0.045535091 0.51000005 0
0.1255118 -0.045535091 0.51000005 0
0.1268414 -0.045535091 0.51000005 0
0.128171 -0.045535091 0.51000005 0
0.12950061 -0.045535091 0.51000005 0
0.1308302 -0.045535091 0.51000005 0
0.13215981 -0.045535091 0.51000005 0
0.13348942 -0.045535091 0.51000005 0
0.13481902 -0.045535091 0.51000005 0
0.13614862 -0.045535091 0.51000005 0
0.13747822 -0.045535091 0.51000005 0
0.13880783 -0.045535091 0.51000005 0
0.14013742 -0.045535091 0.51000005 0
0.14146703 -0.045535091 0.51000005 0
0.14279662 -0.045535091 0.51000005 0
0.14440884 -0.045624375 0.51100004 0
0.14574103 -0.045624375 0.51100004 0
0.14707325 -0.045624375 0.51100004 0
0.14840545 -0.045624375 0.51100004 0
0.14973767 -0.045624375 0.51100004 0
0.15136552 -0.045713659 0.51200002 0
0.15270032 -0.045713659 0.51200002 0
0.15403515 -0.045713659 0.51200002 0
0.15536995 -0.045713659 0.51200002 0
0.15670478 -0.045713659 0.51200002 0
0.15803958 -0.045713659 0.51200002 0
0.15937442 -0.045713659 0.51200002 0
0.16070922 -0.045713659 0.51200002 0
0.16204405 -0.045713659 0.51200002 0
0.16337885 -0.045713659 0.51200002 0
0.16471368 -0.045713659 0.51200002 0
0.16604848 -0.045713659 0.51200002 0
0.16738331 -0.045713659 0.51200002 0
0.16871813 -0.045713659 0.51200002 0
0.17005295 -0.045713659 0.51200002 0
0.17138776 -0.045713659 0.51200002 0
0.17272258 -0.045713659 0.51200002 0
0.17405739 -0.045713659 0.51200002 0
0.17573476 -0.045802943 0.51300001 0
0.1770722 -0.045802943 0.51300001 0
0.17840961 -0.045802943 0.51300001 0
0.18009742 -0.045892227 0.514 0
0.18143745 -0.045892227 0.514 0
0.18277748 -0.045892227 0.514 0
0.1841175 -0.045892227 0.514 0
0.18545754 -0.045892227 0.514 0
0.18716101 -0.045981515 0.51500005 0
0.18850364 -0.045981515 0.51500005 0
0.18984629 -0.045981515 0.51500005 0
0.19156015 -0.046070799 0.51600003 0
0.19290541 -0.046070799 0.51600003 0
0.19425064 -0.046070799 0.51600003 0
0.19559589 -0.046070799 0.51600003 0
0.19694114 -0.046070799 0.51600003 0
0.19828638 -0.046070799 0.51600003 0
0.19963162 -0.046070799 0.51600003 0
0.20097688 -0.046070799 0.51600003 0
0.20232211 -0.046070799 0.51600003 0
0.20406206 -0.046160083 0.51700002 0
0.20501262 -0.046070799 0.51600003 0
0.20675777 -0.046160083 0.51700002 0
0.2077031 -0.046070799 0.51600003 0
0.20904833 -0.046070799 0.51600003 0
0.21039359 -0.046070799 0.51600003 0
0.21173882 -0.046070799 0.51600003 0
0.21308407 -0.046070799 0.51600003 0
0.21442932 -0.046070799 0.51600003 0
0.21577457 -0.046070799 0.51600003 0
0.21754058 -0.046160083 0.51700002 0
0.21888843 -0.046160083 0.51700002 0
0.22023627 -0.046160083 0.51700002 0
0.22158414 -0.046160083 0.51700002 0
0.222932 -0.046160083 0.51700002 0
0.22427984 -0.046160083 0.51700002 0
0.22562769 -0.046160083 0.51700002 0
0.22697555 -0.046160083 0.51700002 0
0.2283234 -0.046160083 0.51700002 0
0.22967124 -0.046160083 0.51700002 0
0.23101911 -0.046160083 0.51700002 0
0.23236695 -0.046160083 0.51700002 0
0.2337148 -0.046160083 0.51700002 0
0.23506264 -0.046160083 0.51700002 0
0.23641051 -0.046160083 0.51700002 0
0.23775835 -0.046160083 0.51700002 0
0.23864374 -0.046070799 0.51600003 0
0.24045406 -0.046160083 0.51700002 0
0.24133421 -0.046070799 0.51600003 0
0.24267946 -0.046070799 0.51600003 0
0.24402471 -0.046070799 0.51600003 0
-0 -0 0 0
-0 -0 0 0
-0 -0 0 0
-0 -0 0 0
-0 -0 0 0
-0 -0 0 0
-0 -0 0 0
-0 -0 0 0
-0 -0 0 0
-0 -0 0 0
-0 -0 0 0
-0 -0 0 0
-0 -0 0 0
-0 -0 0 0
-0 -0 0 0
-0 -0 0 0
-0 -0 0 0
-0 -0 0 0
-0 -0 0 0
-0 -0 0 0
-0 -0 0 0
-0 -0 0 0
-0 -0 0 0
-0 -0 0 0
-0 -0 0 0
-0 -0 0 0
-0 -0 0 0
-0 -0 0 0
-0 -0 0 0
-0 -0 0 0
-0 -0 0 0
-0 -0 0 0
-0 -0 0 0
-0 -0 0 0
-0 -0 0 0
-0 -0 0 0
-0 -0 0 0
-0 -0 0 0
-0 -0 0 0
-0 -0 0 0
-0 -0 0 0
-0 -0 0 0
-0 -0 0 0
-0 -0 0 0
-0 -0 0 0
-0.27694318 -0.042905327 0.49500003 0
-0.27565268 -0.042905327 0.49500003 0
-0.27491644 -0.042992003 0.49600002 0
-0.27362335 -0.042992003 0.49600002 0
-0.27233022 -0.042992003 0.49600002 0
-0.27103713 -0.042992003 0.49600002 0
-0.26974404 -0.042992003 0.49600002 0
-0.26845095 -0.042992003 0.49600002 0
-0.26715779 -0.042992003 0.49600002 0
-0.2658647 -0.042992003 0.49600002 0
-0.26457161 -0.042992003 0.49600002 0
-0.26327851 -0.042992003 0.49600002 0
-0.26198539 -0.042992003 0.49600002 0
-0.2601667 -0.042905327 0.49500003 0
-0.25887623 -0.042905327 0.49500003 0
-0.25758573 -0.042905327 0.49500003 0
-0.25629523 -0.042905327 0.49500003 0
-0.25500473 -0.042905327 0.49500003 0
-0.25371423 -0.042905327 0.49500003 0
-0.25242373 -0.042905327 0.49500003 0
-0.25113323 -0.042905327 0.49500003 0
-0.24984275 -0.042905327 0.49500003 0
-0.24855226 -0.042905327 0.49500003 0
-0.24726176 -0.042905327 0.49500003 0
-0.24597125 -0.042905327 0.49500003 0
-0.24468076 -0.042905327 0.49500003 0
-0.24388196 -0.042992003 0.49600002 0
-0.24258886 -0.042992003 0.49600002 0
-0.24129574 -0.042992003 0.49600002 0
-0.23951876 -0.042905327 0.49500003 0
-0.23822828 -0.042905327 0.49500003 0
-0.23693778 -0.042905327 0.49500003 0
-0.23564729 -0.042905327 0.49500003 0
-0.23435678 -0.042905327 0.49500003 0
-0.23306629 -0.042905327 0.49500003 0
-0.23177579 -0.042905327 0.49500003 0
-0.23048531 -0.042905327 0.49500003 0
-0.22919479 -0.042905327 0.49500003 0
-0.2279043 -0.042905327 0.49500003 0
-0.2266138 -0.042905327 0.49500003 0
-0.22577851 -0.042992003 0.49600002 0
-0.2244854 -0.042992003 0.49600002 0
-0.22319229 -0.042992003 0.49600002 0
-0.2218992 -0.042992003 0.49600002 0
-0.22060609 -0.042992003 0.49600002 0
-0.21931298 -0.042992003 0.49600002 0
-0.21801987 -0.042992003 0.49600002 0
-0.21672678 -0.042992003 0.49600002 0
-0.21543367 -0.042992003 0.49600002 0
-0.21414058 -0.042992003 0.49600002 0
-0.21327658 -0.04307868 0.49700001 0
-0.21198088 -0.04307868 0.49700001 0
-0.21068516 -0.04307868 0.49700001 0
-0.20938946 -0.04307868 0.49700001 0
-0.20809375 -0.04307868 0.49700001 0
-0.20679803 -0.04307868 0.49700001 0
-0.20550233 -0.04307868 0.49700001 0
-0.2042066 -0.04307868 0.49700001 0
-0.2029109 -0.04307868 0.49700001 0
-0.20161518 -0.04307868 0.49700001 0
-0.20031948 -0.04307868 0.49700001 0
-0.19902377 -0.04307868 0.49700001 0
-0.19772807 -0.04307868 0.49700001 0
-0.19643235 -0.04307868 0.49700001 0
-0.19513665 -0.04307868 0.49700001 0
-0.19384092 -0.04307868 0.49700001 0
