# .PCD v0.7 - Point Cloud Data file format
VERSION 0.7
FIELDS x y z
SIZE 4 4 4
TYPE F F F
COUNT 1 1 1
WIDTH 1344
HEIGHT 1
VIEWPOINT 0 0 0 1 0 0 0
POINTS 1344
DATA ascii
0.0017129725 -0.030935833 0.47000003
0.0029382925 -0.030935833 0.47000003
0.0041636126 -0.030935833 0.47000003
0.0053889323 -0.030935833 0.47000003
0.0066283252 -0.031001654 0.47100002
0.0078562526 -0.031001654 0.47100002
0.0090841791 -0.031001654 0.47100002
0.010334001 -0.031067476 0.47200003
0.011589035 -0.031133296 0.47300002
0.012822176 -0.031133296 0.47300002
0.014055318 -0.031133296 0.47300002
0.015320782 -0.031199118 0.47400004
0.016556529 -0.031199118 0.47400004
0.017792279 -0.031199118 0.47400004
0.019068168 -0.031264938 0.47500002
0.020306524 -0.031264938 0.47500002
0.021544881 -0.031264938 0.47500002
0.0228312 -0.031330757 0.47600001
0.024122734 -0.031396579 0.47700003
0.025366304 -0.031396579 0.47700003
0.026609873 -0.031396579 0.47700003
0.027911834 -0.031462401 0.47800002
0.029158011 -0.031462401 0.47800002
0.030467793 -0.031528223 0.47900003
0.031716581 -0.031528223 0.47900003
0.033034183 -0.031594042 0.48000002
0.034285575 -0.031594042 0.48000002
0.035536963 -0.031594042 0.48000002
0.036865 -0.031659864 0.48100004
0.038118996 -0.031659864 0.48100004
0.039372995 -0.031659864 0.48100004
0.040626992 -0.031659864 0.48100004
0.041880991 -0.031659864 0.48100004
0.043134987 -0.031659864 0.48100004
0.044388983 -0.031659864 0.48100004
0.045642983 -0.031659864 0.48100004
0.046994478 -0.031725682 0.48200002
0.048251085 -0.031725682 0.48200002
0.049507689 -0.031725682 0.48200002
0.05086961 -0.031791504 0.48300001
0.052128822 -0.031791504 0.48300001
0.053388033 -0.031791504 0.48300001
0.054647245 -0.031791504 0.48300001
0.055790711 -0.031725682 0.48200002
0.057047315 -0.031725682 0.48200002
0.058182959 -0.031659864 0.48100004
0.059436958 -0.031659864 0.48100004
0.060564775 -0.031594042 0.48000002
0.061558597 -0.031462401 0.47800002
0.062410604 -0.031264938 0.47500002
0.063112967 -0.031001654 0.47100002
0.063794471 -0.030738369 0.46700001
0.064811282 -0.03008016 0.45700002
0.067038804 -0.029487772 0.44800001
0.067902274 -0.029356129 0.44600001
0.068910174 -0.029290309 0.44500002
0.069912858 -0.029224489 0.44400004
0.071070395 -0.029224489 0.44400004
0.072227925 -0.029224489 0.44400004
0.073550746 -0.029290309 0.44500002
0.074710883 -0.029290309 0.44500002
0.075871028 -0.029290309 0.44500002
0.077031173 -0.029290309 0.44500002
0.078367032 -0.029356129 0.44600001
0.079529777 -0.029356129 0.44600001
0.08069253 -0.029356129 0.44600001
0.081855282 -0.029356129 0.44600001
0.083204173 -0.029421952 0.44700003
0.084369533 -0.029421952 0.44700003
0.085534886 -0.029421952 0.44700003
0.086700246 -0.029421952 0.44700003
0.087865598 -0.029421952 0.44700003
0.089030959 -0.029421952 0.44700003
0.090196311 -0.029421952 0.44700003
0.091566056 -0.029487772 0.44800001
0.092734024 -0.029487772 0.44800001
0.093901992 -0.029487772 0.44800001
0.095069952 -0.029487772 0.44800001
0.09623792 -0.029487772 0.44800001
0.097405881 -0.029487772 0.44800001
0.098573849 -0.029487772 0.44800001
0.099741809 -0.029487772 0.44800001
0.10090978 -0.029487772 0.44800001
0.10207774 -0.029487772 0.44800001
0.10324571 -0.029487772 0.44800001
0.10441367 -0.029487772 0.44800001
0.10558163 -0.029487772 0.44800001
0.10674959 -0.029487772 0.44800001
0.10791756 -0.029487772 0.44800001
0.10908553 -0.029487772 0.44800001
0.12716573 -0.033305388 0.50600004
0.12848492 -0.033305388 0.50600004
0.12980407 -0.033305388 0.50600004
0.13112326 -0.033305388 0.50600004
0.13244244 -0.033305388 0.50600004
0.13376161 -0.033305388 0.50600004
0.13508078 -0.033305388 0.50600004
0.13666952 -0.033371206 0.50700003
0.13799131 -0.033371206 0.50700003
0.13958785 -0.033437029 0.50800002
0.14091225 -0.033437029 0.50800002
0.14251661 -0.033502847 0.509
0.14384362 -0.033502847 0.509
0.14517061 -0.033502847 0.509
0.14649761 -0.033502847 0.509
0.14811504 -0.033568673 0.51000005
0.14973767 -0.033634491 0.51100004
0.15106988 -0.033634491 0.51100004
0.15240209 -0.033634491 0.51100004
0.15403515 -0.03370031 0.51200002
0.15567341 -0.033766132 0.51300001
0.15731689 -0.03383195 0.514
0.15865692 -0.03383195 0.514
0.16030826 -0.033897776 0.51500005
0.16196476 -0.033963595 0.51600003
0.16362651 -0.034029417 0.51700002
0.16497435 -0.034029417 0.51700002
0.1663222 -0.034029417 0.51700002
0.16799437 -0.034095235 0.51800001
0.16934483 -0.034095235 0.51800001
0.17069529 -0.034095235 0.51800001
0.17204574 -0.034095235 0.51800001
0.17339621 -0.034095235 0.51800001
0.17508402 -0.034161061 0.51900005
0.17643709 -0.034161061 0.51900005
0.17779015 -0.034161061 0.51900005
0.17914324 -0.034161061 0.51900005
0.18049629 -0.034161061 0.51900005
0.18219975 -0.034226879 0.52000004
0.18355541 -0.034226879 0.52000004
0.18526667 -0.034292702 0.52100003
0.18662494 -0.034292702 0.52100003
0.18798323 -0.034292702 0.52100003
0.18934153 -0.034292702 0.52100003
0.19106582 -0.03435852 0.52200001
0.19242671 -0.03435852 0.52200001
0.19415882 -0.034424338 0.523
0.19552232 -0.034424338 0.523
0.19726229 -0.034490164 0.52400005
0.1986284 -0.034490164 0.52400005
0.20037615 -0.034555983 0.52500004
0.20174487 -0.034555983 0.52500004
0.20311357 -0.034555983 0.52500004
0.20487177 -0.034621805 0.52600002
0.20663516 -0.034687623 0.52700001
0.20800909 -0.034687623 0.52700001
0.20978034 -0.034753446 0.528
0.21115686 -0.034753446 0.528
0.21293594 -0.034819268 0.52900004
0.21431506 -0.034819268 0.52900004
0.21610194 -0.03488509 0.53000003
0.21748368 -0.03488509 0.53000003
0.21886542 -0.03488509 0.53000003
0.22024716 -0.03488509 0.53000003
0.22204708 -0.034950908 0.53100002
0.22343142 -0.034950908 0.53100002
0.22523916 -0.035016727 0.53200001
0.2266261 -0.035016727 0.53200001
0.22801307 -0.035016727 0.53200001
0.22983126 -0.035082553 0.53300005
0.23122081 -0.035082553 0.53300005
0.23261039 -0.035082553 0.53300005
0.23443896 -0.035148371 0.53400004
0.23627277 -0.035214193 0.53500003
0.23766753 -0.035214193 0.53500003
0.23950917 -0.035280012 0.53600001
0.24090654 -0.035280012 0.53600001
0.24275599 -0.035345834 0.537
0.24415597 -0.035345834 0.537
0.24601327 -0.035411656 0.53800005
0.24741586 -0.035411656 0.53800005
0.24928094 -0.035477478 0.53900003
0.25068617 -0.035477478 0.53900003
0.25209135 -0.035477478 0.53900003
0.25396687 -0.035543296 0.54000002
0.2553747 -0.035543296 0.54000002
0.25725803 -0.035609119 0.54100001
-0.22919013 -0.025538398 0.40400001
-0.22813688 -0.025538398 0.40400001
-0.22708364 -0.025538398 0.40400001
-0.22603039 -0.025538398 0.40400001
-0.22497712 -0.025538398 0.40400001
-0.22447814 -0.025601612 0.40500003
-0.22342229 -0.025601612 0.40500003
-0.22291546 -0.025664827 0.40600002
-0.221857 -0.025664827 0.40600002
-0.22134237 -0.025728039 0.40700001
-0.2202813 -0.025728039 0.40700001
-0.21975884 -0.025791254 0.40800002
-0.21869516 -0.025791254 0.40800002
-0.21816489 -0.025854466 0.40900001
-0.21709861 -0.025854466 0.40900001
-0.21656051 -0.025917683 0.41000003
-0.21549162 -0.025917683 0.41000003
-0.21442273 -0.025917683 0.41000003
-0.21335384 -0.025917683 0.41000003
-0.21228492 -0.025917683 0.41000003
-0.21121603 -0.025917683 0.41000003
-0.21014714 -0.025917683 0.41000003
-0.20907824 -0.025917683 0.41000003
-0.20851667 -0.025980895 0.41100001
-0.20744519 -0.025980895 0.41100001
-0.20637369 -0.025980895 0.41100001
-0.20530218 -0.025980895 0.41100001
-0.20472759 -0.02604411 0.41200003
-0.20365348 -0.02604411 0.41200003
-0.20257936 -0.02604411 0.41200003
-0.20150526 -0.02604411 0.41200003
-0.20043115 -0.02604411 0.41200003
-0.1998409 -0.026107322 0.41300002
-0.19876419 -0.026107322 0.41300002
-0.19768746 -0.026107322 0.41300002
-0.19708683 -0.026170539 0.41400003
-0.19600749 -0.026170539 0.41400003
-0.19492817 -0.026170539 0.41400003
-0.19431707 -0.026233751 0.41500002
-0.19323514 -0.026233751 0.41500002
-0.19261622 -0.026296964 0.41600001
-0.19153169 -0.026296964 0.41600001
-0.19044715 -0.026296964 0.41600001
-0.18936262 -0.026296964 0.41600001
-0.18827806 -0.026296964 0.41600001
-0.18719353 -0.026296964 0.41600001
-0.18610899 -0.026296964 0.41600001
-0.18502446 -0.026296964 0.41600001
-0.18393992 -0.026296964 0.41600001
-0.18285538 -0.026296964 0.41600001
-0.18220779 -0.026360178 0.41700003
-0.18112065 -0.026360178 0.41700003
-0.1800335 -0.026360178 0.41700003
-0.17937548 -0.026423393 0.41800001
-0.17828573 -0.026423393 0.41800001
-0.17719598 -0.026423393 0.41800001
-0.17610623 -0.026423393 0.41800001
-0.17501648 -0.026423393 0.41800001
-0.17434281 -0.026486607 0.41900003
-0.17325047 -0.026486607 0.41900003
-0.17256896 -0.02654982 0.42000002
-0.17147401 -0.02654982 0.42000002
-0.17037904 -0.02654982 0.42000002
-0.16968714 -0.026613034 0.42100003
-0.16858956 -0.026613034 0.42100003
-0.16788983 -0.026676249 0.42200002
-0.16678965 -0.026676249 0.42200002
-0.16568947 -0.026676249 0.42200002
-0.16458929 -0.026676249 0.42200002
-0.1634891 -0.026676249 0.42200002
-0.16238892 -0.026676249 0.42200002
-0.16128874 -0.026676249 0.42200002
-0.16018856 -0.026676249 0.42200002
-0.15908837 -0.026676249 0.42200002
-0.15836258 -0.026739461 0.42300001
-0.15725978 -0.026739461 0.42300001
-0.15652618 -0.026802676 0.42400002
-0.15542077 -0.026802676 0.42400002
-0.15467933 -0.026865888 0.42500001
-0.15357132 -0.026865888 0.42500001
-0.15246333 -0.026865888 0.42500001
-0.15171145 -0.026929105 0.42600003
-0.15060085 -0.026929105 0.42600003
-0.14949024 -0.026929105 0.42600003
-0.14872792 -0.026992317 0.42700002
-0.14761472 -0.026992317 0.42700002
-0.1465015 -0.026992317 0.42700002
-0.14538829 -0.026992317 0.42700002
-0.14461295 -0.027055532 0.42800003
-0.14349714 -0.027055532 0.42800003
-0.14271396 -0.027118744 0.42900002
-0.14159554 -0.027118744 0.42900002
-0.14080456 -0.027181959 0.43000001
-0.13968353 -0.027181959 0.43000001
-0.13856249 -0.027181959 0.43000001
-0.13744146 -0.027181959 0.43000001
-0.13632041 -0.027181959 0.43000001
-0.13551378 -0.027245173 0.43100002
-0.13439015 -0.027245173 0.43100002
-0.13326649 -0.027245173 0.43100002
-0.13214286 -0.027245173 0.43100002
-0.1310192 -0.027245173 0.43100002
-0.12989557 -0.027245173 0.43100002
-0.1290707 -0.027308386 0.43200001
-0.12794445 -0.027308386 0.43200001
-0.12711176 -0.0273716 0.43300003
-0.12598291 -0.0273716 0.43300003
-0.12485404 -0.0273716 0.43300003
-0.12401093 -0.027434815 0.43400002
-0.12287945 -0.027434815 0.43400002
-0.12202851 -0.027498029 0.43500003
-0.12089445 -0.027498029 0.43500003
-0.12003568 -0.027561242 0.43600002
-0.118899 -0.027561242 0.43600002
-0.11776232 -0.027561242 0.43600002
-0.11662564 -0.027561242 0.43600002
-0.11575384 -0.027624454 0.43700001
-0.11461456 -0.027624454 0.43700001
-0.11347526 -0.027624454 0.43700001
-0.11233599 -0.027624454 0.43700001
-0.1111967 -0.027624454 0.43700001
-0.11030927 -0.027687671 0.43800002
-0.10916737 -0.027687671 0.43800002
-0.10802547 -0.027687671 0.43800002
-0.10688358 -0.027687671 0.43800002
-0.10574169 -0.027687671 0.43800002
-0.10459979 -0.027687671 0.43800002
-0.1036941 -0.027750883 0.43900001
-0.1025496 -0.027750883 0.43900001
-0.10163609 -0.027814098 0.44000003
-0.10048898 -0.027814098 0.44000003
-0.099567644 -0.02787731 0.44100001
-0.09841793 -0.02787731 0.44100001
-0.097488783 -0.027940527 0.44200003
-0.096336462 -0.027940527 0.44200003
-0.095399484 -0.028003739 0.44300002
-0.094244562 -0.028003739 0.44300002
-0.093299769 -0.028066954 0.44400004
-0.092142232 -0.028066954 0.44400004
-0.091189615 -0.028130166 0.44500002
-0.090029471 -0.028130166 0.44500002
-0.088869326 -0.028130166 0.44500002
-0.087906279 -0.028193381 0.44600001
-0.086743526 -0.028193381 0.44600001
-0.085580774 -0.028193381 0.44600001
-0.084418029 -0.028193381 0.44600001
-0.08344195 -0.028256595 0.44700003
-0.08227659 -0.028256595 0.44700003
-0.081111237 -0.028256595 0.44700003
-0.079945877 -0.028256595 0.44700003
-0.07895676 -0.028319808 0.44800001
-0.0777888 -0.028319808 0.44800001
-0.076791868 -0.028383022 0.44900003
-0.075621292 -0.028383022 0.44900003
-0.074616536 -0.028446237 0.45000002
-0.073443353 -0.028446237 0.45000002
-0.07227017 -0.028446237 0.45000002
-0.071254991 -0.028509451 0.45100003
-0.070079207 -0.028509451 0.45100003
-0.068903424 -0.028509451 0.45100003
-0.067727633 -0.028509451 0.45100003
-0.066551849 -0.028509451 0.45100003
-0.065376066 -0.028509451 0.45100003
-0.064200282 -0.028509451 0.45100003
-0.063164234 -0.028572664 0.45200002
-0.061985843 -0.028572664 0.45200002
-0.060807452 -0.028572664 0.45200002
-0.05976098 -0.028635876 0.45300001
-0.058579974 -0.028635876 0.45300001
-0.057398975 -0.028635876 0.45300001
-0.056342084 -0.028699093 0.45400003
-0.055158477 -0.028699093 0.45400003
-0.054093752 -0.028762305 0.45500001
-0.052907538 -0.028762305 0.45500001
-0.051721327 -0.028762305 0.45500001
-0.050646178 -0.02882552 0.45600003
-0.04945736 -0.02882552 0.45600003
-0.048374388 -0.028888732 0.45700002
-0.047182959 -0.028888732 0.45700002
-0.045991533 -0.028888732 0.45700002
-0.044800103 -0.028888732 0.45700002
-0.043608677 -0.028888732 0.45700002
-0.042510066 -0.028951949 0.45800003
-0.041316032 -0.028951949 0.45800003
-0.040121999 -0.028951949 0.45800003
-0.038927961 -0.028951949 0.45800003
-0.037733924 -0.028951949 0.45800003
-0.03653989 -0.028951949 0.45800003
-0.035423029 -0.029015161 0.45900002
-0.034226388 -0.029015161 0.45900002
-0.033029746 -0.029015161 0.45900002
-0.031902451 -0.029078374 0.46000001
-0.030703204 -0.029078374 0.46000001
-0.029503955 -0.029078374 0.46000001
-0.02836624 -0.029141588 0.46100003
-0.027164383 -0.029141588 0.46100003
-0.026018843 -0.029204803 0.46200001
-0.02481438 -0.029204803 0.46200001
-0.023661021 -0.029268017 0.46300003
-0.022453949 -0.029268017 0.46300003
-0.02124688 -0.029268017 0.46300003
-0.020083092 -0.02933123 0.46400002
-0.018873412 -0.02933123 0.46400002
-0.017663736 -0.02933123 0.46400002
-0.016489521 -0.029394444 0.46500003
-0.015277237 -0.029394444 0.46500003
-0.014095197 -0.029457659 0.46600002
-0.012907946 -0.029520871 0.46700001
-0.011690447 -0.029520871 0.46700001
-0.010495376 -0.029584086 0.46800002
-0.0092752697 -0.029584086 0.46800002
-0.0080723744 -0.029647298 0.46900001
-0.0068496619 -0.029647298 0.46900001
-0.0056269495 -0.029647298 0.46900001
-0.0044042366 -0.029647298 0.46900001
-0.0031815236 -0.029647298 0.46900001
-0.0019588107 -0.029647298 0.46900001
-0.00073609792 -0.029647298 0.46900001
0.00048661497 -0.029647298 0.46900001
0.0017129725 -0.029710514 0.47000003
0.0029382925 -0.029710514 0.47000003
0.0041636126 -0.029710514 0.47000003
0.0053889323 -0.029710514 0.47000003
0.0066283252 -0.029773727 0.47100002
0.0078562526 -0.029773727 0.47100002
0.0090841791 -0.029773727 0.47100002
0.010334001 -0.029836942 0.47200003
0.011564535 -0.029836942 0.47200003
0.012822176 -0.029900154 0.47300002
0.014055318 -0.029900154 0.47300002
0.015320782 -0.02996337 0.47400004
0.016556529 -0.02996337 0.47400004
0.017792279 -0.02996337 0.47400004
0.019068168 -0.030026583 0.47500002
0.020306524 -0.030026583 0.47500002
0.021544881 -0.030026583 0.47500002
0.0228312 -0.030089796 0.47600001
0.024072161 -0.030089796 0.47600001
0.025366304 -0.03015301 0.47700003
0.026609873 -0.03015301 0.47700003
0.027911834 -0.030216224 0.47800002
0.029158011 -0.030216224 0.47800002
0.030467793 -0.030279439 0.47900003
0.031716581 -0.030279439 0.47900003
0.033034183 -0.030342652 0.48000002
0.034285575 -0.030342652 0.48000002
0.035536963 -0.030342652 0.48000002
0.036788356 -0.030342652 0.48000002
0.038118996 -0.030405866 0.48100004
0.039372995 -0.030405866 0.48100004
0.040626992 -0.030405866 0.48100004
0.041880991 -0.030405866 0.48100004
0.043134987 -0.030405866 0.48100004
0.044388983 -0.030405866 0.48100004
0.045642983 -0.030405866 0.48100004
0.046994478 -0.03046908 0.48200002
0.048251085 -0.03046908 0.48200002
0.049507689 -0.03046908 0.48200002
0.05086961 -0.030532293 0.48300001
0.052020896 -0.03046908 0.48200002
0.053388033 -0.030532293 0.48300001
0.054534104 -0.03046908 0.48200002
0.055674966 -0.030405866 0.48100004
0.056928962 -0.030405866 0.48100004
0.058182959 -0.030405866 0.48100004
0.059313387 -0.030342652 0.48000002
0.060438599 -0.030279439 0.47900003
0.061429817 -0.03015301 0.47700003
0.062147822 -0.029900154 0.47300002
0.062978968 -0.029710514 0.47000003
0.064385831 -0.028699093 0.45400003
0.065136157 -0.028509451 0.45100003
0.065870844 -0.028319808 0.44800001
0.066739522 -0.028193381 0.44600001
0.067750029 -0.028130166 0.44500002
0.068755321 -0.028066954 0.44400004
0.069912858 -0.028066954 0.44400004
0.071070395 -0.028066954 0.44400004
0.072227925 -0.028066954 0.44400004
0.073385462 -0.028066954 0.44400004
0.074710883 -0.028130166 0.44500002
0.075871028 -0.028130166 0.44500002
0.077031173 -0.028130166 0.44500002
0.078367032 -0.028193381 0.44600001
0.079529777 -0.028193381 0.44600001
0.08069253 -0.028193381 0.44600001
0.081855282 -0.028193381 0.44600001
0.083018027 -0.028193381 0.44600001
0.084369533 -0.028256595 0.44700003
0.085534886 -0.028256595 0.44700003
0.086700246 -0.028256595 0.44700003
0.087865598 -0.028256595 0.44700003
0.089030959 -0.028256595 0.44700003
0.090196311 -0.028256595 0.44700003
0.091361672 -0.028256595 0.44700003
0.092734024 -0.028319808 0.44800001
0.093901992 -0.028319808 0.44800001
0.095069952 -0.028319808 0.44800001
0.09623792 -0.028319808 0.44800001
0.097405881 -0.028319808 0.44800001
0.098573849 -0.028319808 0.44800001
0.099741809 -0.028319808 0.44800001
0.10090978 -0.028319808 0.44800001
0.10207774 -0.028319808 0.44800001
0.10324571 -0.028319808 0.44800001
0.10441367 -0.028319808 0.44800001
0.10558163 -0.028319808 0.44800001
0.10674959 -0.028319808 0.44800001
0.10791756 -0.028319808 0.44800001
0.1269144 -0.031922996 0.505
0.12823097 -0.031922996 0.505
0.12980407 -0.031986214 0.50600004
0.13112326 -0.031986214 0.50600004
0.13244244 -0.031986214 0.50600004
0.13376161 -0.031986214 0.50600004
0.13508078 -0.031986214 0.50600004
0.13639995 -0.031986214 0.50600004
0.13799131 -0.032049425 0.50700003
0.13958785 -0.032112639 0.50800002
0.14091225 -0.032112639 0.50800002
0.14251661 -0.032175854 0.509
0.14384362 -0.032175854 0.509
0.14517061 -0.032175854 0.509
0.14649761 -0.032175854 0.509
0.14811504 -0.032239068 0.51000005
0.14973767 -0.032302283 0.51100004
0.15106988 -0.032302283 0.51100004
0.15240209 -0.032302283 0.51100004
0.15403515 -0.032365493 0.51200002
0.15567341 -0.032428708 0.51300001
0.15731689 -0.032491922 0.514
0.15865692 -0.032491922 0.514
0.16030826 -0.032555137 0.51500005
0.16196476 -0.032618351 0.51600003
0.16331002 -0.032618351 0.51600003
0.16497435 -0.032681566 0.51700002
0.1663222 -0.032681566 0.51700002
0.16799437 -0.032744776 0.51800001
0.16934483 -0.032744776 0.51800001
0.17069529 -0.032744776 0.51800001
0.17204574 -0.032744776 0.51800001
0.17339621 -0.032744776 0.51800001
0.17474666 -0.032744776 0.51800001
0.17643709 -0.032807995 0.51900005
0.17779015 -0.032807995 0.51900005
0.17914324 -0.032807995 0.51900005
0.18049629 -0.032807995 0.51900005
0.18219975 -0.032871205 0.52000004
0.18355541 -0.032871205 0.52000004
0.18491109 -0.032871205 0.52000004
0.18662494 -0.03293442 0.52100003
0.18798323 -0.03293442 0.52100003
0.18934153 -0.03293442 0.52100003
0.1906998 -0.03293442 0.52100003
0.19242671 -0.032997634 0.52200001
0.19378759 -0.032997634 0.52200001
0.19552232 -0.033060845 0.523
0.19726229 -0.033124063 0.52400005
0.1986284 -0.033124063 0.52400005
0.20037615 -0.033187278 0.52500004
0.20174487 -0.033187278 0.52500004
0.20311357 -0.033187278 0.52500004
0.20487177 -0.033250488 0.52600002
0.20663516 -0.033313703 0.52700001
0.20800909 -0.033313703 0.52700001
0.20978034 -0.033376914 0.528
0.21115686 -0.033376914 0.528
0.21293594 -0.033440132 0.52900004
0.21431506 -0.033440132 0.52900004
0.21610194 -0.033503346 0.53000003
0.21748368 -0.033503346 0.53000003
0.21886542 -0.033503346 0.53000003
0.22066271 -0.033566557 0.53100002
0.22204708 -0.033566557 0.53100002
0.22343142 -0.033566557 0.53100002
0.22523916 -0.033629771 0.53200001
0.2266261 -0.033629771 0.53200001
0.22844169 -0.033692989 0.53300005
0.22983126 -0.033692989 0.53300005
0.23122081 -0.033692989 0.53300005
0.2330468 -0.0337562 0.53400004
0.23443896 -0.0337562 0.53400004
0.23627277 -0.033819415 0.53500003
0.23766753 -0.033819415 0.53500003
0.23950917 -0.033882625 0.53600001
0.24090654 -0.033882625 0.53600001
0.24275599 -0.03394584 0.537
0.24461067 -0.034009058 0.53800005
0.24601327 -0.034009058 0.53800005
0.24787574 -0.034072269 0.53900003
0.24928094 -0.034072269 0.53900003
0.25068617 -0.034072269 0.53900003
0.25255907 -0.034135483 0.54000002
0.25396687 -0.034135483 0.54000002
0.2558476 -0.034198698 0.54100001
0.25725803 -0.034198698 0.54100001
-0.22919013 -0.024485143 0.40400001
-0.22813688 -0.024485143 0.40400001
-0.22708364 -0.024485143 0.40400001
-0.22603039 -0.024485143 0.40400001
-0.22553401 -0.024545752 0.40500003
-0.22447814 -0.024545752 0.40500003
-0.22342229 -0.024545752 0.40500003
-0.22236642 -0.024545752 0.40500003
-0.221857 -0.024606358 0.40600002
-0.22134237 -0.024666963 0.40700001
-0.2202813 -0.024666963 0.40700001
-0.21975884 -0.024727572 0.40800002
-0.21869516 -0.024727572 0.40800002
-0.21816489 -0.024788177 0.40900001
-0.21709861 -0.024788177 0.40900001
-0.21656051 -0.024848785 0.41000003
-0.21549162 -0.024848785 0.41000003
-0.21442273 -0.024848785 0.41000003
-0.21335384 -0.024848785 0.41000003
-0.21228492 -0.024848785 0.41000003
-0.21121603 -0.024848785 0.41000003
-0.2106597 -0.02490939 0.41100001
-0.20958817 -0.02490939 0.41100001
-0.20851667 -0.02490939 0.41100001
-0.20744519 -0.02490939 0.41100001
-0.20637369 -0.02490939 0.41100001
-0.20580171 -0.024969999 0.41200003
-0.20472759 -0.024969999 0.41200003
-0.20365348 -0.024969999 0.41200003
-0.20257936 -0.024969999 0.41200003
-0.20150526 -0.024969999 0.41200003
-0.20091763 -0.025030605 0.41300002
-0.1998409 -0.025030605 0.41300002
-0.19876419 -0.025030605 0.41300002
-0.19768746 -0.025030605 0.41300002
-0.19708683 -0.025091212 0.41400003
-0.19600749 -0.025091212 0.41400003
-0.19492817 -0.025091212 0.41400003
-0.19431707 -0.025151819 0.41500002
-0.19323514 -0.025151819 0.41500002
-0.19261622 -0.025212424 0.41600001
-0.19153169 -0.025212424 0.41600001
-0.19044715 -0.025212424 0.41600001
-0.18936262 -0.025212424 0.41600001
-0.18827806 -0.025212424 0.41600001
-0.18719353 -0.025212424 0.41600001
-0.18610899 -0.025212424 0.41600001
-0.18502446 -0.025212424 0.41600001
-0.18393992 -0.025212424 0.41600001
-0.18285538 -0.025212424 0.41600001
-0.18220779 -0.025273032 0.41700003
-0.18112065 -0.025273032 0.41700003
-0.1800335 -0.025273032 0.41700003
-0.17937548 -0.025333639 0.41800001
-0.17828573 -0.025333639 0.41800001
-0.17719598 -0.025333639 0.41800001
-0.17610623 -0.025333639 0.41800001
-0.17543519 -0.025394246 0.41900003
-0.17434281 -0.025394246 0.41900003
-0.17325047 -0.025394246 0.41900003
-0.17256896 -0.025454853 0.42000002
-0.17147401 -0.025454853 0.42000002
-0.17037904 -0.025454853 0.42000002
-0.16968714 -0.025515459 0.42100003
-0.16858956 -0.025515459 0.42100003
-0.16788983 -0.025576066 0.42200002
-0.16678965 -0.025576066 0.42200002
-0.16568947 -0.025576066 0.42200002
-0.16458929 -0.025576066 0.42200002
-0.1634891 -0.025576066 0.42200002
-0.16238892 -0.025576066 0.42200002
-0.16128874 -0.025576066 0.42200002
-0.16018856 -0.025576066 0.42200002
-0.15946536 -0.025636673 0.42300001
-0.15836258 -0.025636673 0.42300001
-0.15725978 -0.025636673 0.42300001
-0.15652618 -0.02569728 0.42400002
-0.15542077 -0.02569728 0.42400002
-0.15467933 -0.025757886 0.42500001
-0.15357132 -0.025757886 0.42500001
-0.15246333 -0.025757886 0.42500001
-0.15171145 -0.025818493 0.42600003
-0.15060085 -0.025818493 0.42600003
-0.14949024 -0.025818493 0.42600003
-0.14837962 -0.025818493 0.42600003
-0.14761472 -0.0258791 0.42700002
-0.1465015 -0.0258791 0.42700002
-0.14538829 -0.0258791 0.42700002
-0.14461295 -0.025939707 0.42800003
-0.14349714 -0.025939707 0.42800003
-0.14271396 -0.026000313 0.42900002
-0.14159554 -0.026000313 0.42900002
-0.14080456 -0.02606092 0.43000001
-0.13968353 -0.02606092 0.43000001
-0.13856249 -0.02606092 0.43000001
-0.13744146 -0.02606092 0.43000001
-0.13663743 -0.026121527 0.43100002
-0.13551378 -0.026121527 0.43100002
-0.13439015 -0.026121527 0.43100002
-0.13326649 -0.026121527 0.43100002
-0.13214286 -0.026121527 0.43100002
-0.1310192 -0.026121527 0.43100002
-0.13019696 -0.026182134 0.43200001
-0.1290707 -0.026182134 0.43200001
-0.12794445 -0.026182134 0.43200001
-0.12711176 -0.02624274 0.43300003
-0.12598291 -0.02624274 0.43300003
-0.12514238 -0.026303347 0.43400002
-0.12401093 -0.026303347 0.43400002
-0.12287945 -0.026303347 0.43400002
-0.12202851 -0.026363956 0.43500003
-0.12089445 -0.026363956 0.43500003
-0.12003568 -0.026424561 0.43600002
-0.118899 -0.026424561 0.43600002
-0.11776232 -0.026424561 0.43600002
-0.11689314 -0.026485167 0.43700001
-0.11575384 -0.026485167 0.43700001
-0.11461456 -0.026485167 0.43700001
-0.11347526 -0.026485167 0.43700001
-0.11259305 -0.026545774 0.43800002
-0.11145115 -0.026545774 0.43800002
-0.11030927 -0.026545774 0.43800002
-0.10916737 -0.026545774 0.43800002
-0.10802547 -0.026545774 0.43800002
-0.10688358 -0.026545774 0.43800002
-0.10574169 -0.026545774 0.43800002
-0.10459979 -0.026545774 0.43800002
-0.1036941 -0.026606381 0.43900001
-0.1025496 -0.026606381 0.43900001
-0.10163609 -0.02666699 0.44000003
-0.10048898 -0.02666699 0.44000003
-0.099567644 -0.026727594 0.44100001
-0.09841793 -0.026727594 0.44100001
-0.097488783 -0.026788203 0.44200003
-0.096336462 -0.026788203 0.44200003
-0.095399484 -0.026848808 0.44300002
-0.094244562 -0.026848808 0.44300002
-0.093299769 -0.026909417 0.44400004
-0.092142232 -0.026909417 0.44400004
-0.091189615 -0.026970023 0.44500002
-0.090029471 -0.026970023 0.44500002
-0.088869326 -0.026970023 0.44500002
-0.087906279 -0.027030628 0.44600001
-0.086743526 -0.027030628 0.44600001
-0.085580774 -0.027030628 0.44600001
-0.084418029 -0.027030628 0.44600001
-0.083255276 -0.027030628 0.44600001
-0.08227659 -0.027091237 0.44700003
-0.081111237 -0.027091237 0.44700003
-0.079945877 -0.027091237 0.44700003
-0.07895676 -0.027151842 0.44800001
-0.0777888 -0.027151842 0.44800001
-0.076791868 -0.02721245 0.44900003
-0.075621292 -0.02721245 0.44900003
-0.074616536 -0.027273055 0.45000002
-0.073443353 -0.027273055 0.45000002
-0.072430775 -0.027333664 0.45100003
-0.071254991 -0.027333664 0.45100003
-0.070079207 -0.027333664 0.45100003
-0.068903424 -0.027333664 0.45100003
-0.067727633 -0.027333664 0.45100003
-0.066551849 -0.027333664 0.45100003
-0.065376066 -0.027333664 0.45100003
-0.064342625 -0.027394271 0.45200002
-0.063164234 -0.027394271 0.45200002
-0.061985843 -0.027394271 0.45200002
-0.060941979 -0.027454875 0.45300001
-0.05976098 -0.027454875 0.45300001
-0.058579974 -0.027454875 0.45300001
-0.057398975 -0.027454875 0.45300001
-0.056342084 -0.027515484 0.45400003
-0.055158477 -0.027515484 0.45400003
-0.054093752 -0.027576089 0.45500001
-0.052907538 -0.027576089 0.45500001
-0.051721327 -0.027576089 0.45500001
-0.050646178 -0.027636698 0.45600003
-0.04945736 -0.027636698 0.45600003
-0.048374388 -0.027697304 0.45700002
-0.047182959 -0.027697304 0.45700002
-0.045991533 -0.027697304 0.45700002
-0.044800103 -0.027697304 0.45700002
-0.043608677 -0.027697304 0.45700002
-0.042510066 -0.027757911 0.45800003
-0.041316032 -0.027757911 0.45800003
-0.040121999 -0.027757911 0.45800003
-0.038927961 -0.027757911 0.45800003
-0.037733924 -0.027757911 0.45800003
-0.03653989 -0.027757911 0.45800003
-0.035423029 -0.027818518 0.45900002
-0.034226388 -0.027818518 0.45900002
-0.033029746 -0.027818518 0.45900002
-0.031902451 -0.027879123 0.46000001
-0.030703204 -0.027879123 0.46000001
-0.029503955 -0.027879123 0.46000001
-0.028304705 -0.027879123 0.46000001
-0.027164383 -0.027939731 0.46100003
-0.026018843 -0.028000338 0.46200001
-0.02481438 -0.028000338 0.46200001
-0.023609918 -0.028000338 0.46200001
-0.022453949 -0.028060945 0.46300003
-0.02124688 -0.028060945 0.46300003
-0.020083092 -0.028121551 0.46400002
-0.018873412 -0.028121551 0.46400002
-0.017663736 -0.028121551 0.46400002
-0.016489521 -0.028182158 0.46500003
-0.015277237 -0.028182158 0.46500003
-0.014095197 -0.028242765 0.46600002
-0.012880307 -0.028242765 0.46600002
-0.011690447 -0.028303372 0.46700001
-0.010472949 -0.028303372 0.46700001
-0.0092752697 -0.028363978 0.46800002
-0.0080551635 -0.028363978 0.46800002
-0.0068496619 -0.028424585 0.46900001
-0.0056269495 -0.028424585 0.46900001
-0.0044042366 -0.028424585 0.46900001
-0.0031815236 -0.028424585 0.46900001
-0.0019588107 -0.028424585 0.46900001
-0.00073609792 -0.028424585 0.46900001
0.00048661497 -0.028424585 0.46900001
0.0017129725 -0.028485192 0.47000003
0.0029382925 -0.028485192 0.47000003
0.0041636126 -0.028485192 0.47000003
0.0053889323 -0.028485192 0.47000003
0.0066283252 -0.028545799 0.47100002
0.0078562526 -0.028545799 0.47100002
0.0090841791 -0.028545799 0.47100002
0.010334001 -0.028606405 0.47200003
0.011564535 -0.028606405 0.47200003
0.012822176 -0.028667012 0.47300002
0.014055318 -0.028667012 0.47300002
0.015320782 -0.028727621 0.47400004
0.016556529 -0.028727621 0.47400004
0.017792279 -0.028727621 0.47400004
0.019068168 -0.028788226 0.47500002
0.020306524 -0.028788226 0.47500002
0.021544881 -0.028788226 0.47500002
0.0228312 -0.028848832 0.47600001
0.024072161 -0.028848832 0.47600001
0.025366304 -0.028909439 0.47700003
0.026609873 -0.028909439 0.47700003
0.027911834 -0.028970046 0.47800002
0.029158011 -0.028970046 0.47800002
0.030467793 -0.029030655 0.47900003
0.031716581 -0.029030655 0.47900003
0.033034183 -0.029091259 0.48000002
0.034285575 -0.029091259 0.48000002
0.035536963 -0.029091259 0.48000002
0.036788356 -0.029091259 0.48000002
0.038118996 -0.029151868 0.48100004
0.039372995 -0.029151868 0.48100004
0.040626992 -0.029151868 0.48100004
0.041880991 -0.029151868 0.48100004
0.043134987 -0.029151868 0.48100004
0.044388983 -0.029151868 0.48100004
0.045642983 -0.029151868 0.48100004
0.046994478 -0.029212473 0.48200002
0.048251085 -0.029212473 0.48200002
0.049507689 -0.029212473 0.48200002
0.05086961 -0.02927308 0.48300001
0.052128822 -0.02927308 0.48300001
0.053388033 -0.02927308 0.48300001
0.054534104 -0.029212473 0.48200002
0.055674966 -0.029151868 0.48100004
0.056928962 -0.029151868 0.48100004
0.058182959 -0.029151868 0.48100004
0.059313387 -0.029091259 0.48000002
0.06031242 -0.028970046 0.47800002
0.061172247 -0.028788226 0.47500002
0.06188504 -0.028545799 0.47100002
0.064102188 -0.027394271 0.45200002
0.064702876 -0.027151842 0.44800001
0.065576777 -0.027030628 0.44600001
0.066589884 -0.026970023 0.44500002
0.067597784 -0.026909417 0.44400004
0.068755321 -0.026909417 0.44400004
0.069912858 -0.026909417 0.44400004
0.071070395 -0.026909417 0.44400004
0.072227925 -0.026909417 0.44400004
0.073385462 -0.026909417 0.44400004
0.074710883 -0.026970023 0.44500002
0.075871028 -0.026970023 0.44500002
0.077031173 -0.026970023 0.44500002
0.078367032 -0.027030628 0.44600001
0.079529777 -0.027030628 0.44600001
0.08069253 -0.027030628 0.44600001
0.081855282 -0.027030628 0.44600001
0.083204173 -0.027091237 0.44700003
0.084369533 -0.027091237 0.44700003
0.085534886 -0.027091237 0.44700003
0.086700246 -0.027091237 0.44700003
0.087865598 -0.027091237 0.44700003
0.089030959 -0.027091237 0.44700003
0.090196311 -0.027091237 0.44700003
0.091566056 -0.027151842 0.44800001
0.092734024 -0.027151842 0.44800001
0.093901992 -0.027151842 0.44800001
0.095069952 -0.027151842 0.44800001
0.09623792 -0.027151842 0.44800001
0.097405881 -0.027151842 0.44800001
0.098573849 -0.027151842 0.44800001
0.099741809 -0.027151842 0.44800001
0.10090978 -0.027151842 0.44800001
0.10207774 -0.027151842 0.44800001
0.10324571 -0.027151842 0.44800001
0.10441367 -0.027151842 0.44800001
0.10558163 -0.027151842 0.44800001
0.10674959 -0.027151842 0.44800001
0.10791756 -0.027151842 0.44800001
0.12559785 -0.030606428 0.505
0.1269144 -0.030606428 0.505
0.12823097 -0.030606428 0.505
0.12954754 -0.030606428 0.505
0.13086411 -0.030606428 0.505
0.13244244 -0.030667037 0.50600004
0.13376161 -0.030667037 0.50600004
0.13508078 -0.030667037 0.50600004
0.13639995 -0.030667037 0.50600004
0.13799131 -0.030727644 0.50700003
0.13931307 -0.030727644 0.50700003
0.14091225 -0.03078825 0.50800002
0.14223664 -0.03078825 0.50800002
0.14384362 -0.030848855 0.509
0.14517061 -0.030848855 0.509
0.14649761 -0.030848855 0.509
0.14811504 -0.030909466 0.51000005
0.14973767 -0.030970071 0.51100004
0.15106988 -0.030970071 0.51100004
0.15270032 -0.031030677 0.51200002
0.15403515 -0.031030677 0.51200002
0.15567341 -0.031091284 0.51300001
0.15731689 -0.031151889 0.514
0.15865692 -0.031151889 0.514
0.16030826 -0.031212499 0.51500005
0.16196476 -0.031273104 0.51600003
0.16331002 -0.031273104 0.51600003
0.16497435 -0.031333711 0.51700002
0.1663222 -0.031333711 0.51700002
0.16767006 -0.031333711 0.51700002
0.16934483 -0.031394318 0.51800001
0.17069529 -0.031394318 0.51800001
0.17204574 -0.031394318 0.51800001
0.17339621 -0.031394318 0.51800001
0.17474666 -0.031394318 0.51800001
0.17609712 -0.031394318 0.51800001
0.17779015 -0.031454928 0.51900005
0.17914324 -0.031454928 0.51900005
0.18049629 -0.031454928 0.51900005
0.18219975 -0.031515531 0.52000004
0.18355541 -0.031515531 0.52000004
0.18526667 -0.031576138 0.52100003
0.18662494 -0.031576138 0.52100003
0.18798323 -0.031576138 0.52100003
0.18934153 -0.031576138 0.52100003
0.1906998 -0.031576138 0.52100003
0.19242671 -0.031636745 0.52200001
0.19378759 -0.031636745 0.52200001
0.19552232 -0.031697351 0.523
0.19726229 -0.031757962 0.52400005
0.1986284 -0.031757962 0.52400005
0.20037615 -0.031818565 0.52500004
0.20174487 -0.031818565 0.52500004
0.20311357 -0.031818565 0.52500004
0.20487177 -0.031879172 0.52600002
0.20663516 -0.031939778 0.52700001
0.20800909 -0.031939778 0.52700001
0.20978034 -0.032000385 0.528
0.21115686 -0.032000385 0.528
0.21293594 -0.032060996 0.52900004
0.21431506 -0.032060996 0.52900004
0.2156942 -0.032060996 0.52900004
0.21748368 -0.032121599 0.53000003
0.21886542 -0.032121599 0.53000003
0.22024716 -0.032121599 0.53000003
0.22204708 -0.032182205 0.53100002
0.22343142 -0.032182205 0.53100002
0.22523916 -0.032242812 0.53200001
0.2266261 -0.032242812 0.53200001
0.22844169 -0.032303423 0.53300005
0.22983126 -0.032303423 0.53300005
0.23122081 -0.032303423 0.53300005
0.2330468 -0.032364029 0.53400004
0.23487797 -0.032424632 0.53500003
0.23627277 -0.032424632 0.53500003
0.23766753 -0.032424632 0.53500003
0.23950917 -0.032485239 0.53600001
0.24090654 -0.032485239 0.53600001
0.24275599 -0.032545846 0.537
0.24461067 -0.032606456 0.53800005
0.24601327 -0.032606456 0.53800005
0.24787574 -0.032667059 0.53900003
0.24928094 -0.032667059 0.53900003
0.25068617 -0.032667059 0.53900003
0.25255907 -0.032727666 0.54000002
0.25396687 -0.032727666 0.54000002
0.2558476 -0.032788273 0.54100001
0.25725803 -0.032788273 0.54100001
-0.22919013 -0.02343189 0.40400001
-0.22813688 -0.02343189 0.40400001
-0.22708364 -0.02343189 0.40400001
-0.22603039 -0.02343189 0.40400001
-0.22497712 -0.02343189 0.40400001
-0.22447814 -0.023489891 0.40500003
-0.22342229 -0.023489891 0.40500003
-0.22236642 -0.023489891 0.40500003
-0.221857 -0.02354789 0.40600002
-0.22134237 -0.023605889 0.40700001
-0.2202813 -0.023605889 0.40700001
-0.21975884 -0.02366389 0.40800002
-0.21869516 -0.02366389 0.40800002
-0.21816489 -0.023721889 0.40900001
-0.21709861 -0.023721889 0.40900001
-0.21603231 -0.023721889 0.40900001
-0.21549162 -0.02377989 0.41000003
-0.21442273 -0.02377989 0.41000003
-0.21335384 -0.02377989 0.41000003
-0.21228492 -0.02377989 0.41000003
-0.21121603 -0.02377989 0.41000003
-0.2106597 -0.023837889 0.41100001
-0.20958817 -0.023837889 0.41100001
-0.20851667 -0.023837889 0.41100001
-0.20794992 -0.02389589 0.41200003
-0.20687582 -0.02389589 0.41200003
-0.20580171 -0.02389589 0.41200003
-0.20472759 -0.02389589 0.41200003
-0.20365348 -0.02389589 0.41200003
-0.20307106 -0.023953889 0.41300002
-0.20199434 -0.023953889 0.41300002
-0.20091763 -0.023953889 0.41300002
-0.1998409 -0.023953889 0.41300002
-0.19876419 -0.023953889 0.41300002
-0.19768746 -0.023953889 0.41300002
-0.19708683 -0.024011889 0.41400003
-0.19600749 -0.024011889 0.41400003
-0.19492817 -0.024011889 0.41400003
-0.19431707 -0.024069889 0.41500002
-0.19323514 -0.024069889 0.41500002
-0.19261622 -0.024127888 0.41600001
-0.19153169 -0.024127888 0.41600001
-0.19044715 -0.024127888 0.41600001
-0.18936262 -0.024127888 0.41600001
-0.18827806 -0.024127888 0.41600001
-0.18719353 -0.024127888 0.41600001
-0.18610899 -0.024127888 0.41600001
-0.18502446 -0.024127888 0.41600001
-0.18393992 -0.024127888 0.41600001
-0.18285538 -0.024127888 0.41600001
-0.18220779 -0.024185887 0.41700003
-0.18112065 -0.024185887 0.41700003
-0.1800335 -0.024185887 0.41700003
-0.17937548 -0.024243886 0.41800001
-0.17828573 -0.024243886 0.41800001
-0.17719598 -0.024243886 0.41800001
-0.17610623 -0.024243886 0.41800001
-0.17543519 -0.024301887 0.41900003
-0.17434281 -0.024301887 0.41900003
-0.17325047 -0.024301887 0.41900003
-0.17256896 -0.024359886 0.42000002
-0.17147401 -0.024359886 0.42000002
-0.17037904 -0.024359886 0.42000002
-0.16968714 -0.024417887 0.42100003
-0.16858956 -0.024417887 0.42100003
-0.16788983 -0.024475886 0.42200002
-0.16678965 -0.024475886 0.42200002
-0.16568947 -0.024475886 0.42200002
-0.16458929 -0.024475886 0.42200002
-0.1634891 -0.024475886 0.42200002
-0.16238892 -0.024475886 0.42200002
-0.16128874 -0.024475886 0.42200002
-0.16056815 -0.024533885 0.42300001
-0.15946536 -0.024533885 0.42300001
-0.15836258 -0.024533885 0.42300001
-0.15763156 -0.024591886 0.42400002
-0.15652618 -0.024591886 0.42400002
-0.15578732 -0.024649885 0.42500001
-0.15467933 -0.024649885 0.42500001
-0.15357132 -0.024649885 0.42500001
-0.15282208 -0.024707885 0.42600003
-0.15171145 -0.024707885 0.42600003
-0.15060085 -0.024707885 0.42600003
-0.14949024 -0.024707885 0.42600003
-0.14837962 -0.024707885 0.42600003
-0.14761472 -0.024765885 0.42700002
-0.1465015 -0.024765885 0.42700002
-0.14538829 -0.024765885 0.42700002
-0.14461295 -0.024823885 0.42800003
-0.14349714 -0.024823885 0.42800003
-0.14271396 -0.024881884 0.42900002
-0.14159554 -0.024881884 0.42900002
-0.14080456 -0.024939884 0.43000001
-0.13968353 -0.024939884 0.43000001
-0.13856249 -0.024939884 0.43000001
-0.13744146 -0.024939884 0.43000001
-0.13663743 -0.024997883 0.43100002
-0.13551378 -0.024997883 0.43100002
-0.13439015 -0.024997883 0.43100002
-0.13326649 -0.024997883 0.43100002
-0.13214286 -0.024997883 0.43100002
-0.1313232 -0.025055882 0.43200001
-0.13019696 -0.025055882 0.43200001
-0.1290707 -0.025055882 0.43200001
-0.12794445 -0.025055882 0.43200001
-0.12711176 -0.025113882 0.43300003
-0.12627386 -0.025171882 0.43400002
-0.12514238 -0.025171882 0.43400002
-0.12401093 -0.025171882 0.43400002
-0.12287945 -0.025171882 0.43400002
-0.12202851 -0.025229882 0.43500003
-0.12089445 -0.025229882 0.43500003
-0.12003568 -0.025287881 0.43600002
-0.118899 -0.025287881 0.43600002
-0.11776232 -0.025287881 0.43600002
-0.11689314 -0.025345881 0.43700001
-0.11575384 -0.025345881 0.43700001
-0.11461456 -0.025345881 0.43700001
-0.11373494 -0.025403881 0.43800002
-0.11259305 -0.025403881 0.43800002
-0.11145115 -0.025403881 0.43800002
-0.11030927 -0.025403881 0.43800002
-0.10916737 -0.025403881 0.43800002
-0.10802547 -0.025403881 0.43800002
-0.10688358 -0.025403881 0.43800002
-0.10574169 -0.025403881 0.43800002
-0.10459979 -0.025403881 0.43800002
-0.1036941 -0.02546188 0.43900001
-0.1025496 -0.02546188 0.43900001
-0.10163609 -0.025519881 0.44000003
-0.10048898 -0.025519881 0.44000003
-0.099567644 -0.02557788 0.44100001
-0.09841793 -0.02557788 0.44100001
-0.097488783 -0.025635881 0.44200003
-0.096336462 -0.025635881 0.44200003
-0.095399484 -0.02569388 0.44300002
-0.094244562 -0.02569388 0.44300002
-0.093299769 -0.025751881 0.44400004
-0.092142232 -0.025751881 0.44400004
-0.091189615 -0.02580988 0.44500002
-0.090029471 -0.02580988 0.44500002
-0.088869326 -0.02580988 0.44500002
-0.087906279 -0.025867879 0.44600001
-0.086743526 -0.025867879 0.44600001
-0.085580774 -0.025867879 0.44600001
-0.084418029 -0.025867879 0.44600001
-0.083255276 -0.025867879 0.44600001
-0.08227659 -0.025925878 0.44700003
-0.081111237 -0.025925878 0.44700003
-0.079945877 -0.025925878 0.44700003
-0.07895676 -0.025983877 0.44800001
-0.0777888 -0.025983877 0.44800001
-0.076791868 -0.026041878 0.44900003
-0.075621292 -0.026041878 0.44900003
-0.074616536 -0.026099877 0.45000002
-0.073443353 -0.026099877 0.45000002
-0.072430775 -0.026157878 0.45100003
-0.071254991 -0.026157878 0.45100003
-0.070079207 -0.026157878 0.45100003
-0.068903424 -0.026157878 0.45100003
-0.067727633 -0.026157878 0.45100003
-0.066551849 -0.026157878 0.45100003
-0.065376066 -0.026157878 0.45100003
-0.064342625 -0.026215877 0.45200002
-0.063164234 -0.026215877 0.45200002
-0.061985843 -0.026215877 0.45200002
-0.060941979 -0.026273876 0.45300001
-0.05976098 -0.026273876 0.45300001
-0.058579974 -0.026273876 0.45300001
-0.057525687 -0.026331877 0.45400003
-0.056342084 -0.026331877 0.45400003
-0.055158477 -0.026331877 0.45400003
-0.054093752 -0.026389876 0.45500001
-0.052907538 -0.026389876 0.45500001
-0.051721327 -0.026389876 0.45500001
-0.050646178 -0.026447877 0.45600003
-0.04945736 -0.026447877 0.45600003
-0.048374388 -0.026505876 0.45700002
-0.047182959 -0.026505876 0.45700002
-0.045991533 -0.026505876 0.45700002
-0.044800103 -0.026505876 0.45700002
-0.0437041 -0.026563877 0.45800003
-0.042510066 -0.026563877 0.45800003
-0.041316032 -0.026563877 0.45800003
-0.040121999 -0.026563877 0.45800003
-0.038927961 -0.026563877 0.45800003
-0.037733924 -0.026563877 0.45800003
-0.03653989 -0.026563877 0.45800003
-0.035423029 -0.026621876 0.45900002
-0.034226388 -0.026621876 0.45900002
-0.033029746 -0.026621876 0.45900002
-0.031833101 -0.026621876 0.45900002
-0.030703204 -0.026679875 0.46000001
-0.029503955 -0.026679875 0.46000001
-0.028304705 -0.026679875 0.46000001
-0.027164383 -0.026737876 0.46100003
-0.026018843 -0.026795873 0.46200001
-0.02481438 -0.026795873 0.46200001
-0.023609918 -0.026795873 0.46200001
-0.022453949 -0.026853874 0.46300003
-0.02124688 -0.026853874 0.46300003
-0.02003981 -0.026853874 0.46300003
-0.018873412 -0.026911873 0.46400002
-0.017663736 -0.026911873 0.46400002
-0.016489521 -0.026969874 0.46500003
-0.015277237 -0.026969874 0.46500003
-0.014095197 -0.027027873 0.46600002
-0.012880307 -0.027027873 0.46600002
-0.011690447 -0.027085872 0.46700001
-0.010472949 -0.027085872 0.46700001
-0.0092752697 -0.027143873 0.46800002
-0.0080551635 -0.027143873 0.46800002
-0.0068350574 -0.027143873 0.46800002
-0.0056269495 -0.027201872 0.46900001
-0.0044042366 -0.027201872 0.46900001
-0.0031815236 -0.027201872 0.46900001
-0.0019588107 -0.027201872 0.46900001
-0.00073609792 -0.027201872 0.46900001
0.00048661497 -0.027201872 0.46900001
0.0017129725 -0.027259873 0.47000003
0.0029382925 -0.027259873 0.47000003
0.0041636126 -0.027259873 0.47000003
0.0053889323 -0.027259873 0.47000003
0.0066283252 -0.027317872 0.47100002
0.0078562526 -0.027317872 0.47100002
0.0090841791 -0.027317872 0.47100002
0.010334001 -0.027375873 0.47200003
0.011589035 -0.027433872 0.47300002
0.012822176 -0.027433872 0.47300002
0.014055318 -0.027433872 0.47300002
0.015320782 -0.027491873 0.47400004
0.016556529 -0.027491873 0.47400004
0.017792279 -0.027491873 0.47400004
0.019068168 -0.027549872 0.47500002
0.020306524 -0.027549872 0.47500002
0.021544881 -0.027549872 0.47500002
0.0228312 -0.027607871 0.47600001
0.024072161 -0.027607871 0.47600001
0.025366304 -0.02766587 0.47700003
0.026609873 -0.02766587 0.47700003
0.027911834 -0.027723869 0.47800002
0.029158011 -0.027723869 0.47800002
0.030467793 -0.02778187 0.47900003
0.031716581 -0.02778187 0.47900003
0.033034183 -0.027839869 0.48000002
0.034285575 -0.027839869 0.48000002
0.035536963 -0.027839869 0.48000002
0.036788356 -0.027839869 0.48000002
0.038118996 -0.02789787 0.48100004
0.039372995 -0.02789787 0.48100004
0.040626992 -0.02789787 0.48100004
0.041880991 -0.02789787 0.48100004
0.043134987 -0.02789787 0.48100004
0.044388983 -0.02789787 0.48100004
0.045642983 -0.02789787 0.48100004
0.046994478 -0.027955869 0.48200002
0.048251085 -0.027955869 0.48200002
0.049507689 -0.027955869 0.48200002
0.050764292 -0.027955869 0.48200002
0.052020896 -0.027955869 0.48200002
0.0532775 -0.027955869 0.48200002
0.054534104 -0.027955869 0.48200002
0.055674966 -0.02789787 0.48100004
0.056928962 -0.02789787 0.48100004
0.058061995 -0.027839869 0.48000002
0.059313387 -0.027839869 0.48000002
0.060186248 -0.02766587 0.47700003
0.061043467 -0.027491873 0.47400004
0.062923789 -0.026215877 0.45200002
0.063534915 -0.025983877 0.44800001
0.064414024 -0.025867879 0.44600001
0.06528271 -0.025751881 0.44400004
0.06629061 -0.02569388 0.44300002
0.067445531 -0.02569388 0.44300002
0.068600461 -0.02569388 0.44300002
0.06975539 -0.02569388 0.44300002
0.07091032 -0.02569388 0.44300002
0.072227925 -0.025751881 0.44400004
0.073385462 -0.025751881 0.44400004
0.074542999 -0.025751881 0.44400004
0.075871028 -0.02580988 0.44500002
0.077031173 -0.02580988 0.44500002
0.078367032 -0.025867879 0.44600001
0.079529777 -0.025867879 0.44600001
0.08069253 -0.025867879 0.44600001
0.081855282 -0.025867879 0.44600001
0.083204173 -0.025925878 0.44700003
0.084369533 -0.025925878 0.44700003
0.085534886 -0.025925878 0.44700003
0.086700246 -0.025925878 0.44700003
0.087865598 -0.025925878 0.44700003
0.089030959 -0.025925878 0.44700003
0.090196311 -0.025925878 0.44700003
0.091566056 -0.025983877 0.44800001
0.092734024 -0.025983877 0.44800001
0.093901992 -0.025983877 0.44800001
0.095069952 -0.025983877 0.44800001
0.09623792 -0.025983877 0.44800001
0.097405881 -0.025983877 0.44800001
0.098573849 -0.025983877 0.44800001
0.099741809 -0.025983877 0.44800001
0.10090978 -0.025983877 0.44800001
0.10207774 -0.025983877 0.44800001
0.10324571 -0.025983877 0.44800001
0.10441367 -0.025983877 0.44800001
0.10558163 -0.025983877 0.44800001
0.10674959 -0.025983877 0.44800001
0.10791756 -0.025983877 0.44800001
0.12559785 -0.029289862 0.505
0.1269144 -0.029289862 0.505
0.12823097 -0.029289862 0.505
0.12980407 -0.029347865 0.50600004
0.13112326 -0.029347865 0.50600004
0.13244244 -0.029347865 0.50600004
0.13376161 -0.029347865 0.50600004
0.13508078 -0.029347865 0.50600004
0.13639995 -0.029347865 0.50600004
0.13799131 -0.029405862 0.50700003
0.13931307 -0.029405862 0.50700003
0.14091225 -0.029463861 0.50800002
0.14223664 -0.029463861 0.50800002
0.14384362 -0.02952186 0.509
0.14517061 -0.02952186 0.509
0.14649761 -0.02952186 0.509
0.14811504 -0.029579863 0.51000005
0.14973767 -0.029637862 0.51100004
0.15106988 -0.029637862 0.51100004
0.15270032 -0.029695861 0.51200002
0.15403515 -0.029695861 0.51200002
0.15567341 -0.02975386 0.51300001
0.15731689 -0.029811859 0.514
0.15865692 -0.029811859 0.514
0.16030826 -0.029869862 0.51500005
0.16196476 -0.029927861 0.51600003
0.16331002 -0.029927861 0.51600003
0.16497435 -0.02998586 0.51700002
0.1663222 -0.02998586 0.51700002
0.16767006 -0.02998586 0.51700002
0.16934483 -0.030043859 0.51800001
0.17069529 -0.030043859 0.51800001
0.17204574 -0.030043859 0.51800001
0.17339621 -0.030043859 0.51800001
0.17474666 -0.030043859 0.51800001
0.17609712 -0.030043859 0.51800001
0.17779015 -0.030101862 0.51900005
0.17914324 -0.030101862 0.51900005
0.18049629 -0.030101862 0.51900005
0.18219975 -0.030159861 0.52000004
0.18355541 -0.030159861 0.52000004
0.18526667 -0.03021786 0.52100003
0.18662494 -0.03021786 0.52100003
0.18798323 -0.03021786 0.52100003
0.18934153 -0.03021786 0.52100003
0.19106582 -0.030275859 0.52200001
0.19242671 -0.030275859 0.52200001
0.19415882 -0.030333856 0.523
0.19552232 -0.030333856 0.523
0.19688581 -0.030333856 0.523
0.1986284 -0.030391859 0.52400005
0.20037615 -0.030449858 0.52500004
0.20174487 -0.030449858 0.52500004
0.20311357 -0.030449858 0.52500004
0.20487177 -0.030507857 0.52600002
0.20624308 -0.030507857 0.52600002
0.20800909 -0.030565856 0.52700001
0.20978034 -0.030623855 0.528
0.21115686 -0.030623855 0.528
0.21293594 -0.030681858 0.52900004
0.21431506 -0.030681858 0.52900004
0.2156942 -0.030681858 0.52900004
0.21748368 -0.030739857 0.53000003
0.21886542 -0.030739857 0.53000003
0.22024716 -0.030739857 0.53000003
0.22204708 -0.030797856 0.53100002
0.22343142 -0.030797856 0.53100002
