# .PCD v0.7 - Point Cloud Data file format
VERSION 0.7
FIELDS x y z
SIZE 4 4 4
TYPE F F F
COUNT 1 1 1
WIDTH 1346
HEIGHT 1
VIEWPOINT 0 0 0 1 0 0 0
POINTS 1346
DATA ascii
0.092735648 -0.061803058 0.43700001
0.093874931 -0.061803058 0.43700001
0.095014222 -0.061803058 0.43700001
0.096153505 -0.061803058 0.43700001
0.097292796 -0.061803058 0.43700001
0.098432079 -0.061803058 0.43700001
0.099571362 -0.061803058 0.43700001
0.10071065 -0.061803058 0.43700001
0.10184994 -0.061803058 0.43700001
0.10298923 -0.061803058 0.43700001
0.10412851 -0.061803058 0.43700001
0.1052678 -0.061803058 0.43700001
0.10640709 -0.061803058 0.43700001
0.10754637 -0.061803058 0.43700001
0.10868566 -0.061803058 0.43700001
0.10982494 -0.061803058 0.43700001
0.11121816 -0.061944485 0.43800002
0.11236005 -0.061944485 0.43800002
0.11350195 -0.061944485 0.43800002
0.11464385 -0.061944485 0.43800002
0.11578573 -0.061944485 0.43800002
0.11692764 -0.061944485 0.43800002
0.11806952 -0.061944485 0.43800002
0.11921142 -0.061944485 0.43800002
0.12035331 -0.061944485 0.43800002
0.12149521 -0.061944485 0.43800002
0.12263709 -0.061944485 0.43800002
0.123779 -0.061944485 0.43800002
0.12492088 -0.061944485 0.43800002
0.12606278 -0.061944485 0.43800002
0.12720467 -0.061944485 0.43800002
0.12834656 -0.061944485 0.43800002
0.12948847 -0.061944485 0.43800002
0.13063036 -0.061944485 0.43800002
0.13177225 -0.061944485 0.43800002
0.13291414 -0.061944485 0.43800002
0.13374998 -0.061803058 0.43700001
0.13488926 -0.061803058 0.43700001
0.13602854 -0.061803058 0.43700001
0.13716783 -0.061803058 0.43700001
0.13830712 -0.061803058 0.43700001
0.13944639 -0.061803058 0.43700001
0.14058569 -0.061803058 0.43700001
0.14172497 -0.061803058 0.43700001
0.14319119 -0.061944485 0.43800002
0.14433309 -0.061944485 0.43800002
0.14547497 -0.061944485 0.43800002
0.14661688 -0.061944485 0.43800002
0.14775877 -0.061944485 0.43800002
0.14890066 -0.061944485 0.43800002
0.15004255 -0.061944485 0.43800002
0.15118445 -0.061944485 0.43800002
0.15232635 -0.061944485 0.43800002
0.15346824 -0.061944485 0.43800002
0.15461013 -0.061944485 0.43800002
0.15575202 -0.061944485 0.43800002
0.15689391 -0.061944485 0.43800002
0.15803581 -0.061944485 0.43800002
0.15917771 -0.061944485 0.43800002
0.1603196 -0.061944485 0.43800002
0.1614615 -0.061944485 0.43800002
0.16260338 -0.061944485 0.43800002
0.16374528 -0.061944485 0.43800002
0.16488717 -0.061944485 0.43800002
0.16602907 -0.061944485 0.43800002
0.16717096 -0.061944485 0.43800002
0.16831286 -0.061944485 0.43800002
0.16945474 -0.061944485 0.43800002
0.17059664 -0.061944485 0.43800002
0.17173854 -0.061944485 0.43800002
0.17288043 -0.061944485 0.43800002
0.17402233 -0.061944485 0.43800002
0.17516422 -0.061944485 0.43800002
0.17630611 -0.061944485 0.43800002
0.177448 -0.061944485 0.43800002
0.17858991 -0.061944485 0.43800002
0.17973179 -0.061944485 0.43800002
0.18087369 -0.061944485 0.43800002
0.18201558 -0.061944485 0.43800002
0.18315747 -0.061944485 0.43800002
0.18429936 -0.061944485 0.43800002
0.18544127 -0.061944485 0.43800002
0.18658315 -0.061944485 0.43800002
0.18772505 -0.061944485 0.43800002
0.18886696 -0.061944485 0.43800002
0.19000883 -0.061944485 0.43800002
0.19115074 -0.061944485 0.43800002
0.19229263 -0.061944485 0.43800002
0.19343452 -0.061944485 0.43800002
0.19457641 -0.061944485 0.43800002
0.19571832 -0.061944485 0.43800002
0.19686019 -0.061944485 0.43800002
0.1980021 -0.061944485 0.43800002
0.19914399 -0.061944485 0.43800002
0.20028588 -0.061944485 0.43800002
0.20142777 -0.061944485 0.43800002
0.20256968 -0.061944485 0.43800002
0.20371157 -0.061944485 0.43800002
0.20485346 -0.061944485 0.43800002
-0.24281895 -0.05969204 0.43000001
-0.24169792 -0.05969204 0.43000001
-0.24057689 -0.05969204 0.43000001
-0.23945583 -0.05969204 0.43000001
-0.2383348 -0.05969204 0.43000001
-0.23721378 -0.05969204 0.43000001
-0.23609272 -0.05969204 0.43000001
-0.23497169 -0.05969204 0.43000001
-0.23385066 -0.05969204 0.43000001
-0.23272963 -0.05969204 0.43000001
-0.23160857 -0.05969204 0.43000001
-0.23048754 -0.05969204 0.43000001
-0.22883311 -0.059553225 0.42900002
-0.22771469 -0.059553225 0.42900002
-0.22659624 -0.059553225 0.42900002
-0.22600339 -0.05969204 0.43000001
-0.22488236 -0.05969204 0.43000001
-0.22376134 -0.05969204 0.43000001
-0.22264028 -0.05969204 0.43000001
-0.22151925 -0.05969204 0.43000001
-0.22039822 -0.05969204 0.43000001
-0.21927716 -0.05969204 0.43000001
-0.21815613 -0.05969204 0.43000001
-0.2170351 -0.05969204 0.43000001
-0.21591407 -0.05969204 0.43000001
-0.21479303 -0.05969204 0.43000001
-0.21367198 -0.05969204 0.43000001
-0.21255095 -0.05969204 0.43000001
-0.21142991 -0.05969204 0.43000001
-0.21030888 -0.05969204 0.43000001
-0.20918784 -0.05969204 0.43000001
-0.20806679 -0.05969204 0.43000001
-0.20694576 -0.05969204 0.43000001
-0.20582472 -0.05969204 0.43000001
-0.20470369 -0.05969204 0.43000001
-0.20358264 -0.05969204 0.43000001
-0.20246162 -0.05969204 0.43000001
-0.20134057 -0.05969204 0.43000001
-0.20068517 -0.059830863 0.43100002
-0.19956152 -0.059830863 0.43100002
-0.19843788 -0.059830863 0.43100002
-0.19731423 -0.059830863 0.43100002
-0.1961906 -0.059830863 0.43100002
-0.19506694 -0.059830863 0.43100002
-0.19394331 -0.059830863 0.43100002
-0.19281967 -0.059830863 0.43100002
-0.19169602 -0.059830863 0.43100002
-0.19057238 -0.059830863 0.43100002
-0.18944873 -0.059830863 0.43100002
-0.18832509 -0.059830863 0.43100002
-0.18720144 -0.059830863 0.43100002
-0.1860778 -0.059830863 0.43100002
-0.18495415 -0.059830863 0.43100002
-0.18383051 -0.059830863 0.43100002
-0.18270686 -0.059830863 0.43100002
-0.18158323 -0.059830863 0.43100002
-0.18045957 -0.059830863 0.43100002
-0.17933592 -0.059830863 0.43100002
-0.17821229 -0.059830863 0.43100002
-0.1774995 -0.059969679 0.43200001
-0.17637326 -0.059969679 0.43200001
-0.175247 -0.059969679 0.43200001
-0.17412075 -0.059969679 0.43200001
-0.17299451 -0.059969679 0.43200001
-0.17186826 -0.059969679 0.43200001
-0.17074201 -0.059969679 0.43200001
-0.16961576 -0.059969679 0.43200001
-0.16887952 -0.060108498 0.43300003
-0.16775067 -0.060108498 0.43300003
-0.16662182 -0.060108498 0.43300003
-0.16549295 -0.060108498 0.43300003
-0.1643641 -0.060108498 0.43300003
-0.16323523 -0.060108498 0.43300003
-0.16210638 -0.060108498 0.43300003
-0.16097751 -0.060108498 0.43300003
-0.15984866 -0.060108498 0.43300003
-0.15871979 -0.060108498 0.43300003
-0.15795489 -0.060247317 0.43400002
-0.15682343 -0.060247317 0.43400002
-0.15569197 -0.060247317 0.43400002
-0.15456049 -0.060247317 0.43400002
-0.15307552 -0.060108498 0.43300003
-0.15194665 -0.060108498 0.43300003
-0.15081778 -0.060108498 0.43300003
-0.15003464 -0.060247317 0.43400002
-0.14890316 -0.060247317 0.43400002
-0.1477717 -0.060247317 0.43400002
-0.14664023 -0.060247317 0.43400002
-0.14550877 -0.060247317 0.43400002
-0.14437731 -0.060247317 0.43400002
-0.14324585 -0.060247317 0.43400002
-0.14211437 -0.060247317 0.43400002
-0.14098291 -0.060247317 0.43400002
-0.13985144 -0.060247317 0.43400002
-0.13871998 -0.060247317 0.43400002
-0.1375885 -0.060247317 0.43400002
-0.13645704 -0.060247317 0.43400002
-0.13532558 -0.060247317 0.43400002
-0.13419411 -0.060247317 0.43400002
-0.13306265 -0.060247317 0.43400002
-0.13193117 -0.060247317 0.43400002
-0.13079971 -0.060247317 0.43400002
-0.12966825 -0.060247317 0.43400002
-0.12853679 -0.060247317 0.43400002
-0.12740532 -0.060247317 0.43400002
-0.12627386 -0.060247317 0.43400002
-0.12514238 -0.060247317 0.43400002
-0.12401093 -0.060247317 0.43400002
-0.12287945 -0.060247317 0.43400002
-0.12174799 -0.060247317 0.43400002
-0.12061653 -0.060247317 0.43400002
-0.11948505 -0.060247317 0.43400002
-0.1183536 -0.060247317 0.43400002
-0.11722212 -0.060247317 0.43400002
-0.11609066 -0.060247317 0.43400002
-0.1149592 -0.060247317 0.43400002
-0.11409001 -0.060386136 0.43500003
-0.11295594 -0.060386136 0.43500003
-0.11182187 -0.060386136 0.43500003
-0.11068779 -0.060386136 0.43500003
-0.10930187 -0.060247317 0.43400002
-0.10817041 -0.060247317 0.43400002
-0.10703894 -0.060247317 0.43400002
-0.10590747 -0.060247317 0.43400002
-0.104776 -0.060247317 0.43400002
-0.10364454 -0.060247317 0.43400002
-0.10251307 -0.060247317 0.43400002
-0.10138161 -0.060247317 0.43400002
-0.10025014 -0.060247317 0.43400002
-0.099118672 -0.060247317 0.43400002
-0.098212987 -0.060386136 0.43500003
-0.097078919 -0.060386136 0.43500003
-0.095724277 -0.060247317 0.43400002
-0.09459281 -0.060247317 0.43400002
-0.093676701 -0.060386136 0.43500003
-0.092329882 -0.060247317 0.43400002
-0.091198415 -0.060247317 0.43400002
-0.090066954 -0.060247317 0.43400002
-0.088935487 -0.060247317 0.43400002
-0.087804019 -0.060247317 0.43400002
-0.086672559 -0.060247317 0.43400002
-0.085541084 -0.060247317 0.43400002
-0.084409617 -0.060247317 0.43400002
-0.083278157 -0.060247317 0.43400002
-0.082335971 -0.060386136 0.43500003
-0.081201896 -0.060386136 0.43500003
-0.080067828 -0.060386136 0.43500003
-0.078933753 -0.060386136 0.43500003
-0.077799685 -0.060386136 0.43500003
-0.07666561 -0.060386136 0.43500003
-0.075531535 -0.060386136 0.43500003
-0.074397467 -0.060386136 0.43500003
-0.073263392 -0.060386136 0.43500003
-0.072129324 -0.060386136 0.43500003
-0.070995241 -0.060386136 0.43500003
-0.069861174 -0.060386136 0.43500003
-0.068727098 -0.060386136 0.43500003
-0.067593023 -0.060386136 0.43500003
-0.066458955 -0.060386136 0.43500003
-0.06532488 -0.060386136 0.43500003
-0.064190812 -0.060386136 0.43500003
-0.063056737 -0.060386136 0.43500003
-0.061922666 -0.060386136 0.43500003
-0.06078859 -0.060386136 0.43500003
-0.059654519 -0.060386136 0.43500003
-0.058520447 -0.060386136 0.43500003
-0.057386376 -0.060386136 0.43500003
-0.056122977 -0.060247317 0.43400002
-0.054991513 -0.060247317 0.43400002
-0.053860053 -0.060247317 0.43400002
-0.052728586 -0.060247317 0.43400002
-0.051597118 -0.060247317 0.43400002
-0.050465655 -0.060247317 0.43400002
-0.049334187 -0.060247317 0.43400002
-0.048202723 -0.060247317 0.43400002
-0.047071256 -0.060247317 0.43400002
-0.045939792 -0.060247317 0.43400002
-0.044808324 -0.060247317 0.43400002
-0.043676861 -0.060247317 0.43400002
-0.042545393 -0.060247317 0.43400002
-0.041413929 -0.060247317 0.43400002
-0.040282462 -0.060247317 0.43400002
-0.039150998 -0.060247317 0.43400002
-0.038019534 -0.060247317 0.43400002
-0.036888063 -0.060247317 0.43400002
-0.035756599 -0.060247317 0.43400002
-0.034704916 -0.060386136 0.43500003
-0.033570845 -0.060386136 0.43500003
-0.032436773 -0.060386136 0.43500003
-0.031302702 -0.060386136 0.43500003
-0.030168625 -0.060386136 0.43500003
-0.029034553 -0.060386136 0.43500003
-0.02790048 -0.060386136 0.43500003
-0.026766408 -0.060386136 0.43500003
-0.025632337 -0.060386136 0.43500003
-0.024498262 -0.060386136 0.43500003
-0.01261604 -0.053306378 0.384
-0.011614926 -0.053306378 0.384
-0.010613814 -0.053306378 0.384
-0.0096127018 -0.053306378 0.384
-0.0086115897 -0.053306378 0.384
-0.0076302965 -0.053445201 0.38500002
-0.0066265767 -0.053445201 0.38500002
-0.0056228573 -0.053445201 0.38500002
-0.0046071396 -0.053306378 0.384
-0.0036060272 -0.053306378 0.384
-0.0026049148 -0.053306378 0.384
-0.0016038024 -0.053306378 0.384
-0.00060268998 -0.053306378 0.384
0.00039738492 -0.053167563 0.38300002
0.0013958904 -0.053167563 0.38300002
0.0023881441 -0.053028747 0.38200003
0.0033840425 -0.053028747 0.38200003
0.0043684747 -0.052889924 0.38100001
0.0053476933 -0.052751109 0.38000003
0.0063216975 -0.052612286 0.37900001
0.0072904876 -0.052473471 0.37800002
0.0082540633 -0.052334648 0.377
0.0091879256 -0.052057017 0.37500003
0.010165574 -0.052057017 0.37500003
0.011113507 -0.051918194 0.37400001
0.012088548 -0.051918194 0.37400001
0.01306359 -0.051918194 0.37400001
0.014001097 -0.051779378 0.37300003
0.014973531 -0.051779378 0.37300003
0.015945965 -0.051779378 0.37300003
0.016873043 -0.051640555 0.37200001
0.01784287 -0.051640555 0.37200001
0.018762127 -0.05150174 0.37100002
0.019729348 -0.05150174 0.37100002
0.020640781 -0.051362917 0.37
0.021605395 -0.051362917 0.37
0.022509009 -0.051224101 0.36900002
0.023471015 -0.051224101 0.36900002
0.024366809 -0.051085286 0.36800003
0.025326209 -0.051085286 0.36800003
0.026214179 -0.050946463 0.36700001
0.027974477 -0.050668824 0.36500001
0.028926056 -0.050668824 0.36500001
0.029877635 -0.050668824 0.36500001
0.030913679 -0.050807647 0.36600003
0.031867862 -0.050807647 0.36600003
0.032911725 -0.050946463 0.36700001
0.033960804 -0.051085286 0.36800003
0.035015091 -0.051224101 0.36900002
0.036172096 -0.05150174 0.37100002
0.037139319 -0.05150174 0.37100002
0.038311966 -0.051779378 0.37300003
0.039284401 -0.051779378 0.37300003
0.040364761 -0.051918194 0.37400001
0.04145034 -0.052057017 0.37500003
0.042541128 -0.052195832 0.37600002
0.043521386 -0.052195832 0.37600002
0.04450164 -0.052195832 0.37600002
0.045602858 -0.052334648 0.377
0.04658572 -0.052334648 0.377
0.047568582 -0.052334648 0.377
0.048551444 -0.052334648 0.377
0.04953431 -0.052334648 0.377
0.050517172 -0.052334648 0.377
0.051500034 -0.052334648 0.377
0.052482896 -0.052334648 0.377
0.053465765 -0.052334648 0.377
0.054448627 -0.052334648 0.377
0.055431489 -0.052334648 0.377
0.056414351 -0.052334648 0.377
0.057397213 -0.052334648 0.377
0.058380075 -0.052334648 0.377
0.05936294 -0.052334648 0.377
0.060345802 -0.052334648 0.377
0.073199883 -0.060524955 0.43600002
0.074336559 -0.060524955 0.43600002
0.075473242 -0.060524955 0.43600002
0.076609924 -0.060524955 0.43600002
0.0777466 -0.060524955 0.43600002
0.078883283 -0.060524955 0.43600002
0.080019958 -0.060524955 0.43600002
0.081156641 -0.060524955 0.43600002
0.082482062 -0.060663771 0.43700001
0.083621353 -0.060663771 0.43700001
0.084760636 -0.060663771 0.43700001
0.085899927 -0.060663771 0.43700001
0.08703921 -0.060663771 0.43700001
0.088178493 -0.060663771 0.43700001
0.089317784 -0.060663771 0.43700001
0.090457067 -0.060663771 0.43700001
0.091596358 -0.060663771 0.43700001
0.092735648 -0.060663771 0.43700001
0.093874931 -0.060663771 0.43700001
0.095014222 -0.060663771 0.43700001
0.096153505 -0.060663771 0.43700001
0.097292796 -0.060663771 0.43700001
0.098432079 -0.060663771 0.43700001
0.099571362 -0.060663771 0.43700001
0.10071065 -0.060663771 0.43700001
0.10184994 -0.060663771 0.43700001
0.10298923 -0.060663771 0.43700001
0.10412851 -0.060663771 0.43700001
0.1052678 -0.060663771 0.43700001
0.10640709 -0.060663771 0.43700001
0.10754637 -0.060663771 0.43700001
0.10868566 -0.060663771 0.43700001
0.10982494 -0.060663771 0.43700001
0.11121816 -0.060802594 0.43800002
0.11236005 -0.060802594 0.43800002
0.11350195 -0.060802594 0.43800002
0.11464385 -0.060802594 0.43800002
0.11578573 -0.060802594 0.43800002
0.11666067 -0.060663771 0.43700001
0.11806952 -0.060802594 0.43800002
0.11921142 -0.060802594 0.43800002
0.12035331 -0.060802594 0.43800002
0.12149521 -0.060802594 0.43800002
0.12263709 -0.060802594 0.43800002
0.123779 -0.060802594 0.43800002
0.12492088 -0.060802594 0.43800002
0.12606278 -0.060802594 0.43800002
0.12720467 -0.060802594 0.43800002
0.12834656 -0.060802594 0.43800002
0.12948847 -0.060802594 0.43800002
0.13063036 -0.060802594 0.43800002
0.13177225 -0.060802594 0.43800002
0.13291414 -0.060802594 0.43800002
0.13374998 -0.060663771 0.43700001
0.13488926 -0.060663771 0.43700001
0.13602854 -0.060663771 0.43700001
0.13716783 -0.060663771 0.43700001
0.13830712 -0.060663771 0.43700001
0.13944639 -0.060663771 0.43700001
0.14058569 -0.060663771 0.43700001
0.1420493 -0.060802594 0.43800002
0.14319119 -0.060802594 0.43800002
0.14433309 -0.060802594 0.43800002
0.14547497 -0.060802594 0.43800002
0.14661688 -0.060802594 0.43800002
0.14775877 -0.060802594 0.43800002
0.14890066 -0.060802594 0.43800002
0.15004255 -0.060802594 0.43800002
0.15118445 -0.060802594 0.43800002
0.15232635 -0.060802594 0.43800002
0.15346824 -0.060802594 0.43800002
0.15461013 -0.060802594 0.43800002
0.15575202 -0.060802594 0.43800002
0.15689391 -0.060802594 0.43800002
0.15803581 -0.060802594 0.43800002
0.15917771 -0.060802594 0.43800002
0.1603196 -0.060802594 0.43800002
0.1614615 -0.060802594 0.43800002
0.16260338 -0.060802594 0.43800002
0.16374528 -0.060802594 0.43800002
0.16488717 -0.060802594 0.43800002
0.16602907 -0.060802594 0.43800002
0.16717096 -0.060802594 0.43800002
0.16831286 -0.060802594 0.43800002
0.16945474 -0.060802594 0.43800002
0.17059664 -0.060802594 0.43800002
0.17173854 -0.060802594 0.43800002
0.17288043 -0.060802594 0.43800002
0.17402233 -0.060802594 0.43800002
0.17516422 -0.060802594 0.43800002
0.17630611 -0.060802594 0.43800002
0.177448 -0.060802594 0.43800002
0.17858991 -0.060802594 0.43800002
0.17973179 -0.060802594 0.43800002
0.18087369 -0.060802594 0.43800002
0.18201558 -0.060802594 0.43800002
0.18315747 -0.060802594 0.43800002
0.18429936 -0.060802594 0.43800002
0.18544127 -0.060802594 0.43800002
0.18658315 -0.060802594 0.43800002
0.18772505 -0.060802594 0.43800002
0.18886696 -0.060802594 0.43800002
0.19000883 -0.060802594 0.43800002
0.19115074 -0.060802594 0.43800002
0.19229263 -0.060802594 0.43800002
0.19343452 -0.060802594 0.43800002
0.19457641 -0.060802594 0.43800002
0.19571832 -0.060802594 0.43800002
0.19686019 -0.060802594 0.43800002
0.1980021 -0.060802594 0.43800002
0.19914399 -0.060802594 0.43800002
0.20028588 -0.060802594 0.43800002
0.20142777 -0.060802594 0.43800002
0.20256968 -0.060802594 0.43800002
0.20371157 -0.060802594 0.43800002
0.20485346 -0.060802594 0.43800002
-0.24281895 -0.058571003 0.43000001
-0.24169792 -0.058571003 0.43000001
-0.24057689 -0.058571003 0.43000001
-0.23945583 -0.058571003 0.43000001
-0.2383348 -0.058571003 0.43000001
-0.23721378 -0.058571003 0.43000001
-0.23609272 -0.058571003 0.43000001
-0.23497169 -0.058571003 0.43000001
-0.23385066 -0.058571003 0.43000001
-0.23272963 -0.058571003 0.43000001
-0.23160857 -0.058571003 0.43000001
-0.23048754 -0.058571003 0.43000001
-0.22936651 -0.058571003 0.43000001
-0.22824548 -0.058571003 0.43000001
-0.22712442 -0.058571003 0.43000001
-0.22600339 -0.058571003 0.43000001
-0.22488236 -0.058571003 0.43000001
-0.22376134 -0.058571003 0.43000001
-0.22264028 -0.058571003 0.43000001
-0.22151925 -0.058571003 0.43000001
-0.22039822 -0.058571003 0.43000001
-0.21927716 -0.058571003 0.43000001
-0.21815613 -0.058571003 0.43000001
-0.2170351 -0.058571003 0.43000001
-0.21591407 -0.058571003 0.43000001
-0.21479303 -0.058571003 0.43000001
-0.21367198 -0.058571003 0.43000001
-0.21255095 -0.058571003 0.43000001
-0.21142991 -0.058571003 0.43000001
-0.21030888 -0.058571003 0.43000001
-0.20918784 -0.058571003 0.43000001
-0.20806679 -0.058571003 0.43000001
-0.20694576 -0.058571003 0.43000001
-0.20630339 -0.058707219 0.43100002
-0.20517975 -0.058707219 0.43100002
-0.2040561 -0.058707219 0.43100002
-0.20246162 -0.058571003 0.43000001
-0.20134057 -0.058571003 0.43000001
-0.20068517 -0.058707219 0.43100002
-0.19956152 -0.058707219 0.43100002
-0.19843788 -0.058707219 0.43100002
-0.19731423 -0.058707219 0.43100002
-0.1961906 -0.058707219 0.43100002
-0.19506694 -0.058707219 0.43100002
-0.19394331 -0.058707219 0.43100002
-0.19281967 -0.058707219 0.43100002
-0.19169602 -0.058707219 0.43100002
-0.19057238 -0.058707219 0.43100002
-0.18944873 -0.058707219 0.43100002
-0.18832509 -0.058707219 0.43100002
-0.18720144 -0.058707219 0.43100002
-0.1860778 -0.058707219 0.43100002
-0.18495415 -0.058707219 0.43100002
-0.18383051 -0.058707219 0.43100002
-0.18270686 -0.058707219 0.43100002
-0.18158323 -0.058707219 0.43100002
-0.18087827 -0.058843426 0.43200001
-0.17975201 -0.058843426 0.43200001
-0.17862576 -0.058843426 0.43200001
-0.1774995 -0.058843426 0.43200001
-0.17637326 -0.058843426 0.43200001
-0.175247 -0.058843426 0.43200001
-0.17412075 -0.058843426 0.43200001
-0.17299451 -0.058843426 0.43200001
-0.17186826 -0.058843426 0.43200001
-0.17074201 -0.058843426 0.43200001
-0.16961576 -0.058843426 0.43200001
-0.16887952 -0.058979642 0.43300003
-0.16775067 -0.058979642 0.43300003
-0.16662182 -0.058979642 0.43300003
-0.16549295 -0.058979642 0.43300003
-0.1643641 -0.058979642 0.43300003
-0.16323523 -0.058979642 0.43300003
-0.16210638 -0.058979642 0.43300003
-0.16097751 -0.058979642 0.43300003
-0.15984866 -0.058979642 0.43300003
-0.15871979 -0.058979642 0.43300003
-0.15795489 -0.059115849 0.43400002
-0.15682343 -0.059115849 0.43400002
-0.15569197 -0.059115849 0.43400002
-0.15456049 -0.059115849 0.43400002
-0.15342903 -0.059115849 0.43400002
-0.15229756 -0.059115849 0.43400002
-0.1511661 -0.059115849 0.43400002
-0.15003464 -0.059115849 0.43400002
-0.14890316 -0.059115849 0.43400002
-0.1477717 -0.059115849 0.43400002
-0.14664023 -0.059115849 0.43400002
-0.14550877 -0.059115849 0.43400002
-0.14437731 -0.059115849 0.43400002
-0.14324585 -0.059115849 0.43400002
-0.14211437 -0.059115849 0.43400002
-0.14098291 -0.059115849 0.43400002
-0.13985144 -0.059115849 0.43400002
-0.13871998 -0.059115849 0.43400002
-0.1375885 -0.059115849 0.43400002
-0.13645704 -0.059115849 0.43400002
-0.13532558 -0.059115849 0.43400002
-0.13419411 -0.059115849 0.43400002
-0.13306265 -0.059115849 0.43400002
-0.13193117 -0.059115849 0.43400002
-0.13079971 -0.059115849 0.43400002
-0.12966825 -0.059115849 0.43400002
-0.12853679 -0.059115849 0.43400002
-0.12740532 -0.059115849 0.43400002
-0.12627386 -0.059115849 0.43400002
-0.12543073 -0.059252065 0.43500003
-0.12401093 -0.059115849 0.43400002
-0.12287945 -0.059115849 0.43400002
-0.12174799 -0.059115849 0.43400002
-0.12061653 -0.059115849 0.43400002
-0.11948505 -0.059115849 0.43400002
-0.1183536 -0.059115849 0.43400002
-0.11749222 -0.059252065 0.43500003
-0.11609066 -0.059115849 0.43400002
-0.1149592 -0.059115849 0.43400002
-0.11409001 -0.059252065 0.43500003
-0.11295594 -0.059252065 0.43500003
-0.11182187 -0.059252065 0.43500003
-0.11068779 -0.059252065 0.43500003
-0.10930187 -0.059115849 0.43400002
-0.10817041 -0.059115849 0.43400002
-0.10703894 -0.059115849 0.43400002
-0.10590747 -0.059115849 0.43400002
-0.104776 -0.059115849 0.43400002
-0.10364454 -0.059115849 0.43400002
-0.10251307 -0.059115849 0.43400002
-0.10138161 -0.059115849 0.43400002
-0.10025014 -0.059115849 0.43400002
-0.099118672 -0.059115849 0.43400002
-0.098212987 -0.059252065 0.43500003
-0.097078919 -0.059252065 0.43500003
-0.095724277 -0.059115849 0.43400002
-0.09459281 -0.059115849 0.43400002
-0.09346135 -0.059115849 0.43400002
-0.092329882 -0.059115849 0.43400002
-0.091198415 -0.059115849 0.43400002
-0.090066954 -0.059115849 0.43400002
-0.088935487 -0.059115849 0.43400002
-0.087804019 -0.059115849 0.43400002
-0.086672559 -0.059115849 0.43400002
-0.085541084 -0.059115849 0.43400002
-0.084409617 -0.059115849 0.43400002
-0.083278157 -0.059115849 0.43400002
-0.082146689 -0.059115849 0.43400002
-0.081201896 -0.059252065 0.43500003
-0.080067828 -0.059252065 0.43500003
-0.078933753 -0.059252065 0.43500003
-0.077799685 -0.059252065 0.43500003
-0.07666561 -0.059252065 0.43500003
-0.075531535 -0.059252065 0.43500003
-0.074397467 -0.059252065 0.43500003
-0.073263392 -0.059252065 0.43500003
-0.072129324 -0.059252065 0.43500003
-0.070995241 -0.059252065 0.43500003
-0.069861174 -0.059252065 0.43500003
-0.068727098 -0.059252065 0.43500003
-0.067593023 -0.059252065 0.43500003
-0.066458955 -0.059252065 0.43500003
-0.06532488 -0.059252065 0.43500003
-0.064190812 -0.059252065 0.43500003
-0.063056737 -0.059252065 0.43500003
-0.061922666 -0.059252065 0.43500003
-0.06078859 -0.059252065 0.43500003
-0.059654519 -0.059252065 0.43500003
-0.058520447 -0.059252065 0.43500003
-0.057386376 -0.059252065 0.43500003
-0.056252297 -0.059252065 0.43500003
-0.054991513 -0.059115849 0.43400002
-0.053860053 -0.059115849 0.43400002
-0.052728586 -0.059115849 0.43400002
-0.051597118 -0.059115849 0.43400002
-0.050465655 -0.059115849 0.43400002
-0.049334187 -0.059115849 0.43400002
-0.048202723 -0.059115849 0.43400002
-0.047071256 -0.059115849 0.43400002
-0.045939792 -0.059115849 0.43400002
-0.044808324 -0.059115849 0.43400002
-0.043676861 -0.059115849 0.43400002
-0.042545393 -0.059115849 0.43400002
-0.041413929 -0.059115849 0.43400002
-0.040282462 -0.059115849 0.43400002
-0.039150998 -0.059115849 0.43400002
-0.038019534 -0.059115849 0.43400002
-0.036888063 -0.059115849 0.43400002
-0.035756599 -0.059115849 0.43400002
-0.034625135 -0.059115849 0.43400002
-0.033570845 -0.059252065 0.43500003
-0.032362204 -0.059115849 0.43400002
-0.031230738 -0.059115849 0.43400002
-0.030168625 -0.059252065 0.43500003
-0.029034553 -0.059252065 0.43500003
-0.02790048 -0.059252065 0.43500003
-0.026766408 -0.059252065 0.43500003
-0.025632337 -0.059252065 0.43500003
-0.024498262 -0.059252065 0.43500003
-0.01261604 -0.052305266 0.384
-0.011614926 -0.052305266 0.384
-0.010613814 -0.052305266 0.384
-0.0096127018 -0.052305266 0.384
-0.0086340159 -0.052441482 0.38500002
-0.0076302965 -0.052441482 0.38500002
-0.0066265767 -0.052441482 0.38500002
-0.0056228573 -0.052441482 0.38500002
-0.0046191374 -0.052441482 0.38500002
-0.0036154182 -0.052441482 0.38500002
-0.0026116986 -0.052441482 0.38500002
-0.0016079791 -0.052441482 0.38500002
-0.00060268998 -0.052305266 0.384
0.00039842247 -0.052305266 0.384
0.0013958904 -0.052169058 0.38300002
0.0023943956 -0.052169058 0.38300002
0.0033840425 -0.052032847 0.38200003
0.0043684747 -0.051896635 0.38100001
0.0053617661 -0.051896635 0.38100001
0.0063383779 -0.051760424 0.38000003
0.0073097744 -0.051624209 0.37900001
0.0082759578 -0.051488001 0.37800002
0.0092369271 -0.051351786 0.377
0.010192681 -0.051215578 0.37600002
0.011172938 -0.051215578 0.37600002
0.012120872 -0.051079366 0.37500003
0.01309852 -0.051079366 0.37500003
0.015053818 -0.051079366 0.37500003
0.015988715 -0.050943151 0.37400001
0.0169184 -0.050806943 0.37300003
0.017890835 -0.050806943 0.37300003
0.018812697 -0.050670728 0.37200001
0.019729348 -0.05053452 0.37100002
0.020696567 -0.05053452 0.37100002
0.021663789 -0.05053452 0.37100002
0.022570008 -0.050398305 0.37
0.02353462 -0.050398305 0.37
0.024433022 -0.050262094 0.36900002
0.025463849 -0.050398305 0.37
0.026428463 -0.050398305 0.37
0.028281048 -0.050262094 0.36900002
0.029243054 -0.050262094 0.36900002
0.030286917 -0.050398305 0.37
0.031335995 -0.05053452 0.37100002
0.032303218 -0.05053452 0.37100002
0.033270437 -0.05053452 0.37100002
0.034237657 -0.05053452 0.37100002
0.035299767 -0.050670728 0.37200001
0.037439637 -0.050943151 0.37400001
0.038414679 -0.050943151 0.37400001
0.039495043 -0.051079366 0.37500003
0.04047269 -0.051079366 0.37500003
0.041560873 -0.051215578 0.37600002
0.042654268 -0.051351786 0.377
0.043637134 -0.051351786 0.377
0.044619996 -0.051351786 0.377
0.045602858 -0.051351786 0.377
0.04658572 -0.051351786 0.377
0.047568582 -0.051351786 0.377
0.048551444 -0.051351786 0.377
0.04953431 -0.051351786 0.377
0.050517172 -0.051351786 0.377
0.051500034 -0.051351786 0.377
0.052482896 -0.051351786 0.377
0.053607587 -0.051488001 0.37800002
0.054593056 -0.051488001 0.37800002
0.055578526 -0.051488001 0.37800002
0.056563996 -0.051488001 0.37800002
0.057549465 -0.051488001 0.37800002
0.058534935 -0.051488001 0.37800002
0.059520405 -0.051488001 0.37800002
0.073199883 -0.059388276 0.43600002
0.074336559 -0.059388276 0.43600002
0.075473242 -0.059388276 0.43600002
0.076609924 -0.059388276 0.43600002
0.0777466 -0.059388276 0.43600002
0.078883283 -0.059388276 0.43600002
0.080019958 -0.059388276 0.43600002
0.081342779 -0.059524484 0.43700001
0.082482062 -0.059524484 0.43700001
0.083621353 -0.059524484 0.43700001
0.084760636 -0.059524484 0.43700001
0.085899927 -0.059524484 0.43700001
0.08703921 -0.059524484 0.43700001
0.088178493 -0.059524484 0.43700001
0.089317784 -0.059524484 0.43700001
0.090457067 -0.059524484 0.43700001
0.091596358 -0.059524484 0.43700001
0.092735648 -0.059524484 0.43700001
0.093874931 -0.059524484 0.43700001
0.095014222 -0.059524484 0.43700001
0.096153505 -0.059524484 0.43700001
0.097292796 -0.059524484 0.43700001
0.098432079 -0.059524484 0.43700001
0.099571362 -0.059524484 0.43700001
0.10071065 -0.059524484 0.43700001
0.10184994 -0.059524484 0.43700001
0.10298923 -0.059524484 0.43700001
0.10412851 -0.059524484 0.43700001
0.1052678 -0.059524484 0.43700001
0.10640709 -0.059524484 0.43700001
0.10754637 -0.059524484 0.43700001
0.10868566 -0.059524484 0.43700001
0.10982494 -0.059524484 0.43700001
0.11096424 -0.059524484 0.43700001
0.11210351 -0.059524484 0.43700001
0.11324281 -0.059524484 0.43700001
0.1143821 -0.059524484 0.43700001
0.11552138 -0.059524484 0.43700001
0.11666067 -0.059524484 0.43700001
0.11806952 -0.059660699 0.43800002
0.11921142 -0.059660699 0.43800002
0.12035331 -0.059660699 0.43800002
0.12149521 -0.059660699 0.43800002
0.12263709 -0.059660699 0.43800002
0.123779 -0.059660699 0.43800002
0.12492088 -0.059660699 0.43800002
0.12606278 -0.059660699 0.43800002
0.12720467 -0.059660699 0.43800002
0.12834656 -0.059660699 0.43800002
0.12948847 -0.059660699 0.43800002
0.13063036 -0.059660699 0.43800002
0.13177225 -0.059660699 0.43800002
0.13291414 -0.059660699 0.43800002
0.13374998 -0.059524484 0.43700001
0.13488926 -0.059524484 0.43700001
0.13602854 -0.059524484 0.43700001
0.13716783 -0.059524484 0.43700001
0.13830712 -0.059524484 0.43700001
0.1397655 -0.059660699 0.43800002
0.14090741 -0.059660699 0.43800002
0.1420493 -0.059660699 0.43800002
0.14319119 -0.059660699 0.43800002
0.14433309 -0.059660699 0.43800002
0.14547497 -0.059660699 0.43800002
0.14661688 -0.059660699 0.43800002
0.14775877 -0.059660699 0.43800002
0.14890066 -0.059660699 0.43800002
0.15004255 -0.059660699 0.43800002
0.15118445 -0.059660699 0.43800002
0.15232635 -0.059660699 0.43800002
0.15346824 -0.059660699 0.43800002
0.15461013 -0.059660699 0.43800002
0.15575202 -0.059660699 0.43800002
0.15689391 -0.059660699 0.43800002
0.15803581 -0.059660699 0.43800002
0.15917771 -0.059660699 0.43800002
0.1603196 -0.059660699 0.43800002
0.1614615 -0.059660699 0.43800002
0.16260338 -0.059660699 0.43800002
0.16374528 -0.059660699 0.43800002
0.16488717 -0.059660699 0.43800002
0.16602907 -0.059660699 0.43800002
0.16717096 -0.059660699 0.43800002
0.16831286 -0.059660699 0.43800002
0.16945474 -0.059660699 0.43800002
0.17059664 -0.059660699 0.43800002
0.17173854 -0.059660699 0.43800002
0.17288043 -0.059660699 0.43800002
0.17402233 -0.059660699 0.43800002
0.17516422 -0.059660699 0.43800002
0.17630611 -0.059660699 0.43800002
0.177448 -0.059660699 0.43800002
0.17858991 -0.059660699 0.43800002
0.17973179 -0.059660699 0.43800002
0.18087369 -0.059660699 0.43800002
0.18201558 -0.059660699 0.43800002
0.18315747 -0.059660699 0.43800002
0.18429936 -0.059660699 0.43800002
0.18544127 -0.059660699 0.43800002
0.18658315 -0.059660699 0.43800002
0.18772505 -0.059660699 0.43800002
0.18886696 -0.059660699 0.43800002
0.19000883 -0.059660699 0.43800002
0.19115074 -0.059660699 0.43800002
0.19229263 -0.059660699 0.43800002
0.19343452 -0.059660699 0.43800002
0.19457641 -0.059660699 0.43800002
0.19571832 -0.059660699 0.43800002
0.19686019 -0.059660699 0.43800002
0.1980021 -0.059660699 0.43800002
0.19914399 -0.059660699 0.43800002
0.20028588 -0.059660699 0.43800002
0.20142777 -0.059660699 0.43800002
0.20256968 -0.059660699 0.43800002
0.20371157 -0.059660699 0.43800002
0.20485346 -0.059660699 0.43800002
-0.24281895 -0.057449967 0.43000001
-0.24169792 -0.057449967 0.43000001
-0.24057689 -0.057449967 0.43000001
-0.23945583 -0.057449967 0.43000001
-0.2383348 -0.057449967 0.43000001
-0.23721378 -0.057449967 0.43000001
-0.23609272 -0.057449967 0.43000001
-0.23497169 -0.057449967 0.43000001
-0.23385066 -0.057449967 0.43000001
-0.23272963 -0.057449967 0.43000001
-0.23160857 -0.057449967 0.43000001
-0.23048754 -0.057449967 0.43000001
-0.22936651 -0.057449967 0.43000001
-0.22824548 -0.057449967 0.43000001
-0.22712442 -0.057449967 0.43000001
-0.22600339 -0.057449967 0.43000001
-0.22488236 -0.057449967 0.43000001
-0.22376134 -0.057449967 0.43000001
-0.22264028 -0.057449967 0.43000001
-0.22151925 -0.057449967 0.43000001
-0.22039822 -0.057449967 0.43000001
-0.21927716 -0.057449967 0.43000001
-0.21815613 -0.057449967 0.43000001
-0.2170351 -0.057449967 0.43000001
-0.21591407 -0.057449967 0.43000001
-0.21479303 -0.057449967 0.43000001
-0.21367198 -0.057449967 0.43000001
-0.21255095 -0.057449967 0.43000001
-0.21142991 -0.057449967 0.43000001
-0.21030888 -0.057449967 0.43000001
-0.20918784 -0.057449967 0.43000001
-0.20806679 -0.057449967 0.43000001
-0.20742704 -0.057583574 0.43100002
-0.20630339 -0.057583574 0.43100002
-0.20517975 -0.057583574 0.43100002
-0.2040561 -0.057583574 0.43100002
-0.20293246 -0.057583574 0.43100002
-0.20180881 -0.057583574 0.43100002
-0.20068517 -0.057583574 0.43100002
-0.19956152 -0.057583574 0.43100002
-0.19843788 -0.057583574 0.43100002
-0.19731423 -0.057583574 0.43100002
-0.1961906 -0.057583574 0.43100002
-0.19506694 -0.057583574 0.43100002
-0.19394331 -0.057583574 0.43100002
-0.19281967 -0.057583574 0.43100002
-0.19169602 -0.057583574 0.43100002
-0.19057238 -0.057583574 0.43100002
-0.18944873 -0.057583574 0.43100002
-0.18832509 -0.057583574 0.43100002
-0.18720144 -0.057583574 0.43100002
-0.1860778 -0.057583574 0.43100002
-0.18495415 -0.057583574 0.43100002
-0.18425703 -0.057717178 0.43200001
-0.18270686 -0.057583574 0.43100002
-0.18200453 -0.057717178 0.43200001
-0.18087827 -0.057717178 0.43200001
-0.17975201 -0.057717178 0.43200001
-0.17862576 -0.057717178 0.43200001
-0.1774995 -0.057717178 0.43200001
-0.17637326 -0.057717178 0.43200001
-0.175247 -0.057717178 0.43200001
-0.17412075 -0.057717178 0.43200001
-0.17299451 -0.057717178 0.43200001
-0.17186826 -0.057717178 0.43200001
-0.17074201 -0.057717178 0.43200001
-0.17000839 -0.057850782 0.43300003
-0.1684895 -0.057717178 0.43200001
-0.16736326 -0.057717178 0.43200001
-0.16662182 -0.057850782 0.43300003
-0.16549295 -0.057850782 0.43300003
-0.1643641 -0.057850782 0.43300003
-0.16323523 -0.057850782 0.43300003
-0.16210638 -0.057850782 0.43300003
-0.16097751 -0.057850782 0.43300003
-0.15984866 -0.057850782 0.43300003
-0.15871979 -0.057850782 0.43300003
-0.15759094 -0.057850782 0.43300003
-0.15682343 -0.057984386 0.43400002
-0.15569197 -0.057984386 0.43400002
-0.15456049 -0.057984386 0.43400002
-0.15342903 -0.057984386 0.43400002
-0.15229756 -0.057984386 0.43400002
-0.1511661 -0.057984386 0.43400002
-0.15003464 -0.057984386 0.43400002
-0.14890316 -0.057984386 0.43400002
-0.1477717 -0.057984386 0.43400002
-0.14664023 -0.057984386 0.43400002
-0.14550877 -0.057984386 0.43400002
-0.14437731 -0.057984386 0.43400002
-0.14324585 -0.057984386 0.43400002
-0.14211437 -0.057984386 0.43400002
-0.14098291 -0.057984386 0.43400002
-0.13985144 -0.057984386 0.43400002
-0.13871998 -0.057984386 0.43400002
-0.13727149 -0.057850782 0.43300003
-0.13614263 -0.057850782 0.43300003
-0.13532558 -0.057984386 0.43400002
-0.13419411 -0.057984386 0.43400002
-0.13306265 -0.057984386 0.43400002
-0.13193117 -0.057984386 0.43400002
-0.13079971 -0.057984386 0.43400002
-0.12966825 -0.057984386 0.43400002
-0.12853679 -0.057984386 0.43400002
-0.12740532 -0.057984386 0.43400002
-0.12656482 -0.058117993 0.43500003
-0.12543073 -0.058117993 0.43500003
-0.12429667 -0.058117993 0.43500003
-0.12287945 -0.057984386 0.43400002
-0.12174799 -0.057984386 0.43400002
-0.12061653 -0.057984386 0.43400002
-0.11976037 -0.058117993 0.43500003
-0.1186263 -0.058117993 0.43500003
-0.11749222 -0.058117993 0.43500003
-0.11609066 -0.057984386 0.43400002
-0.1149592 -0.057984386 0.43400002
-0.11382774 -0.057984386 0.43400002
-0.11269626 -0.057984386 0.43400002
-0.11182187 -0.058117993 0.43500003
-0.11043333 -0.057984386 0.43400002
-0.10930187 -0.057984386 0.43400002
-0.10817041 -0.057984386 0.43400002
-0.10703894 -0.057984386 0.43400002
-0.10590747 -0.057984386 0.43400002
-0.104776 -0.057984386 0.43400002
-0.10364454 -0.057984386 0.43400002
-0.10251307 -0.057984386 0.43400002
-0.10138161 -0.057984386 0.43400002
-0.10025014 -0.057984386 0.43400002
-0.099118672 -0.057984386 0.43400002
-0.097987212 -0.057984386 0.43400002
-0.096855745 -0.057984386 0.43400002
-0.095724277 -0.057984386 0.43400002
-0.09459281 -0.057984386 0.43400002
-0.09346135 -0.057984386 0.43400002
-0.092329882 -0.057984386 0.43400002
-0.091198415 -0.057984386 0.43400002
-0.090066954 -0.057984386 0.43400002
-0.088935487 -0.057984386 0.43400002
-0.087804019 -0.057984386 0.43400002
-0.086672559 -0.057984386 0.43400002
-0.085541084 -0.057984386 0.43400002
-0.084409617 -0.057984386 0.43400002
-0.083278157 -0.057984386 0.43400002
-0.082335971 -0.058117993 0.43500003
-0.081201896 -0.058117993 0.43500003
-0.080067828 -0.058117993 0.43500003
-0.078933753 -0.058117993 0.43500003
-0.077799685 -0.058117993 0.43500003
-0.07666561 -0.058117993 0.43500003
-0.075531535 -0.058117993 0.43500003
-0.074397467 -0.058117993 0.43500003
-0.073263392 -0.058117993 0.43500003
-0.072129324 -0.058117993 0.43500003
-0.070995241 -0.058117993 0.43500003
-0.069861174 -0.058117993 0.43500003
-0.068727098 -0.058117993 0.43500003
-0.067593023 -0.058117993 0.43500003
-0.066458955 -0.058117993 0.43500003
-0.06532488 -0.058117993 0.43500003
-0.064190812 -0.058117993 0.43500003
-0.063056737 -0.058117993 0.43500003
-0.061922666 -0.058117993 0.43500003
-0.06078859 -0.058117993 0.43500003
-0.059654519 -0.058117993 0.43500003
-0.058520447 -0.058117993 0.43500003
-0.057386376 -0.058117993 0.43500003
-0.056252297 -0.058117993 0.43500003
-0.055118226 -0.058117993 0.43500003
-0.053860053 -0.057984386 0.43400002
-0.052728586 -0.057984386 0.43400002
-0.051597118 -0.057984386 0.43400002
-0.050465655 -0.057984386 0.43400002
-0.049334187 -0.057984386 0.43400002
-0.048202723 -0.057984386 0.43400002
-0.047071256 -0.057984386 0.43400002
-0.045939792 -0.057984386 0.43400002
-0.044808324 -0.057984386 0.43400002
-0.043676861 -0.057984386 0.43400002
-0.042545393 -0.057984386 0.43400002
-0.041413929 -0.057984386 0.43400002
-0.040282462 -0.057984386 0.43400002
-0.039150998 -0.057984386 0.43400002
-0.038019534 -0.057984386 0.43400002
-0.036888063 -0.057984386 0.43400002
-0.035756599 -0.057984386 0.43400002
-0.034625135 -0.057984386 0.43400002
-0.033570845 -0.058117993 0.43500003
-0.032362204 -0.057984386 0.43400002
-0.031230738 -0.057984386 0.43400002
-0.030168625 -0.058117993 0.43500003
-0.029034553 -0.058117993 0.43500003
-0.02790048 -0.058117993 0.43500003
-0.026766408 -0.058117993 0.43500003
-0.025632337 -0.058117993 0.43500003
-0.024498262 -0.058117993 0.43500003
-0.02336419 -0.058117993 0.43500003
-0.01261604 -0.051304154 0.384
-0.011614926 -0.051304154 0.384
-0.010613814 -0.051304154 0.384
-0.0096127018 -0.051304154 0.384
-0.0086115897 -0.051304154 0.384
-0.0076302965 -0.051437762 0.38500002
-0.0066265767 -0.051437762 0.38500002
-0.0056228573 -0.051437762 0.38500002
-0.0046191374 -0.051437762 0.38500002
-0.0036154182 -0.051437762 0.38500002
-0.0026116986 -0.051437762 0.38500002
-0.0016079791 -0.051437762 0.38500002
-0.00060425949 -0.051437762 0.38500002
0.00039842247 -0.051304154 0.384
0.0013995349 -0.051304154 0.384
0.0023943956 -0.051170554 0.38300002
0.0033929013 -0.051170554 0.38300002
0.0043799407 -0.05103695 0.38200003
0.0053617661 -0.050903343 0.38100001
0.0063550575 -0.050903343 0.38100001
0.0073290616 -0.050769739 0.38000003
0.0082978513 -0.050636135 0.37900001
0.0092614284 -0.050502531 0.37800002
0.010219789 -0.050368924 0.377
0.011202653 -0.050368924 0.377
0.012153193 -0.05023532 0.37600002
0.013133449 -0.05023532 0.37600002
0.014113706 -0.05023532 0.37600002
0.015053818 -0.05010172 0.37500003
0.019782526 -0.049700901 0.37200001
0.020752354 -0.049700901 0.37200001
0.021663789 -0.049567297 0.37100002
0.02263101 -0.049567297 0.37100002
0.02359823 -0.049567297 0.37100002
0.024565451 -0.049567297 0.37100002
0.025532672 -0.049567297 0.37100002
0.026499892 -0.049567297 0.37100002
0.027467113 -0.049567297 0.37100002
0.028434332 -0.049567297 0.37100002
0.029401552 -0.049567297 0.37100002
0.030450631 -0.049700901 0.37200001
0.031504925 -0.049834508 0.37300003
0.032477356 -0.049834508 0.37300003
0.03353947 -0.049968112 0.37400001
0.034514509 -0.049968112 0.37400001
0.035584446 -0.05010172 0.37500003
0.037639849 -0.05023532 0.37600002
0.038620107 -0.05023532 0.37600002
0.039600361 -0.05023532 0.37600002
0.040688541 -0.050368924 0.377
0.041671403 -0.050368924 0.377
0.042654268 -0.050368924 0.377
0.043752883 -0.050502531 0.37800002
0.044738352 -0.050502531 0.37800002
0.045723822 -0.050502531 0.37800002
0.046709292 -0.050502531 0.37800002
0.047694761 -0.050502531 0.37800002
0.048680231 -0.050502531 0.37800002
0.04953431 -0.050368924 0.377
0.050517172 -0.050368924 0.377
0.051500034 -0.050368924 0.377
0.05262211 -0.050502531 0.37800002
0.053607587 -0.050502531 0.37800002
0.054593056 -0.050502531 0.37800002
0.055578526 -0.050502531 0.37800002
0.056563996 -0.050502531 0.37800002
0.057549465 -0.050502531 0.37800002
0.058534935 -0.050502531 0.37800002
0.0720632 -0.058251597 0.43600002
0.073199883 -0.058251597 0.43600002
0.074336559 -0.058251597 0.43600002
0.075473242 -0.058251597 0.43600002
0.076609924 -0.058251597 0.43600002
0.0777466 -0.058251597 0.43600002
0.079064205 -0.058385197 0.43700001
0.080203488 -0.058385197 0.43700001
0.081342779 -0.058385197 0.43700001
0.082482062 -0.058385197 0.43700001
0.083621353 -0.058385197 0.43700001
0.084760636 -0.058385197 0.43700001
0.085899927 -0.058385197 0.43700001
0.08703921 -0.058385197 0.43700001
0.088178493 -0.058385197 0.43700001
0.089317784 -0.058385197 0.43700001
0.090457067 -0.058385197 0.43700001
0.091596358 -0.058385197 0.43700001
0.092735648 -0.058385197 0.43700001
0.093874931 -0.058385197 0.43700001
0.095014222 -0.058385197 0.43700001
0.096153505 -0.058385197 0.43700001
0.097292796 -0.058385197 0.43700001
0.098432079 -0.058385197 0.43700001
0.099571362 -0.058385197 0.43700001
0.10071065 -0.058385197 0.43700001
0.10184994 -0.058385197 0.43700001
0.10298923 -0.058385197 0.43700001
0.10412851 -0.058385197 0.43700001
0.1052678 -0.058385197 0.43700001
0.10640709 -0.058385197 0.43700001
0.10754637 -0.058385197 0.43700001
0.10868566 -0.058385197 0.43700001
0.10982494 -0.058385197 0.43700001
0.11096424 -0.058385197 0.43700001
0.11210351 -0.058385197 0.43700001
0.11324281 -0.058385197 0.43700001
0.1143821 -0.058385197 0.43700001
0.11552138 -0.058385197 0.43700001
0.11666067 -0.058385197 0.43700001
0.11806952 -0.058518805 0.43800002
0.11921142 -0.058518805 0.43800002
0.12035331 -0.058518805 0.43800002
0.12149521 -0.058518805 0.43800002
0.12263709 -0.058518805 0.43800002
0.123779 -0.058518805 0.43800002
0.12492088 -0.058518805 0.43800002
0.12606278 -0.058518805 0.43800002
0.12720467 -0.058518805 0.43800002
0.12834656 -0.058518805 0.43800002
0.12948847 -0.058518805 0.43800002
0.13063036 -0.058518805 0.43800002
0.13177225 -0.058518805 0.43800002
0.13291414 -0.058518805 0.43800002
0.13405605 -0.058518805 0.43800002
0.13519794 -0.058518805 0.43800002
0.13633983 -0.058518805 0.43800002
0.13748172 -0.058518805 0.43800002
0.13862361 -0.058518805 0.43800002
0.1397655 -0.058518805 0.43800002
0.14090741 -0.058518805 0.43800002
0.1420493 -0.058518805 0.43800002
0.14319119 -0.058518805 0.43800002
0.14433309 -0.058518805 0.43800002
0.14547497 -0.058518805 0.43800002
0.14661688 -0.058518805 0.43800002
0.14775877 -0.058518805 0.43800002
0.14890066 -0.058518805 0.43800002
0.15004255 -0.058518805 0.43800002
0.15118445 -0.058518805 0.43800002
0.15232635 -0.058518805 0.43800002
0.15346824 -0.058518805 0.43800002
0.15461013 -0.058518805 0.43800002
0.15575202 -0.058518805 0.43800002
0.15689391 -0.058518805 0.43800002
0.15803581 -0.058518805 0.43800002
0.15917771 -0.058518805 0.43800002
0.1603196 -0.058518805 0.43800002
0.1614615 -0.058518805 0.43800002
0.16260338 -0.058518805 0.43800002
0.16374528 -0.058518805 0.43800002
0.16488717 -0.058518805 0.43800002
0.16602907 -0.058518805 0.43800002
0.16717096 -0.058518805 0.43800002
0.16831286 -0.058518805 0.43800002
0.16945474 -0.058518805 0.43800002
0.17059664 -0.058518805 0.43800002
0.17173854 -0.058518805 0.43800002
0.17288043 -0.058518805 0.43800002
0.17402233 -0.058518805 0.43800002
0.17516422 -0.058518805 0.43800002
0.17630611 -0.058518805 0.43800002
0.177448 -0.058518805 0.43800002
0.17858991 -0.058518805 0.43800002
0.17973179 -0.058518805 0.43800002
0.18087369 -0.058518805 0.43800002
0.18201558 -0.058518805 0.43800002
0.18315747 -0.058518805 0.43800002
0.18429936 -0.058518805 0.43800002
0.18544127 -0.058518805 0.43800002
0.18658315 -0.058518805 0.43800002
0.18772505 -0.058518805 0.43800002
0.18886696 -0.058518805 0.43800002
0.19000883 -0.058518805 0.43800002
0.19115074 -0.058518805 0.43800002
0.19229263 -0.058518805 0.43800002
0.19343452 -0.058518805 0.43800002
0.19457641 -0.058518805 0.43800002
0.19571832 -0.058518805 0.43800002
0.19686019 -0.058518805 0.43800002
0.1980021 -0.058518805 0.43800002
0.19914399 -0.058518805 0.43800002
0.20028588 -0.058518805 0.43800002
0.20142777 -0.058518805 0.43800002
0.20256968 -0.058518805 0.43800002
0.20371157 -0.058518805 0.43800002
0.20485346 -0.058518805 0.43800002
-0.24281895 -0.05632893 0.43000001
-0.24169792 -0.05632893 0.43000001
-0.24057689 -0.05632893 0.43000001
-0.23945583 -0.05632893 0.43000001
-0.2383348 -0.05632893 0.43000001
-0.23721378 -0.05632893 0.43000001
-0.23609272 -0.05632893 0.43000001
-0.23497169 -0.05632893 0.43000001
-0.23385066 -0.05632893 0.43000001
-0.23272963 -0.05632893 0.43000001
-0.23160857 -0.05632893 0.43000001
-0.23048754 -0.05632893 0.43000001
-0.22936651 -0.05632893 0.43000001
-0.22824548 -0.05632893 0.43000001
-0.22712442 -0.05632893 0.43000001
-0.22600339 -0.05632893 0.43000001
-0.22488236 -0.05632893 0.43000001
-0.22376134 -0.05632893 0.43000001
-0.22264028 -0.05632893 0.43000001
-0.22151925 -0.05632893 0.43000001
-0.22039822 -0.05632893 0.43000001
-0.21927716 -0.05632893 0.43000001
-0.21815613 -0.05632893 0.43000001
-0.2170351 -0.05632893 0.43000001
-0.21591407 -0.05632893 0.43000001
-0.21479303 -0.05632893 0.43000001
-0.21367198 -0.05632893 0.43000001
-0.21255095 -0.05632893 0.43000001
-0.21142991 -0.05632893 0.43000001
-0.21030888 -0.05632893 0.43000001
-0.20918784 -0.05632893 0.43000001
-0.20855068 -0.05645993 0.43100002
-0.20742704 -0.05645993 0.43100002
-0.20630339 -0.05645993 0.43100002
-0.20517975 -0.05645993 0.43100002
-0.2040561 -0.05645993 0.43100002
-0.20293246 -0.05645993 0.43100002
-0.20180881 -0.05645993 0.43100002
-0.20068517 -0.05645993 0.43100002
-0.19956152 -0.05645993 0.43100002
-0.19843788 -0.05645993 0.43100002
-0.19731423 -0.05645993 0.43100002
-0.1961906 -0.05645993 0.43100002
-0.19506694 -0.05645993 0.43100002
-0.19394331 -0.05645993 0.43100002
-0.19281967 -0.05645993 0.43100002
-0.19169602 -0.05645993 0.43100002
-0.19057238 -0.05645993 0.43100002
-0.18944873 -0.05645993 0.43100002
-0.18832509 -0.05645993 0.43100002
-0.18720144 -0.05645993 0.43100002
-0.1860778 -0.05645993 0.43100002
-0.18538328 -0.056590926 0.43200001
-0.18425703 -0.056590926 0.43200001
-0.18313077 -0.056590926 0.43200001
-0.18200453 -0.056590926 0.43200001
-0.18087827 -0.056590926 0.43200001
-0.17975201 -0.056590926 0.43200001
-0.17862576 -0.056590926 0.43200001
-0.1774995 -0.056590926 0.43200001
-0.17637326 -0.056590926 0.43200001
-0.175247 -0.056590926 0.43200001
-0.17412075 -0.056590926 0.43200001
-0.17299451 -0.056590926 0.43200001
-0.17226611 -0.056721926 0.43300003
-0.17113724 -0.056721926 0.43300003
-0.16961576 -0.056590926 0.43200001
-0.16887952 -0.056721926 0.43300003
-0.16775067 -0.056721926 0.43300003
-0.16662182 -0.056721926 0.43300003
-0.16549295 -0.056721926 0.43300003
-0.1643641 -0.056721926 0.43300003
-0.16323523 -0.056721926 0.43300003
-0.16210638 -0.056721926 0.43300003
-0.16097751 -0.056721926 0.43300003
-0.15984866 -0.056721926 0.43300003
-0.15871979 -0.056721926 0.43300003
-0.15795489 -0.056852922 0.43400002
-0.15682343 -0.056852922 0.43400002
-0.15569197 -0.056852922 0.43400002
-0.15456049 -0.056852922 0.43400002
-0.15342903 -0.056852922 0.43400002
-0.15229756 -0.056852922 0.43400002
-0.1511661 -0.056852922 0.43400002
-0.15003464 -0.056852922 0.43400002
-0.14890316 -0.056852922 0.43400002
-0.1477717 -0.056852922 0.43400002
-0.14664023 -0.056852922 0.43400002
-0.14550877 -0.056852922 0.43400002
-0.14437731 -0.056852922 0.43400002
-0.14324585 -0.056852922 0.43400002
-0.14211437 -0.056852922 0.43400002
-0.14065807 -0.056721926 0.43300003
-0.1395292 -0.056721926 0.43300003
-0.13840035 -0.056721926 0.43300003
-0.13727149 -0.056721926 0.43300003
