# .PCD v0.7 - Point Cloud Data file format
VERSION 0.7
FIELDS x y z
SIZE 4 4 4
TYPE F F F
COUNT 1 1 1
WIDTH 1
HEIGHT 263
VIEWPOINT 0 0 0 1 0 0 0
POINTS 263
DATA ascii
-0.010471433 -0.080905385 0.42637867
-0.00366899 -0.081259489 0.42422688
0.0011185557 -0.082002401 0.42255098
0.023040026 -0.080034703 0.42350283
-0.011700921 -0.07537543 0.42841434
-0.0052911565 -0.075046532 0.42535996
0.0045801941 -0.074596412 0.42305607
0.015293951 -0.074525446 0.42361119
0.024879647 -0.074856691 0.42479274
0.031621695 -0.074016832 0.42470339
-0.012635011 -0.063857056 0.42906609
-0.0051340153 -0.065047383 0.4257656
0.0048455135 -0.065114699 0.4245683
0.014830333 -0.065094754 0.42433304
0.025114099 -0.064758055 0.42474103
0.032649234 -0.064989895 0.42520297
-0.010995507 -0.055904251 0.42919815
-0.0051120957 -0.055176478 0.42694405
0.0048947167 -0.054815657 0.42559129
0.015174613 -0.055142194 0.42476204
0.025479482 -0.054840449 0.42535216
0.032994244 -0.055571787 0.42561722
-0.0040961765 -0.045434713 0.42835283
0.0050989138 -0.045158498 0.42641258
0.014705344 -0.045018714 0.42532295
0.024927704 -0.045056731 0.42667857
0.032659877 -0.044678204 0.42714414
-0.0026503415 -0.035636917 0.42912751
0.0051620537 -0.035196982 0.42737171
0.014995438 -0.035272874 0.4264977
0.023904156 -0.035915487 0.42859244
0.032899268 -0.038506325 0.42940551
-0.0018546236 -0.024934245 0.42917487
0.0051095723 -0.025613267 0.42762569
0.014672779 -0.02484674 0.42703158
0.023634426 -0.024176678 0.42907253
0.033272624 -0.022525774 0.42938396
-0.0013983808 -0.019103078 0.42946789
0.0054174098 -0.015712524 0.42778432
0.014995956 -0.014747957 0.42610544
0.025070865 -0.015321198 0.42677143
0.032377224 -0.016400997 0.42743701
0.0063180202 -0.0091632726 0.42831707
0.013084359 -0.0092474809 0.42636603
-0.02086243 -0.071741663 0.4357993
-0.016262501 -0.073621847 0.43236852
-0.021657838 -0.065520711 0.4350262
-0.01699779 -0.065315269 0.43244112
-0.014009057 -0.055442784 0.43406957
-0.011974317 -0.0448897 0.43501034
-0.0085786143 -0.043857723 0.43084952
-0.011664152 -0.034943823 0.43708849
-0.0076071187 -0.035012107 0.4323256
0.028045438 -0.033425827 0.43062714
0.033876389 -0.03360467 0.43144917
-0.011356885 -0.025853906 0.43785611
-0.0068700127 -0.024765369 0.43330273
0.027560519 -0.027014559 0.43060562
0.033964783 -0.027176499 0.43112418
-0.0054740789 -0.014776233 0.43493003
0.0008309409 -0.012583936 0.43080321
-0.0031688677 -0.0086478796 0.43442956
0.0017188212 -0.0086141648 0.43141359
-0.015090181 -0.054087963 0.44463918
-0.015105924 -0.044915959 0.44418278
-0.015549788 -0.034762058 0.44435033
-0.015165925 -0.024829974 0.44355211
-0.011826418 -0.01563587 0.44443187
-0.014881104 -0.061153136 0.45968738
-0.015313698 -0.054790236 0.4550755
-0.016490893 -0.04438429 0.4541539
-0.017517358 -0.035076123 0.45458701
-0.016688082 -0.024541723 0.45257407
-0.013346645 -0.016349176 0.45322821
-0.014063992 -0.061035518 0.46566468
-0.015317935 -0.055188663 0.46431103
-0.015509089 -0.045040093 0.46415842
-0.016413003 -0.036486436 0.46483356
-0.013847038 -0.020965844 0.46533009
-0.012102753 -0.017191736 0.46406794
-0.0095809251 -0.013595812 0.46341595
-0.013682583 -0.061822735 0.47522658
-0.014634557 -0.055156723 0.47468352
-0.014102022 -0.043442935 0.47511095
-0.014325675 -0.035094723 0.47598118
-0.013155186 -0.024901748 0.47390673
-0.011192004 -0.018585049 0.475023
-0.0086930096 -0.015126772 0.47140265
-0.013187566 -0.063818522 0.48494446
-0.0095181614 -0.069415897 0.48601747
-0.01379999 -0.055410516 0.48517922
-0.012608394 -0.045920279 0.48502439
-0.012539125 -0.033824351 0.48666963
-0.011814568 -0.025362318 0.48635966
-0.010167077 -0.019498855 0.48710233
-0.0084474869 -0.017545342 0.48775488
-0.01148279 -0.070861131 0.49846086
-0.0084145879 -0.072295241 0.49495584
-0.014549632 -0.06493637 0.49486277
-0.015001486 -0.054630052 0.49543992
-0.013732746 -0.04526075 0.49544853
-0.014862825 -0.034660745 0.49577841
-0.014776736 -0.024685999 0.49438226
-0.012721585 -0.018199852 0.49622408
-0.0054916567 -0.015960379 0.49513236
0.00084999204 -0.01488677 0.49277478
-0.012013773 -0.082179531 0.50874829
-0.0085697407 -0.082887158 0.50743186
-0.014494764 -0.074759886 0.50630158
-0.0079518175 -0.076671623 0.50256294
-0.020696625 -0.061922397 0.50940722
-0.018092768 -0.065255776 0.50436687
-0.020566469 -0.056442674 0.50793529
-0.018627189 -0.054538455 0.50356311
-0.017825138 -0.044928849 0.50457829
-0.020491082 -0.034518909 0.50928038
-0.018656941 -0.03556218 0.50440049
-0.020192821 -0.025967097 0.50995576
-0.018588701 -0.024962429 0.50393313
-0.01521314 -0.016126722 0.50569367
-0.005513092 -0.013915142 0.50547791
0.004024148 -0.014522912 0.50616258
-0.0053638127 -0.011276364 0.51172298
-0.0038212156 -0.073577866 0.41866201
0.0048633646 -0.073909238 0.41781506
0.015255808 -0.073140033 0.4149693
0.025037363 -0.073561251 0.41641468
0.031336922 -0.074463077 0.41901439
-0.0047604516 -0.064642571 0.41835308
0.0049011684 -0.064966537 0.41861874
0.015102269 -0.065027311 0.41799092
0.024838919 -0.065584786 0.41844901
0.031287111 -0.06712383 0.41958728
-0.010171741 -0.057736609 0.41904795
-0.0047152466 -0.057962086 0.41923502
0.0056675184 -0.056412939 0.41944268
0.013210224 -0.056220215 0.41967821
0.021197755 -0.05916924 0.41970903
-0.010254424 -0.034659036 0.419599
-0.009476346 -0.032518737 0.4197976
-0.010521542 -0.027936419 0.41920048
-0.0089601846 -0.025024796 0.41966027
0.0094354674 -0.023401041 0.41957235
0.012138098 -0.021845657 0.41960573
-0.010644019 -0.01727199 0.41975155
-0.0089052068 -0.018553467 0.4197509
0.0082891602 -0.0179909 0.41943529
0.01215656 -0.017975071 0.41951767
0.034677483 -0.074031554 0.42349628
0.026815724 -0.061090555 0.420454
0.033884037 -0.064800411 0.42377383
-0.011582937 -0.05248569 0.42193782
-0.0053846892 -0.053061228 0.42125717
0.0036886756 -0.052205298 0.42050862
0.01634364 -0.054181494 0.42042905
0.025216602 -0.054907601 0.42151827
0.033190031 -0.05514726 0.42513835
-0.011416444 -0.045605004 0.42245346
-0.0051622093 -0.044986766 0.4222894
0.0050375648 -0.045063879 0.42131174
0.014949306 -0.045140803 0.42105278
0.02502208 -0.044911329 0.4217788
0.033301666 -0.044919003 0.42504197
-0.010679041 -0.03895269 0.42069873
-0.00490453 -0.034848303 0.42120618
0.004964557 -0.034948759 0.42117608
0.015064909 -0.035024412 0.42122099
0.025199002 -0.034889746 0.42167044
0.033243451 -0.03512568 0.42502221
-0.0041331584 -0.02518584 0.4216575
0.0049774558 -0.02751909 0.4219147
0.015705435 -0.025611507 0.42065448
0.025266992 -0.024958154 0.42170888
0.032751981 -0.025217021 0.42558327
-0.010568548 -0.013939638 0.42096949
-0.0049624252 -0.014933247 0.42155275
0.0045478353 -0.014312232 0.42163241
0.015477546 -0.014328988 0.42198375
0.025023049 -0.014994927 0.42283151
0.032378398 -0.015003447 0.42600054
-0.0038563984 -0.0077882288 0.4227536
0.0051406603 -0.0062169526 0.42512912
0.014595062 -0.0066983849 0.4276163
0.025559599 -0.0073546851 0.42793685
0.031530183 -0.0072768694 0.42861593
0.0358999 -0.072708905 0.43465301
0.035522979 -0.065039918 0.43507156
0.03540856 -0.055346534 0.43482238
0.03587418 -0.045184962 0.4350467
0.0355427 -0.034906916 0.43451986
0.034452576 -0.024767626 0.43477121
0.034591239 -0.014994397 0.43465117
0.01773103 -0.003151495 0.43082869
0.024684874 -0.0029673607 0.43083546
0.033926476 -0.0055594216 0.43300891
0.035874486 -0.072348781 0.44513723
0.035585318 -0.064535595 0.44505939
0.036282212 -0.054819405 0.44520986
0.036746867 -0.045436662 0.44499037
0.035036508 -0.035188455 0.4451665
0.034597099 -0.024598047 0.44532633
0.035054527 -0.014887872 0.44574508
0.035160631 -0.0087627284 0.44466934
0.036571961 -0.072454013 0.45449415
0.036987718 -0.06493783 0.45436564
0.037659038 -0.055230062 0.4543623
0.037027385 -0.044555448 0.45480856
0.03592214 -0.034724589 0.45505273
0.036644321 -0.025150768 0.45493764
0.036416415 -0.015679559 0.4542819
0.032826196 -0.0084473332 0.45607603
0.035761099 -0.074409179 0.46494943
0.037150268 -0.065091372 0.46469802
0.037546366 -0.055018488 0.46444052
0.03693258 -0.04458946 0.464656
0.037676606 -0.034901902 0.46372572
0.037646119 -0.025035148 0.4645879
0.035685953 -0.01457455 0.46469057
0.0317844 -0.0091218725 0.46159613
0.034573503 -0.075148754 0.47516799
0.0357517 -0.064480118 0.4751043
0.035897464 -0.054737482 0.47506195
0.035831165 -0.04503211 0.47511217
0.036336709 -0.035233647 0.47489852
0.035849515 -0.02487338 0.47484419
0.033724602 -0.014483763 0.47534168
0.028816551 -0.0093995035 0.47742549
0.025788635 -0.086986274 0.48792109
0.031343564 -0.081903815 0.48658168
0.033238478 -0.074701384 0.48628959
0.034036495 -0.065141007 0.48570856
0.034493811 -0.054992806 0.48502654
0.034401018 -0.045377407 0.48531437
0.034404296 -0.03485046 0.485919
0.033850465 -0.023938699 0.48520625
0.029549234 -0.010133931 0.48646978
0.032468449 -0.014559398 0.48532498
0.025781602 -0.0087992633 0.48632699
0.018374957 -0.092175603 0.49685413
0.022078551 -0.09088181 0.49632153
0.026661763 -0.087542348 0.49487123
0.031436108 -0.08226265 0.49534252
0.03268617 -0.075654812 0.49594438
0.032955196 -0.065085918 0.49523938
0.033622507 -0.055072464 0.49573362
0.033155147 -0.044918649 0.49536601
0.032799765 -0.03445806 0.49572572
0.032550976 -0.024943156 0.49483287
0.031831052 -0.014500362 0.49563906
0.01697349 -0.0075602271 0.4976584
0.025734616 -0.0082576331 0.49493164
0.029059593 -0.088205852 0.50332797
0.035747938 -0.074993744 0.50552839
0.035301261 -0.065173127 0.50611126
0.036222249 -0.054872509 0.50589603
0.035115533 -0.045042284 0.50619942
0.034923501 -0.035163853 0.5063566
0.033184312 -0.025138119 0.50586742
0.034061722 -0.01477574 0.50552553
0.0085184947 -0.0055224039 0.50801796
0.014769855 -0.0055962349 0.50558949
0.025336456 -0.0063813776 0.50549686
0.032574616 -0.0088568507 0.50703698
