# .PCD v0.7 - Point Cloud Data file format
VERSION 0.7
FIELDS x y z
SIZE 4 4 4
TYPE F F F
COUNT 1 1 1
WIDTH 1405
HEIGHT 1
VIEWPOINT 0 0 0 1 0 0 0
POINTS 1405
DATA ascii
-0.21529438 0.025065286 0.51471061
-0.20532571 0.025187137 0.51631665
-0.19496575 0.024877166 0.51476574
-0.18488514 0.024687586 0.51418513
-0.17499991 0.02486961 0.5159725
-0.16533405 0.024998924 0.51810318
-0.1550208 0.025216512 0.51829535
-0.14470316 0.025269145 0.51761681
-0.13489114 0.025088228 0.51759386
-0.12510066 0.02524431 0.5180136
-0.11496825 0.024995731 0.51756608
-0.10464798 0.025180332 0.51613015
-0.094946176 0.025212778 0.51533496
-0.085034579 0.024874652 0.51549286
-0.075178832 0.025108563 0.51640326
-0.065174155 0.024792979 0.51600081
-0.054943617 0.024800641 0.51424295
-0.0449537 0.024737395 0.51459235
-0.034959592 0.02492922 0.51572281
-0.024908194 0.024789063 0.51653326
-0.015099753 0.024988309 0.51764172
-0.0050727054 0.025026575 0.51744801
0.0049660467 0.024907036 0.51716483
0.014951125 0.024889387 0.51711369
0.025105411 0.024884626 0.51724809
0.035127223 0.024781108 0.51787502
0.045000061 0.024891714 0.51845658
0.055175785 0.024875127 0.51781529
0.06493286 0.024850162 0.51753563
0.074912474 0.025057102 0.51819956
0.085002854 0.024976285 0.5186789
0.094924197 0.02488761 0.51901317
0.10491164 0.024937687 0.51891929
0.11491055 0.024797982 0.51895314
0.12466159 0.024430124 0.51966929
0.13591214 0.024355873 0.519283
0.14499335 0.024814544 0.51885951
0.15496634 0.024824748 0.51928121
0.16226178 0.026429549 0.51985961
0.17612685 0.025081143 0.51918262
0.18486746 0.025032392 0.51883382
0.19403416 0.022959439 0.51970983
0.20565738 0.024671115 0.51946211
0.21474071 0.025049506 0.51941532
0.22239901 0.024968855 0.51970953
0.24653777 0.023893878 0.51959091
0.25512043 0.024213405 0.51945412
0.26482177 0.024196954 0.51956707
0.27421507 0.024179943 0.51974559
0.28642675 0.020948546 0.51973963
0.29542327 0.024459891 0.51868302
0.30056515 0.021803634 0.51915002
-0.35335919 0.035845723 0.51232481
-0.34544793 0.034954064 0.51350909
-0.33528522 0.03500345 0.51410627
-0.32535735 0.034823891 0.51359195
-0.31514072 0.034815121 0.51331109
-0.30494848 0.034868769 0.51386964
-0.29530248 0.035228956 0.5150308
-0.28522849 0.034956589 0.5150764
-0.27473739 0.035123441 0.51371968
-0.26465499 0.03515178 0.51247948
-0.25484431 0.035315197 0.51271564
-0.24528851 0.035128992 0.51396579
-0.23498449 0.03515904 0.51367605
-0.22486401 0.034881376 0.51289654
-0.2147288 0.034644563 0.51355875
-0.20510879 0.035170227 0.51524305
-0.19517612 0.035238758 0.51527321
-0.18487944 0.034688972 0.5153777
-0.175034 0.034903008 0.51639062
-0.16494268 0.034754701 0.51621038
-0.15489221 0.034991641 0.51553494
-0.14481142 0.035265096 0.51580757
-0.13509358 0.03522861 0.51776159
-0.12513928 0.035064135 0.51869076
-0.11490911 0.034940686 0.5174284
-0.10476852 0.03520143 0.51548344
-0.094930843 0.034812421 0.51487511
-0.084864691 0.034973823 0.51504678
-0.074943453 0.035073124 0.5159235
-0.064931996 0.034977715 0.51649344
-0.054663636 0.03504926 0.51549137
-0.044800211 0.034722485 0.5154869
-0.034952804 0.034923691 0.51605213
-0.024984162 0.035197772 0.51688856
-0.014877755 0.035159852 0.51765424
-0.0048369239 0.034927074 0.51738608
0.0049812375 0.034945905 0.51757127
0.015090932 0.034932707 0.51710564
0.025075695 0.035219952 0.51662946
0.034930784 0.035020489 0.5174396
0.044795223 0.034916762 0.51845241
0.055008065 0.034689363 0.51838505
0.064993329 0.034981165 0.51871341
0.074845962 0.035266414 0.51920849
0.084560849 0.034695219 0.51950562
0.09341795 0.033998173 0.51961619
0.10691345 0.033851556 0.51957738
0.11485821 0.035131179 0.51934391
0.12464809 0.03517767 0.51946533
0.13573797 0.035281032 0.5194301
0.14510468 0.034859527 0.51884377
0.15491155 0.034828387 0.51924193
0.1613224 0.034420792 0.51974565
0.17634645 0.033029936 0.51937556
0.18491931 0.033678502 0.51920891
0.1955149 0.035186097 0.51985848
0.20505446 0.034709547 0.51966816
0.21474352 0.03152734 0.51969469
0.22183892 0.031174622 0.51971179
0.24946333 0.032333847 0.51991552
0.25562805 0.033168051 0.5198499
0.26590738 0.034488231 0.51977408
0.27381232 0.03617131 0.51959878
0.29500237 0.033145376 0.51962256
-0.36249197 0.04668631 0.51359302
-0.35489744 0.044948556 0.51394874
-0.34526032 0.045042153 0.5146265
-0.33534634 0.045109317 0.51402104
-0.32481709 0.044869393 0.51241285
-0.3150267 0.044963159 0.51195073
-0.30498928 0.044997904 0.51244295
-0.29482967 0.04497356 0.51341105
-0.28491771 0.044913381 0.51419908
-0.27486962 0.045008514 0.51409096
-0.26462063 0.045315735 0.5131911
-0.25459298 0.044961736 0.51255095
-0.24503157 0.045051798 0.51397455
-0.23543464 0.044981778 0.51614773
-0.22499463 0.045041427 0.51658797
-0.21495071 0.044935148 0.51598412
-0.20517527 0.044867713 0.51569611
-0.19485988 0.045191407 0.51586396
-0.18460326 0.044909175 0.51581144
-0.17507981 0.044933047 0.51563817
-0.1650504 0.045081194 0.51444823
-0.15465213 0.044658732 0.51312858
-0.1448482 0.04486192 0.51342899
-0.13522525 0.045075566 0.51526093
-0.12498926 0.04515424 0.51564068
-0.11488879 0.045041274 0.5154205
-0.10481796 0.045069177 0.51537699
-0.095090538 0.044980578 0.5158183
-0.085126437 0.045188278 0.51642197
-0.074931636 0.044912081 0.51665658
-0.064910047 0.045093611 0.51643151
-0.054742262 0.045005456 0.5155949
-0.045149747 0.044974159 0.51732302
-0.035053641 0.044755992 0.51819748
-0.025060158 0.045001861 0.5176515
-0.015102579 0.044918202 0.51727378
-0.0049138973 0.04486255 0.51716679
0.0048530172 0.045094371 0.51807296
0.014890247 0.045058236 0.51793259
0.024838008 0.045010295 0.5178166
0.035062522 0.045116074 0.51737899
0.045173887 0.044833854 0.51774746
0.054904506 0.04496561 0.5189845
0.065046392 0.045175362 0.5186671
0.075082533 0.044997472 0.51815927
0.083763413 0.044654883 0.51940787
0.096649177 0.042898893 0.51977921
0.10512104 0.045882687 0.51962537
0.1123459 0.045262154 0.51964968
0.12501468 0.041262507 0.51983517
0.13542719 0.041202363 0.5196963
0.14664045 0.042769045 0.51950473
0.15535586 0.04450158 0.51964003
0.16369799 0.046590053 0.51965976
0.17169341 0.048961937 0.5195893
0.19963458 0.0449242 0.51982188
0.20300035 0.044638496 0.51972842
0.26979589 0.041411564 0.5196929
0.27346319 0.042183913 0.51959759
-0.37221256 0.057223063 0.51454163
-0.36508316 0.055261228 0.5146938
-0.35494256 0.055050816 0.51543266
-0.3454785 0.054961566 0.51628685
-0.33528078 0.054898657 0.51493776
-0.3249065 0.054810457 0.51234186
-0.31455937 0.054959629 0.5107699
-0.30518565 0.055000767 0.5121932
-0.29521585 0.055207204 0.51370382
-0.28493124 0.05501454 0.51465493
-0.27496639 0.054689284 0.51594448
-0.26509497 0.055354204 0.51641345
-0.25511736 0.055095904 0.51531136
-0.24476898 0.054625798 0.51475775
-0.23508966 0.054641146 0.51669925
-0.22521737 0.05516912 0.51803744
-0.21511112 0.055427093 0.51750708
-0.20499197 0.054777212 0.51641995
-0.19480135 0.05502763 0.51620018
-0.18506426 0.05509609 0.51678467
-0.174804 0.055145729 0.51636589
-0.16479118 0.055119932 0.51520324
-0.15513013 0.055068295 0.51450521
-0.14512458 0.054777171 0.51389515
-0.13533682 0.055264346 0.5147171
-0.12525956 0.054917812 0.51452804
-0.11494325 0.054892331 0.514193
-0.10508069 0.054930504 0.51502216
-0.094833583 0.054920945 0.51597625
-0.084976994 0.055107076 0.51717949
-0.075132012 0.054901283 0.51725906
-0.065128095 0.05507068 0.51692611
-0.054863546 0.055128008 0.51690388
-0.045343742 0.054717526 0.51858187
-0.023896225 0.052687917 0.51918691
-0.014821001 0.054827128 0.51756501
-0.0047031017 0.054923546 0.51626056
0.0052022561 0.055111133 0.5171954
0.015091199 0.054868057 0.51838154
0.024834888 0.05497615 0.51871103
0.034874402 0.055071704 0.51762217
0.044949848 0.055139523 0.51738775
0.055013727 0.054857824 0.51853639
0.064887181 0.055042963 0.51906234
0.075133666 0.054974515 0.51781303
0.084054127 0.055073019 0.51921183
0.090471029 0.05698986 0.51983982
0.10675073 0.053443089 0.51963234
0.11432607 0.055723377 0.51949203
0.12097594 0.056792777 0.51958531
0.14853327 0.055866163 0.51967788
0.15484846 0.055860918 0.51975465
0.16488147 0.054438405 0.51970953
0.17246456 0.055026308 0.51962733
0.19877338 0.053994194 0.51968962
0.20433575 0.055100586 0.51959175
0.21402369 0.0549004 0.519916
0.22095087 0.054269157 0.51995838
0.23692708 0.059059683 0.51988751
0.24174905 0.059206128 0.51963645
-0.3816148 0.067150809 0.51661783
-0.37437439 0.065038756 0.51617843
-0.36471492 0.065121427 0.51619893
-0.35441792 0.064826176 0.51612896
-0.34508741 0.064972758 0.51671821
-0.33548188 0.065020286 0.51610237
-0.32497984 0.065393992 0.51362807
-0.31499752 0.064934604 0.51206428
-0.30496705 0.064810567 0.51282656
-0.29487547 0.064962924 0.51457
-0.2848424 0.065183185 0.51700652
-0.27510178 0.06457182 0.51878136
-0.26490805 0.064777121 0.51872247
-0.25475243 0.065026864 0.51736391
-0.2449304 0.064818211 0.51643384
-0.23512147 0.064911 0.5165807
-0.22528045 0.06504266 0.51667804
-0.21493396 0.064741291 0.51527101
-0.20498577 0.064965375 0.51419663
-0.19496894 0.064937986 0.51473618
-0.1848176 0.06530527 0.51618326
-0.17545439 0.065083981 0.51706171
-0.16524677 0.065099359 0.51646942
-0.15479858 0.064917408 0.51547664
-0.14445941 0.06466981 0.51461112
-0.13479108 0.065205716 0.51514071
-0.12514958 0.065108366 0.5164662
-0.11508234 0.064986214 0.51670557
-0.10506872 0.064934693 0.51608968
-0.094822474 0.064850681 0.51557338
-0.085042931 0.065080449 0.51654673
-0.074601099 0.065043435 0.51684326
-0.064847022 0.064983249 0.51646137
-0.055199422 0.064921461 0.51725036
-0.045834884 0.065162547 0.51898915
-0.037119702 0.068388999 0.5198915
-0.013262402 0.06365753 0.51908147
-0.0049315747 0.06506972 0.51768613
0.0050684367 0.064819187 0.5173462
0.014886861 0.064991392 0.51848602
0.024988037 0.064932674 0.51899093
0.034634102 0.062773831 0.51896632
0.045673497 0.063406557 0.51903987
0.054936416 0.064708203 0.51930451
0.064198382 0.064755961 0.51959968
0.075501524 0.063694246 0.51921666
0.08416561 0.064121634 0.51928562
0.091163799 0.064794719 0.51975536
0.10644179 0.065709166 0.51945221
0.11503676 0.064967036 0.5193224
0.12175964 0.064091399 0.51977146
0.14672339 0.062749051 0.51986206
0.15342173 0.062070228 0.51982021
0.16422918 0.06106418 0.51992893
0.17307198 0.061208658 0.51978064
0.20483193 0.061697066 0.51977456
0.21078917 0.063548386 0.51999414
0.23753239 0.062639624 0.51970762
0.24241188 0.063083865 0.51963818
-0.38375145 0.075192906 0.51582021
-0.37517729 0.075182609 0.51659477
-0.3655816 0.075195752 0.51655793
-0.35484371 0.074822783 0.51627493
-0.34489921 0.075198695 0.51625079
-0.3353985 0.075108513 0.51637155
-0.32476249 0.07506749 0.51566786
-0.31518209 0.075274393 0.51525736
-0.30515388 0.074950337 0.51491243
-0.29473591 0.074705705 0.51509356
-0.28520834 0.074815884 0.51727378
-0.27777594 0.075374417 0.51921976
-0.2634322 0.074403606 0.51939017
-0.25491863 0.075240627 0.51805955
-0.24486902 0.07480941 0.5173201
-0.23494995 0.074854821 0.51780546
-0.22521 0.075109221 0.51744634
-0.21517007 0.075116463 0.51527476
-0.20482157 0.074908227 0.51344866
-0.19504303 0.074881971 0.51375276
-0.18490128 0.075059965 0.5157479
-0.17505363 0.074987531 0.51854348
-0.16460949 0.073261559 0.51894599
-0.15472808 0.07530573 0.51778305
-0.14475802 0.074813493 0.515576
-0.13480642 0.075091213 0.5152182
-0.12536982 0.074939035 0.516675
-0.11531736 0.074975155 0.51714802
-0.10509504 0.074968264 0.51664704
-0.094783291 0.075062215 0.51568824
-0.084803395 0.075004198 0.51576388
-0.075233787 0.074948736 0.51643568
-0.064757824 0.074854843 0.51640952
-0.05489127 0.074916087 0.5175584
-0.045360751 0.074917071 0.51930255
-0.036480926 0.075010926 0.51977217
-0.025059685 0.075264603 0.5198245
-0.0133543 0.075222969 0.51972574
-0.0048852419 0.075045362 0.51897818
0.0052649495 0.074985623 0.51839405
0.013888595 0.072898418 0.51947802
0.023081984 0.071077816 0.51962888
0.04954569 0.073329337 0.51972854
0.055499505 0.075044818 0.51931268
0.064822868 0.075461447 0.51926655
0.072019674 0.075289629 0.51991564
0.080150962 0.07009542 0.51964641
0.098481938 0.074685052 0.51993752
0.10579016 0.073377334 0.51957798
0.11394887 0.072944582 0.51961505
0.1206104 0.071856432 0.5198499
-0.39169261 0.088667654 0.51275587
-0.38457078 0.084472395 0.51321751
-0.37484071 0.085231796 0.51456606
-0.3648206 0.085384354 0.51536852
-0.35466185 0.084804803 0.5151692
-0.34465563 0.084880456 0.51493126
-0.33445573 0.08497522 0.51499432
-0.32471174 0.085174203 0.51563412
-0.31483918 0.085035577 0.51676637
-0.30492619 0.085095502 0.51741397
-0.29486737 0.084952563 0.51736969
-0.2847653 0.084888786 0.51776719
-0.27627873 0.084991276 0.51922995
-0.26503795 0.085195795 0.51930946
-0.25494766 0.085033827 0.51777321
-0.24494892 0.084917739 0.51671803
-0.23489717 0.084996365 0.51696724
-0.22496139 0.085097328 0.51713336
-0.21501641 0.08520408 0.51624358
-0.20485969 0.08518149 0.51526105
-0.19489756 0.085092537 0.51500231
-0.18490881 0.084623754 0.51555902
-0.17492807 0.084809549 0.51768142
-0.16542923 0.08636532 0.51929158
-0.15528056 0.085152991 0.51926583
-0.14491883 0.085066915 0.518291
-0.13494451 0.084877908 0.5174455
-0.12495108 0.085010186 0.51767027
-0.11491796 0.085103326 0.51840723
-0.1053848 0.084491991 0.51885641
-0.095300078 0.083973728 0.51873755
-0.085027322 0.084724493 0.51827645
-0.07525111 0.084907137 0.51801449
-0.065090142 0.085060619 0.51726478
-0.054854073 0.084917612 0.51792276
-0.046321381 0.085133284 0.51935887
-0.038232032 0.088927053 0.51981026
-0.012030493 0.083775528 0.51966089
-0.0049435156 0.085064195 0.51828861
0.0049629752 0.084947661 0.51763415
0.01415197 0.086267069 0.51876044
0.02200843 0.088401467 0.51958746
0.039866641 0.089531273 0.51963961
0.045697633 0.087427422 0.51966643
0.054712228 0.084689528 0.51938307
0.06457793 0.083315656 0.51924974
0.070812754 0.081328072 0.51990616
0.12166075 0.080065146 0.51988238
-0.40225729 0.09782517 0.51692367
-0.39458573 0.095456459 0.51446176
-0.38499704 0.095056854 0.51396757
-0.37515903 0.09485025 0.51572621
-0.36503354 0.094937555 0.51695973
-0.35504773 0.095105298 0.51706147
-0.34479356 0.094989836 0.51630622
-0.33498099 0.094904244 0.51582336
-0.32473633 0.094844557 0.51600647
-0.31498751 0.094870053 0.51754898
-0.30512461 0.0948449 0.51866466
-0.29462308 0.095082082 0.51868802
-0.28459802 0.094921783 0.51895088
-0.27555892 0.095116302 0.5194692
-0.2649717 0.095065117 0.51901609
-0.25481769 0.095090114 0.517555
-0.24473453 0.094960205 0.5164426
-0.23472786 0.094974712 0.51614207
-0.22467734 0.094984166 0.51632011
-0.21471804 0.094987094 0.51722163
-0.20500611 0.094926476 0.51835084
-0.19470364 0.094481669 0.51859957
-0.18482415 0.095086448 0.51802748
-0.17476612 0.095012531 0.51803219
-0.16527003 0.094719402 0.51901126
-0.15545636 0.094803013 0.5193091
-0.1460862 0.091978259 0.51954979
-0.13350582 0.093347363 0.5193432
-0.12478679 0.095111668 0.51882434
-0.11516517 0.094745114 0.51882231
-0.10536537 0.095453002 0.51913577
-0.095410742 0.097417258 0.51924813
-0.084544323 0.095978051 0.51934671
-0.075012058 0.094971083 0.51850915
-0.064928852 0.095190987 0.51793605
-0.055111747 0.094914116 0.51843315
-0.044864509 0.09486416 0.51896077
-0.037008934 0.094843961 0.51967061
-0.029724792 0.09341301 0.51996708
-0.010497175 0.090943947 0.51983929
-0.003907348 0.092699766 0.51909101
0.0051345928 0.093194865 0.51862603
0.014356147 0.093230151 0.51904047
0.021783533 0.092178904 0.51933533
0.045585509 0.094531633 0.51926124
0.052942485 0.095073804 0.51935619
-0.40421459 0.105179 0.51835567
-0.39473745 0.10499463 0.51619524
-0.38521692 0.10522798 0.51726091
-0.37500256 0.10498626 0.5184775
-0.36509973 0.10516134 0.51883042
-0.35510799 0.10520924 0.51890159
-0.34526032 0.105006 0.51881605
-0.33512753 0.10520096 0.51852912
-0.32491115 0.1049944 0.51855558
-0.31512368 0.10474393 0.51922202
-0.30494094 0.10484333 0.51905203
-0.29460427 0.10498247 0.51818615
-0.28495792 0.10495455 0.51811522
-0.27535135 0.10500877 0.51892489
-0.26543894 0.10501753 0.51904422
-0.25508502 0.10524517 0.5185377
-0.24457464 0.10503893 0.51804817
-0.23496224 0.10482763 0.51808608
-0.22535819 0.10504656 0.51856017
-0.21550699 0.10383817 0.51893419
-0.20732288 0.10246096 0.51959574
-0.19267279 0.10497729 0.51969278
-0.18489844 0.1047849 0.51888919
-0.17472959 0.10506356 0.51842791
-0.16533117 0.10536159 0.51930082
-0.15520933 0.10527425 0.51952225
-0.14471895 0.10644463 0.51923186
-0.1345275 0.10585705 0.51911688
-0.12480218 0.10508863 0.51892501
-0.11505018 0.10487169 0.51898783
-0.10488512 0.1046413 0.51896846
-0.094972625 0.10490157 0.51858348
-0.08511056 0.10490333 0.51830804
-0.075120859 0.10505118 0.51832592
-0.065778434 0.1038671 0.51877689
-0.055550933 0.10170285 0.5194881
-0.044604313 0.1013664 0.51967305
-0.037413403 0.1013993 0.51992297
0.048433535 0.10113144 0.51957512
0.053533826 0.10287591 0.51950765
0.062229216 0.10339361 0.51997066
0.076062262 0.10649419 0.51991516
0.083657384 0.10861747 0.51979709
-0.40295053 0.11515319 0.51785582
-0.39386591 0.11468115 0.51548219
-0.38472939 0.11533596 0.51547903
-0.37499315 0.11454622 0.51682335
-0.36469725 0.11534673 0.51638991
-0.35480964 0.11476742 0.51647526
-0.34469283 0.11490972 0.51698476
-0.33525205 0.11552329 0.51779485
-0.32513195 0.11492267 0.51902652
-0.31586087 0.11526942 0.51979434
-0.30470467 0.11507253 0.51952344
-0.29505587 0.11485307 0.51865649
-0.28476951 0.11495391 0.51799875
-0.27508581 0.11502983 0.51819241
-0.26521966 0.11493497 0.51871717
-0.25523818 0.11505722 0.51895255
-0.24486908 0.1148106 0.518426
-0.23469646 0.11501946 0.5187332
-0.22583711 0.11541273 0.51970321
-0.21444836 0.11746964 0.51984203
-0.20446388 0.1160026 0.51939338
-0.19499482 0.11526097 0.519467
-0.18519489 0.11381418 0.51942152
-0.17458627 0.1145757 0.51877236
-0.1651706 0.11501464 0.51885104
-0.1550667 0.11474332 0.51872784
-0.14487079 0.11500431 0.51849252
-0.13524102 0.11489388 0.5191403
-0.12560557 0.11378752 0.51939636
-0.11805942 0.11170721 0.51964808
-0.10199903 0.11069314 0.519759
-0.093978927 0.11189472 0.5194239
-0.084264144 0.11268084 0.51929885
-0.075603776 0.11282678 0.51950961
-0.068468913 0.11011617 0.51959252
-0.030434862 0.11434254 0.51984191
-0.024710925 0.11605538 0.51978511
-0.017828763 0.11787697 0.5198037
-0.0097482651 0.11998916 0.51990485
0.084258214 0.1103593 0.51994646
0.091243431 0.11108312 0.51987433
-0.40461567 0.12535571 0.51820207
-0.39436862 0.12485178 0.5146969
-0.38463509 0.12484864 0.5136165
-0.37513617 0.12495916 0.5156756
-0.36484143 0.12481966 0.5170154
-0.35505968 0.12512514 0.5170458
-0.34515527 0.12469745 0.51663023
-0.3353177 0.12481194 0.5173887
-0.32512081 0.12507719 0.51861942
-0.31527993 0.12548842 0.51939273
-0.30473271 0.12593138 0.51959491
-0.29473549 0.1250042 0.5193814
-0.28503761 0.12505281 0.51898748
-0.27516207 0.12498856 0.51865709
-0.26480469 0.12502983 0.51855999
-0.25488254 0.12502247 0.51832426
-0.24505414 0.12500559 0.51788914
-0.23485135 0.12482262 0.51785159
-0.22513914 0.12489764 0.51897371
-0.21505508 0.12551488 0.51952428
-0.20512407 0.12483259 0.51882231
-0.19615203 0.12471761 0.51915389
-0.18868645 0.12040108 0.51979971
-0.17483024 0.12238439 0.51994514
-0.16632368 0.12392853 0.51975656
-0.15414239 0.12185894 0.51960438
-0.14458486 0.12340783 0.51927942
-0.13744155 0.12326384 0.51952893
-0.088075534 0.12903814 0.51991814
-0.022013033 0.12099256 0.5198707
-0.01550363 0.12148397 0.51980764
-0.40413177 0.13523157 0.51879394
-0.39485455 0.134725 0.51562941
-0.38452551 0.13498007 0.51503134
-0.37491462 0.1348356 0.51769984
-0.3657805 0.13246602 0.51933897
-0.35478556 0.13240123 0.51916069
-0.34534538 0.13477568 0.51902711
-0.33492503 0.13482074 0.51852924
-0.32485056 0.1350448 0.51881975
-0.31495532 0.13505317 0.51915592
-0.30492204 0.13463823 0.51874834
-0.29507577 0.13512006 0.51842254
-0.28524044 0.13513841 0.5189634
-0.27537754 0.13495633 0.51939505
-0.26535007 0.13485755 0.5193541
-0.25512549 0.13495439 0.51881081
-0.24443392 0.13509104 0.51786065
-0.23474942 0.13518661 0.51752484
-0.22497365 0.13475986 0.51819724
-0.2149286 0.13502795 0.51929218
-0.20486604 0.1346118 0.51944888
-0.19692382 0.1333883 0.51952171
-0.17317928 0.13381562 0.51983851
-0.16552304 0.13572499 0.5195657
-0.15694396 0.13748293 0.51972187
-0.093732312 0.13372217 0.51966339
-0.087631837 0.13310431 0.51961362
-0.40207934 0.14439479 0.51902831
-0.395309 0.14484228 0.5174166
-0.38527834 0.14486416 0.51688474
-0.37504146 0.14474316 0.51844066
-0.36583108 0.14686397 0.51921695
-0.35394055 0.14785412 0.51895034
-0.34437117 0.14645027 0.51908481
-0.33493695 0.14509849 0.51913756
-0.32595897 0.14479581 0.51957238
-0.31440604 0.14436638 0.51965427
-0.30511042 0.14495622 0.51843345
-0.294972 0.14499226 0.51722145
-0.28491503 0.14505389 0.51768833
-0.27490598 0.14501324 0.51882178
-0.26514262 0.14493302 0.51925987
-0.25491083 0.14501229 0.51845819
-0.24476483 0.14484298 0.51766479
-0.23479521 0.14531158 0.51801467
-0.22496198 0.14474697 0.51905125
-0.21560563 0.14275891 0.51942635
-0.20912103 0.14073494 0.51975071
-0.17256774 0.14676267 0.51971841
-0.16450833 0.14510521 0.51957595
-0.15668608 0.14360189 0.51971447
-0.39424852 0.15459293 0.51898903
-0.38510603 0.15466152 0.51868337
-0.37534204 0.1549063 0.51876223
-0.36491671 0.15464376 0.51810098
-0.35467577 0.15469858 0.51737159
-0.34490398 0.15485445 0.51704192
-0.33489558 0.15481567 0.51732546
-0.32508624 0.15504235 0.5186733
-0.31519669 0.15490931 0.51895702
-0.30485696 0.15480182 0.51753485
-0.29476374 0.15512119 0.51639885
-0.28509116 0.15504445 0.51708126
-0.27569181 0.15447192 0.51901013
-0.26494467 0.15217693 0.51958656
-0.25438634 0.15263242 0.51935154
-0.24469255 0.1535051 0.5188747
-0.23489949 0.15490867 0.51868397
-0.22628134 0.15563129 0.51939434
-0.21807037 0.15923737 0.519835
-0.20385922 0.15908022 0.51931769
-0.19429657 0.158694 0.51909
-0.18422826 0.15720078 0.51911539
-0.17449036 0.15554357 0.51828361
-0.16517134 0.15525474 0.51890349
-0.15580675 0.15563065 0.51979852
-0.14856841 0.15747043 0.51991498
-0.39295402 0.16926964 0.51976299
-0.38648841 0.16440204 0.51981896
-0.37494555 0.16484423 0.51960003
-0.36493549 0.16499139 0.51875174
-0.35498631 0.16474916 0.51804107
-0.34533101 0.16525295 0.51799405
-0.33502862 0.16470949 0.5180462
-0.32486123 0.16476902 0.51873326
-0.31510964 0.16480389 0.51915067
-0.30507517 0.16479717 0.51877284
-0.29493174 0.16491301 0.51787645
-0.28455332 0.16507018 0.5179655
-0.27701432 0.1633224 0.51908761
-0.2403722 0.16031218 0.51993489
-0.2338222 0.16551568 0.51939321
-0.22526231 0.16524114 0.51935285
-0.21536767 0.16507389 0.51952595
-0.20536335 0.16522428 0.51893395
-0.19521418 0.1648379 0.51774311
-0.18518017 0.16476338 0.51741874
-0.17499113 0.16503455 0.51718038
-0.16480064 0.16497616 0.51813787
-0.15756573 0.1638706 0.51956654
-0.14972679 0.16133533 0.51984173
-0.38448074 0.17114404 0.51966614
-0.37460202 0.17272678 0.51953626
-0.36406633 0.17400526 0.51901799
-0.35504386 0.17446522 0.51941341
-0.34552822 0.17350869 0.5195803
-0.33411694 0.17222123 0.51955062
-0.32549769 0.17261477 0.51964742
-0.3170428 0.17230885 0.51972932
-0.30295676 0.17176552 0.51971674
-0.2942549 0.1726868 0.51947409
-0.28512204 0.17292033 0.5192821
-0.27920288 0.17116152 0.51978695
-0.24386032 0.17603438 0.51921803
-0.23443773 0.1752286 0.51875156
-0.2255995 0.1730797 0.51923513
-0.21543022 0.17169143 0.51982045
-0.2035789 0.17139097 0.51962686
-0.1951046 0.17234653 0.51935714
-0.18489133 0.17205006 0.51902527
-0.17423461 0.17287466 0.51911426
-0.16500138 0.17379998 0.51934314
-0.15882036 0.17387849 0.51986831
-0.34865254 0.18201469 0.51985908
-0.24435847 0.18204881 0.51948941
-0.23636268 0.1813906 0.51929075
0.22971465 0.0061907023 0.52004451
0.23375808 0.0080142878 0.52030623
0.26880723 0.006667105 0.52014607
0.27450892 0.0077928426 0.52051437
0.28226161 0.0082639493 0.5203191
0.30891779 0.001497337 0.52016848
0.097987905 0.016137058 0.52020538
0.10040044 0.016586566 0.52002549
0.12642291 0.019488901 0.52008271
0.13174158 0.01726356 0.52004761
0.16539884 0.016777745 0.52047509
0.17196047 0.018062353 0.52033675
0.19743492 0.016899874 0.52023369
0.20122358 0.016642669 0.52017629
0.21551634 0.018205853 0.52004141
0.22732437 0.016315874 0.52032733
0.23487726 0.015085567 0.52122223
0.24162832 0.01617017 0.52051151
0.27575618 0.01419208 0.52058899
0.28328797 0.015194829 0.52050972
0.11892798 0.027666381 0.52010328
0.12565714 0.025434436 0.52025992
0.13222501 0.026333962 0.5203315
0.15815124 0.025584474 0.52001089
0.16538289 0.024731191 0.52065331
0.17163569 0.024733895 0.52035141
0.18967022 0.025851181 0.52011824
0.19550158 0.02594413 0.52046335
0.20252347 0.026070671 0.52026069
0.21696557 0.022992538 0.52010846
0.22617567 0.024891561 0.52058494
0.235072 0.024840381 0.52083248
0.24387507 0.026075091 0.52046502
0.25477886 0.02758041 0.52028286
0.26518098 0.026306251 0.52027202
0.27543771 0.02558546 0.52040267
0.2850005 0.0250574 0.52097255
0.29156971 0.026885998 0.52055597
0.078358054 0.033950992 0.52003658
0.086380139 0.036987182 0.52015567
0.096047997 0.03560796 0.52036172
0.1035071 0.035862006 0.52044034
0.11825161 0.035031773 0.52005678
0.12614681 0.033827186 0.52014571
0.13250151 0.033246595 0.52023739
0.15772445 0.037133068 0.52005148
0.16529143 0.035255056 0.52087909
0.17385016 0.036556032 0.52075469
0.18546791 0.037585117 0.52033913
0.19497673 0.035144076 0.52050215
0.20520712 0.035264678 0.52031523
0.21519031 0.035713151 0.52074748
0.22526695 0.035119742 0.52080095
0.23494673 0.034963451 0.52142596
0.24487551 0.035238065 0.52108532
0.25488922 0.035206392 0.52050853
0.2646341 0.035371594 0.52048111
0.27599612 0.033940013 0.52036518
0.28506452 0.034939535 0.52136338
0.2925306 0.034822099 0.52068812
-0.035749123 0.049406014 0.52017957
0.055368558 0.043030359 0.52005744
0.087178923 0.045831103 0.52027506
0.094584882 0.045315459 0.520482
0.10456236 0.04314097 0.52020466
0.11579771 0.045037784 0.52059114
0.12491179 0.045418248 0.52098322
0.13498139 0.045767445 0.52117538
0.14423703 0.046152994 0.52055228
0.15446392 0.046829868 0.52024645
0.16599359 0.0436676 0.52065861
0.175359 0.044714246 0.52103341
0.18499522 0.045001607 0.52114677
0.19481672 0.044995394 0.52090746
0.20543914 0.045198034 0.52048039
0.21499693 0.044912968 0.52123815
0.22499481 0.044957481 0.52130604
0.23498337 0.045164723 0.52192307
0.24499877 0.044849474 0.52158636
0.2549974 0.044990484 0.52154231
0.2649281 0.045021541 0.52158946
0.27546239 0.045918602 0.52100086
0.28505009 0.044948105 0.5215627
0.29151437 0.043523718 0.52174324
-0.041395292 0.056984395 0.52038884
-0.035252288 0.05504455 0.52115256
-0.025796937 0.057009935 0.52115393
0.065691948 0.059379771 0.52001703
0.088307969 0.054263819 0.52035725
0.095259726 0.054981031 0.52089006
0.10377347 0.056304395 0.52046514
0.11653516 0.052470025 0.52024162
0.12548678 0.054650228 0.52120298
0.13500777 0.055077363 0.52177703
0.14414006 0.05470923 0.52077526
0.15502334 0.05448221 0.52029401
0.16520111 0.055504844 0.52027428
0.17645958 0.055116847 0.52065623
0.18497217 0.054958481 0.52174854
0.19441709 0.055040568 0.52114999
0.20658059 0.055011645 0.52032
0.21506983 0.054964673 0.52048475
0.22507641 0.055112056 0.52098316
0.2350236 0.054830607 0.52113044
0.24532643 0.054635428 0.52126223
0.25507998 0.055006083 0.5223425
0.26502028 0.055035684 0.52341139
0.27512643 0.054984316 0.52326596
0.28442836 0.05462002 0.5225988
-0.27420115 0.068997785 0.52031541
-0.26960522 0.068879209 0.52044922
-0.041109845 0.064573735 0.52027917
-0.034977973 0.064675115 0.521137
-0.025126843 0.065212801 0.52123356
-0.017188355 0.066586211 0.5205344
0.027608216 0.069473967 0.52018422
0.035232991 0.067719616 0.52090871
0.043939203 0.067418762 0.52062672
0.056691553 0.069127247 0.52011341
0.067101873 0.065800376 0.52026433
0.073687054 0.067698151 0.52040517
0.086857185 0.067238957 0.5202961
0.095717981 0.064915761 0.52068138
0.10245554 0.063781895 0.52042127
0.11844133 0.06881918 0.52023613
0.12549458 0.065094434 0.52070761
0.13502485 0.065027378 0.52113938
0.14493152 0.065156914 0.52053928
0.15533142 0.065527439 0.52053744
0.16518396 0.06519296 0.52074623
0.17523669 0.065125614 0.52099055
0.18501891 0.065033637 0.52232337
0.1949891 0.065019779 0.52237535
0.20501223 0.065539323 0.52098751
0.21517639 0.0650023 0.52117938
0.22494555 0.065052144 0.52130079
0.23438792 0.065479949 0.52073628
0.24591574 0.065711766 0.52067077
0.25503922 0.065022439 0.52193272
0.26507384 0.06506063 0.52310014
0.27499631 0.064959995 0.52323091
0.28238598 0.064387567 0.52267402
-0.27314866 0.074817047 0.52045459
-0.26820859 0.076202221 0.5202949
-0.17034163 0.076898769 0.520087
-0.16595033 0.077795111 0.52036613
-0.043194804 0.075455084 0.52017576
-0.034400847 0.075132802 0.52033275
-0.02480476 0.074965395 0.52027887
-0.015845709 0.074699737 0.52034938
-0.0091345608 0.073765814 0.52004445
0.015442954 0.076964661 0.52088076
0.025414979 0.075498246 0.52145243
0.035283569 0.07500045 0.52199942
0.044768974 0.075169064 0.52112764
0.051808875 0.074779548 0.52008981
0.067173071 0.071998097 0.52032226
0.075138606 0.075040646 0.52076596
0.085092723 0.075081475 0.52158916
0.095110357 0.074926369 0.52089381
0.10417467 0.076866373 0.52042425
0.11553383 0.076143168 0.5203917
0.1252415 0.075156696 0.52099413
0.13498703 0.074937254 0.52206147
0.14513378 0.075004637 0.52207202
0.15523313 0.075095624 0.52129686
0.16510738 0.07493297 0.52104771
0.17500493 0.074927576 0.52185243
0.18500781 0.074968643 0.5227108
0.19505247 0.075115897 0.52360535
0.20511621 0.074934617 0.52338231
0.2149975 0.075025223 0.52328521
0.22503988 0.075025447 0.52301198
0.23498251 0.075058647 0.52193934
0.24495061 0.074928299 0.5216226
0.25498369 0.075059667 0.52225721
0.26493505 0.075053304 0.52234715
0.2749179 0.074850157 0.52256596
0.28078496 0.072014935 0.5228377
-0.27295026 0.083690606 0.52013618
-0.26851982 0.081961855 0.52027905
-0.16436461 0.082131639 0.52029067
-0.10317544 0.088655137 0.52029163
-0.095338188 0.088603437 0.52046812
-0.088170432 0.088726558 0.52024186
-0.042154718 0.084247023 0.52032113
-0.034566529 0.084771074 0.52058703
-0.025119757 0.085035525 0.52090549
-0.016710781 0.08531069 0.5207051
0.016724335 0.082330145 0.52091521
0.025152696 0.084721364 0.52154154
0.034909993 0.084942877 0.52148223
0.044771202 0.083746232 0.52054203
0.056810778 0.088793047 0.52028561
0.065374717 0.087051861 0.52045435
0.075170591 0.085118882 0.52155656
0.084854171 0.0849986 0.52228492
0.095088333 0.085102811 0.52109188
0.10507515 0.084855713 0.52148384
0.11510896 0.084891617 0.52155036
0.12515935 0.085027829 0.5211395
0.13507321 0.084969953 0.52255011
0.14514647 0.085017242 0.52293688
0.15506342 0.085045546 0.52288532
0.16502097 0.085092433 0.52225071
0.17491807 0.084894136 0.5233444
0.18487518 0.085039519 0.52464288
0.19504772 0.085005388 0.52413589
0.20501654 0.085054889 0.5238688
0.21510307 0.08502043 0.52331573
0.22506402 0.085023165 0.52279311
0.23502196 0.084950872 0.5232107
0.24502385 0.085022256 0.52349001
0.25500977 0.085019208 0.52360839
0.26512858 0.085116327 0.5235498
0.2734088 0.084453948 0.52384752
-0.27333045 0.093458623 0.52009499
-0.20396917 0.099472441 0.52031207
-0.19698744 0.098453552 0.52031589
-0.1619141 0.098920695 0.52015013
-0.15211323 0.097671159 0.5201574
-0.14480296 0.096584618 0.52047396
-0.13669837 0.096580788 0.52033591
-0.10219517 0.091518812 0.52017784
-0.094565198 0.092699297 0.52048802
-0.086932369 0.093016818 0.52038896
-0.033421107 0.095298648 0.52043802
-0.024950709 0.094970971 0.52122283
-0.015307487 0.095263302 0.52183908
-0.0059430338 0.096881293 0.52113318
0.0047352035 0.098053321 0.52075195
0.015763815 0.097952038 0.520818
0.025597539 0.095364615 0.52131402
0.034909852 0.09495908 0.52134359
0.042016488 0.097322218 0.52028346
0.057607897 0.094829313 0.52070546
0.065126613 0.095032752 0.5211224
0.074994199 0.09501306 0.52190942
0.084721714 0.095103383 0.52345163
0.094955429 0.095035024 0.52276808
0.10500734 0.095016778 0.52294797
0.11465237 0.095007494 0.52397472
0.12495591 0.094945684 0.52260518
0.13490671 0.095081888 0.52265924
0.14499404 0.094931133 0.52269095
0.15485403 0.094934382 0.52370125
0.16499633 0.094981611 0.52361566
0.17515121 0.09502662 0.52453738
0.18512987 0.09497378 0.52501905
0.19505037 0.094991609 0.52357692
0.20500539 0.094984122 0.52242255
0.2149336 0.095032498 0.52289438
0.2249593 0.094878778 0.52301013
0.23499361 0.094985068 0.52326059
0.24506347 0.095052548 0.52454978
0.25513291 0.095045857 0.52490455
0.26498172 0.095136143 0.52436435
0.27152044 0.09417785 0.52433467
-0.41324604 0.10732451 0.52180779
-0.40960765 0.10726759 0.52050817
-0.31543037 0.10940996 0.52009284
-0.22053941 0.10945764 0.52003932
-0.21403641 0.10828049 0.52028549
-0.20421343 0.10563891 0.52059793
-0.19708051 0.10521425 0.52031553
-0.16212234 0.10271289 0.52017105
-0.15344036 0.10304315 0.52016777
-0.14464439 0.10202176 0.52033621
-0.13655926 0.10148266 0.52032733
-0.11368097 0.10904814 0.52024025
-0.10813822 0.10940886 0.52017504
-0.070225671 0.10960741 0.52002227
-0.062394321 0.10782915 0.52064747
-0.054623749 0.10661495 0.52127993
-0.044969056 0.10603394 0.52104026
-0.035038933 0.10505181 0.52093029
-0.025063308 0.10502746 0.52165616
-0.014900922 0.10515451 0.52257663
-0.0049165157 0.10500131 0.52299839
0.0052111382 0.10505323 0.5223009
0.014917816 0.10502208 0.52242899
0.025049709 0.10500283 0.52236831
0.034987129 0.10496766 0.52250779
0.044607937 0.10542312 0.52099723
0.055725269 0.10614684 0.52048618
0.064991109 0.10497972 0.52077734
0.074942395 0.10475162 0.52063978
0.084997542 0.10472249 0.52156305
0.094882965 0.10511044 0.52233136
0.10505391 0.10494477 0.52247697
0.11498835 0.10509437 0.52363986
0.12504704 0.10495859 0.52353764
0.13504224 0.10502402 0.52327937
0.1451398 0.10492489 0.52306765
0.1550061 0.10499233 0.52432543
0.1648424 0.10489914 0.5246768
0.17491628 0.10515159 0.52439696
0.18504986 0.10497258 0.52428722
0.19500211 0.10500804 0.52368027
0.20501234 0.10494068 0.52299434
0.21503888 0.10503118 0.52361852
0.22506864 0.10493959 0.52355915
0.23495932 0.10499831 0.52259088
0.24506468 0.10506774 0.52467525
0.2551302 0.10495596 0.52499938
0.26469824 0.10476988 0.52386856
0.27049401 0.10185689 0.52476627
-0.41506299 0.114552 0.52240694
-0.4093647 0.11513545 0.52025127
-0.31422073 0.11494043 0.52019703
-0.30738729 0.11538704 0.5201869
-0.22420776 0.1146557 0.52020854
-0.21528187 0.11430003 0.52036744
-0.20526594 0.11162102 0.52047354
-0.19418722 0.11425889 0.52013683
-0.18482254 0.11778382 0.52030307
-0.17787857 0.11911505 0.52018839
-0.1318223 0.11893735 0.52027076
-0.12348578 0.11776121 0.52038699
-0.11476891 0.11561142 0.52108425
-0.1052748 0.11516395 0.52168751
-0.095291846 0.11646662 0.5210911
-0.085381858 0.11745645 0.52061498
-0.07423497 0.11715397 0.52046818
-0.064909205 0.11507218 0.52130955
-0.055051442 0.1151484 0.52266294
-0.045053799 0.11496016 0.52251148
-0.035233848 0.11477929 0.52083564
-0.024896529 0.11429787 0.52036357
-0.014590277 0.11464185 0.52090287
-0.0050202431 0.11503822 0.52205372
0.0050970502 0.11496535 0.52238268
0.015005187 0.11507545 0.52243972
0.025000749 0.1151784 0.52254748
0.035129648 0.11473605 0.5214389
0.045109171 0.11488118 0.52092153
0.054794554 0.11511326 0.52129036
0.064820811 0.11503942 0.52144331
0.075020552 0.11497059 0.5214684
0.085178778 0.11493366 0.52120173
0.095369235 0.11500987 0.52129507
0.10512172 0.11492565 0.52285159
0.11498684 0.11506882 0.52372694
0.1249399 0.11491277 0.5237487
0.13502304 0.11499897 0.5238567
0.14506719 0.11491552 0.52358758
0.15507786 0.11493087 0.52415907
0.16503833 0.1150042 0.52548939
0.17497708 0.11490732 0.52478898
0.18494627 0.11504123 0.52384001
0.19498068 0.1149402 0.52359921
0.2049782 0.11499958 0.52343321
0.21500206 0.115068 0.52467811
0.22503693 0.11486811 0.52411866
0.23505688 0.11491288 0.52374774
0.24498375 0.11510487 0.52484524
0.2549789 0.11506395 0.52606928
0.26303226 0.11447366 0.52564907
-0.41451335 0.12451254 0.52206612
-0.31344119 0.12284157 0.52024794
-0.30552849 0.12343277 0.52017486
-0.22155906 0.12164613 0.52018458
-0.21880709 0.12254807 0.52011269
-0.19179009 0.12613408 0.52051473
-0.18494524 0.12485579 0.52068913
-0.17505856 0.12549339 0.52047008
-0.16450821 0.12542047 0.52044934
-0.15593731 0.12636095 0.52072334
-0.14613666 0.12788381 0.52035969
-0.13384068 0.12609412 0.52071857
-0.12500615 0.12501094 0.52134806
-0.11481004 0.12485046 0.52184355
-0.10482824 0.12515339 0.52196431
-0.094817914 0.12499202 0.52132696
-0.084848762 0.1252249 0.52082539
-0.074962549 0.12504207 0.52068299
-0.065008044 0.12491269 0.52154946
-0.054856483 0.12499033 0.52218217
-0.045067601 0.12496176 0.52223265
-0.035077076 0.12501715 0.52164847
-0.025206076 0.12515552 0.5209232
-0.014853718 0.12554777 0.52064824
-0.0049016806 0.12494064 0.5210945
0.0049430248 0.12490365 0.52141345
0.015005293 0.12497418 0.52133811
0.024904303 0.12508997 0.52294075
0.035027239 0.12511151 0.52391887
0.045165408 0.12515171 0.52358091
0.055208892 0.12497436 0.52308482
0.065226912 0.12497713 0.52253586
0.075077981 0.12502983 0.52296591
0.084913157 0.12492277 0.52408952
0.095104359 0.12493342 0.52338064
0.10495838 0.12492806 0.52379817
0.11482516 0.12517451 0.52446437
0.12496444 0.12488208 0.52376676
0.13507442 0.125003 0.5244475
0.14500816 0.12511124 0.52520734
0.15506475 0.12494838 0.52631056
0.16510725 0.12492093 0.52668738
0.1749814 0.1249851 0.52558476
0.18503471 0.12507543 0.52468723
0.19497222 0.12505201 0.52524245
0.20509793 0.12493066 0.52565509
0.21503471 0.12504563 0.52552634
0.22500284 0.12496368 0.52654576
0.23511724 0.12495251 0.5255636
0.24505264 0.12499558 0.52557611
0.25498667 0.12497687 0.52600729
0.26134738 0.12331568 0.52685148
-0.41457716 0.13494311 0.52286351
-0.40807036 0.13749515 0.52046198
-0.36530945 0.13682352 0.52062243
-0.35595319 0.13747507 0.5207321
-0.34754199 0.13813105 0.52008235
-0.27409446 0.13681519 0.52002573
-0.26802564 0.13790452 0.52012658
-0.20250739 0.13786437 0.52023238
-0.19362713 0.13575701 0.52055842
-0.18492022 0.13506305 0.52070415
-0.17571406 0.1350776 0.52041376
-0.16241693 0.13202843 0.52027678
-0.1544552 0.13428228 0.52070868
-0.14531945 0.13541846 0.52146649
-0.13505155 0.13494419 0.52218151
-0.12517314 0.13512649 0.52294749
-0.11483761 0.13468154 0.52219856
-0.10499346 0.13499148 0.52123445
-0.096233033 0.13670039 0.52038014
-0.084134683 0.13538034 0.52053672
-0.074938737 0.13500473 0.52142411
-0.064997151 0.1349415 0.5225153
-0.055009034 0.13501684 0.52275622
-0.044781048 0.13499257 0.52274626
-0.034769785 0.13515264 0.52271199
-0.025027899 0.13498408 0.52263314
-0.015012125 0.13506874 0.52222699
-0.0050424431 0.13495149 0.52224547
0.0049583367 0.13497463 0.52214819
0.015140117 0.13481738 0.52147096
0.025094949 0.13483 0.52210921
0.035124753 0.13500984 0.52315992
0.044813335 0.13506991 0.52443761
0.05505202 0.13483407 0.52368009
0.065027736 0.13487828 0.52325964
0.074993588 0.13502792 0.52340138
0.084878691 0.13511819 0.5251143
0.094939753 0.13501306 0.5248037
0.10506 0.13492367 0.52364111
0.11498547 0.13495082 0.52409995
0.12503324 0.13490815 0.52418375
0.13490283 0.13502042 0.52498823
0.14489409 0.13492902 0.52564383
0.15493605 0.13504525 0.52584374
0.16489376 0.13484827 0.52667582
0.17507878 0.1350632 0.52588797
0.18502028 0.13505904 0.5254851
0.19515087 0.13503951 0.52563053
0.20497581 0.13493221 0.5258863
0.2150166 0.13495384 0.5252189
0.22505999 0.13501889 0.52630764
0.2349029 0.13512608 0.52742821
0.2450297 0.13501114 0.52745837
0.25418246 0.13471109 0.5275892
-0.41492 0.14527836 0.52386314
-0.40652356 0.14591579 0.52102888
-0.36420614 0.14282513 0.52079314
-0.35563505 0.14309877 0.5206778
-0.3461062 0.14248329 0.52019334
-0.32299256 0.1457777 0.52017629
-0.3170577 0.14603597 0.52017438
-0.22385783 0.14864132 0.52026129
-0.21438769 0.147063 0.5204556
-0.20486918 0.14519632 0.52088028
-0.1954166 0.14485328 0.5213545
-0.18516509 0.14503658 0.52113742
-0.17514075 0.14430407 0.52046156
-0.16500811 0.14602432 0.52010584
-0.1537341 0.14577554 0.520284
-0.14512137 0.14506108 0.52180344
-0.13505518 0.14519154 0.52351111
-0.12509397 0.14513047 0.52444059
-0.11509736 0.14490256 0.52406591
-0.10509441 0.14517944 0.5230732
-0.09498693 0.14495322 0.52201647
-0.084875122 0.14492005 0.52222168
-0.074992403 0.14482674 0.52326971
-0.06508702 0.14494804 0.52390909
-0.054885548 0.14504053 0.52423728
-0.045049425 0.14521578 0.52438194
-0.034896124 0.1448852 0.52260536
-0.024831159 0.1447479 0.52124995
-0.015227657 0.14503026 0.52203208
-0.0051291427 0.14504571 0.52295977
0.0049222284 0.14494181 0.52352935
0.014942301 0.14493732 0.52349728
0.025176032 0.14498386 0.52320933
0.035111383 0.14498891 0.52373737
0.044854347 0.14504042 0.52537256
0.054978762 0.14512031 0.52547657
0.064889409 0.14489554 0.5245291
0.074922986 0.14494818 0.52402651
0.085008048 0.14510374 0.52518457
0.095054843 0.14495263 0.52517962
0.10511536 0.14514087 0.52444112
0.11507553 0.14487581 0.52500361
0.12486579 0.145088 0.525846
0.13488317 0.1450372 0.52527064
0.1448461 0.14488603 0.524854
0.1549509 0.14501195 0.52528006
0.1649444 0.14509034 0.52697164
0.17497879 0.14505892 0.52642918
0.18500584 0.14502265 0.52529639
0.19499069 0.14498889 0.52535856
0.20498191 0.14488959 0.52584517
0.21503879 0.14503394 0.52593982
0.2249334 0.14496936 0.52612031
0.2349419 0.14500476 0.52732933
0.24502949 0.14503001 0.52809131
0.25220114 0.14415482 0.52779657
-0.41451925 0.15553954 0.52475417
-0.40497789 0.15500525 0.52159113
-0.39761308 0.158234 0.5200994
-0.38702965 0.15946382 0.52029198
-0.32620269 0.15044487 0.52009618
-0.27224046 0.1581663 0.52020699
-0.26508266 0.15627719 0.52058303
-0.25494498 0.15738249 0.52083462
-0.2455264 0.15806754 0.52023011
-0.22207481 0.15357183 0.52032632
-0.21505411 0.15494083 0.52069914
-0.20525189 0.15417367 0.52111351
-0.19505848 0.15384729 0.52121902
-0.18560438 0.15256098 0.52067834
-0.17879118 0.15082398 0.5204007
-0.16163163 0.15061483 0.52010608
-0.15459248 0.15413971 0.52031219
-0.1447448 0.154783 0.5209142
-0.13470629 0.15493378 0.52209902
-0.12491406 0.15509778 0.5232805
-0.11496896 0.15511087 0.52348167
-0.10511997 0.15509072 0.52328026
-0.094909854 0.15503319 0.52299869
-0.085027389 0.15521973 0.52317166
-0.074955322 0.15476243 0.52382344
-0.064854972 0.15491836 0.52455962
-0.05484378 0.15487309 0.52457404
-0.044963509 0.15494505 0.52363718
-0.035168517 0.15499668 0.52269942
-0.024967916 0.15494913 0.52206969
-0.014949469 0.1549806 0.5225262
-0.0050018006 0.15495263 0.52387881
0.0051919115 0.15496761 0.52467191
0.015165633 0.15499243 0.52405381
0.024957426 0.15494208 0.52355486
0.035014879 0.15485206 0.52397734
0.045056399 0.15490347 0.52478206
0.05486957 0.15519854 0.52553546
0.065038048 0.15499517 0.52532035
0.075082786 0.15496135 0.525056
0.084910825 0.15510346 0.52604198
0.095003381 0.15494202 0.5256865
0.10517716 0.15483433 0.52441579
0.11494781 0.15497921 0.52467477
0.12494607 0.15492828 0.52495313
0.13488415 0.15508503 0.52531666
0.1449676 0.15485682 0.52544576
0.15509056 0.15494287 0.52566451
0.16496176 0.15486456 0.52659261
0.1750413 0.15507445 0.52633274
0.18508823 0.15508622 0.52580506
0.19500583 0.15501641 0.52584404
0.20500208 0.15506658 0.52701253
0.21504833 0.15494868 0.52774388
0.22503659 0.15492082 0.52775216
0.23508947 0.1550214 0.52825606
0.24481004 0.15493461 0.52819556
0.25067705 0.15150437 0.52793026
-0.41454044 0.16370451 0.52470541
-0.40500161 0.16418801 0.52195215
-0.39530513 0.16429943 0.52046323
-0.38482437 0.16521199 0.52030265
-0.37619638 0.16646318 0.520145
-0.31236607 0.16985546 0.52017534
-0.30720699 0.16940522 0.52000135
-0.27333531 0.16614914 0.52049822
-0.26474521 0.16487128 0.52152187
-0.2549687 0.16519111 0.52225679
-0.24523483 0.16534658 0.52126557
-0.23850009 0.16446772 0.52030402
-0.22316144 0.16038986 0.5200035
-0.2147188 0.16430211 0.52020591
-0.15322776 0.16603249 0.52059871
-0.14459182 0.1649974 0.52135563
-0.13500091 0.16486321 0.52199495
-0.1252903 0.16496712 0.52215075
-0.11472666 0.16485615 0.52162433
-0.10487738 0.16486998 0.52181923
-0.094630547 0.16511996 0.52138835
-0.084873714 0.16486 0.52243173
-0.075037345 0.16502649 0.5241642
-0.064806156 0.16500682 0.52454275
-0.054869208 0.16503721 0.52437758
-0.045035243 0.1651388 0.5244382
-0.03482569 0.16502155 0.52379405
-0.024802696 0.16491218 0.52336758
-0.014906369 0.16509971 0.52370477
-0.0048238956 0.16500752 0.52406901
0.0047562141 0.1649265 0.52476227
0.014889883 0.16501172 0.52383298
0.02511693 0.16466179 0.5233891
0.0348753 0.1649197 0.52437919
0.044914335 0.16490336 0.52460086
0.055021767 0.16510119 0.52519536
0.064967602 0.16499548 0.5256573
0.075079411 0.16494566 0.52556622
0.085085578 0.1651862 0.52671552
0.095165819 0.16510542 0.52669019
0.10521429 0.16483285 0.52460921
0.11500622 0.16502546 0.52488792
0.12493239 0.16514675 0.52566886
0.1350532 0.16500632 0.52599239
0.14500278 0.16501038 0.52667052
0.15492435 0.16512376 0.52767444
0.16510181 0.16493258 0.52734876
0.17497894 0.16482775 0.52614057
0.1849809 0.16495824 0.52564657
0.1949493 0.16489165 0.52617472
0.20502798 0.16492277 0.52766454
0.2149626 0.1651416 0.52866805
0.22510268 0.16501245 0.52880383
0.23515086 0.1650143 0.52890682
0.24323308 0.16446966 0.52899396
-0.38439038 0.17103422 0.52023995
-0.3538343 0.17804055 0.5202204
-0.34393373 0.17707551 0.52034193
-0.33527762 0.17729521 0.52045101
-0.32452896 0.17662303 0.52039057
-0.3143135 0.17533697 0.52051091
-0.30520263 0.17579034 0.52084875
-0.2954382 0.17714947 0.5205307
-0.28408745 0.17741005 0.52052075
-0.27483073 0.1752342 0.52110237
-0.26531434 0.17512211 0.5218181
-0.25548559 0.1748971 0.52140659
-0.24726264 0.17261173 0.52047616
-0.2238362 0.17695524 0.52039057
-0.21492554 0.17608956 0.52115804
-0.20536257 0.17603281 0.52113909
-0.19525529 0.17724313 0.52122271
-0.18558671 0.17707533 0.52121675
-0.17540477 0.17762476 0.52079225
-0.16416964 0.1781567 0.52038926
-0.15446216 0.17501612 0.52096468
-0.14504337 0.17522243 0.52291262
-0.13511233 0.1749063 0.52416033
-0.12475595 0.1751236 0.5234369
-0.11493172 0.17504282 0.52217746
-0.10515407 0.17492872 0.52225155
-0.095169157 0.17502944 0.5224492
-0.084978864 0.17480162 0.52264214
-0.074911118 0.17483391 0.5236432
-0.065127075 0.17509316 0.52392608
-0.054847401 0.17490809 0.52351451
-0.044831902 0.17496818 0.52394146
-0.03510439 0.17499352 0.52467299
-0.025011165 0.175046 0.52462476
-0.014784843 0.17479369 0.52385509
-0.0049501206 0.17485228 0.52370209
0.0049255956 0.17506255 0.52465999
0.014915844 0.17495798 0.52487409
0.024866419 0.17496516 0.52512938
0.035073247 0.17496604 0.525159
0.045146935 0.17495137 0.52508771
0.054857828 0.17507353 0.52614582
0.064913385 0.17502546 0.52671671
0.074992083 0.17494881 0.52681518
0.085000575 0.17507742 0.52659303
0.094917901 0.17483352 0.52604246
0.10513594 0.17499693 0.52524245
0.11505645 0.17496569 0.52577585
0.12512864 0.17495178 0.52655852
0.13508087 0.17510109 0.52711427
0.14499688 0.17487229 0.52642232
0.15489048 0.17502548 0.52744484
0.16470823 0.17459358 0.52918017
0.17506243 0.17494832 0.52817112
0.18505417 0.17494974 0.52683055
0.19516201 0.17493248 0.52731931
0.20493792 0.17463133 0.52861392
0.21499588 0.17480312 0.52911538
0.22495218 0.17486849 0.52912068
0.23487175 0.17494313 0.52876198
0.24139573 0.17331797 0.52874947
-0.35331225 0.18094788 0.52028859
-0.34397578 0.18242365 0.52053487
-0.33481941 0.18391608 0.52093774
-0.32475355 0.18469909 0.52085316
-0.31486368 0.18494233 0.52135402
-0.30525401 0.18514462 0.52198893
-0.29498145 0.1849689 0.52169722
-0.28500441 0.18485662 0.52154857
-0.27469462 0.1850446 0.52140689
-0.2647889 0.18503553 0.52160448
-0.25505996 0.18520086 0.5213986
-0.24546124 0.1869175 0.52104467
-0.23465586 0.18605691 0.52173173
-0.22507642 0.18472889 0.52283847
-0.21518044 0.18498172 0.52332526
-0.20481573 0.18487003 0.52266622
-0.19488995 0.18497169 0.52249682
-0.18470776 0.18517515 0.52250242
-0.17503935 0.18525526 0.52203619
-0.16497383 0.18497126 0.52125758
-0.15486398 0.18477875 0.52154201
-0.14492597 0.18485239 0.52274966
-0.1351383 0.1849381 0.52395052
-0.1251813 0.18511139 0.52398592
-0.11517945 0.18480647 0.5234018
-0.10477553 0.18488288 0.52321512
-0.09497267 0.18500599 0.52380031
-0.085066989 0.18498443 0.52384263
-0.075308278 0.1852237 0.5245868
-0.065159805 0.18524337 0.52527428
-0.055201173 0.18487157 0.52508432
