# .PCD v0.7 - Point Cloud Data file format
VERSION 0.7
FIELDS x y z
SIZE 4 4 4
TYPE F F F
COUNT 1 1 1
WIDTH 1381
HEIGHT 1
VIEWPOINT 0 0 0 1 0 0 0
POINTS 1381
DATA ascii
-0.075200938 -0.035143912 0.50623113
-0.064755902 -0.03513255 0.50769788
-0.05770031 -0.03366971 0.50902045
-0.10225528 -0.025611361 0.50106823
-0.095106661 -0.02485688 0.50369591
-0.08496131 -0.024958843 0.50598842
-0.0748142 -0.025175804 0.50734228
-0.065242179 -0.025386462 0.50847715
-0.057824027 -0.027295947 0.50935727
-0.10200987 -0.014432054 0.50047684
-0.09549918 -0.01514888 0.50160271
-0.084938161 -0.014958647 0.50337219
-0.075093061 -0.014840832 0.50724989
-0.068564445 -0.017160838 0.50968182
-0.10262305 -0.0047326451 0.50097674
-0.095141955 -0.0051679146 0.50212562
-0.084805407 -0.0051182504 0.50307781
-0.075004667 -0.0050173523 0.50675303
-0.069520749 -0.0041441848 0.50969666
-0.10273241 0.0048566628 0.50084054
-0.095005639 0.0051790765 0.50229853
-0.0847883 0.0049826233 0.50412238
-0.074998118 0.005058154 0.50772053
-0.069656074 0.0093223955 0.50999951
-0.1020609 0.015122464 0.50058466
-0.09514989 0.015413335 0.50285327
-0.085111067 0.015124708 0.50572205
-0.075173706 0.015112014 0.50841671
-0.069566905 0.012565399 0.50986367
-0.10030422 0.021181967 0.50057828
-0.093959279 0.023712 0.50172913
-0.085146695 0.025060756 0.50474685
-0.075287089 0.025082711 0.50829226
-0.083720945 0.034880135 0.50364614
-0.077091567 0.033646766 0.5082714
-0.082763299 0.040897768 0.50720727
-0.079478621 0.040839225 0.50989431
-0.032838885 -0.25442365 0.51075828
-0.025817355 -0.25304323 0.51321161
-0.018747084 -0.25075161 0.51674026
-0.033950876 -0.24476917 0.51101887
-0.024844015 -0.24525566 0.51316315
-0.015496737 -0.24457046 0.51637721
-0.0080805393 -0.24273482 0.51889694
-0.041801002 -0.23353721 0.51049966
-0.035211645 -0.23498917 0.51164788
-0.024966873 -0.23498549 0.51346511
-0.015088426 -0.23489223 0.51597291
-0.0051965141 -0.2347981 0.5185495
0.0014964342 -0.23295312 0.519723
-0.041165374 -0.22713096 0.51025724
-0.034598093 -0.2251876 0.51207936
-0.024756076 -0.22510836 0.5153327
-0.015131216 -0.22540769 0.51826519
-0.0058217077 -0.22694562 0.51957786
0.0024144351 -0.22799633 0.51984435
-0.033649065 -0.2150811 0.5114311
-0.025095049 -0.21507348 0.5143131
-0.01523149 -0.21475491 0.51786667
-0.0090225637 -0.21255136 0.51981819
-0.033436235 -0.20524387 0.51133788
-0.024908079 -0.20482659 0.51429194
-0.014968907 -0.20485805 0.51728797
-0.0093243606 -0.2063957 0.51939189
-0.032261249 -0.19529645 0.51146948
-0.024975423 -0.19496571 0.51514024
-0.015266585 -0.19517823 0.51853627
-0.0093168318 -0.19568805 0.51980746
-0.040042192 -0.18048085 0.51013112
-0.033458482 -0.18427002 0.51142824
-0.025227798 -0.18506511 0.51480323
-0.016410092 -0.18551847 0.51859748
-0.044188663 -0.17374343 0.51151371
-0.035164271 -0.17529686 0.51384151
-0.024975896 -0.17533806 0.5167312
-0.017096862 -0.17595187 0.51890844
-0.04386083 -0.16542515 0.51160246
-0.035265226 -0.16504887 0.51446575
-0.024942011 -0.1651082 0.51632178
-0.018120712 -0.1651828 0.51794827
-0.053155098 -0.15208045 0.51074719
-0.044422887 -0.15451959 0.51166564
-0.034890398 -0.15479799 0.51322699
-0.025281206 -0.15517515 0.51405144
-0.015200567 -0.15473528 0.51311749
-0.053566311 -0.14520085 0.51158822
-0.044761226 -0.1449997 0.51392585
-0.034797203 -0.14491075 0.51428801
-0.024990911 -0.14479783 0.51379639
-0.052877977 -0.13550961 0.51117188
-0.045081399 -0.13466689 0.51395959
-0.034906842 -0.1349754 0.51582026
-0.02672377 -0.13556898 0.51594824
-0.019911379 -0.13919502 0.51403546
-0.051533639 -0.12821195 0.51057541
-0.044560149 -0.12498888 0.51276791
-0.034906913 -0.12500015 0.51669437
-0.02671349 -0.12425248 0.51861537
-0.05055071 -0.11335454 0.5102278
-0.04480787 -0.11494671 0.51186234
-0.035244096 -0.11502389 0.51544952
-0.025153732 -0.1149741 0.51815349
-0.019117735 -0.11341567 0.519669
-0.050893527 -0.10615768 0.51036602
-0.044812288 -0.1051456 0.51213855
-0.035033032 -0.10480794 0.51513445
-0.024728268 -0.10507659 0.51740247
-0.018430941 -0.10425074 0.5192979
-0.051499318 -0.095510878 0.51052034
-0.045266751 -0.094989762 0.51260167
-0.035048146 -0.094890289 0.51607841
-0.025315126 -0.095390469 0.51846212
-0.018267646 -0.098792538 0.51966316
-0.051228076 -0.085649416 0.51010728
-0.045248281 -0.084949963 0.51240975
-0.035097003 -0.084958948 0.51633775
-0.028116237 -0.085026577 0.51922357
-0.067729503 -0.07102371 0.51012164
-0.053512 -0.073446438 0.51045179
-0.045011524 -0.074903488 0.51218325
-0.03490952 -0.074956797 0.51572031
-0.027486464 -0.074783877 0.51886332
-0.064444408 -0.065140419 0.51078528
-0.055061094 -0.065088622 0.51143712
-0.044748574 -0.064977676 0.51309949
-0.034776829 -0.06508819 0.5163992
-0.027472427 -0.065149039 0.51909232
-0.070034355 -0.05583325 0.51005757
-0.064847916 -0.054645494 0.51138031
-0.054932859 -0.055048697 0.51234341
-0.044980038 -0.055130407 0.5136531
-0.035269763 -0.054979254 0.5167383
-0.027656771 -0.055020597 0.51921105
-0.064318225 -0.046220127 0.51136762
-0.055046093 -0.044856999 0.51252925
-0.044870492 -0.045051891 0.5141257
-0.035291813 -0.045003533 0.51717812
-0.028817436 -0.045738019 0.51936603
-0.053470865 -0.035387523 0.51121396
-0.044858407 -0.034834206 0.51349306
-0.035030842 -0.035130277 0.51699913
-0.029177513 -0.03424263 0.51954257
-0.062639028 -0.021222502 0.51096505
-0.054192692 -0.02414326 0.51196754
-0.04518589 -0.025070362 0.51454759
-0.034856711 -0.025140606 0.51738006
-0.028788384 -0.025375918 0.51940423
-0.070041597 -0.01528029 0.5100174
-0.064706519 -0.014466246 0.51209801
-0.055256128 -0.015000713 0.51530915
-0.044853594 -0.015192343 0.51751977
-0.034641437 -0.015047833 0.51876712
-0.02862387 -0.017401971 0.51970541
-0.064610012 -0.0050310893 0.51207072
-0.054823782 -0.0051734205 0.51510161
-0.044800207 -0.0048691253 0.51751244
-0.036869384 -0.0049343444 0.51943904
-0.065084092 0.0050915289 0.51173651
-0.055099852 0.005132704 0.51423103
-0.044767685 0.0051506138 0.51602495
-0.036242437 0.0056435224 0.51871842
-0.070472449 0.016252663 0.51023585
-0.064894617 0.015118335 0.51151133
-0.054986283 0.015246706 0.51409554
-0.044731054 0.015110071 0.51642197
-0.036079776 0.014627757 0.5187555
-0.070755772 0.026021006 0.51025873
-0.065303966 0.025071055 0.51178294
-0.055232689 0.024930852 0.51414883
-0.045032188 0.024934199 0.51686054
-0.038129449 0.02506821 0.51919973
-0.072971873 0.035987545 0.51132756
-0.064875059 0.03475875 0.51353467
-0.054926693 0.034829821 0.5153417
-0.044853427 0.035096627 0.51680422
-0.037600636 0.034965955 0.51907319
-0.0808222 0.04221005 0.51010942
-0.075533405 0.042051688 0.51256627
-0.06453225 0.04297661 0.51513076
-0.05482443 0.043193061 0.51576918
-0.044405431 0.044821404 0.51607674
-0.036849748 0.045340266 0.51850528
-0.042138077 0.050979011 0.51574957
-0.036764789 0.05288966 0.51847887
-0.0040318794 -0.24201138 0.520495
-0.0014938116 -0.23919705 0.52049154
0.0048043197 -0.23413755 0.52160013
0.013282895 -0.23141848 0.52521068
-0.011022866 -0.22116955 0.52019233
-0.004367223 -0.2230188 0.52058667
0.00573351 -0.22469635 0.52131766
0.015045947 -0.22511581 0.52483678
0.022206297 -0.22411606 0.52855074
-0.010524958 -0.21677077 0.52026397
-0.0044033513 -0.21499389 0.52163047
0.0050358879 -0.21481869 0.52385122
0.014991214 -0.21507497 0.52558225
0.022928685 -0.21521565 0.52842063
-0.0048998543 -0.2049748 0.5218491
0.004752568 -0.20509802 0.52564913
0.014831382 -0.20495006 0.52836066
0.022765562 -0.2054819 0.5292843
-0.010530815 -0.19395497 0.52008855
-0.004683957 -0.19501221 0.52180004
0.0046024309 -0.19555323 0.52429211
0.013421094 -0.19719106 0.52772677
0.023793168 -0.19880974 0.52976567
-0.012291757 -0.18316017 0.52065986
-0.0056884559 -0.18571395 0.52204102
0.00089856982 -0.1888489 0.52390748
-0.01260126 -0.17598867 0.52066094
-0.017153561 -0.16737193 0.52003396
-0.021667421 -0.11763471 0.52000892
-0.017820302 -0.11386839 0.52090299
-0.0150393 -0.10405888 0.52120543
-0.022064516 -0.091683209 0.52058834
-0.014743344 -0.094807751 0.52173859
-0.0052065859 -0.093805231 0.52419347
0.0016387403 -0.091771238 0.52700263
-0.023133021 -0.08519154 0.52122658
-0.014940198 -0.085167177 0.52304167
-0.0051382179 -0.084974006 0.52460361
0.0043597175 -0.084944591 0.52749783
0.010268271 -0.080919586 0.52978319
-0.022609279 -0.07511057 0.52095759
-0.015013922 -0.075066864 0.52242017
-0.0051328363 -0.074933872 0.52418327
0.0051388065 -0.075153962 0.52651066
0.01170256 -0.074335396 0.52914792
-0.022657337 -0.064720444 0.52118212
-0.014912101 -0.065077655 0.52311212
-0.0049676648 -0.064949758 0.5253855
0.0044566053 -0.06563168 0.5283277
0.011103799 -0.068919025 0.52962369
-0.022795059 -0.055149198 0.52109158
-0.015377403 -0.05480548 0.52429456
-0.0049414081 -0.055257373 0.5273723
0.0023759902 -0.056239922 0.52933794
-0.023934493 -0.044685114 0.52143776
-0.014888817 -0.045280088 0.52528208
-0.0074079586 -0.045490228 0.52918327
-0.024483051 -0.034936108 0.521927
-0.014969096 -0.035304397 0.52517056
-0.0055882945 -0.034716535 0.52832317
0.002579662 -0.031893872 0.52940631
-0.024008168 -0.024949336 0.52167284
-0.015153069 -0.025015173 0.52492851
-0.0049382211 -0.025141841 0.52677751
0.0047915531 -0.024695594 0.52865541
0.01077805 -0.023117268 0.5298562
-0.030156195 -0.013366997 0.52003449
-0.024163479 -0.014555776 0.52093649
-0.014912292 -0.015119206 0.52351069
-0.0048034391 -0.015012745 0.52645272
0.0022451992 -0.015912715 0.52898693
-0.032277234 -0.0047661029 0.52035177
-0.024922224 -0.0048394236 0.52172333
-0.014859351 -0.0049110916 0.52408719
-0.0047341702 -0.0053675021 0.52633667
0.0022555667 -0.0044532558 0.52881616
-0.031830903 0.003595331 0.52059335
-0.025058389 0.0054369974 0.52240789
-0.014968844 0.0053087799 0.52540237
-0.0055185575 0.0046853446 0.52807492
0.0022488732 0.0020115776 0.52940238
-0.03166109 0.016714267 0.52057976
-0.024950299 0.014835618 0.52200133
-0.014957944 0.014939831 0.52480984
-0.0051953476 0.015450872 0.52819479
0.0009309848 0.017047832 0.52961415
-0.033564091 0.025065564 0.52121043
-0.025044641 0.024791082 0.52306664
-0.014814934 0.024830831 0.52478647
-0.0061447257 0.024519764 0.52793002
0.001714766 0.020572109 0.5299328
-0.032657675 0.035097495 0.52111357
-0.025063926 0.035085231 0.52276576
-0.01505287 0.034838933 0.52507371
-0.0068580033 0.03476651 0.5281657
-0.0323455 0.044963796 0.5211246
-0.025174797 0.044848409 0.52343476
-0.015382419 0.045098364 0.52623969
-0.0069853906 0.044626068 0.52866024
-0.032729689 0.055517156 0.52155012
-0.025351146 0.05485769 0.52400565
-0.01480939 0.054745734 0.52584928
-0.0052644652 0.055434823 0.52818406
0.00080293417 0.059310056 0.52938843
-0.032411184 0.062074311 0.5231629
-0.024754083 0.063309953 0.52537817
-0.015516286 0.063446753 0.52628917
-0.0037724006 0.062916033 0.52717757
0.0014723133 0.064444311 0.52920192
0.026984833 -0.22310269 0.53108966
0.032319911 -0.22146182 0.53244787
0.02768757 -0.21497761 0.5308671
0.034726124 -0.21475284 0.53236115
0.044144385 -0.21260533 0.53375715
0.051246881 -0.21022364 0.53517616
0.027390253 -0.2049357 0.53108585
0.035087541 -0.20487668 0.53341025
0.04504364 -0.20505092 0.53502202
0.054223083 -0.2045417 0.53742194
0.019929707 -0.19848894 0.53014898
0.026878685 -0.19918755 0.53037035
0.034317456 -0.19865966 0.5327751
0.045592126 -0.19832307 0.53555071
0.055470679 -0.19669963 0.53779769
0.0647543 -0.11523008 0.53758472
0.060262501 -0.097336501 0.53688091
0.0091646016 -0.085575581 0.53052598
0.013564853 -0.082831137 0.53137231
0.021590194 -0.080769069 0.53221565
0.01648896 -0.075043626 0.5310874
0.024675364 -0.074243248 0.53351134
0.033956707 -0.071819775 0.53850526
0.007987095 -0.062109888 0.5304572
0.01507507 -0.064950123 0.53229707
0.025035867 -0.065145046 0.53524446
0.034878362 -0.065114155 0.537929
0.042947844 -0.063756615 0.53926164
-0.00030821562 -0.050092399 0.53041816
0.0066281063 -0.054480299 0.53096777
0.015110115 -0.054840025 0.53345436
0.025270453 -0.055026066 0.53605437
0.035096873 -0.055070002 0.53759611
0.043019194 -0.055199578 0.53899914
-0.0026116129 -0.044424091 0.53058589
0.0051943334 -0.045201305 0.53146511
0.015420543 -0.044917457 0.53347147
0.025032787 -0.045061648 0.53632331
0.03475976 -0.044998024 0.53877538
0.042478349 -0.046363898 0.53970152
-0.0022885322 -0.038219307 0.5302912
0.0059377053 -0.03586483 0.53077114
0.015130523 -0.034952424 0.53256273
0.025331004 -0.034932632 0.53503585
0.034265257 -0.035183247 0.53835756
0.0087231798 -0.025865545 0.53024119
0.015196872 -0.025095597 0.53196329
0.024905751 -0.024918063 0.53569907
0.033147957 -0.025237368 0.53851974
0.0064650057 -0.01424129 0.53155923
0.014916261 -0.015222321 0.53377551
0.02501609 -0.014979199 0.53681695
0.032315128 -0.015522009 0.53929073
0.0067554396 -0.0058508576 0.53155094
0.014868957 -0.0050769811 0.53391725
0.025365094 -0.0050112284 0.53638893
0.031637687 -0.0033988028 0.53894973
-0.0015732587 0.0073820995 0.53043574
0.005721292 0.0053111599 0.53131551
0.01489735 0.0047757081 0.53331953
0.025142904 0.0048678122 0.53591877
0.032032099 0.0039486936 0.5388993
-0.00088704628 0.011454701 0.53033227
0.0053574066 0.014841167 0.53140801
0.015124228 0.014875399 0.5336442
0.025187293 0.014901448 0.53668261
0.031051056 0.015422546 0.53926736
-0.0017962564 0.026657874 0.5307014
0.0051162383 0.02545242 0.53229576
0.015174849 0.024940059 0.53438562
0.025012761 0.025051676 0.53708124
0.031419873 0.024875017 0.53922999
-0.0020145429 0.034635026 0.53134203
0.0047892774 0.035190381 0.53444237
0.015060706 0.034989398 0.53628999
0.024252435 0.034510631 0.53842556
0.030036569 0.032721929 0.53995144
-0.0019971547 0.044852931 0.53099394
0.0047843098 0.044973698 0.53453469
0.014736277 0.045233548 0.53799981
0.022842338 0.044734489 0.53943318
-0.0014862386 0.052324217 0.53067786
0.0050859228 0.054973014 0.53297645
0.014943694 0.055139616 0.53663945
0.024542917 0.055215035 0.53887439
0.030945053 0.057739884 0.53985995
0.0060728285 0.06492351 0.53236657
0.014770594 0.065198451 0.53625917
0.023456089 0.064275853 0.53900117
0.0085663795 0.071060054 0.53273684
0.015944937 0.072816141 0.53578079
0.024400201 0.075714327 0.53796738
0.030412734 0.077778071 0.53989887
0.019070029 0.080674388 0.533234
0.025752785 0.082072794 0.53637028
0.030740499 0.081867062 0.53926861
0.059381358 -0.20324357 0.54027534
0.06134472 -0.20266069 0.54157281
0.059845805 -0.19510846 0.54009801
0.06127093 -0.19754754 0.54121315
0.076958209 -0.1421112 0.54097539
0.07608413 -0.13532081 0.54161137
0.084005728 -0.13534403 0.54303324
0.078321762 -0.12578671 0.54096138
0.082185768 -0.12466968 0.54242569
0.038470328 -0.07131438 0.54027802
0.043708365 -0.070794731 0.5407365
0.05645493 -0.070913471 0.54257911
0.065009557 -0.071129493 0.54577726
0.074059881 -0.070866443 0.54751807
0.046909075 -0.065740243 0.54047334
0.055156425 -0.065004155 0.54265094
0.064736471 -0.065010473 0.54613465
0.074805848 -0.065152317 0.5478996
0.08237166 -0.064895265 0.54923314
0.047968164 -0.054631017 0.54069114
0.055052906 -0.055050824 0.54309773
0.065030873 -0.054951407 0.54651934
0.0740702 -0.055429481 0.54884499
0.082024448 -0.058029152 0.54938322
0.039637327 -0.042765647 0.54014826
0.04647864 -0.044658877 0.54063576
0.054939248 -0.044790756 0.54329103
0.064714178 -0.045145068 0.54644686
0.073677525 -0.044436179 0.54860973
0.038803991 -0.033216957 0.54051709
0.045192666 -0.035077922 0.54148442
0.055044711 -0.034962632 0.54389769
0.064708412 -0.035093468 0.54723352
0.073713124 -0.035873067 0.54929388
0.037813306 -0.024919538 0.54090983
0.044691343 -0.025028763 0.54277134
0.055054013 -0.025152767 0.54458517
0.065071777 -0.024919637 0.54754913
0.071540557 -0.025718093 0.54967946
0.036609102 -0.014684142 0.54078907
0.044878099 -0.015022774 0.5422101
0.05500738 -0.015144235 0.54413849
0.065089248 -0.014928916 0.54732931
0.071300127 -0.015422583 0.54969966
0.035929225 -0.0052027204 0.54113072
0.04489376 -0.0049965978 0.54285306
0.055327449 -0.0050025433 0.54434949
0.065060079 -0.0049340283 0.54703999
0.071741104 -0.0048591248 0.54933047
0.036458299 0.0052959467 0.54180312
0.044802714 0.0048534246 0.54471618
0.055217199 0.0049254419 0.54644209
0.065200925 0.0049000196 0.5482927
0.071981035 0.0038812361 0.5495981
0.035844218 0.014844477 0.5422104
0.044871524 0.014803773 0.54532218
0.055057012 0.014828112 0.54705542
0.063754767 0.014687429 0.54894489
0.036398727 0.024905501 0.54193938
0.045049649 0.024977447 0.54514158
0.055345345 0.025147557 0.54732811
0.063423946 0.024953879 0.5493471
0.028530357 0.037383821 0.54062694
0.035176713 0.03473144 0.54213458
0.044888102 0.034919377 0.54491973
0.054844532 0.035096344 0.54778117
0.062132224 0.033264652 0.54970515
0.027591104 0.044798374 0.5407697
0.035335317 0.045021873 0.54234362
0.045104403 0.044971693 0.54495054
0.054765508 0.044913575 0.54811049
0.028295184 0.052444588 0.54039884
0.035447732 0.054927416 0.54120141
0.045261577 0.055040646 0.54418588
0.054209817 0.054869909 0.54785758
0.028094621 0.066286355 0.54058719
0.035410438 0.064978398 0.54185659
0.045101643 0.06503351 0.54497898
0.054333113 0.065141745 0.54843056
0.028182549 0.072224244 0.54045004
0.035310216 0.075035967 0.54206049
0.045087405 0.075003117 0.54539716
0.053970523 0.074603602 0.54867417
0.036529832 0.082097247 0.54212576
0.045077953 0.082729131 0.54541939
0.053408183 0.083866209 0.5486052
0.11492586 -0.17119995 0.55510414
0.11557115 -0.1649642 0.55578434
0.12171913 -0.16413842 0.55932105
0.11493451 -0.15492526 0.55517673
0.12310028 -0.15439621 0.55885404
0.11502027 -0.14501408 0.55411613
0.12391109 -0.1448504 0.55838847
0.13063076 -0.14859515 0.55991864
0.10852251 -0.13407244 0.55099016
0.11469568 -0.13499022 0.55436075
0.12337741 -0.13481668 0.55841959
0.10927685 -0.12899284 0.55149716
0.11595306 -0.12725683 0.55418432
0.12250326 -0.1247569 0.55737352
0.12450102 -0.11502278 0.55568725
0.12372965 -0.10526288 0.55559522
0.11977467 -0.090078183 0.55505669
0.12224077 -0.095191322 0.55603194
0.1167823 -0.08430057 0.55602694
0.12055483 -0.089358278 0.55796301
0.088050775 -0.071012884 0.5505197
0.095412351 -0.070818692 0.55086619
0.10651731 -0.073261529 0.55531305
0.11205959 -0.077871978 0.55716652
0.087494805 -0.064989671 0.55109143
0.095261216 -0.065104894 0.55341566
0.1048867 -0.065258376 0.55738211
0.11107472 -0.065736718 0.55977857
0.077814959 -0.052479047 0.55071855
0.085619889 -0.054449778 0.55182493
0.095034599 -0.055237167 0.55447537
0.10473768 -0.054887533 0.55790794
0.11126232 -0.053372115 0.55961108
0.078309357 -0.046523798 0.55089521
0.084715463 -0.044919096 0.55375183
0.094781525 -0.04495931 0.55667454
0.10508148 -0.045015432 0.55812919
0.11237754 -0.045512486 0.55938578
0.077084422 -0.033254545 0.55058038
0.085193187 -0.035236549 0.55266279
0.094925612 -0.034806013 0.55745053
0.10252218 -0.03673568 0.55955344
0.075991802 -0.02463668 0.55135208
0.084849931 -0.024970556 0.55383551
0.09508758 -0.025142169 0.5567643
0.10177481 -0.024470462 0.55943793
0.075860366 -0.014876957 0.55196357
0.084897958 -0.01485115 0.55525404
0.094789967 -0.015233999 0.55789965
0.10120385 -0.015187362 0.55945629
0.076625988 -0.0048801871 0.55143452
0.085244745 -0.0051003108 0.55440587
0.09482073 -0.0052270521 0.55785739
0.10261294 -0.0044859713 0.55928075
0.076289006 0.0054577375 0.55108225
0.085028425 0.0048169657 0.55419254
0.094627604 0.0047156713 0.55809957
0.10355518 0.0048950566 0.55932617
0.068459749 0.015673961 0.55050224
0.075174049 0.014791868 0.55169803
0.085129835 0.014762291 0.55445987
0.095039651 0.014692271 0.55812794
0.10325779 0.014932025 0.55958259
0.06792742 0.025267787 0.55066091
0.075067483 0.024863875 0.55234587
0.08515586 0.024831684 0.55500937
0.09476722 0.024632707 0.55820429
0.10121497 0.023520604 0.55978239
0.059702277 0.037831351 0.5500986
0.065853477 0.035494041 0.55075061
0.074899539 0.035128187 0.55254126
0.084921941 0.034843404 0.55512482
0.094793692 0.03468854 0.55816156
0.10062154 0.036162287 0.55982423
0.059327077 0.047473196 0.55047017
0.065022461 0.04500642 0.55180442
0.075260676 0.04496336 0.55355984
0.084953047 0.045176037 0.55665439
0.094609238 0.044480864 0.5590539
0.10105027 0.042911682 0.55970651
0.058839694 0.055987433 0.550565
0.064907096 0.055024866 0.55218726
0.075152494 0.055010512 0.55429411
0.085133284 0.054839149 0.55681038
0.092375651 0.055126213 0.55927432
0.059085432 0.064255066 0.55050015
0.065081805 0.065065391 0.55196422
0.074889719 0.064824909 0.55477077
0.085055456 0.065010361 0.55725807
0.093179695 0.064405993 0.55919373
0.05878634 0.076075427 0.55051219
0.064987808 0.075145386 0.55258971
0.074926436 0.074824795 0.55544055
0.085065044 0.074980378 0.55775839
0.091802798 0.0748851 0.55945462
0.058044255 0.084133945 0.55093426
0.064834215 0.08511325 0.55342549
0.074934185 0.084920131 0.55612987
0.084999062 0.084938556 0.55766147
0.091826186 0.085368387 0.55917239
0.06823957 0.091790147 0.55491233
0.074895732 0.094544984 0.55732006
0.08502084 0.09489353 0.55898952
0.092192136 0.093110383 0.55952823
0.077283837 0.10182496 0.55924749
0.084953956 0.10211251 0.55971706
0.090549141 0.10204294 0.55988896
0.12637538 -0.16284183 0.56113809
0.13208662 -0.16098341 0.56246388
0.12774763 -0.15587156 0.56090897
0.13499014 -0.15467647 0.5628081
0.14427973 -0.1523101 0.56519419
0.1500968 -0.15056753 0.56841147
0.12852859 -0.1444446 0.56043375
0.13499393 -0.14489089 0.56218654
0.14499973 -0.14494298 0.56588554
0.15195991 -0.14570242 0.56904268
0.12838647 -0.13567938 0.56067038
0.13511649 -0.13512067 0.56321752
0.14498273 -0.13522223 0.56711513
0.15119445 -0.13422318 0.56930137
0.12701277 -0.12445087 0.56135088
0.1349923 -0.12512077 0.5636524
0.14467995 -0.12492906 0.56758404
0.15229338 -0.12510523 0.56920421
0.12749191 -0.11497468 0.56196648
0.1349159 -0.11512235 0.56622958
0.14382643 -0.11588156 0.56925666
0.1529853 -0.11895997 0.56966847
0.12717506 -0.1047131 0.56239659
0.13482326 -0.10504833 0.56623274
0.14324608 -0.10490733 0.56889099
0.12611656 -0.094557114 0.56275141
0.13488002 -0.094924115 0.56636256
0.14224212 -0.095619522 0.56900412
0.11931324 -0.083502874 0.56056899
0.12497157 -0.084937617 0.56348211
0.13507062 -0.085073628 0.56700891
0.14126864 -0.084951431 0.56926572
0.11559932 -0.074498393 0.56128126
0.1249295 -0.075041108 0.56323999
0.13493042 -0.075005837 0.56687003
0.14163007 -0.075037323 0.56934488
0.1097203 -0.068478651 0.56023538
0.11505276 -0.065057889 0.56222665
0.12512456 -0.065163493 0.56446183
0.13512492 -0.065034471 0.56665993
0.14237712 -0.064578116 0.56918955
0.10908265 -0.056628529 0.56029516
0.11554071 -0.055469748 0.56174028
0.12513392 -0.054941744 0.56444305
0.13505381 -0.054975167 0.56720656
0.14298035 -0.055459529 0.56921726
0.11672717 -0.044567302 0.56121218
0.12496795 -0.045070753 0.56462115
0.1349903 -0.045222092 0.56757045
0.14275338 -0.044398528 0.56917286
0.10604259 -0.034262493 0.56086171
0.11489111 -0.035269551 0.56306773
0.12485609 -0.034949649 0.56491393
0.13505302 -0.034976251 0.5668149
0.14369474 -0.0352422 0.56910509
0.10638816 -0.024868641 0.56129712
0.11482342 -0.025046552 0.56329542
0.12500805 -0.024923792 0.5642556
0.13500275 -0.024949133 0.56650436
0.14141193 -0.025142619 0.56924129
0.10597675 -0.014842474 0.5610882
0.11484078 -0.014961553 0.56400359
0.12478413 -0.014921059 0.5666129
0.13498193 -0.015082061 0.56824809
0.14067516 -0.017871005 0.5697127
0.10756554 -0.0054728608 0.56122839
0.11500563 -0.0049929563 0.56429809
0.12500125 -0.0049452516 0.56745571
0.1345066 -0.0053906604 0.56923217
0.10816438 0.0042042136 0.56089252
0.1149417 0.0049113613 0.56333715
0.12487966 0.0048758881 0.56741142
0.1327491 0.0041212318 0.56953543
0.10734013 0.015159975 0.56047028
0.11510777 0.014951003 0.56291795
0.12495183 0.014929873 0.56722206
0.13168207 0.015008637 0.56955028
0.098624706 0.02886337 0.56012082
0.1052177 0.025358509 0.56088173
0.11509468 0.025066338 0.56293672
0.12508763 0.025038296 0.56680071
0.13189586 0.024669122 0.56952727
0.099527664 0.038076736 0.56017584
0.10533922 0.035089441 0.56131059
0.1150797 0.035117079 0.56377864
0.12515298 0.034836851 0.56719714
0.13160038 0.033478003 0.56951946
0.09765131 0.048628002 0.56019956
0.10513459 0.045334652 0.56123859
0.11495843 0.044926956 0.56443471
0.12477392 0.045158483 0.56794667
0.13111077 0.048154477 0.5697102
0.096862182 0.055071164 0.56046718
0.10499081 0.055164654 0.56206524
0.11481128 0.054958928 0.56483644
0.12518895 0.055003162 0.5675438
0.13189371 0.054347746 0.5693019
0.097876787 0.06570214 0.56071037
0.10520784 0.064863935 0.56286871
0.11499726 0.065155834 0.56703436
0.12353159 0.063582197 0.56895071
0.1300585 0.061568946 0.5697971
0.096519329 0.075179353 0.56098932
0.10490882 0.074851215 0.56353396
0.11484108 0.074940242 0.5673784
0.12123721 0.076560862 0.56961209
0.096699193 0.084653296 0.56114501
0.10514779 0.084972739 0.56428474
0.11525331 0.084982239 0.56711888
0.1231886 0.08521086 0.56914788
0.08703962 0.098803349 0.56012315
0.095941901 0.095540456 0.5611394
0.1047113 0.094884127 0.56413573
0.11487594 0.094817854 0.56720138
0.12286614 0.094255842 0.56925529
0.084794782 0.1029874 0.56026196
0.095610082 0.10293795 0.56154144
0.10526692 0.10471459 0.5652073
0.11399287 0.10441367 0.56865185
0.12112388 0.10103028 0.56981367
0.10832913 0.11165886 0.56668675
0.11506893 0.11482371 0.56908822
0.11780044 0.12198615 0.56914908
0.1212348 0.12473377 0.56966376
0.15629655 -0.1430822 0.57109094
0.16313556 -0.14171886 0.57309616
0.15598832 -0.13523825 0.57176346
0.1649029 -0.13503879 0.57473838
0.17422353 -0.13336222 0.57668328
0.18174933 -0.1310088 0.57862896
0.15743947 -0.12494049 0.57122344
0.16510241 -0.12500973 0.57457846
0.17511465 -0.12508531 0.57758361
0.18161021 -0.12567347 0.57927483
0.14718084 -0.11373287 0.57039762
0.15546706 -0.11475344 0.57127988
0.16497427 -0.11509605 0.57444662
0.17528626 -0.1149231 0.57680643
0.18182592 -0.11466488 0.57912546
0.1478032 -0.10480038 0.57039708
0.15501785 -0.10503243 0.57170403
0.16486025 -0.10491929 0.57459909
0.17479715 -0.1054324 0.57763952
0.18132585 -0.10706761 0.57958096
0.14684856 -0.094433345 0.57091868
0.15502092 -0.09501268 0.57234699
0.16491702 -0.095006742 0.57532585
0.17507984 -0.095059954 0.57802087
0.18060093 -0.097335994 0.57984418
0.14611521 -0.084960133 0.57141727
0.15489084 -0.085182995 0.5730629
0.16491282 -0.084996082 0.57524592
0.17478521 -0.084941879 0.57848293
0.18025836 -0.082696028 0.57993531
0.14643022 -0.075237051 0.57178313
0.15490247 -0.074939452 0.5734421
0.16518092 -0.075140417 0.5744319
0.17490314 -0.074918687 0.57804209
0.18048953 -0.07429117 0.57958329
0.14699407 -0.065425284 0.5712887
0.15500541 -0.064876437 0.57314104
0.16540726 -0.064944401 0.57430381
0.17484081 -0.065197282 0.57806349
0.14758186 -0.05418599 0.57100827
0.15466373 -0.055189833 0.57344866
0.16507198 -0.054960921 0.57539713
0.17374213 -0.054922462 0.57823867
0.14746858 -0.045657266 0.5711661
0.15503336 -0.045010585 0.57415348
0.16519764 -0.044944737 0.57606989
0.17343052 -0.045323137 0.57849598
0.14813846 -0.034157656 0.57058841
0.15509948 -0.035132919 0.57289642
0.16504325 -0.034906875 0.57622153
0.17311805 -0.034821525 0.57857031
0.14637314 -0.025109112 0.57127082
0.15511931 -0.024986187 0.57359535
0.16511953 -0.024986023 0.5762307
0.17352587 -0.025274683 0.57884014
0.1393273 -0.013443351 0.57014316
0.14510337 -0.015061223 0.57152617
0.15482494 -0.014899508 0.57392502
0.16457911 -0.015174652 0.57741326
0.17214778 -0.018275952 0.57944006
0.13806958 -0.0039047687 0.57024467
0.14491357 -0.005010624 0.57165748
0.15487374 -0.0047724894 0.57426566
0.16411681 -0.0045854216 0.5775398
0.13669403 0.0056905751 0.57061934
0.1450832 0.0049252789 0.57225704
0.15492338 0.0049897204 0.57527751
0.16486126 0.0048842039 0.57826024
0.17041765 0.0070000077 0.57992548
0.13636854 0.014826665 0.57118291
0.14507815 0.014897784 0.57319617
0.15504105 0.014994015 0.57621008
0.16307588 0.014255322 0.57889712
0.13660416 0.025286192 0.57110041
0.14494844 0.024925092 0.57376969
0.15511684 0.025044046 0.57634121
0.16376698 0.025508542 0.57865727
0.13627394 0.035144888 0.5714972
0.14504434 0.034937661 0.57432157
0.15497153 0.035132818 0.57659096
0.16405602 0.034989685 0.57877743
0.12915918 0.04281763 0.57032204
0.13524753 0.044813167 0.57153982
0.14489304 0.044945981 0.57396746
0.1551443 0.044934768 0.57597744
0.1637456 0.045132995 0.57870942
0.13631746 0.055152282 0.57143646
0.14495893 0.05489669 0.57402706
0.15506162 0.05495527 0.5759033
0.16459729 0.054840397 0.57824093
0.12671767 0.067002423 0.57071549
0.13500592 0.064983264 0.5722428
0.14492694 0.064860515 0.57491511
0.15517786 0.064998992 0.57684445
0.16332708 0.064598761 0.57891917
0.12588452 0.074805297 0.5711059
0.13499811 0.074866928 0.5733003
0.14478298 0.075092345 0.57568592
0.15493451 0.074983463 0.57750636
0.16229279 0.074372478 0.57913548
0.12750408 0.084472694 0.57069391
0.13500273 0.085112952 0.57286108
0.14504981 0.084923171 0.57618004
0.15503906 0.084976897 0.57847255
0.16124119 0.083263494 0.57951587
0.12720858 0.095815584 0.57083809
0.13513711 0.094956286 0.57291716
0.14494644 0.0950085 0.57623196
0.15457945 0.095084481 0.57854152
0.16007939 0.090529963 0.57995117
0.11828618 0.10642823 0.57041305
0.12503053 0.10495864 0.57142907
0.13512151 0.10516537 0.5729295
0.14490342 0.10493295 0.57667202
0.15302166 0.10402466 0.57905853
0.1184988 0.11315681 0.57039005
0.12496819 0.1150555 0.57164133
0.13503121 0.11494528 0.57374412
0.14491473 0.11496125 0.5772059
0.15145807 0.11451726 0.57956159
0.12560891 0.12429861 0.57174563
0.13501272 0.12519327 0.57446557
0.14524443 0.12493294 0.57772094
0.15209346 0.12663886 0.57969105
0.12842484 0.13126269 0.57148689
0.13615602 0.13147232 0.57419819
0.14598924 0.13238277 0.5771805
0.1533878 0.13441911 0.57894868
0.186096 -0.12425116 0.58104426
0.19373643 -0.12239546 0.58280879
0.20052826 -0.12008817 0.58385766
0.18666029 -0.11517392 0.58152813
0.19511364 -0.11497715 0.58417356
0.20467928 -0.11411925 0.58639342
0.21089402 -0.11258048 0.58947146
0.17914592 -0.10253593 0.58038157
0.18566491 -0.10472941 0.5817427
0.19510333 -0.10492095 0.58464277
0.2051094 -0.10506171 0.58708549
0.211836 -0.1037988 0.58918589
0.17980365 -0.093733251 0.58029503
0.18505885 -0.094871923 0.58263582
0.19496168 -0.095023952 0.58513039
0.20503676 -0.095008649 0.58709711
0.21354008 -0.094640657 0.58900082
0.17884782 -0.084812716 0.58031613
0.18489596 -0.085153945 0.58226764
0.19500874 -0.084950261 0.58452165
0.20504943 -0.085040897 0.5870735
0.21354668 -0.085186526 0.58903241
0.1853165 -0.0750058 0.58148503
0.19518091 -0.07495863 0.58356291
0.20501868 -0.074948706 0.58726001
0.21254049 -0.076619476 0.58933318
0.17937696 -0.061791204 0.58049148
0.18486115 -0.064958699 0.5819332
0.19515015 -0.065072238 0.58369333
0.20470782 -0.065071911 0.5869258
0.21404935 -0.063733824 0.58883333
0.22012044 -0.061222397 0.5899623
0.1785056 -0.055445228 0.58049899
0.18492562 -0.055126067 0.58240891
0.19511196 -0.0550205 0.58542788
0.20502289 -0.055022843 0.58734691
0.21358229 -0.055945743 0.5887624
0.22019362 -0.058561616 0.5898509
0.17812015 -0.044579249 0.58067757
0.18493596 -0.044923887 0.58269042
0.19495028 -0.044962898 0.58540505
0.20505324 -0.045174506 0.58798999
0.21094835 -0.045413952 0.58973718
0.17794594 -0.035287164 0.58085412
0.1850726 -0.034879632 0.5835517
0.19501795 -0.03507844 0.58691537
0.20477998 -0.035233736 0.58907127
0.21099487 -0.036706313 0.58984661
0.17836335 -0.024738822 0.58067161
0.18489848 -0.024883498 0.58271658
0.19493668 -0.02506377 0.5861479
0.20315796 -0.024970906 0.58879697
0.16879505 -0.01203129 0.5807327
0.17558244 -0.014460276 0.58169496
0.18512751 -0.015051465 0.58367342
0.19507106 -0.01496366 0.58669591
0.2024155 -0.016239826 0.58894771
0.16873032 -0.0061311438 0.58078533
0.17493726 -0.0049848296 0.58329111
0.18511727 -0.0051768483 0.5851199
0.19513693 -0.0050720456 0.58759964
0.20110361 -0.0047357725 0.58955097
0.16930768 0.0086743785 0.58028078
0.17509112 0.0045686532 0.58181161
0.18517165 0.0048302752 0.58430624
0.19495714 0.0048590521 0.58774382
0.20133264 0.0038794242 0.58970457
0.16739887 0.015868274 0.58083528
0.17505665 0.014793889 0.5818578
0.18518786 0.014759667 0.58430308
0.19488019 0.01463451 0.58798927
0.20134683 0.01676804 0.58984137
0.16791686 0.023594577 0.58068055
0.17502062 0.02493746 0.58192557
0.18497582 0.024815552 0.58442241
0.19467102 0.025008118 0.58785045
0.20176025 0.026894117 0.58983153
0.1687565 0.035222486 0.58039665
0.17493069 0.034983326 0.58211362
0.18502407 0.03482949 0.58487576
0.19482018 0.034917343 0.58830744
0.20212936 0.033441722 0.58986723
0.16834748 0.044350117 0.58049411
0.17500657 0.045132615 0.58241826
0.18512006 0.044725906 0.5850386
0.19469118 0.045207553 0.58820128
0.16926119 0.055320151 0.58029878
0.17505816 0.054986794 0.58233726
0.18487898 0.055084489 0.58594537
0.19478923 0.054910712 0.58831775
0.20012105 0.055627059 0.58988333
0.16778618 0.065634802 0.58077914
0.17491901 0.064978644 0.58299077
0.18496895 0.065027989 0.58686745
0.19415827 0.064652912 0.58918589
0.16691223 0.075438909 0.58126777
0.17501174 0.075120188 0.58436471
0.1849543 0.074862577 0.5877744
0.19227578 0.074044362 0.58964461
0.16552573 0.085507132 0.58189303
0.17500921 0.084780917 0.58511311
0.1849575 0.085031845 0.58811402
0.1903498 0.086265951 0.58986628
0.15929918 0.094554149 0.58038807
0.16522764 0.094948426 0.58180964
0.17504549 0.094960563 0.58479685
0.18498331 0.09497907 0.58774376
0.19070801 0.095838696 0.58952963
0.15701528 0.10617867 0.58087671
0.16508228 0.10491225 0.58275402
0.17496356 0.10505144 0.58556527
0.18493797 0.10485868 0.58800292
0.1911847 0.1038179 0.58949125
0.15608878 0.11528677 0.58151656
0.16495594 0.11515499 0.58467865
0.17487206 0.11494914 0.58745009
0.18490472 0.11507427 0.58871078
0.19140092 0.11869884 0.58982599
0.15592679 0.12442145 0.58081514
0.16529875 0.12470407 0.582784
0.17483024 0.12521315 0.58620918
0.18521744 0.12501398 0.58818501
0.1905919 0.12617774 0.58973157
0.15788913 0.1345821 0.58058262
0.16496001 0.13491741 0.5828737
0.17504445 0.13507333 0.58556664
0.18496047 0.13497497 0.5878911
0.19067642 0.1349539 0.58956009
0.15885709 0.1413707 0.58148867
0.16517971 0.14451084 0.58427227
0.17480738 0.14472406 0.58614206
0.18485522 0.14504558 0.5882054
0.19028585 0.14554588 0.58986372
0.17213711 0.15016693 0.5857352
0.18754072 0.15177146 0.58894348
0.19082446 0.15381224 0.58972883
0.21340559 -0.11131654 0.59074771
0.21618293 -0.10543714 0.59117687
0.22420746 -0.10321499 0.59246445
0.23160096 -0.10107191 0.59411776
0.21820152 -0.095569871 0.59073955
0.22503419 -0.09488222 0.59317297
0.23473769 -0.094749086 0.59527642
0.24375392 -0.092241511 0.59662908
0.25007319 -0.090135984 0.59873396
0.21821253 -0.084743887 0.59060347
0.22496597 -0.085027725 0.59361899
0.23506862 -0.085136026 0.59638536
0.24498126 -0.084943399 0.59806216
0.25137162 -0.085759029 0.59949261
0.21631457 -0.074147105 0.59070522
0.22496617 -0.075138673 0.59307271
0.2350381 -0.075046666 0.59626907
0.24474329 -0.07511384 0.59894592
0.25118989 -0.076865718 0.59974736
0.21677923 -0.067576051 0.59055692
0.22509867 -0.065086395 0.59189761
0.23512605 -0.064749971 0.59555101
0.2426579 -0.065595046 0.59897351
0.21731377 -0.053212781 0.59072715
0.2250901 -0.054876018 0.59213436
0.23510563 -0.054898366 0.59536856
0.24329609 -0.054411225 0.5988366
0.20955859 -0.041782491 0.59008658
0.21550412 -0.044902477 0.59147578
0.22502954 -0.044865698 0.5947246
0.23493482 -0.045018278 0.5972302
0.24345072 -0.045547195 0.59912521
0.20843515 -0.032304663 0.59026277
0.21534325 -0.034883227 0.59170139
0.22519411 -0.034887224 0.59514338
0.23345885 -0.035764784 0.59902745
0.24201405 -0.038007125 0.59978795
0.20788053 -0.025004422 0.59071487
0.21505393 -0.025005935 0.59235364
0.22499456 -0.024985312 0.59571302
0.23315939 -0.024088876 0.59907365
0.24008052 -0.020695219 0.59984744
0.20680165 -0.014287232 0.59125334
0.21487147 -0.014917944 0.59364623
0.22514236 -0.015166408 0.59550834
0.23487994 -0.014792474 0.59799278
0.24153966 -0.0131255 0.59965348
0.2060369 -0.0050483434 0.59143895
0.21516588 -0.0049148402 0.59408081
0.22507779 -0.0049441839 0.5966481
0.23468378 -0.0056319786 0.59896189
0.24389118 -0.0057053296 0.59959787
0.198725 0.0076131038 0.59002781
0.20582224 0.0051251166 0.59127027
0.21508127 0.0049338359 0.59406573
0.22518593 0.0049239313 0.59699738
0.23327649 0.0059348769 0.59928489
0.2438374 0.00030126516 0.59991622
0.19885807 0.017066015 0.59015083
0.20541269 0.01490976 0.59119195
0.21493256 0.015092226 0.59451032
0.22502586 0.014913719 0.59708673
0.23481227 0.014787439 0.59896338
0.24003163 0.017570771 0.59991747
0.19958322 0.024630625 0.59018505
0.20551261 0.025019767 0.59105551
0.21502796 0.025101587 0.59533817
0.22499663 0.025020221 0.59830844
0.23464064 0.025079783 0.59903663
0.24055111 0.025748612 0.5997749
0.19905466 0.036805026 0.59029925
0.20529704 0.035263661 0.59105819
0.21518321 0.034756612 0.59383273
0.22504486 0.035049312 0.59756011
0.23435774 0.034237549 0.59915423
0.24118359 0.032682169 0.59978443
0.19964983 0.044035953 0.59026533
0.20503113 0.045063298 0.59200513
0.21497935 0.045012847 0.59504879
0.22493388 0.044949956 0.59762394
0.23168573 0.045363776 0.59946692
0.199221 0.058489334 0.5903092
0.20493312 0.054910164 0.59210593
0.2150363 0.055000894 0.59463501
0.22506192 0.054905396 0.59762996
0.23215131 0.055063926 0.59951556
0.19831838 0.066305876 0.59034687
0.20506087 0.065074228 0.59247965
0.21519208 0.064984009 0.59501827
0.22511965 0.064822339 0.59711915
0.23182642 0.065385021 0.59920621
0.19588858 0.075369522 0.59073263
0.20513995 0.075013846 0.59273922
0.2148698 0.074875601 0.5959481
0.22505721 0.074982919 0.59784371
0.23201236 0.074580252 0.59944445
0.18891671 0.087547034 0.59002602
0.19508508 0.084937431 0.59144676
0.20514004 0.08477699 0.59324116
0.21493702 0.085020535 0.59667796
0.22433101 0.084331632 0.59874868
0.23088913 0.081010886 0.59955114
0.19552442 0.094765186 0.59181821
0.20486933 0.095055982 0.59486562
0.21497686 0.095095448 0.59750336
0.22266197 0.094625071 0.59906191
0.18929447 0.10823783 0.59023964
0.19570418 0.10499143 0.59157419
0.20512748 0.10501365 0.59487981
0.2150977 0.10508637 0.59769678
0.22137021 0.10462048 0.59956139
0.18970533 0.11470599 0.59012687
0.19512929 0.11486946 0.5913201
0.20495433 0.11494631 0.59382576
0.21505964 0.11496075 0.59710354
0.22108975 0.11491937 0.5995031
0.19528879 0.12507533 0.59166306
0.20505467 0.12508816 0.59489089
0.21498676 0.12497666 0.59777379
0.22068745 0.12546605 0.59961534
0.1955595 0.13484432 0.59198427
0.20501699 0.13493598 0.59551871
0.21477722 0.13463897 0.59834117
0.22356644 0.13487627 0.59978968
0.18928809 0.14733234 0.5902884
0.19511034 0.14491439 0.59247243
0.20490524 0.14506772 0.596026
0.21429855 0.14534661 0.59876907
0.22116525 0.1469136 0.59985119
0.18988025 0.15185085 0.59041679
0.19604065 0.15353335 0.59193569
0.20482589 0.15517457 0.59557086
0.21389548 0.15379837 0.59903038
0.20619273 0.16336034 0.59614068
0.21405849 0.16649045 0.59875929
0.22179198 0.16943684 0.59951782
0.20996927 0.17096333 0.5944252
0.21533072 0.17471758 0.59732121
0.22145626 0.17383865 0.59962845
0.21659206 0.18265799 0.59821278
0.22053978 0.18146589 0.59975463
0.25561252 -0.083443314 0.6013326
0.2626223 -0.081648611 0.60351157
0.24843511 -0.07302732 0.60021651
0.25550455 -0.074777871 0.60149103
0.26499981 -0.07489232 0.60504466
0.2741358 -0.073103257 0.60717934
0.28122097 -0.071083061 0.60904282
0.24728459 -0.06450516 0.60104454
0.25503466 -0.064936019 0.60263783
0.2649138 -0.064966828 0.60559833
0.27488759 -0.064988121 0.6082319
0.28188467 -0.064785428 0.60914993
0.24754266 -0.055937722 0.60081273
0.25494319 -0.054890625 0.60315788
0.26509112 -0.054970227 0.605241
0.27507564 -0.054991286 0.60767496
0.28205839 -0.054824509 0.60912508
0.2476532 -0.043992259 0.60060722
0.25507188 -0.044910561 0.60277116
0.26517552 -0.044948108 0.60584611
0.27494201 -0.045254692 0.60811621
0.28214428 -0.047350142 0.60957712
0.2371742 -0.0337747 0.60062796
0.24532957 -0.034792632 0.6010257
0.25512579 -0.03507892 0.60331815
0.26491773 -0.034985822 0.60628289
0.27372393 -0.034919996 0.60886353
0.23710234 -0.02633651 0.6006633
0.24502379 -0.025070192 0.60087961
0.25509906 -0.024996271 0.60275793
0.26506504 -0.024841785 0.60656077
0.27448413 -0.025108257 0.60901397
0.28222367 -0.026003312 0.60974413
0.23913151 -0.019165672 0.60032082
0.24583757 -0.015487043 0.60100001
0.25501409 -0.015081668 0.603257
0.26505011 -0.014990719 0.60678524
0.2721861 -0.014822989 0.60946357
0.23645364 -0.0014581613 0.60031646
0.24619606 -0.0047200955 0.60054904
0.25497326 -0.0051420624 0.60293484
0.26499078 -0.005013905 0.60603321
0.27353844 -0.0046593626 0.60868686
0.23696695 0.0040606684 0.60048985
0.24503398 0.0049062502 0.60115558
0.25512242 0.0048828651 0.60275722
0.26514208 0.0048866859 0.60526651
0.27289 0.0042809839 0.60871583
0.23925799 0.01557908 0.60011804
0.2451032 0.014947087 0.60164875
0.25495565 0.014805077 0.60410047
0.2649706 0.014835241 0.60618126
0.27211067 0.01493411 0.60867584
0.23932225 0.024836279 0.6003406
0.24522795 0.024923939 0.60230571
0.25475901 0.02494573 0.60545039
0.2650921 0.02495658 0.60716534
0.27130628 0.024077069 0.60925698
0.23728994 0.038101844 0.60053003
0.24528259 0.035109527 0.60191292
0.25498205 0.035054658 0.60517532
0.26495475 0.034843162 0.60760182
0.27201939 0.035373371 0.609299
0.23625839 0.04486854 0.6010592
0.24506964 0.045048229 0.6028505
0.2549969 0.044944521 0.60667425
0.26305139 0.042993024 0.60924441
0.27065662 0.040511902 0.60963595
0.23678069 0.054961722 0.60105008
0.24513869 0.055038452 0.6037268
0.25405875 0.054752458 0.60789227
0.2368599 0.064802781 0.60100561
0.24506205 0.065008894 0.60361862
0.25425085 0.065086193 0.60826939
0.23651345 0.07518883 0.60095912
0.24499519 0.074865147 0.60335249
0.25480556 0.075123988 0.60744756
0.26134756 0.077115275 0.60947061
0.2281846 0.087366477 0.60096079
0.235121 0.085034482 0.60212344
0.24499899 0.084892631 0.6038149
0.25489852 0.085112602 0.60665816
0.26123163 0.084128834 0.60933691
0.22755693 0.094853282 0.6012916
0.2348906 0.095078267 0.60412568
0.24499941 0.095212124 0.60539329
0.25506517 0.095071696 0.60751116
0.2617594 0.097567901 0.6094504
0.22598004 0.10532617 0.60104817
0.23502284 0.10472072 0.60275382
0.24507886 0.10491662 0.60508645
0.25497267 0.10507304 0.60818422
0.26199198 0.10344104 0.60939443
0.22577402 0.1151601 0.60185611
0.23500541 0.11502706 0.6045121
0.24506301 0.11501123 0.60716653
0.2533733 0.11423878 0.60908693
0.21948248 0.12460364 0.60005975
0.22556274 0.1249194 0.60174775
0.23491681 0.12514763 0.60505831
0.24467821 0.12482645 0.608841
0.25190857 0.12402166 0.6096822
0.21852353 0.1385887 0.6002562
0.22560352 0.13480616 0.60057175
0.23502791 0.13499011 0.60349268
0.2442982 0.13522778 0.60854709
0.25185996 0.13597301 0.60971373
0.21831313 0.14302626 0.60032874
0.22507215 0.14490484 0.60121638
0.23508702 0.14483726 0.60430193
0.24483363 0.14489391 0.60842109
0.25210845 0.14489742 0.60965109
0.21713312 0.15731679 0.60047758
0.22514886 0.15487885 0.60200375
0.23495956 0.15504111 0.60628593
0.24421655 0.15455218 0.60923219
0.25252753 0.15228945 0.60972184
0.21636124 0.16271946 0.60052407
0.22521633 0.164799 0.6017428
0.23493569 0.16509414 0.60610282
0.24409273 0.16518137 0.60869014
0.22599249 0.17525797 0.60184532
0.23493148 0.17495213 0.60577667
0.24480945 0.1750067 0.60829389
0.25322953 0.17979169 0.60994494
0.21949777 0.18210399 0.60021877
0.22543837 0.18281668 0.60280704
0.23572657 0.18279082 0.60623592
0.24557847 0.18463361 0.60785425
0.2511504 0.18423438 0.60982049
0.2481038 0.19210769 0.60745931
0.25044495 0.19398963 0.60961527
0.28641152 -0.064690337 0.6112836
0.29366037 -0.062194649 0.61374784
0.28694081 -0.05514808 0.61111587
0.29506496 -0.054982632 0.61433494
0.3043505 -0.054023441 0.61765999
0.31201202 -0.05187789 0.61961895
0.27882227 -0.04083718 0.61042374
0.28584912 -0.044406671 0.61136425
0.29503193 -0.045006663 0.61455452
0.30470002 -0.044738844 0.61804336
0.31169501 -0.043205116 0.61957008
0.27820757 -0.035049632 0.61046273
0.28499085 -0.035088841 0.61205631
0.29497167 -0.034933958 0.6149919
0.30502734 -0.035061315 0.61750573
0.31394038 -0.034342736 0.61860704
0.32021898 -0.030640319 0.61975491
0.27863374 -0.024995336 0.61027771
0.2855953 -0.024673024 0.61080986
0.29514816 -0.025062555 0.61460882
0.3050988 -0.025053281 0.61820132
0.31373626 -0.025888186 0.61908591
0.27640107 -0.014910095 0.61075729
0.28500652 -0.015128751 0.61272126
0.29497322 -0.015151207 0.61524963
0.30503851 -0.014962783 0.6177007
0.31219944 -0.014766948 0.61936712
0.27831894 -0.0054002726 0.61064696
0.28498036 -0.0050161495 0.6130119
0.29499465 -0.0049345368 0.615776
0.30500647 -0.0049254578 0.61806697
0.31189385 -0.0063601048 0.61952603
0.2773197 0.005761385 0.61106282
0.28494364 0.004940554 0.61314851
0.29507509 0.0050196894 0.61591351
0.3041108 0.0047991346 0.61911112
0.31099761 0.0030580144 0.6199258
0.27693948 0.014707174 0.61160606
0.28490242 0.015070871 0.61439723
0.29500276 0.014990736 0.61698568
0.30312982 0.014726507 0.61883771
0.27590257 0.025156714 0.61202216
0.28500727 0.025211683 0.6149469
0.29471231 0.02491744 0.61846948
0.30204606 0.023058131 0.61954319
0.27677771 0.03504958 0.61181575
0.28494334 0.035012685 0.61482656
0.29486281 0.035047933 0.61794204
0.30110928 0.036457524 0.61955202
0.26622328 0.046202797 0.61104709
0.27531514 0.045048799 0.6118865
0.28499582 0.045050249 0.61501616
0.29501089 0.044965386 0.61766952
0.30470136 0.04568617 0.61896116
0.31086949 0.046994224 0.61959869
0.25873926 0.055574611 0.61047667
0.26489592 0.055102974 0.61179215
0.27499214 0.054997209 0.61275488
0.28503868 0.054991815 0.61524147
0.29488569 0.055056591 0.61816567
0.3043645 0.0547961 0.61938542
0.31129533 0.050243814 0.61969101
0.25901428 0.064820752 0.61028802
0.26503322 0.065006778 0.61141396
0.27501911 0.064996511 0.61300576
0.28500947 0.065087393 0.61578429
0.29507622 0.06506861 0.61801076
0.30290323 0.06429933 0.61928028
0.25798267 0.070517756 0.61010706
0.26555181 0.074678719 0.61139882
0.27498266 0.07502339 0.61437136
0.28503123 0.075125195 0.61708593
0.29417256 0.073796548 0.61883801
0.30209649 0.0711025 0.61968648
0.26612183 0.085192844 0.61199671
0.27493259 0.085001744 0.61583418
0.28521648 0.085026465 0.61685544
0.29247004 0.085538007 0.61863106
0.25992113 0.092700064 0.61007977
0.26562694 0.094577856 0.61176741
0.27490059 0.094925992 0.61492485
0.28498563 0.095077835 0.61711174
0.29387096 0.095027737 0.61870897
0.25962576 0.10868246 0.61012161
0.26623946 0.10552491 0.6115393
0.27498794 0.10490058 0.61491674
0.28490296 0.10500766 0.61802584
0.29394969 0.10322839 0.61951464
0.25784996 0.11616908 0.61079675
0.26510435 0.11509927 0.61286336
0.27482906 0.11502209 0.61638004
0.28466269 0.11492321 0.61848682
0.29014757 0.11044459 0.61984241
0.24715842 0.12892522 0.61011398
0.25594863 0.12510781 0.61087704
0.26506978 0.12502316 0.61318254
0.27504811 0.12511119 0.616741
0.28443003 0.12477407 0.61927241
0.29111797 0.1219989 0.61980152
0.24800578 0.13328698 0.61020511
0.25575137 0.13479781 0.61083293
0.26496872 0.13493045 0.61325651
0.27501976 0.13504259 0.61631
0.28478059 0.13521619 0.61823416
0.29040739 0.13619526 0.61966962
0.25649288 0.14502886 0.61078298
0.2650851 0.144821 0.61257142
0.27485842 0.14505813 0.61527938
0.28440368 0.14417695 0.61831671
0.29076776 0.14137109 0.61960083
0.24770789 0.15727441 0.61038387
0.25554317 0.15553075 0.61102331
0.26499194 0.15491232 0.61286646
0.27524513 0.15501115 0.61531264
0.28238779 0.15549909 0.61870432
0.24853836 0.16382472 0.61043239
0.25505432 0.16520552 0.6121009
0.26501873 0.16497038 0.61452073
0.27512947 0.16498764 0.61635017
0.28177425 0.16386756 0.61829448
0.24960007 0.17423771 0.61023778
0.25519478 0.17499174 0.61161804
0.26506889 0.17510234 0.61480159
0.27443877 0.17485045 0.61787212
0.28021443 0.17048424 0.61914527
0.24995367 0.18161058 0.61003137
0.25534242 0.184999 0.61127263
0.26502937 0.18483903 0.61343867
0.27253154 0.18443792 0.61613923
0.25531837 0.1946588 0.61332661
0.26541555 0.19477087 0.61329371
0.2711902 0.1923995 0.61428559
0.26618412 0.2008117 0.61171776
0.31263393 -0.051162198 0.62028581
0.30892852 -0.047420707 0.62036771
0.31547454 -0.045249738 0.62134808
0.32400799 -0.043114871 0.62344527
0.33122471 -0.040886618 0.62494189
