# .PCD v0.7 - Point Cloud Data file format
VERSION 0.7
FIELDS x y z
SIZE 4 4 4
TYPE F F F
COUNT 1 1 1
WIDTH 1366
HEIGHT 1
VIEWPOINT 0 0 0 1 0 0 0
POINTS 1366
DATA ascii
-0.18179916 -0.1323138 0.34031025
-0.17464888 -0.13468751 0.34127906
-0.16498558 -0.13489212 0.34207466
-0.15516782 -0.13511366 0.34317473
-0.14509724 -0.13501953 0.34460804
-0.13496521 -0.13499503 0.3451933
-0.12510094 -0.13500184 0.34546107
-0.11481756 -0.135001 0.34705567
-0.10513677 -0.13495281 0.34737247
-0.095234074 -0.13504325 0.34826827
-0.089026071 -0.13544755 0.34951776
-0.19159858 -0.1213816 0.34037858
-0.18425964 -0.12421853 0.34081134
-0.17493255 -0.12496267 0.34178615
-0.16497818 -0.12493528 0.34317273
-0.15482438 -0.1252124 0.34576917
-0.14501755 -0.12518896 0.34683597
-0.13503404 -0.12508477 0.34777829
-0.12508658 -0.12487883 0.34861571
-0.11508866 -0.12518685 0.34913659
-0.1054428 -0.12612252 0.34907609
-0.095711641 -0.12833236 0.34940431
-0.20795551 -0.11014982 0.34037009
-0.19384617 -0.11413097 0.34085944
-0.18500638 -0.11505084 0.34182957
-0.17504252 -0.11501839 0.34244263
-0.16494536 -0.1149184 0.34327835
-0.15498713 -0.11492152 0.34526077
-0.14478341 -0.11498649 0.34723574
-0.13529976 -0.11566143 0.34920964
-0.12429953 -0.11791553 0.34964305
-0.11679913 -0.11763185 0.34973276
-0.10644969 -0.11921426 0.3498067
-0.22280258 -0.10116513 0.34044942
-0.21375684 -0.10414974 0.3412132
-0.20503356 -0.10466598 0.34145322
-0.19509006 -0.10489634 0.34240404
-0.18499637 -0.10499522 0.34289885
-0.17493428 -0.10497115 0.34342253
-0.16493887 -0.10509907 0.34523648
-0.15497676 -0.10500619 0.34692013
-0.14514109 -0.10496394 0.34802154
-0.13634852 -0.1050101 0.34920415
-0.23311245 -0.093293011 0.34038773
-0.22500908 -0.094777979 0.34107116
-0.21508344 -0.09495803 0.34247133
-0.20495266 -0.095156267 0.34358603
-0.1950487 -0.094858594 0.34346652
-0.18495961 -0.095101982 0.34439886
-0.17501844 -0.09496329 0.34571066
-0.16515198 -0.095403083 0.34788594
-0.15457022 -0.096463636 0.34909287
-0.14560783 -0.096470647 0.34931451
-0.13678925 -0.098602869 0.34962383
-0.24373509 -0.082967311 0.34073931
-0.23479448 -0.084759571 0.34106043
-0.22498935 -0.084988602 0.34177935
-0.21499628 -0.084832467 0.34249645
-0.20487916 -0.085077211 0.34330401
-0.19492953 -0.084852636 0.34374186
-0.18508385 -0.084971935 0.34595364
-0.17508771 -0.085049435 0.3480168
-0.16853279 -0.087401509 0.34929764
-0.26013175 -0.070313551 0.34058371
-0.25364378 -0.072886236 0.34069318
-0.24492107 -0.074913733 0.34168759
-0.23499444 -0.075064473 0.34356636
-0.22495298 -0.074944973 0.34385049
-0.21499056 -0.074855372 0.34401691
-0.20499012 -0.07498581 0.34419334
-0.1949891 -0.075014099 0.34578681
-0.18552397 -0.075949132 0.34863323
-0.17593282 -0.077952638 0.34934315
-0.27188933 -0.0627544 0.34038988
-0.2645005 -0.063721538 0.34082195
-0.25506765 -0.065083846 0.34227243
-0.24512476 -0.065022029 0.34336287
-0.23492786 -0.065080784 0.3455205
-0.22501351 -0.065080136 0.34699953
-0.21500914 -0.064962685 0.34727749
-0.20502742 -0.064928725 0.3471432
-0.1955983 -0.065813102 0.34877875
-0.18928577 -0.067784838 0.3495822
-0.27293438 -0.054292686 0.34039304
-0.26496884 -0.054857906 0.34150738
-0.25510898 -0.054973356 0.34294644
-0.24497326 -0.054922737 0.34396315
-0.235021 -0.054998413 0.345424
-0.22499399 -0.055016607 0.34756151
-0.21500231 -0.054884184 0.34856573
-0.20533341 -0.055899829 0.34928319
-0.19502687 -0.055762701 0.3495923
-0.18635468 -0.055819612 0.34974858
-0.29328382 -0.042698484 0.34051174
-0.28531823 -0.042789701 0.34070659
-0.27449998 -0.044589397 0.34135336
-0.26497334 -0.044943284 0.3434118
-0.25501603 -0.044900741 0.34412467
-0.24505351 -0.044984221 0.34475499
-0.23489514 -0.04499365 0.3460387
-0.22500633 -0.045155242 0.34835869
-0.21541747 -0.044953182 0.34944606
-0.20868699 -0.047301989 0.34984526
-0.31160218 -0.032025017 0.34016049
-0.30429164 -0.033107672 0.3402108
-0.29463017 -0.034773208 0.34096235
-0.28505185 -0.034986645 0.34214658
-0.27512044 -0.034969866 0.34279591
-0.26505101 -0.034971546 0.34377784
-0.25486767 -0.034977179 0.34520888
-0.24494462 -0.034973867 0.34601054
-0.23501967 -0.034968324 0.34752765
-0.22662464 -0.036477923 0.3494612
-0.21431303 -0.038583547 0.34961218
-0.32064053 -0.021356121 0.3401041
-0.31394428 -0.024325771 0.34054497
-0.30487204 -0.02449422 0.34103018
-0.29507533 -0.02508693 0.34205908
-0.28503582 -0.024946881 0.34387901
-0.27499852 -0.025050156 0.34430754
-0.26487738 -0.024941413 0.345146
-0.25488016 -0.024979822 0.34643182
-0.245004 -0.025035385 0.34775949
-0.23555373 -0.025969371 0.34845561
-0.22829427 -0.027214244 0.34967265
-0.3306787 -0.010729149 0.34025091
-0.3235437 -0.013154774 0.34074047
-0.31508097 -0.015036269 0.34251431
-0.30513179 -0.014969155 0.34390831
-0.29507625 -0.015100449 0.34376425
-0.28505304 -0.014952263 0.34435529
-0.27508742 -0.014996226 0.34576088
-0.2650038 -0.01489432 0.34655401
-0.25554532 -0.015012948 0.34844565
-0.24644884 -0.019356133 0.34981808
-0.33358845 -0.0037922731 0.3408452
-0.32515231 -0.0049461355 0.34248737
-0.31499049 -0.005008975 0.34417117
-0.3049261 -0.0049530282 0.34535199
-0.29497594 -0.0050768522 0.34591511
-0.28493187 -0.0049420907 0.3458676
-0.27488852 -0.0050008739 0.34749171
-0.26503018 -0.0049758325 0.3480266
-0.25547779 -0.0053572482 0.34888366
-0.24732646 -0.0062967679 0.34973702
-0.36174011 0.008499111 0.34032652
-0.35456416 0.0075572492 0.34088248
-0.34485382 0.0058376472 0.34137765
-0.33500773 0.005049814 0.34235451
-0.32508177 0.0050287177 0.34431738
-0.31507927 0.0049727047 0.34495848
-0.30497989 0.0050702007 0.34598789
-0.29494736 0.0049317996 0.34689808
-0.2850748 0.0051303287 0.34757304
-0.27508691 0.0049396171 0.34847173
-0.2660363 0.0030792672 0.34942907
-0.25786433 0.0011977719 0.34950462
-0.36113033 0.010682891 0.34069934
-0.35452849 0.011580666 0.34210294
-0.34471527 0.012687031 0.34283984
-0.33463359 0.014279109 0.34363627
-0.32499388 0.015043378 0.34523463
-0.31496772 0.015027199 0.34609118
-0.30496517 0.015074266 0.34596807
-0.29494721 0.015017997 0.34734476
-0.2858873 0.014066546 0.3489947
-0.27520791 0.01235377 0.34944171
-0.26917684 0.011753146 0.34975624
-0.3233555 0.021113336 0.34615269
-0.31443462 0.022332208 0.34634566
-0.30460733 0.023544272 0.34718004
-0.2951259 0.024790637 0.34860656
-0.28835905 0.023824548 0.34970602
-0.2932525 0.030219287 0.34924087
0.12834832 -0.32116842 0.35030562
0.13498595 -0.3220495 0.3516964
0.1449316 -0.32209054 0.35254246
0.15266864 -0.32099026 0.35151809
0.16159889 -0.32003331 0.35202479
0.17953467 -0.32037693 0.3565954
0.18293358 -0.32043028 0.35744807
0.19023353 -0.32001543 0.35867298
0.11752792 -0.31307048 0.3504993
0.12553966 -0.31489223 0.35151863
0.1351884 -0.31512007 0.35328519
0.14514507 -0.31504527 0.35376328
0.15488984 -0.31536093 0.35232633
0.16514663 -0.31505302 0.35317168
0.17495738 -0.31540045 0.35611892
0.18481451 -0.31548253 0.3585887
0.19537839 -0.31585222 0.35959396
0.20560464 -0.31491032 0.3597129
0.21550409 -0.3142195 0.35951132
0.22412141 -0.31392142 0.35958335
0.10908595 -0.30457833 0.35003418
0.11548971 -0.30476797 0.35090011
0.1249058 -0.30536604 0.35252711
0.13504028 -0.30463424 0.35418802
0.14525943 -0.30536526 0.35476476
0.15469454 -0.30499506 0.35423508
0.16473907 -0.30510393 0.35530207
0.17539114 -0.3052997 0.35783148
0.18470356 -0.30483136 0.35957551
0.19492637 -0.30454081 0.35966054
0.20464204 -0.30493438 0.35916153
0.21469995 -0.30457515 0.35941803
0.2217375 -0.30615681 0.35993564
0.10802773 -0.29449686 0.35035986
0.11524345 -0.29488429 0.35173416
0.12505506 -0.29493955 0.35352817
0.1347912 -0.29476678 0.3545776
0.14469655 -0.29484466 0.35526973
0.15507297 -0.2952843 0.3557145
0.16505881 -0.29578662 0.3562305
0.17493057 -0.29513696 0.35795307
0.18496829 -0.29503652 0.35933414
0.19551374 -0.29547456 0.35958996
0.2054463 -0.29518986 0.35931981
0.21461351 -0.29507732 0.35951701
0.22076446 -0.29771423 0.35975567
0.098938964 -0.28189337 0.35041007
0.10565117 -0.28457257 0.35106179
0.11449556 -0.28488961 0.35252589
0.12487124 -0.28454578 0.35395458
0.13501142 -0.285128 0.35508311
0.14492962 -0.28468272 0.35549149
0.15481298 -0.28488651 0.35567856
0.16476715 -0.28534961 0.35649511
0.17489712 -0.28534213 0.35812655
0.18428366 -0.28727829 0.35928792
0.19155326 -0.28897744 0.35953709
0.087244898 -0.27163249 0.35030144
0.095375381 -0.27472177 0.35097265
0.10490339 -0.27497777 0.35264435
0.11517594 -0.27487051 0.35390222
0.12470529 -0.2745139 0.35502565
0.13521771 -0.2753894 0.35678872
0.14513235 -0.27537638 0.35768113
0.15499207 -0.27524301 0.35786754
0.16471367 -0.27603281 0.35851681
0.17365134 -0.27866045 0.35936281
0.057231635 -0.26133528 0.35017392
0.069039881 -0.26050162 0.35001931
0.076642126 -0.26284465 0.35031611
0.085193768 -0.26412079 0.35066196
0.094903469 -0.26496327 0.35200045
0.10483463 -0.26478451 0.35434595
0.11513051 -0.26561424 0.35656103
0.12511595 -0.26494965 0.35795283
0.13525386 -0.2654005 0.35890469
0.14504923 -0.26538381 0.35911289
0.1537064 -0.2658214 0.35932916
0.058373511 -0.25495857 0.3502402
0.065105446 -0.2546075 0.35077521
0.075164467 -0.25494999 0.35162279
0.085267574 -0.25480211 0.35271889
0.095224909 -0.25468445 0.35388908
0.10531383 -0.25497991 0.35550767
0.11488713 -0.25511825 0.35746202
0.12489048 -0.25459468 0.3585642
0.13487968 -0.25482419 0.35887244
0.14380203 -0.25586605 0.35952175
0.15454316 -0.2586751 0.35990611
0.04726246 -0.24115515 0.35008442
0.056277242 -0.24408734 0.35078281
0.065164939 -0.24512556 0.35226333
0.075175151 -0.24516973 0.35392225
0.085045815 -0.24482825 0.3553167
0.094923645 -0.24480245 0.35625374
0.10487632 -0.24482056 0.35670722
0.11519514 -0.24464346 0.35720989
0.12501994 -0.24457079 0.35760945
0.13465695 -0.24517868 0.35884476
0.14153866 -0.24804448 0.35962602
0.028843563 -0.23313734 0.35037267
0.035325594 -0.23431244 0.35092065
0.044986974 -0.23460251 0.3510811
0.055113997 -0.23467778 0.35174173
0.065124758 -0.2349256 0.35337934
0.075174578 -0.23535861 0.35530239
0.084979653 -0.23489302 0.35736889
0.09477745 -0.2350802 0.35862079
0.10502846 -0.23501982 0.35879081
0.1150542 -0.23529734 0.35871226
0.12443241 -0.23784821 0.35902783
0.13154109 -0.23919378 0.35974342
-0.0027752817 -0.22040519 0.35028434
0.0055530318 -0.22147806 0.35040528
0.015785249 -0.22197174 0.3504467
0.02566115 -0.22443596 0.35080817
0.035235569 -0.22516875 0.35197031
0.044901725 -0.22488324 0.35274294
0.055208728 -0.22489287 0.3539145
0.065012231 -0.22500739 0.35547996
0.074730396 -0.22521165 0.35709274
0.084792331 -0.2248937 0.35849801
0.094192326 -0.22493194 0.35949227
0.10423874 -0.22468469 0.35975838
0.11281244 -0.22618113 0.3598423
-0.011916548 -0.21367858 0.35008699
-0.0040936996 -0.21443467 0.35044336
0.0049112597 -0.21529983 0.35100642
0.014828999 -0.21505825 0.35130242
0.024875022 -0.21512315 0.35220385
0.034835514 -0.21518449 0.3531827
0.045064721 -0.21498951 0.354523
0.055283319 -0.21480255 0.35601124
0.06519147 -0.2152957 0.35739994
0.075191468 -0.21521296 0.35831586
0.08533714 -0.21501482 0.35902208
0.095017739 -0.21548763 0.35940102
0.10430062 -0.21561597 0.35954225
0.11021358 -0.2183146 0.35965568
-0.0020251051 -0.20561628 0.35020104
0.005295842 -0.20486499 0.35062987
0.014968785 -0.20485824 0.35206321
0.025095671 -0.20494454 0.35406318
0.035165936 -0.20538102 0.35547391
0.045095515 -0.20490327 0.35610992
0.054902166 -0.20484644 0.35694605
0.064987667 -0.20508796 0.35750118
0.074930131 -0.2047338 0.3584168
0.082978755 -0.20667055 0.35934824
0.092160791 -0.20961867 0.35986286
-0.033433288 -0.19269717 0.35033956
-0.025463983 -0.19252598 0.35046461
-0.013661821 -0.19178174 0.35018146
-0.0039904509 -0.19387974 0.35107014
0.0049883579 -0.19502796 0.35218468
0.01505539 -0.19491118 0.35344344
0.024866005 -0.19454134 0.35542971
0.035219882 -0.19529194 0.35665575
0.044660944 -0.19498865 0.3566266
0.054859255 -0.19504723 0.35826918
0.063716196 -0.1970423 0.35914594
0.073096581 -0.19850087 0.35951802
-0.04380358 -0.1818842 0.35054964
-0.034377068 -0.18488799 0.35119876
-0.024815958 -0.18501368 0.35177803
-0.015195725 -0.18507321 0.3515088
-0.0053611738 -0.18509738 0.35307586
0.0051120156 -0.18495813 0.35525569
0.015109821 -0.18512161 0.35713804
0.025091903 -0.18482843 0.35807064
0.034804061 -0.18507838 0.35736111
0.045059592 -0.18525787 0.35786769
0.053625606 -0.18654209 0.35923767
0.060926378 -0.18986458 0.35996202
-0.061806459 -0.17121556 0.35062751
-0.054309584 -0.17417349 0.35100654
-0.045151427 -0.17476445 0.35154319
-0.035321351 -0.1749261 0.35214216
-0.025058025 -0.17525665 0.3540363
-0.014900248 -0.17510079 0.35549286
-0.0051418138 -0.17504074 0.35597581
0.0046408493 -0.1746866 0.35701174
0.014553467 -0.17490304 0.35796738
0.024429712 -0.174973 0.35937798
0.034874395 -0.17642117 0.3593936
0.042672839 -0.17741382 0.35951486
-0.071556576 -0.16206731 0.3502495
-0.0646386 -0.1648529 0.35125548
-0.054987077 -0.16500731 0.35208908
-0.044876926 -0.16500834 0.35216647
-0.035002325 -0.16505058 0.3522974
-0.025076399 -0.16486222 0.35435718
-0.015299848 -0.16486426 0.35690001
-0.0051675732 -0.16509366 0.35804677
0.0051373374 -0.16495711 0.3582533
0.015149285 -0.16501451 0.3583045
0.024435697 -0.1652467 0.35922512
0.03360799 -0.16933255 0.35999215
-0.070826195 -0.15745667 0.35046381
-0.064795554 -0.15539932 0.35075966
-0.055114735 -0.1547475 0.35078996
-0.045018002 -0.15507455 0.35105413
-0.034969926 -0.1550073 0.35233596
-0.024943739 -0.15458158 0.35391682
-0.015025064 -0.15493257 0.35551623
-0.0051581017 -0.15475994 0.35751477
0.0039013245 -0.15696771 0.35932165
0.014133 -0.15847468 0.35949618
0.021885842 -0.15929468 0.35978419
-0.082258537 -0.14100447 0.35032719
-0.074786961 -0.14255531 0.35067722
-0.06465219 -0.14473303 0.35091585
-0.05508123 -0.14485383 0.35161364
-0.045067452 -0.14532892 0.35215476
-0.035159048 -0.14493248 0.35333762
-0.024959592 -0.14499891 0.35528749
-0.01490559 -0.14497465 0.35729596
-0.0059626736 -0.14700605 0.35873005
-0.090076879 -0.13026977 0.35029489
-0.083902329 -0.1348034 0.3510772
-0.074832618 -0.1351928 0.35257432
-0.064901896 -0.13499396 0.35324383
-0.054784458 -0.13491893 0.3540425
-0.045038193 -0.13492 0.35400751
-0.035291102 -0.13492417 0.35477406
-0.025058521 -0.1349961 0.3572897
-0.015619643 -0.13537678 0.35926408
-0.11147362 -0.12143455 0.35019928
-0.10323524 -0.12219651 0.35038942
-0.094580896 -0.12370779 0.35104156
-0.085067369 -0.12496443 0.35215434
-0.075159781 -0.12507126 0.35390306
-0.064853206 -0.12500666 0.35551035
-0.054892402 -0.12519921 0.35653397
-0.045352269 -0.12530977 0.35746318
-0.035290018 -0.12710567 0.35828173
-0.024634287 -0.12609707 0.35908878
-0.016796062 -0.12643015 0.3597115
-0.13217729 -0.1126464 0.35020655
-0.12504514 -0.11393458 0.35059896
-0.11462508 -0.11453065 0.35072273
-0.10496631 -0.11456189 0.35160434
-0.094945006 -0.11499764 0.35313413
-0.085333273 -0.11488726 0.35386184
-0.07503064 -0.11499055 0.35432947
-0.064870499 -0.11500821 0.35605991
-0.055007789 -0.11513728 0.3581388
-0.045484982 -0.11453287 0.35942069
-0.035048001 -0.11270256 0.35939595
-0.02552318 -0.11388531 0.3595632
-0.019242004 -0.11724748 0.35990351
-0.13155058 -0.10549642 0.35031173
-0.12477305 -0.1049665 0.35145244
-0.11505235 -0.10510297 0.35240185
-0.10510636 -0.10487249 0.35354075
-0.094772823 -0.10519969 0.35556448
-0.084946655 -0.1050955 0.35568991
-0.075224303 -0.10475592 0.35489729
-0.064886548 -0.10508589 0.35683492
-0.055099294 -0.10484316 0.3586067
-0.045054428 -0.10483138 0.35923311
-0.035367712 -0.1058093 0.35932252
-0.026611857 -0.10775761 0.35950953
-0.16183817 -0.09108457 0.35053068
-0.15585983 -0.091847241 0.35053292
-0.14426841 -0.092587329 0.35036814
-0.13456556 -0.094065934 0.3510887
-0.12502234 -0.095047884 0.35232237
-0.11510769 -0.094999664 0.35350147
-0.10513768 -0.094776303 0.35446095
-0.095035337 -0.094923876 0.35561979
-0.084840842 -0.095097281 0.35691154
-0.075109772 -0.09524893 0.35829622
-0.064942122 -0.096054807 0.35908642
-0.054952998 -0.094948895 0.3590498
-0.045043416 -0.094996624 0.35921907
-0.038317528 -0.097174101 0.35978964
-0.17025757 -0.080357827 0.35009098
-0.16428763 -0.084574811 0.35155484
-0.15486653 -0.085116856 0.35245809
-0.14502816 -0.084830754 0.35142869
-0.13510671 -0.085071571 0.35189441
-0.12501852 -0.08491642 0.35284388
-0.11481081 -0.085028671 0.35486376
-0.10505473 -0.084942378 0.35622391
-0.095198587 -0.085023537 0.35701787
-0.085329868 -0.084953167 0.3578842
-0.07726907 -0.084718272 0.35938552
-0.063193366 -0.088351592 0.35972968
-0.055042125 -0.08665739 0.35925511
-0.046486996 -0.086854465 0.35940358
-0.18275568 -0.072159439 0.35065237
-0.17458616 -0.073384859 0.3514702
-0.16506773 -0.074908353 0.3528862
-0.15494391 -0.075015068 0.35387313
-0.14498454 -0.0748998 0.35342655
-0.13499154 -0.075089186 0.35306123
-0.1251239 -0.074869022 0.35366908
-0.11524247 -0.074891374 0.35456625
-0.10508569 -0.074806467 0.35661203
-0.095023073 -0.07509052 0.3579267
-0.085301936 -0.075405702 0.35878822
-0.078271039 -0.077684611 0.35955298
-0.1925156 -0.062330492 0.35025898
-0.18472664 -0.064917639 0.35097095
-0.17506953 -0.065070026 0.35302174
-0.16511241 -0.065109454 0.3546859
-0.15502982 -0.065036356 0.35522252
-0.14492872 -0.065053299 0.35528192
-0.13493402 -0.065163121 0.35553041
-0.12496419 -0.064970978 0.35574585
-0.11486931 -0.064927205 0.35662714
-0.1052429 -0.064968109 0.35789073
-0.096601509 -0.067044385 0.35934302
-0.088381298 -0.069537893 0.35983115
-0.20367111 -0.052041978 0.35028309
-0.19517556 -0.054022197 0.35025501
-0.18434966 -0.05425832 0.3504647
-0.17505056 -0.05499503 0.3519479
-0.16495165 -0.055028282 0.35418236
-0.15497132 -0.055003095 0.35527852
-0.14509834 -0.055153985 0.35570222
-0.13488874 -0.054996647 0.35690081
-0.12506427 -0.054984521 0.3578777
-0.11601645 -0.055855773 0.35891056
-0.10658258 -0.059429117 0.35970998
-0.22137967 -0.040258467 0.35015884
-0.21207108 -0.04530945 0.35023281
-0.20487417 -0.044914171 0.35072595
-0.1949438 -0.045256242 0.35143432
-0.18497853 -0.045014512 0.35316724
-0.17508093 -0.045060221 0.35388857
-0.16504705 -0.044870052 0.35467851
-0.15489367 -0.044992562 0.35554886
-0.14495891 -0.04505641 0.35612845
-0.13497554 -0.044984784 0.35837552
-0.12611967 -0.04706721 0.35947162
-0.11708176 -0.049708083 0.35994071
-0.22342852 -0.033724684 0.35050622
-0.21522538 -0.034101181 0.35089442
-0.20504858 -0.035023566 0.35137179
-0.19508792 -0.03495625 0.35273144
-0.18497922 -0.034981161 0.35450923
-0.17500068 -0.035031963 0.35605237
-0.16502467 -0.034964185 0.35641599
-0.15490508 -0.034873378 0.35716286
-0.14497639 -0.035000261 0.35785139
-0.13626492 -0.035928119 0.35902652
-0.12958267 -0.037987649 0.35989258
-0.24688292 -0.020133138 0.3502039
-0.23390226 -0.021332756 0.35049698
-0.22433539 -0.024544463 0.35089931
-0.21490191 -0.025031285 0.35270578
-0.20502871 -0.024981173 0.35320389
-0.19500214 -0.024826335 0.35368958
-0.1849395 -0.025040731 0.35523066
-0.17503636 -0.02501554 0.35682812
-0.16501738 -0.024935465 0.3581377
-0.15537475 -0.025787832 0.3591828
-0.14558916 -0.027211629 0.35934129
-0.13843751 -0.028269185 0.3598558
-0.25076577 -0.014637238 0.3503857
-0.24489132 -0.01480389 0.35119674
-0.23504274 -0.014924921 0.3522546
-0.22499737 -0.015019178 0.35195878
-0.21504927 -0.015031948 0.35323986
-0.20505247 -0.015036248 0.35502574
-0.19503716 -0.014813183 0.35529247
-0.18503009 -0.015021671 0.35585961
-0.17508928 -0.014995806 0.3573457
-0.16576533 -0.015868044 0.35896501
-0.15855454 -0.018404519 0.35971618
-0.25240237 -0.0023603484 0.35032433
-0.24441236 -0.0045975475 0.35100567
-0.23491751 -0.0050538243 0.35375294
-0.22497042 -0.0049935644 0.35395795
-0.21493027 -0.0051064147 0.35488158
-0.20494862 -0.0050938101 0.35653317
-0.19490288 -0.0049745347 0.35777101
-0.18493952 -0.0050866399 0.35805669
-0.17522386 -0.0051917438 0.35884359
-0.16866933 -0.0068409601 0.35963768
-0.26413587 0.0069799013 0.35076213
-0.2546362 0.0054669045 0.3518253
-0.2449957 0.0049590091 0.35336494
-0.23497775 0.0050110584 0.35521066
-0.2250284 0.0049917228 0.3555961
-0.21507427 0.0050142319 0.35670719
-0.20549503 0.0045049931 0.35862035
-0.19657414 0.0021821856 0.3594043
-0.18393137 0.0011685068 0.35965028
-0.17779288 0.0015141657 0.35967833
-0.28274432 0.017233338 0.35067329
-0.27493578 0.016954053 0.35082829
-0.26489976 0.01526601 0.35236573
-0.25511065 0.014907208 0.35416076
-0.24496934 0.014955917 0.35470793
-0.23503524 0.015171837 0.35594967
-0.22503406 0.01493638 0.35680768
-0.21504545 0.015001048 0.35819107
-0.20785895 0.014372592 0.35966802
-0.2905719 0.028298534 0.35019979
-0.28414309 0.025154462 0.35100195
-0.27507341 0.0251402 0.35247809
-0.26502737 0.025084874 0.35470456
-0.2549943 0.025006974 0.35713989
-0.24500987 0.025017617 0.3569321
-0.23495796 0.025035365 0.35702714
-0.22493406 0.024605151 0.35833105
-0.21561356 0.02395753 0.35903355
-0.20892406 0.022008333 0.35971925
-0.29092368 0.030624485 0.35029021
-0.28439087 0.031760134 0.35186353
-0.27485919 0.033220604 0.35292464
-0.26478171 0.034457631 0.35449126
-0.25506625 0.035077937 0.35738027
-0.24503869 0.035090633 0.3584201
-0.2358485 0.034990642 0.35894561
-0.22337238 0.03072243 0.35974059
-0.21839795 0.030581109 0.35990381
-0.25375053 0.041190412 0.3583189
-0.24469997 0.042507779 0.35920781
-0.23580484 0.04258487 0.35949343
0.18819995 -0.31203833 0.36000347
0.19413133 -0.31303492 0.36025083
0.20401628 -0.31464401 0.36027479
0.21257989 -0.31354666 0.36014056
0.2262253 -0.31132355 0.3603797
0.23489781 -0.31320819 0.3614544
0.24531405 -0.31273067 0.36365482
0.25554088 -0.31289405 0.36553323
0.26441339 -0.31225869 0.36683467
0.27437097 -0.31214529 0.36813048
0.28145698 -0.31238988 0.36949262
0.18838242 -0.30591121 0.36027575
0.19597431 -0.30750287 0.36027485
0.21837878 -0.30707064 0.36019823
0.22569929 -0.30502069 0.3608008
0.23553939 -0.30513445 0.36300045
0.2448936 -0.30507565 0.36547577
0.25474727 -0.30487418 0.36755827
0.26535532 -0.30548489 0.36887425
0.27444184 -0.30638832 0.36945534
0.28272495 -0.30885676 0.3699668
0.19517592 -0.29331788 0.36017725
0.20430718 -0.2917043 0.36020395
0.21494943 -0.29093978 0.36028001
0.22513607 -0.29420999 0.36114636
0.23481208 -0.29567075 0.36359626
0.24505921 -0.29481629 0.3663348
0.25528899 -0.2949765 0.36836392
0.26381892 -0.29468429 0.36945635
0.18629204 -0.28309175 0.36070612
0.19507965 -0.28460163 0.361442
0.2048379 -0.28516042 0.36182544
0.21482266 -0.28501704 0.36187473
0.22479577 -0.28452998 0.36265084
0.23460805 -0.28510991 0.36444032
0.24477257 -0.28565049 0.36656916
0.25465405 -0.28526571 0.36839324
0.26184982 -0.28672847 0.36963692
0.16741668 -0.27182326 0.36067513
0.17569745 -0.27355567 0.36195639
0.18490885 -0.27518383 0.36321875
0.19492713 -0.27491844 0.36451632
0.20491849 -0.27520043 0.36493328
0.21496899 -0.27524579 0.36471295
0.22473849 -0.27476189 0.36447671
0.23520797 -0.27474725 0.36582053
0.2444106 -0.27545676 0.36771494
0.25268185 -0.27779546 0.36942217
0.13523492 -0.26108325 0.36012119
0.14402361 -0.26207343 0.36004943
0.157695 -0.26316381 0.36031637
0.16491693 -0.26518276 0.36152995
0.17528771 -0.26508138 0.36401498
0.18550293 -0.26508561 0.36610076
0.19522613 -0.2649419 0.3667773
0.20498884 -0.26499921 0.36665231
0.21483931 -0.26536459 0.36673731
0.22478464 -0.26485214 0.36724833
0.2346677 -0.2655029 0.36820507
0.2422117 -0.26724845 0.36928087
0.14749004 -0.25346163 0.36056668
0.15450327 -0.25478059 0.36094192
0.16517645 -0.25468519 0.36228433
0.17532481 -0.25553533 0.36448532
0.18532683 -0.25483769 0.36661527
0.19505776 -0.25488099 0.36718994
0.20445594 -0.25497571 0.36717528
0.21463476 -0.25531855 0.36843386
0.22429864 -0.25746125 0.36937118
0.23153424 -0.2594806 0.36974156
0.13756822 -0.24093144 0.36092708
0.14569555 -0.24448156 0.3614459
0.15531583 -0.24493371 0.36253273
0.16493101 -0.24459867 0.36313134
0.17473066 -0.24531338 0.36463892
0.18477699 -0.2450342 0.36644679
0.19482033 -0.24493673 0.36752436
0.20503446 -0.24538292 0.36873406
0.21212964 -0.24675791 0.36957508
0.099749178 -0.2305015 0.36024773
0.10125449 -0.23003772 0.36006707
0.11633109 -0.23139064 0.36012608
0.12548989 -0.23325281 0.3609497
0.13506962 -0.23481989 0.36248785
0.14492519 -0.23489162 0.36339658
0.15523264 -0.23480953 0.36408147
0.16489752 -0.23479523 0.36466721
0.17495333 -0.23506288 0.36575329
0.18497507 -0.23505104 0.3678433
0.19443545 -0.23733066 0.36914879
0.20298588 -0.23900695 0.36948466
0.097523808 -0.22556008 0.36013511
0.10605362 -0.22542705 0.3602702
0.11554787 -0.22488111 0.36063775
0.12500969 -0.22513181 0.3621904
0.13515192 -0.22519106 0.36435267
0.14509928 -0.22505996 0.36574435
0.15463713 -0.22502102 0.36672002
0.16503663 -0.22487417 0.36764213
0.17518613 -0.22537643 0.36829016
0.18261388 -0.22591223 0.36918291
0.095623091 -0.21093942 0.36030534
0.10663095 -0.21289742 0.36034229
0.115427 -0.21488051 0.36105385
0.12479013 -0.2146598 0.36280316
0.13529547 -0.21491903 0.36499327
0.1450734 -0.21492553 0.36708122
0.1549383 -0.21493538 0.36836714
0.16458049 -0.21568912 0.36920527
0.17437147 -0.21662828 0.36948127
0.18171895 -0.21827665 0.36987212
0.079359382 -0.20006418 0.36027214
0.086757593 -0.20360377 0.36083671
0.095338859 -0.20521103 0.362174
0.10515617 -0.20504692 0.36323914
0.11470767 -0.20518157 0.36371258
0.12499588 -0.20486708 0.36525771
0.13478625 -0.20493397 0.36694506
0.14478864 -0.20528881 0.36867324
0.15417942 -0.20697284 0.36952421
0.059470683 -0.19031309 0.36013672
0.066844895 -0.19327644 0.36075687
0.074949153 -0.19395286 0.36103523
0.084588371 -0.19511153 0.36140314
0.094899729 -0.19487871 0.36295858
0.10496575 -0.19519304 0.36501223
0.11494948 -0.19519828 0.36636528
0.12483653 -0.19480796 0.36776745
0.1345578 -0.19508709 0.36886674
0.14331874 -0.19554637 0.36957762
0.049256325 -0.18037038 0.36010766
0.056399915 -0.18322408 0.36069012
0.064986035 -0.18477479 0.36156216
0.075293973 -0.18507753 0.36231196
0.084871374 -0.1850971 0.36221576
0.094798744 -0.18456274 0.36309454
0.10505162 -0.18491109 0.36540389
0.11519518 -0.1850182 0.36756647
0.12488145 -0.18488061 0.36873475
0.13493782 -0.18493238 0.36922798
0.14206503 -0.18538003 0.36969888
0.027763516 -0.17643423 0.36010528
0.034686409 -0.17262296 0.36018154
0.0458914 -0.17388389 0.36060616
0.055048242 -0.17476963 0.36121768
0.064878352 -0.17508544 0.36177891
0.074749947 -0.17489283 0.36249697
0.085006505 -0.17494547 0.36388114
0.095211811 -0.17522308 0.36600316
0.10501599 -0.17491519 0.36769214
0.11496498 -0.17482483 0.36845532
0.12526087 -0.17503655 0.36902472
0.13491076 -0.17527021 0.36925179
0.14185832 -0.17591253 0.36968273
0.028259331 -0.16246113 0.36041021
0.035015665 -0.16498798 0.36155003
0.045005213 -0.16487837 0.36344203
0.05493658 -0.16507295 0.36333248
0.064979687 -0.16491982 0.36337242
0.074965306 -0.16484654 0.36384475
0.084854811 -0.16447528 0.36462134
0.095242836 -0.16486791 0.36660779
0.10461948 -0.16584638 0.36871937
0.11283164 -0.16935119 0.36959067
0.12586226 -0.16995072 0.36979318
0.13522713 -0.16860561 0.36979231
0.0064564026 -0.15319476 0.36080492
0.015513537 -0.15366057 0.36116523
0.025080422 -0.15471016 0.36150512
0.03482344 -0.15517238 0.36429608
0.045166019 -0.15500799 0.36626595
0.055180192 -0.15529582 0.36599356
0.0648425 -0.15510453 0.36659983
0.074937455 -0.15527281 0.36737633
0.085001543 -0.15485783 0.36738792
0.094762452 -0.15503617 0.36753127
0.10328963 -0.15507372 0.36916724
-0.0039317817 -0.14267507 0.36077994
0.0050936281 -0.14527991 0.36190352
0.015149476 -0.14521506 0.36232933
0.025239466 -0.14498623 0.3632246
0.035107575 -0.14487448 0.3646436
0.045060318 -0.14507198 0.36496204
0.054451909 -0.14484061 0.36524937
0.064987905 -0.14484268 0.36760882
0.075081758 -0.14586435 0.3689574
0.085165553 -0.14504282 0.36887828
0.094823509 -0.14506115 0.36849257
0.10284335 -0.14542574 0.36926085
-0.012025555 -0.13323081 0.36029658
-0.0051431661 -0.13496159 0.36100921
0.0048384825 -0.13485697 0.36136669
0.014983322 -0.13496114 0.36193517
0.024980459 -0.13479729 0.36322987
0.035092574 -0.13487791 0.36404288
0.045025237 -0.13496552 0.36436257
0.055047359 -0.13496186 0.36602321
0.06462276 -0.13530031 0.36881733
0.070628315 -0.13831279 0.36970878
0.087670438 -0.13871019 0.36981973
0.094195165 -0.13866052 0.36949328
-0.041325673 -0.12079875 0.36036158
-0.034977745 -0.12221987 0.36056435
-0.02689996 -0.12226947 0.36044231
-0.014055326 -0.1239697 0.3605023
-0.0048421193 -0.12507072 0.36189488
0.005377396 -0.12518317 0.36322337
0.015058083 -0.12507062 0.36437085
0.024886208 -0.12491565 0.36491984
0.034983151 -0.12513484 0.36533111
0.04474134 -0.12510163 0.36609608
0.054808334 -0.1247962 0.3676466
0.064236738 -0.12555149 0.36918077
0.072202653 -0.1260588 0.3699916
-0.042693477 -0.11662549 0.36017981
-0.035020351 -0.11731622 0.36048192
-0.024036195 -0.1171426 0.36020947
-0.014932328 -0.11476441 0.36067683
-0.0050762431 -0.11499874 0.36216891
0.0049247481 -0.11501805 0.3638072
0.014873481 -0.11500362 0.36489603
0.024861762 -0.1150969 0.36627865
0.034940947 -0.11514542 0.3679418
0.044455145 -0.11653375 0.36860836
0.054695096 -0.1189933 0.36957076
-0.033485986 -0.10166861 0.36036965
-0.024030158 -0.10364856 0.36099026
-0.015027231 -0.10497055 0.36227247
-0.004918946 -0.10506058 0.36399615
0.0050251139 -0.10480547 0.36473107
0.014951507 -0.10476379 0.36501724
0.024916993 -0.10494443 0.36638144
0.033889152 -0.10495099 0.36900091
-0.072263107 -0.091184042 0.36027128
-0.06530413 -0.092302985 0.36018488
-0.034450781 -0.094580211 0.36110637
-0.024854509 -0.094933659 0.36328328
-0.014967865 -0.095112875 0.36544216
-0.0051768511 -0.095063031 0.36722061
0.0042781937 -0.095986947 0.36838728
0.014846133 -0.097399421 0.3684347
0.024628932 -0.097511932 0.36824566
0.032797027 -0.097344466 0.36904481
0.046552423 -0.092616692 0.36823073
0.054235253 -0.094564915 0.36679098
0.063589245 -0.094391651 0.36769959
-0.072568081 -0.085286036 0.36032268
-0.065255061 -0.084381685 0.3604936
-0.055308629 -0.081879944 0.36064231
-0.044173747 -0.083374366 0.36080864
-0.035181507 -0.084875986 0.36229447
-0.025170457 -0.084959574 0.36486688
-0.014951221 -0.085090674 0.36735076
-0.005773908 -0.0851577 0.36927378
0.038110953 -0.083018012 0.36614215
-0.083489574 -0.071217351 0.36020878
-0.074353598 -0.07443694 0.36093372
-0.065092221 -0.075059704 0.36189115
-0.05504756 -0.074943565 0.36291009
-0.045184482 -0.075136587 0.36336881
-0.034923099 -0.074914962 0.36402079
-0.024977786 -0.074821517 0.36461648
-0.01505744 -0.074837789 0.36613888
-0.0052847322 -0.074912228 0.36875895
0.0018324368 -0.075121738 0.36985779
0.027200924 -0.071853556 0.36786482
-0.10178042 -0.060365565 0.36025029
-0.093846448 -0.063408881 0.36069897
-0.084972493 -0.064783715 0.36077332
-0.075062238 -0.064927667 0.36132792
-0.064961001 -0.065144546 0.36354363
-0.054969482 -0.065067157 0.36571163
-0.045083027 -0.065202571 0.36610892
-0.035000786 -0.064895093 0.36663693
-0.024939569 -0.064979725 0.3670769
-0.01501873 -0.065032385 0.36806616
-0.0069826934 -0.066368259 0.36930883
0.016220033 -0.065809824 0.36992478
-0.11333457 -0.051914375 0.36049718
-0.10499991 -0.054615416 0.36191109
-0.094969802 -0.055043403 0.36295763
-0.084945977 -0.055051938 0.36294794
-0.075097017 -0.054947227 0.36302057
-0.065162562 -0.054850832 0.36360732
-0.055085357 -0.054878037 0.36518973
-0.044936728 -0.054976452 0.36745179
-0.035160214 -0.055026188 0.3684141
-0.025111426 -0.055225346 0.36891267
-0.015301207 -0.05581468 0.36923432
-0.0072593475 -0.055467337 0.36983436
0.018031728 -0.052850362 0.36959884
-0.12391875 -0.043332033 0.36064762
-0.11499153 -0.044711828 0.36173022
-0.10503442 -0.044925157 0.36325344
-0.094916783 -0.045020469 0.36458445
-0.084979981 -0.045045566 0.36468738
-0.075051986 -0.045020785 0.36519462
-0.065135449 -0.044907071 0.36622944
-0.055020791 -0.045021206 0.36736411
-0.045242473 -0.045231219 0.36872569
-0.036461286 -0.0476458 0.36955357
-0.02926141 -0.049287297 0.3699562
-0.13253219 -0.033249743 0.36052692
-0.12501514 -0.034818176 0.3620156
-0.11504474 -0.035061207 0.36340076
-0.10510148 -0.03491791 0.36405522
-0.094982773 -0.035077251 0.36536297
-0.084995039 -0.035065621 0.366236
-0.075001411 -0.034964755 0.36684534
-0.065075234 -0.034916207 0.36787787
-0.055588096 -0.035631839 0.36914533
-0.047678459 -0.038250327 0.36950341
-0.15361361 -0.021544736 0.36041248
-0.14472207 -0.0227169 0.3605631
-0.1349268 -0.024775008 0.36118507
-0.12497611 -0.025034694 0.36298645
-0.11487687 -0.024985541 0.36445409
-0.10479605 -0.024950983 0.36506459
-0.09497343 -0.025062429 0.36547005
-0.084954359 -0.024896929 0.36624059
-0.074935667 -0.025014535 0.36732268
-0.065496236 -0.025687251 0.36915827
-0.058021586 -0.027760947 0.36971784
-0.16271077 -0.012138279 0.36059636
-0.15470831 -0.014806377 0.36111754
-0.14499569 -0.0149997 0.36176872
-0.13503584 -0.015024595 0.36259246
-0.124943 -0.015008502 0.36470106
-0.11489958 -0.014967243 0.36635637
-0.10493802 -0.015048009 0.36698937
-0.094933718 -0.015044284 0.36749694
-0.085086383 -0.015019169 0.36770034
-0.075618863 -0.016416602 0.36836645
-0.068327218 -0.017446924 0.369468
-0.19452704 -0.00033760816 0.36004543
-0.1893454 -5.8524311e-05 0.36008137
-0.17107117 -0.0010209028 0.36037308
-0.16447346 -0.0047104466 0.36113209
-0.15503523 -0.0048877685 0.36207944
-0.14490408 -0.0049907481 0.36319956
-0.13509376 -0.0050532664 0.36461735
-0.12509765 -0.0049963132 0.36675203
-0.11523286 -0.0052985176 0.36890572
-0.10557345 -0.0061222147 0.36923876
-0.095310695 -0.0082815206 0.36943638
-0.08651261 -0.0090000788 0.36953676
-0.20220737 0.0075313523 0.36042419
-0.19441631 0.0064111785 0.36092609
-0.18534878 0.00578458 0.36114532
-0.17469129 0.005590355 0.36115509
-0.1649463 0.0050615538 0.36214334
-0.15490004 0.0049811793 0.36324486
-0.14497334 0.0049627139 0.36512497
-0.13497509 0.0049642343 0.36631671
-0.12511091 0.0051832995 0.36698571
-0.11538114 0.0051926575 0.36881614
-0.108763 0.0072796671 0.36976132
-0.099433348 0.0046228617 0.36990714
-0.20378977 0.015260058 0.36070603
-0.19496444 0.015085849 0.36175495
-0.18501404 0.014914305 0.36231339
-0.17501445 0.015017273 0.36322689
-0.16500756 0.015065981 0.36365837
-0.15495002 0.014931716 0.36513266
-0.14483143 0.01504158 0.36715534
-0.13490136 0.014864656 0.36841843
-0.12522413 0.01477121 0.36875597
-0.1162357 0.01223668 0.36925051
-0.22500607 0.029442534 0.36017513
-0.21329623 0.027731292 0.3605237
-0.20478623 0.025386577 0.36102867
-0.19500311 0.024993468 0.3624866
-0.1850401 0.025022268 0.36353004
-0.1750887 0.024971606 0.36479247
-0.16507912 0.025015982 0.36603647
-0.15500458 0.024925603 0.36729264
-0.14502631 0.025011953 0.36837953
-0.13602448 0.024353448 0.36955333
-0.12498768 0.023959871 0.36956385
-0.11804681 0.024388883 0.36972454
-0.23087141 0.035244703 0.36044052
-0.22505648 0.035286717 0.36099148
-0.21490791 0.035100617 0.3616322
-0.2050945 0.03522151 0.3622528
-0.19518535 0.035081219 0.36306453
-0.18513294 0.035154413 0.36519185
-0.17499287 0.034942802 0.36712584
-0.16503569 0.035141427 0.36690176
-0.15498427 0.035035241 0.36739975
-0.14500748 0.034858607 0.3681049
-0.13838814 0.033892166 0.36959571
-0.2435845 0.044861902 0.36019194
-0.23408489 0.045662399 0.36052653
-0.22501719 0.044932652 0.36148542
-0.21491557 0.04504019 0.36279643
-0.20496072 0.044949636 0.36254519
-0.19501865 0.04519476 0.36418343
-0.1850715 0.045054264 0.36544353
-0.17487574 0.044938777 0.36789837
-0.16495648 0.044855691 0.36834389
-0.15515715 0.044529207 0.36873093
-0.14632335 0.042274274 0.36914939
-0.22236152 0.050463963 0.36163151
-0.21442126 0.051951703 0.36346951
-0.20466669 0.053454716 0.36538038
-0.19495161 0.055012356 0.36681697
-0.18505259 0.054992404 0.36782926
-0.17624824 0.05437097 0.3692804
-0.16534838 0.050790586 0.36972472
-0.15425745 0.05377578 0.36978704
-0.14960308 0.055480927 0.3699246
-0.19140805 0.060646448 0.36774778
-0.18408449 0.061166704 0.36833182
-0.1746892 0.062828198 0.36924937
-0.16815402 0.064901695 0.36954924
0.28639001 -0.31177774 0.37061375
0.29469928 -0.31300101 0.37240955
0.2758022 -0.3032324 0.37022841
0.28524899 -0.30480385 0.37125149
0.29364744 -0.30559811 0.3729786
0.26815051 -0.29495636 0.37019333
0.27504131 -0.29526323 0.37070325
0.28522703 -0.29479989 0.37214118
0.29164371 -0.29762489 0.37315509
0.26595035 -0.2840535 0.3709709
0.27520564 -0.28491235 0.37240762
0.2834217 -0.28531536 0.37371844
0.24912277 -0.27170473 0.37013608
0.25585455 -0.27405998 0.37125927
0.26493609 -0.27495152 0.3733114
0.27504024 -0.2750003 0.37495372
0.28138027 -0.27607846 0.37537548
0.2377094 -0.26079598 0.37049034
0.24525794 -0.26406607 0.37093875
0.25474265 -0.2652345 0.37284052
0.26521635 -0.26470813 0.37505221
0.27406347 -0.26597446 0.37592298
0.2182214 -0.25032026 0.37013823
0.22569907 -0.25309166 0.37097558
0.23541376 -0.25473869 0.37192601
0.24473989 -0.25483492 0.37276968
0.25477117 -0.25509351 0.37406877
0.26515785 -0.25438124 0.37559724
0.27294764 -0.25623742 0.37677327
0.20859247 -0.24049331 0.37048122
0.2159135 -0.24454476 0.37105966
0.2253388 -0.24515261 0.37288931
0.23519981 -0.24514057 0.3746323
0.24529123 -0.24512734 0.37522846
0.25532967 -0.24518211 0.37536108
0.26438585 -0.24531819 0.37584737
0.19592589 -0.23316287 0.37070063
0.20526707 -0.23419179 0.37117085
0.21502092 -0.23535334 0.37184435
0.22493823 -0.2345508 0.37315235
0.23506105 -0.23489225 0.37421298
0.24545944 -0.23508939 0.37482318
0.254787 -0.23523578 0.3751184
0.26162019 -0.23565787 0.37531948
0.18711098 -0.22442414 0.37048584
0.1952343 -0.22498116 0.37176353
0.2050045 -0.22502461 0.37323707
0.2151386 -0.2249665 0.37382132
0.2249278 -0.22462796 0.37436265
0.23524716 -0.22482465 0.37527779
0.2446956 -0.22507754 0.37606877
0.25458211 -0.22518007 0.37735608
0.26039621 -0.22964588 0.37710828
0.16747186 -0.21171576 0.37046027
0.17552139 -0.21223694 0.37037915
0.18554372 -0.21475531 0.37078005
0.19508943 -0.21463199 0.37216601
0.20528048 -0.21533106 0.37434343
0.21524377 -0.21515448 0.37598738
0.22516714 -0.21541382 0.37695593
0.23486818 -0.21500781 0.37787005
0.24482048 -0.21515048 0.37851429
0.25275657 -0.21526392 0.37906286
0.14888629 -0.20280859 0.37004638
0.15544376 -0.20327364 0.37039253
0.16474698 -0.2051139 0.37134972
0.17502196 -0.20503651 0.37195602
0.18514682 -0.20497048 0.37183368
0.19509581 -0.2048662 0.37228343
0.20504007 -0.20486204 0.37364379
0.21480052 -0.20482115 0.37481311
0.22494064 -0.20514728 0.37635076
0.23534065 -0.20529565 0.37823218
0.24482051 -0.20523778 0.37942612
0.25139788 -0.20643164 0.37989759
0.13995439 -0.1917199 0.37009829
0.146937 -0.19386502 0.3703618
0.15513106 -0.19540246 0.37136838
0.16517423 -0.19518259 0.37297297
0.17508486 -0.19487844 0.37406194
0.18489821 -0.19519773 0.37398046
0.19500135 -0.19518402 0.3740012
0.20523633 -0.19477496 0.37427455
0.21525428 -0.19470036 0.37456506
0.22487323 -0.19464807 0.3758603
0.23457307 -0.19489105 0.37777597
0.24331331 -0.1955215 0.37935364
0.1463954 -0.18485482 0.37072611
0.15519185 -0.18515866 0.37298027
0.16524903 -0.18515223 0.37495312
0.17504428 -0.18514614 0.37556142
0.18502037 -0.18486466 0.37575105
0.19524257 -0.18510021 0.37636063
0.20534599 -0.18538482 0.37718812
0.21454635 -0.18606056 0.37802437
0.22460802 -0.1869472 0.37846929
0.23455794 -0.18734848 0.37919402
0.24186757 -0.18928587 0.37983385
0.12485984 -0.17128982 0.37012619
0.13816752 -0.17115015 0.37014326
0.14651302 -0.17453139 0.37106001
0.15498061 -0.17477641 0.37358886
0.16522548 -0.17523251 0.37620667
0.17509671 -0.17498074 0.37697005
0.18520652 -0.17488763 0.37751284
0.19467932 -0.17521586 0.37796965
0.20468336 -0.17490776 0.37881413
0.21262708 -0.17554182 0.37965444
0.10837402 -0.16313079 0.37053955
0.11539405 -0.1649669 0.37186983
0.12494425 -0.16491884 0.37238783
0.13466486 -0.16458556 0.37134978
0.1447064 -0.16501617 0.37171701
0.15503606 -0.16493416 0.37382665
0.16482562 -0.16514179 0.37632909
0.17481764 -0.16507344 0.3781648
0.18392789 -0.16686445 0.37911972
0.19413926 -0.16797927 0.37946129
0.20427068 -0.16830121 0.37973323
0.21275119 -0.16826986 0.37986955
0.10814973 -0.15526125 0.37079108
0.11512987 -0.15506528 0.37291262
0.12523347 -0.15504916 0.37412238
0.1349857 -0.1550688 0.37322301
0.14500922 -0.15523291 0.37279895
0.15485598 -0.15454544 0.37449005
0.16503641 -0.1558558 0.3773444
0.17293712 -0.15747689 0.37948063
0.07705307 -0.14102918 0.3703219
0.084827602 -0.14023861 0.37031338
0.099698603 -0.14004354 0.37036622
0.10725066 -0.14379527 0.37083951
0.11508997 -0.14491661 0.372621
0.12515636 -0.14491025 0.37450615
0.1349436 -0.14475437 0.37427378
0.14493574 -0.14498875 0.37407023
0.15465324 -0.14481716 0.37562242
0.1639123 -0.14533649 0.37840179
0.068535209 -0.13306101 0.37019968
0.075112805 -0.13510527 0.37065431
0.084844239 -0.13472275 0.37093636
0.094780572 -0.13408761 0.37130126
0.1045491 -0.13478716 0.37242818
0.11494952 -0.13533218 0.37464854
0.12518752 -0.13513985 0.37691638
0.13520062 -0.13502188 0.37683883
0.14493233 -0.13497505 0.37637317
0.15497176 -0.13513836 0.3778609
0.16286413 -0.13733 0.37934589
0.066767678 -0.12227537 0.37036416
0.074841984 -0.1248432 0.37107861
0.08489497 -0.12505956 0.37265545
0.094879873 -0.12502308 0.37431464
0.10481776 -0.12487799 0.37512717
0.11497164 -0.12496424 0.3762106
0.12503655 -0.12494797 0.37796393
0.13495889 -0.12528436 0.37899607
0.14455505 -0.12644877 0.37912065
0.15228945 -0.12760094 0.37946168
0.045883276 -0.11169238 0.37064886
0.055313665 -0.11418172 0.37191457
0.064892873 -0.11493103 0.37229916
0.074907273 -0.11492177 0.37312785
0.08492735 -0.11523438 0.37502947
0.094901703 -0.11501541 0.37690458
0.10510201 -0.1149728 0.37786224
0.11532035 -0.11522376 0.37868312
0.12466198 -0.11631366 0.37911877
0.13250422 -0.11785646 0.37953115
0.038686056 -0.10527375 0.37031275
0.044986531 -0.10512272 0.37128499
0.054955296 -0.10489014 0.37267274
0.065181382 -0.10500016 0.37296265
0.074996471 -0.10478123 0.37321937
0.085115522 -0.10495786 0.37563676
0.095078796 -0.10494364 0.377828
0.10488435 -0.10450527 0.37872612
0.11400334 -0.10566462 0.37949586
0.0069228318 -0.091991112 0.37055537
0.015301722 -0.09263894 0.37144947
0.025470037 -0.092574969 0.37164539
0.035910793 -0.093556277 0.37103596
0.043664571 -0.096319005 0.37053397
0.054895692 -0.09877871 0.37135702
0.065959901 -0.097974777 0.37156811
0.075596027 -0.096190132 0.37405336
0.084858418 -0.096244849 0.37719038
0.093429178 -0.097198218 0.37903494
0.10383087 -0.098857693 0.37968048
0.11764969 -0.099060088 0.37983665
-0.0016486314 -0.084834069 0.37033686
0.0050733732 -0.085077122 0.37120461
0.015159717 -0.085086629 0.37262869
0.024986211 -0.084975332 0.37320149
0.034404203 -0.085688941 0.37242311
0.040835679 -0.088863119 0.37076077
-0.0012741685 -0.075891957 0.37012863
0.0054682237 -0.075046152 0.3704915
0.014919119 -0.074840911 0.37084571
0.024120037 -0.075819694 0.37103993
0.031797919 -0.078471325 0.37088507
-0.003527856 -0.063866369 0.37067223
0.0050152694 -0.065037414 0.37117961
0.014844735 -0.064920038 0.37062812
0.021542132 -0.065334059 0.37028369
0.065313734 -0.064978197 0.37259749
0.071210086 -0.066056184 0.37282014
-0.023617882 -0.050424792 0.3702516
-0.013705629 -0.052149761 0.37029535
-0.0045307409 -0.054670051 0.37055901
0.0048685656 -0.055006411 0.37111619
0.014048154 -0.055567283 0.37071821
0.020730466 -0.058452114 0.37018043
-0.041677065 -0.040997773 0.37042132
-0.034237593 -0.043660734 0.37072012
-0.024808254 -0.045037936 0.37177208
-0.014870946 -0.045238733 0.37258896
-0.0049741636 -0.045031853 0.3725605
0.0051267198 -0.044820372 0.37179258
0.011890014 -0.047020156 0.37067658
-0.052498974 -0.031982236 0.37036738
-0.044528052 -0.034578957 0.37104005
-0.034925167 -0.034955222 0.37202728
-0.025085719 -0.034894992 0.37161544
-0.015152511 -0.034979545 0.37252513
-0.0049433606 -0.035138603 0.37400419
0.0041864468 -0.035815068 0.37287071
-0.062492125 -0.022390002 0.37036806
-0.054645304 -0.024546647 0.37089664
-0.045044329 -0.025041381 0.37219998
-0.034930613 -0.025043104 0.37373596
-0.025137275 -0.02512983 0.37359241
-0.01507108 -0.025013529 0.37304494
-0.0055211289 -0.025073767 0.37250951
0.00072362274 -0.02907218 0.37166363
-0.073647946 -0.012044277 0.37074009
-0.064364076 -0.014201306 0.37125596
-0.054936811 -0.015100452 0.37260297
-0.044846762 -0.014957876 0.37435085
-0.035070054 -0.014966209 0.37519526
-0.02510557 -0.015056688 0.37539944
-0.015125314 -0.015103175 0.37501857
-0.0062772003 -0.014799609 0.3732079
-0.11161111 -0.0019718036 0.37026542
-0.10333537 -0.0021710857 0.37029803
-0.094769239 -0.0035858192 0.37075439
-0.084862605 -0.004275036 0.37115782
-0.075074241 -0.0051411241 0.37205455
-0.065108098 -0.0048849741 0.37308496
-0.055169396 -0.0050466014 0.3738021
-0.045194149 -0.0049885893 0.37556022
-0.034958664 -0.0049772332 0.37721786
-0.025064506 -0.0051282868 0.37732297
-0.01485433 -0.0049488614 0.37728864
-0.0052329181 -0.0048771449 0.37502593
-0.11100887 0.0021863133 0.37031245
-0.10453416 0.0048563536 0.37059015
-0.094943464 0.0050371732 0.37088799
-0.084874429 0.0049841213 0.37197703
-0.074970998 0.0049104388 0.37361953
-0.064954348 0.0048794309 0.37443408
-0.055029839 0.005222836 0.37455362
-0.044923719 0.0049396292 0.37524375
-0.035047799 0.0051019238 0.37633899
-0.024984973 0.004943524 0.37725025
-0.01517189 0.0045734812 0.37832573
-0.0040932451 0.0042135529 0.37748113
-0.13736102 0.019884855 0.37004954
-0.12317922 0.018622702 0.37022361
-0.11412448 0.016470259 0.37092289
-0.10487128 0.015101784 0.37153935
-0.095024064 0.015087004 0.3716816
-0.085269801 0.014798121 0.3729057
-0.075056367 0.015067823 0.37564054
-0.065044381 0.014933585 0.37724206
-0.055049613 0.015123915 0.37743598
-0.04498994 0.014784796 0.37785691
-0.035548482 0.014623917 0.37837249
-0.025885014 0.012562264 0.37904072
-0.018600533 0.01112017 0.37976921
-0.0011528209 0.010950908 0.37950712
-0.13359897 0.026037507 0.37036756
-0.12508637 0.02652628 0.37038237
-0.11469305 0.025086336 0.37098685
-0.10499897 0.025001695 0.3728053
-0.094888143 0.025004013 0.37430552
-0.085108846 0.024986384 0.37488121
-0.075149454 0.025046801 0.37630993
-0.064948767 0.025020033 0.37758642
-0.054984383 0.02510206 0.37854457
-0.045399752 0.024959045 0.37937266
-0.037512753 0.023552544 0.37971255
-0.13415189 0.035437059 0.37136683
-0.1250277 0.0349935 0.37241516
-0.11513106 0.03495995 0.37248197
-0.10491036 0.035053723 0.37406054
-0.094759546 0.034901775 0.37544414
-0.084914804 0.034944866 0.37546209
-0.074978016 0.034841701 0.37608889
-0.065097108 0.034806378 0.37714717
-0.055260722 0.034288544 0.37855285
-0.045761678 0.032700777 0.37946451
-0.16643414 0.049666591 0.37014303
-0.15351778 0.048562773 0.37031949
-0.14437878 0.046578791 0.37113377
-0.13509612 0.044968989 0.37282813
-0.12500301 0.044905931 0.373146
-0.11498702 0.044880789 0.37340775
-0.10492022 0.045044366 0.37590542
-0.094899721 0.044783443 0.37808439
-0.084693268 0.044701125 0.37820384
-0.075361781 0.04453532 0.37836227
-0.06653706 0.042585105 0.37919798
-0.172756 0.056039769 0.37038407
-0.16496876 0.055577375 0.37080112
-0.15529895 0.055455055 0.37057289
-0.14495392 0.055023581 0.37151161
-0.13494268 0.054926548 0.37420842
-0.12503493 0.054957006 0.3749536
-0.11514061 0.055042349 0.37518671
-0.10497961 0.055018671 0.3772997
-0.095645525 0.055191457 0.37933224
-0.087022334 0.053432506 0.37975535
-0.078064591 0.050750703 0.37971225
-0.17327392 0.060386337 0.37016174
-0.1636281 0.064018369 0.370841
-0.15501274 0.065074898 0.37239814
-0.14509276 0.064951457 0.37309799
-0.13504288 0.065058008 0.37471583
-0.12492624 0.064917937 0.37699044
-0.11509436 0.065070175 0.37764287
-0.10530345 0.063612953 0.37873185
-0.096475005 0.062217861 0.37954208
-0.087239601 0.063219272 0.37989178
-0.15343937 0.071118847 0.37360382
-0.1448126 0.072167933 0.37494844
-0.13471065 0.073410772 0.37556896
-0.12478384 0.074824981 0.37747014
-0.11664041 0.074398853 0.37918824
-0.1213844 0.080548622 0.3786141
-0.11735728 0.080954835 0.37962741
0.24888116 -0.20383862 0.38018334
0.25155392 -0.20583567 0.38031769
0.24636704 -0.19540018 0.38015735
0.217907 -0.18183725 0.38028732
0.22530945 -0.18228789 0.38079131
0.23516907 -0.18272579 0.3811956
0.24145575 -0.18446043 0.38143238
0.21659288 -0.17446943 0.38044235
0.22476546 -0.17480262 0.38123405
0.23428503 -0.17534362 0.38272342
0.24024788 -0.17988025 0.38312644
0.17842892 -0.16026157 0.3801724
0.18653765 -0.16274104 0.38046277
