# .PCD v0.7 - Point Cloud Data file format
VERSION 0.7
FIELDS x y z
SIZE 4 4 4
TYPE F F F
COUNT 1 1 1
WIDTH 1367
HEIGHT 1
VIEWPOINT 0 0 0 1 0 0 0
POINTS 1367
DATA ascii
0.034300148 -0.1833934 0.46232268
0.041082833 -0.18061669 0.46092305
0.0095577035 -0.17821033 0.46992433
0.015810244 -0.17604172 0.4692452
0.024775049 -0.17503835 0.46761894
0.035007082 -0.17509671 0.46436578
0.043050051 -0.17401338 0.46151382
0.019378254 -0.16900291 0.46992567
0.026145412 -0.16592251 0.46932185
0.0350192 -0.16513486 0.46674532
0.045245308 -0.16503306 0.46417221
0.052070394 -0.16370104 0.46178776
0.028789526 -0.15774946 0.46992734
0.034990858 -0.15512784 0.46887061
0.044954363 -0.15495957 0.46699592
0.054349128 -0.15451902 0.4629747
0.061752159 -0.150112 0.46092772
0.036920208 -0.14782532 0.46986997
0.045338202 -0.14538346 0.46883693
0.055094693 -0.14508703 0.46584654
0.064621709 -0.1445343 0.46252316
0.072553374 -0.14224951 0.46092871
0.047650058 -0.13658664 0.46980545
0.055078205 -0.13496728 0.46829543
0.065143779 -0.13494737 0.4652507
0.074628264 -0.1346001 0.46219754
0.08089672 -0.13180892 0.46093029
0.048839476 -0.12971827 0.46993157
0.055778634 -0.12612765 0.46936843
0.065221071 -0.12501308 0.46810117
0.075198054 -0.12509662 0.46568778
0.084255844 -0.1243079 0.46231487
0.092372142 -0.12143093 0.4612259
0.059273802 -0.11989703 0.46993297
0.066585988 -0.11581949 0.46973354
0.074955553 -0.11518008 0.46823022
0.084856555 -0.11497339 0.46518317
0.094442487 -0.11454127 0.46197906
0.068546899 -0.10671083 0.46979213
0.075059749 -0.10490996 0.46849844
0.085112013 -0.10509554 0.46690696
0.095375456 -0.10503741 0.4637678
0.10274508 -0.10265549 0.46154341
0.077410907 -0.096784204 0.46961823
0.085311785 -0.095387183 0.46846339
0.0949075 -0.094855502 0.4659797
0.10484374 -0.094905071 0.46298793
0.111319 -0.093316652 0.46093604
0.088294379 -0.087230563 0.46977106
0.095204882 -0.085053451 0.46773285
0.10499536 -0.085011937 0.46478701
0.11428867 -0.084377199 0.46198517
0.12231709 -0.081928685 0.46099031
0.097355969 -0.076770291 0.46953195
0.10516904 -0.074973315 0.46802047
0.11505938 -0.074856408 0.46472913
0.12459593 -0.074633412 0.46178016
0.13138658 -0.071040004 0.46093932
0.1069482 -0.066989563 0.46963766
0.11503582 -0.064920142 0.4677408
0.12491159 -0.064979516 0.46455595
0.13409348 -0.06434989 0.46183264
0.14158095 -0.061487086 0.46094069
0.11623783 -0.055855665 0.46938685
0.12528858 -0.055144906 0.46691406
0.13528761 -0.055107102 0.46395567
0.14346325 -0.054067619 0.46149737
0.11824773 -0.049204398 0.46980056
0.12545805 -0.045655474 0.46903622
0.1348137 -0.045053158 0.46638367
0.14488025 -0.04494828 0.46304068
0.15467633 -0.043844331 0.46138981
0.16108671 -0.042341135 0.4609434
0.12917638 -0.037098959 0.46994522
0.13524789 -0.035009116 0.4685396
0.14464347 -0.034826655 0.46598274
0.15496676 -0.035178449 0.46267328
0.16168843 -0.033310335 0.46094498
0.13781635 -0.027809296 0.46971574
0.14564554 -0.025172167 0.46853408
0.15499748 -0.025034472 0.46500906
0.16475147 -0.024465626 0.46248588
0.17335184 -0.022159249 0.46117723
0.14805271 -0.016909746 0.46971282
0.15500292 -0.015078817 0.46847773
0.16501588 -0.01467893 0.46594802
0.17486577 -0.014688482 0.46237835
0.18143678 -0.013195341 0.46100667
0.15786281 -0.006822051 0.46984443
0.16483 -0.0051458054 0.46794969
0.17490578 -0.0051217894 0.4646695
0.18427286 -0.0042119059 0.46231139
0.19118778 -0.00079847698 0.46094969
0.16597313 0.0038232186 0.4694711
0.17504172 0.0047133169 0.46749777
0.18517636 0.0046947123 0.46421748
0.19317086 0.0051986678 0.46121719
0.16873099 0.010642908 0.46995226
0.17632549 0.013548196 0.46927908
0.18498871 0.014794953 0.46595252
0.19491799 0.014909402 0.46330601
0.20455959 0.015713502 0.46177298
0.21098796 0.017531371 0.46095234
0.17896068 0.021282574 0.46995386
0.18479212 0.025022877 0.46825689
0.19475369 0.025431996 0.46573672
0.20493802 0.025274709 0.46332085
0.21191207 0.025377549 0.4611074
0.1866107 0.033874173 0.46944156
0.1948777 0.035210025 0.46802521
0.2050491 0.035119873 0.46613598
0.21451813 0.035216529 0.4630115
0.22273344 0.037055783 0.46124685
0.19720119 0.0428541 0.46979037
0.20558445 0.04499216 0.46881431
0.21517402 0.044720825 0.46594298
0.22425841 0.044730008 0.46340969
0.20798218 0.052904278 0.46973622
0.21470247 0.054770861 0.46761143
0.22449039 0.054933112 0.46488237
0.2169807 0.063964419 0.46886918
0.22467329 0.064861231 0.46629339
0.2302669 0.069329664 0.46696061
0.21865159 0.071206845 0.46996126
0.22547188 0.073921263 0.46940807
0.23105071 0.075769573 0.46884406
0.22833569 0.081573695 0.46996281
0.23166248 0.083269872 0.46951851
0.23297301 0.090644538 0.46996421
-0.032565288 -0.19196877 0.47958982
-0.025081595 -0.19143625 0.47687957
-0.015310223 -0.19080739 0.47325623
-0.0048638899 -0.1910672 0.4714559
0.00096692127 -0.19027692 0.47092253
-0.031298228 -0.1885854 0.47992373
-0.023566294 -0.18613897 0.47903946
-0.014552526 -0.18511243 0.47585803
-0.0046543381 -0.1850328 0.47307855
0.0031758097 -0.18417554 0.47142354
-0.021044988 -0.17537607 0.47992569
-0.01462424 -0.17499228 0.47831956
-0.0047014756 -0.17517439 0.47567886
0.0050988449 -0.17488542 0.47270772
0.013012049 -0.17231448 0.47103047
-0.020328812 -0.16883872 0.47992679
-0.013527883 -0.16584124 0.47911084
-0.0045498628 -0.16482221 0.4766807
0.0052576168 -0.16486572 0.47416559
0.015098093 -0.16488779 0.47241935
0.02247647 -0.16317555 0.4711647
-0.0031791448 -0.15705459 0.47931072
0.0053411769 -0.15522249 0.47759512
0.015138532 -0.15488867 0.475171
0.024472235 -0.15494229 0.4720408
0.030490827 -0.15090869 0.47092843
0.0066605746 -0.14660397 0.47913492
0.01530756 -0.14479955 0.4771651
0.025103791 -0.14506423 0.47370434
0.034060199 -0.14394513 0.47148514
0.040742334 -0.14147663 0.47092977
0.016627448 -0.1356106 0.47884628
0.025359686 -0.13493733 0.47611967
0.035026979 -0.13503635 0.47322336
0.043065768 -0.13459143 0.47130054
0.017146036 -0.12595639 0.4796831
0.025310881 -0.1250045 0.47772989
0.035049219 -0.12504487 0.47525674
0.044747658 -0.12514226 0.47256154
0.052772582 -0.12218565 0.47126615
0.018952912 -0.119106 0.47993422
0.026250342 -0.11694574 0.47956857
0.035376973 -0.11516115 0.47796518
0.045068055 -0.11510456 0.47551742
0.054569665 -0.11479164 0.47302234
0.062086504 -0.11363034 0.47110063
0.036770869 -0.10826119 0.47963122
0.045509811 -0.10534672 0.47869396
0.05516272 -0.10490264 0.47564152
0.064125329 -0.10444067 0.47222358
0.071086325 -0.10046811 0.47093594
0.047094271 -0.096372649 0.47975791
0.055254854 -0.095042497 0.47768727
0.064914778 -0.095030688 0.47488075
0.073559977 -0.094019502 0.47195625
0.081337832 -0.091036029 0.47093728
0.049518906 -0.087881036 0.47993872
0.055715993 -0.085741811 0.47954908
0.065297924 -0.085136048 0.47812635
0.075068846 -0.085197687 0.47510517
0.084052935 -0.084300868 0.47217652
0.090769172 -0.080783822 0.47093877
0.059123024 -0.078410551 0.47994006
0.065683186 -0.075558923 0.47951415
0.075227842 -0.075082794 0.47773716
0.085316151 -0.07500302 0.47468314
0.093430787 -0.073946111 0.47168407
0.068103708 -0.068537101 0.47994152
0.075954914 -0.065792315 0.47937039
0.085013181 -0.06495066 0.47664475
0.094854228 -0.064975142 0.4727836
0.10338263 -0.064036012 0.47108415
0.07826791 -0.05568831 0.47987452
0.085295983 -0.055170313 0.47822461
0.095047139 -0.055099159 0.47507349
0.10489418 -0.054962866 0.4724884
0.11192661 -0.053250737 0.47107336
0.079547308 -0.049312826 0.4799445
0.0868183 -0.046443574 0.47979847
0.095380701 -0.045218956 0.47867906
0.10512422 -0.045009691 0.47534448
0.11470414 -0.044304475 0.47223005
0.12234727 -0.041608367 0.47127792
0.089367844 -0.039700538 0.4799459
0.096555345 -0.0373112 0.47952187
0.10494713 -0.03504983 0.4774766
0.11498894 -0.035053112 0.47504583
0.12453888 -0.034415074 0.47239742
0.13044202 -0.031265918 0.47094616
0.10753436 -0.0268448 0.47928086
0.11483061 -0.02500549 0.47742534
0.12481454 -0.024971031 0.47412804
0.13455747 -0.024220044 0.47196448
0.14201216 -0.021429483 0.47107252
0.11621627 -0.015782092 0.47923228
0.12522931 -0.015293805 0.47681668
0.13504198 -0.014919094 0.47422823
0.14401439 -0.014369795 0.47165769
0.15104751 -0.01065894 0.47094911
0.1177243 -0.0073251752 0.47963247
0.12514673 -0.0051831519 0.47848111
0.13515942 -0.0053139883 0.47642878
0.1449583 -0.0050759902 0.47371501
0.15372197 -0.0044168541 0.47146925
0.12780842 0.0015599 0.47986096
0.13498415 0.0048009353 0.47895226
0.1450088 0.0047652265 0.47538254
0.15512499 0.0047326419 0.47214615
0.16233596 0.0067816856 0.47095177
0.13670097 0.012708193 0.47966319
0.14521609 0.014650698 0.47739029
0.15507424 0.014639772 0.47364351
0.16500571 0.01487177 0.47212505
0.1729113 0.016733583 0.47145319
0.14774223 0.024117963 0.47898549
0.15494779 0.024536453 0.47605649
0.16507229 0.024747957 0.47486517
0.17479129 0.024687685 0.47235462
0.18057139 0.028709261 0.47095504
0.14849953 0.030928411 0.4799563
0.15578033 0.033771601 0.47897589
0.1651701 0.034663931 0.47667885
0.1751895 0.034802169 0.47300887
0.18312724 0.036774356 0.4711079
0.19041279 0.039781619 0.47095665
0.15894692 0.040540721 0.4799577
0.16610949 0.043832302 0.4787131
0.17466982 0.044588394 0.47539267
0.18514356 0.04513523 0.47322324
0.19397308 0.046566974 0.47164512
0.2011769 0.049316239 0.47095799
0.1689764 0.051197797 0.47995925
0.17503741 0.054572958 0.47843727
0.18475106 0.054599747 0.47571644
0.19504844 0.055360008 0.47378522
0.20396183 0.055999793 0.47188631
0.21009564 0.058850788 0.47095937
0.17722784 0.062706746 0.47946092
0.18516789 0.064601019 0.47791761
0.19511314 0.065295808 0.47572279
0.20476206 0.06526529 0.47286355
0.21236829 0.065783165 0.47110754
0.18820696 0.07127849 0.47962883
0.19514517 0.074679889 0.47782174
0.20511158 0.075189315 0.47429562
0.21471098 0.075358473 0.47203669
0.22210407 0.078063987 0.47121239
0.19645371 0.083552375 0.47963905
0.20490047 0.085111395 0.4780398
0.21504839 0.085182302 0.47472435
0.224464 0.085369095 0.47205573
0.23160532 0.088316031 0.47110671
0.20743024 0.092981532 0.47955796
0.21478739 0.094964467 0.47724903
0.22493131 0.095156737 0.47434017
0.23174471 0.094256863 0.47150329
0.21521348 0.10259855 0.47890791
0.221424 0.10148641 0.47682354
-0.072429404 -0.19377394 0.48965123
-0.064977854 -0.19313341 0.4877077
-0.054971095 -0.19320606 0.48498073
-0.045287859 -0.19268817 0.48262605
-0.037600137 -0.19234368 0.48092332
-0.071092345 -0.1885692 0.48992482
-0.064156309 -0.18587831 0.48906794
-0.055081174 -0.18512587 0.48701736
-0.045085479 -0.18496878 0.48398349
-0.03517317 -0.18480906 0.48164582
-0.026951503 -0.18253183 0.48092461
-0.053752203 -0.17779672 0.48934284
-0.044794586 -0.17542207 0.48687795
-0.034992725 -0.17506061 0.48326913
-0.025815809 -0.17470026 0.48122594
-0.043192126 -0.16523622 0.48929173
-0.03527648 -0.16501194 0.48601487
-0.024946621 -0.16482918 0.48309666
-0.017035661 -0.16261737 0.48130879
-0.042794608 -0.15714076 0.48992941
-0.034994531 -0.15525068 0.48853895
-0.025210619 -0.15492524 0.48651758
-0.014810462 -0.15502261 0.48379025
-0.0060501643 -0.1532606 0.48180091
-0.030991836 -0.14931904 0.48993045
-0.023670293 -0.14668205 0.4891358
-0.015061783 -0.14496623 0.48748153
-0.0047318279 -0.14502631 0.48391554
0.0039875191 -0.14284608 0.48147902
-0.014392209 -0.13505037 0.48865974
-0.0047140415 -0.13498913 0.48501024
0.0053946874 -0.13502921 0.48232251
0.012013256 -0.13366272 0.48093191
-0.013634454 -0.1256329 0.48893407
-0.0046435851 -0.12486079 0.48563084
0.0053945933 -0.12497135 0.48241794
0.012729711 -0.1236033 0.48104909
-0.011475222 -0.11956184 0.48993501
-0.0038086765 -0.11625972 0.48846737
0.0054275854 -0.11499037 0.48553255
0.015213974 -0.11461715 0.48248351
0.024377579 -0.1124144 0.48112875
-0.00027692583 -0.10900266 0.4899365
0.0063116075 -0.10624726 0.48905036
0.015542307 -0.10502025 0.4860093
0.025501553 -0.10493297 0.4826825
0.034823693 -0.10349056 0.4812164
0.041187145 -0.10176452 0.48093662
0.0099614942 -0.098763496 0.48993796
0.015166831 -0.094820365 0.48847419
0.024355087 -0.095132962 0.48495361
0.0347482 -0.094969213 0.48292327
0.04299552 -0.093146659 0.48134977
0.016716758 -0.086575717 0.48948148
0.024582855 -0.085087001 0.48774871
0.034552209 -0.085075706 0.48487723
0.044484884 -0.084523976 0.48184565
0.052744746 -0.081495114 0.48093978
0.026847797 -0.076081038 0.48941019
0.034659911 -0.075174302 0.48641002
0.044827666 -0.075023495 0.48339698
0.054281164 -0.074773476 0.4817408
0.060749106 -0.072449163 0.48094109
0.029158184 -0.06996619 0.48994237
0.035876218 -0.066060357 0.48888037
0.04475306 -0.064908907 0.48564604
0.054666772 -0.064633027 0.4829272
0.064101852 -0.064432442 0.48172003
0.07154239 -0.062310971 0.48101938
0.038458418 -0.057738017 0.48985335
0.045179829 -0.055233218 0.4881084
0.054896653 -0.054747026 0.4855693
0.0647633 -0.054514877 0.48347527
0.072915033 -0.055079348 0.48133916
0.048212931 -0.048492461 0.48994553
0.055500489 -0.045073684 0.48897871
0.065040782 -0.04460261 0.48557076
0.074555293 -0.045098547 0.48246053
0.082872406 -0.043601785 0.48101437
0.056856003 -0.035881832 0.48969108
0.065345511 -0.034613483 0.48783815
0.075045601 -0.034938134 0.48459327
0.084667616 -0.03540178 0.48215321
0.093436591 -0.033629894 0.48126107
0.10023262 -0.03098844 0.48094708
0.067445442 -0.027398864 0.48976108
0.07498797 -0.024802888 0.48758653
0.08504767 -0.025489571 0.48391721
0.09501937 -0.025450781 0.48319817
0.10335499 -0.024564395 0.48171008
0.076336145 -0.016058119 0.48886141
0.084968224 -0.015406865 0.48622286
0.095114455 -0.015280616 0.48457116
0.10495409 -0.015330267 0.48246524
0.1116052 -0.013729852 0.48094976
0.07804621 -0.0092995437 0.48995143
0.085572883 -0.0073148576 0.48953491
0.095017456 -0.0054055126 0.48720878
0.10499577 -0.0051423423 0.4834514
0.11369157 -0.0044440269 0.4815166
0.12096117 -0.00083547551 0.48095167
0.097134516 0.002707422 0.48930076
0.10490853 0.0047430247 0.48693815
0.11501718 0.0049922834 0.48412666
0.12431742 0.0054091252 0.48161927
0.13038336 0.0092156045 0.48095313
0.10717873 0.013970546 0.48957226
0.11508583 0.014918117 0.4869546
0.12486015 0.01507647 0.48307016
0.13358471 0.016395945 0.48135969
0.14106192 0.019266728 0.48095456
0.10978537 0.020906061 0.48995569
0.1162057 0.02449958 0.48918054
0.12524693 0.025154684 0.48542818
0.13543957 0.025045291 0.4833152
0.14327544 0.025566261 0.48185304
0.11908889 0.03155062 0.48962393
0.12488878 0.035122674 0.48758453
0.1347589 0.035186436 0.48454207
0.14468712 0.035398331 0.48277813
0.15288143 0.037687514 0.48143107
0.12628409 0.043145612 0.48942965
0.1351936 0.045182526 0.48804393
0.14525874 0.044911657 0.48518461
0.15505135 0.045422237 0.48300284
0.16286539 0.047169421 0.48139343
0.13550213 0.054454476 0.48979086
0.14462297 0.054685652 0.48826823
0.15500237 0.055213775 0.48576981
0.16472335 0.055415269 0.48242375
0.17083581 0.057963151 0.48096037
0.13751394 0.062288869 0.48996204
0.14507832 0.064641535 0.48931816
0.15464209 0.064739801 0.48656201
0.16495734 0.064986847 0.48300785
0.17371829 0.066486403 0.48160607
0.181263 0.069521882 0.48096204
0.1479657 0.071248189 0.48996326
0.15625943 0.073641382 0.48903498
0.16483964 0.075122058 0.48710629
0.17494963 0.075226322 0.48489651
0.18465482 0.075627841 0.48206142
0.19068526 0.078316621 0.48096332
0.15953717 0.085380286 0.48996538
0.16535811 0.084852047 0.4896794
0.17531736 0.085052162 0.4871594
0.18506227 0.085113458 0.48270068
0.19320966 0.086958155 0.48110753
0.15918499 0.091043606 0.48996633
0.16585238 0.092823446 0.48996657
0.17575905 0.094821699 0.48810938
0.18482533 0.095227495 0.48462224
0.1951073 0.094969966 0.48321602
0.20405571 0.09624292 0.48172203
0.17721631 0.1043069 0.48970345
0.18483849 0.10506094 0.48786625
0.19516787 0.10494279 0.48556769
0.20514865 0.10473529 0.4831166
0.21109985 0.10470054 0.48096725
0.17629868 0.11462177 0.48964375
0.18474907 0.11414506 0.48942578
0.19462314 0.11330058 0.48656484
0.2035974 0.11205783 0.48349044
0.17769501 0.12116812 0.4894155
-0.10324383 -0.20028824 0.49892375
-0.11128657 -0.19938391 0.49992409
-0.10377513 -0.19842102 0.49962991
-0.095130347 -0.1953641 0.49810615
-0.085279532 -0.19414511 0.49431714
-0.077402227 -0.193729 0.49138248
-0.095114335 -0.18491369 0.49888694
-0.085110024 -0.18475191 0.4959259
-0.075132594 -0.18472609 0.49285665
-0.067318335 -0.18193892 0.49117589
-0.093396887 -0.17603247 0.49929348
-0.084751755 -0.17473394 0.49773461
-0.074988782 -0.17496841 0.49573046
-0.065162681 -0.175275 0.49283177
-0.055348005 -0.1733686 0.49156344
-0.048495762 -0.17116973 0.49092722
-0.091045149 -0.16934589 0.49992871
-0.084151156 -0.16641328 0.49964333
-0.0751734 -0.16518447 0.49777746
-0.064897783 -0.16498767 0.49470833
-0.054960884 -0.1649055 0.49252215
-0.047731262 -0.16503014 0.49097583
-0.074273989 -0.15581359 0.49901053
-0.065058075 -0.15485351 0.49679258
-0.055346876 -0.15486741 0.49469829
-0.046111323 -0.15408938 0.49170282
-0.038108569 -0.15090647 0.49093038
-0.071674027 -0.148885 0.49993166
-0.064297229 -0.14533673 0.49896908
-0.054914176 -0.14498742 0.4971073
-0.044684216 -0.1451887 0.49434337
-0.035108458 -0.1452222 0.49185985
-0.026996907 -0.14317243 0.49110377
-0.061649937 -0.1379737 0.4998332
-0.054522336 -0.13528883 0.4985413
-0.044991426 -0.1349898 0.49607384
-0.034850478 -0.13490854 0.49436393
-0.025215147 -0.13537884 0.49231979
-0.019513484 -0.1342338 0.4909327
-0.051670957 -0.12631913 0.49975312
-0.045098506 -0.12491262 0.49723184
-0.034598757 -0.12453713 0.49573174
-0.024767518 -0.12521541 0.49330941
-0.018118549 -0.12330334 0.49133462
-0.044129126 -0.11637682 0.49878651
-0.034733146 -0.11461238 0.49763966
-0.024950363 -0.11533929 0.49562037
-0.015167185 -0.11477832 0.49307883
-0.0070485235 -0.11237995 0.4914816
-0.033242352 -0.10771285 0.49968767
-0.024635794 -0.10555171 0.49840075
-0.015162516 -0.10499609 0.49520326
-0.0047646328 -0.10459772 0.49240708
0.0036345883 -0.10259738 0.49113744
-0.022414234 -0.095612049 0.49974895
-0.015227444 -0.095050506 0.49731436
-0.0048772185 -0.094595551 0.49455819
0.0053552855 -0.095194608 0.49198708
0.011263995 -0.090628989 0.49093935
-0.013771648 -0.08595214 0.4992092
-0.0049059633 -0.084767498 0.49611819
0.0050503104 -0.085434869 0.49352667
0.01326895 -0.083507955 0.49154568
0.020240849 -0.080368973 0.49094084
-0.011544975 -0.07774213 0.49981713
-0.0045584608 -0.075109847 0.49790907
0.0048926999 -0.075273171 0.49540648
0.014527169 -0.07491295 0.49303573
0.022707373 -0.073474407 0.49136618
-0.0020500952 -0.067727268 0.49953187
0.005042694 -0.065429851 0.49828351
0.014615959 -0.065000802 0.49605307
0.024841638 -0.064639822 0.49328709
0.031796996 -0.06327305 0.49117875
0.0078779552 -0.059314415 0.49994481
0.015270119 -0.055268444 0.49858811
0.024779921 -0.054771595 0.4952403
0.034391966 -0.054856829 0.49198329
0.041186657 -0.051299084 0.49094525
0.016969969 -0.045734286 0.49946299
0.025063397 -0.045096211 0.49709427
0.035223197 -0.045405634 0.49430591
0.044813771 -0.044598553 0.49172807
0.051018517 -0.041894007 0.49094662
0.025919072 -0.035679147 0.49881625
0.035360094 -0.035211276 0.49622932
0.045433369 -0.034984879 0.49304163
0.053189669 -0.033080582 0.49110797
0.0282826 -0.02878665 0.49994943
0.036183376 -0.026304116 0.49907154
0.044817138 -0.024801916 0.49607673
0.054911435 -0.024707869 0.49281305
0.064073123 -0.023533065 0.49123201
0.038403429 -0.017032564 0.49995118
0.044966903 -0.015234538 0.49843287
0.054731958 -0.015099099 0.49559397
0.064730898 -0.015017563 0.49287945
0.071758546 -0.01360911 0.49100643
0.048658237 -0.0075255283 0.49965253
0.055084281 -0.0054901098 0.49814317
0.064981215 -0.0053811083 0.49479628
0.074538738 -0.0050105429 0.4915624
0.083948851 -0.0027777362 0.49095234
0.057623278 0.0039172047 0.49968764
0.06527482 0.0049807332 0.49703231
0.07524763 0.0049561774 0.49429765
0.085267596 0.0049374755 0.49250039
0.094118044 0.0061608967 0.4914414
0.059787646 0.010883296 0.49995536
0.066266529 0.013931232 0.49910575
0.074872255 0.015396162 0.49723908
0.084670939 0.015431757 0.49569735
0.09489011 0.015121458 0.49354917
0.1030752 0.016691783 0.49144006
0.068602562 0.021004874 0.49995685
0.075090468 0.024772543 0.49875736
0.084628977 0.02506588 0.4963142
0.09459281 0.024958478 0.49418899
0.1045725 0.025023082 0.49192208
0.11209058 0.027546983 0.49113864
0.077015653 0.032626227 0.49957767
0.085261635 0.034499831 0.49818283
0.094961479 0.034782551 0.49611473
0.10481267 0.034797259 0.49426469
0.1146195 0.035266023 0.49221724
0.08895316 0.041792285 0.49995986
0.095693015 0.045007709 0.49862123
0.1053817 0.045167811 0.4963662
0.11513637 0.044930167 0.4937253
0.12322553 0.046531234 0.49154028
0.096610613 0.052585814 0.4997949
0.10461447 0.054954894 0.49794447
0.11524141 0.055077605 0.49562818
0.12517881 0.055125359 0.49264872
0.13111044 0.056625262 0.49096119
0.10565803 0.064503238 0.49890327
0.11466968 0.064664051 0.49680921
0.12510103 0.065090857 0.49422514
0.13431971 0.066124558 0.49153429
0.14181271 0.069170453 0.49096307
0.10792808 0.072345354 0.49969184
0.11541051 0.074127831 0.49873555
0.12498977 0.074974217 0.4967266
0.13473523 0.075116426 0.49421847
0.14456296 0.075383134 0.49213377
0.1535798 0.077587366 0.49122506
0.11953315 0.081081286 0.49996576
0.12610027 0.084224761 0.49908805
0.13504635 0.084939495 0.49689814
0.14514437 0.08489351 0.49448192
0.15426344 0.084805816 0.49181288
0.12900108 0.090549916 0.4999671
0.1364066 0.093380429 0.49928313
0.14500435 0.095085263 0.49645972
0.154507 0.09506873 0.49225754
0.16388257 0.097610191 0.49100572
0.1709235 0.099181108 0.49096742
0.1394484 0.10165103 0.49996871
0.14550267 0.10463275 0.49800193
0.15506952 0.10519437 0.49479645
0.16495787 0.10513056 0.49222261
0.17234173 0.10532142 0.49096847
0.14754508 0.11273649 0.49955869
0.15521777 0.11491544 0.49751452
0.16452926 0.11492816 0.49350062
0.17171943 0.11593729 0.49106553
0.15734608 0.12409116 0.49917203
0.16454928 0.12426137 0.49652287
0.1720559 0.12233832 0.49263802
0.15903689 0.13103603 0.49997318
0.20678577 0.17770313 0.49885985
0.21149476 0.17828962 0.49972981
0.20301351 0.18104179 0.49958053
0.21171552 0.18048412 0.49948019
-0.14397565 -0.20211734 0.50963891
-0.1353478 -0.20160134 0.50770211
-0.12492802 -0.20099376 0.50534093
-0.11637978 -0.20028126 0.50217414
-0.14250471 -0.19517227 0.50983876
-0.13503294 -0.19496033 0.50758082
-0.12472278 -0.19501396 0.50540745
-0.11466331 -0.19515158 0.50366628
-0.10568814 -0.19385481 0.50222033
-0.099732183 -0.19258504 0.500925
-0.14015451 -0.18805331 0.50992692
-0.13406014 -0.18532231 0.50896794
-0.12483789 -0.185238 0.50694418
-0.11522879 -0.18516119 0.50543576
-0.10515106 -0.18496238 0.50250334
-0.099732429 -0.18582404 0.5009262
-0.13243039 -0.17539594 0.50977504
-0.12485837 -0.17488797 0.50759542
-0.11513121 -0.17467995 0.50563008
-0.10552676 -0.17486615 0.5034706
-0.097673245 -0.17313322 0.50136828
-0.13083062 -0.16873769 0.50992996
-0.12391309 -0.16623621 0.50953984
-0.11479397 -0.16510394 0.50848943
-0.10458861 -0.16506319 0.50539404
-0.094850667 -0.16474439 0.50213337
-0.086738974 -0.16266455 0.50111157
-0.12017426 -0.15874664 0.50993139
-0.11430573 -0.1552368 0.50961918
-0.10510544 -0.15496397 0.50756949
-0.095185176 -0.15503597 0.50524789
-0.085099138 -0.1549827 0.50247943
-0.077649422 -0.15180275 0.50120407
-0.11085001 -0.14875567 0.50993282
-0.10385209 -0.14621343 0.5096603
-0.095134303 -0.14515175 0.50729513
-0.084761426 -0.145335 0.50472212
-0.075348549 -0.14445817 0.50278169
-0.068664908 -0.14244297 0.50126606
-0.10069326 -0.13726601 0.50993454
-0.094505496 -0.13509907 0.50834858
-0.085044183 -0.13530479 0.50697017
-0.075006999 -0.13490422 0.50574374
-0.065347753 -0.13485472 0.50230891
-0.058080137 -0.13143501 0.50122005
-0.093024842 -0.12704362 0.50979972
-0.085088603 -0.12518719 0.50928104
-0.074956238 -0.12498917 0.50744408
-0.065023139 -0.12507132 0.50470233
-0.056228366 -0.12456688 0.50217986
-0.081989236 -0.11767253 0.50993741
-0.074710637 -0.11504427 0.50961053
-0.065054841 -0.1151285 0.50716805
-0.054936543 -0.11475251 0.5038746
-0.046571206 -0.11248711 0.50172663
-0.072731286 -0.10700351 0.50988346
-0.065111049 -0.10535264 0.5087167
-0.05510119 -0.10477331 0.5062722
-0.04501329 -0.10526513 0.50356334
-0.035770174 -0.10369512 0.50184745
-0.028154025 -0.10150671 0.50122434
-0.0622916 -0.097765103 0.50975269
-0.054754253 -0.094891958 0.50851732
-0.045169089 -0.0953269 0.50612193
-0.035167284 -0.094980605 0.50383055
-0.027008086 -0.094265737 0.50160646
-0.052536223 -0.085663967 0.50982666
-0.044961866 -0.084963322 0.50784355
-0.034977231 -0.084972195 0.50492406
-0.02508329 -0.085206784 0.50261438
-0.018053301 -0.083622105 0.50141966
-0.051241625 -0.078485824 0.50994319
-0.044091936 -0.075771451 0.50906843
-0.034720119 -0.074879318 0.50653595
-0.025044125 -0.075122744 0.50418037
-0.015684899 -0.074715048 0.50222582
-0.0091221053 -0.071245909 0.50119323
-0.040252253 -0.068827778 0.50994456
-0.033771671 -0.06626673 0.50937724
-0.024791989 -0.065104306 0.5069291
-0.014773473 -0.064735033 0.50405163
-0.0059419586 -0.064031631 0.50207776
0.001678025 -0.061068974 0.50094473
-0.030927978 -0.059502833 0.50994593
-0.024038874 -0.0558521 0.5092442
-0.015017212 -0.054890357 0.50713849
-0.0047414461 -0.055334475 0.50445408
0.0047345874 -0.055012703 0.50244564
0.010679297 -0.052752018 0.50119585
-0.020271664 -0.048845738 0.50994742
-0.014290337 -0.045505743 0.5087564
-0.0049172761 -0.045132376 0.50565076
0.0049659787 -0.044902571 0.50307244
0.012651823 -0.043660004 0.50140196
-0.012159378 -0.037602071 0.50953239
-0.0044896971 -0.035334438 0.5076766
0.0049133897 -0.034598578 0.50505829
0.014799516 -0.034989733 0.50232393
0.021382986 -0.032867942 0.50106007
-0.00029106985 -0.028863685 0.50995028
0.0066300798 -0.025965188 0.50901955
0.014874032 -0.025280643 0.50501293
0.024838377 -0.024593985 0.50202173
0.033034746 -0.022626877 0.50133932
0.0076961354 -0.015473301 0.50967962
0.014935168 -0.014787605 0.50701469
0.025392026 -0.014706032 0.5042333
0.034537803 -0.014230076 0.50193107
0.041597959 -0.011016808 0.50107723
0.0090328176 -0.0088820206 0.50995344
0.015497693 -0.0051667932 0.50893384
0.025032081 -0.0049751448 0.50611049
0.034756128 -0.0047020526 0.50384223
0.044272292 -0.0044496516 0.50174493
0.050747607 -0.00087247341 0.50095367
0.018028202 0.0041185431 0.50971544
0.024904201 0.0050848415 0.50772321
0.034706742 0.0050665513 0.5056113
0.045087971 0.0050465795 0.50356418
0.053236645 0.0059875767 0.50157237
0.019688793 0.011099691 0.5099566
0.025725529 0.01320741 0.50936425
0.035098687 0.014834372 0.5085606
0.045341723 0.014995843 0.50642079
0.055130996 0.014826911 0.50330901
0.061987296 0.016854964 0.50160348
0.038781688 0.021313064 0.50995779
0.045249671 0.024573546 0.50863814
0.054603994 0.024918931 0.50642669
0.064485401 0.025001623 0.50320762
0.070976235 0.027559459 0.50124365
0.047652256 0.032408021 0.50985944
0.055077527 0.03478764 0.50861996
0.065142624 0.034924477 0.50506282
0.073959492 0.036344692 0.50174999
0.082397074 0.039271701 0.50112629
0.05739351 0.043723222 0.50951284
0.065135181 0.04496669 0.50704175
0.075108469 0.04508926 0.5043838
0.084395409 0.045437589 0.50250071
0.090264976 0.047284741 0.50096077
0.066181101 0.054255892 0.50959903
0.074577697 0.054780327 0.50733745
0.084887013 0.054832004 0.50454551
0.093616575 0.056042876 0.50207847
0.068641208 0.061387807 0.50996381
0.075222485 0.06338381 0.5094412
0.085244723 0.065083526 0.5083198
0.095257737 0.065029837 0.5045886
0.10147011 0.066633709 0.50142533
0.087371916 0.073612653 0.50979877
0.09523657 0.074917287 0.5069505
0.10449161 0.075728677 0.50240004
0.11312155 0.07850191 0.50121552
0.095758155 0.084651239 0.50905401
0.10473236 0.084847741 0.50528252
0.11457426 0.085266918 0.50257957
0.12208343 0.087382622 0.50135565
0.097736552 0.094739877 0.50981492
0.10526054 0.095008731 0.50754225
0.11508187 0.095385484 0.50480753
0.12503065 0.095065229 0.50273168
0.13335599 0.096732676 0.50140285
0.099077955 0.10141817 0.50996989
0.10536207 0.10475233 0.50912708
0.11523055 0.10516208 0.50680047
0.12528329 0.10479372 0.50414205
0.13476342 0.10517114 0.50238872
0.14110541 0.10877888 0.50121999
0.10743642 0.11184207 0.50997138
0.11530747 0.11427424 0.50907153
0.1248467 0.11517426 0.50664419
0.13476945 0.11508797 0.50447118
0.14394857 0.11585405 0.50221026
0.15063156 0.11908441 0.50097144
0.11825929 0.1216666 0.50997281
0.12569258 0.12453919 0.50925887
0.13536629 0.12504424 0.50680047
0.14505881 0.12528756 0.50417608
0.15308051 0.12578236 0.50212878
0.12784997 0.13152441 0.50997424
0.13513225 0.13428167 0.50872952
0.14461954 0.13528714 0.50637442
0.15251347 0.1342244 0.50406486
0.13797294 0.14346309 0.50991344
0.144784 0.14227232 0.50650883
0.15058437 0.14077966 0.50447512
0.13557535 0.15097319 0.50997734
0.19943433 0.1793661 0.50864702
0.20472343 0.1754566 0.50477952
0.19796611 0.18265423 0.50666279
0.20102409 0.18105152 0.50178063
0.21722813 0.18127179 0.50426596
-0.19273315 -0.20431045 0.51956844
-0.18486212 -0.2026462 0.51839626
-0.17516391 -0.20235223 0.51639211
-0.16532783 -0.20221928 0.51435995
-0.15486881 -0.20210037 0.51215559
-0.14862768 -0.20205536 0.5109247
-0.18296936 -0.19921198 0.51992619
-0.17392844 -0.19670743 0.51880866
-0.16471061 -0.19512774 0.5158211
-0.15448393 -0.19481348 0.51275307
-0.14677157 -0.19446294 0.51114821
-0.17051955 -0.18834591 0.51992774
-0.16431795 -0.18563215 0.51835012
-0.15476935 -0.18498653 0.51489395
-0.14493574 -0.18471342 0.51216823
-0.13879125 -0.18232603 0.5112136
-0.16172732 -0.17784625 0.51967931
-0.15493329 -0.17476395 0.51849562
-0.1451669 -0.17519276 0.5146023
-0.13723774 -0.1744796 0.51154983
-0.1540236 -0.1653499 0.51913631
-0.14489701 -0.16477767 0.51651597
-0.13493893 -0.16494936 0.51296782
-0.12702158 -0.1625644 0.51124674
-0.15191004 -0.15886617 0.51976556
-0.14465541 -0.15559234 0.51884747
-0.13528027 -0.15489563 0.51621568
-0.12493701 -0.15467136 0.51245952
-0.11793672 -0.15158692 0.51105756
-0.14120632 -0.14861727 0.51993376
-0.1336641 -0.14612067 0.51925832
-0.12470452 -0.14498296 0.5169856
-0.115044 -0.14500365 0.51349968
-0.10759568 -0.14346182 0.51164788
-0.13113336 -0.13786441 0.51993525
-0.12483197 -0.13525189 0.51891422
-0.11496224 -0.13513257 0.51641744
-0.10513093 -0.13473716 0.5122394
-0.09905573 -0.13036108 0.51093566
-0.12262751 -0.12716335 0.51938128
-0.1152738 -0.12486673 0.51711017
-0.10482591 -0.12485904 0.51302594
-0.096348919 -0.12357281 0.51120347
-0.089713164 -0.12101781 0.51093698
-0.11380848 -0.11640056 0.51915473
-0.10485152 -0.1150844 0.51729566
-0.094916247 -0.11514412 0.51373476
-0.085684784 -0.11440734 0.51149362
-0.078591041 -0.11078471 0.51093847
-0.12370315 -0.1019831 0.51966852
-0.11471786 -0.10240698 0.51970273
-0.1047247 -0.10486703 0.51930559
-0.094519645 -0.1050285 0.51613224
-0.084796667 -0.10484547 0.51347512
-0.076356947 -0.10362586 0.5118562
-0.069248475 -0.10144147 0.51093978
-0.12257521 -0.097998001 0.51929897
-0.11487775 -0.095219538 0.51921803
-0.10390578 -0.096977904 0.5196082
-0.094661929 -0.096890256 0.51874673
-0.08547882 -0.094870634 0.51760209
-0.075361833 -0.095068298 0.51432985
-0.065892994 -0.094191208 0.51162177
-0.058348842 -0.090318576 0.51094139
-0.095444024 -0.083554476 0.51944357
-0.085367516 -0.084780112 0.51882768
-0.074817702 -0.085264392 0.51619279
-0.064726613 -0.084786572 0.51385325
-0.057242263 -0.084557638 0.51130223
-0.095589846 -0.075307935 0.51914114
-0.084585279 -0.076258138 0.51953143
-0.074851163 -0.07478299 0.51892662
-0.065246232 -0.074645504 0.51739872
-0.05556611 -0.075039715 0.51340538
-0.047302276 -0.071785219 0.51144421
-0.073547728 -0.067220822 0.51983464
-0.065250456 -0.064863831 0.51935428
-0.055141915 -0.064912781 0.5169456
-0.04494587 -0.064958617 0.51296419
-0.037106026 -0.062834986 0.51132047
-0.063547075 -0.057441819 0.51984185
-0.054736603 -0.055341944 0.51871186
-0.044588313 -0.055169672 0.51555073
-0.035185214 -0.055038642 0.51263773
-0.027400164 -0.05196631 0.51135886
-0.053011417 -0.045258787 0.51959765
-0.045002289 -0.044932179 0.51860958
-0.03531779 -0.044706572 0.51701868
-0.025180884 -0.045050614 0.51311171
-0.01853822 -0.042503718 0.51111513
-0.052048352 -0.037874054 0.51983911
-0.044576585 -0.035456397 0.51943809
-0.034862772 -0.034792829 0.51891452
-0.024579395 -0.035291169 0.51637834
-0.015792368 -0.034288947 0.51281339
-0.0077104503 -0.031009879 0.51117241
-0.041495636 -0.028978175 0.5199514
-0.034172662 -0.026313201 0.51971358
-0.024675403 -0.025280816 0.51842093
-0.01509854 -0.025114734 0.51507372
-0.0050707851 -0.024935078 0.51293296
0.0030155648 -0.02360707 0.51152259
-0.030177671 -0.01720663 0.51995313
-0.024628744 -0.015225949 0.51900786
-0.01517105 -0.015095 0.51763171
-0.0050178515 -0.015045228 0.51587468
0.0033239243 -0.014543817 0.51204085
-0.023160597 -0.0081516579 0.5199545
-0.014721748 -0.0053248787 0.51951289
-0.0050288001 -0.004952956 0.51688308
0.0049751014 -0.004827009 0.51272511
0.010829906 -0.002448298 0.51095456
-0.012706148 0.0023893134 0.51952744
-0.0048262784 0.004978484 0.5179562
0.00508636 0.0051669325 0.51545602
0.013153818 0.0057662106 0.51228917
-0.0030128055 0.015373569 0.51935792
0.0051106471 0.015334062 0.51797807
0.015053386 0.015293995 0.51404834
0.024195246 0.017462058 0.51182109
0.031739417 0.019130116 0.5109576
-0.0021567289 0.023241064 0.5196436
0.0051210667 0.024847347 0.51883668
0.015238774 0.024774855 0.51726252
0.025273265 0.024681412 0.51526487
0.034970861 0.025302805 0.51273638
0.041998565 0.028937308 0.51129228
0.0066489568 0.03183952 0.51978409
0.015065483 0.034601733 0.51932621
0.024801029 0.035024591 0.51791298
0.035032351 0.034971781 0.51547742
0.044275925 0.036049247 0.51217967
0.050869402 0.038706418 0.5109604
0.017807106 0.043681487 0.51987892
0.024849782 0.045089569 0.51868963
0.034804016 0.045006853 0.51688033
0.04470221 0.044783771 0.51430094
0.053246945 0.045970805 0.51164913
0.027142055 0.052396961 0.51951909
0.035037681 0.054893844 0.51805985
0.044810191 0.054985803 0.51551044
0.054997139 0.055019706 0.51326138
0.062286768 0.057017207 0.51157439
0.036342304 0.064456217 0.51899552
0.044911563 0.065234981 0.51667947
0.054903209 0.065079741 0.51545471
0.064461157 0.065349728 0.51221019
0.074381277 0.068715781 0.51096499
0.081121467 0.069850519 0.51096493
0.038408585 0.071079358 0.51996636
0.046165027 0.07378158 0.51907474
0.055146202 0.074837632 0.51700658
0.064555012 0.075260028 0.51328826
0.075253054 0.075331144 0.51191252
0.083756596 0.076056622 0.51128846
0.056413874 0.083626114 0.51896805
0.065135084 0.08545889 0.51653945
0.075004272 0.085170805 0.51480448
0.084750876 0.084833212 0.51277095
0.091517694 0.08640711 0.51112133
0.059460081 0.090774134 0.51996917
0.065882064 0.094528295 0.51910478
0.074723743 0.095049918 0.51695132
0.085101202 0.09485583 0.5139035
0.092691191 0.095189713 0.51153147
0.068410523 0.10379358 0.51987112
0.074819088 0.10468025 0.51820314
0.085078903 0.10512448 0.51583052
0.094836228 0.10520197 0.5127157
0.10139555 0.10881542 0.51113766
0.076092504 0.11333466 0.51934099
0.084902182 0.11541812 0.51827252
0.094593242 0.11487199 0.5153293
0.10426524 0.11577803 0.51224869
0.1118487 0.1185062 0.51111525
0.086792834 0.12216229 0.51964039
0.09554439 0.12429493 0.51865578
0.10483718 0.12500976 0.51581985
0.11429726 0.12556459 0.51239026
0.12252435 0.1286103 0.51109886
0.098846644 0.1308427 0.51997489
0.10568458 0.13410498 0.51895142
0.1150311 0.13502979 0.51577145
0.12449675 0.13527706 0.51250553
0.13133855 0.13799955 0.51126093
0.10837696 0.14449881 0.51979518
0.11528713 0.14510457 0.51821822
0.12540503 0.14498624 0.5147351
0.13364625 0.14515163 0.51148921
0.10868108 0.15268421 0.51969272
0.11543828 0.15207304 0.51826978
0.12481574 0.15132104 0.51450402
0.13172394 0.15091176 0.51157743
-0.22241049 -0.20782368 0.52975917
-0.21454102 -0.2049689 0.52845383
-0.20537665 -0.20405604 0.5250724
-0.19654475 -0.20262237 0.52200931
-0.2126499 -0.19524604 0.52916574
-0.20500933 -0.19510676 0.52640826
-0.19469616 -0.19476388 0.5240677
-0.18517786 -0.19493526 0.52261931
-0.17692266 -0.19292395 0.52164131
-0.21117558 -0.18873899 0.52992874
-0.20433004 -0.18688267 0.52892882
-0.19541363 -0.18504392 0.52738732
-0.18521589 -0.18515335 0.52435464
-0.17510965 -0.18496217 0.52229011
-0.16818275 -0.18207398 0.52092874
-0.19322966 -0.17568737 0.52851117
-0.18493663 -0.17509112 0.52508265
-0.17511858 -0.17505772 0.5228408
-0.16595371 -0.17434822 0.52146655
-0.19150297 -0.16570926 0.52963221
-0.18497063 -0.16502476 0.52701199
-0.17518748 -0.16493438 0.52416712
-0.16509792 -0.16529714 0.52229691
-0.15850441 -0.16311249 0.52114594
-0.19179612 -0.1582831 0.52993345
-0.18506026 -0.15735742 0.52905852
-0.17467196 -0.15545638 0.52740514
-0.16471659 -0.15505695 0.5245046
-0.15518747 -0.15450679 0.52219498
-0.1483175 -0.15217136 0.52105826
-0.17248616 -0.14472325 0.52969527
-0.16509394 -0.1450142 0.5276016
-0.1549138 -0.14525062 0.52404374
-0.14520587 -0.14456572 0.52216977
-0.13702787 -0.14272921 0.52100128
-0.17167795 -0.13880949 0.52993619
-0.16387692 -0.13732316 0.52950144
-0.15475827 -0.13619751 0.52793616
-0.1450316 -0.13495007 0.52602702
-0.13563505 -0.13499802 0.52233166
-0.12923114 -0.13121194 0.52093631
-0.17057112 -0.12136693 0.52993923
-0.164836 -0.12235553 0.52993888
-0.15119055 -0.12136622 0.52993864
-0.14466098 -0.12500057 0.528889
-0.13478823 -0.12494837 0.52503192
-0.12613794 -0.12430196 0.52173746
-0.16479471 -0.11522885 0.52796143
-0.15509449 -0.11400883 0.52940667
-0.14519171 -0.1154602 0.52824557
-0.1346392 -0.11487693 0.52507937
-0.12469311 -0.11502382 0.52230448
-0.11635709 -0.11261954 0.52107251
-0.15516359 -0.10497504 0.52670437
-0.14495762 -0.10466928 0.52553058
-0.13491657 -0.10495409 0.52357924
-0.12522379 -0.10599396 0.52167028
-0.11471919 -0.10712614 0.52127343
-0.10916002 -0.10501543 0.5209403
-0.15319651 -0.099170268 0.52969253
-0.14446735 -0.098559625 0.52871162
-0.13432384 -0.096413299 0.52672631
-0.12574412 -0.093951032 0.52299392
-0.11052126 -0.093448512 0.52094227
-0.10521529 -0.094643876 0.52146572
-0.096446373 -0.092232093 0.52099204
-0.13168681 -0.088749371 0.52944374
-0.12529896 -0.088138461 0.52412015
-0.10235649 -0.089365758 0.52094275
-0.095232241 -0.08808472 0.52094281
-0.09130048 -0.071844809 0.52094549
-0.086027317 -0.071493067 0.52094537
-0.091586746 -0.064951859 0.52161336
-0.084883414 -0.065032035 0.52227318
-0.076032937 -0.063467599 0.52133358
-0.069697872 -0.060787361 0.52094674
-0.09222918 -0.054312859 0.52232778
-0.085117973 -0.055049565 0.52292967
-0.075174838 -0.055369236 0.5211724
-0.066055931 -0.053863063 0.52094793
-0.058811657 -0.051261228 0.52094811
-0.095105015 -0.044952806 0.52506131
-0.085012861 -0.045008976 0.52566153
-0.075097926 -0.04532538 0.52363396
-0.064859979 -0.045411594 0.52221155
-0.057809185 -0.044671964 0.52094918
-0.096168064 -0.038029607 0.52876961
-0.083957456 -0.038412504 0.52933985
-0.074621618 -0.035553914 0.52810013
-0.064708784 -0.03517054 0.52458364
-0.055437863 -0.034326978 0.52215087
-0.047767542 -0.031706445 0.52107614
-0.07258153 -0.027500628 0.52928585
-0.065018758 -0.025128838 0.52771628
-0.055145506 -0.024905171 0.5248633
-0.045516562 -0.024533447 0.52214104
-0.037234001 -0.022488829 0.5209524
-0.062937371 -0.015941016 0.52947801
-0.055397823 -0.014692895 0.5272603
-0.045433439 -0.014589652 0.52354574
-0.035439432 -0.015039033 0.52146208
-0.028875118 -0.010435551 0.52095425
-0.061213389 -0.0092324531 0.52995539
-0.054826286 -0.0057722325 0.52857113
-0.045305058 -0.0048751254 0.5257057
-0.034870725 -0.0051638205 0.52303082
-0.025342066 -0.0039654751 0.52163082
-0.018896068 -0.002497073 0.52095526
-0.051288538 0.0028004991 0.52972639
-0.044441283 0.0045969449 0.52799815
-0.034602087 0.0045723207 0.52520186
-0.024905 0.0045566098 0.52326286
-0.016164087 0.005528003 0.52178991
-0.0093707703 0.0095238453 0.52095717
-0.043526068 0.012854054 0.52919203
-0.034673996 0.014840448 0.52743143
-0.025013415 0.014872755 0.52554774
-0.01543114 0.01491083 0.52386719
-0.0084723746 0.015435118 0.52143431
-0.032391075 0.024178488 0.52946031
-0.025074281 0.025224805 0.52673572
-0.015352444 0.025079083 0.52371514
-0.0065638633 0.025830714 0.52171659
-0.030759713 0.032298464 0.52996165
-0.024656467 0.034341741 0.52862036
-0.015419731 0.034808785 0.52596158
-0.0050861151 0.03461263 0.52303278
0.0046556392 0.036327105 0.52151698
0.011131172 0.038827576 0.52096158
-0.021069728 0.040604781 0.52996278
-0.014312413 0.043240871 0.52889401
-0.0051206937 0.04445098 0.52624869
0.0051442725 0.045140117 0.52404284
0.013661307 0.045957912 0.52188158
0.020112192 0.049442291 0.52096313
-0.0041262819 0.053163875 0.52912235
0.0050733774 0.055411179 0.52796447
0.014759745 0.055251535 0.52439278
0.023809051 0.056108456 0.52199042
0.0079163825 0.064422391 0.52928185
0.01484155 0.065196648 0.52729249
0.025012091 0.064784668 0.52396578
0.032462578 0.066341892 0.52149206
0.016476823 0.073789895 0.52893043
0.02511313 0.074675255 0.52612811
0.034983847 0.07564763 0.52296722
0.04329164 0.077821121 0.5215463
0.026343672 0.083672285 0.52885121
0.035120204 0.085328393 0.52632302
0.044849575 0.085301377 0.52386653
0.052342456 0.086268507 0.52180189
0.028302765 0.090903789 0.52996999
0.035309274 0.094764091 0.52861857
0.045017101 0.095231161 0.52582747
0.054888003 0.094865106 0.52257001
0.062323026 0.097849257 0.52120101
0.036694955 0.10271572 0.52935278
0.045214981 0.10502727 0.52715939
0.055196792 0.10485942 0.52368349
0.06422089 0.10573967 0.52189463
0.047533378 0.11344992 0.52886808
0.054772954 0.11481684 0.52666092
0.064920798 0.11538862 0.52355808
0.072963081 0.11716983 0.52158439
0.056399427 0.12365021 0.5290783
0.065134339 0.12513834 0.52662867
0.075102925 0.12474499 0.52342552
0.084500149 0.12633966 0.52183944
0.092442364 0.12875758 0.52130806
0.059217945 0.13058895 0.52997595
0.065927006 0.13379143 0.52894688
0.074846759 0.13517351 0.52605182
0.08501263 0.13463001 0.52355003
0.095212117 0.13554896 0.52240127
0.10183267 0.13737248 0.52136052
0.068561763 0.14131781 0.52997756
0.075097032 0.14493588 0.52799684
0.084703825 0.1444333 0.52493685
0.094640583 0.14530048 0.52380508
0.10344344 0.14517768 0.52186608
0.077184781 0.15482621 0.52922201
0.085108757 0.15476899 0.52744877
0.09530317 0.15519159 0.52558696
0.10370349 0.15290762 0.52236313
0.079289585 0.16104487 0.52998066
0.085209854 0.16243087 0.52919811
0.093441434 0.16145213 0.52782643
-0.26414731 -0.21191451 0.53982627
-0.25575721 -0.21116282 0.53810799
-0.24538986 -0.21041863 0.53459269
-0.261704 -0.20922692 0.53992671
-0.25458384 -0.20569746 0.53909773
-0.2449535 -0.20493577 0.53626692
-0.23487605 -0.20509546 0.53374147
-0.22547366 -0.20420608 0.53231287
-0.21889746 -0.20249031 0.53106946
-0.25222385 -0.19882165 0.53976154
-0.24484597 -0.19528732 0.53856486
-0.23498589 -0.19499205 0.5363515
-0.22527122 -0.19491252 0.53446144
-0.21757273 -0.19490506 0.53153652
-0.24323449 -0.18570848 0.53963012
-0.23499247 -0.18503582 0.53803211
-0.22489008 -0.18498982 0.535483
-0.21507758 -0.18468544 0.53263175
-0.20612696 -0.18210779 0.53135836
-0.2400783 -0.17796125 0.53993142
-0.2336657 -0.17581773 0.53936017
-0.22515945 -0.17495176 0.53791106
-0.21506691 -0.17512541 0.53559786
-0.20500031 -0.17505476 0.53380138
-0.1977192 -0.17334925 0.53174353
-0.22383663 -0.16530484 0.53973323
-0.2154157 -0.16530222 0.53821295
-0.2053993 -0.16503957 0.53578639
-0.19647346 -0.16491736 0.53237373
-0.22139063 -0.15750909 0.5399344
-0.21424566 -0.15511183 0.538387
-0.20489503 -0.15490292 0.53493446
-0.19550823 -0.15434664 0.53214699
-0.18526793 -0.15258633 0.53139263
-0.17875116 -0.1511842 0.53093427
-0.21133538 -0.14805974 0.53976911
-0.20426464 -0.14579193 0.53808981
-0.19519198 -0.14494424 0.53512341
-0.18540877 -0.14516352 0.53278744
-0.17758556 -0.1451138 0.53093529
-0.20266798 -0.13441202 0.53949338
-0.1946926 -0.13492371 0.53749067
-0.18487985 -0.13496019 0.53468204
-0.17549509 -0.13490725 0.5323627
-0.1665649 -0.13321581 0.53131634
-0.15646839 -0.13172004 0.53093708
-0.19141339 -0.12882026 0.53793854
-0.18437973 -0.12770633 0.53561854
-0.17493786 -0.12540145 0.53268862
-0.16505319 -0.12575783 0.53108454
-0.15524349 -0.12529384 0.53093803
-0.14870168 -0.12714283 0.53093761
-0.16118446 -0.11882166 0.53093934
-0.15586789 -0.11789683 0.53093934
-0.16472557 -0.093687221 0.53396761
-0.15564622 -0.095264062 0.53429013
-0.14483587 -0.094283707 0.535456
-0.13733153 -0.092616238 0.53294319
-0.1750394 -0.085498184 0.53741819
-0.16490391 -0.084990412 0.53625482
-0.15871872 -0.084841631 0.53367239
-0.14307073 -0.089555398 0.53844392
-0.13499677 -0.088987328 0.53294379
-0.17450027 -0.078753881 0.5398289
-0.16465595 -0.075807005 0.53683579
-0.16192248 -0.068499662 0.5387814
-0.15263498 -0.058775339 0.53994942
-0.13611424 -0.031242751 0.53945369
-0.10231389 -0.030870531 0.53173053
-0.094523296 -0.033428397 0.53264445
-0.08540564 -0.033256929 0.53200454
-0.079011537 -0.03109478 0.5309521
-0.11501636 -0.024578078 0.53460026
-0.10523513 -0.024770927 0.53503394
-0.095246248 -0.024668982 0.53448427
-0.085277654 -0.024612458 0.53325951
-0.07631281 -0.023769248 0.53173107
-0.069650099 -0.020345666 0.53095371
-0.11452244 -0.018380184 0.53939283
-0.10405514 -0.01680645 0.53895533
-0.094966859 -0.014956948 0.53684664
-0.085259132 -0.014964461 0.53497589
-0.075391069 -0.014871574 0.53371
-0.06727016 -0.01404296 0.5316214
-0.092720747 -0.0067700054 0.53936583
-0.084654838 -0.0051539405 0.53816092
-0.07455121 -0.0051349704 0.53624219
-0.064901896 -0.0048463964 0.53297943
-0.058222286 -0.0024886248 0.53108144
-0.08307986 0.0016593256 0.53988087
-0.074802727 0.0046003512 0.53868741
-0.064613864 0.0046589109 0.53514165
-0.055581231 0.0052855937 0.53195781
-0.072937004 0.013875501 0.53929299
-0.064829849 0.014491939 0.53693908
-0.054536093 0.014622912 0.53362602
-0.045938399 0.017506983 0.53184414
-0.039138913 0.019876676 0.53095973
-0.071114145 0.02190516 0.53996098
-0.06477344 0.024135767 0.5385046
-0.055065636 0.025159247 0.53620178
-0.044934951 0.025566151 0.53387928
-0.036761593 0.026281551 0.5318228
-0.062324323 0.031473435 0.53956234
-0.054794423 0.035329971 0.53816277
-0.045010742 0.035385739 0.53475845
-0.035359718 0.035423927 0.53257102
-0.027891168 0.038454823 0.53133756
-0.052922353 0.043214116 0.53949749
-0.045020472 0.045180112 0.53779036
-0.035278294 0.045226142 0.53545386
-0.025458075 0.04510574 0.53300536
-0.017311282 0.046963532 0.53141373
-0.042475596 0.052926533 0.53986549
-0.035458807 0.05529299 0.5381698
-0.025476011 0.054987546 0.53518993
-0.015106783 0.054876972 0.53285396
-0.0062840558 0.057563916 0.531196
-0.033833109 0.062986471 0.53944075
-0.025330761 0.064781606 0.53807825
-0.015004725 0.064830825 0.53564531
-0.0044886782 0.064544387 0.5332725
0.003652754 0.066002265 0.53174424
-0.021256043 0.073571779 0.53968275
-0.014366137 0.074943058 0.53794807
-0.0045135375 0.074681893 0.53607011
0.0052645756 0.07514859 0.53370273
0.013009534 0.077025965 0.53160447
-0.012379128 0.083585121 0.53931767
-0.0045276973 0.084735207 0.53766382
0.0051891683 0.084843963 0.53527403
0.01501273 0.085450649 0.53335714
0.022216341 0.086706318 0.53158057
-0.0026937306 0.094216987 0.53928179
0.0053503308 0.094718717 0.53679121
0.015040723 0.095371626 0.53431815
0.024473706 0.095254339 0.53229702
0.030205211 0.096854314 0.53097099
-0.0011353499 0.1035018 0.5397231
0.0051573417 0.10466073 0.53810066
0.01525512 0.10505483 0.53629094
0.024807686 0.10514152 0.53429902
0.033588432 0.10624467 0.532166
0.0069692521 0.11135591 0.53964084
0.015479241 0.11422011 0.53892565
0.025129147 0.11527024 0.5372569
0.034850426 0.11496129 0.53517002
0.043545872 0.11628415 0.53227699
0.018546814 0.12191647 0.53985065
0.025243623 0.12471712 0.53886229
0.034693833 0.12510079 0.53611851
0.044905826 0.12495736 0.53329033
0.053122751 0.12710549 0.53132558
0.028356241 0.1323061 0.53981048
0.035217628 0.13492897 0.53816342
0.044955857 0.13481194 0.53512526
0.055409655 0.13535631 0.53273785
0.062242247 0.13694969 0.53137696
0.036818411 0.14417976 0.53959429
0.044768918 0.14514762 0.53805888
0.054909039 0.14511448 0.53539038
0.064755328 0.14548232 0.53280061
0.070424572 0.14817251 0.53097868
0.045622431 0.15490018 0.53923696
0.05499671 0.15483256 0.53698027
0.065418564 0.15518285 0.53423536
0.072193243 0.1555686 0.53147984
0.047412999 0.1631906 0.53969616
0.05523729 0.16429399 0.53830087
