# .PCD v0.7 - Point Cloud Data file format
VERSION 0.7
FIELDS x y z
SIZE 4 4 4
TYPE F F F
COUNT 1 1 1
WIDTH 1
HEIGHT 455
VIEWPOINT 0 0 0 1 0 0 0
POINTS 455
DATA ascii
-0.063645706 -0.11307563 0.40964797
-0.090448007 -0.12094758 0.41591349
-0.084923133 -0.12100176 0.41325361
-0.078779668 -0.12071441 0.41209751
-0.092024393 -0.11886859 0.41854471
-0.084839761 -0.11729479 0.41657093
-0.075071901 -0.11622406 0.41649956
-0.066247851 -0.11247054 0.41384855
-0.061950568 -0.10777224 0.41621003
-0.057684276 -0.10333857 0.41441637
-0.054100264 -0.09785787 0.41669086
-0.096671045 -0.12026822 0.42152888
-0.09379755 -0.117354 0.42459184
-0.084817283 -0.11461511 0.42476994
-0.074661337 -0.11285895 0.42462859
-0.068933547 -0.1108261 0.42226782
-0.070550449 -0.109611 0.42833373
-0.064433917 -0.10595106 0.42484662
-0.05912713 -0.10106247 0.42408964
-0.05409725 -0.095376946 0.42543522
-0.049256437 -0.091314852 0.42574149
-0.050980449 -0.088889122 0.42943895
-0.048311099 -0.08770629 0.42862248
-0.10172441 -0.12058568 0.43507287
-0.09910138 -0.1201665 0.4313679
-0.1025849 -0.11850846 0.437953
-0.09573584 -0.11708944 0.43488523
-0.08481425 -0.1146299 0.4350377
-0.076330639 -0.11178392 0.43456095
-0.071647756 -0.10904397 0.43552887
-0.065348111 -0.10428534 0.43475133
-0.060624275 -0.09725628 0.43736264
-0.057309426 -0.09423846 0.43322986
-0.054159183 -0.086194374 0.4349148
-0.048395555 -0.082774885 0.43330595
-0.045442887 -0.079780325 0.43831176
-0.11134974 -0.116021 0.44671726
-0.10511173 -0.11600868 0.4447808
-0.095221996 -0.11570303 0.44488671
-0.084687382 -0.11420003 0.4452332
-0.078141227 -0.11116931 0.44419706
-0.073122963 -0.10866177 0.44506153
-0.065685868 -0.10396473 0.44499585
-0.061155379 -0.096134707 0.44392419
-0.059559532 -0.091161981 0.44610381
-0.055279184 -0.084895566 0.4443973
-0.048321698 -0.080518641 0.44434911
-0.046675727 -0.07987529 0.44683218
-0.11142226 -0.11546545 0.45548642
-0.10489774 -0.11407446 0.45469934
-0.095202468 -0.11453425 0.4545795
-0.085458227 -0.11351356 0.45466197
-0.078358844 -0.11066469 0.45508432
-0.073392801 -0.10855633 0.45480791
-0.065762006 -0.1042764 0.45515773
-0.061038576 -0.096989274 0.4553836
-0.059211988 -0.091752388 0.45423678
-0.054175016 -0.083902143 0.45557842
-0.048775829 -0.080160037 0.45339689
-0.039134011 -0.081601106 0.45990703
-0.052465267 -0.074777432 0.45859718
-0.046615262 -0.078021273 0.45662227
-0.1118946 -0.11500699 0.46576351
-0.10506684 -0.11357883 0.46475455
-0.094866149 -0.11381942 0.46453941
-0.084589206 -0.11330505 0.46489233
-0.077752225 -0.11120762 0.46512118
-0.072671868 -0.10851686 0.46456209
-0.065929398 -0.1036011 0.46513447
-0.061902948 -0.096858442 0.46587363
-0.058724727 -0.091784552 0.4649573
-0.055491138 -0.08440616 0.465065
-0.039540932 -0.080653861 0.46722096
-0.054785367 -0.075286143 0.46557021
-0.044681706 -0.077428758 0.46336955
-0.1121138 -0.11452115 0.47512352
-0.10541183 -0.11328872 0.47511989
-0.094664022 -0.11354888 0.47458726
-0.085083283 -0.11335126 0.4751052
-0.077297039 -0.11136283 0.47536257
-0.07233905 -0.10811298 0.47475931
-0.067793101 -0.10336282 0.47488332
-0.063467033 -0.0949708 0.47479126
-0.059560016 -0.090507902 0.4723404
-0.060654789 -0.089289792 0.47759581
-0.057452723 -0.086040311 0.4741911
-0.037973605 -0.080820642 0.4732703
-0.041982681 -0.077891856 0.47042805
-0.11174525 -0.13061509 0.48870242
-0.11572348 -0.12488839 0.48873341
-0.11400771 -0.11416609 0.48595312
-0.10515859 -0.11273032 0.48520938
-0.095268793 -0.11326519 0.48471156
-0.084554292 -0.11296168 0.48551473
-0.078099817 -0.11109374 0.48513174
-0.07292185 -0.10683239 0.48527798
-0.069179609 -0.10184614 0.4844797
-0.065945923 -0.094971977 0.48500633
-0.061570752 -0.088048652 0.48585123
-0.058122471 -0.084665537 0.48509821
-0.04623659 -0.072843611 0.48902342
-0.12210648 -0.13063903 0.49889424
-0.1145612 -0.13323624 0.49691153
-0.10873644 -0.13708006 0.49917364
-0.12394904 -0.12410957 0.49732381
-0.11772842 -0.12674527 0.49399558
-0.12310429 -0.11602676 0.49677736
-0.1161383 -0.11271791 0.49355176
-0.10504203 -0.11156853 0.49537015
-0.094604626 -0.11219385 0.4958066
-0.085382268 -0.11149463 0.49512815
-0.079274967 -0.11043151 0.49159575
-0.12115278 -0.10824945 0.49960032
-0.11656965 -0.10847305 0.49807605
-0.10907408 -0.10956038 0.49925655
-0.081703156 -0.10924385 0.4983694
-0.074872598 -0.10534304 0.49529982
-0.071110055 -0.096871965 0.49804455
-0.068095081 -0.094002657 0.49418044
-0.064177155 -0.085899144 0.49591812
-0.057307385 -0.081875451 0.49433112
-0.047293827 -0.074125871 0.49542272
-0.1157961 -0.13800405 0.50209421
-0.10854439 -0.13890898 0.50046456
-0.12810056 -0.12625942 0.50073791
-0.12727772 -0.11299743 0.50196409
-0.10389936 -0.11051367 0.50118846
-0.095427275 -0.11060961 0.50162768
-0.089179412 -0.11027631 0.50116736
-0.11528129 -0.10542846 0.50236195
-0.085088819 -0.10487182 0.50365555
-0.077593833 -0.10294702 0.50200969
-0.075367637 -0.094625778 0.50248867
-0.074681163 -0.084860653 0.50399029
-0.06663236 -0.082883589 0.50178295
-0.055973005 -0.080393635 0.50098127
-0.047382124 -0.07432697 0.50520998
-0.11222292 -0.11063895 0.40989244
-0.1207507 -0.10028499 0.4055548
-0.11741115 -0.10325854 0.40804335
-0.12319598 -0.097249329 0.40838695
-0.11957464 -0.099809334 0.40938812
-0.11061735 -0.11064045 0.41189262
-0.10699394 -0.11164389 0.41669333
-0.091045387 -0.11516419 0.41922966
-0.084583268 -0.11327527 0.41737151
-0.079541944 -0.11266114 0.41539681
-0.11432924 -0.10573226 0.41502634
-0.10871004 -0.10900865 0.4180173
-0.080212303 -0.109782 0.41889584
-0.12268084 -0.093451872 0.41363579
-0.11893825 -0.095629133 0.41781276
-0.12535787 -0.088088632 0.41677263
-0.10224037 -0.11190294 0.42257577
-0.095403507 -0.11281002 0.42362237
-0.08708635 -0.11109436 0.42214546
-0.11401576 -0.10346254 0.42547691
-0.10531501 -0.1074874 0.4261145
-0.095144525 -0.10879488 0.42773995
-0.086193256 -0.10888891 0.42459488
-0.1169698 -0.095390387 0.42522794
-0.1308786 -0.082293205 0.42525625
-0.12545413 -0.084874503 0.42606917
-0.11979937 -0.089820161 0.42538494
-0.13089894 -0.076503366 0.42515212
-0.12741058 -0.075143628 0.42682284
-0.13070384 -0.068857044 0.42287701
-0.12735043 -0.067493938 0.42664966
-0.11173934 -0.10158924 0.4330661
-0.10558872 -0.10386118 0.4347389
-0.095937155 -0.1070879 0.43441319
-0.08926376 -0.1073041 0.43089402
-0.11488771 -0.095634647 0.43552363
-0.122343 -0.084658779 0.43468788
-0.11968815 -0.089526474 0.43613485
-0.1243283 -0.075386658 0.4337219
-0.12485112 -0.066032045 0.43450838
-0.10524917 -0.10321426 0.44510832
-0.096522465 -0.10734473 0.44409323
-0.11461881 -0.094626784 0.44488704
-0.12161631 -0.085111476 0.44548324
-0.11934099 -0.089340709 0.44568485
-0.12524353 -0.074018762 0.44518697
-0.12524444 -0.066308029 0.44414958
-0.11075038 -0.10070021 0.45438945
-0.10485153 -0.10468292 0.45577371
-0.097433686 -0.10857349 0.45506015
-0.11527147 -0.094703391 0.45459288
-0.12261164 -0.085582465 0.45515603
-0.11978494 -0.089526072 0.45488483
-0.12594613 -0.074802123 0.45566514
-0.1259184 -0.06716799 0.45496798
-0.097016171 -0.1104354 0.46539411
-0.1119667 -0.10168935 0.46522295
-0.10462929 -0.10630312 0.46547529
-0.09880349 -0.10912085 0.46239352
-0.12050362 -0.090671971 0.46688512
-0.11720932 -0.094347201 0.46398669
-0.12457452 -0.085097417 0.46645433
-0.1259941 -0.074405789 0.4657543
-0.12652782 -0.066923872 0.46594831
-0.10024291 -0.11028685 0.47789371
-0.09820459 -0.11142155 0.47529429
-0.11315296 -0.10265376 0.4754898
-0.10427584 -0.10778693 0.47474959
-0.12106198 -0.091502763 0.47628537
-0.11884533 -0.094709106 0.4748866
-0.12501501 -0.084890097 0.47657505
-0.12459423 -0.07480894 0.47624323
-0.13084057 -0.061600953 0.4778747
-0.12604405 -0.064628199 0.47683078
-0.12594502 -0.0587142 0.4793289
-0.1005002 -0.11031931 0.48722705
-0.098650083 -0.11195163 0.48589444
-0.11450122 -0.10320632 0.4864898
-0.10578182 -0.10788502 0.48550341
-0.12058721 -0.091857813 0.48438549
-0.11940233 -0.094981499 0.48767233
-0.12211597 -0.084972352 0.48451114
-0.11940169 -0.084906816 0.48988342
-0.12144846 -0.07524208 0.48460737
-0.11940388 -0.073388174 0.4898797
-0.14367422 -0.064267755 0.4886241
-0.13531591 -0.061239537 0.48487407
-0.12187821 -0.064852111 0.48248389
-0.11896443 -0.064645655 0.48782939
-0.1308129 -0.059032429 0.48237389
-0.12129615 -0.05829395 0.48149973
-0.11890528 -0.05796342 0.48642042
-0.0946979 -0.11301629 0.49692085
-0.089182802 -0.11536857 0.49989662
-0.11364215 -0.10291754 0.49631837
-0.10490086 -0.10681698 0.49594617
-0.09831465 -0.10899334 0.4988935
-0.11681527 -0.095246091 0.49643466
-0.11637483 -0.08479134 0.49607512
-0.11671342 -0.07526087 0.49601108
-0.060942251 -0.0749387 0.49555361
-0.059043415 -0.076395996 0.49788767
-0.1524841 -0.064276323 0.49857897
-0.14628942 -0.062664323 0.49420661
-0.11443264 -0.065047234 0.49582309
-0.10746165 -0.061682925 0.49941072
-0.08788646 -0.064870857 0.49988064
-0.06874264 -0.064238071 0.49838269
-0.15057428 -0.05791764 0.49987125
-0.14464179 -0.057616707 0.49782637
-0.13706248 -0.055932466 0.49587214
-0.11431366 -0.056457598 0.49572104
-0.10665775 -0.057460893 0.49855793
-0.091491833 -0.11119504 0.501095
-0.11192479 -0.075167872 0.50174481
-0.087577783 -0.075635247 0.5022915
-0.11091876 -0.068811953 0.50127923
-0.10409482 -0.06565585 0.50190175
-0.095082104 -0.065896392 0.50170237
-0.088552356 -0.067672767 0.50088155
-0.060403481 -0.067155235 0.39975134
-0.058355007 -0.062449925 0.3983191
-0.060851827 -0.056119982 0.39962974
-0.058765471 -0.058673669 0.39913851
-0.1115651 -0.11121343 0.40166503
-0.10607637 -0.1132364 0.40554652
-0.12288449 -0.10287225 0.40510806
-0.11559848 -0.10668634 0.40614834
-0.10929962 -0.10958233 0.40832967
-0.063080445 -0.10117032 0.40751791
-0.058307007 -0.10101851 0.40711781
-0.12499811 -0.094899215 0.40551999
-0.062466882 -0.095704183 0.4068408
-0.056041248 -0.09475179 0.40654296
-0.1306031 -0.083927967 0.40195924
-0.12806472 -0.085260741 0.40560901
-0.070022926 -0.080125645 0.40953338
-0.063823417 -0.083214968 0.40690553
-0.054402061 -0.084897615 0.40542257
-0.13090824 -0.074501872 0.40253145
-0.1276698 -0.074925959 0.40585119
-0.070931442 -0.078024849 0.40909815
-0.063817121 -0.075300984 0.40591753
-0.056000955 -0.074964859 0.40702149
-0.13114107 -0.066917688 0.40454078
-0.12684052 -0.065152958 0.40709683
-0.061913796 -0.069012165 0.40167063
-0.056436583 -0.064981692 0.40484554
-0.12484098 -0.056171078 0.40722135
-0.061613455 -0.052163646 0.40274695
-0.057454117 -0.055896431 0.40466267
-0.12325926 -0.048513398 0.40946206
-0.080536142 -0.045055777 0.40936956
-0.074591942 -0.046540998 0.40781331
-0.065944567 -0.048538376 0.40619946
-0.10473042 -0.11332202 0.41526294
-0.11438038 -0.10382079 0.41419771
-0.10792204 -0.10804252 0.41601852
-0.073270775 -0.10199896 0.4155145
-0.067593053 -0.10066268 0.41028675
-0.12167239 -0.093247786 0.41271931
-0.11842823 -0.095946588 0.41645321
-0.073051885 -0.09647429 0.41624436
-0.067164995 -0.095754944 0.41058791
-0.052241676 -0.093367137 0.41386527
-0.12454492 -0.085297018 0.41488037
-0.11983919 -0.089130916 0.41842794
-0.068486884 -0.08827877 0.41154206
-0.051594738 -0.084728628 0.41470665
-0.12581885 -0.075371116 0.41488174
-0.052488886 -0.075228527 0.41474617
-0.12423289 -0.064860396 0.41484645
-0.05423896 -0.06523972 0.41451707
-0.12178373 -0.05529213 0.41416821
-0.11850283 -0.052183919 0.41758782
-0.060807537 -0.051020615 0.41557211
-0.057231512 -0.056028109 0.41456902
-0.121761 -0.048676617 0.41263157
-0.11548805 -0.046900522 0.41710183
-0.10399074 -0.042752657 0.41950127
-0.093789428 -0.043861248 0.41694227
-0.083894916 -0.042281747 0.41254729
-0.075407915 -0.043410059 0.41485006
-0.065837875 -0.047609128 0.41505247
-0.091370344 -0.038711131 0.41463181
-0.084221132 -0.038325198 0.41372651
-0.077489138 -0.038393624 0.41722971
-0.1024374 -0.11346506 0.42323902
-0.096035607 -0.11386046 0.42591789
-0.088604927 -0.1116182 0.42653427
-0.11247876 -0.10214168 0.42407355
-0.10642044 -0.10710231 0.42542914
-0.093895249 -0.1082919 0.42897725
-0.0858365 -0.10484417 0.42615345
-0.078727998 -0.10231557 0.42042384
-0.11712806 -0.095412172 0.42490336
-0.083181635 -0.097270027 0.42629462
-0.079844669 -0.098879844 0.42270342
-0.052736495 -0.092782095 0.42544419
-0.12289969 -0.084538683 0.42463508
-0.11949068 -0.089586653 0.42366004
-0.051466115 -0.084502794 0.4253566
-0.12595525 -0.074918807 0.42547005
-0.051896624 -0.074738204 0.42492697
-0.049715728 -0.078437455 0.42994863
-0.12433995 -0.064970516 0.42496464
-0.054152921 -0.064900681 0.4250384
-0.12108856 -0.05823756 0.42369771
-0.11524148 -0.05420756 0.4251757
-0.10644818 -0.051668014 0.42696327
-0.061317317 -0.051885411 0.42552868
-0.057750147 -0.056934323 0.42535457
-0.11181889 -0.048291717 0.4212518
-0.10577928 -0.046245635 0.42236838
-0.098731555 -0.047743499 0.42152584
-0.071903475 -0.04206736 0.42326674
-0.066500157 -0.046319246 0.42529324
-0.073222965 -0.038279314 0.4242731
-0.1125479 -0.10179009 0.43533802
-0.1051809 -0.10525037 0.43470535
-0.095974781 -0.10402846 0.43346286
-0.089040682 -0.10129335 0.43057442
-0.12075673 -0.090773463 0.43548211
-0.11711076 -0.095774755 0.43487868
-0.094701149 -0.099146485 0.43672439
-0.089467168 -0.098062247 0.43241012
-0.05204501 -0.092089713 0.43348411
-0.12389208 -0.084999725 0.43520814
-0.051066119 -0.087192982 0.4328568
-0.048997056 -0.08376161 0.43455473
-0.12525502 -0.07505399 0.43492451
-0.051509228 -0.072653651 0.43411827
-0.049027756 -0.077334121 0.4333086
-0.12299666 -0.06626793 0.43418944
-0.11758476 -0.061898202 0.43656769
-0.054507378 -0.06505125 0.43446025
-0.11384136 -0.058251709 0.43338704
-0.10776399 -0.055451937 0.43236634
-0.0613118 -0.051626343 0.43462142
-0.05792699 -0.056383826 0.43450746
-0.070561007 -0.040800955 0.43076828
-0.066555507 -0.045183308 0.43481469
-0.070802405 -0.039051935 0.43475959
-0.11226611 -0.10116102 0.44256407
-0.1067276 -0.10155567 0.44206658
-0.12073109 -0.090911865 0.44512424
-0.11562646 -0.095768549 0.44561431
-0.1059671 -0.097813711 0.44529864
-0.099084035 -0.098392606 0.44110009
-0.12343871 -0.085040376 0.44529417
-0.12352825 -0.075173602 0.44495776
-0.053521965 -0.073732197 0.44435006
-0.12102175 -0.06846153 0.44393265
-0.11710411 -0.064679421 0.44521618
-0.056746271 -0.064674333 0.44427961
-0.062146317 -0.05281166 0.44574833
-0.058854621 -0.057010148 0.44320574
-0.070542328 -0.040882342 0.44534582
-0.067150928 -0.045896813 0.44467694
-0.070878595 -0.039481509 0.4443168
-0.11584687 -0.091964282 0.45196766
-0.12129942 -0.084486917 0.45239615
-0.11826258 -0.085897364 0.45524567
-0.12130985 -0.076052912 0.45220375
-0.11884017 -0.074985683 0.45516995
-0.060221449 -0.070823886 0.45934457
-0.057623699 -0.07445389 0.45442307
-0.11815059 -0.068298906 0.4521932
-0.061268985 -0.063487753 0.45719957
-0.059035193 -0.066350318 0.45283625
-0.063432805 -0.055335619 0.45433846
-0.072135098 -0.043484807 0.45546466
-0.06798812 -0.047549766 0.45351732
-0.062526144 -0.081948534 0.46591955
-0.062296115 -0.074093662 0.46615848
-0.05989866 -0.076961361 0.46027213
-0.06277898 -0.064931951 0.4651491
-0.072024643 -0.052215375 0.4685131
-0.067094013 -0.055958051 0.46411937
-0.075005822 -0.046051301 0.46402726
-0.070040658 -0.090020299 0.47841793
-0.066566639 -0.084414259 0.47550702
-0.064727619 -0.074891888 0.47558668
-0.065403 -0.064934731 0.47573471
-0.072984353 -0.055219162 0.4755573
-0.068591826 -0.058520336 0.47186828
-0.083296694 -0.045326095 0.4746559
-0.07735277 -0.048789028 0.47303838
-0.074077591 -0.1015037 0.48916894
-0.071166351 -0.095612399 0.48554945
-0.068380989 -0.09327051 0.48798147
-0.067987941 -0.085202999 0.48586446
-0.065942593 -0.075335249 0.48536137
-0.070237145 -0.06026024 0.48451659
-0.066336766 -0.064987883 0.48512605
-0.081457734 -0.051907383 0.48654968
-0.074483983 -0.056469664 0.48507202
-0.091517136 -0.046121933 0.48549718
-0.086412564 -0.048533037 0.48672557
-0.08339256 -0.11118104 0.49934816
-0.079098061 -0.11083813 0.49945435
-0.081744753 -0.10811227 0.49691018
-0.07418628 -0.105463 0.49560982
-0.067877136 -0.10231201 0.49688986
-0.064979546 -0.094689935 0.49522811
-0.064119004 -0.085010193 0.49554333
-0.064124487 -0.075088345 0.49541441
-0.070739433 -0.060016513 0.49073407
-0.065369941 -0.064631663 0.49514669
-0.083859794 -0.051487546 0.49581063
-0.074308552 -0.055370003 0.49496442
-0.068413809 -0.058348902 0.49784765
-0.10159113 -0.045909986 0.49987367
-0.093683176 -0.047638282 0.49615669
-0.088777922 -0.049403459 0.49451837
-0.060472585 -0.084728494 0.50050873
-0.06100047 -0.074907348 0.50127983
-0.082184583 -0.050743744 0.50125206
