# .PCD v0.7 - Point Cloud Data file format
VERSION 0.7
FIELDS x y z
SIZE 4 4 4
TYPE F F F
COUNT 1 1 1
WIDTH 1370
HEIGHT 1
VIEWPOINT 0 0 0 1 0 0 0
POINTS 1370
DATA ascii
0.1860965 -0.046072688 0.4490687
0.19507234 -0.045081247 0.44737488
0.20518832 -0.044732649 0.4441351
0.21155344 -0.044415601 0.44112575
0.18903582 -0.039491251 0.44998959
0.19647776 -0.036145981 0.44964966
0.20510738 -0.034816857 0.44765261
0.21266526 -0.034977872 0.44337443
0.19794925 -0.025101092 0.44999024
0.20526062 -0.025093788 0.44855967
0.21427263 -0.025034556 0.44697538
0.19960971 -0.019507572 0.44999033
0.20619433 -0.017747117 0.44963554
0.214838 -0.014802762 0.44913706
0.21777391 -0.0067414008 0.44994318
0.028650776 -0.18570393 0.45978436
0.03549825 -0.18388146 0.45860445
0.04504035 -0.1835168 0.45709908
0.054925986 -0.18319653 0.45542443
0.064750187 -0.18291968 0.45346364
0.073001727 -0.1824079 0.45152602
0.037897479 -0.17835933 0.45990774
0.044941872 -0.17515159 0.45909414
0.054797806 -0.17498103 0.4570474
0.065276869 -0.17512454 0.45465133
0.073665924 -0.1749673 0.45188853
0.047393546 -0.16807123 0.45961004
0.055243477 -0.16531563 0.45849901
0.065190114 -0.1652869 0.4559851
0.075229578 -0.16518489 0.45299864
0.082792722 -0.16220677 0.45161474
0.058383197 -0.15699357 0.45943546
0.065322556 -0.1553389 0.45761701
0.074885421 -0.15518521 0.455899
0.084987521 -0.1547014 0.45349783
0.092616946 -0.15148197 0.45144704
0.067227669 -0.14610507 0.45970801
0.075206056 -0.14515004 0.45796075
0.085122712 -0.14503717 0.45636937
0.094741948 -0.14474486 0.45292559
0.10118494 -0.14098266 0.45123592
0.076585606 -0.13670126 0.45940471
0.084762171 -0.13480307 0.45789152
0.095018491 -0.13506052 0.4553237
0.10450874 -0.13459189 0.45261118
0.11215009 -0.13173132 0.45098633
0.086210348 -0.12592064 0.45929676
0.095115662 -0.12510501 0.45727232
0.10504373 -0.12508698 0.45484918
0.11410615 -0.12429704 0.45217124
0.088963509 -0.11920921 0.45998684
0.096160844 -0.11628896 0.45946524
0.10491222 -0.11502837 0.45713669
0.11510511 -0.11501262 0.45423403
0.12376992 -0.11333906 0.45168251
0.13151483 -0.11074208 0.45098701
0.099534318 -0.10887402 0.45998716
0.10588855 -0.10571196 0.45919374
0.11496416 -0.10483368 0.45651293
0.12526527 -0.10499788 0.45385304
0.13340689 -0.10366765 0.45162365
0.10777287 -0.096973382 0.45987001
0.1151126 -0.09529084 0.45834377
0.12487509 -0.094823375 0.45602465
0.13502012 -0.095231704 0.45330009
0.14205018 -0.094089642 0.4512907
0.1181908 -0.088956855 0.45987681
0.12593752 -0.085668996 0.4586713
0.13507311 -0.085082568 0.45546356
0.14353743 -0.083996907 0.4522163
0.15059166 -0.081406027 0.45098811
0.129115 -0.07564234 0.45991698
0.13508654 -0.074955016 0.45835885
0.14518097 -0.075297751 0.45497632
0.15227097 -0.073916458 0.45163706
0.1295628 -0.069218107 0.45998862
0.13575226 -0.065309882 0.45944643
0.14521852 -0.064913347 0.45694065
0.15478721 -0.064649604 0.45330516
0.16459563 -0.063046418 0.45174497
0.17222001 -0.061756104 0.45118874
0.13644966 -0.056990214 0.45980161
0.14476824 -0.055265598 0.45844117
0.1549786 -0.055035237 0.45611072
0.1650423 -0.05519807 0.45462999
0.17339692 -0.054582864 0.45202121
0.14647673 -0.046641991 0.45950016
0.15500386 -0.045136794 0.45842198
0.16492122 -0.04491942 0.45737195
0.17460306 -0.044816256 0.45385528
0.18188728 -0.043459192 0.45114949
0.15817933 -0.036842152 0.45998979
0.16513553 -0.034868944 0.4587121
0.17511979 -0.035123833 0.45566478
0.18484068 -0.034792386 0.45238495
0.19312096 -0.033014107 0.45105037
0.1669441 -0.027052063 0.45953861
0.17476879 -0.025242368 0.45805967
0.185179 -0.025108878 0.45571509
0.1932499 -0.024581175 0.4520106
0.17681552 -0.017135628 0.45953101
0.18505648 -0.014946414 0.45814541
0.19493341 -0.0150432 0.45446786
0.20407152 -0.013109564 0.45163876
0.2110457 -0.010517196 0.45099068
0.18728742 -0.0061205686 0.45963788
0.19518927 -0.0048397016 0.45740873
0.20503537 -0.0049724667 0.45353037
0.21404511 -0.0039760792 0.45171306
0.22007471 -0.00069865392 0.45099103
0.18907501 0.0035399743 0.45999125
0.19507515 0.0046172258 0.45851192
0.20477182 0.0045846249 0.45559925
0.21523032 0.0051280535 0.45387053
0.22097716 0.0059719225 0.45199129
0.19649686 0.012048893 0.45947644
0.20521314 0.01474912 0.45830423
0.21487838 0.015203211 0.45618656
0.22161356 0.015602093 0.45453006
0.20676346 0.023511803 0.45969796
0.21498156 0.025160583 0.45839992
0.22227642 0.024946172 0.45674202
0.21674253 0.033007558 0.4596495
0.22287095 0.034861263 0.45889241
0.22429661 0.041999873 0.45977527
-0.0056866514 -0.19051687 0.46865103
-0.011635057 -0.18942328 0.46998441
-0.0041145529 -0.18547709 0.4692679
0.0052496884 -0.18487829 0.46701187
0.014867016 -0.18451965 0.46498436
0.024395492 -0.18351118 0.46257785
0.032109402 -0.18072757 0.46118459
-0.0011005037 -0.17847474 0.46998483
0.0061482727 -0.17620246 0.46933165
0.015118876 -0.17484964 0.46790496
0.024796482 -0.17524508 0.46571726
0.034291275 -0.1744349 0.46236721
0.041245066 -0.17149623 0.46098495
0.017677102 -0.16637611 0.46976295
0.024886332 -0.1649116 0.4676607
0.03514282 -0.1648246 0.46447939
0.044492435 -0.16411772 0.4628562
0.051532805 -0.16155367 0.46148524
0.026525477 -0.15581466 0.46941426
0.034563068 -0.15502328 0.46763787
0.045092817 -0.15510339 0.46619627
0.054082859 -0.15439242 0.46273544
0.060506154 -0.15102217 0.46098566
0.028867071 -0.14890312 0.46998587
0.035691515 -0.14605317 0.46931282
0.044959962 -0.14500974 0.46781105
0.055127274 -0.14487456 0.46434835
0.062883377 -0.14400737 0.46150848
0.038313385 -0.1373689 0.46998632
0.045328308 -0.13521653 0.46900088
0.055050015 -0.13481382 0.46633837
0.065227807 -0.1350342 0.46337366
0.073302351 -0.13341457 0.46147022
0.047255959 -0.12797463 0.46978658
0.055098295 -0.1251588 0.46826446
0.065016329 -0.12499972 0.46524346
0.075044297 -0.12489418 0.46229318
0.081950523 -0.12298781 0.46108669
0.058136381 -0.11855692 0.46975616
0.065700635 -0.11532608 0.4684245
0.075072914 -0.11501665 0.46516198
0.08475659 -0.1147457 0.46271306
0.093146481 -0.11281206 0.46135077
0.067661881 -0.10561732 0.46984032
0.07493037 -0.10507967 0.46859032
0.085135914 -0.10502102 0.46592081
0.09504614 -0.1049296 0.4626672
0.10205695 -0.10238722 0.46098748
0.069776312 -0.098971181 0.46998769
0.077173322 -0.097064957 0.46968779
0.085020922 -0.095162481 0.46772105
0.095267251 -0.095162995 0.46459052
0.1040914 -0.0940051 0.46215171
0.11148664 -0.091347493 0.46098784
0.086080983 -0.085420713 0.46925232
0.094706617 -0.085101858 0.46662453
0.10495167 -0.085205816 0.46466991
0.11457442 -0.084846586 0.46287692
0.12235896 -0.082306333 0.46151197
0.087548025 -0.076593496 0.46986356
0.095153704 -0.075247869 0.46822792
0.10497939 -0.074964277 0.46681747
0.1150087 -0.075204253 0.46489522
0.12425762 -0.0747509 0.46170041
0.097787932 -0.067107044 0.4699333
0.1049116 -0.064922825 0.46797502
0.11531191 -0.065019235 0.4652226
0.12501971 -0.065011561 0.46194834
0.13144855 -0.063749015 0.46098885
0.10608609 -0.057185668 0.46940577
0.11495622 -0.055119384 0.46819216
0.12516847 -0.055308748 0.46470523
0.13375235 -0.053245794 0.46194565
0.11747408 -0.047063515 0.46948951
0.12480154 -0.045122609 0.4676418
0.13488463 -0.045104101 0.46462956
0.14310403 -0.043241773 0.4618004
0.15030764 -0.040465489 0.46098968
0.12705094 -0.036375079 0.46916491
0.13516915 -0.034965977 0.46716508
0.14522253 -0.035274852 0.46400383
0.15423349 -0.034501676 0.46148089
0.13597395 -0.02523935 0.46893856
0.145022 -0.025066376 0.46553242
0.15505651 -0.024887454 0.46281311
0.16348208 -0.023530364 0.46162084
0.13906223 -0.016817426 0.4699907
0.1453179 -0.015016412 0.46869659
0.15493421 -0.01470641 0.46612117
0.16522886 -0.014888638 0.46378556
0.17358078 -0.013493538 0.46162704
0.14768337 -0.0081062457 0.46976021
0.15571956 -0.0056557273 0.46874103
0.16510387 -0.0048927437 0.46586943
0.17525952 -0.004960442 0.46332443
0.18328023 -0.0039985469 0.4614782
0.15805475 0.0038327714 0.46990058
0.16485132 0.0046648276 0.46768054
0.17511863 0.0048510726 0.46580565
0.18419275 0.0047929818 0.46236446
0.19003218 0.0083095403 0.46099147
0.15936755 0.010306132 0.46999165
0.16568336 0.012214753 0.46952286
0.17533275 0.01426333 0.46811664
0.18505378 0.014878341 0.46439686
0.19398519 0.016657583 0.46197346
0.2008667 0.019148882 0.46099186
0.17777216 0.021787096 0.46946582
0.18496393 0.025158819 0.46797854
0.19498762 0.025451465 0.46478435
0.2030907 0.026398974 0.4616507
0.18660194 0.033716813 0.46958074
0.19499956 0.03545735 0.46792689
0.20507877 0.034945369 0.4640567
0.21353845 0.036402985 0.46139255
0.19635206 0.044897184 0.46881253
0.20511796 0.044920176 0.46538994
0.21479824 0.044586677 0.46249282
0.22342749 0.046519514 0.4614253
0.19779021 0.054050997 0.46968299
0.20500557 0.05471354 0.46783841
0.21500577 0.0546754 0.46574667
0.22457413 0.05496382 0.46423903
0.20692931 0.062992461 0.46978667
0.21513157 0.064743727 0.46849361
0.22500739 0.064608 0.46599343
0.20968562 0.072925478 0.46999392
0.21541917 0.074253552 0.46946925
0.22477272 0.074683517 0.46789399
0.23083271 0.076369911 0.46724394
0.21814063 0.081247836 0.46999428
0.2253657 0.084034897 0.46946788
0.23114638 0.085753895 0.46860304
0.22844611 0.092834495 0.4699946
0.23121186 0.094033241 0.46899468
-0.043300323 -0.19272673 0.47969028
-0.034876086 -0.1915846 0.47809544
-0.025894076 -0.1909644 0.4743177
-0.016792813 -0.1903048 0.47115108
-0.032815572 -0.18602929 0.47955948
-0.024705449 -0.18486783 0.47680658
-0.015064802 -0.1848658 0.47250572
-0.0078069777 -0.18199296 0.4709847
-0.030275229 -0.1782033 0.47998491
-0.024598807 -0.17478399 0.47921211
-0.014360814 -0.17506132 0.47590494
-0.0048357672 -0.17457332 0.4733229
0.0035618071 -0.17216556 0.47148505
-0.022957895 -0.16704674 0.47967491
-0.014322502 -0.16499656 0.47891098
-0.0044172797 -0.16505279 0.47705784
0.0054822229 -0.16515255 0.47357112
0.013542018 -0.16400176 0.47149751
-0.011253051 -0.1556688 0.47998568
-0.0045679999 -0.1551013 0.47836068
0.0052633998 -0.15507607 0.47571033
0.01535704 -0.15505455 0.47295696
0.022519387 -0.15356219 0.47142565
-0.0029570728 -0.14693876 0.47954488
0.0055601601 -0.14518815 0.47782186
0.015337178 -0.14491053 0.47569439
0.025011022 -0.14497547 0.47275084
0.032294061 -0.14239921 0.47126389
-0.00019436583 -0.13933097 0.47998631
0.006096778 -0.13653867 0.47981966
0.015402324 -0.13495885 0.47784573
0.025069816 -0.13495201 0.47460404
0.03439964 -0.13442132 0.47185084
0.040816594 -0.13158403 0.47098649
0.0094153769 -0.12950791 0.47998667
0.016150603 -0.12591812 0.47942063
0.025492257 -0.12510063 0.47708964
0.035044875 -0.12494658 0.47485837
0.044117037 -0.12446985 0.4721798
0.051493865 -0.12075718 0.47115353
0.017978197 -0.11620819 0.4799538
0.025437152 -0.11522453 0.4788309
0.035417449 -0.11493964 0.47695705
0.044944298 -0.11496996 0.47464424
0.054411791 -0.11454469 0.47225833
0.061325762 -0.11207163 0.47106412
0.026832541 -0.107762 0.4798089
0.035546724 -0.10530824 0.47861654
0.045388468 -0.10498711 0.47703299
0.054736167 -0.10504402 0.47392869
0.062859818 -0.1040776 0.47128749
0.038653884 -0.098555304 0.47988781
0.04570521 -0.095419087 0.47873792
0.055218164 -0.094888188 0.47559083
0.064669766 -0.094931073 0.47288933
0.073788732 -0.093572825 0.47156927
0.047676522 -0.086990029 0.4796178
0.055452522 -0.085167505 0.47827399
0.065214396 -0.084956758 0.47607788
0.074963666 -0.085123904 0.47273484
0.081784017 -0.083537638 0.47098824
0.057784554 -0.075796507 0.4796063
0.065212384 -0.0749209 0.47709796
0.075251803 -0.074892111 0.4734228
0.083855577 -0.074266233 0.47118849
0.090832129 -0.070881896 0.47098869
0.058857068 -0.067116231 0.47978896
0.065443911 -0.065181091 0.47829074
0.074998386 -0.064820252 0.4755275
0.085021734 -0.064992577 0.47291476
0.09400434 -0.064463161 0.47148904
0.068338215 -0.057427209 0.47960043
0.075275734 -0.055047564 0.47772372
0.084873952 -0.054808982 0.47508162
0.09508463 -0.054853525 0.47279441
0.10370573 -0.052952275 0.47143379
0.1105113 -0.051193964 0.47098941
0.077537045 -0.04856376 0.4795281
0.085556857 -0.045603592 0.47839656
0.094862096 -0.04490982 0.47540495
0.10506928 -0.044743087 0.4733732
0.11376453 -0.043972638 0.47163558
0.12035061 -0.040119763 0.47098979
0.088760607 -0.038870864 0.47978997
0.095025882 -0.035242263 0.47803485
0.10513054 -0.034925975 0.47482106
0.11519301 -0.034655504 0.47291312
0.12326781 -0.033444315 0.47138476
0.097259171 -0.028488234 0.47961542
0.10519742 -0.025217172 0.47781855
0.11519117 -0.024957629 0.47511545
0.12500386 -0.024809852 0.47233427
0.13120179 -0.023400797 0.47099045
0.10641079 -0.015428841 0.4787555
0.11502586 -0.015086845 0.47700644
0.12497636 -0.0150069 0.47458813
0.1343523 -0.0146778 0.47171962
0.14043777 -0.011000025 0.4709909
0.10784815 -0.0090443464 0.47999105
0.1161362 -0.0067298687 0.4795149
0.12491743 -0.0049857381 0.47769266
0.13489451 -0.005086896 0.47460228
0.1444498 -0.0044430983 0.47193941
0.15216228 -0.0018642318 0.47117299
0.11887885 0.00048645854 0.47999141
0.1256246 0.0039443425 0.47934335
0.13507943 0.0049365028 0.47803566
0.14499848 0.0048955963 0.4749915
0.15352847 0.0052229059 0.47205144
0.12818976 0.011772104 0.47999176
0.13532536 0.014380765 0.47979191
0.14512828 0.014862213 0.47796372
0.15496427 0.014781354 0.4739224
0.16414638 0.016866358 0.47153234
0.17169933 0.018634796 0.47099191
0.13660543 0.021714266 0.47999212
0.14580287 0.024233799 0.47967017
0.15519102 0.02473807 0.47604778
0.16510049 0.024449339 0.47319812
0.17417052 0.025459878 0.47170928
0.18061619 0.028786121 0.4709923
0.14836293 0.032400366 0.47990167
0.1553058 0.034371763 0.4779478
0.16517244 0.034787647 0.4755145
0.17537971 0.034631245 0.47316825
0.18332945 0.036637142 0.47129816
0.15856238 0.041691188 0.47954845
0.16519429 0.044803664 0.47739559
0.17540835 0.044687647 0.47365957
0.18512681 0.045535203 0.47174659
0.19134256 0.046148319 0.47099298
0.16596423 0.054543119 0.4783752
0.17462343 0.054606423 0.47513619
0.18507922 0.055243533 0.47303745
0.19337495 0.056129467 0.47145995
0.16786855 0.062304951 0.47946429
0.17512852 0.064720526 0.47815785
0.18478094 0.065003134 0.47546336
0.1948908 0.065336868 0.47282711
0.20368537 0.066360898 0.4713271
0.21013246 0.069390044 0.47099379
0.17737904 0.071765304 0.47979397
0.18554217 0.074362502 0.47813472
0.19528633 0.075087592 0.47464103
0.20481764 0.075184107 0.47190323
0.21123791 0.077386737 0.47099409
0.18811312 0.082390241 0.47955683
0.19559154 0.08441142 0.4783777
0.2050522 0.085019201 0.47461772
0.21458583 0.08546748 0.47185603
0.22179902 0.087866992 0.47110558
0.19899306 0.091039017 0.47974467
0.20521055 0.094648354 0.4781464
0.21508461 0.095101275 0.47502461
0.22381338 0.095060632 0.47260875
0.20684619 0.10470793 0.47964734
0.21420795 0.1025734 0.47727638
0.2219898 0.10106947 0.47532833
0.2056987 0.11199194 0.4795838
-0.073873252 -0.19374667 0.48865116
-0.065050349 -0.19245096 0.48504895
-0.054853573 -0.19217153 0.48234552
-0.046332978 -0.19143464 0.48098451
-0.070808128 -0.18837371 0.48978466
-0.064585716 -0.18532176 0.48816809
-0.055261739 -0.18506159 0.48508915
-0.045081496 -0.18511476 0.48252875
-0.036930639 -0.18348856 0.48108819
-0.061370034 -0.17632523 0.48965174
-0.054848734 -0.17509232 0.48773509
-0.044989586 -0.17522028 0.48469099
-0.035017382 -0.17492962 0.4819057
-0.060346361 -0.16976319 0.48998532
-0.054401789 -0.16560976 0.48944566
-0.045186289 -0.16519472 0.48683399
-0.034940373 -0.16490853 0.48307237
-0.025739528 -0.16325931 0.48145917
-0.018030215 -0.16085732 0.48098555
-0.050109845 -0.15952213 0.4899857
-0.043962184 -0.15563014 0.4889414
-0.035093911 -0.15496974 0.48578003
-0.024958456 -0.15508245 0.48346418
-0.015869388 -0.15434736 0.48134744
-0.041851822 -0.14683813 0.48998615
-0.035151433 -0.14507359 0.48901528
-0.02500521 -0.14502858 0.48676085
-0.014859073 -0.1450908 0.48331451
-0.0062091216 -0.14356428 0.4812834
-0.032836441 -0.13904068 0.48998642
-0.023730276 -0.13581017 0.48891982
-0.014733211 -0.13489756 0.48459852
-0.0046727341 -0.1347125 0.48165324
0.003686673 -0.13208225 0.48098662
-0.021099858 -0.12811512 0.48982015
-0.014362078 -0.12549007 0.48743686
-0.0047707283 -0.12505846 0.48397201
0.0053898571 -0.12464391 0.48165363
0.012185259 -0.12256807 0.48098701
-0.011968419 -0.11696543 0.48948726
-0.0045241038 -0.1150476 0.4869439
0.005366825 -0.11502095 0.48395684
0.013827996 -0.11384553 0.4816027
-0.0033604791 -0.10589822 0.48940632
0.0055592908 -0.10505467 0.48710355
0.015569786 -0.10493107 0.48326901
0.024723945 -0.10330623 0.48157862
0.032670673 -0.10045788 0.48098776
-0.00052929646 -0.098398276 0.48998791
0.0059862542 -0.095358603 0.48895174
0.014958376 -0.094760008 0.48645765
0.02438193 -0.094780877 0.48457253
0.03458837 -0.094349213 0.48215714
0.041567922 -0.092184961 0.48098803
0.0074675526 -0.088477664 0.48998833
0.014726878 -0.084977426 0.4895674
0.024787666 -0.08530993 0.48780808
0.034663238 -0.085009471 0.4843576
0.043308366 -0.084097952 0.48164141
0.05067395 -0.081189945 0.48098844
0.017296927 -0.07772623 0.48980123
0.025113389 -0.076303601 0.48900759
0.03471975 -0.075115561 0.48641053
0.044725392 -0.074823968 0.48341301
0.052503239 -0.074701905 0.48160785
0.035516683 -0.065722026 0.48895264
0.044824734 -0.064864941 0.48578596
0.053998131 -0.064518549 0.4825069
0.060510907 -0.061505061 0.48098919
0.038017366 -0.058874343 0.48998931
0.045233306 -0.055166863 0.48868307
0.054953404 -0.05480637 0.48436263
0.063731574 -0.054730501 0.48180428
0.070140675 -0.051661573 0.48098955
0.047504373 -0.046555419 0.489759
0.055173393 -0.044728529 0.4875837
0.064846031 -0.045182087 0.48400494
0.074086852 -0.044781167 0.48185769
0.081803419 -0.042129934 0.4810808
0.048571028 -0.035994679 0.4899902
0.055403862 -0.034752283 0.48853865
0.065085627 -0.034939971 0.4854517
0.074909188 -0.035504561 0.48342761
0.08443749 -0.035147835 0.4817234
0.090551831 -0.031869635 0.48099023
0.058123909 -0.028051579 0.48989052
0.066130027 -0.02593635 0.48837829
0.07514599 -0.025443478 0.48555973
0.08491677 -0.025372095 0.48291227
0.094179526 -0.024453217 0.48163751
0.10078879 -0.021879435 0.48099059
0.068245143 -0.019992176 0.48999077
0.075714074 -0.016370758 0.48874554
0.085083894 -0.015355403 0.48662734
0.095065743 -0.015200344 0.48411211
0.10147104 -0.014538773 0.48122892
0.077841729 -0.0097512463 0.48999113
0.086678587 -0.0058698929 0.4897134
0.095029391 -0.0052270535 0.48631075
0.10470825 -0.004850354 0.48246586
0.1131089 -0.0030511874 0.48132464
0.087193869 0.0039015221 0.48982498
0.094791315 0.0048849788 0.4878839
0.10510198 0.0049954462 0.48555508
0.11506192 0.0049742004 0.48270586
0.12205628 0.007607461 0.48099175
0.096876815 0.013326136 0.48964721
0.10502517 0.015028697 0.48768893
0.11500157 0.015146063 0.4842205
0.12450752 0.015347273 0.48171124
0.13137192 0.017607924 0.48099205
0.10672612 0.025093747 0.48924229
0.11519499 0.025183532 0.48596433
0.12520137 0.025161488 0.4829922
0.13431267 0.025908085 0.48123252
0.14231426 0.028132226 0.48099238
0.10790692 0.033081364 0.48981622
0.11533879 0.034720238 0.48799267
0.12505691 0.035148989 0.48483348
0.1351494 0.035243347 0.4830389
0.14427553 0.035601478 0.48155639
0.15178278 0.038723502 0.48099279
0.11834352 0.040930483 0.48949301
0.12535864 0.043891497 0.48859784
0.13489661 0.045140062 0.4868575
0.14519069 0.044988994 0.4843007
0.15455322 0.045724194 0.48207638
0.16057478 0.049494106 0.48099321
0.12902232 0.050413076 0.4899933
0.13547246 0.054646209 0.48911127
0.14493544 0.05474741 0.48601019
0.15515587 0.055287424 0.48330787
0.16153863 0.056173746 0.48122877
0.13671035 0.063597545 0.48966053
0.14500527 0.06489443 0.48733672
0.15524289 0.064917676 0.48416033
0.16445608 0.066057451 0.48193377
0.17103992 0.069179125 0.48099396
0.14706244 0.074005589 0.48904821
0.15482594 0.074809767 0.48569423
0.16499624 0.074976109 0.48299405
0.17436559 0.076311737 0.48164222
0.18206568 0.078673944 0.48099428
0.14906636 0.081560545 0.48999444
0.15574245 0.083901428 0.48858145
0.16495545 0.084842391 0.48602518
0.17509818 0.085113481 0.48347077
0.18441071 0.086014315 0.48144561
0.19247711 0.088824712 0.48099464
0.15972987 0.090095244 0.48999476
0.16638336 0.091912888 0.4896419
0.17533518 0.094722524 0.48660424
0.18455015 0.095015965 0.48326895
0.1950134 0.095581725 0.48196298
0.20118563 0.098291107 0.48099497
0.16932485 0.10753533 0.48999542
0.17505991 0.10487662 0.48821935
0.18474856 0.10494794 0.48495308
0.1949026 0.10484651 0.48231882
0.20202155 0.10565638 0.48099527
0.16923247 0.11185481 0.48999557
0.17561226 0.11426021 0.48952404
0.18468203 0.11447123 0.4877229
0.19516309 0.11271522 0.48269325
0.20176859 0.11319983 0.48099557
0.17745793 0.12154692 0.48999596
0.18020062 0.12081619 0.4899959
-0.1138867 -0.19528466 0.49900961
-0.1048667 -0.19446395 0.49714515
-0.09504196 -0.19454286 0.49561775
-0.085084915 -0.1939196 0.49302453
-0.077915423 -0.19220963 0.49127021
-0.11163779 -0.18847458 0.49998474
-0.10478554 -0.1870148 0.4995302
-0.095309183 -0.18542406 0.49918488
-0.085141562 -0.18519549 0.49578789
-0.075187258 -0.18481123 0.49238476
-0.068660408 -0.18185979 0.49110991
-0.093718484 -0.17545013 0.49951458
-0.08510223 -0.1752899 0.49698511
-0.075014897 -0.17501371 0.49470186
-0.066337325 -0.1744473 0.49198529
-0.09303388 -0.16497536 0.49969399
-0.085282534 -0.16515741 0.4972983
-0.075236924 -0.16497971 0.49561518
-0.065014757 -0.16482979 0.49245331
-0.057137031 -0.16202936 0.49098563
-0.091162212 -0.1572632 0.49967816
-0.084642507 -0.15498456 0.49774957
-0.074607715 -0.15467034 0.49591249
-0.064813554 -0.1551121 0.49403867
-0.055021785 -0.15518579 0.49224678
-0.04785379 -0.1530638 0.49106291
-0.082670458 -0.14923917 0.49981952
-0.074002899 -0.14623792 0.49908397
-0.065162383 -0.14496371 0.49654379
-0.054935124 -0.14489408 0.49407712
-0.0460575 -0.14467213 0.49200743
-0.039956819 -0.14060843 0.49098641
-0.070728391 -0.13927397 0.49998656
-0.063563071 -0.13560402 0.49916852
-0.05485782 -0.13519481 0.49652117
-0.044875562 -0.13490327 0.4938021
-0.035236754 -0.13493107 0.49204215
-0.027799111 -0.1330207 0.49139577
-0.061557166 -0.12692747 0.49972039
-0.054749556 -0.12528408 0.49824625
-0.044798918 -0.12490933 0.49640498
-0.035207875 -0.1250589 0.49443701
-0.025612852 -0.12457062 0.49213952
-0.018448636 -0.12153637 0.4910982
-0.051796213 -0.11968021 0.49998724
-0.043655515 -0.11599612 0.49946243
-0.03524315 -0.11499289 0.4966965
-0.025375782 -0.11502492 0.49404991
-0.016203558 -0.11405547 0.49194473
-0.041024514 -0.10825059 0.49998766
-0.034183912 -0.10543747 0.49816024
-0.024789114 -0.10494067 0.49518415
-0.015059841 -0.1049162 0.49282649
-0.0074158977 -0.10348064 0.4910354
-0.03221013 -0.097246565 0.49946427
-0.024847042 -0.095153429 0.49769735
-0.014926664 -0.094840005 0.49470875
-0.0049911533 -0.095031418 0.49200472
0.0018726611 -0.092025876 0.49098817
-0.022729348 -0.087529346 0.49961346
-0.015174572 -0.084681258 0.49776971
-0.0048851497 -0.08512973 0.49436158
0.0046128137 -0.084463865 0.49166852
0.01030258 -0.08186049 0.49098855
-0.013674487 -0.075330414 0.49958411
-0.0047720792 -0.075051412 0.49752009
0.0049483441 -0.075132541 0.49486375
0.013823594 -0.073896229 0.4923088
0.02362534 -0.071251385 0.49130461
-0.011649091 -0.068412006 0.49998915
-0.0042229155 -0.067638896 0.49966663
0.00530566 -0.065867864 0.49870342
0.014673574 -0.06494119 0.49600485
0.024757039 -0.064683177 0.49292469
0.031273738 -0.062932394 0.49098927
0.0085912412 -0.058612734 0.49998945
0.014872361 -0.054919019 0.49794129
0.024941508 -0.055016544 0.49413952
0.034655441 -0.054851126 0.49163246
0.040818393 -0.051459365 0.49098963
0.015788527 -0.045047093 0.49894834
0.025146829 -0.045337036 0.49574795
0.035180919 -0.045226522 0.49295872
0.043727875 -0.043941792 0.49109504
0.018569743 -0.03867849 0.49979019
0.025743036 -0.035898514 0.49817547
0.035267845 -0.035015207 0.49424034
0.044205692 -0.034378681 0.49128178
0.051714599 -0.030296318 0.49099043
0.028482258 -0.027623804 0.49968287
0.035288099 -0.02511497 0.49778733
0.045036022 -0.024674991 0.49432912
0.05443253 -0.023898223 0.49241364
0.062389199 -0.021804767 0.49135911
0.036658846 -0.016325995 0.49964488
0.044612188 -0.015108308 0.49770522
0.054696027 -0.015019638 0.49483034
0.064732984 -0.014947789 0.49252674
0.071854942 -0.013022854 0.49105778
0.038944181 -0.0099586342 0.49999124
0.045338571 -0.0058110249 0.49882782
0.054815829 -0.0053382893 0.49592888
0.064958878 -0.0053169276 0.49425703
0.074942134 -0.0052224784 0.49232468
0.082694657 -0.0045041339 0.49113423
0.047964804 0.0028571566 0.49961665
0.055116326 0.0049763555 0.49802351
0.065122463 0.0050222497 0.49552295
0.075160258 0.0050041159 0.49344495
0.083044454 0.0059284368 0.49140346
0.057455976 0.013782865 0.49951074
0.065403171 0.01486882 0.49707988
0.075447828 0.015374363 0.49533564
0.085487433 0.0153225 0.49355456
0.093888775 0.016817834 0.49153507
0.066577516 0.022091389 0.49927247
0.074813031 0.025265601 0.49804902
0.084632993 0.025021039 0.49551889
0.09510567 0.025019517 0.49287954
0.10222428 0.026008233 0.49099255
0.076921895 0.033820845 0.4996804
0.084883548 0.034943458 0.49760213
0.094972208 0.034651443 0.49506846
0.10371467 0.035793886 0.49219748
0.11107723 0.038456831 0.49099293
0.086371176 0.044027716 0.49917266
0.095267661 0.045229141 0.49715209
0.10516611 0.0451275 0.49519631
0.11455125 0.045277897 0.49268278
0.12332343 0.048129991 0.49128741
0.089024566 0.051583763 0.49986851
0.095591553 0.053505626 0.49922881
0.10515767 0.055180665 0.49743626
0.11553556 0.055185962 0.49461654
0.12497803 0.055189077 0.49200946
0.13056639 0.057569847 0.49099362
0.1065198 0.063649327 0.49905276
0.11483252 0.06494654 0.49662477
0.12511234 0.065009721 0.49306297
0.13303672 0.066822968 0.49112719
0.11651208 0.074074656 0.49920478
0.12500469 0.074808665 0.49597895
0.1349158 0.075178027 0.49317759
0.14265372 0.076154716 0.4915328
0.11925379 0.08356183 0.49984074
0.12502666 0.084859759 0.49738061
0.13490283 0.085107803 0.49491528
0.14458312 0.084909998 0.49247161
0.15251864 0.087934434 0.49120906
0.12590578 0.093220994 0.49886999
0.13521412 0.095262177 0.49773648
0.14514653 0.094999559 0.49518812
0.15501352 0.094998404 0.49293044
0.16448201 0.096352533 0.49223399
0.17082663 0.098232828 0.49099508
0.13790762 0.1027317 0.49976456
0.14509676 0.1047244 0.49738008
0.15488672 0.10509542 0.49452773
0.16482638 0.1051384 0.49245447
0.17082588 0.10156725 0.49099523
0.14671274 0.11458676 0.49904978
0.15505257 0.11479594 0.49598035
0.16449209 0.11537158 0.4927325
0.17223284 0.11849605 0.49099582
0.14858621 0.1219445 0.49989611
0.15582639 0.1242741 0.49899614
0.16487926 0.12423247 0.49610922
0.17314662 0.12243158 0.49134889
0.16036786 0.13111302 0.49999636
0.20702545 0.1771425 0.49870178
0.21177793 0.17710641 0.49929801
0.19953556 0.18205452 0.49999821
0.20250531 0.18083102 0.4988732
0.21217223 0.18038993 0.49899817
-0.16471101 -0.20135739 0.50998449
-0.15441443 -0.2013669 0.50851077
-0.14456169 -0.2015212 0.50705576
-0.13492875 -0.20098014 0.50569862
-0.12624393 -0.20053911 0.5034129
-0.16236319 -0.19746575 0.50998461
-0.15427589 -0.19546469 0.50960982
-0.14515723 -0.19511572 0.50866795
-0.13524474 -0.1948256 0.5068776
-0.12532492 -0.19497709 0.50432938
-0.11812053 -0.19300044 0.50163168
-0.1507269 -0.18869944 0.50998491
-0.14377798 -0.18562576 0.5098055
-0.1351973 -0.1848674 0.50855625
-0.12541008 -0.18493639 0.50585526
-0.11528903 -0.18468007 0.50219542
-0.10547872 -0.18186022 0.50137645
-0.099213421 -0.18056096 0.50098509
-0.13339373 -0.17829917 0.50991392
-0.12474245 -0.17541324 0.5086149
-0.1150216 -0.17505667 0.50525504
-0.10513875 -0.17492568 0.50345981
-0.098262846 -0.17478758 0.50131857
-0.12351611 -0.16532125 0.50967324
-0.11554553 -0.16466105 0.50744039
-0.10499727 -0.1651077 0.5046308
-0.097211696 -0.16513324 0.50159431
-0.12098365 -0.15849879 0.50998604
-0.11380316 -0.15541011 0.50882298
-0.10477444 -0.15488087 0.50651145
-0.095670849 -0.15429145 0.5030902
-0.088250794 -0.15042695 0.5012362
-0.11077315 -0.14872789 0.5099864
-0.10400996 -0.14598571 0.50947303
-0.095227711 -0.14505425 0.50664753
-0.084917158 -0.14469704 0.50319326
-0.076882608 -0.14247143 0.50156546
-0.10183045 -0.13669527 0.50983298
-0.094598666 -0.1352012 0.50771564
-0.08468511 -0.13481644 0.50530821
-0.075179771 -0.1350567 0.50304133
-0.067871623 -0.13321963 0.50153685
-0.093308464 -0.12542342 0.50914097
-0.084985934 -0.12469615 0.5070942
-0.075332612 -0.12494746 0.50498718
-0.06598454 -0.12421506 0.50237495
-0.058501057 -0.12069493 0.50148726
-0.091686614 -0.11852964 0.50998753
-0.084391721 -0.11639745 0.50944465
-0.074843369 -0.11518573 0.5076431
-0.06493894 -0.11509679 0.50568402
-0.054950081 -0.11471194 0.50334144
-0.047499243 -0.11381429 0.50140858
-0.073358476 -0.10562319 0.50959313
-0.065237023 -0.10500831 0.50798798
-0.055215333 -0.10477571 0.50614923
-0.045146391 -0.10495821 0.50275713
-0.03867431 -0.10181037 0.50123793
-0.072096646 -0.094972424 0.50998831
-0.065512054 -0.094833903 0.50893152
-0.054995958 -0.094971702 0.5065574
-0.045008589 -0.095023796 0.50430959
-0.036243994 -0.093806364 0.50215101
-0.029006168 -0.091125645 0.50098836
-0.070823856 -0.088775016 0.50998861
-0.063456804 -0.08827091 0.50965524
-0.054322213 -0.085963048 0.50850952
-0.04523807 -0.084910855 0.50686359
-0.035139203 -0.084983394 0.50483471
-0.026055422 -0.084396474 0.5020386
-0.05084461 -0.079445951 0.5099889
-0.044026136 -0.075587049 0.5092271
-0.03480852 -0.0752967 0.50667417
-0.025209783 -0.075121865 0.50338173
-0.018257944 -0.073330954 0.50135267
-0.041319385 -0.065316819 0.50993949
-0.034710791 -0.065160416 0.5077036
-0.025279868 -0.064779334 0.50475729
-0.015721176 -0.064626344 0.50206345
-0.0050688633 -0.062899873 0.50135595
0.0027670697 -0.06158204 0.50098938
-0.040192507 -0.058796205 0.50998962
-0.034138594 -0.055443943 0.5092786
-0.02499819 -0.054721646 0.50714236
-0.014736494 -0.05544455 0.50406104
-0.004824535 -0.055344395 0.50294274
0.0047395593 -0.054972734 0.50208575
0.010242363 -0.051205203 0.50098979
-0.030870112 -0.048803471 0.50999004
-0.023857124 -0.045671146 0.50935751
-0.014803641 -0.045206062 0.50706154
-0.0048445263 -0.04497157 0.50442755
0.0050213551 -0.044827562 0.50282943
0.011204433 -0.043151565 0.50119007
-0.021852285 -0.0378314 0.50991338
-0.014327642 -0.035787933 0.5087114
-0.004869774 -0.034578934 0.50672477
0.0050366786 -0.035093818 0.50458217
0.014585644 -0.034679886 0.50262499
0.022023607 -0.032240741 0.50119042
-0.0029000416 -0.025581526 0.50942832
0.0050534969 -0.025315436 0.5066337
0.014899251 -0.025176631 0.50391263
0.024498368 -0.024398219 0.50201035
0.031172808 -0.020448884 0.50099093
-0.00077168492 -0.018425152 0.50999105
0.0056504696 -0.01550535 0.50864333
0.014967387 -0.014712427 0.50630367
0.025432181 -0.014646677 0.50406921
0.033166002 -0.013754512 0.50149113
0.0086395033 -0.0083879931 0.50999147
0.015733434 -0.0053025694 0.5088852
0.024862396 -0.004792023 0.50590992
0.034595329 -0.0051867934 0.50253242
0.041082997 -0.0027089582 0.50132489
0.01814642 0.0027418667 0.5097419
0.025138281 0.0048848814 0.50846356
0.034773465 0.0051256078 0.50594503
0.043988775 0.0058301766 0.50270015
0.050794814 0.0096528437 0.500992
0.028017785 0.012631279 0.50988108
0.035022452 0.015033629 0.50837409
0.045242671 0.015004851 0.50484931
0.053368531 0.015910916 0.50188875
0.038026799 0.023909204 0.50970089
0.045174718 0.024851497 0.50754261
0.054866623 0.024995411 0.50479585
0.06367477 0.026343901 0.50226754
0.070419155 0.029285926 0.50099272
0.039712612 0.031803593 0.50999296
0.045241531 0.03488249 0.50966692
0.054746892 0.034961656 0.50740367
0.065020531 0.035131194 0.50359935
0.072938211 0.036477711 0.50146168
0.047702916 0.041796036 0.50999337
0.05522107 0.044811182 0.50914329
0.064993061 0.045170024 0.50595957
0.075205959 0.04510539 0.5035674
0.082483307 0.047079489 0.50194073
0.057733439 0.052447256 0.50991666
0.065313123 0.054642189 0.50886875
0.074698642 0.054897357 0.50675309
0.08424338 0.055298865 0.50326043
0.093727462 0.058095146 0.50163019
0.067274496 0.064387679 0.50992018
0.074823603 0.064961806 0.50877541
0.085166536 0.06540928 0.50706559
0.095251098 0.065063901 0.50436896
0.10328345 0.066619501 0.50177181
0.068476729 0.072172262 0.50999439
0.075491741 0.074447036 0.5097605
0.085376978 0.074862383 0.50833374
0.095631234 0.075239442 0.50638503
0.10529826 0.075098388 0.50362599
0.11249261 0.076963305 0.50164443
0.079664432 0.080433704 0.50999469
0.086409055 0.083679229 0.50936055
0.094784431 0.085506096 0.50754207
0.10468911 0.08500202 0.50542331
0.1144077 0.085054837 0.50269848
0.088986672 0.091092482 0.5099951
0.095892884 0.094413251 0.50934398
0.10516182 0.094955377 0.50692958
0.11476456 0.094867177 0.5040279
0.12311764 0.096974246 0.5015406
0.13125241 0.099962845 0.50099528
0.098412178 0.1020967 0.5099045
0.10535566 0.10495549 0.50844204
0.11511733 0.10478135 0.50601435
0.12483113 0.10483696 0.50395966
0.13424261 0.10631335 0.50256997
0.10723159 0.11214355 0.50999588
0.11499228 0.11467773 0.50910908
0.12469973 0.11517312 0.50681865
0.13477236 0.11513723 0.50440663
0.14198872 0.11579098 0.50172001
0.11756472 0.12425637 0.50976294
0.12499925 0.12513015 0.507532
0.1349903 0.1248439 0.50461906
0.14418606 0.12541969 0.50232971
0.15241878 0.1277727 0.50141293
0.11961579 0.13106196 0.50999653
0.12567449 0.13234502 0.50937158
0.13516648 0.13435206 0.50762695
0.14479199 0.13500637 0.50532985
0.1531866 0.1332995 0.50349647
0.13883787 0.1418532 0.50966352
0.14365906 0.14259999 0.50789702
0.19903161 0.1790227 0.50728387
0.20470566 0.17548716 0.50499803
0.19560263 0.18242849 0.50638717
0.20033407 0.18016049 0.50199819
0.21715677 0.18118 0.50299811
-0.19350336 -0.20347252 0.51903713
-0.18537977 -0.20228249 0.51586908
-0.17500389 -0.20159177 0.51208973
-0.16970567 -0.20108584 0.51098448
-0.19080633 -0.19874537 0.51998466
-0.18372175 -0.19666232 0.518255
-0.17483374 -0.19497603 0.51536405
-0.16573663 -0.19396128 0.51200962
-0.15639554 -0.19089155 0.511096
-0.18899952 -0.1801828 0.51998538
-0.17306946 -0.18618913 0.51912296
-0.16488265 -0.18509483 0.51600283
-0.15543367 -0.1849799 0.51264548
-0.14807038 -0.18260336 0.51138514
-0.18444499 -0.17613368 0.51622552
-0.17478369 -0.17469837 0.51731896
-0.16542296 -0.17490433 0.5184499
-0.15526773 -0.17513667 0.51603818
-0.14488897 -0.17495774 0.51295096
-0.13562576 -0.17406067 0.51162839
-0.12922627 -0.17193584 0.51098543
-0.16538124 -0.16478539 0.51898593
-0.15517446 -0.16488114 0.51683193
-0.14511487 -0.16495632 0.51448596
-0.13535419 -0.16495916 0.5125494
-0.12847926 -0.16386594 0.51130396
-0.16508099 -0.15490597 0.51950186
-0.15465724 -0.15465169 0.51866478
-0.1449627 -0.15509056 0.51761109
-0.13509832 -0.15467131 0.51672053
-0.12516771 -0.15461472 0.51321691
-0.11773299 -0.15177885 0.51128626
-0.1683739 -0.14688301 0.51965332
-0.15455508 -0.14788088 0.51992774
-0.14490089 -0.14671163 0.51956737
-0.1341055 -0.14541402 0.51955485
-0.12482642 -0.14507216 0.51723659
-0.11526664 -0.14509271 0.51322186
-0.10824072 -0.14362143 0.51133949
-0.1315711 -0.13730037 0.51989597
-0.12447736 -0.13524292 0.51806539
-0.11461674 -0.13478376 0.5152548
-0.10586283 -0.1343689 0.5124287
-0.098982319 -0.13033096 0.51098704
-0.12324923 -0.12575948 0.51932067
-0.11512925 -0.12488887 0.5169481
-0.10487072 -0.1249712 0.51364112
-0.098181084 -0.12410737 0.51127297
-0.12183186 -0.11706122 0.51987654
-0.11507615 -0.11516299 0.51821411
-0.10507114 -0.11479399 0.51484734
-0.095581442 -0.11479244 0.51218772
-0.086235113 -0.11214764 0.51134759
-0.11267623 -0.10858113 0.51973796
-0.10422128 -0.10538287 0.51834518
-0.095039554 -0.10509298 0.51488084
-0.085063316 -0.10502636 0.51242644
-0.078009531 -0.10401472 0.51112139
-0.10146201 -0.097022839 0.51965511
-0.095019534 -0.09503103 0.5177291
-0.084534377 -0.095016047 0.51325756
-0.07690867 -0.094865322 0.51126105
-0.094012849 -0.085575014 0.51883882
-0.085093498 -0.085051544 0.51570308
-0.075219817 -0.084459081 0.51349747
-0.065497428 -0.083580844 0.51229984
-0.057507284 -0.082028978 0.51132214
-0.092536569 -0.078250088 0.51968908
-0.084625587 -0.076555073 0.51903898
-0.074673384 -0.074912809 0.51851636
-0.064770594 -0.075170703 0.51579303
-0.055202223 -0.075082608 0.51262552
-0.047789656 -0.072529383 0.5113225
-0.074082337 -0.064727366 0.51933098
-0.065025702 -0.064979173 0.51675725
-0.055379052 -0.064831205 0.5134989
-0.046763461 -0.064822771 0.51136786
-0.072933204 -0.057451773 0.51961482
-0.06492614 -0.055864632 0.51893985
-0.055056877 -0.054999117 0.51681125
-0.04492192 -0.055115435 0.51252431
-0.037745491 -0.051961061 0.51126266
-0.061357062 -0.049766447 0.51999009
-0.054015428 -0.045787085 0.51881999
-0.044683076 -0.044621158 0.51559734
-0.03514266 -0.044960689 0.51274014
-0.028399654 -0.042732421 0.51126295
-0.050946657 -0.03844573 0.51999044
-0.044701673 -0.03492298 0.51886022
-0.035253804 -0.03519287 0.51552629
-0.025773609 -0.034201998 0.5124023
-0.016679371 -0.031367142 0.51145214
-0.043802325 -0.025954204 0.51922631
-0.035099488 -0.025047868 0.51785624
-0.024940332 -0.025292894 0.51663232
-0.015025308 -0.025031121 0.51443994
-0.007595418 -0.023855649 0.51194924
-0.033260699 -0.016062759 0.51979607
-0.024645863 -0.015094635 0.51899141
-0.015122121 -0.015050889 0.5176878
-0.0053017312 -0.014634416 0.51402515
0.0024295012 -0.011528799 0.51139134
-0.030127365 -0.0090132616 0.51999158
-0.02372057 -0.0062917243 0.51973367
-0.01515113 -0.0049232282 0.51866513
-0.0049653943 -0.0048907762 0.5156166
0.0048745852 -0.0046231844 0.51240462
0.011477194 -0.0023240936 0.5112139
-0.020622183 0.0011754124 0.51999193
-0.014343659 0.0044701709 0.51899207
-0.0049744258 0.0052213515 0.51663268
0.0051306081 0.0052082548 0.51508105
0.014101326 0.0059870514 0.5120753
0.022444172 0.0098395934 0.51099211
-0.012466887 0.012921715 0.51960778
-0.004906626 0.015313543 0.51810157
0.0051352782 0.015315569 0.51566589
0.015192053 0.01527558 0.514153
0.024500664 0.015786598 0.51221728
0.030450294 0.019184278 0.51099247
-0.0020403417 0.023429116 0.51957172
0.0051521109 0.024843024 0.51770699
0.015250158 0.024768051 0.51613575
0.025281724 0.02469746 0.5145846
0.033443205 0.025866924 0.51181322
0.0062528714 0.033596359 0.51925027
0.014724641 0.034935053 0.5181511
0.024761733 0.034966532 0.51626295
0.034955904 0.03532717 0.51244777
0.041568432 0.038762357 0.51099318
0.015902782 0.044601861 0.51946408
0.024767656 0.045154374 0.51799345
0.035253119 0.044766773 0.51433891
0.044632103 0.045703948 0.51176095
0.05079785 0.048885893 0.51099354
0.018301962 0.051211398 0.51999378
0.025465732 0.054185402 0.51901513
0.034841619 0.054515854 0.51691216
0.044664513 0.055090781 0.51447707
0.05438818 0.05611692 0.51173794
0.061584473 0.058787316 0.5109939
0.02852028 0.060788482 0.51979411
0.035631135 0.062578842 0.5192275
0.045035269 0.065254785 0.51774424
0.055125233 0.064842179 0.5143404
0.062734313 0.065685287 0.51169419
0.047210753 0.074313737 0.51933825
0.055058893 0.074732915 0.51664758
0.064189404 0.075307459 0.51271677
0.072468109 0.078582294 0.51143909
0.049760044 0.082909912 0.51999485
0.055472784 0.084793814 0.51834112
0.065072924 0.08540535 0.51645124
0.075272247 0.084996514 0.51369298
0.08279907 0.087286957 0.51155049
0.057412066 0.093059815 0.5196203
0.065358236 0.095091231 0.5180878
0.075072676 0.094910726 0.51583517
0.084707938 0.095017605 0.51286793
0.091767512 0.09716855 0.51122606
0.066888794 0.10391557 0.51945394
0.074935228 0.10484251 0.51824123
0.085043997 0.10518125 0.5154956
0.094516486 0.10540923 0.51208442
0.10161418 0.10951484 0.51099581
0.068995163 0.11053108 0.51999593
0.076073334 0.11357887 0.51904863
0.085107423 0.11478537 0.51756406
0.094783694 0.1151093 0.51577777
0.10416312 0.11580484 0.51201874
0.110955 0.11885983 0.5109961
0.08645536 0.12159467 0.51999629
0.0951856 0.1251027 0.51844287
0.10498274 0.12515637 0.51421678
0.11295376 0.12554359 0.51139623
0.089363292 0.13294604 0.51999676
0.095439695 0.1342887 0.51874179
0.10521881 0.13507742 0.51615369
0.11464304 0.13493814 0.51322752
0.12463985 0.13747197 0.51196241
0.13197072 0.13868371 0.51142538
0.097850338 0.14075762 0.519997
0.10544229 0.14480658 0.51908046
0.11502859 0.1450197 0.51754421
0.12475102 0.14516728 0.5157522
0.13415296 0.14560169 0.51371145
0.10714976 0.15246351 0.51971167
0.11558478 0.15306892 0.51930511
0.12491085 0.15374266 0.51844984
0.13365266 0.15305035 0.51657426
-0.23000647 -0.20857348 0.52998441
-0.22370127 -0.2049592 0.52913272
-0.21467803 -0.20406002 0.52671176
-0.20443194 -0.20376346 0.52298439
-0.19775067 -0.20278074 0.52125734
-0.22402978 -0.19426848 0.52953041
-0.21537127 -0.19520067 0.52782488
-0.20468912 -0.19467577 0.52479631
-0.19520429 -0.19489549 0.52296698
-0.18634272 -0.19267169 0.52171206
-0.17983523 -0.19005288 0.52098495
-0.23001111 -0.18780856 0.52998525
-0.22411285 -0.1877016 0.52912813
-0.21492554 -0.18725163 0.52792066
-0.20519628 -0.18617749 0.52612036
-0.19463558 -0.18604021 0.52409035
-0.18465048 -0.18518005 0.52274537
-0.17714944 -0.18403725 0.52148521
-0.1825593 -0.17916691 0.52098542
-0.17032027 -0.14174166 0.5209868
-0.16496931 -0.14447062 0.52269572
-0.1551781 -0.14315698 0.52216625
-0.14495245 -0.14242762 0.52124751
-0.13804929 -0.14222047 0.52098668
-0.16552925 -0.13494132 0.52625263
-0.15520081 -0.13492656 0.52532661
-0.14495851 -0.13536932 0.52302343
-0.13588971 -0.13446696 0.52172035
-0.12949809 -0.13084601 0.52098715
-0.165525 -0.12519483 0.52741611
-0.15490589 -0.12497113 0.52803004
-0.14520445 -0.1251394 0.52511954
-0.13541049 -0.12515196 0.52278328
-0.12797026 -0.1241165 0.52130562
-0.16604966 -0.11552861 0.52739108
-0.15501893 -0.11506747 0.52936953
-0.14488454 -0.11506823 0.52712774
-0.13488014 -0.11502241 0.52374274
-0.12643379 -0.11466438 0.52182114
-0.11997675 -0.11111201 0.52098787
-0.15285265 -0.10801953 0.52998811
-0.14447622 -0.10616374 0.52894038
-0.1349986 -0.10486095 0.52677
-0.12477444 -0.10504489 0.52353519
-0.11538803 -0.10433761 0.52190119
-0.10779409 -0.10164149 0.5212881
-0.14004958 -0.099191599 0.52998841
-0.13376288 -0.095804356 0.52938849
-0.12507865 -0.095211864 0.52656543
-0.11525668 -0.095045947 0.52363551
-0.10599207 -0.094415478 0.52168071
-0.13058949 -0.087804258 0.52978879
-0.12480261 -0.084996723 0.52824473
-0.11511661 -0.085179597 0.52491194
-0.10536914 -0.084853195 0.52273875
-0.09888044 -0.083810374 0.52126157
-0.12217361 -0.078904219 0.52973914
-0.114462 -0.075415045 0.52789617
-0.10510003 -0.07489077 0.52425587
-0.095725164 -0.074382231 0.52211159
-0.085293129 -0.071604632 0.52125251
-0.079161122 -0.070958734 0.5209893
-0.11212315 -0.067342952 0.52925622
-0.10478054 -0.065337926 0.52781659
-0.095021896 -0.065015882 0.52500874
-0.084792256 -0.064974651 0.52211201
-0.078992493 -0.064324699 0.5209896
-0.10169517 -0.058539037 0.52965659
-0.094806768 -0.055417594 0.52769828
-0.085074089 -0.054923672 0.52382916
-0.076011598 -0.053536367 0.52198994
-0.067249842 -0.051850837 0.52121216
-0.094009042 -0.045301884 0.52883881
-0.08538375 -0.04479884 0.52641028
-0.075047575 -0.044693924 0.52483928
-0.064861953 -0.045170635 0.52240098
-0.057528414 -0.042074457 0.52108121
-0.091708399 -0.038553461 0.52965724
-0.083941169 -0.036335584 0.52893811
-0.074560188 -0.035285514 0.5268479
-0.064565718 -0.035088357 0.52392942
-0.055031326 -0.034726862 0.5220992
-0.049231727 -0.032168709 0.52099079
-0.081000499 -0.029500658 0.52999091
-0.073990129 -0.026148997 0.52877158
-0.064912558 -0.024951745 0.52672321
-0.055049006 -0.024898611 0.5237729
-0.047897823 -0.023833096 0.52125776
-0.063951306 -0.015910961 0.52939141
-0.05521645 -0.014746938 0.52683139
-0.045322962 -0.015208435 0.52290201
-0.037849344 -0.013479699 0.52142614
-0.06116315 -0.008500617 0.52999169
-0.055203464 -0.005203024 0.5284918
-0.045229096 -0.0048312838 0.52545321
-0.034885429 -0.0050409804 0.52272248
-0.026424829 -0.0026045702 0.52132511
-0.0530532 0.003706052 0.52940118
-0.044948585 0.0045587406 0.52748311
-0.034508273 0.0046105543 0.52454311
-0.024993477 0.0047396128 0.52248132
-0.018796638 0.0064534103 0.52111709
-0.050646674 0.011297601 0.52999246
-0.043808009 0.013240634 0.52882576
-0.034662444 0.014954173 0.52683187
-0.024897754 0.014874881 0.524064
-0.016281204 0.015629092 0.52189481
-0.0097794803 0.019551219 0.52099258
-0.032530863 0.024872327 0.52887297
-0.024997694 0.025241494 0.52611524
-0.015320869 0.025151981 0.52419692
-0.006560693 0.025821734 0.52204686
-0.031575039 0.032509353 0.52986813
-0.024651086 0.034292541 0.52901828
-0.015428733 0.034974117 0.52778912
-0.0050594914 0.034741957 0.52424318
0.0034263828 0.03720326 0.52152264
-0.021028616 0.040651929 0.52999347
-0.014836809 0.044251449 0.52940804
-0.004898407 0.044868521 0.52636027
0.0050442195 0.045167577 0.52291811
0.01190239 0.046978705 0.52126032
-0.012350449 0.05345609 0.52972734
-0.0051413951 0.055111691 0.52761471
0.0052184938 0.055372853 0.525096
0.014510202 0.055343084 0.52255911
0.021515129 0.057824928 0.52110511
-0.0040658582 0.064707614 0.52948266
0.0052468479 0.065350257 0.52813721
0.014830586 0.065041006 0.52560651
0.024645355 0.065076388 0.52307272
0.034412328 0.067348875 0.5216943
0.040559623 0.069912754 0.52099442
-0.001654821 0.071111433 0.52999461
0.006464134 0.072202809 0.52986121
0.015162858 0.074873544 0.52888602
0.025088558 0.074729644 0.52668554
0.035279654 0.07488396 0.52389842
0.042655993 0.076539449 0.521703
0.017719693 0.082175113 0.52989495
0.024825051 0.084527485 0.5287776
0.034754585 0.08500395 0.52596068
0.044691622 0.08524207 0.52266157
0.050534826 0.088512838 0.52099514
0.027168499 0.093151778 0.52977312
0.034811281 0.09513174 0.52739888
0.044909701 0.094998479 0.52424031
0.05359159 0.095646501 0.5219143
0.060965244 0.099855326 0.5209955
0.028793588 0.10157342 0.52999568
0.035457075 0.10460063 0.5283708
0.04501494 0.10483275 0.52548558
0.055185519 0.1048411 0.52331769
0.063138753 0.10642403 0.5214358
0.038930435 0.11215385 0.52982944
0.045564365 0.11471337 0.52799612
0.054925647 0.11454036 0.52481967
0.064967625 0.11544845 0.52281612
0.072544664 0.11700156 0.52140784
0.04774788 0.12148627 0.52971071
0.055682056 0.12372633 0.52832985
0.065147847 0.12527491 0.52582669
0.074965671 0.12502611 0.52379227
0.084748194 0.12526023 0.52203631
0.059068453 0.13428488 0.52999693
0.0651526 0.13517763 0.52775103
0.075255498 0.13512313 0.52583367
0.084950544 0.13502833 0.52294421
0.091915183 0.13898578 0.52099693
0.059240144 0.14034134 0.52999711
0.0652152 0.14370623 0.52922302
0.07501816 0.14500742 0.52765763
0.085163638 0.1449908 0.52448773
0.094723731 0.14560993 0.52233756
0.10126895 0.14732289 0.52099723
0.077221684 0.15443841 0.52932024
0.084907316 0.15503001 0.52721494
0.094796278 0.15472971 0.52411753
0.10194405 0.15274964 0.52135462
0.079282723 0.16290581 0.52983123
0.084265448 0.1620522 0.52854794
0.092164226 0.16111921 0.52699775
-0.26457545 -0.21149588 0.53898448
-0.25547644 -0.21074276 0.53548437
-0.24778271 -0.21015096 0.53398442
-0.26338506 -0.20508 0.53932846
-0.25487581 -0.20494621 0.53679723
-0.24460886 -0.20505953 0.53442699
-0.23516458 -0.2051367 0.53292084
-0.22808839 -0.20352769 0.53127027
-0.2635259 -0.19525866 0.53907073
-0.25497821 -0.19474919 0.53708518
-0.24520564 -0.19530715 0.53491682
-0.23486343 -0.1948151 0.53214765
-0.22840603 -0.19666025 0.5310849
-0.26538211 -0.18994801 0.53998524
-0.2515156 -0.18993855 0.53598523
-0.24523139 -0.18940584 0.53448516
-0.23482944 -0.18903483 0.5314852
-0.22905794 -0.18954949 0.53098512
-0.16265637 -0.11155791 0.53098798
-0.15972862 -0.11047854 0.53098804
-0.16359988 -0.10484735 0.53201383
-0.15509756 -0.10431357 0.53138828
-0.14669332 -0.10173792 0.53098828
-0.16418786 -0.094975017 0.53328282
-0.15478846 -0.094891571 0.53306019
-0.14481494 -0.094603553 0.53195238
-0.13730867 -0.092778347 0.53142619
-0.16472585 -0.084677778 0.53480393
-0.15511999 -0.085020974 0.535478
-0.14539647 -0.084655277 0.5343563
-0.13545051 -0.084629059 0.53244889
-0.12922244 -0.081346013 0.53098905
-0.16453062 -0.074898295 0.53581703
-0.1549383 -0.074808523 0.53722948
-0.14505798 -0.075112671 0.53485292
-0.13539055 -0.074750192 0.53341794
-0.1258132 -0.07462202 0.53232259
-0.11870544 -0.071841836 0.53123939
-0.15300742 -0.068417422 0.53922039
-0.1445757 -0.065397985 0.53774536
-0.13491127 -0.0652439 0.5354591
-0.125027 -0.065064296 0.53422374
-0.11627556 -0.064313993 0.53219557
-0.10876964 -0.060884118 0.53098977
-0.14164492 -0.057691097 0.53999007
