# .PCD v0.7 - Point Cloud Data file format
VERSION 0.7
FIELDS x y z
SIZE 4 4 4
TYPE F F F
COUNT 1 1 1
WIDTH 1
HEIGHT 241
VIEWPOINT 0 0 0 1 0 0 0
POINTS 241
DATA ascii
0.10544284 -0.0014260439 0.30641741
0.095887281 0.0059761559 0.30406901
0.10491472 0.0033459617 0.30487278
0.11370136 0.0033084881 0.30601892
0.12482604 0.0044663614 0.30478483
0.13467816 0.0056645898 0.30513006
0.1449167 0.0073676109 0.3042239
0.15215439 0.009524948 0.30444181
0.1566927 0.011891209 0.30345827
0.16518742 0.015895545 0.3036885
0.17143367 0.018725194 0.30425823
0.17305687 0.020029724 0.30102754
0.10630306 -0.00087667379 0.31052807
0.11289048 -0.0009281747 0.31498694
0.12487219 -4.1756779e-05 0.31994578
0.0978444 0.0014925493 0.31510335
0.11673839 0.0013101215 0.31366768
0.12510559 0.0017514323 0.31508669
0.1345849 0.0028351881 0.31522134
0.14223012 0.0044364766 0.31525093
0.15645875 0.0084596789 0.31713057
0.16063908 0.0099147186 0.31735235
0.158788 0.01042494 0.31205776
0.16398478 0.012164724 0.31359807
0.17356382 0.016666263 0.3149721
0.11745546 -0.0012075932 0.32413095
0.12468028 -0.0011534237 0.32546946
0.13278748 -0.00068278034 0.32699397
0.094981268 0.0028258739 0.32549363
0.12899533 0.00029921159 0.32056898
0.13615507 0.00082065392 0.32361463
0.14446701 0.0028574513 0.32505921
0.15513761 0.0063268756 0.32564199
0.16227688 0.0089340163 0.32461247
0.16721407 0.011526341 0.324817
0.17650586 0.015463315 0.32478574
0.18053284 0.014937058 0.32721418
0.098979607 -0.0016570762 0.3354035
0.10062305 -0.0019589718 0.33493066
0.11602737 -0.0038094888 0.33513588
0.12468474 -0.0034890817 0.33498877
0.13474375 -0.0020930558 0.33518794
0.14283751 -0.00058964704 0.33725664
0.091947362 0.004154928 0.33345577
0.14634688 0.0014368568 0.33391982
0.15469806 0.0039431942 0.33515611
0.1640527 0.0077705937 0.3339144
0.1691004 0.010484964 0.33445418
0.17653376 0.013100633 0.33495548
0.18129279 0.014071731 0.33718663
0.097606763 -0.0012881458 0.34252763
0.10516584 -0.0037989635 0.34246767
0.11537987 -0.0066841198 0.34540769
0.12433062 -0.006565691 0.3450456
0.13498324 -0.0041853171 0.34488809
0.14548868 -0.0019525987 0.34653595
0.1528493 -0.00035376474 0.34858125
0.1493066 0.00055220351 0.34076059
0.15591881 0.00179923 0.34408867
0.16480482 0.0053506405 0.34561661
0.17104661 0.0091059841 0.34609631
0.17569573 0.011479627 0.34467217
0.11639439 -0.011369882 0.35733268
0.12533341 -0.011963458 0.35674936
0.13255586 -0.011299575 0.35858476
0.094409101 -0.0010714345 0.35678673
0.10735378 -0.0065377792 0.3563073
0.11370803 -0.00869234 0.35352015
0.12616506 -0.0090558277 0.35191175
0.13467908 -0.007375896 0.35503122
0.14475228 -0.0044786916 0.355874
0.15433954 -0.0019983265 0.35623443
0.16094854 -0.00086851418 0.35938466
0.090735637 0.0019076138 0.35853672
0.15865238 0.00067191478 0.3521623
0.16537054 0.0029859212 0.35509795
0.1740661 0.0079430807 0.35574096
0.17737025 0.010491724 0.35248193
0.18105499 0.010785207 0.35655034
0.13812536 -0.0090857837 0.3611939
0.14491414 -0.0079983538 0.36280197
0.15501207 -0.0063881287 0.36524171
0.16373831 -0.0027753625 0.36637583
0.16806297 0.0013726417 0.36313412
0.17505187 0.0043664332 0.36551356
0.18248305 0.0081708105 0.36681625
0.18570615 0.011139717 0.36627904
0.079194926 0.019365495 0.30805549
0.084640794 0.017761663 0.30487356
0.095359467 0.016894387 0.30379966
0.10180954 0.017811039 0.30857298
0.074092291 0.024768051 0.3053672
0.068786085 0.033579912 0.30437961
0.070453607 0.031274375 0.30245447
0.076529212 0.018550402 0.31568128
0.084023371 0.015843987 0.31566259
0.095155694 0.014650285 0.31433415
0.10309324 0.015577491 0.31647021
0.069427557 0.028480828 0.31669524
0.071942098 0.023715403 0.31436044
0.068820968 0.031980447 0.31383801
0.074930586 0.016820105 0.32525197
0.084657282 0.013519361 0.32509276
0.090332694 0.012559274 0.32568723
0.10504395 0.014064373 0.32357091
0.069203779 0.025249515 0.32512969
0.070951894 0.02119174 0.32176384
0.069052726 0.031549439 0.3232969
0.087223344 0.009733716 0.33861965
0.090208173 0.0094434321 0.33838093
0.069636427 0.019159772 0.33507386
0.074437857 0.01451304 0.33525994
0.084132195 0.011255519 0.33428273
0.0928993 0.010720381 0.33381674
0.11167446 0.013362693 0.33524382
0.068861589 0.024870086 0.33454195
0.069724753 0.031935409 0.33478695
0.070765704 0.032937884 0.33821434
0.078143686 0.0092487661 0.34752199
0.084810562 0.0082438635 0.34526315
0.094267711 0.0073158629 0.34713221
0.10969488 0.0097199157 0.34889859
0.11571518 0.0097563528 0.34804687
0.06931404 0.018238956 0.34500635
0.073348768 0.012881638 0.34424141
0.1081908 0.010180768 0.34779823
0.11355612 0.010396931 0.3448514
0.068976663 0.025069943 0.34538841
0.069607869 0.030874267 0.34072122
0.070858419 0.032389116 0.34675628
0.075865448 0.0075110062 0.35651261
0.084671512 0.005003192 0.35567921
0.095301494 0.0045456104 0.35572046
0.10322462 0.0063828626 0.35684916
0.1169223 0.008156782 0.35620269
0.12197174 0.0098093376 0.35546499
0.068829425 0.016781634 0.35533527
0.071796305 0.011548604 0.35345322
0.12259741 0.010888919 0.35474232
0.068968959 0.025303753 0.35529158
0.071272381 0.032801971 0.35639471
0.084369116 0.001516137 0.36336723
0.094952464 0.0014506339 0.36248034
0.10620239 0.0033549413 0.36369145
0.1146531 0.0037659474 0.36551553
0.12475642 0.0039296569 0.36715862
0.070620507 0.010035425 0.36099917
0.067817181 0.024540421 0.36621597
0.068593808 0.032532506 0.36678991
0.073152058 0.036489572 0.36577168
-0.28025669 -0.33030793 0.30783242
-0.27723625 -0.33181 0.30916697
-0.3022041 -0.32113841 0.30540723
-0.29518953 -0.324498 0.30508128
-0.28554204 -0.32767275 0.30641466
-0.33239108 -0.31071317 0.30889469
-0.32492122 -0.31198364 0.30522373
-0.315052 -0.31480268 0.30453566
-0.30698606 -0.31813824 0.30407321
-0.36088139 -0.30036592 0.30398384
-0.3552781 -0.30209404 0.30492601
-0.34498721 -0.30531529 0.30489886
-0.33541167 -0.30837464 0.30446842
-0.32917023 -0.30970567 0.30055523
-0.38019106 -0.29613683 0.30867714
-0.37477157 -0.29633182 0.30503958
-0.36561444 -0.29835936 0.30496112
-0.27424061 -0.3321332 0.31462008
-0.26569894 -0.33508909 0.31609231
-0.25591743 -0.33629081 0.31714898
-0.24721487 -0.33793595 0.31850371
-0.3045986 -0.32212043 0.3157278
-0.29479048 -0.3253493 0.31507045
-0.28483769 -0.32706347 0.31498191
-0.27844334 -0.32888851 0.31649497
-0.33269608 -0.31102878 0.31535795
-0.32507116 -0.31352162 0.31596231
-0.31515539 -0.31713259 0.31527457
-0.30850634 -0.31982419 0.31238601
-0.36022091 -0.30040297 0.31428501
-0.35481888 -0.30238596 0.31476402
-0.34499845 -0.30666998 0.31551969
-0.33702642 -0.30888349 0.31636485
-0.38160065 -0.2970207 0.31645954
-0.37497923 -0.29732627 0.31504545
-0.36490738 -0.29841733 0.31514138
-0.35858104 -0.29936182 0.31777781
-0.24180399 -0.34076387 0.32525808
-0.23593836 -0.34397939 0.3269577
-0.22905435 -0.34872356 0.32959741
-0.27260634 -0.33203822 0.32414329
-0.26458395 -0.33573925 0.32422143
-0.25473768 -0.33745608 0.32503784
-0.24656673 -0.33899581 0.32535177
-0.30392209 -0.3220183 0.32330614
-0.29519925 -0.32393956 0.32324007
-0.28532344 -0.32449794 0.32217044
-0.27738416 -0.32716894 0.32311743
-0.32358426 -0.31211233 0.32110432
-0.3145074 -0.31598023 0.32178167
-0.30835128 -0.31852046 0.32355055
-0.35253507 -0.30231723 0.32265264
-0.34580761 -0.3049756 0.32296255
-0.33537391 -0.30765402 0.32088137
-0.32864061 -0.30973661 0.32102665
-0.38289452 -0.29549113 0.3255592
-0.37548754 -0.29721007 0.32473171
-0.36591741 -0.29741314 0.32200912
-0.35818338 -0.29882288 0.32131153
-0.22277923 -0.35078239 0.33332822
-0.21503243 -0.35181722 0.33670962
-0.20544183 -0.35326427 0.338119
-0.19623454 -0.35514838 0.33949426
-0.2625162 -0.3400467 0.33820629
-0.25951174 -0.3400926 0.33746099
-0.24075818 -0.34021473 0.33287022
-0.23440561 -0.34299305 0.33351159
-0.22556995 -0.34728271 0.33537766
-0.21845031 -0.34917116 0.33816934
-0.27108198 -0.33410946 0.33319333
-0.26565719 -0.33767158 0.33446848
-0.25453699 -0.3386443 0.3355982
-0.2454381 -0.3377426 0.33533648
-0.23766826 -0.3383975 0.33649239
-0.38120559 -0.29482719 0.33020499
-0.176236 -0.36073416 0.34515053
-0.21456604 -0.35184547 0.3422502
-0.20437013 -0.35334033 0.34214011
-0.19399339 -0.3544071 0.34105146
-0.18533668 -0.35628864 0.3421188
-0.17890523 -0.35946938 0.34353295
-0.26234722 -0.34042263 0.34349722
-0.25931805 -0.34038699 0.34441793
-0.21485157 -0.34971818 0.34055883
-0.26565734 -0.33895758 0.34174481
-0.25537798 -0.33782515 0.34168205
-0.22454968 -0.36119565 0.35942417
-0.22650912 -0.35729614 0.3547864
-0.25727665 -0.34377047 0.35196424
-0.21196464 -0.36615783 0.36163765
-0.2094918 -0.36670181 0.36247709
