# .PCD v0.7 - Point Cloud Data file format
VERSION 0.7
FIELDS x y z
SIZE 4 4 4
TYPE F F F
COUNT 1 1 1
WIDTH 1334
HEIGHT 1
VIEWPOINT 0 0 0 1 0 0 0
POINTS 1334
DATA ascii
0.033736348 -0.049213044 0.47618985
0.033891469 -0.048791338 0.47747979
0.03481105 -0.048243556 0.47807086
0.034972042 -0.047818355 0.47936457
0.035136968 -0.047390804 0.4806608
0.035305798 -0.046960928 0.48195958
0.035478622 -0.046528712 0.48326084
0.03565526 -0.046094157 0.48456466
0.035087138 -0.045773994 0.48657992
0.034526825 -0.045449145 0.48860025
0.033974349 -0.045119643 0.49062562
0.033429712 -0.044785459 0.49265599
0.032892942 -0.044446602 0.49469143
0.032364011 -0.044103071 0.49673194
0.031842887 -0.043754879 0.49877745
0.031329662 -0.043402005 0.50082797
0.031557322 -0.042937092 0.5021646
0.031057775 -0.042576045 0.50422394
0.03129527 -0.042105287 0.50556684
0.031536639 -0.041632194 0.50691223
0.031056762 -0.041259456 0.50898421
0.030584663 -0.040882066 0.51106119
0.029399097 -0.040600363 0.51386988
0.028944671 -0.040212452 0.51595831
0.028498083 -0.039819874 0.51805174
0.027343929 -0.039519481 0.52088052
0.027628422 -0.039020695 0.52225363
0.026493877 -0.038708627 0.52509505
0.026790172 -0.03820283 0.52647573
0.026382774 -0.03778689 0.52859437
0.025983244 -0.037366271 0.53071803
0.026998878 -0.036761276 0.53137088
0.027312785 -0.036244974 0.53276289
0.028330386 -0.035638809 0.53341699
0.029348016 -0.035032645 0.53407109
0.091623694 -0.0041931644 0.5514853
0.092006236 -0.0036359765 0.55292141
0.092988551 -0.0030508339 0.55355281
0.031190276 -0.050053529 0.4720917
0.032103986 -0.049509265 0.47267899
0.032248408 -0.049091078 0.47396186
0.032396734 -0.048670545 0.47524726
0.033314347 -0.048123948 0.47583708
0.033468544 -0.047699917 0.47712627
0.033626705 -0.047273539 0.47841796
0.03378877 -0.04684484 0.47971219
0.034712255 -0.046294734 0.48030579
0.034880191 -0.045862526 0.48160383
0.035052091 -0.045427985 0.48290431
0.03447625 -0.045106661 0.48491433
0.033908248 -0.044780679 0.48692936
0.034095824 -0.044336781 0.48823997
0.033541501 -0.044002622 0.49026382
0.033738881 -0.043552894 0.49158072
0.033198327 -0.043210555 0.49361336
0.033405483 -0.042754985 0.49493659
0.032878637 -0.042404473 0.4969781
0.03235966 -0.042049278 0.49902463
0.032582521 -0.041584369 0.50035793
0.032077283 -0.041221 0.50241327
0.03230992 -0.04075025 0.50375289
0.03181839 -0.04037872 0.50581706
0.032060862 -0.039902125 0.50716299
0.031583071 -0.039522406 0.50923598
0.031113088 -0.039138019 0.51131397
0.030650944 -0.038748961 0.5133971
0.029478401 -0.038450927 0.51621354
0.029033929 -0.038051367 0.51830804
0.027882934 -0.037740491 0.52113831
0.027456075 -0.037330404 0.52324414
0.027037144 -0.036915652 0.52535486
0.027334481 -0.036406361 0.52673608
0.0269292 -0.035983432 0.52885574
0.027236372 -0.035468295 0.53024322
0.027547449 -0.034950823 0.53163326
0.028563082 -0.034345828 0.53228605
0.029578745 -0.033740833 0.53293884
0.02989763 -0.033218697 0.53433394
0.030915231 -0.032612532 0.53498805
0.031932831 -0.032006361 0.53564215
0.032950461 -0.031400196 0.53629619
0.091172844 -0.0030295998 0.55110836
0.092153192 -0.0024456233 0.5517385
0.092536777 -0.0018849447 0.55317521
0.093519092 -0.0012998022 0.55380654
0.029856384 -0.049513355 0.47115317
0.030770093 -0.04896909 0.47174045
0.030911624 -0.048549734 0.47302133
0.031827301 -0.048004307 0.47360986
0.032742947 -0.047458872 0.47419843
0.033658594 -0.046913438 0.47478697
0.03304565 -0.046608496 0.47677276
0.033202887 -0.046179794 0.4780637
0.033364058 -0.045748755 0.47935718
0.034287542 -0.045198649 0.47995079
0.034454584 -0.044764124 0.48124805
0.03462559 -0.044327252 0.48254779
0.034047931 -0.044001278 0.48455629
0.034228683 -0.043558564 0.48586234
0.033664763 -0.043224409 0.48787966
0.033855319 -0.042775877 0.48919204
0.033305138 -0.042433549 0.49121815
0.033505499 -0.04197916 0.49253681
0.032969058 -0.041628651 0.49457178
0.033179253 -0.041168429 0.49589676
0.033393323 -0.04070586 0.49722427
0.032876432 -0.040343683 0.49927181
0.033100367 -0.03987528 0.50060558
0.033328205 -0.03940453 0.50194192
0.033559948 -0.038931452 0.50328076
0.033068568 -0.038554095 0.50534469
0.032585025 -0.038172062 0.50741369
0.03210938 -0.037785355 0.50948769
0.031641543 -0.037393972 0.51156676
0.031181484 -0.036997925 0.51365083
0.030729353 -0.036597203 0.51573998
0.029569775 -0.03628286 0.51856434
0.029135257 -0.035871625 0.52066475
0.028708577 -0.035455719 0.52277029
0.028289735 -0.035035141 0.52488089
0.028586239 -0.034523517 0.52626127
0.028886586 -0.034009561 0.52764422
0.028487384 -0.033577312 0.52976739
0.028797537 -0.033057503 0.53115666
0.029811233 -0.032453679 0.5318082
0.030127287 -0.03193038 0.53320122
0.03114292 -0.031325385 0.53385407
0.032158583 -0.030720383 0.53450692
0.033174217 -0.030115381 0.53515971
0.03418988 -0.029510379 0.53581256
0.035205513 -0.028905392 0.53646535
0.091702342 -0.0012820587 0.55136168
0.092682689 -0.00069808215 0.55199182
0.093067318 -0.00013390556 0.55342895
0.094049633 0.00045123696 0.55406034
0.029436201 -0.048428915 0.47080189
0.03034988 -0.047884651 0.4713892
0.030490518 -0.047462963 0.4726693
0.031406194 -0.046917535 0.47325787
0.032321841 -0.046372101 0.47384641
0.033237487 -0.045826666 0.47443497
0.033387929 -0.045399159 0.47572136
0.033542335 -0.044969294 0.47701031
0.033700585 -0.044537105 0.47830176
0.033862829 -0.044102579 0.47959575
0.034028977 -0.043665715 0.48089227
0.034199059 -0.043226525 0.48219126
0.034373015 -0.042784989 0.48349282
0.033799469 -0.042450856 0.48550355
0.03398326 -0.042003483 0.4868114
0.034170955 -0.041553773 0.48812178
0.03361702 -0.041207954 0.49014515
0.03381449 -0.040752415 0.49146178
0.034015954 -0.040294524 0.49278098
0.034221292 -0.039834309 0.49410266
0.034430563 -0.039371751 0.49542689
0.03390798 -0.039007254 0.49747044
0.034127086 -0.038538858 0.49880093
0.034350067 -0.038068127 0.50013399
0.034577012 -0.03759506 0.50146961
0.034079909 -0.037215374 0.50352949
0.033590645 -0.036831029 0.50559443
0.033833265 -0.036348611 0.50694007
0.03335771 -0.035956088 0.50901383
0.032890022 -0.035558879 0.51109266
0.032430232 -0.035157003 0.51317644
0.03126204 -0.034839179 0.51599479
0.030819833 -0.034426793 0.51808989
0.030385464 -0.034009747 0.52019018
0.029958993 -0.033588015 0.52229548
0.029540271 -0.033161618 0.52440578
0.02983582 -0.032647669 0.52578545
0.030135334 -0.032131389 0.52716762
0.029736221 -0.031693306 0.52929056
0.030745983 -0.03109182 0.52993959
0.031057239 -0.030568529 0.53132939
0.031372398 -0.030042894 0.53272164
0.032386094 -0.029439062 0.53337324
0.033399791 -0.02883523 0.53402478
0.033722788 -0.028304935 0.53542209
0.034738421 -0.027699932 0.53607488
0.035754085 -0.027094938 0.53672773
0.036769718 -0.026489943 0.53738058
0.091251463 -0.00011849776 0.55098474
0.09223181 0.00046547875 0.55161488
0.092615575 0.0010319836 0.55305135
0.093597889 0.0016171262 0.55368268
0.028102279 -0.047888741 0.46986336
0.029015988 -0.047344476 0.47045064
0.029929668 -0.046800211 0.47103795
0.030843377 -0.046255946 0.47162524
0.030985087 -0.045830771 0.47290587
0.031900734 -0.045285337 0.47349441
0.03281638 -0.044739902 0.47408295
0.033732027 -0.044194475 0.47467148
0.033883542 -0.043763459 0.47595844
0.034038961 -0.043330107 0.47724786
0.034198344 -0.042894423 0.47853982
0.034361601 -0.042456396 0.47983432
0.034528792 -0.042016044 0.48113135
0.034699976 -0.041573346 0.48243085
0.034122616 -0.041235734 0.48443884
0.034303546 -0.040787194 0.48574466
0.03448838 -0.040336333 0.48705304
0.034677148 -0.039883122 0.48836389
0.03486985 -0.039427593 0.48967728
0.035066456 -0.03896971 0.4909932
0.035266966 -0.038509507 0.4923116
0.034732789 -0.038146187 0.49434733
0.035679817 -0.037582066 0.49495605
0.035892099 -0.037114844 0.49628204
0.035375535 -0.036741026 0.4983291
0.035597682 -0.036267966 0.49966136
0.035823673 -0.035792571 0.50099623
0.035326749 -0.035407063 0.50305581
0.034837663 -0.035016887 0.50512052
0.03507936 -0.034532152 0.50646544
0.034603983 -0.034133796 0.50853896
0.034136474 -0.033730779 0.51061749
0.0329597 -0.033409469 0.51342976
0.032509804 -0.032995936 0.51551962
0.032067776 -0.032577731 0.5176146
0.031633556 -0.032154858 0.51971459
0.031207204 -0.031727299 0.52181959
0.03078869 -0.031295083 0.52392972
0.031083345 -0.03077881 0.52530861
0.031381905 -0.030260198 0.52669007
0.031684428 -0.029739253 0.52807403
0.031990826 -0.029215969 0.52946043
0.032998621 -0.028615646 0.53010821
0.03331089 -0.028088864 0.53149855
0.033627152 -0.027559739 0.53289133
0.034638882 -0.026957076 0.53354168
0.034960955 -0.026424453 0.53493822
0.035974652 -0.02582062 0.53558975
0.036302626 -0.025284491 0.53699011
0.037318289 -0.024679489 0.53764296
0.090800583 0.0010450631 0.55060792
0.091780961 0.0016290396 0.55123806
0.092163801 0.0021978728 0.5526737
0.093146116 0.0027830154 0.55330509
0.028595775 -0.046260037 0.47009939
0.029509485 -0.045715772 0.4706867
0.030423164 -0.045171507 0.47127399
0.031336844 -0.044627242 0.47186127
0.032250524 -0.044082977 0.47244856
0.033164233 -0.043538712 0.47303584
0.03331092 -0.043107703 0.47431949
0.034226567 -0.042562269 0.47490805
0.034379125 -0.042127773 0.47619545
0.034535646 -0.04169092 0.47748542
0.034696043 -0.041251734 0.47877789
0.03561759 -0.040702797 0.47937024
0.035028636 -0.040366367 0.48137042
0.035200834 -0.039920181 0.48267043
0.035376906 -0.039471664 0.483973
0.035556972 -0.039020803 0.48527807
0.034993529 -0.038669184 0.48729464
0.035928786 -0.038112074 0.48789579
0.036120564 -0.037654199 0.48920843
0.036316276 -0.037193999 0.49052358
0.036515892 -0.036731459 0.49184126
0.036719441 -0.036266584 0.49316144
0.036926925 -0.035799373 0.49448416
0.037138313 -0.035329822 0.49580941
0.037353635 -0.034857944 0.49713716
0.036843121 -0.034474798 0.49918777
0.036340445 -0.034086976 0.50124335
0.036571473 -0.033605743 0.50258124
0.036082536 -0.033209749 0.50464571
0.036323339 -0.032722674 0.50598979
0.035848141 -0.032318503 0.50806308
0.034662783 -0.031993721 0.51086926
0.034205228 -0.03157904 0.51295388
0.033755451 -0.031159688 0.51504356
0.033313602 -0.030735653 0.51713824
0.032879561 -0.03030695 0.51923794
0.032453358 -0.029873587 0.52134275
0.032741219 -0.029358491 0.52271712
0.032328725 -0.02891694 0.52483076
0.03262639 -0.028396003 0.52621144
0.03292799 -0.027872734 0.52759469
0.033233523 -0.027347118 0.52898037
0.033542961 -0.026819173 0.53036863
0.034550756 -0.026218846 0.53101641
0.034866035 -0.025687404 0.53240848
0.035185307 -0.025153618 0.53380299
0.036197037 -0.024550956 0.53445327
0.037208736 -0.023948293 0.53510362
0.037535816 -0.023409836 0.5365032
0.038549513 -0.022806004 0.53715479
0.039563179 -0.022202171 0.53780633
0.08778277 0.001023192 0.54977047
0.088765085 0.0016083308 0.55040187
0.089747399 0.002193477 0.55103326
0.090729713 0.0027786195 0.55166465
0.091712028 0.0033637621 0.55229604
0.092694342 0.0039489046 0.55292743
0.028175592 -0.04517559 0.46974814
0.029089272 -0.044631325 0.47033545
0.030002952 -0.04408706 0.47092274
0.030916631 -0.043542795 0.47151002
0.032602131 -0.042885266 0.47140422
0.03274402 -0.042454265 0.47268459
0.03365773 -0.04191 0.47327188
0.034571409 -0.041365735 0.47385919
0.034721106 -0.04093007 0.47514459
0.035636783 -0.040384635 0.47573316
0.035792351 -0.039945468 0.47702235
0.035951853 -0.039503951 0.47831404
0.036115289 -0.039060108 0.4796083
0.036282659 -0.03861393 0.48090506
0.035701752 -0.038267009 0.48291001
0.03662917 -0.037714571 0.48350611
0.036808252 -0.037261382 0.48481047
0.036991328 -0.036805857 0.4861173
0.037178278 -0.036347996 0.48742664
0.037369162 -0.035887808 0.48873854
0.03756398 -0.035425268 0.49005294
0.037762702 -0.034960411 0.49136987
0.037965357 -0.034493208 0.49268931
0.038171917 -0.034023669 0.49401128
0.038382411 -0.033551794 0.49533576
0.038596809 -0.033077579 0.49666277
0.038815171 -0.032601036 0.49799228
0.038310677 -0.032208562 0.50004643
0.037814051 -0.031811412 0.50210559
0.038048089 -0.031325523 0.50344521
0.037565202 -0.0309202 0.50551319
0.036371261 -0.030591935 0.5083133
0.035906017 -0.030176099 0.51039267
0.035448581 -0.0297556 0.51247704
0.034999043 -0.029330418 0.51456642
0.034557313 -0.028900567 0.51666087
0.034123421 -0.028466046 0.51876032
0.033697367 -0.028026856 0.5208649
0.033984333 -0.027509429 0.52223849
0.033572048 -0.027062058 0.52435184
0.03386879 -0.026538797 0.5257318
0.034169465 -0.026013196 0.52711427
0.03517139 -0.025416367 0.52775824
0.034782648 -0.024954986 0.52988672
0.035095096 -0.024422374 0.5312767
0.036102891 -0.023822051 0.53192449
0.03642118 -0.023285944 0.53331834
0.037430942 -0.022684451 0.53396738
0.037755191 -0.022144835 0.53536499
0.038766921 -0.021542173 0.53601527
0.039097011 -0.02099905 0.53741664
0.040110677 -0.020395217 0.53806818
0.041124374 -0.019791389 0.53871977
0.086723924 0.0021739192 0.55019176
0.087708175 0.0027602278 0.5508244
0.089295626 0.0033593662 0.5506556
0.089676738 0.0039328523 0.55208975
0.090661019 0.0045191627 0.55272239
0.0916453 0.0051054731 0.5533551
0.028535932 -0.04397554 0.46870962
0.029447675 -0.043432444 0.46929565
0.030359387 -0.042889349 0.46988165
0.03127113 -0.042346239 0.47046769
0.032182842 -0.041803151 0.47105372
0.033094585 -0.041260049 0.47163975
0.034006298 -0.040716961 0.47222579
0.034151196 -0.040281296 0.47350794
0.035064876 -0.039737031 0.47409523
0.035978585 -0.039192766 0.47468251
0.036131322 -0.038752429 0.47596967
0.036287963 -0.038309775 0.4772594
0.036448538 -0.037864763 0.47855163
0.036613017 -0.037417427 0.47984636
0.03678143 -0.036967747 0.48114362
0.037704945 -0.036417648 0.4817372
0.037130058 -0.036061399 0.48374569
0.038057476 -0.03550896 0.4843418
0.038239598 -0.035051107 0.48564792
0.038425684 -0.034590926 0.48695654
0.039357007 -0.034036141 0.48755518
0.038809538 -0.033663541 0.48958132
0.039744824 -0.033106424 0.49018246
0.039944589 -0.032638066 0.4914999
0.040148318 -0.032167368 0.49281985
0.039624393 -0.031780753 0.4948611
0.039837897 -0.031304214 0.49618736
0.040055335 -0.030825343 0.49751613
0.039551049 -0.030427039 0.49956998
0.039778262 -0.029942326 0.5009051
0.039287657 -0.029535856 0.50296777
0.038804948 -0.029124711 0.50503552
0.0376122 -0.028787129 0.50783587
0.037147105 -0.028365474 0.50991499
0.036689878 -0.027939145 0.51199913
0.036240458 -0.027508143 0.51408827
0.035798848 -0.027072474 0.51618248
0.035365164 -0.02663213 0.5182817
0.034939289 -0.026187114 0.52038598
0.035225332 -0.025667362 0.52175891
0.035515308 -0.025145277 0.52313423
0.035109073 -0.024688579 0.52525115
0.035408825 -0.024160653 0.52663291
0.03571254 -0.023630384 0.5280171
0.03602016 -0.023097787 0.52940387
0.036331713 -0.022562854 0.53079307
0.036647201 -0.022025581 0.53218484
0.037654996 -0.021425255 0.53283262
0.037976325 -0.020884484 0.53422827
0.038986087 -0.020282988 0.5348773
0.039313346 -0.019738708 0.53627664
0.040325075 -0.019136049 0.53692693
0.041336775 -0.018533386 0.53757727
0.041671872 -0.017984433 0.53898162
0.084676981 0.0027418211 0.54997766
0.085663229 0.0033293031 0.55061162
0.086649448 0.0039167814 0.55124551
0.087635696 0.0045042597 0.55187941
0.08922407 0.0051010698 0.55171132
0.029028356 -0.042350329 0.46894515
0.029940069 -0.041807234 0.46953118
0.030851841 -0.041264124 0.47011721
0.031763554 -0.040721036 0.47070324
0.032675266 -0.040177934 0.47128928
0.033587009 -0.039634846 0.47187528
0.034498751 -0.039091744 0.47246131
0.035410464 -0.038548648 0.47304735
0.035558373 -0.038108326 0.47433126
0.036472082 -0.037564054 0.47491854
0.036625862 -0.03712023 0.47620624
0.036783576 -0.036674075 0.47749645
0.03770116 -0.036127478 0.47808623
0.037864774 -0.035677802 0.47938025
0.038032293 -0.035225801 0.48067674
0.038203716 -0.034771457 0.48197576
0.039127201 -0.034221359 0.48256937
0.039304525 -0.03376352 0.48387221
0.039485782 -0.033303343 0.48517752
0.039670914 -0.032840841 0.48648539
0.0406003 -0.032287233 0.48708275
0.040791363 -0.031821202 0.48839438
0.040986329 -0.031352852 0.48970851
0.0411852 -0.030882157 0.49102521
0.041388005 -0.030409142 0.49234441
0.040864259 -0.030016705 0.49438542
0.041076869 -0.029537838 0.49571094
0.040566802 -0.02913722 0.49776077
0.040789247 -0.028652512 0.49909258
0.040292919 -0.028243721 0.50115126
0.040525168 -0.027753174 0.50248933
0.040042579 -0.027336214 0.50455683
0.038851053 -0.026989311 0.50735748
0.038386106 -0.026561834 0.50943631
0.037216187 -0.02620209 0.51225084
0.036768913 -0.0257641 0.514341
0.036329418 -0.025321443 0.51643622
0.036604792 -0.024805203 0.51780206
0.036179066 -0.024354361 0.5199061
0.035761178 -0.023898855 0.52201521
0.036052227 -0.023373276 0.52339107
0.036347181 -0.02284535 0.52476954
0.036646098 -0.022315092 0.52615047
0.03694886 -0.021782503 0.52753395
0.037255585 -0.021247577 0.52891994
0.037566245 -0.020710316 0.53030849
0.037880838 -0.020170722 0.53169942
0.038199306 -0.019628786 0.53309298
0.039207131 -0.019028459 0.53374076
0.03953144 -0.018483028 0.53513813
0.040541232 -0.017881531 0.53578722
0.041550994 -0.017280035 0.5364362
0.04188323 -0.016729929 0.53783858
0.042894959 -0.016127266 0.53848886
0.043906689 -0.0155246 0.53913921
0.044918418 -0.014921937 0.5397895
0.082011491 0.0032992046 0.55055439
0.083612531 0.0039006937 0.55039471
0.084600717 0.0044893418 0.55102992
0.085588932 0.0050779898 0.55166507
0.089154601 0.0068497639 0.55276811
0.02952078 -0.040725119 0.46918067
0.031208992 -0.040074557 0.46907714
0.032118767 -0.039532632 0.46966189
0.033028543 -0.038990699 0.47024667
0.033938318 -0.038448773 0.47083145
0.034079432 -0.038009629 0.47211081
0.034991145 -0.037466533 0.47269684
0.035902917 -0.036923431 0.47328287
0.036051869 -0.036479607 0.47456729
0.036965549 -0.035935357 0.47515458
0.037120402 -0.035488032 0.47644278
0.038036048 -0.034942605 0.47703132
0.038196802 -0.03449177 0.47832331
0.039114386 -0.03394518 0.4789131
0.039281011 -0.03349084 0.48020887
0.040200561 -0.032943074 0.48079991
0.040373087 -0.032485239 0.48209947
0.040549487 -0.032025076 0.48340154
0.041472971 -0.03147497 0.48399511
0.041655272 -0.031011298 0.48530099
0.041841507 -0.030545287 0.48660931
0.042031616 -0.030076951 0.48792022
0.042225718 -0.029606272 0.48923361
0.042423695 -0.029133249 0.4905495
0.042625606 -0.028657898 0.49186799
0.042831421 -0.028180212 0.49318895
0.042313695 -0.027778447 0.49523351
0.041803837 -0.027372006 0.4972831
0.042025328 -0.026884973 0.49861413
0.041529208 -0.026470356 0.50067258
0.041040897 -0.026051074 0.50273597
0.040560424 -0.025627118 0.50480449
0.039372087 -0.025269736 0.50760674
0.038909256 -0.024835266 0.50968653
0.038454264 -0.024396129 0.51177144
0.037297338 -0.024020061 0.51459372
0.037567854 -0.023503825 0.51595628
0.037136406 -0.023050673 0.51805633
0.036712795 -0.022592843 0.52016139
0.036999017 -0.022067271 0.52153397
0.037289143 -0.02153936 0.52290916
0.036885142 -0.021069853 0.5250268
0.037185133 -0.020536104 0.52640831
0.037488937 -0.02000002 0.52779227
0.037796736 -0.019461595 0.52917874
0.03879863 -0.018864773 0.52982277
0.039112329 -0.018322848 0.53121305
0.039429933 -0.01777859 0.53260583
0.03975144 -0.017231993 0.53400111
0.040759236 -0.016631667 0.5346489
0.041086584 -0.016081564 0.53604805
0.042096376 -0.015480071 0.53669709
0.043106109 -0.014878578 0.53734612
0.043441385 -0.014323805 0.53875029
0.044453114 -0.013721142 0.53940058
0.045464844 -0.013118479 0.54005086
0.081556112 0.0044744033 0.55017376
0.082546264 0.0050642174 0.55081022
0.085134447 0.0062508602 0.55128515
0.031700373 -0.038452841 0.46931216
0.032610148 -0.037910916 0.46989694
0.033519924 -0.03736899 0.47048169
0.034429669 -0.036827058 0.47106647
0.035339445 -0.036285132 0.47165123
0.035483599 -0.035841323 0.4729324
0.036395311 -0.035298221 0.4735184
0.037307054 -0.034755126 0.47410443
0.037459046 -0.034306638 0.47539061
0.038372725 -0.03376238 0.4759779
0.038530588 -0.033310391 0.47726786
0.039446235 -0.032764964 0.4778564
0.040361881 -0.032219537 0.47844496
0.040527582 -0.031762883 0.47973996
0.040697217 -0.031303886 0.4810375
0.041616797 -0.03075612 0.48162857
0.042536378 -0.030208346 0.48221964
0.042713851 -0.029744685 0.48352218
0.042895257 -0.029278681 0.48482728
0.043080568 -0.028810352 0.48613492
0.043269813 -0.028339684 0.487445
0.043462962 -0.027866669 0.48875767
0.043660074 -0.027391333 0.49007285
0.043861061 -0.02691365 0.4913905
0.043337613 -0.026509568 0.49343106
0.043548435 -0.026026048 0.49475503
0.043038696 -0.025613785 0.49680439
0.042536825 -0.025196854 0.49885878
0.042763323 -0.024703987 0.50019288
0.042275161 -0.024278887 0.5022561
0.041078269 -0.023918025 0.50505221
0.04060775 -0.023482405 0.50712681
0.039432406 -0.023108698 0.50993675
0.039690256 -0.022597153 0.51129103
0.038534492 -0.022211768 0.51411361
0.0373905 -0.021819375 0.51694381
0.03766802 -0.021296144 0.51831061
0.037246525 -0.020831326 0.52041668
0.03753382 -0.020302253 0.52178979
0.037824988 -0.019770848 0.52316546
0.038120091 -0.01923711 0.52454364
0.037724137 -0.018757107 0.5266661
0.038029015 -0.018217528 0.5280506
0.038337857 -0.017675612 0.5294376
0.039339781 -0.017078791 0.53008163
0.039654493 -0.016533367 0.53147238
0.039973199 -0.015985616 0.53286564
0.04029575 -0.015435521 0.53426147
0.041303545 -0.014835194 0.53490925
0.04231137 -0.014234867 0.53555703
0.042641729 -0.013680108 0.53695798
0.043651491 -0.013078611 0.53760695
0.044661254 -0.012477115 0.53825605
0.045671016 -0.011875622 0.53890508
0.046680808 -0.011274129 0.53955412
0.04769057 -0.010672633 0.54020315
0.048700333 -0.010071136 0.54085219
0.049710095 -0.009469647 0.54150122
0.082090884 0.0062394161 0.55042958
0.083081037 0.006829232 0.55106598
0.033101499 -0.0362892 0.47013196
0.034011275 -0.035747275 0.47071671
0.03492105 -0.035205342 0.4713015
0.035830826 -0.034663409 0.47188628
0.035976022 -0.034216106 0.4731679
0.036887765 -0.033673011 0.47375393
0.037799478 -0.033129916 0.47433996
0.037952513 -0.032677941 0.47562665
0.038866222 -0.032133676 0.47621393
0.039779902 -0.031589411 0.47680122
0.040693581 -0.031045146 0.47738853
0.040856421 -0.030587338 0.4786815
0.041772097 -0.030041896 0.47927007
0.042687744 -0.029496469 0.47985861
0.042858422 -0.029033981 0.48115665
0.043776035 -0.028487384 0.48174644
0.043952614 -0.028021388 0.48304826
0.044133097 -0.027553059 0.48435259
0.045054615 -0.027004123 0.48494491
0.045240998 -0.026532292 0.48625302
0.044698149 -0.026134066 0.48828071
0.044894278 -0.025656402 0.48959514
0.04509443 -0.025176391 0.49091208
0.044571131 -0.024766482 0.49295235
0.044781029 -0.02428063 0.4942756
0.044271469 -0.023862548 0.49632469
0.043769747 -0.023439799 0.49837881
0.043275863 -0.02301237 0.50043797
0.042789817 -0.022580273 0.50250226
0.041596115 -0.022208933 0.50529993
0.041127712 -0.02176632 0.50737548
0.040667146 -0.021319037 0.50945604
0.039504766 -0.020929009 0.51227391
0.039061874 -0.020471217 0.51436585
0.03862685 -0.02000875 0.5164628
0.038199633 -0.019541614 0.51856488
0.037780255 -0.019069804 0.52067196
0.038068593 -0.01853724 0.52204561
0.038360834 -0.018002337 0.52342176
0.03865701 -0.017465105 0.52480042
0.038263142 -0.016978113 0.52692389
0.038569093 -0.01643504 0.52830893
0.03956905 -0.015839389 0.52895164
0.039880931 -0.015292805 0.53034043
0.040196717 -0.014743887 0.53173172
0.040516436 -0.014192641 0.53312552
0.041522294 -0.01359348 0.53377199
0.041847885 -0.013038725 0.5351696
0.04285568 -0.012438398 0.53581738
0.043863475 -0.011838071 0.53646517
0.044196874 -0.011278644 0.53786784
0.045206636 -0.010677151 0.53851688
0.046216398 -0.010075659 0.53916591
0.047226161 -0.009474162 0.53981495
0.048235953 -0.0088726655 0.54046404
0.049245685 -0.0082711764 0.54111302
0.050255477 -0.0076696798 0.54176211
0.051925898 -0.0070354603 0.54164743
0.052933723 -0.0064351335 0.54229522
0.080029815 0.0068189409 0.55020517
0.03359288 -0.034667484 0.47036698
0.034502655 -0.034125559 0.47095174
0.035412431 -0.033583619 0.47153652
0.036322176 -0.033041693 0.4721213
0.036468446 -0.032590896 0.47340345
0.037380159 -0.032047801 0.47398946
0.038291901 -0.031504706 0.47457549
0.039203644 -0.03096161 0.47516152
0.040115356 -0.030418515 0.47574756
0.040273398 -0.029960707 0.47703728
0.041938812 -0.029332325 0.47691959
0.042100787 -0.028872173 0.47821185
0.043014467 -0.028327912 0.47879913
0.043928146 -0.027783647 0.47938642
0.044841826 -0.027239386 0.4799737
0.045013577 -0.026773401 0.48127225
0.045189261 -0.026305079 0.4825733
0.04536885 -0.025834426 0.48387688
0.046288431 -0.02528666 0.48446795
0.046473891 -0.024812505 0.48577529
0.046663284 -0.02433601 0.48708519
0.046126455 -0.023928456 0.4891164
0.046325624 -0.023446128 0.49043262
0.045802534 -0.023030389 0.49247259
0.046011508 -0.022542223 0.49379513
0.045502126 -0.022118311 0.49584398
0.045000553 -0.021689739 0.49789786
0.044506818 -0.021256488 0.49995679
0.043304473 -0.020881668 0.50274843
0.042828381 -0.020437911 0.50481868
0.042360187 -0.019989476 0.50689399
0.041189224 -0.019595971 0.50970578
0.040030032 -0.019195452 0.51252508
0.039589226 -0.018730668 0.5146181
0.038451612 -0.018317305 0.51745129
0.038731247 -0.017787084 0.51881915
0.038313985 -0.017308282 0.52092725
0.038603365 -0.016772227 0.52230138
0.03889668 -0.016233834 0.52367806
0.038499027 -0.015743354 0.5257988
0.038802177 -0.015199119 0.52718174
0.03910917 -0.014652552 0.52856725
0.039420128 -0.014103644 0.52995527
0.040422082 -0.013506822 0.53059924
0.04073891 -0.01295441 0.53199106
0.041059703 -0.012399666 0.53338534
0.042065561 -0.011800505 0.53403187
0.042392194 -0.011242256 0.53542995
0.04339999 -0.010641929 0.53607774
0.044407785 -0.010041602 0.53672552
0.04541561 -0.0094412751 0.5373733
0.046423405 -0.0088409483 0.53802109
0.047431201 -0.0082406215 0.53866887
0.048439026 -0.0076402985 0.53931665
0.049446821 -0.0070399716 0.53996444
0.050454617 -0.0064396448 0.54061222
0.051462412 -0.005839318 0.54126
0.052470237 -0.0052389912 0.54190779
0.053478032 -0.0046386681 0.54255557
0.055141509 -0.0040114447 0.54243666
0.056147337 -0.0034122877 0.54308319
0.079573542 0.007996466 0.54982376
0.080565661 0.0085874479 0.55046147
0.034994006 -0.032503836 0.47118679
0.035137415 -0.032051884 0.47246692
0.036049128 -0.031508781 0.47305295
0.03696087 -0.030965693 0.47363898
0.037872612 -0.030422591 0.47422498
0.038784325 -0.029879496 0.47481102
0.039696038 -0.0293364 0.47539705
0.04060778 -0.028793301 0.47598308
0.042272151 -0.02816841 0.47586492
0.042431235 -0.027707107 0.47715515
0.043342978 -0.027164016 0.47774115
0.04425472 -0.026620913 0.47832718
0.045166433 -0.026077822 0.47891322
0.046078146 -0.025534723 0.47949925
0.046249002 -0.025066413 0.48079705
0.046423793 -0.024595767 0.48209733
0.047339439 -0.024050333 0.48268589
0.046785086 -0.023647469 0.48470551
0.046971619 -0.023169816 0.48601338
0.047162056 -0.022689827 0.48732376
0.047356427 -0.022207506 0.4886367
0.046827585 -0.021789454 0.49067271
0.04703179 -0.021301292 0.49199191
0.046516657 -0.020875068 0.49403673
0.046730638 -0.020381065 0.49536222
0.046229243 -0.019946663 0.49741587
0.045018315 -0.019568369 0.50020146
0.044534564 -0.019123459 0.50226641
0.043345183 -0.018732309 0.50506592
0.042879105 -0.018276889 0.50714219
0.041711301 -0.01787289 0.50995553
0.040555298 -0.017461892 0.51277637
0.039411068 -0.017043885 0.51560473
0.038982153 -0.016566269 0.51770508
0.039262831 -0.016032554 0.51907343
0.038847715 -0.015546767 0.52118254
0.039138168 -0.015007207 0.52255714
0.038736731 -0.014513252 0.52467513
0.039036989 -0.013967859 0.52605605
0.039341211 -0.013420125 0.52743953
0.039649248 -0.01287006 0.52882558
0.039961278 -0.012317661 0.53021407
0.040963203 -0.01172084 0.5308581
0.041281104 -0.01116493 0.5322504
0.041602969 -0.010606691 0.53364515
0.042608798 -0.01000753 0.53429174
0.042936504 -0.0094457865 0.53569031
0.043944299 -0.0088454597 0.53633809
0.044952124 -0.0082451329 0.53698587
0.04595992 -0.0076448061 0.53763366
0.046967715 -0.0070444793 0.53828144
0.04797551 -0.0064441562 0.53892922
0.049649715 -0.0058134198 0.53881741
0.050655544 -0.005214259 0.53946388
0.051661402 -0.0046151057 0.54011041
0.05266723 -0.0040159449 0.54075694
0.054331571 -0.0033910535 0.5406388
0.055992037 -0.0027684979 0.54051811
0.056993961 -0.0021716766 0.54116213
0.066175789 0.0003654249 0.53756011
0.076511741 0.0079884827 0.54895556
0.077505827 0.0085806344 0.54959452
0.035629839 -0.030426674 0.47270244
0.036541581 -0.029883578 0.47328848
0.037453294 -0.029340476 0.47387451
0.038365036 -0.028797381 0.47446054
0.040034235 -0.028172478 0.47434565
0.04094401 -0.027630545 0.47493041
0.041853756 -0.02708862 0.47551519
0.042763531 -0.026546687 0.47609994
0.043673307 -0.026004761 0.47668472
0.044583082 -0.025462836 0.47726947
0.045492828 -0.024920911 0.47785425
0.046402603 -0.024378978 0.47843903
0.046570599 -0.023909509 0.47973478
0.047482312 -0.023366414 0.48032081
0.047656178 -0.02289344 0.48162037
0.047833979 -0.022418134 0.48292243
0.048015684 -0.021940492 0.48422703
0.048201323 -0.021460507 0.48553413
0.048390865 -0.020978192 0.48684376
0.048584342 -0.020493539 0.48815593
0.048055679 -0.02006967 0.49019167
0.048258901 -0.019579185 0.49151015
0.048466146 -0.019086353 0.49283111
0.047957033 -0.018650806 0.49487948
0.046737552 -0.018269027 0.497659
0.04696238 -0.01776569 0.49899131
0.045762479 -0.017372238 0.50178343
0.045286715 -0.01691683 0.50385326
0.044108391 -0.016510528 0.50665927
0.042941839 -0.016097214 0.50947279
0.041787028 -0.015676897 0.51229393
0.041348547 -0.0151993 0.51438761
0.040917873 -0.014717031 0.51648641
0.040495038 -0.014230095 0.51859021
0.04008007 -0.013738483 0.52069908
0.04036963 -0.013196597 0.52207303
0.039968371 -0.012696816 0.52419066
0.040267706 -0.012149094 0.52557087
0.040571004 -0.01159904 0.52695358
0.040878236 -0.011046646 0.52833885
0.041189313 -0.010491921 0.52972662
0.041504323 -0.0099348538 0.53111696
0.042506248 -0.0093380287 0.53176093
0.042827189 -0.0087774619 0.53315496
0.04383105 -0.0081794709 0.53380024
0.044834942 -0.0075814798 0.53444552
0.045838833 -0.0069834888 0.5350908
0.046842724 -0.0063854977 0.53573608
0.047846586 -0.0057875067 0.5363813
0.049519718 -0.0051602684 0.53626895
0.050521642 -0.0045634471 0.53691292
0.051523566 -0.0039666258 0.53755695
0.053188831 -0.0033440646 0.53743953
0.054850221 -0.0027238335 0.53731954
0.055848241 -0.0021293443 0.53796107
0.05750367 -0.0015126225 0.53783733
0.06046623 -0.00085608847 0.53617817
0.062109947 -0.00024636276 0.53604692
0.077048659 0.0097604878 0.5492124
0.078042716 0.010352638 0.54985136
0.037945718 -0.027715266 0.47411004
0.03961581 -0.027092695 0.47399589
0.040525615 -0.026550762 0.47458068
0.041435361 -0.026008837 0.47516543
0.043097615 -0.02539093 0.47504625
0.044005424 -0.024850175 0.47562975
0.044913232 -0.024309412 0.47621328
0.045821041 -0.023768656 0.47679678
0.046728849 -0.023227885 0.47738028
0.046893984 -0.022757255 0.47867405
0.04780376 -0.022215329 0.47925881
0.047974735 -0.021741204 0.48055634
0.048886478 -0.021198109 0.48114237
0.049063355 -0.020720471 0.48244369
0.049244165 -0.020240501 0.48374751
0.04942888 -0.019758193 0.4850539
0.049617559 -0.019273549 0.48636276
0.049810112 -0.01878657 0.48767415
0.050006628 -0.018297253 0.48898807
0.049483985 -0.017864063 0.49102736
0.04896915 -0.017426189 0.49307173
0.049181342 -0.016927537 0.4943957
0.048680246 -0.016481491 0.49644887
0.048186988 -0.016030775 0.49850708
0.047701567 -0.01557539 0.5005703
0.046512723 -0.015166776 0.50336897
0.045335561 -0.014751155 0.50617528
0.044877648 -0.014279421 0.50825608
0.043722093 -0.013850944 0.51107621
0.043281794 -0.013368696 0.51316845
0.042849362 -0.012881774 0.5152657
0.042424709 -0.012390181 0.51736802
0.042007893 -0.011893917 0.5194754
0.04090336 -0.011435082 0.52232826
0.041197896 -0.010887371 0.52370518
0.041496336 -0.010337325 0.52508467
0.041108966 -0.0098235402 0.52721089
0.041417241 -0.0092676524 0.52859664
0.041729391 -0.0087094288 0.52998495
0.042045474 -0.0081488676 0.53137577
0.043047398 -0.0075520463 0.53201973
0.044049323 -0.0069552176 0.53266376
0.045051247 -0.0063583963 0.53330779
0.046053171 -0.005761575 0.53395176
0.047055095 -0.0051647536 0.53459573
0.049401253 -0.0045117568 0.53372848
0.050399244 -0.0039172713 0.53436995
0.052065402 -0.0032970328 0.53425336
0.053727657 -0.0026791301 0.53413415
0.055385977 -0.0020635668 0.5340125
0.056378096 -0.0014725793 0.53465021
0.058690906 -0.00083943643 0.5337615
0.060337484 -0.00023087859 0.53363228
0.062636495 0.00039408728 0.53273475
0.064273298 0.00099680945 0.53259921
0.076591462 0.010940341 0.54883027
0.077585548 0.011532491 0.54946923
0.078579634 0.012124643 0.55010819
0.038438141 -0.026090059 0.47434556
0.040107191 -0.025470972 0.47423092
0.041772306 -0.024854235 0.47411376
0.042680115 -0.024313472 0.47469726
0.043587923 -0.023772717 0.47528076
0.044495732 -0.023231953 0.47586429
0.04540354 -0.022691198 0.47644779
0.046311349 -0.022150427 0.47703129
0.047219157 -0.021609664 0.47761482
0.048126966 -0.021068906 0.47819832
0.04829511 -0.020593615 0.47949383
0.049204886 -0.020051686 0.48007861
0.049378902 -0.019572899 0.4813779
0.049556851 -0.019091763 0.48267972
0.050470531 -0.018547498 0.48326701
0.050654352 -0.018062863 0.48457262
0.050842106 -0.017575895 0.48588073
0.051033795 -0.017086584 0.48719138
0.051229358 -0.016594948 0.48850456
0.050706863 -0.016155928 0.49054363
0.050912291 -0.015658449 0.49186307
0.051121593 -0.015158633 0.49318507
0.049902558 -0.01475939 0.49596384
0.050123662 -0.01425256 0.49729341
0.048924208 -0.013841644 0.50008476
0.048446804 -0.013375759 0.5021528
0.047268957 -0.012951992 0.50495809
0.046809196 -0.012475595 0.50703746
0.046357304 -0.011994533 0.50912184
0.045913219 -0.011508796 0.51121134
0.045476973 -0.011018386 0.51330578
0.044350117 -0.010564253 0.5161438
0.043931544 -0.010063332 0.51824963
0.043520749 -0.0095577426 0.52036059
0.043117881 -0.0090474784 0.52247649
0.04341346 -0.0084962714 0.5238539
0.043024302 -0.007977834 0.52597868
0.043329686 -0.0074207839 0.52736241
0.043639004 -0.0068614054 0.52874863
0.043952256 -0.0062996838 0.53013742
0.044950277 -0.0057051945 0.53077888
0.045948267 -0.005110709 0.53142041
0.047623158 -0.0044881273 0.53130955
0.048619211 -0.0038948078 0.53194976
0.05028823 -0.0032757279 0.53183508
0.051953346 -0.0026589837 0.53171802
0.053614557 -0.0020445753 0.53159821
0.055271834 -0.0014325064 0.53147608
0.056925178 -0.00082276762 0.53135133
0.058574617 -0.00021537393 0.53122413
0.060220093 0.00038969144 0.53109431
0.062521011 0.0010100044 0.53019834
0.064814031 0.0016256459 0.52929735
0.066443831 0.0022213683 0.52915752
0.076134294 0.012120195 0.54844809
0.077128381 0.012712345 0.54908705
0.078122437 0.013304496 0.54972601
0.042262614 -0.023236014 0.47434828
0.043922752 -0.022625104 0.47422805
0.044828594 -0.022085506 0.4748103
0.045734465 -0.021545921 0.47539255
0.046640307 -0.02100632 0.4759748
0.047546148 -0.02046673 0.47655705
0.047709465 -0.019991448 0.47784933
0.048617274 -0.019450689 0.47843283
0.048786461 -0.0189719 0.47972888
0.049696237 -0.01842997 0.48031363
0.049871325 -0.017947681 0.48161343
0.050783038 -0.017404586 0.48219946
0.050964028 -0.016918793 0.48350304
0.051148921 -0.016430665 0.48480916
0.052064568 -0.01588523 0.48539773
0.051530451 -0.015447397 0.48742896
0.051727086 -0.014952263 0.48874262
0.051927656 -0.014454791 0.49005881
0.052132159 -0.013954978 0.49137756
0.052340597 -0.013452835 0.49269876
0.051837862 -0.01299632 0.49475017
0.051342964 -0.012535127 0.49680662
0.050855905 -0.012069263 0.49886808
0.050376683 -0.011598725 0.5009346
0.04990533 -0.011123519 0.50300616
0.049441814 -0.010643637 0.50508279
0.048986137 -0.010159085 0.50716442
0.048538297 -0.0096698627 0.50925112
0.048098296 -0.009175973 0.51134288
0.047666132 -0.0086774025 0.51343966
0.047241807 -0.0081741661 0.51554143
0.046825379 -0.0076662563 0.51764828
0.046416759 -0.007153675 0.51976013
0.046015918 -0.0066364221 0.52187711
0.045623034 -0.0061144978 0.52399909
0.045923591 -0.005557457 0.52537954
0.046228081 -0.0049980823 0.52676249
0.046536505 -0.0044363718 0.52814806
0.047528625 -0.0038453881 0.52878582
0.049198568 -0.0032286327 0.52867186
0.05018872 -0.0026388224 0.52930832
0.052526683 -0.0020021424 0.52843654
0.054184854 -0.001392398 0.52831507
0.055839092 -0.00078498945 0.52819109
0.057489455 -0.00017991662 0.52806461
0.059135854 0.00042282045 0.52793556
0.06077832 0.0010232199 0.52780408
0.062416941 0.0016212836 0.52767003
0.06471172 0.0022322722 0.52677053
0.068621606 0.0034273081 0.52572179
0.073160261 0.0046189148 0.52389002
0.078669727 0.0052547995 0.5191204
0.076300055 0.013293114 0.54727912
0.076671183 0.013892198 0.54870486
0.077665269 0.014484348 0.54934382
0.078659356 0.015076498 0.54998279
0.043506145 -0.02154997 0.47387981
0.044412017 -0.021010373 0.47446206
0.045317858 -0.020470787 0.47504431
0.0462237 -0.019931186 0.47562656
0.047129542 -0.019391596 0.47620881
0.047291964 -0.018913986 0.47750032
0.048199773 -0.018373227 0.47808385
0.049107581 -0.017832467 0.47866735
0.049277842 -0.017350184 0.4799639
0.050187618 -0.016808258 0.48054865
0.051097393 -0.016266325 0.48113343
0.051275492 -0.015779376 0.48243499
0.052187204 -0.015236273 0.48302102
0.052371204 -0.01474582 0.48432639
0.052559108 -0.014253028 0.48563427
0.052750945 -0.013757905 0.48694465
0.052946687 -0.013260439 0.48825759
0.053146362 -0.012760641 0.489573
0.053349942 -0.012258505 0.49089098
0.053557456 -0.011754032 0.49221146
0.053054869 -0.011291692 0.49426264
0.053272218 -0.010781378 0.49558941
0.05278334 -0.01031086 0.49764937
0.052302331 -0.0098356679 0.49971437
0.051829159 -0.0093558095 0.50178444
0.052068055 -0.0088326521 0.50312507
0.051608592 -0.0083446149 0.50520396
0.051156998 -0.0078519061 0.50728792
0.050713211 -0.007354524 0.50937688
0.050973713 -0.0068185143 0.51073134
0.050543666 -0.0063129608 0.51282918
0.049429029 -0.0058343466 0.515674
0.049016625 -0.0053182878 0.51778311
0.048612088 -0.0047975425 0.51989728
0.048215389 -0.0042721331 0.52201647
0.048511118 -0.0037151016 0.52339369
0.049493432 -0.0031299554 0.52402508
0.050475746 -0.0025448129 0.52465647
0.051458061 -0.0019596703 0.52528787
0.052440375 -0.0013745315 0.52591932
0.054772317 -0.00074717402 0.52504396
0.056423545 -0.00014443137 0.5249182
0.058070898 0.00045597926 0.52478993
0.059714258 0.0010540523 0.52465916
0.061353713 0.0016497932 0.52452588
0.062989265 0.0022431929 0.52439004
0.064620912 0.0028342623 0.5242517
0.067570776 0.0034488514 0.52258646
0.069190651 0.0040329099 0.52244055
0.070806563 0.0046146344 0.52229214
0.073073775 0.0052034445 0.5213753
0.075986415 0.0057958458 0.5196861
0.080189824 0.0063954201 0.51645243
0.075219929 0.0144799 0.54768378
0.076214015 0.01507205 0.54832274
0.077208102 0.015664201 0.5489617
0.04399541 -0.019935239 0.47411382
0.045651436 -0.019332493 0.47399139
0.04655534 -0.018794065 0.47457239
0.046712935 -0.018316463 0.4758606
0.047618806 -0.017776869 0.47644281
0.048524648 -0.017237276 0.47702506
0.048690081 -0.016755009 0.47831836
0.049597889 -0.01621425 0.47890186
0.050505698 -0.015673487 0.47948539
0.050678968 -0.015186539 0.48078367
0.051588744 -0.01464461 0.48136845
0.051767915 -0.014154162 0.48267055
0.052679628 -0.013611067 0.48325655
0.053591371 -0.013067972 0.48384258
0.05377838 -0.012572851 0.48514971
0.053969294 -0.012075394 0.48645934
0.054164141 -0.011575608 0.48777151
0.054362923 -0.011073478 0.48908621
0.054565609 -0.010569019 0.49040341
0.054772198 -0.01006222 0.49172312
0.054982722 -0.009553086 0.49304539
0.054486185 -0.0090814177 0.49510008
0.054706573 -0.0085664354 0.49642864
0.054930836 -0.0080491267 0.49775967
0.055159003 -0.0075294841 0.49909329
0.054687947 -0.0070426315 0.50116432
0.05422473 -0.0065511093 0.50324047
0.054468602 -0.006022118 0.50458413
0.054019094 -0.0055224206 0.50666904
0.053577453 -0.0050180517 0.50875902
0.05314365 -0.0045090094 0.51085407
0.052717745 -0.0039952882 0.51295412
0.052299619 -0.0034769066 0.51505923
0.05188933 -0.0029538479 0.51716936
0.052172422 -0.0024015009 0.51853824
0.052459419 -0.0018468127 0.51990962
0.054404438 -0.0006882064 0.52115983
0.055376947 -0.00010890514 0.5217849
0.057025164 0.00048918277 0.52165747
0.058669478 0.0010849256 0.52152741
0.060309827 0.0016783383 0.52139485
0.061946303 0.0022694096 0.52125978
0.063578844 0.0028581489 0.52112222
0.065207452 0.0034445506 0.52098203
0.067496032 0.0040403921 0.52007926
0.069776833 0.0046315547 0.51917148
0.071389794 0.0052086134 0.51902127
0.073656827 0.0057916101 0.51810455
0.075916052 0.0063699279 0.51718289
0.07882157 0.0069495048 0.5154897
0.075387508 0.015648166 0.5465163
0.075756848 0.016251903 0.54794061
0.076750934 0.016844055 0.54857957
0.046139628 -0.01772126 0.4742249
0.046296358 -0.017241333 0.47551236
0.0472022 -0.016701739 0.4760946
0.048108041 -0.016162146 0.47667682
0.049013883 -0.015622552 0.4772591
0.049180388 -0.015136788 0.47855288
0.050088197 -0.014596025 0.47913638
0.050996006 -0.014055258 0.47971991
0.051903814 -0.013514498 0.48030341
0.052080095 -0.013022894 0.48160347
0.05298987 -0.012480965 0.48218822
0.053899646 -0.011939039 0.48277301
0.054083794 -0.011442758 0.48407811
0.054995537 -0.010899663 0.48466414
0.055185556 -0.010399885 0.48597303
0.05537951 -0.009897761 0.48728445
0.055577368 -0.0093933102 0.48859838
0.055779129 -0.0088865198 0.48991483
0.055984855 -0.00837739 0.4912338
0.056194484 -0.0078659337 0.49255529
0.057117999 -0.0073158238 0.49314889
0.057333499 -0.0068008602 0.49447417
0.056846917 -0.0063175317 0.49653491
0.057072252 -0.0057967268 0.49786648
0.057301491 -0.0052735843 0.49920055
0.057534665 -0.0047481079 0.50053722
0.057771742 -0.0042202938 0.50187635
0.057316512 -0.0037182737 0.50395727
0.056869149 -0.0032115877 0.5060432
0.056429625 -0.0027002264 0.50813413
0.055997938 -0.0021841973 0.51023018
0.055574089 -0.0016634911 0.51233125
0.055844545 -0.001115825 0.51369184
0.056118876 -0.00056581199 0.51505488
0.05639714 -1.3476238e-05 0.51642054
0.057359844 0.0005599875 0.5170393
0.059961855 0.0017233714 0.51752508
0.061597258 0.0023109466 0.51738954
0.063228697 0.0028961897 0.51725137
0.06418553 0.0034661517 0.51786643
0.065811157 0.0040478893 0.51772451
0.067432791 0.004627293 0.51758015
0.069715381 0.0052138064 0.5166738
0.071327239 0.0057873707 0.51652312
0.07359612 0.0063657053 0.51560795
0.075857133 0.0069393739 0.51468778
0.078110337 0.0075083654 0.51376253
0.081010669 0.0080762897 0.5120666
0.099852741 0.010795156 0.49806911
0.074305594 0.016839607 0.54691947
0.07529968 0.017431756 0.54755843
0.07567203 0.018040158 0.54898453
0.076668084 0.018633477 0.54962474
0.045879751 -0.016166199 0.47516412
0.046785593 -0.015626606 0.47574636
0.047691435 -0.015087012 0.47632861
0.048597276 -0.014547419 0.47691086
0.049503148 -0.014007825 0.47749311
0.050408989 -0.013468236 0.47807533
0.051314831 -0.012928639 0.4786576
0.051486313 -0.01243704 0.47995442
0.052394122 -0.011896281 0.48053792
0.05330193 -0.011355521 0.48112142
0.054209739 -0.010814758 0.48170495
0.054391026 -0.01031732 0.48300803
0.055300772 -0.0097753908 0.48359281
0.055487931 -0.0092744492 0.48489967
0.056399673 -0.008731354 0.4854857
0.056592703 -0.0082269125 0.48679635
0.057506412 -0.0076826476 0.48738366
0.057705343 -0.0071746968 0.4886981
0.057908177 -0.0066644121 0.49001503
0.058114946 -0.0061517879 0.49133453
0.058325648 -0.0056368317 0.49265653
0.059247166 -0.0050878953 0.49324885
0.059463739 -0.0045694355 0.49457464
0.060387254 -0.0040193293 0.49516821
0.059908688 -0.0035255067 0.49723375
0.060136974 -0.0030000377 0.4985671
0.060369283 -0.002472233 0.49990299
0.059910297 -0.0019667316 0.50198114
0.05945915 -0.001456555 0.50406432
0.059707105 -0.00091940723 0.50541019
0.059269696 -0.00040106103 0.5075022
0.058840126 0.00012196042 0.50959927
0.059103787 0.0006684605 0.51095533
0.059371322 0.0012172833 0.51231384
0.060324222 0.0017849058 0.51292634
0.061277121 0.002352532 0.51353884
0.062230021 0.0029201545 0.51415133
0.063858509 0.0035007372 0.5140115
0.065483004 0.0040789843 0.51386905
0.066431999 0.0046442673 0.51447904
0.068050653 0.0052190106 0.51433289
0.069665372 0.0057914145 0.51418424
0.071941912 0.0063686017 0.51327431
0.073546857 0.0069351643 0.51311934
0.075809687 0.0075041763 0.51220071
0.077404797 0.0080649052 0.51203942
0.079653889 0.0086257402 0.51111192
0.082551092 0.0091831777 0.50941437
0.086090505 0.0097337198 0.50694311
0.094670326 0.011339471 0.50177878
0.09879902 0.011851577 0.49849963
0.10290813 0.012352007 0.49520794
0.073221892 0.018035701 0.5473212
0.074217916 0.01862902 0.54796135
0.046369016 -0.014551472 0.47539812
0.047274858 -0.014011879 0.47598037
0.048180699 -0.013472285 0.47656262
0.049086541 -0.012932692 0.47714487
0.049992383 -0.012393102 0.47772712
0.050898254 -0.011853505 0.47830936
0.051804096 -0.011313912 0.47889161
0.052709937 -0.010774318 0.47947386
0.05288443 -0.010278063 0.48077244
0.053792238 -0.0097372998 0.48135597
0.054700047 -0.0091965403 0.48193946
0.055607855 -0.0086557772 0.48252296
0.055792153 -0.0081536751 0.48382783
0.056701928 -0.0076117497 0.48441258
0.056892097 -0.007106144 0.48572123
0.057803839 -0.0065630451 0.48630726
0.058715552 -0.0060199499 0.4868933
0.058913589 -0.0055096783 0.48820698
0.059827268 -0.0049654096 0.48879427
0.060031176 -0.0044516288 0.49011174
0.060239017 -0.0039355103 0.49143171
0.061156631 -0.0033889096 0.49202153
0.061370313 -0.0028692931 0.49334529
0.06158796 -0.0023473371 0.49467158
0.062509477 -0.0017984007 0.4952639
0.062732995 -0.001272941 0.49659395
0.062264413 -0.0007674545 0.49866554
0.062497705 -0.00023615547 0.50000191
0.062734962 0.00029747561 0.50134087
0.06228596 0.00081464462 0.503425
0.062532991 0.0013541188 0.50477022
0.062097698 0.0018794667 0.50686324
0.062354535 0.0024247766 0.50821471
0.063297659 0.0029865615 0.50882089
0.064240754 0.0035483427 0.50942707
0.065183848 0.0041101277 0.51003331
0.066126943 0.0046719126 0.51063949
0.067070037 0.0052336976 0.51124567
0.068685681 0.005803775 0.51109779
0.07029739 0.0063715167 0.51094735
0.071905166 0.0069369208 0.51079434
0.073509037 0.0074999928 0.51063883
0.075108975 0.0080607254 0.51048082
0.077367723 0.008621579 0.50955987
0.078957886 0.0091764759 0.50939554
0.081202865 0.0097291525 0.50846577
0.084096909 0.010276105 0.5067668
0.086979151 0.010816053 0.5050602
0.089196742 0.011352383 0.50411272
0.09490633 0.012399573 0.50066429
0.097743511 0.012912657 0.49892873
0.072136402 0.019236449 0.54772139
0.073134392 0.019830935 0.54836285
0.074132413 0.020425424 0.54900432
0.048669934 -0.011857562 0.47679663
0.049575806 -0.011317972 0.47737888
0.050481647 -0.010778375 0.47796112
0.051387489 -0.010238782 0.47854337
0.05229333 -0.0096991882 0.47912562
0.053199172 -0.0091595948 0.47970787
0.053374738 -0.0086598378 0.48100695
0.055010885 -0.008080408 0.48087236
0.055190355 -0.0075783152 0.48217398
0.056098163 -0.0070375558 0.48275748
0.057005972 -0.0064967964 0.48334098
0.057193279 -0.005990034 0.48464763
0.058103055 -0.0054481048 0.48523238
0.05901283 -0.0049061757 0.48581716
0.059922576 -0.0043642465 0.48640192
0.060119718 -0.003851641 0.48771486
0.061031461 -0.0033085458 0.48830089
0.061234444 -0.0027924366 0.48961759
0.062148154 -0.0022481717 0.49020487
0.063061833 -0.0017039068 0.49079216
0.063272685 -0.0011831298 0.49211392
0.06348744 -0.00066001527 0.49343818
0.06370613 -0.00013456121 0.49476498
0.063928753 0.00039322115 0.49609429
0.064155281 0.00092334114 0.49742612
0.064385712 0.0014558025 0.49876052
0.063929021 0.0019741151 0.50083941
0.064858407 0.0025277287 0.50143677
0.064413518 0.0030530542 0.50352323
0.064661592 0.0035960227 0.50486892
0.065596849 0.0041531362 0.5054701
0.065850854 0.004699612 0.50681961
0.066788077 0.0052578915 0.50742197
0.067725271 0.0058161672 0.50802439
0.069337875 0.0063815825 0.50787473
0.070273161 0.0069386959 0.50847584
0.071208417 0.0074958075 0.50907701
0.072813183 0.0080565494 0.50892222
0.074414015 0.0086149573 0.50876498
0.076010913 0.0091710296 0.50860524
0.078267545 0.009724889 0.50768328
0.080516338 0.010274084 0.50675625
0.082757294 0.010818601 0.50582421
0.084990382 0.011358447 0.5048871
0.087871432 0.011889078 0.50318027
0.090086877 0.012418414 0.50223184
0.092294484 0.012943078 0.50127828
0.094494253 0.013463069 0.50031984
0.097334117 0.013969172 0.49858651
0.099516243 0.014478652 0.49761665
0.070049077 0.019846199 0.54747736
0.071049064 0.020441856 0.54812008
