# .PCD v0.7 - Point Cloud Data file format
VERSION 0.7
FIELDS x y z
SIZE 4 4 4
TYPE F F F
COUNT 1 1 1
WIDTH 1380
HEIGHT 1
VIEWPOINT 0 0 0 1 0 0 0
POINTS 1380
DATA ascii
0.096141823 -0.12299468 0.51033211
0.10146049 -0.12298551 0.51031792
0.048943263 -0.11415373 0.51020372
0.053360712 -0.11325271 0.51011771
0.075054646 -0.11085485 0.51027238
0.084206104 -0.11327407 0.51008153
0.095769666 -0.11780602 0.51026183
0.10202096 -0.1195589 0.51011336
0.076853842 -0.10549182 0.51032901
0.084239736 -0.10327486 0.51024932
0.096106179 -0.10263343 0.51029766
0.10470799 -0.10241952 0.51056772
0.11480384 -0.10126477 0.51033413
0.12614977 -0.10392501 0.51050502
0.13435245 -0.10323112 0.51099092
0.14188266 -0.10126345 0.51091003
0.057688687 -0.095041953 0.51029408
0.064623907 -0.093572453 0.51063633
0.075281143 -0.093502209 0.51048857
0.085405745 -0.094558246 0.51055348
0.094672546 -0.095504433 0.51035202
0.10526388 -0.095147267 0.5108127
0.11505999 -0.094962455 0.5107519
0.1252033 -0.094943494 0.51088506
0.13511169 -0.09496922 0.51081961
0.14496233 -0.094847739 0.51150036
0.15401003 -0.092880674 0.51202601
0.16076864 -0.090764008 0.51174736
-0.011430159 -0.08553829 0.51010543
-0.0099992901 -0.080832034 0.51008421
0.026738936 -0.083580397 0.51032621
0.035293117 -0.084306009 0.5108186
0.044851568 -0.084324017 0.51107955
0.055339653 -0.083753139 0.51054537
0.064852037 -0.084931999 0.51095659
0.07509084 -0.085015759 0.51127034
0.085146643 -0.085132763 0.51141554
0.094979621 -0.084895916 0.51128983
0.1050992 -0.085017204 0.51102763
0.11503683 -0.085050069 0.5119102
0.12492638 -0.084943257 0.51179874
0.13500673 -0.084987521 0.51123142
0.14520004 -0.085040502 0.5118221
0.15504977 -0.085011289 0.51245934
0.16475505 -0.0849372 0.51225871
0.17404315 -0.082784839 0.5132463
0.18111855 -0.080633156 0.51362759
-0.011660933 -0.071982637 0.51032269
-0.006876525 -0.073208801 0.51036763
0.02724495 -0.074930236 0.5108186
0.034870632 -0.075005375 0.51168633
0.044934347 -0.07501971 0.51145488
0.055027016 -0.075115062 0.5110774
0.064943232 -0.075106904 0.51142567
0.075074531 -0.074994139 0.51115096
0.085100882 -0.074978068 0.51183712
0.095040701 -0.075022064 0.51209652
0.105007 -0.075157292 0.51235944
0.11500603 -0.075118914 0.51240164
0.1250449 -0.074919567 0.51209134
0.13497698 -0.074924245 0.51166242
0.14489526 -0.07497026 0.51215392
0.15511833 -0.074996501 0.51240063
0.16517845 -0.074972145 0.51218247
0.1751153 -0.075008363 0.5133059
0.18471853 -0.07447955 0.51388371
0.19365567 -0.072321467 0.51398998
-0.050426587 -0.060132965 0.51000005
-0.044575516 -0.061542973 0.51062548
-0.035177287 -0.061732214 0.51060039
-0.027224228 -0.061209504 0.51040995
-0.014165727 -0.06579677 0.5102061
-0.0055151139 -0.065810904 0.51055682
0.0034983929 -0.06317424 0.51024532
0.01607251 -0.062820934 0.51069373
0.025205052 -0.064675711 0.51113915
0.0347462 -0.065158695 0.51226175
0.044888999 -0.064930029 0.51152188
0.055706743 -0.065421209 0.51052243
0.065078631 -0.065002866 0.51096439
0.07515049 -0.065008149 0.51060951
0.084823124 -0.065036207 0.51172268
0.094966598 -0.064968079 0.51154369
0.10507562 -0.06497559 0.51194167
0.11508979 -0.064984009 0.51286763
0.12510459 -0.065067641 0.51244718
0.13508284 -0.064924188 0.5125246
0.14499302 -0.065019622 0.51250613
0.15496641 -0.064888291 0.51238275
0.16493891 -0.064927302 0.51230359
0.1750056 -0.064983919 0.5136224
0.18502346 -0.065126784 0.51556522
0.19504127 -0.065092914 0.51390743
0.20463018 -0.064458407 0.51409376
0.21358614 -0.061986391 0.51411891
-0.052575871 -0.056550637 0.51010472
-0.044905622 -0.055000052 0.5112285
-0.03494836 -0.054972772 0.51226825
-0.025187029 -0.054791324 0.51166642
-0.016028535 -0.053351484 0.51064247
-0.0054911226 -0.051188823 0.51030433
0.0056263586 -0.054726612 0.51048595
0.015061403 -0.055291507 0.5112496
0.025029397 -0.055145636 0.51176679
0.035243068 -0.055192053 0.51095766
0.045019805 -0.054674149 0.51136112
0.055226263 -0.054600518 0.51104057
0.065018065 -0.054935154 0.51116884
0.074918963 -0.055153936 0.51152593
0.084859245 -0.054957677 0.51259768
0.094976328 -0.055034909 0.5122568
0.10494746 -0.055044994 0.51218992
0.11493028 -0.055053432 0.51376265
0.12513287 -0.055219207 0.51352215
0.13519658 -0.054877877 0.51304227
0.14498669 -0.055005156 0.51372373
0.15500782 -0.0549508 0.51344681
0.16508722 -0.054964233 0.51295292
0.17500192 -0.055082913 0.51384705
0.18499462 -0.054875955 0.51571578
0.19507006 -0.055071622 0.51494247
0.20504013 -0.055048984 0.51484388
0.21505833 -0.055098474 0.5152781
0.22432998 -0.05388641 0.51551944
0.23274605 -0.051522326 0.51533365
-0.093805432 -0.04178334 0.51024258
-0.085793547 -0.042191003 0.51028883
-0.07452964 -0.042496536 0.5101825
-0.064503908 -0.042556133 0.51049829
-0.054568861 -0.043107953 0.5104171
-0.044662241 -0.044885822 0.5110231
-0.035068356 -0.044913512 0.51245308
-0.025222605 -0.044910818 0.5128839
-0.014983047 -0.044930246 0.5117718
-0.0050165891 -0.044974003 0.51188147
0.0049883323 -0.044919837 0.51186514
0.01509337 -0.044985231 0.51084071
0.02498199 -0.04507583 0.51131094
0.035149157 -0.045011591 0.51122993
0.045047794 -0.044950634 0.51146865
0.054932825 -0.045014735 0.51229918
0.064975999 -0.044927489 0.51247132
0.075130813 -0.04520091 0.51266718
0.084982969 -0.045021508 0.51378191
0.094971858 -0.045008209 0.51329273
0.10503819 -0.045036685 0.5124042
0.11486164 -0.045058344 0.51343566
0.12491747 -0.044994175 0.51355487
0.13497914 -0.045077734 0.51329231
0.14502908 -0.044965651 0.51408905
0.15507606 -0.04505875 0.5147481
0.16499375 -0.044872668 0.5137468
0.17497337 -0.045086656 0.51333326
0.18496817 -0.044866156 0.51439321
0.19501157 -0.044860408 0.51547676
0.204934 -0.04510311 0.51514393
0.21498728 -0.044872887 0.51522619
0.22514436 -0.045054857 0.51604444
0.23507947 -0.044924233 0.51509988
0.24444574 -0.043779109 0.51541317
0.25245366 -0.041489009 0.51478392
-0.2372684 -0.033222981 0.51010203
-0.0922627 -0.037716694 0.51011294
-0.084822088 -0.034793872 0.51032376
-0.074498221 -0.0346223 0.51049364
-0.0651417 -0.035185333 0.5111239
-0.055051073 -0.034943748 0.51132613
-0.044856884 -0.035041727 0.51138365
-0.034857821 -0.035110388 0.51241189
-0.02498523 -0.034973603 0.51343709
-0.014799809 -0.03505468 0.51259136
-0.0050884928 -0.034962181 0.51255453
0.0048386892 -0.034927282 0.51325041
0.015052592 -0.035086978 0.51214683
0.024961336 -0.035210736 0.51189345
0.034992494 -0.035043091 0.51340312
0.0450087 -0.034936681 0.51261276
0.055044726 -0.035090473 0.51155388
0.064954013 -0.034844045 0.51219225
0.074808866 -0.034995787 0.51338166
0.084996819 -0.034999304 0.5137096
0.095058888 -0.034974717 0.51341718
0.10520624 -0.034908976 0.51329094
0.11508501 -0.035094045 0.51472509
0.12511797 -0.035090256 0.51469821
0.13504064 -0.035044331 0.51408005
0.14498416 -0.034994591 0.51393908
0.15488331 -0.034933619 0.51467407
0.16487932 -0.034798265 0.51531142
0.17489605 -0.034980711 0.51479453
0.18497239 -0.034988172 0.51533777
0.1949299 -0.035072062 0.51655197
0.20506589 -0.035019934 0.51521677
0.21499597 -0.035027098 0.51552153
0.22499177 -0.034952559 0.51518905
0.23502302 -0.034966186 0.51472938
0.24500313 -0.035034597 0.51569247
0.25488046 -0.034870308 0.51537633
0.26417246 -0.032994557 0.51527709
0.27235273 -0.03079525 0.5163523
-0.19115078 -0.023040405 0.51022851
-0.18519628 -0.023524625 0.51073259
-0.17721717 -0.022520365 0.51062489
-0.13371988 -0.022181757 0.51070219
-0.12473773 -0.024349039 0.51060808
-0.11579401 -0.023683907 0.51032937
-0.10154666 -0.024411708 0.51004982
-0.092997529 -0.023596348 0.51020497
-0.084825866 -0.02507554 0.51085204
-0.075198345 -0.024734991 0.5116123
-0.065126576 -0.025232509 0.51239794
-0.054853614 -0.025011277 0.51252329
-0.045066185 -0.025286933 0.51223087
-0.035279408 -0.024964547 0.51259106
-0.025235778 -0.024942772 0.51223844
-0.014958899 -0.0249987 0.51176912
-0.0048504528 -0.024970643 0.51195335
0.0050921636 -0.024977503 0.5132224
0.015006747 -0.025069227 0.51336789
0.025165349 -0.025081899 0.51242191
0.035040058 -0.025016125 0.51308393
0.044937823 -0.024781894 0.51317465
0.054997902 -0.02497584 0.51163667
0.064908005 -0.025062982 0.51164073
0.07493984 -0.024863509 0.51320726
0.084879115 -0.024990255 0.51465565
0.094938867 -0.024979182 0.51413345
0.10510974 -0.024988366 0.51295668
0.115142 -0.02494402 0.51438814
0.12514812 -0.02493782 0.51514608
0.13509469 -0.02508715 0.5149225
0.1449413 -0.024997996 0.51497656
0.1550152 -0.024966108 0.51492989
0.1649598 -0.025005184 0.51715899
0.17494661 -0.024960978 0.51645428
0.1849563 -0.025094029 0.51602513
0.19497165 -0.024912279 0.51678491
0.2050315 -0.024950391 0.51506025
0.21500893 -0.025138522 0.51550263
0.22503008 -0.025005735 0.51579374
0.23501055 -0.024897238 0.51582623
0.24498279 -0.025055181 0.51620746
0.25498149 -0.025012324 0.5167349
0.26501617 -0.025016868 0.51619637
0.27491024 -0.024936197 0.51651651
0.28407875 -0.02310871 0.5176751
0.2912797 -0.020952309 0.51742882
-0.19184107 -0.014452343 0.51044279
-0.18509878 -0.014844988 0.51100975
-0.17537998 -0.014786664 0.51104444
-0.16574895 -0.013254827 0.5103091
-0.1545267 -0.013028425 0.5102151
-0.14398895 -0.014728414 0.5104093
-0.13501796 -0.014868905 0.51123029
-0.12488701 -0.014995622 0.51140326
-0.11519574 -0.015031331 0.51078838
-0.10471207 -0.013991223 0.51052773
-0.094878517 -0.014414303 0.51072168
-0.08501181 -0.014896035 0.51112705
-0.074902058 -0.014965056 0.51148319
-0.064934544 -0.01507586 0.51261818
-0.054996144 -0.014990354 0.51364726
-0.044759899 -0.01498668 0.51312083
-0.035022933 -0.015137629 0.51232654
-0.02504687 -0.015024573 0.51149297
-0.014896523 -0.015059945 0.51127309
-0.00489238 -0.015044803 0.51214129
0.0050583459 -0.015204533 0.51343977
0.014990227 -0.014985845 0.51429814
0.025100414 -0.015208653 0.51352447
0.035045952 -0.014932586 0.51360071
0.045034282 -0.014811997 0.51435137
0.054985546 -0.015039215 0.51313674
0.065104261 -0.01494375 0.51212037
0.074985281 -0.014925632 0.51338845
0.085026674 -0.014964 0.51446241
0.094983295 -0.014937998 0.51500916
0.10508114 -0.015143528 0.51357526
0.11505637 -0.015032564 0.51392317
0.12502696 -0.01490469 0.51438177
0.13495275 -0.01505396 0.51509541
0.14512816 -0.015015909 0.51588756
0.15513116 -0.015076863 0.51594108
0.16503748 -0.01498268 0.51703298
0.17507102 -0.014958869 0.51616442
0.18505256 -0.014969223 0.51553071
0.19518498 -0.015094046 0.5167532
0.20511758 -0.015007699 0.51645368
0.21502498 -0.01489864 0.51641119
0.2250617 -0.015089531 0.51592267
0.23498093 -0.01495803 0.51736957
0.2450196 -0.015045112 0.51701021
0.25502464 -0.014974966 0.51665336
0.26511723 -0.014929426 0.51625437
0.27495053 -0.015020735 0.51652217
0.28505558 -0.01498243 0.51770115
0.2947191 -0.014626062 0.51806802
0.30415207 -0.012407047 0.51839095
0.31135911 -0.010718843 0.51816881
-0.28286049 -0.0021324754 0.51011759
-0.23250671 -0.0010035262 0.51014405
-0.22518237 -0.0014977045 0.51025099
-0.21488607 -0.0013424896 0.51030874
-0.20456614 -0.0018250383 0.51021439
-0.19426841 -0.004146162 0.51042569
-0.18531606 -0.0052690143 0.51080048
-0.17604874 -0.0059144218 0.51059264
-0.16505563 -0.0077163652 0.51021332
-0.15575385 -0.0076168492 0.51018393
-0.1443325 -0.0076184031 0.51027453
-0.13508293 -0.0051443535 0.51106924
-0.12516062 -0.0049450109 0.51191604
-0.11497488 -0.0048888535 0.51123786
-0.10492117 -0.0050541037 0.51112437
-0.094863944 -0.0049281148 0.5112986
-0.08495529 -0.0050139898 0.51186615
-0.074855216 -0.005079037 0.51289755
-0.065061711 -0.0052780444 0.51410782
-0.055291604 -0.0052310443 0.5150823
-0.045153543 -0.004860953 0.51484311
-0.035089154 -0.0052080238 0.51332301
-0.02483193 -0.0051026186 0.51131463
-0.015065176 -0.0049708574 0.51095086
-0.0051438627 -0.0049021309 0.51248288
0.0048561911 -0.004991577 0.51431739
0.015073674 -0.0048543434 0.51420736
0.025131729 -0.0049864636 0.51335555
0.034872655 -0.0050129145 0.51385063
0.044959102 -0.0048905867 0.51462698
0.055006869 -0.0049366872 0.51407617
0.065083995 -0.005011423 0.5134486
0.075013861 -0.004948311 0.51464337
0.085212417 -0.004997313 0.51503748
0.095050976 -0.005070257 0.51527274
0.10515091 -0.0049799439 0.51425183
0.11494122 -0.0050102309 0.51507425
0.12485086 -0.0049354346 0.51579028
0.13498871 -0.0050238976 0.51666075
0.1448493 -0.005075397 0.51645267
0.15493959 -0.0049064104 0.51596189
0.16501316 -0.0049204072 0.5168671
0.17502606 -0.0049091158 0.51677006
0.18494239 -0.0050387857 0.51662964
0.19486733 -0.0050676577 0.51691365
0.20496209 -0.0049233446 0.51745969
0.2149483 -0.0049813329 0.51741081
0.2249833 -0.0050345543 0.5165714
0.2351003 -0.0049035805 0.51687235
0.24499339 -0.0050150696 0.51690006
0.25506225 -0.0050507821 0.51724625
0.26494119 -0.0050353468 0.51792371
0.27504742 -0.0050107273 0.51780486
0.28499198 -0.0049340418 0.51815206
0.29504195 -0.0049462174 0.5183816
0.30490544 -0.0050598574 0.51805252
0.31096298 -0.0070271608 0.51789266
-0.33023304 0.009451326 0.51173317
-0.32446122 0.0062470329 0.51123899
-0.31593862 0.0071939277 0.51055235
-0.30394644 0.0078331325 0.51015568
-0.29419604 0.0070211878 0.51051807
-0.28446469 0.0055795242 0.51059151
-0.27509809 0.0056446968 0.51076412
-0.26518881 0.005460212 0.51050466
-0.25519922 0.0060342872 0.51086092
-0.24477118 0.0056822011 0.51093811
-0.23490758 0.0048252922 0.51122344
-0.22496559 0.0048290202 0.51134211
-0.21499369 0.0049424632 0.51097572
-0.2047047 0.0051294356 0.51054853
-0.19480538 0.0050330423 0.51066113
-0.18524985 0.0051166052 0.51086175
-0.17529234 0.0067924899 0.51048011
-0.16417566 0.0071625873 0.51064909
-0.15562519 0.0068270876 0.51060516
-0.14443074 0.0080855563 0.51026708
-0.1346505 0.0048408485 0.51104397
-0.1251037 0.0049398812 0.51214695
-0.11488047 0.0046728123 0.51149917
-0.10495736 0.0052528013 0.51113898
-0.094845504 0.0048430213 0.51134294
-0.084855296 0.0049104448 0.51207834
-0.075122736 0.0048622815 0.51324975
-0.065144576 0.0049208808 0.51404417
-0.054772001 0.0051007648 0.51380879
-0.044885401 0.0050435374 0.51381654
-0.034905229 0.0052804081 0.51346964
-0.024662767 0.0049949796 0.51217461
-0.014932144 0.0050528864 0.51139879
-0.0049856082 0.0049483348 0.51233423
0.0049556354 0.0051319147 0.51460731
0.015186751 0.004998364 0.51504767
0.025077991 0.0049413941 0.51465613
0.034823958 0.0049681873 0.51523346
0.044983521 0.0050784312 0.51539063
0.05515141 0.0051379129 0.51555032
0.065050468 0.0050212992 0.51611948
0.074993692 0.0050135893 0.51666963
0.085009269 0.0050996067 0.51655859
0.095109448 0.004986654 0.51588565
0.10495411 0.0049531516 0.51548612
0.11486525 0.0048531792 0.51594716
0.1249739 0.0051217736 0.51610863
0.13490908 0.0050534662 0.51718885
0.14508721 0.0051285638 0.51654804
0.15504575 0.0048812465 0.51562572
0.16509648 0.0049670092 0.51633638
0.17513357 0.0050331401 0.51809436
0.18512923 0.0048273248 0.51806527
0.19506028 0.0049372525 0.51731282
0.205 0.0051517598 0.51709831
0.21502669 0.0050310702 0.51702905
0.22500882 0.0049869977 0.51617074
0.23498695 0.0049948744 0.51685119
0.24506876 0.0048748073 0.51712084
0.25498661 0.0048777093 0.51815796
0.26483905 0.0049173916 0.51949072
0.27501285 0.0050534266 0.51872021
0.28511554 0.0051721516 0.51894677
0.295039 0.0049275942 0.518987
0.30426139 0.0046031498 0.51797307
-0.33248425 0.016459713 0.51058161
-0.32505336 0.014999354 0.51127088
-0.31456769 0.015168773 0.51120794
-0.30472353 0.015166943 0.51087618
-0.29531026 0.014977766 0.51140231
-0.285445 0.015174228 0.51179957
-0.27532756 0.015351921 0.51101905
-0.26563245 0.014200577 0.51026791
-0.2543093 0.014168987 0.51050663
-0.2446783 0.014671011 0.5108512
-0.23479573 0.014745692 0.51103032
-0.22474276 0.014299097 0.51109433
-0.21484247 0.014244561 0.51072723
-0.20479143 0.013758469 0.51037145
-0.19503552 0.014456009 0.51066512
-0.18520184 0.01516211 0.51135409
-0.17481196 0.015368144 0.5113551
-0.16511783 0.015121788 0.51205474
-0.15514834 0.01526513 0.5120796
-0.14502689 0.015125323 0.51107806
-0.13496667 0.014887547 0.51177675
-0.12518004 0.014992373 0.51331782
-0.11498216 0.015128074 0.51242602
-0.10505922 0.014873204 0.51097077
-0.095064752 0.01492801 0.51132274
-0.085017227 0.015112448 0.51300555
-0.07493189 0.015014759 0.51419789
-0.065019771 0.015277111 0.51422691
-0.055104252 0.015168936 0.51358247
-0.044977561 0.015229347 0.51334608
-0.035008807 0.015149442 0.5137338
-0.025065606 0.015005689 0.51383388
-0.015010914 0.015033365 0.51381969
-0.004831648 0.015068646 0.51370752
0.0050850008 0.015083218 0.51406658
0.015093792 0.015076585 0.51439512
0.024952332 0.01509289 0.51498389
0.035054892 0.015046859 0.51494336
0.045154545 0.015241727 0.51524818
0.054998975 0.015167096 0.51619899
0.064898379 0.015122446 0.5172205
0.074932992 0.015124771 0.51746851
0.084892258 0.015121121 0.51752901
0.095088094 0.0149922 0.51706141
0.10508844 0.015007271 0.51727587
0.11507971 0.01505814 0.51689643
0.12508276 0.015105084 0.51684636
0.13516529 0.015130723 0.51686555
0.14500213 0.015165564 0.51795363
0.15508039 0.014983885 0.51641178
0.16503872 0.015035372 0.51600808
0.1750569 0.015036722 0.51684082
0.18506154 0.015013905 0.51722652
0.19505161 0.01512785 0.51773822
0.20507401 0.015071653 0.51746655
0.21507774 0.015206985 0.51689547
0.22504571 0.014917511 0.51715618
0.23503014 0.014993993 0.51770973
0.24495615 0.015036204 0.51719868
0.25493833 0.014953362 0.51895112
0.26514149 0.015019961 0.51907301
0.2750428 0.015099993 0.51838356
0.28507173 0.015165778 0.5189684
0.29504338 0.015147163 0.5189302
0.3022874 0.014087221 0.51871109
-0.33487472 0.025767943 0.5107218
-0.32558778 0.024535483 0.5104236
-0.31436822 0.024407811 0.51068985
-0.30475715 0.025084969 0.51121914
-0.29510969 0.024967749 0.5116238
-0.28538498 0.024951501 0.51150376
-0.27495942 0.025349976 0.51095736
-0.26510507 0.025926299 0.51091582
-0.25502235 0.025565518 0.51120609
-0.24496228 0.025441298 0.51092148
-0.2353743 0.02573425 0.51040137
-0.22737978 0.029069357 0.51041669
-0.2119506 0.025719015 0.51013565
-0.20465682 0.026173811 0.51043314
-0.19451879 0.025741266 0.51059818
-0.18503512 0.025062373 0.51127613
-0.17477195 0.024877831 0.51128149
-0.16484538 0.025061168 0.51149017
-0.15492226 0.025123283 0.51225394
-0.14457831 0.025283715 0.5120365
-0.13470933 0.025339222 0.51246035
-0.12497648 0.025245219 0.51361775
-0.11517081 0.025045253 0.51363832
-0.10479607 0.025170323 0.5123412
-0.094830282 0.024676722 0.51225287
-0.084949248 0.024992662 0.51293308
-0.075142704 0.025123885 0.51357377
-0.065235779 0.024875961 0.51406896
-0.054975998 0.024978405 0.51395208
-0.044698853 0.025317278 0.5138523
-0.035019234 0.025177049 0.51500648
-0.024900364 0.025053024 0.51536947
-0.015018367 0.025059801 0.51551145
-0.0051360033 0.025295869 0.51562577
0.0049529029 0.024934281 0.51497293
0.01499607 0.025122838 0.51510084
0.02503835 0.024884691 0.51629919
0.035054483 0.025114937 0.51665086
0.044974949 0.025327239 0.51608735
0.054987591 0.025097718 0.51605624
0.064918399 0.02496684 0.51702684
0.074876443 0.02517396 0.51692611
0.084891565 0.025081445 0.5164997
0.095028266 0.025040494 0.51632112
0.10487136 0.02497286 0.51672924
0.11508069 0.025059519 0.51680887
0.12496211 0.025142828 0.51718807
0.13487498 0.025218125 0.51697743
0.14486396 0.025036499 0.51859164
0.15505356 0.025022862 0.51833302
0.16503082 0.025033491 0.51764446
0.17493129 0.025076281 0.51674926
0.18487716 0.024972005 0.51684189
0.1950559 0.025022669 0.51743674
0.20497292 0.025156947 0.51904517
0.21499483 0.025041552 0.51880443
0.22499596 0.025100939 0.5178889
0.2350022 0.025032321 0.51723003
0.24500725 0.025018863 0.51809525
0.25502065 0.024972325 0.51926941
0.2650812 0.025030542 0.51929277
0.27494428 0.025061745 0.51887691
0.28447017 0.024768393 0.5193646
0.29538959 0.024023173 0.51918602
0.30073252 0.022115508 0.51841187
-0.34055507 0.031103062 0.51011539
-0.33431333 0.034253858 0.51045877
-0.32587302 0.035825819 0.51039165
-0.31453872 0.037287731 0.5102371
-0.30424592 0.034354348 0.51058686
-0.29544416 0.035024375 0.51120824
-0.28538957 0.034735426 0.51113313
-0.27526507 0.034895279 0.51084071
-0.26526532 0.035251155 0.51208174
-0.25500253 0.035330538 0.51288509
-0.24473003 0.035121161 0.51229298
-0.23490432 0.034944162 0.51116979
-0.225327 0.035848234 0.51045084
-0.21392369 0.035665371 0.51043218
-0.20526326 0.034958005 0.5115062
-0.19526276 0.035205346 0.51203716
-0.1850417 0.034886729 0.51240402
-0.17494428 0.035028849 0.51215243
-0.16476689 0.034824125 0.51192677
-0.1549567 0.034682542 0.51276267
-0.14523536 0.035410874 0.51316929
-0.1350648 0.03507366 0.51300097
-0.12512003 0.034966968 0.51463979
-0.11507335 0.035103831 0.51621467
-0.10464045 0.034901641 0.51521754
-0.094830081 0.034809928 0.5145607
-0.084963068 0.035033252 0.51448685
-0.074874975 0.034968596 0.51408857
-0.064878672 0.034911271 0.51412898
-0.055021327 0.034706425 0.51402211
-0.045007739 0.035018031 0.51331913
-0.035062429 0.035208829 0.51368433
-0.025116023 0.035163797 0.51433867
-0.015077027 0.034930903 0.51458085
-0.0052176337 0.034907531 0.51518399
0.0051164939 0.035022825 0.51499659
0.015015624 0.035061847 0.51622689
0.024889098 0.034796473 0.51758236
0.03480728 0.034971096 0.51738721
0.045070801 0.035134289 0.51694405
0.055162355 0.035155311 0.51673573
0.065073982 0.035061121 0.51695502
0.074933894 0.034984522 0.51692319
0.08498586 0.034941394 0.51667964
0.09498255 0.034975938 0.51763576
0.10501148 0.034942526 0.51750553
0.11501324 0.034931935 0.5179261
0.12501085 0.034965031 0.51833326
0.13488947 0.035191249 0.51835096
0.14498885 0.034980506 0.51858634
0.15512726 0.03500843 0.5186134
0.16503568 0.034929939 0.51804692
0.17497289 0.035042871 0.5180378
0.18494481 0.034943596 0.51847112
0.19497095 0.034887385 0.51819247
0.20453665 0.034843303 0.51935607
0.21518087 0.034816038 0.51962674
0.22508933 0.034472831 0.51926607
0.23458083 0.033019803 0.51870853
0.24540462 0.034361787 0.5193345
0.25439838 0.034878246 0.51963556
0.26415133 0.032207534 0.51970118
0.27514556 0.032321099 0.51959699
0.2830711 0.03157907 0.51969045
0.29721636 0.030454241 0.51993454
-0.35228893 0.048298217 0.51093942
-0.34556237 0.046652295 0.51076412
-0.33489537 0.045202382 0.51117861
-0.32519227 0.045065358 0.5117048
-0.3149257 0.044935055 0.51127386
-0.30466384 0.045168389 0.51103395
-0.29497454 0.044811908 0.51136374
-0.28502765 0.045155924 0.51136559
-0.27515635 0.044768691 0.51101434
-0.2650502 0.044851892 0.51145434
-0.25495678 0.04523987 0.51198298
-0.24509886 0.045019757 0.51214707
-0.2352706 0.045130953 0.5122028
-0.22503129 0.044930629 0.51174146
-0.21487968 0.044856075 0.51173872
-0.20501544 0.045019135 0.5124473
-0.19492158 0.045018133 0.51270717
-0.18505198 0.044894636 0.51295877
-0.17507724 0.045276351 0.51370531
-0.16482309 0.044682745 0.51441306
-0.15517958 0.044937093 0.5155009
-0.14494014 0.045095652 0.51514453
-0.13467458 0.045103122 0.51401782
-0.12477224 0.044954091 0.51464391
-0.11502966 0.044852231 0.51627827
-0.1050264 0.044990294 0.51657885
-0.095107988 0.045080572 0.51577026
-0.085102275 0.045048546 0.5154559
-0.074947104 0.044879302 0.51519811
-0.064888425 0.045090362 0.51508927
-0.054842468 0.044855405 0.51488262
-0.044846658 0.044838812 0.51434624
-0.034897402 0.045180742 0.51461178
-0.024991354 0.045126587 0.51560295
-0.014953101 0.044851817 0.51610953
-0.0048105805 0.044942662 0.51558018
0.0051279925 0.045145977 0.51513988
0.01487702 0.044948984 0.51648974
0.024809254 0.044944618 0.51799262
0.034906667 0.044983551 0.51820034
0.044931684 0.04491562 0.51744765
0.055221427 0.045024216 0.51657212
0.065119356 0.045123342 0.51639122
0.075102903 0.044952687 0.51626229
0.085156746 0.04502093 0.51693541
0.095009506 0.045009267 0.51747561
0.10494192 0.044986933 0.51799107
0.11483683 0.045092016 0.51841819
0.1249988 0.044886012 0.51786768
0.13514794 0.045078702 0.51858687
0.14520216 0.045112293 0.51849264
0.15513051 0.044921298 0.5179013
0.16516668 0.044946227 0.51810318
0.17517051 0.045066942 0.5184896
0.18490845 0.04493342 0.51941812
0.19507463 0.044919398 0.51918697
0.20422319 0.044886522 0.51937258
0.21537775 0.044051684 0.51977676
0.22372563 0.043730404 0.51980114
0.23390707 0.047929935 0.51992559
0.24560831 0.045699816 0.51915199
0.25418404 0.045346826 0.51937371
0.2619189 0.0474131 0.51980597
-0.36119285 0.058181997 0.51257581
-0.35431236 0.055422734 0.51205039
-0.34481347 0.055183586 0.51238793
-0.33498707 0.054689586 0.51212734
-0.32512769 0.054598466 0.51161224
-0.31614348 0.053644687 0.51110089
-0.30515966 0.053462505 0.51066083
-0.29461643 0.054754853 0.51104265
-0.28499061 0.055211324 0.5114305
-0.27501729 0.055073474 0.51182538
-0.26529598 0.054688137 0.51196945
-0.25508052 0.055110056 0.51158017
-0.24480708 0.055001784 0.51180857
-0.23499613 0.054778695 0.51288337
-0.22496602 0.054856483 0.5130946
-0.21501043 0.055224873 0.51251787
-0.20526043 0.054816801 0.5126856
-0.19510779 0.055007521 0.51323247
-0.18491101 0.05504429 0.51366138
-0.17484641 0.054896384 0.51419985
-0.16479565 0.055149179 0.51463622
-0.15499133 0.054911621 0.51534212
-0.14518316 0.054945234 0.51521254
-0.13502482 0.055202894 0.51441705
-0.12506324 0.054954749 0.51424807
-0.11493739 0.054775134 0.51506877
-0.10523102 0.055147015 0.5167619
-0.095007949 0.055040333 0.5170067
-0.084787183 0.054961774 0.51592892
-0.074958175 0.054924458 0.51526123
-0.06485182 0.054907475 0.51504028
-0.054844394 0.055251744 0.51485449
-0.045004379 0.054766167 0.51462787
-0.034834202 0.055070415 0.51498479
-0.02506955 0.055158775 0.51682973
-0.015130312 0.054848451 0.51805037
-0.0049623866 0.055171352 0.51742846
0.004976898 0.055085577 0.51703048
0.014982784 0.054975007 0.51758361
0.025003945 0.05489989 0.51826042
0.035161361 0.054889292 0.51880276
0.045174722 0.055099893 0.51810461
0.055140078 0.054912601 0.51716971
0.064974248 0.055220276 0.51754171
0.074969053 0.054802503 0.51769507
0.084990457 0.055126507 0.51795369
0.095069885 0.054775853 0.51780719
0.10507435 0.054994073 0.51815981
0.11503981 0.055053674 0.51826155
0.12518603 0.055003114 0.51781613
0.13488764 0.054939855 0.51908022
0.14499258 0.055064786 0.51896036
0.15492956 0.054850016 0.5190894
0.16479418 0.052999381 0.51936686
0.17434123 0.051867284 0.51950687
0.18433584 0.051497959 0.519741
0.19587076 0.054337561 0.51967019
0.20424505 0.053564385 0.51970106
0.21560118 0.055100624 0.51970011
0.22239713 0.055814277 0.51972312
0.23754072 0.055469874 0.51965171
0.2450242 0.054991532 0.51874125
0.25482127 0.054909926 0.51905328
0.26360056 0.055621654 0.51954919
0.27047431 0.059337031 0.51983893
0.28987032 0.052724831 0.51994586
-0.37015212 0.068598509 0.51552284
-0.36405572 0.065415993 0.51508927
-0.35486507 0.064844511 0.51473588
-0.34501952 0.064803116 0.51382858
-0.3349379 0.065020271 0.51246411
-0.32614273 0.065249011 0.5108577
-0.2921921 0.06067365 0.5104773
-0.2838687 0.062086117 0.51066422
-0.27414215 0.064132273 0.51144332
-0.2652486 0.065005876 0.51280779
-0.25491697 0.06539838 0.51255095
-0.24467367 0.064825036 0.51178908
-0.23486693 0.064816028 0.51284182
-0.22515562 0.065226085 0.51336873
-0.21500932 0.064822756 0.51303399
-0.20479567 0.065123588 0.51279002
-0.19510323 0.065044649 0.51363349
-0.18513255 0.065081999 0.51467204
-0.17497388 0.065065436 0.51503432
-0.1647684 0.064824052 0.51505023
-0.15488994 0.06511195 0.51563239
-0.14512351 0.064730413 0.51606184
-0.13488078 0.065221213 0.51550323
-0.12500119 0.064960822 0.51498997
-0.11492772 0.064836092 0.51489627
-0.10501369 0.065184288 0.5157876
-0.095096484 0.064850584 0.51671541
-0.085061133 0.065065756 0.51637524
-0.074947096 0.064922772 0.51598781
-0.064952306 0.06501811 0.51576132
-0.055052541 0.064950459 0.51580459
-0.044902913 0.064941555 0.51564813
-0.035001084 0.06493219 0.51605153
-0.025211753 0.065015502 0.5171513
-0.014897918 0.064912505 0.51738006
-0.0047909133 0.065195858 0.51760036
0.0050392649 0.064926617 0.5181269
0.014964581 0.064945236 0.5180428
0.024984058 0.065039426 0.51858175
0.03484166 0.064902954 0.51877838
0.045279145 0.065088168 0.51776147
0.055019636 0.064921163 0.51832414
0.06510178 0.065041266 0.51875025
0.075125337 0.064893857 0.51884472
0.085079722 0.065082192 0.51873839
0.095175959 0.064934917 0.5185892
0.10502768 0.064973928 0.51813358
0.11501999 0.064925142 0.51780498
0.12492692 0.065039076 0.51808196
0.13489936 0.064976819 0.51909846
0.14497063 0.064754017 0.51939934
0.15494278 0.065016255 0.51949793
0.16164836 0.067404553 0.51966715
0.19673324 0.063938342 0.51983058
0.20465383 0.065176815 0.51979345
0.21719353 0.063349448 0.51980615
0.22534484 0.06465055 0.51969099
0.23654477 0.062792212 0.51985979
0.24526364 0.063343115 0.51951969
0.25358462 0.061781324 0.51971072
0.26543942 0.061661284 0.51971298
0.27077535 0.06136293 0.51986456
-0.3724502 0.075104892 0.51464266
-0.36538801 0.075301625 0.51511759
-0.35500148 0.075018756 0.51502579
-0.34467515 0.074956335 0.5141505
-0.3350735 0.075240895 0.51323438
-0.32475775 0.075510412 0.51195806
-0.31494027 0.07607723 0.51150244
-0.30520985 0.076133817 0.51122624
-0.2954399 0.077182449 0.51107889
-0.28577676 0.077918932 0.5106619
-0.27322096 0.076144382 0.51047057
-0.26510087 0.07483606 0.51202071
-0.2552996 0.075209931 0.51365995
-0.24497128 0.074866921 0.51321399
-0.23503232 0.075026713 0.51313692
-0.22513503 0.074960791 0.51345557
-0.21468899 0.07490053 0.5136742
-0.20450239 0.075131088 0.51392913
-0.19482473 0.07485503 0.51493323
-0.18510753 0.075046636 0.51591355
-0.17511328 0.07487601 0.51620269
-0.16518432 0.075164557 0.5161171
-0.15500405 0.07485655 0.51606178
-0.14502923 0.074967168 0.51586437
-0.13526215 0.075038373 0.51563805
-0.12507507 0.075031959 0.51556933
-0.11487661 0.075016148 0.51625639
-0.10499106 0.075104937 0.51740372
-0.094966911 0.074687675 0.51752985
-0.085034803 0.075156547 0.51663023
-0.075066887 0.074946716 0.51615548
-0.065092273 0.075051837 0.51635432
-0.055263907 0.074873552 0.51697117
-0.0449186 0.07516446 0.51655418
-0.034953415 0.074717768 0.51663369
-0.024973592 0.075151965 0.51768261
-0.014947945 0.074964553 0.51761025
-0.0048394999 0.074936867 0.51776677
0.0049137152 0.075050637 0.51868838
0.015055745 0.074965335 0.51829791
0.025213581 0.07497561 0.51853555
0.035113666 0.074919753 0.51910895
0.044951949 0.074928939 0.51839334
0.055041377 0.074964479 0.51863456
0.064916566 0.075081691 0.51910448
0.075002447 0.074940518 0.51822942
0.085134432 0.075049534 0.51751578
0.094938472 0.074991971 0.51835978
0.10486694 0.074887246 0.51910204
0.11477979 0.074895494 0.51887167
0.12499173 0.07498645 0.51833749
0.13445507 0.075131379 0.51922762
0.14508218 0.073034897 0.51966357
0.15607961 0.074144758 0.51944059
0.16392924 0.074915074 0.51943111
0.17068258 0.079000361 0.51989466
0.20390233 0.070558682 0.51994115
0.22940731 0.07115449 0.51989841
0.24630506 0.070481844 0.51987648
-0.37395391 0.085086912 0.51189971
-0.36475959 0.085076168 0.51187843
-0.35467097 0.085104138 0.51204479
-0.34499514 0.085042693 0.51289248
-0.33488497 0.084980965 0.51358497
-0.32497317 0.085234627 0.51413488
-0.31530911 0.084982529 0.51473373
-0.30504695 0.085167415 0.51464844
-0.29494208 0.084940493 0.5137825
-0.28492987 0.084987223 0.51293272
-0.27458006 0.085145183 0.51238573
-0.26501992 0.084913805 0.51319849
-0.25508964 0.084908918 0.51401389
-0.24518099 0.085032761 0.51391697
-0.23501155 0.084881112 0.51379579
-0.22488049 0.085000128 0.51475197
-0.21496285 0.085041642 0.51578176
-0.20500079 0.085134827 0.5169245
-0.19480865 0.08479806 0.5171572
-0.18478802 0.084991217 0.51634002
-0.17490336 0.085058585 0.51554602
-0.16484579 0.084976934 0.51596433
-0.15494822 0.085139371 0.51592731
-0.14491078 0.084848322 0.51534134
-0.13478546 0.085001379 0.51456541
-0.12482836 0.084948704 0.5149982
-0.11490333 0.084943265 0.51603031
-0.10515276 0.084950276 0.51721942
-0.095196076 0.085055627 0.51750511
-0.084754333 0.084896065 0.51607913
-0.074853405 0.084956683 0.5155912
-0.065134354 0.085055023 0.51630443
-0.055009913 0.085057802 0.51703143
-0.04509154 0.08489389 0.5171454
-0.034943756 0.085051835 0.51705575
-0.025031233 0.0850223 0.51758128
-0.015112609 0.084875681 0.51860589
-0.005051353 0.085119687 0.51902115
0.0050651962 0.084980831 0.51806432
0.015305889 0.084941767 0.5175131
0.025068605 0.084947906 0.51844352
0.034615718 0.085381739 0.51922578
0.045094293 0.084952474 0.51921409
0.055104792 0.084937915 0.51875001
0.06490691 0.085033163 0.51868999
0.074931026 0.085031159 0.51832938
0.084857702 0.084936224 0.51776564
0.094977826 0.084922045 0.51785553
0.10490786 0.08494208 0.5191983
0.11418734 0.083983421 0.51957744
0.12535687 0.084307648 0.51925558
0.13379161 0.084964365 0.51937443
0.14177482 0.085069999 0.51997113
0.159657 0.081432089 0.51991367
0.16581677 0.081049234 0.51975536
0.17076838 0.081748523 0.51980799
0.18446544 0.083722129 0.51978195
0.23238067 0.087872721 0.51986676
-0.38273039 0.096628599 0.51117468
-0.37510824 0.094815493 0.51087165
-0.36504534 0.095044211 0.51074845
-0.35502833 0.094864413 0.51121014
-0.34493858 0.094970554 0.51211506
-0.33465251 0.094858654 0.51364905
-0.32495692 0.095017329 0.5146752
-0.31477809 0.094809771 0.5151127
-0.30488807 0.094914861 0.51494759
-0.29510805 0.095191039 0.51442438
-0.28492287 0.095260091 0.51369244
-0.27470586 0.094954595 0.51326311
-0.26449752 0.09510196 0.51360881
-0.25529888 0.094935797 0.51447892
-0.24480887 0.095029593 0.51432717
-0.23483948 0.09483353 0.51391673
-0.22510616 0.095056407 0.51459473
-0.21514942 0.095066801 0.51570135
-0.2052191 0.094812214 0.51684493
-0.19530275 0.095164008 0.51727271
-0.18493988 0.094886057 0.51611733
-0.17464669 0.094920799 0.51480865
-0.16491479 0.095018953 0.51454121
-0.15489015 0.094739623 0.5150336
-0.14519621 0.095124468 0.51587933
-0.1350356 0.095113024 0.51509404
-0.12484678 0.094924763 0.51495373
-0.11523104 0.095016994 0.51663053
-0.10493896 0.095020212 0.51757938
-0.095059894 0.09511245 0.51808077
-0.084834822 0.09493915 0.51705903
-0.074679971 0.095051795 0.51655197
-0.064860485 0.094959684 0.51771849
-0.055183809 0.095170707 0.51837468
-0.04500863 0.094706483 0.51743096
-0.035176892 0.095185973 0.51686162
-0.024927482 0.095018901 0.51706022
-0.014818965 0.094891407 0.51850557
-0.0065719606 0.094420753 0.51955086
0.0056253145 0.094281077 0.51908171
0.015145537 0.094968371 0.518426
0.025179071 0.094963394 0.51846427
0.035206791 0.094989568 0.51847184
0.044481225 0.094872855 0.5193392
0.055054445 0.094762132 0.51966792
0.064828657 0.092788309 0.51965898
0.076006822 0.093745537 0.51953155
0.084952816 0.094816081 0.51875544
0.094938032 0.094965808 0.51823515
0.10441814 0.094171174 0.51927334
0.11186812 0.092643574 0.51981992
0.12899545 0.09191221 0.51967311
0.13554464 0.094764173 0.51945454
0.14336856 0.096857026 0.51938838
0.22895022 0.092987575 0.51985019
0.23144634 0.092342973 0.51974899
-0.39273763 0.10720082 0.51349741
-0.38490742 0.1051136 0.51260734
-0.37504992 0.10474557 0.51147068
-0.36545327 0.10517617 0.51105911
-0.35516453 0.10492887 0.51118243
-0.34519848 0.10480773 0.5121457
-0.33537504 0.10494686 0.51289731
-0.32503918 0.10482158 0.51328313
-0.31516376 0.10503375 0.51302409
-0.30506781 0.10478316 0.51231688
-0.29496714 0.10475915 0.51199037
-0.28520596 0.10506955 0.51253265
-0.27516714 0.10493364 0.51295626
-0.26495156 0.10525319 0.51377618
-0.25534797 0.10494802 0.51542366
-0.24528526 0.10506094 0.51539266
-0.23506555 0.10491563 0.51461065
-0.22473483 0.10502208 0.51418424
-0.21485877 0.10498563 0.51423001
-0.20480557 0.1048418 0.51502973
-0.19520257 0.10520971 0.51683253
-0.18504198 0.10506108 0.51716459
-0.17493415 0.10490446 0.51601708
-0.16490009 0.10489878 0.51500702
-0.15494241 0.10484255 0.51475406
-0.14520858 0.10488871 0.51521564
-0.13501525 0.10506082 0.51526177
-0.12463959 0.10475924 0.51473945
-0.11509025 0.10498099 0.51544845
-0.10513464 0.10510579 0.51676327
-0.095257618 0.10519738 0.51815999
-0.085019298 0.10495081 0.51850307
-0.075101353 0.10510074 0.51797342
-0.064886205 0.10471613 0.51766109
-0.05502484 0.10492242 0.51868302
-0.04477337 0.10519733 0.51819497
-0.034590494 0.10512272 0.51726323
-0.024935219 0.10491277 0.51766068
-0.014917184 0.10489538 0.51895887
-0.0077872644 0.104157 0.51968902
0.0072468445 0.10105431 0.519934
0.015945682 0.10412484 0.51965171
0.024638182 0.10460052 0.51940477
0.034967881 0.10452318 0.51917565
0.044043157 0.10403489 0.5194785
0.055091806 0.10444618 0.5197016
0.061462499 0.10352398 0.51993132
0.079438657 0.10070744 0.51987362
0.08703123 0.10265146 0.51949489
0.095128693 0.10502054 0.51906407
0.10194767 0.10554456 0.51952863
0.12475047 0.10750875 0.519894
0.13638173 0.10417411 0.51978576
0.14405456 0.10353658 0.51943064
-0.39437807 0.11566284 0.51422668
-0.38506982 0.11505892 0.51430792
-0.37508374 0.11503551 0.51364022
-0.36490557 0.11488755 0.5129838
-0.35468084 0.11503437 0.51275229
-0.34503272 0.11486124 0.51331604
-0.33539489 0.11520383 0.51354188
-0.32532617 0.11492021 0.51359773
-0.31494716 0.11499485 0.51383215
-0.30473956 0.11491699 0.51323593
-0.29492518 0.11482661 0.5124501
-0.28477061 0.11490487 0.51272947
-0.27467224 0.1151268 0.51322967
-0.26498929 0.11481482 0.51370597
-0.25521898 0.11517873 0.51524258
-0.24509899 0.11513856 0.51616329
-0.23490611 0.11497322 0.51613146
-0.22487944 0.11523128 0.51578557
-0.21486703 0.11492134 0.51489145
-0.20487982 0.1147824 0.51462394
-0.19506975 0.11480849 0.51668578
-0.18544474 0.11484616 0.51900184
-0.17497203 0.11501922 0.51849145
-0.16473855 0.11502267 0.51737851
-0.1547306 0.11497748 0.51687193
-0.14485641 0.11510228 0.51713336
-0.1352919 0.11509755 0.51729727
-0.12519448 0.11474608 0.51642787
-0.11466541 0.11486984 0.5151515
-0.1049232 0.11489382 0.51578063
-0.094951443 0.11492466 0.51804572
-0.086147256 0.11563537 0.51943141
-0.073551998 0.11229657 0.51948845
-0.064544603 0.1144333 0.51882583
-0.054828692 0.11501308 0.518341
-0.045020096 0.11514921 0.51893502
-0.035075374 0.11478532 0.51908123
-0.025464281 0.11421687 0.51950198
-0.014495156 0.11414412 0.51958364
-0.0065547815 0.11575007 0.51961005
0.018146142 0.11303207 0.51977813
0.024086801 0.11425226 0.51970094
0.032779165 0.11372872 0.5199132
0.055012118 0.11125325 0.51984018
0.089381889 0.11073201 0.51997697
0.096330382 0.11365242 0.51935691
0.10194697 0.11450279 0.51951432
0.13500354 0.1110673 0.51977015
-0.40318263 0.12583847 0.51490492
-0.39467543 0.12521949 0.51534003
-0.38498518 0.1250823 0.51586646
-0.37477243 0.12484094 0.51589203
-0.36472499 0.12514344 0.51565343
-0.35496068 0.12492114 0.51498723
-0.34488848 0.12479869 0.51431805
-0.33517173 0.12494649 0.5143252
-0.32518882 0.12520823 0.51493382
-0.31494156 0.1249559 0.51562107
-0.30500752 0.12490612 0.5150274
-0.2946029 0.12510253 0.51397741
-0.28488806 0.12503265 0.51386809
-0.27517977 0.12499608 0.5146355
-0.26495698 0.12509061 0.51489222
-0.25507495 0.12502368 0.51498008
-0.24544775 0.12480046 0.5159049
-0.23516263 0.12475769 0.51662022
-0.2251389 0.12525053 0.51683235
-0.21519057 0.12514646 0.51683939
-0.20483045 0.12494244 0.51644492
-0.19450018 0.12484137 0.51728314
-0.18525486 0.12599027 0.51898742
-0.17514567 0.12497928 0.51899517
-0.16485912 0.12507141 0.51765907
-0.15461946 0.12512143 0.51665312
-0.1449528 0.12489168 0.51810098
-0.1368966 0.12441105 0.51979566
-0.12320826 0.12177578 0.51919407
-0.11457066 0.12504169 0.51838511
-0.10468668 0.12487212 0.51740444
-0.095026754 0.12487005 0.51849657
-0.084910929 0.12500224 0.51923108
-0.075418279 0.12635945 0.51939857
-0.064582787 0.12564155 0.51920331
-0.054985315 0.12511277 0.51884896
-0.046315733 0.1245529 0.51936603
-0.035387252 0.12197106 0.51984936
-0.029417783 0.12178214 0.5196619
-0.011634275 0.12158804 0.51995289
-0.005763026 0.12221771 0.51976085
0.026696475 0.12296338 0.51981908
0.038203858 0.12405077 0.51990557
-0.41227862 0.13702859 0.51456499
-0.40531975 0.13503106 0.51511061
-0.39540055 0.13508825 0.51579452
-0.38499662 0.13524149 0.51647186
-0.37477067 0.13495366 0.5170384
-0.36513788 0.13505869 0.51725608
-0.35490504 0.13486813 0.51679271
-0.34513286 0.13512304 0.51637971
-0.33516681 0.1350687 0.51615608
-0.32499006 0.13505711 0.51663375
-0.31498149 0.13497578 0.51691961
-0.30495822 0.13511553 0.51590997
-0.29489538 0.13479757 0.51449293
-0.28467143 0.13470359 0.51453775
-0.27481285 0.13494751 0.51609284
-0.2649872 0.13533209 0.5174548
-0.25514939 0.13486461 0.51703054
-0.24515525 0.1348739 0.51604623
-0.23483282 0.13482089 0.515306
-0.22469759 0.13505554 0.51571995
-0.21499082 0.13540222 0.51673388
-0.20507051 0.1352136 0.51652324
-0.19513345 0.13468486 0.51637048
-0.18513899 0.13482925 0.51680082
-0.1751699 0.13499978 0.5175066
-0.16504398 0.13516131 0.51771969
-0.15482776 0.13499027 0.51768404
-0.1448462 0.13482383 0.51821339
-0.13536166 0.13476597 0.51850706
-0.12526289 0.1360082 0.51842588
-0.11507799 0.13512251 0.51878566
-0.10499822 0.13489042 0.51901585
-0.096981704 0.13428262 0.51956016
-0.084140107 0.13201456 0.51972574
-0.074688822 0.13428624 0.51910597
-0.064946316 0.13497375 0.51831067
-0.054911163 0.13497089 0.51877171
-0.046328213 0.13566209 0.51955956
-0.42028004 0.14963141 0.51344931
-0.41406721 0.14522994 0.51356012
-0.40490711 0.14488821 0.51379937
-0.39478746 0.1449887 0.51420462
-0.38513961 0.14505829 0.51458657
-0.37508196 0.14506626 0.51590216
-0.36510786 0.14483635 0.51697356
-0.35526848 0.1450077 0.51670867
-0.3451927 0.14499652 0.51688683
-0.3351275 0.1453982 0.51695466
-0.32506394 0.14470705 0.51713157
-0.31517857 0.14539248 0.5172351
-0.30489677 0.14522007 0.51692033
-0.29460925 0.1448829 0.51649141
-0.2847819 0.14479454 0.51676863
-0.27470919 0.1447949 0.51773202
-0.26478106 0.14492685 0.51820481
-0.25494373 0.14499584 0.51740277
-0.24492116 0.14480539 0.51573747
-0.23503186 0.14492995 0.5142808
-0.22490048 0.14478293 0.51435566
-0.21505399 0.14505997 0.51612711
-0.20507923 0.14527498 0.51758099
-0.19500764 0.14493708 0.51817757
-0.18514578 0.14486307 0.51843774
-0.17601708 0.14489809 0.51897734
-0.16620824 0.14074042 0.51949918
-0.15375438 0.14177261 0.51962382
-0.14440045 0.14477555 0.51955456
-0.13502073 0.14473228 0.51852238
-0.12481293 0.14482363 0.51740807
-0.11465748 0.14508691 0.51737309
-0.10471253 0.14484265 0.51874089
-0.098052099 0.14556128 0.51951283
-0.071211383 0.14093621 0.51966465
-0.06377545 0.14420855 0.5193215
-0.05475257 0.14444861 0.51923984
-0.045362994 0.1441703 0.51961976
-0.038335178 0.14476006 0.51976365
0.0082673281 0.14726961 0.51992118
0.013095972 0.14737837 0.51981056
-0.42301095 0.15514691 0.51432067
-0.41528624 0.15459499 0.51399279
-0.40519354 0.15521386 0.5139448
-0.39455163 0.15501578 0.51343626
-0.38471317 0.15462007 0.51324046
-0.37544557 0.15510607 0.51455933
-0.36583474 0.15480119 0.51604885
-0.3550427 0.15498646 0.5160082
-0.34522572 0.15496106 0.5159595
-0.33519921 0.15496649 0.51649791
-0.32509652 0.15508069 0.51712054
-0.31518707 0.15527752 0.51732486
-0.30502358 0.15518124 0.51823467
-0.29497471 0.1548232 0.51910228
-0.28477615 0.15518394 0.51884466
-0.27523229 0.15519336 0.51907563
-0.26540509 0.1551283 0.51891428
-0.25544447 0.15504135 0.51851135
-0.24525186 0.15519701 0.51736265
-0.2348469 0.15522052 0.51624042
-0.22455905 0.15483549 0.51594335
-0.21462183 0.15488845 0.51717132
-0.2048381 0.15504548 0.51886535
-0.19608745 0.15227649 0.51972163
-0.18317644 0.15409505 0.51949358
-0.17481998 0.15490031 0.51890695
-0.16509528 0.15640266 0.51898354
-0.15433641 0.1564066 0.51936871
-0.14499755 0.15545346 0.51924604
-0.13530742 0.15514877 0.51864189
-0.12507494 0.15492466 0.51739389
-0.11479633 0.15490259 0.51727027
-0.10496958 0.15480895 0.51849258
-0.096648328 0.15583721 0.5195967
-0.062630877 0.15449402 0.51985019
-0.055232152 0.15510923 0.51962721
-0.046989776 0.15507169 0.51976734
0.0081835538 0.15078467 0.51973748
0.012859151 0.15102582 0.51988423
-0.40359965 0.16131926 0.51494926
-0.39493072 0.16243491 0.51476377
-0.38451606 0.16435951 0.51502699
-0.37485522 0.16479827 0.51563174
-0.36494035 0.16486792 0.51661128
-0.354821 0.16505167 0.51660997
-0.34491664 0.16478352 0.51621437
-0.33467856 0.16485246 0.51635343
-0.32500052 0.16515419 0.51702261
-0.31471616 0.16482425 0.51741987
-0.30478266 0.16509676 0.51798713
-0.29497901 0.16471282 0.51836687
-0.28493693 0.16507159 0.51813656
-0.27475274 0.16503988 0.51789224
-0.26476434 0.16508523 0.51842737
-0.25494218 0.16487296 0.518354
-0.245047 0.16503903 0.51775706
-0.2349489 0.16541384 0.51758784
-0.22498642 0.16477205 0.51816028
-0.21501791 0.16526254 0.51861709
-0.20518059 0.1648495 0.51933724
-0.19971131 0.16574228 0.51991224
-0.18282603 0.1653627 0.51965892
-0.17451455 0.164942 0.51877874
-0.1646342 0.1648926 0.5184657
-0.15504012 0.16502973 0.51859057
-0.14526735 0.16499056 0.5184238
-0.13508111 0.16510728 0.5182932
-0.1249257 0.16509147 0.5180158
-0.11492685 0.16489448 0.5178104
-0.10493146 0.16488367 0.51857996
-0.097268559 0.16368292 0.51962483
-0.061357066 0.16079377 0.51984334
-0.053638346 0.1618173 0.51973605
-0.047507696 0.16259958 0.51978791
-0.37280756 0.17123896 0.51735008
-0.36464551 0.17283577 0.51818383
-0.35499188 0.17438553 0.51817268
-0.34464163 0.1747289 0.51702321
-0.33469316 0.1748298 0.51621497
-0.32486016 0.17493124 0.51707882
-0.31483135 0.17505783 0.51820654
-0.30511129 0.17492419 0.51882404
-0.29505858 0.17505525 0.51908004
-0.28521836 0.17504105 0.51855493
-0.27522004 0.17495476 0.51776463
-0.26511011 0.17478947 0.51803207
-0.2550889 0.17513588 0.51859468
-0.24492534 0.17495103 0.51833135
-0.23545022 0.17447194 0.51901877
-0.22466913 0.17423567 0.51958156
-0.21474363 0.1750875 0.518978
-0.20545039 0.17492147 0.5193007
-0.19760643 0.17434622 0.5197978
-0.1829769 0.17270206 0.5196628
-0.17433186 0.17459238 0.51914775
-0.16487956 0.1750349 0.51898783
-0.15487161 0.17507829 0.51886058
-0.14497617 0.1747452 0.51862317
-0.13490346 0.17531569 0.51893032
-0.12516479 0.17383206 0.51934868
-0.11508811 0.17438701 0.51922613
-0.10493539 0.17453046 0.51922047
-0.098048426 0.1754608 0.51973444
-0.33245841 0.18063849 0.51631516
-0.32429272 0.18235061 0.517425
-0.31469062 0.1839294 0.51863283
-0.30523327 0.18497412 0.519391
-0.2952742 0.18592007 0.51945335
-0.28497848 0.18512705 0.51954645
-0.27508831 0.1843825 0.51939857
-0.26607689 0.18334438 0.51958674
-0.25485104 0.18226936 0.51981366
-0.24402975 0.1830633 0.51973069
-0.23657672 0.18369988 0.51981807
-0.22292086 0.185745 0.51972717
-0.21463741 0.18486895 0.51910776
-0.20567182 0.18448715 0.51933891
-0.19856171 0.18137924 0.51966804
-0.17138129 0.18081585 0.51977193
-0.16308615 0.18162484 0.5196535
-0.15409115 0.1842306 0.51944071
-0.14518137 0.1847986 0.51924467
-0.13556914 0.1837759 0.51927638
-0.12833124 0.18082984 0.51994717
-0.11022975 0.180714 0.51981974
-0.10475311 0.18160576 0.51970536
-0.099144951 0.18093227 0.5197084
-0.30282241 0.19050558 0.51849657
-0.29411876 0.1916301 0.51809055
-0.28420112 0.19308506 0.51847374
-0.27482682 0.19487087 0.51934767
-0.26621109 0.19666307 0.51983029
-0.24121632 0.19815496 0.51998425
-0.23578338 0.1954447 0.51979542
-0.2242438 0.19396682 0.51978618
-0.21413919 0.19473575 0.51968473
-0.20607227 0.19479443 0.51968014
-0.15410525 0.19645277 0.51981813
-0.14798237 0.19490758 0.51974165
-0.26081598 0.20162195 0.5199368
-0.25510198 0.20323636 0.51988053
-0.24110319 0.20177832 0.51986992
-0.2347562 0.20465468 0.51984465
-0.22433609 0.20521587 0.51979899
-0.21443637 0.20455343 0.51974273
-0.2053062 0.20559409 0.51978618
-0.15404283 0.20502684 0.51964045
-0.14589475 0.20533654 0.51928574
-0.13666961 0.20734851 0.51972157
-0.12808955 0.20820647 0.51992208
-0.22417726 0.21144889 0.51956344
-0.21470807 0.21279693 0.51962888
-0.20755775 0.2118028 0.51977426
-0.15400742 0.21524292 0.51974618
-0.14475624 0.21498188 0.51935434
-0.13585688 0.21348029 0.51964498
-0.12882806 0.21285236 0.51976347
-0.15412849 0.22396341 0.51959032
-0.14612252 0.22381388 0.51958257
-0.13973968 0.22092934 0.51979488
0.26571202 0.0048659574 0.52024335
0.25778228 0.018259389 0.52004486
0.26079917 0.018006207 0.52012289
0.21074921 0.029300993 0.52002931
0.25663501 0.025796913 0.52008832
0.26458541 0.027746869 0.52005792
0.2792545 0.029841108 0.52014601
0.28779292 0.026921874 0.52028072
0.29327738 0.028185111 0.52042043
0.2078429 0.035864901 0.52021325
0.21457347 0.035888974 0.52016872
0.22449005 0.037647422 0.52018452
0.23558833 0.03757542 0.52057624
0.24316308 0.038119059 0.52037948
0.25613263 0.035031121 0.52024597
0.26534238 0.035905372 0.5206179
