# .PCD v0.7 - Point Cloud Data file format
VERSION 0.7
FIELDS x y z
SIZE 4 4 4
TYPE F F F
COUNT 1 1 1
WIDTH 1
HEIGHT 360
VIEWPOINT 0 0 0 1 0 0 0
POINTS 360
DATA ascii
0.048422009 -0.13091874 0.39587927
0.052765418 -0.13137028 0.3949104
0.048736788 -0.12813221 0.39817998
0.055287678 -0.12723112 0.39683616
0.064800657 -0.12316459 0.39660057
0.072179496 -0.12069461 0.39357561
0.068741634 -0.11850043 0.39811498
0.075329363 -0.11560766 0.3959578
0.083828561 -0.11191373 0.39559719
0.086383417 -0.10821591 0.39815205
0.09430179 -0.10427786 0.39655182
0.10159542 -0.10064711 0.39494368
0.098277748 -0.099108368 0.39812326
0.10530625 -0.096268065 0.39689711
0.11204859 -0.092281885 0.39703417
0.11753841 -0.086527795 0.39841366
0.12226405 -0.082830682 0.39520222
0.12423665 -0.076460406 0.39687976
0.048236053 -0.12327994 0.40485063
0.054344717 -0.1224396 0.40338585
0.062156983 -0.12137222 0.40152609
0.046723947 -0.11936679 0.40823829
0.055851467 -0.11893346 0.40765733
0.065201297 -0.11665645 0.40498051
0.073718876 -0.11213069 0.40405622
0.078408085 -0.10905691 0.40643296
0.085279323 -0.10609369 0.40464914
0.091865703 -0.10170192 0.40393952
0.096608527 -0.097866289 0.40510526
0.1050473 -0.093416922 0.40483522
0.11121888 -0.090438426 0.40165311
0.10903881 -0.088806085 0.40789261
0.11470789 -0.084645413 0.40458497
0.11894263 -0.077615529 0.40659148
0.1212041 -0.073783815 0.40337172
0.11894991 -0.06484513 0.40622044
0.12113222 -0.067325182 0.40135619
0.11825114 -0.05942145 0.40595469
0.068806656 0.008350566 0.40961581
0.059033759 0.01914423 0.40969449
0.064012177 0.015015548 0.40869829
0.057903316 0.025408579 0.40887335
0.061218236 0.022758812 0.40746084
0.045536317 0.039723851 0.40963638
0.053451627 0.035106346 0.4092741
0.045378663 0.04235886 0.40917614
0.052145064 -0.13095501 0.41563085
0.048710186 -0.12361524 0.41202524
0.04861401 -0.11934797 0.41290113
0.055604447 -0.11786012 0.41451278
0.065113656 -0.11426154 0.41430297
0.07246349 -0.11099365 0.41458157
0.077488489 -0.10848235 0.41474444
0.085208781 -0.10432646 0.41516766
0.0910151 -0.10098629 0.41385508
0.095941357 -0.09690734 0.41487512
0.10288344 -0.092187569 0.41415218
0.10745148 -0.08726383 0.41456565
0.11292105 -0.082324855 0.41455802
0.11843987 -0.077719517 0.41451907
0.12063416 -0.072939515 0.41571376
0.1192858 -0.063960858 0.41390958
0.12077703 -0.065983467 0.4168492
0.11889818 -0.059578918 0.41044822
0.10422108 -0.042659104 0.4181464
0.10042718 -0.038579717 0.41912529
0.074976593 -0.0024583137 0.41760191
0.059347909 0.009485228 0.41932055
0.065683492 0.0056448183 0.41470301
0.073362164 0.0027740106 0.41487139
0.056980949 0.016079852 0.41463697
0.061698157 0.011937127 0.41208866
0.049895376 0.028987072 0.41788587
0.053610392 0.024833377 0.41427413
0.039025739 0.038807914 0.41569981
0.045507926 0.035442706 0.4137851
0.052900191 0.03364262 0.41248566
0.062672883 0.030293826 0.4194617
0.038841713 0.042245712 0.41573223
0.041505288 0.043848954 0.41257232
0.051950812 0.041084744 0.41356602
0.052749038 -0.12031794 0.42590603
0.056238852 -0.11874626 0.42384768
0.064792469 -0.11568274 0.42438585
0.073287837 -0.111942 0.42564201
0.078075856 -0.10858758 0.42394254
0.084938236 -0.10403312 0.42493942
0.090538941 -0.1006944 0.42337367
0.095349669 -0.096993938 0.42482984
0.10212879 -0.091860063 0.42486879
0.10725711 -0.087360509 0.42538974
0.11308314 -0.082283795 0.4252432
0.11824708 -0.07854756 0.42556936
0.12168043 -0.073541321 0.42594501
0.11999878 -0.061150387 0.4267343
0.12141147 -0.065078534 0.42583883
0.11517568 -0.052799962 0.42701072
0.12177812 -0.057258386 0.42657083
0.099359512 -0.040796109 0.42507923
0.1052797 -0.044824213 0.42329508
0.11260091 -0.045090646 0.4239246
0.098176733 -0.034819789 0.4251422
0.1039497 -0.034935374 0.42357305
0.11162586 -0.038190939 0.42858437
0.096333265 -0.025994778 0.42797843
0.1018705 -0.028049009 0.42689908
0.087383389 -0.01065601 0.42961386
0.068433657 -0.00026298128 0.42659244
0.074809894 -0.0043798122 0.42450458
0.083780594 -0.0064315894 0.42559713
0.059200797 0.0089271255 0.42524299
0.06425228 0.0038377892 0.42460585
0.077851027 0.0082192533 0.42158511
0.083219491 0.0037025157 0.42612436
0.055384912 0.015065149 0.42413321
0.049092863 0.028251376 0.42445332
0.051549621 0.023609279 0.42490909
0.038558874 0.039357398 0.4243862
0.044466577 0.033022258 0.42493889
0.058787927 0.035707247 0.42077518
0.062349021 0.032981284 0.4217343
0.037932098 0.043244503 0.42529255
0.042742614 0.046159435 0.42551005
0.056332946 -0.12073548 0.43603516
0.05857712 -0.11940932 0.43377122
0.064978816 -0.11739051 0.43527567
0.07438077 -0.112803 0.4355697
0.079008803 -0.10907456 0.43305343
0.084803998 -0.10425977 0.43481773
0.090475321 -0.10020669 0.43278053
0.029460102 -0.096689612 0.43797344
0.095484488 -0.096850552 0.4350464
0.1024645 -0.091715857 0.43510282
0.10735174 -0.087735116 0.43476957
0.11316036 -0.082629293 0.43498433
0.11815524 -0.075767614 0.43592876
0.12100091 -0.07297539 0.43283436
0.11806247 -0.064726114 0.43573719
0.12079123 -0.066407338 0.43162671
0.10990873 -0.050447844 0.43418935
0.11554568 -0.056078956 0.43480521
0.12729509 -0.054976702 0.43256217
0.13197181 -0.056572538 0.4369894
0.098990679 -0.040990319 0.43645826
0.10452411 -0.046091557 0.4354105
0.117827 -0.041868936 0.43274069
0.12210517 -0.046883803 0.43289027
0.095755346 -0.034603357 0.43513998
0.10883835 -0.031397235 0.43206134
0.11390964 -0.034138124 0.43536189
0.092836231 -0.025223732 0.43500257
0.10420845 -0.024916014 0.43425256
0.11124952 -0.028624445 0.4382354
0.085354522 -0.01239842 0.43546349
0.094500981 -0.015622382 0.43613234
0.10095352 -0.019009322 0.43894264
0.068839163 -0.0011958797 0.43451154
0.074661933 -0.0058574425 0.43506226
0.082570329 -0.007741129 0.4337073
0.092785783 -0.0050412356 0.43450895
0.059527948 0.0090884101 0.43469912
0.06399601 0.0037946999 0.43539646
0.055917326 0.014717845 0.43442923
0.048769008 0.028235933 0.4357349
0.051484562 0.023252588 0.43505239
0.038275909 0.03908176 0.43501449
0.043962549 0.033699829 0.43495297
0.035015449 0.044292513 0.43568391
0.043520235 0.047645275 0.43406004
0.051478699 0.048112463 0.43790358
0.055506151 -0.12269022 0.44614872
0.057288498 -0.11825407 0.44688666
0.064985603 -0.11715982 0.44506991
0.07465481 -0.11278029 0.44528976
0.033705354 -0.1011582 0.44908494
0.079521164 -0.10965668 0.44444251
0.084371321 -0.10482931 0.44478264
0.090366997 -0.10037763 0.44530016
0.027824573 -0.093056917 0.44836268
0.031031376 -0.09859354 0.4471705
0.095583484 -0.097085401 0.44491157
0.10218708 -0.092291877 0.44586903
0.02593556 -0.089217588 0.44914904
0.1075469 -0.088070296 0.44556749
0.11316882 -0.082976773 0.44481963
0.11679938 -0.074925765 0.44492367
0.009224236 -0.060413182 0.44406548
0.010111272 -0.062939242 0.44996631
0.11617015 -0.064996332 0.44513777
0.14280275 -0.061208323 0.44619951
0.10921982 -0.050899576 0.44651887
0.11383946 -0.055784833 0.44541216
0.13450542 -0.055586793 0.44150186
0.097660325 -0.042304616 0.44604069
0.10390112 -0.047188461 0.44552267
0.1325787 -0.047377333 0.44651759
0.088797539 -0.031363536 0.44850293
0.093120135 -0.035200838 0.44450194
0.11757925 -0.031588886 0.44307458
0.12446187 -0.03670622 0.44673985
0.088278286 -0.024923494 0.44707945
0.090955019 -0.025153736 0.44215384
0.10749747 -0.0223663 0.44162357
0.11107573 -0.025423087 0.44204521
0.077987567 -0.011566306 0.44649029
0.084780879 -0.016163321 0.44601014
0.091824152 -0.017406892 0.44246092
0.10374409 -0.014400728 0.44559434
-0.033561897 -0.0035799255 0.4470247
-0.026875731 -0.0027266862 0.44825709
0.068057068 -0.002040562 0.44615948
0.072941341 -0.0066697514 0.444971
0.10228231 -0.0047624647 0.44705704
-0.032971818 0.0015945801 0.4472174
-0.024830218 0.0024901181 0.44895235
-0.013188712 0.006955497 0.44937757
-0.0076408666 0.0078617409 0.44917083
0.059646562 0.009827693 0.44718629
0.063265242 0.0044555166 0.44513285
0.097357124 0.002323132 0.44439185
0.10160187 0.00049503148 0.44883096
-0.010965968 0.011409953 0.44934478
-0.0045903968 0.013893089 0.44879842
0.0023740351 0.017443093 0.44936746
0.05586588 0.015334949 0.44516018
0.0049720132 0.021350371 0.44936821
0.010834411 0.024217444 0.44978011
0.048208784 0.027610857 0.44577688
0.051502913 0.022436308 0.44469234
0.026604645 0.036784355 0.44797003
0.03515029 0.036386166 0.44552267
0.043324266 0.033144161 0.44485849
0.028192248 0.043108132 0.44511908
0.033860657 0.047225446 0.44398341
0.044991791 0.049515706 0.44190359
0.052842334 0.049621575 0.44381291
0.039463058 0.051016808 0.44979629
0.044660289 0.051026646 0.44770592
0.05279588 -0.12550512 0.45352447
0.055134192 -0.11743036 0.45352343
0.064872868 -0.11469848 0.45573241
0.073422566 -0.11177023 0.45441109
0.027346086 -0.10255649 0.45711201
0.033837244 -0.1059969 0.45672488
0.083927751 -0.10334864 0.45471558
0.023787206 -0.095120601 0.45426583
0.03030169 -0.098327324 0.45016667
0.094664618 -0.094988599 0.45556819
0.1018443 -0.0912707 0.45325837
0.0162261 -0.084145054 0.45699888
0.022471532 -0.085462868 0.45274875
0.10564617 -0.086290613 0.45649612
0.11211593 -0.082003325 0.45407256
0.0072641782 -0.073401123 0.45811313
0.014939274 -0.075215288 0.45466301
0.02323081 -0.075721808 0.45486864
0.1142798 -0.075279087 0.45598313
-0.0008799918 -0.061857037 0.45863509
0.004948034 -0.064965822 0.45474309
0.012998153 -0.066679731 0.45166856
0.11330863 -0.065211564 0.45510232
0.14630497 -0.060750678 0.45145532
0.15250733 -0.062031228 0.45743319
-0.0022521473 -0.054773476 0.45798415
0.0025293534 -0.055216376 0.45447481
0.09760797 -0.051937055 0.45858705
0.10553803 -0.054233886 0.4558537
0.11232598 -0.0575472 0.45283687
0.14864278 -0.059922732 0.4549773
0.1503984 -0.058907047 0.45763233
-0.010541439 -0.041633915 0.45928231
-0.0047621513 -0.04464883 0.45667255
0.0029618363 -0.044879384 0.45697945
0.088484883 -0.041168232 0.45913467
0.094692029 -0.045141768 0.45579165
0.10173241 -0.048458524 0.45181617
0.13572672 -0.043824598 0.45438188
0.14199123 -0.047970869 0.45836416
-0.011800102 -0.034714248 0.45795381
-0.0054377909 -0.034990314 0.45503843
0.0025445418 -0.036441717 0.45817626
0.085943975 -0.033966288 0.45592004
0.091483757 -0.038219444 0.45315704
0.12738836 -0.034199338 0.45265186
0.13262387 -0.035820857 0.45721817
-0.0055566076 -0.027582027 0.4583548
0.078212529 -0.02372008 0.45833281
0.083121076 -0.02540211 0.45374984
0.11902685 -0.022031214 0.45653874
0.12351866 -0.0253447 0.45825002
-0.031791944 -0.011557237 0.45752937
-0.026090862 -0.013000227 0.45514232
-0.015253278 -0.01158722 0.45693317
0.067947812 -0.01218309 0.4584063
0.074773632 -0.015231526 0.45522738
0.081903882 -0.018767389 0.45142493
0.10943663 -0.013282511 0.45336732
0.11489679 -0.016135011 0.45710722
-0.036355369 -0.005072237 0.45473829
-0.023413403 -0.0064390707 0.45143116
-0.014906067 -0.0048899171 0.45461616
-0.0059452578 -0.0036494338 0.45762646
0.0014121732 -0.00052037212 0.45854053
0.06554541 -0.0052161147 0.45565683
0.071235545 -0.0086395023 0.45134065
0.10727966 -0.002178584 0.45421532
0.11140091 -0.0034255269 0.4573226
-0.034521539 0.0038205872 0.45550328
-0.024912858 0.0070463931 0.45372197
-0.01582961 0.0045496724 0.45095643
-0.0047272672 0.0037247585 0.45304894
0.0041864375 0.0058059809 0.45659542
0.011767671 0.0092360051 0.45938298
0.05881951 0.0081745954 0.45663151
0.062229853 0.0036232935 0.45524278
0.10546138 0.0034197986 0.45598188
-0.022312494 0.010638012 0.45882988
-0.014132457 0.01340003 0.45521593
-0.0065350803 0.017773775 0.4536474
0.005610141 0.013990088 0.45234147
0.014554025 0.015927384 0.45616916
0.023251394 0.018488424 0.4588066
0.047656383 0.018946372 0.4587754
0.05407802 0.01511639 0.45528495
-0.0024621598 0.021739913 0.45573017
0.0053232708 0.025450563 0.4535405
0.015184922 0.026020803 0.45168999
0.024960283 0.025588211 0.45454758
0.03511896 0.026026007 0.45647207
0.044702988 0.024766 0.45467183
0.050768912 0.021151455 0.45171186
0.0089220554 0.031074796 0.45838708
0.015892413 0.03348089 0.45547396
0.023028929 0.035234582 0.45228428
0.034586485 0.031821508 0.45126426
0.04156087 0.031187996 0.45055935
0.026046073 0.04402234 0.45535767
0.031689491 0.049078759 0.45430639
0.060764551 0.049891993 0.45507839
0.036767162 0.051647171 0.45580104
0.045628611 0.053437665 0.45609188
0.053398818 0.053140249 0.45627433
0.060736626 0.051397841 0.45826444
-0.027451951 -0.018822325 0.46103072
-0.011057705 -0.013418142 0.46044922
0.071335584 -0.018525206 0.46067306
-0.038675155 -0.0063850479 0.46197823
-0.003427909 -0.0074973302 0.46139038
0.061535053 -0.0064016553 0.46131495
-0.029541045 0.0086869113 0.4608399
0.008522789 0.0025241624 0.46096712
0.060820978 0.00074120116 0.46161804
-0.009001106 0.019762589 0.46053419
0.018490005 0.012063487 0.46093428
0.025706826 0.013969299 0.46243563
0.044637304 0.014517703 0.46253368
0.052322313 0.011805838 0.46152896
0.0025894092 0.028598832 0.46296364
0.036039356 0.020943081 0.46045557
0.03041473 0.049710192 0.46068302
