# .PCD v0.7 - Point Cloud Data file format
VERSION 0.7
FIELDS x y z
SIZE 4 4 4
TYPE F F F
COUNT 1 1 1
WIDTH 1385
HEIGHT 1
VIEWPOINT 0 0 0 1 0 0 0
POINTS 1385
DATA ascii
0.10783561 -0.040664509 0.45422348
0.10866658 -0.040296987 0.45554024
0.10950203 -0.039927207 0.45685843
0.11058348 -0.039380774 0.45720118
0.11166494 -0.038834333 0.45754394
0.11274639 -0.0382879 0.4578867
0.11382784 -0.037741467 0.45822945
0.11490929 -0.037195034 0.45857221
0.11599075 -0.036648594 0.45891497
0.1170722 -0.036102161 0.45925772
0.11815366 -0.035555728 0.45960048
0.11923511 -0.035009287 0.45994323
0.12053794 -0.034298643 0.45930275
0.12161716 -0.033753343 0.45964479
0.12291326 -0.033046089 0.4590022
0.12399024 -0.032501921 0.45934355
0.1250672 -0.031957746 0.45968488
0.12635437 -0.031255014 0.45903942
0.12742911 -0.030711971 0.45938006
0.12850384 -0.030168928 0.45972067
0.12957859 -0.029625885 0.46006131
0.13085453 -0.028928809 0.45941234
0.13192703 -0.028386906 0.45975223
0.13319628 -0.027693212 0.45910111
0.13426654 -0.027152434 0.45944032
0.13552906 -0.02646216 0.45878708
0.13659707 -0.025922514 0.45912558
0.13785289 -0.025235608 0.4584702
0.13910422 -0.024550982 0.45781341
0.14016774 -0.024013594 0.45815048
0.1412313 -0.023476213 0.45848757
0.14247365 -0.022796117 0.45782793
0.14353496 -0.022259869 0.4581643
0.14459626 -0.021723613 0.45850068
0.14565757 -0.021187358 0.45883706
0.14688875 -0.020512901 0.45817384
0.14778017 -0.020114854 0.45950979
0.14900687 -0.019442655 0.45884517
0.15006593 -0.01890754 0.45918083
0.151125 -0.018372416 0.4595165
0.15218407 -0.017837293 0.45985213
0.15324312 -0.01730217 0.46018779
0.15430219 -0.016767047 0.46052346
0.15536125 -0.016231924 0.46085912
0.15642032 -0.015696809 0.46119478
0.15762687 -0.015034802 0.46052381
0.15868369 -0.014500812 0.46085876
0.15988351 -0.013842206 0.46018562
0.1609381 -0.013309341 0.46051988
0.16213122 -0.012654133 0.45984459
0.16318357 -0.0121224 0.46017814
0.16436997 -0.011470579 0.45950073
0.19323803 0.0034823567 0.46127644
0.19434382 0.0040934533 0.46057352
0.19537601 0.0046149977 0.46090069
0.1964082 0.005136542 0.46122783
0.19750504 0.0057431087 0.46052203
0.19853501 0.0062635243 0.46084848
0.19956495 0.0067839362 0.46117491
0.20065284 0.0073859766 0.46046633
0.20168054 0.0079052597 0.46079203
0.20270826 0.0084245428 0.46111777
0.20378719 0.0090220533 0.46040633
0.20481268 0.0095402077 0.46073133
0.20583816 0.010058362 0.46105635
0.20686363 0.010576513 0.46138138
0.20793137 0.011168379 0.46066636
0.2089546 0.011685397 0.46099067
0.20997784 0.012202416 0.46131498
0.21103661 0.012789756 0.46059716
0.21205761 0.013305645 0.46092075
0.2130786 0.013821535 0.46124434
0.21412842 0.014404342 0.46052366
0.21514718 0.014919098 0.46084654
0.21616594 0.015433852 0.46116945
0.21720681 0.016012138 0.46044594
0.21822332 0.016525766 0.46076813
0.21923985 0.017039394 0.4610903
0.22025636 0.017553022 0.46141249
0.22127289 0.018066647 0.46173465
0.22230031 0.018638149 0.46100688
0.2233146 0.019150645 0.46132836
0.22432888 0.019663136 0.46164981
0.22534317 0.020175636 0.46197128
0.22635745 0.020688135 0.46229276
0.22737144 0.02125283 0.46156076
0.22838348 0.021764196 0.46188152
0.22939552 0.022275556 0.46220225
0.23040056 0.022835745 0.46146742
0.23141035 0.023345971 0.46178746
0.23240869 0.023902763 0.46105048
0.23341624 0.024411865 0.46136978
0.23442382 0.024920966 0.46168914
0.23541316 0.025473222 0.46094933
0.23641849 0.025981195 0.46126795
0.23742382 0.026489165 0.46158659
0.23842914 0.026997138 0.46190521
0.23943448 0.027505111 0.46222386
0.2404104 0.028050587 0.46147975
0.24141349 0.028557427 0.46179765
0.24241656 0.02906426 0.46211559
0.24341966 0.029571109 0.46243349
0.24442275 0.030077942 0.46275142
0.24542584 0.030584782 0.46306935
0.24638608 0.031122327 0.4623203
0.24738693 0.031628035 0.46263751
0.24838778 0.032133743 0.46295473
0.24933907 0.032666773 0.46220279
0.25033769 0.033171348 0.46251929
0.25133631 0.033675924 0.46283579
0.25227866 0.034204442 0.46208107
0.25327504 0.034707885 0.46239686
0.25427139 0.035211328 0.46271265
0.2552048 0.035735302 0.4619551
0.25619891 0.036237612 0.46227017
0.25719303 0.036739923 0.46258524
0.25818717 0.037242241 0.46290034
0.25910938 0.037760563 0.46213922
0.26010126 0.038261741 0.46245357
0.26109314 0.038762927 0.46276796
0.26208502 0.039264105 0.46308231
0.26299602 0.039776776 0.46231768
0.26406884 0.040266469 0.46371105
0.26497534 0.040776882 0.46294498
0.26596498 0.041276935 0.46325865
0.26695466 0.041776981 0.46357232
0.26785222 0.042282857 0.46280336
0.26883963 0.042781778 0.46311632
0.26982704 0.043280691 0.46342927
0.27071565 0.043782055 0.46265754
0.2717008 0.044279836 0.46296978
0.272686 0.044777632 0.46328202
0.27367115 0.045275412 0.46359426
0.27454859 0.045771111 0.46281895
0.27553153 0.046267767 0.46313047
0.27651447 0.046764422 0.463442
0.27738291 0.047255602 0.46266386
0.27836359 0.047751125 0.4629747
0.27934429 0.048246648 0.46328551
0.280325 0.048742171 0.46359634
0.28130567 0.049237702 0.46390715
0.2821607 0.049722083 0.46312472
0.28313917 0.050216481 0.46343485
0.28411764 0.050710872 0.46374497
0.28496367 0.051190726 0.46295974
0.2859399 0.051683985 0.46326914
0.28677925 0.052160446 0.46248177
0.28775322 0.052652571 0.46279046
0.28872722 0.053144712 0.46309915
0.28955758 0.053616658 0.46230891
0.29052931 0.054107651 0.46261689
0.29150108 0.054598659 0.46292487
0.29247281 0.055089653 0.46323285
0.29329205 0.05555594 0.46243912
0.29426152 0.0560458 0.46274641
0.29523104 0.056535669 0.46305367
0.29620051 0.057025537 0.46336094
0.29717004 0.057515405 0.46366823
0.29813951 0.058005273 0.46397549
0.29910904 0.058495142 0.46428278
0.29991031 0.058952365 0.4634833
0.30087757 0.059441108 0.46378988
0.30184484 0.059929844 0.46409646
0.30263716 0.060382545 0.46329418
-0.17239356 -0.18507622 0.45491329
-0.17042241 -0.18403074 0.45448461
-0.16845575 -0.18298757 0.45405462
-0.16649359 -0.18194667 0.45362315
-0.16453594 -0.18090802 0.45319033
-0.16188785 -0.17947105 0.45192292
-0.16063401 -0.17883751 0.45232031
-0.15868971 -0.17780563 0.45188317
-0.15674993 -0.17677604 0.4514446
-0.15550056 -0.17614475 0.45184058
-0.15425119 -0.17551346 0.45223656
-0.15300182 -0.17488219 0.45263255
-0.15107325 -0.17385824 0.45219049
-0.14982611 -0.1732281 0.45258576
-0.148579 -0.17259796 0.45298102
-0.1473318 -0.17196776 0.45337632
-0.1460847 -0.17133762 0.45377156
-0.14483756 -0.17070748 0.45416686
-0.14359036 -0.17007731 0.45456213
-0.14234325 -0.16944717 0.4549574
-0.14043483 -0.1684334 0.4545089
-0.13918993 -0.16780438 0.45490345
-0.13728818 -0.166794 0.45445284
-0.13604555 -0.1661661 0.45484668
-0.13480288 -0.16553822 0.45524052
-0.1329101 -0.16453239 0.45478708
-0.13166973 -0.16390562 0.4551802
-0.12978366 -0.16290317 0.45472467
-0.12790212 -0.16190299 0.45426768
-0.12666616 -0.16127849 0.4546594
-0.12479129 -0.16028169 0.45420024
-0.1235576 -0.15965831 0.45459124
-0.12168947 -0.15866491 0.45412999
-0.12045804 -0.1580427 0.45452031
-0.11922655 -0.15742044 0.45491061
-0.11736742 -0.15643159 0.45444655
-0.11613816 -0.15581048 0.45483616
-0.11490893 -0.15518937 0.45522574
-0.11305872 -0.15420504 0.45475879
-0.11183169 -0.15358506 0.45514768
-0.11060473 -0.15296508 0.45553657
-0.10876349 -0.15198527 0.45506677
-0.10753873 -0.15136643 0.45545495
-0.10631397 -0.15074758 0.45584312
-0.10448167 -0.14977227 0.45537052
-0.10325912 -0.14915456 0.45575798
-0.10143358 -0.14818268 0.45528322
-0.10021329 -0.14756609 0.45566997
-0.098394454 -0.14659758 0.45519313
-0.097176403 -0.14598213 0.45557919
-0.095364243 -0.14501703 0.45510018
-0.094148487 -0.1444027 0.45548552
-0.092343062 -0.14344099 0.45500442
-0.091129482 -0.14282781 0.45538905
-0.089330763 -0.14186947 0.45490575
-0.088119417 -0.14125742 0.45528966
-0.086327434 -0.14030248 0.45480433
-0.085118353 -0.13969158 0.45518753
-0.083909273 -0.13908064 0.45557073
-0.08212626 -0.13813025 0.45508251
-0.080919415 -0.13752046 0.45546499
-0.07971257 -0.13691066 0.45584747
-0.077938467 -0.13596478 0.45535648
-0.076733887 -0.13535613 0.45573828
-0.07496649 -0.1344136 0.45524499
-0.073764145 -0.13380608 0.45562607
-0.072003484 -0.13286699 0.45513082
-0.070803374 -0.13226059 0.45551118
-0.069049418 -0.1313249 0.45501372
-0.067851543 -0.13071965 0.45539337
-0.066104323 -0.12978734 0.4548938
-0.064908713 -0.12918322 0.45527273
-0.063713044 -0.12857908 0.45565167
-0.061974794 -0.12765129 0.45514932
-0.060241014 -0.12672576 0.4546454
-0.059049815 -0.12612389 0.45502293
-0.05732277 -0.12520178 0.45451701
-0.056133837 -0.12460104 0.45489383
-0.054413527 -0.12368231 0.45438573
-0.053226829 -0.12308268 0.45476183
-0.05204013 -0.12248309 0.45513794
-0.050328761 -0.12156889 0.45462707
-0.049144298 -0.1209704 0.45500246
-0.047439605 -0.12005958 0.45448935
-0.046257347 -0.11946224 0.45486403
-0.045075148 -0.11886489 0.45523873
-0.043379456 -0.11795861 0.45472285
-0.042199492 -0.11736239 0.45509684
-0.040510505 -0.11645952 0.45457882
-0.039332777 -0.11586443 0.45495209
-0.038155049 -0.11526935 0.45532537
-0.036474973 -0.11437099 0.45480451
-0.03529948 -0.11377704 0.45517707
-0.034123987 -0.11318308 0.45554963
-0.032452911 -0.11228923 0.45502594
-0.030786276 -0.11139764 0.45450076
-0.029615283 -0.11080596 0.45487192
-0.027955383 -0.10991779 0.45434469
-0.026786596 -0.10932724 0.4547151
-0.025133431 -0.10844244 0.45418575
-0.023966908 -0.10785301 0.45455548
0.029424846 -0.079885811 0.45041072
0.03015399 -0.079566844 0.45169514
0.030887634 -0.079245634 0.452981
0.032013863 -0.078676574 0.45333794
0.032754213 -0.078351967 0.4546259
0.033882692 -0.077781759 0.45498356
0.035011172 -0.077211566 0.45534122
0.036139637 -0.076641373 0.45569888
0.037645042 -0.075831257 0.45512268
0.038771272 -0.075262211 0.45547962
0.040269941 -0.074455462 0.45490131
0.041764155 -0.073651016 0.45432156
0.042885914 -0.073084205 0.45467708
0.044007674 -0.07251741 0.45503262
0.045492932 -0.071717471 0.45444998
0.046612442 -0.071151793 0.45480481
0.048090965 -0.070355251 0.45422009
0.049208254 -0.069790706 0.4545742
0.050325528 -0.069226176 0.45492831
0.051795095 -0.068434149 0.45434076
0.053260207 -0.067644395 0.45375174
0.054372996 -0.067082122 0.45410442
0.055831388 -0.066295758 0.45351332
0.056941956 -0.06573461 0.45386532
0.058393598 -0.064951651 0.45327207
0.059840798 -0.064170942 0.45267737
0.061283499 -0.06339249 0.45208129
0.062721729 -0.062616311 0.45148379
0.10409412 -0.041167505 0.45300967
0.1051711 -0.040623337 0.45335099
0.10624807 -0.040079162 0.45369235
0.10707575 -0.039710425 0.455008
0.10790789 -0.039339431 0.45632508
0.10898934 -0.038792998 0.45666784
0.11007079 -0.038246565 0.4570106
0.11115225 -0.037700124 0.45735335
0.11223371 -0.037153691 0.45769611
0.11307929 -0.036775917 0.45901746
0.11439661 -0.036060818 0.45838162
0.11547807 -0.035514385 0.45872438
0.11655952 -0.034967951 0.45906714
0.11764097 -0.034421518 0.45940989
0.11872242 -0.033875078 0.45975265
0.11980388 -0.033328645 0.46009541
0.12110554 -0.032621481 0.4594546
0.12218475 -0.032076173 0.45979664
0.12347968 -0.031372406 0.45915374
0.12455665 -0.03082823 0.45949507
0.12563363 -0.030284055 0.45983642
0.1269196 -0.029584803 0.45919064
0.12799434 -0.02904176 0.45953128
0.12906907 -0.028498717 0.45987189
0.13014382 -0.027955681 0.46021253
0.13141859 -0.027262077 0.45956323
0.13268889 -0.026570752 0.45891249
0.13375916 -0.026029974 0.4592517
0.13482942 -0.025489196 0.45959091
0.13609076 -0.024802387 0.45893735
0.13715878 -0.024262741 0.45927584
0.1384134 -0.023579314 0.45862013
0.13966355 -0.022898167 0.45796305
0.1407271 -0.022360787 0.45830011
0.14197053 -0.021683037 0.45764089
0.14303184 -0.021146789 0.45797727
0.14409313 -0.020610534 0.45831364
0.14515443 -0.020074278 0.45864999
0.14621574 -0.01953803 0.45898637
0.14727703 -0.019001774 0.45932275
0.14833835 -0.018465519 0.45965913
0.14939964 -0.017929271 0.45999548
0.15046094 -0.017393015 0.46033186
0.15168199 -0.016726561 0.45966551
0.15258355 -0.016320504 0.46100459
0.15380011 -0.015656315 0.46033683
0.15485917 -0.015121192 0.46067247
0.15591824 -0.014586076 0.46100813
0.1569773 -0.014050953 0.4613438
0.15818268 -0.013392434 0.4606725
0.15938357 -0.012736175 0.45999977
0.16043815 -0.01220331 0.460334
0.16163233 -0.011550449 0.45965913
0.19067878 0.0035218969 0.46043843
0.19171321 0.0040445738 0.46076629
0.19274764 0.0045672506 0.46109414
0.19385448 0.0051760003 0.46039161
0.19488668 0.0056975447 0.46071878
0.19591887 0.006219089 0.46104592
0.19695108 0.0067406371 0.46137306
0.19804673 0.0073437244 0.46066695
0.19907668 0.0078641362 0.46099338
0.20010664 0.0083845481 0.46131983
0.20119333 0.0089831129 0.46061093
0.20222105 0.009502396 0.46093667
0.20324877 0.010021687 0.46126238
0.20427647 0.010540962 0.46158811
0.20535201 0.011133876 0.46087563
0.20637748 0.011652026 0.46120062
0.20740296 0.012170181 0.46152565
0.20846951 0.012758557 0.46081033
0.20949274 0.013275575 0.46113464
0.21055259 0.013860568 0.46041724
0.21157359 0.014376458 0.46074083
0.21259458 0.014892347 0.46106443
0.21361558 0.015408237 0.46138802
0.21466422 0.015987564 0.46066701
0.21568297 0.016502317 0.46098989
0.21670173 0.017017078 0.4613128
0.21774141 0.017591877 0.46058899
0.21875794 0.018105505 0.46091115
0.21977445 0.018619133 0.46123335
0.22079098 0.019132758 0.46155551
0.22180751 0.019646382 0.46187767
0.22283375 0.020214409 0.4611496
0.22384803 0.020726901 0.46147105
0.22486232 0.0212394 0.46179253
0.2258766 0.021751899 0.46211401
0.22689165 0.022314247 0.46138239
0.22790369 0.022825614 0.46170315
0.22891574 0.023336973 0.46202391
0.22992183 0.023894807 0.46128947
0.23093164 0.024405034 0.46160951
0.23193103 0.024959486 0.46087289
0.23293859 0.025468588 0.46119222
0.23394614 0.02597769 0.46151158
0.23493657 0.026527591 0.46077216
0.23594189 0.027035564 0.46109077
0.23694722 0.027543534 0.46140942
0.2379287 0.028088931 0.46066713
0.23893179 0.028595768 0.46098503
0.23993486 0.029102601 0.46130297
0.24093796 0.029609442 0.4616209
0.24194102 0.030116275 0.4619388
0.24294414 0.030623123 0.46225673
0.24394721 0.031129956 0.46257463
0.24491078 0.031666305 0.46182671
0.2459116 0.032172009 0.46214393
0.24691245 0.032677718 0.46246111
0.2479133 0.033183426 0.46277833
0.24886566 0.033714108 0.4620268
0.24986428 0.034218684 0.46234331
0.2508629 0.03472326 0.46265981
0.25180632 0.035249416 0.46190548
0.25280267 0.035752859 0.46222126
0.25379905 0.036256302 0.46253705
0.2547335 0.036777936 0.46177989
0.25572762 0.037280247 0.46209499
0.25672174 0.037782557 0.46241006
0.25771588 0.038284875 0.46272513
0.25863913 0.038800851 0.4619644
0.25963104 0.039302029 0.46227875
0.26062292 0.039803214 0.46259314
0.2616148 0.040304393 0.46290752
0.26252687 0.040814709 0.46214324
0.26351652 0.04131477 0.46245691
0.26450616 0.041814815 0.46277058
0.26549584 0.042314868 0.46308425
0.26648548 0.042814914 0.46339789
0.26747513 0.043314967 0.46371156
0.26837152 0.043817364 0.4629423
0.26935893 0.044316277 0.46325526
0.27034634 0.044815198 0.46356821
0.27123377 0.045313068 0.46279615
0.27221894 0.045810863 0.46310839
0.27309966 0.04630534 0.46233419
0.2740826 0.046802003 0.46264571
0.27506554 0.047298659 0.46295723
0.27604848 0.047795314 0.46326876
0.27691799 0.048284139 0.46249104
0.27789867 0.048779663 0.46280184
0.27887937 0.049275186 0.46311268
0.27986008 0.049770709 0.46342349
0.28084075 0.05026624 0.46373433
0.28169686 0.050748266 0.46295229
0.28267533 0.051242664 0.46326241
0.28365377 0.051737055 0.46357253
0.28463221 0.052231446 0.46388263
0.2854771 0.052707836 0.4630971
0.28645331 0.053201102 0.4634065
0.2872915 0.053674076 0.4626188
0.28826547 0.054166216 0.46292749
0.28923947 0.054658342 0.46323618
0.29006866 0.055126794 0.46244565
0.29104042 0.055617802 0.46275362
0.29201216 0.056108795 0.4630616
0.29298389 0.056599803 0.46336958
0.29395562 0.057090797 0.46367759
0.29477143 0.057552472 0.46288282
0.2957409 0.05804234 0.46319008
0.29671043 0.058532208 0.46349737
0.2976799 0.059022076 0.46380463
0.2984845 0.059478085 0.46300629
0.29945174 0.059966821 0.46331283
0.30041903 0.060455564 0.46361941
0.3013863 0.0609443 0.46392599
0.30217966 0.061394647 0.46312413
-0.17370144 -0.18415096 0.45551905
-0.17172706 -0.18310675 0.4550916
-0.16905442 -0.18166316 0.45383206
-0.16709122 -0.18062457 0.453401
-0.16513249 -0.1795883 0.45296857
-0.16317824 -0.17855428 0.45253465
-0.16122842 -0.17752247 0.45209935
-0.15928307 -0.17649294 0.45166257
-0.15803146 -0.17586054 0.4520593
-0.15609285 -0.17483442 0.4516204
-0.15484348 -0.17420313 0.45201638
-0.15359411 -0.17357185 0.45241237
-0.15234473 -0.17294057 0.45280835
-0.15109536 -0.17230928 0.45320433
-0.14984599 -0.17167799 0.45360029
-0.14859661 -0.1710467 0.45399627
-0.14734724 -0.17041542 0.45439225
-0.14609787 -0.16978414 0.45478824
-0.14484844 -0.16915284 0.45518422
-0.14293447 -0.16813917 0.4547376
-0.14168736 -0.16750903 0.45513287
-0.14044023 -0.16687888 0.45552814
-0.13853523 -0.16586973 0.45507863
-0.13729033 -0.16524071 0.45547318
-0.13539198 -0.16423494 0.45502153
-0.13414931 -0.16360703 0.4554154
-0.13225776 -0.16260469 0.4549616
-0.13037065 -0.16160458 0.45450646
-0.12913248 -0.16097894 0.45489889
-0.12725207 -0.15998223 0.45444158
-0.12601614 -0.15935774 0.4548333
-0.12414247 -0.15836442 0.45437384
-0.12290874 -0.15774105 0.45476487
-0.1210418 -0.15675116 0.45430326
-0.11981031 -0.1561289 0.45469359
-0.11857888 -0.15550667 0.45508388
-0.11672089 -0.15452129 0.4546195
-0.11549166 -0.15390018 0.4550091
-0.11426243 -0.15327907 0.45539871
-0.11241341 -0.15229823 0.45493144
-0.11118641 -0.15167825 0.45532033
-0.10995942 -0.15105827 0.45570922
-0.10811934 -0.15008193 0.45523912
-0.10689458 -0.14946309 0.45562729
-0.10506123 -0.14849012 0.45515504
-0.10383871 -0.1478724 0.45554253
-0.10201207 -0.14690287 0.45506814
-0.10079178 -0.14628629 0.45545492
-0.098971874 -0.14532013 0.4549785
-0.097753853 -0.14470468 0.45536453
-0.09594062 -0.14374192 0.45488593
-0.094724834 -0.14312761 0.45527124
-0.092918366 -0.14216825 0.45479056
-0.091704816 -0.14155504 0.45517519
-0.089904994 -0.14059906 0.45469227
-0.088693678 -0.13998701 0.45507619
-0.086900622 -0.13903442 0.45459124
-0.085691541 -0.1384235 0.45497444
-0.084482461 -0.13781258 0.45535764
-0.083273381 -0.13720165 0.45574084
-0.08149156 -0.13625473 0.45525229
-0.080284685 -0.13564494 0.4556348
-0.078509539 -0.1347014 0.4551442
-0.077304929 -0.13409275 0.45552596
-0.075536489 -0.13315259 0.45503309
-0.074334145 -0.13254507 0.45541418
-0.07257244 -0.13160832 0.45491931
-0.0713723 -0.13100192 0.45529968
-0.069617301 -0.13006859 0.4548026
-0.068419427 -0.12946333 0.45518225
-0.066671163 -0.12853338 0.45468307
-0.065475523 -0.12792923 0.455062
-0.064279884 -0.1273251 0.45544097
-0.062540561 -0.12639967 0.45493898
-0.061347157 -0.12579666 0.45531723
-0.059614509 -0.12487461 0.454813
-0.05842337 -0.12427275 0.45519054
-0.056697488 -0.12335409 0.45468432
-0.055508554 -0.12275337 0.45506111
-0.053789407 -0.12183811 0.45455271
-0.052602679 -0.1212385 0.45492882
-0.05141601 -0.12063889 0.45530492
-0.050229341 -0.12003928 0.45568103
-0.04852137 -0.11912972 0.45516911
-0.047336906 -0.11853123 0.45554453
-0.045635611 -0.117625 0.45503038
-0.044453412 -0.11702766 0.45540506
-0.042758882 -0.11612487 0.45488891
-0.041578919 -0.11552864 0.45526287
-0.039891094 -0.11462924 0.45474452
-0.038713366 -0.11403416 0.45511779
-0.037535638 -0.11343908 0.45549107
-0.035856754 -0.11254419 0.45496991
-0.034681261 -0.11195023 0.45534247
-0.033505768 -0.11135629 0.45571503
-0.031835884 -0.11046591 0.45519102
-0.030662626 -0.1098731 0.45556286
-0.028999388 -0.10898611 0.45503667
-0.027828395 -0.10839443 0.45540783
-0.026171923 -0.10751088 0.45487955
-0.025003165 -0.10692032 0.45524999
0.029621124 -0.078388028 0.45149705
0.030353725 -0.078064464 0.45278251
0.031479955 -0.077495389 0.45313945
0.032219246 -0.077168427 0.45442703
0.033347726 -0.076598249 0.45478469
0.034476191 -0.076028042 0.45514235
0.035604671 -0.075457864 0.45550001
0.036733136 -0.074887656 0.45585766
0.038237348 -0.074081026 0.45528114
0.039363593 -0.073511966 0.45563811
0.040861085 -0.072708718 0.45505947
0.042354122 -0.071907729 0.4544794
0.043475881 -0.071340933 0.45483494
0.044597626 -0.070774138 0.45519045
0.046081722 -0.069977656 0.45460749
0.047561288 -0.069183454 0.45402318
0.048678577 -0.068618923 0.45437729
0.049795866 -0.068054378 0.4547314
0.051266477 -0.067264721 0.45414424
0.052381516 -0.066701308 0.45449764
0.05384545 -0.065915041 0.45390832
0.054958254 -0.065352768 0.454261
0.056415468 -0.064569876 0.45366958
0.057526022 -0.064008735 0.45402157
0.058976516 -0.06322924 0.45342803
0.060422525 -0.062452011 0.452833
0.061864048 -0.061677054 0.45223662
0.063301101 -0.060904339 0.45163879
0.10142961 -0.041126326 0.4521372
0.10250658 -0.040582158 0.45247853
0.10358355 -0.040037982 0.45281985
0.10466053 -0.039493814 0.45316121
0.1054849 -0.039123863 0.45447573
0.10656412 -0.038578562 0.4548178
0.1073952 -0.038205214 0.4561345
0.10847665 -0.037658781 0.45647725
0.10955811 -0.037112348 0.45682001
0.11039816 -0.036734492 0.45813954
0.11148186 -0.036186926 0.45848301
0.11280247 -0.035473041 0.45784828
0.11388392 -0.034926601 0.45819104
0.11496538 -0.034380168 0.45853379
0.11604683 -0.033833735 0.45887655
0.11712828 -0.033287302 0.45921931
0.11820973 -0.032740861 0.45956206
0.11929119 -0.032194428 0.45990482
0.12059391 -0.031489611 0.4592644
0.12167312 -0.030944303 0.45960644
0.12296911 -0.030242883 0.45896393
0.12404609 -0.029698707 0.45930529
0.12512305 -0.029154532 0.45964661
0.12620004 -0.028610364 0.45998797
0.12748484 -0.027914584 0.45934185
0.12855957 -0.027371541 0.45968249
0.12963432 -0.026828505 0.46002311
0.13070905 -0.026285462 0.46036375
0.13198265 -0.025595352 0.45971414
0.13305515 -0.025053442 0.46005407
0.13432203 -0.024366722 0.45940229
0.13539229 -0.023825943 0.4597415
0.13665245 -0.023142621 0.45908764
0.13790815 -0.022461541 0.45843232
0.13897392 -0.021923028 0.4587701
0.14022291 -0.02124536 0.45811269
0.14128645 -0.020707972 0.45844978
0.14252868 -0.020033702 0.45779023
0.14359 -0.019497447 0.4581266
0.14465129 -0.018961191 0.45846295
0.1457126 -0.018424943 0.45879933
0.1467739 -0.017888688 0.45913571
0.1478352 -0.017352432 0.45947209
0.1488965 -0.016816184 0.45980844
0.14995781 -0.016279928 0.46014482
0.1510191 -0.015743673 0.4604812
0.15208042 -0.015207417 0.46081755
0.15314171 -0.014671169 0.46115392
0.15435711 -0.014010474 0.46048585
0.15541616 -0.013475351 0.46082148
0.15647523 -0.012940228 0.46115714
0.15768167 -0.012284055 0.46048626
0.15873849 -0.011750065 0.46082121
0.18803482 0.0034720637 0.46062687
0.18907149 0.0039958768 0.46095544
0.19018838 0.0046068057 0.46025613
0.19122282 0.0051294826 0.46058398
0.19225724 0.0056521595 0.46091184
0.19329166 0.00617484 0.4612397
0.1943261 0.0066975132 0.46156755
0.19536054 0.00722019 0.46189541
0.19646174 0.0078231841 0.46119115
0.19749393 0.0083447285 0.46151829
0.19852611 0.0088662729 0.46184543
0.19961835 0.0094647557 0.46113831
0.20064832 0.0099851713 0.46146476
0.20173384 0.010580249 0.46075553
0.20276156 0.01109954 0.46108127
0.20378926 0.011618815 0.46140698
0.204817 0.012138106 0.46173272
0.20589133 0.012727533 0.4610199
0.20691681 0.013245687 0.46134493
0.20798442 0.013831716 0.46063
0.20900765 0.014348734 0.46095431
0.2100309 0.014865756 0.46127862
0.21108955 0.015447263 0.46056089
0.21211055 0.015963152 0.46088448
0.21313155 0.016479041 0.46120808
0.21415256 0.016994931 0.46153167
0.21520001 0.017570775 0.46081036
0.21621877 0.018085536 0.46113324
0.21723753 0.018600293 0.46145612
0.21827604 0.019171616 0.46073201
0.21929255 0.019685244 0.46105418
0.22030908 0.020198869 0.46137637
0.22132561 0.020712493 0.46169853
0.22234213 0.021226121 0.46202073
0.22336718 0.021790665 0.4612923
0.22438148 0.022303164 0.46161377
0.22539577 0.022815663 0.46193525
0.22641188 0.023375664 0.46120402
0.22742392 0.023887031 0.46152478
0.22843596 0.02439839 0.46184555
0.2294431 0.024953885 0.46111149
0.23045291 0.025464112 0.46143153
0.23145336 0.026016209 0.46069533
0.23246092 0.026525311 0.46101466
0.2334685 0.027034413 0.46133399
0.23445997 0.027581967 0.46059498
0.23546529 0.028089941 0.4609136
0.23647062 0.02859791 0.46123224
0.23745316 0.02914096 0.46049035
0.23845625 0.029647797 0.46080825
0.23945932 0.030154631 0.46112618
0.24046242 0.030661471 0.46144411
0.24146549 0.031168304 0.46176201
0.2424686 0.031675152 0.46207994
0.24343544 0.032210264 0.46133313
0.24443629 0.032715973 0.46165031
0.24543713 0.033221677 0.46196753
0.24643798 0.033727385 0.46228474
0.24743883 0.034233093 0.46260193
0.24839225 0.034761436 0.46185079
0.24939087 0.035266012 0.46216729
0.25038949 0.035770588 0.46248379
0.25133395 0.036294397 0.46172988
0.2523303 0.03679784 0.46204567
0.25332671 0.037301283 0.46236145
0.25426221 0.03782057 0.46160468
0.25525633 0.038322881 0.46191978
0.25625044 0.038825192 0.46223485
0.25724459 0.03932751 0.46254992
0.25816891 0.03984113 0.46178958
0.25916082 0.040342309 0.46210396
0.2601527 0.040843494 0.46241835
0.26114458 0.041344672 0.4627327
0.26205769 0.041852642 0.46196884
0.26304734 0.042352702 0.46228251
0.26403701 0.042852748 0.46259618
0.26502666 0.043352801 0.46290985
0.2660163 0.043852847 0.46322349
0.26700598 0.0443529 0.46353716
0.26790342 0.04485295 0.46276829
0.26889083 0.045351863 0.46308124
0.26987824 0.045850784 0.46339419
0.27076674 0.046346307 0.46262252
0.27175191 0.046844102 0.46293476
0.27273709 0.047341883 0.463247
0.27361661 0.047832895 0.46247247
0.27459955 0.048329551 0.46278402
0.27558249 0.048826206 0.46309555
0.27645308 0.049312685 0.46231821
0.27743375 0.049808208 0.46262902
0.27841446 0.050303731 0.46293983
0.27939516 0.050799254 0.46325067
0.28037584 0.051294785 0.46356151
0.28123298 0.051774465 0.46277985
0.28221145 0.052268863 0.46308997
0.28318989 0.052763253 0.4634001
0.28416836 0.053257644 0.46371019
0.28501433 0.053731672 0.46292505
0.28599054 0.054224938 0.46323445
0.28682977 0.054695573 0.46244714
0.28780374 0.055187713 0.46275583
0.28877771 0.055679839 0.46306452
0.28960797 0.056145944 0.46227437
0.29057974 0.056636952 0.46258238
0.29155147 0.057127945 0.46289036
0.29252321 0.057618953 0.46319833
0.29349494 0.058109947 0.46350631
0.29431182 0.058569275 0.46271196
0.29528129 0.059059143 0.46301922
0.29625082 0.059549011 0.46332648
0.29722029 0.06003888 0.46363378
0.29802594 0.060492542 0.46283582
0.29899317 0.060981277 0.46314237
0.29996046 0.061470021 0.46344894
0.30075717 0.061919145 0.46264818
0.30172217 0.062406749 0.46295404
-0.17430326 -0.1828195 0.45529532
-0.17232785 -0.18177763 0.45486826
-0.17035678 -0.180738 0.45443967
-0.16839024 -0.17970064 0.45400974
-0.16642824 -0.17866558 0.45357838
-0.1644707 -0.17763275 0.45314562
-0.16251761 -0.17660221 0.45271137
-0.16056895 -0.1755739 0.45227575
-0.15931511 -0.17494033 0.45267317
-0.15737322 -0.17391545 0.45223537
-0.15612161 -0.17328304 0.45263207
-0.15486997 -0.17265061 0.45302877
-0.15361834 -0.17201819 0.45342547
-0.15236673 -0.17138578 0.45382214
-0.15111512 -0.17075337 0.45421883
-0.14986348 -0.17012094 0.45461553
-0.14861184 -0.16948852 0.45501223
-0.14669016 -0.1684738 0.45456806
-0.14544073 -0.16784251 0.45496404
-0.14419135 -0.16721122 0.45536003
-0.14294198 -0.16657995 0.45575598
-0.14103147 -0.1655709 0.45530835
-0.13978431 -0.16494073 0.45570362
-0.13853714 -0.16431059 0.45609888
-0.13663557 -0.16330604 0.45564833
-0.13539067 -0.16267702 0.45604289
-0.13349578 -0.16167587 0.45559022
-0.13160542 -0.16067699 0.45513615
-0.13036492 -0.16005021 0.4555293
-0.12848127 -0.15905473 0.45507312
-0.12660208 -0.1580615 0.45461547
-0.12536612 -0.15743701 0.4550072
-0.12349361 -0.15644716 0.45454744
-0.12225991 -0.1558238 0.45493844
-0.12102619 -0.15520042 0.45532945
-0.11916268 -0.15421513 0.45486686
-0.11793122 -0.15359288 0.45525715
-0.11607441 -0.15261097 0.45479247
-0.11484519 -0.15198988 0.45518208
-0.11361596 -0.15136877 0.45557165
-0.1117681 -0.15039138 0.45510408
-0.11054111 -0.14977142 0.45549297
-0.10869998 -0.14879744 0.45502326
-0.10747522 -0.14817859 0.45541143
-0.10625049 -0.14755975 0.45579961
-0.10441825 -0.14659025 0.45532706
-0.10319576 -0.14597255 0.45571452
-0.1013703 -0.14500648 0.45523986
-0.10015002 -0.1443899 0.45562661
-0.098331273 -0.14342722 0.45514986
-0.096516997 -0.1424668 0.45467165
-0.095301211 -0.14185248 0.455057
-0.09349367 -0.14089549 0.4545767
-0.09228012 -0.1402823 0.45496133
-0.090479225 -0.13932864 0.45447877
-0.089267939 -0.13871659 0.45486268
-0.088056594 -0.13810453 0.45524663
-0.086264729 -0.13715544 0.45476136
-0.085055649 -0.13654453 0.45514455
-0.083846569 -0.13593359 0.45552778
-0.082063675 -0.13498902 0.45503962
-0.08085683 -0.13437924 0.4554221
-0.079080611 -0.13343805 0.45493189
-0.077876002 -0.1328294 0.45531368
-0.076106519 -0.13189158 0.4548212
-0.074904174 -0.13128406 0.45520228
-0.073141366 -0.13034965 0.4547078
-0.071941257 -0.12974325 0.45508817
-0.070185184 -0.12881227 0.45459148
-0.06898731 -0.128207 0.45497116
-0.067789406 -0.12760173 0.45535082
-0.066042334 -0.12667526 0.4548513
-0.064846724 -0.12607114 0.45523027
-0.063106328 -0.12514804 0.45472866
-0.061912924 -0.12454505 0.45510691
-0.06071952 -0.12394203 0.45548514
-0.058988065 -0.12302347 0.45498061
-0.057796896 -0.12242161 0.45535815
-0.056072205 -0.12150644 0.4548516
-0.054883271 -0.12090568 0.45522842
-0.053694338 -0.12030496 0.45560524
-0.051978588 -0.11939432 0.4550958
-0.050791889 -0.11879469 0.4554719
-0.049605221 -0.1181951 0.45584801
-0.048418522 -0.11759548 0.45622411
-0.046713978 -0.11669052 0.45571119
-0.045529515 -0.11609203 0.45608658
-0.043831676 -0.11519045 0.45557141
-0.042649448 -0.11459309 0.45594609
-0.040958315 -0.11369491 0.4554289
-0.039778382 -0.11309868 0.45580289
-0.038093954 -0.11220388 0.45528349
-0.036916226 -0.1116088 0.45565677
-0.035238534 -0.11071739 0.45513532
-0.034063041 -0.11012346 0.45550784
-0.032887548 -0.1095295 0.45588043
-0.031218797 -0.10864261 0.45535609
-0.030045539 -0.10804978 0.45572796
-0.028872311 -0.10745698 0.45609981
-0.02721253 -0.10657459 0.45557261
-0.026041508 -0.10598291 0.45594373
-0.024870485 -0.10539123 0.45631489
0.027964294 -0.07777711 0.45094272
0.029088274 -0.077209197 0.45129898
0.029819801 -0.076883279 0.45258403
0.0305558 -0.076555096 0.45387051
0.031684265 -0.075984918 0.45422816
0.032812744 -0.07541471 0.45458582
0.033941209 -0.074844517 0.45494348
0.035069689 -0.074274324 0.45530114
0.036198154 -0.073704146 0.45565879
0.037326634 -0.073133938 0.45601645
0.038829669 -0.07233078 0.45543963
0.040328234 -0.071529888 0.45486137
0.041452229 -0.070961945 0.4552176
0.042944089 -0.070164442 0.45463723
0.044065833 -0.069597647 0.45499277
0.045550987 -0.068803534 0.4544102
0.046670496 -0.068237856 0.45476502
0.0481489 -0.067447141 0.45418039
0.049266189 -0.066882595 0.4545345
0.050383464 -0.066318065 0.45488861
0.051852912 -0.065531872 0.45430112
0.052967951 -0.064968467 0.45465451
0.054430693 -0.064185672 0.45406488
0.055543512 -0.063623399 0.45441759
0.056999534 -0.062843993 0.45382586
0.058451086 -0.062066846 0.45323271
0.059898168 -0.06129197 0.45263806
0.061340749 -0.060519353 0.45204207
0.06277886 -0.059749 0.45144463
0.10199602 -0.03945265 0.45228872
0.10307299 -0.038908474 0.45263007
0.10389407 -0.038537294 0.45394349
0.10497328 -0.037991993 0.45428556
0.10580106 -0.037617438 0.45560116
0.10688251 -0.037071005 0.45594391
0.10796396 -0.036524571 0.45628667
0.10904542 -0.035978138 0.45662943
0.11012688 -0.035431698 0.45697218
0.11096811 -0.035050355 0.45829204
0.11228979 -0.034338832 0.45765769
0.11337124 -0.033792399 0.45800045
0.11445269 -0.033245958 0.45834321
0.11553414 -0.032699525 0.45868596
0.11661559 -0.032153092 0.45902872
0.11769705 -0.031606652 0.45937148
0.1187785 -0.031060219 0.45971423
0.11985996 -0.030513786 0.46005699
0.12116149 -0.029812433 0.45941624
0.12224071 -0.029267132 0.45975831
0.12353552 -0.028569199 0.45911548
0.1246125 -0.028025024 0.4594568
0.12568948 -0.027480856 0.45979816
0.12676644 -0.02693668 0.46013948
0.12805007 -0.026244372 0.45949307
0.12912481 -0.025701337 0.45983371
0.13019955 -0.025158294 0.46017435
0.1314742 -0.02447053 0.45952514
0.13254671 -0.02392862 0.45986503
0.13381465 -0.023244247 0.45921367
0.13488491 -0.022703469 0.45955288
0.13614614 -0.022022493 0.45889941
0.13721415 -0.02148284 0.4592379
0.13846867 -0.020805255 0.45858228
0.13971871 -0.020129934 0.45792526
0.14078225 -0.019592546 0.45826232
0.14184579 -0.019055165 0.45859942
0.14290933 -0.018517777 0.45893648
0.14414816 -0.017848119 0.45827591
0.14520946 -0.017311871 0.45861229
0.14627077 -0.016775616 0.45894867
0.14733207 -0.01623936 0.45928505
0.14839336 -0.015703112 0.4596214
0.14945467 -0.015166856 0.45995778
0.15051597 -0.014630601 0.46029416
0.15157728 -0.014094345 0.46063051
0.15263858 -0.013558097 0.46096689
0.15369987 -0.013021842 0.46130326
0.15476118 -0.012485594 0.46163961
0.15597317 -0.011829495 0.46097052
0.1853798 0.0034224093 0.46081167
0.18641871 0.0039473474 0.46114093
0.18754336 0.0045593195 0.46044418
0.18858004 0.0050831325 0.46077275
0.18961671 0.0056069382 0.46110129
0.19065338 0.0061307512 0.46142986
0.19176684 0.0067370534 0.46072954
0.19280127 0.007259734 0.46105739
0.19383571 0.0077824071 0.46138525
0.19487014 0.008305084 0.46171311
0.19590458 0.0088277608 0.46204093
0.19700459 0.0094272904 0.46133637
0.19803677 0.0099488348 0.46166351
0.19906898 0.010470383 0.46199068
0.20016004 0.011065371 0.46128324
0.20118999 0.011585787 0.46160966
0.20221996 0.012106203 0.46193612
0.20330206 0.012696676 0.46122587
0.20432979 0.013215967 0.46155158
0.20540518 0.013803031 0.46083918
0.20643066 0.014321186 0.46116421
0.20749934 0.014904875 0.46044967
0.20852257 0.015421893 0.46077397
0.20954581 0.015938915 0.46109828
0.21056905 0.016455937 0.46142259
0.21162651 0.017033964 0.46070454
0.21264751 0.017549854 0.46102813
0.21366853 0.018065743 0.46135172
0.21471705 0.01863924 0.4606308
0.21573581 0.019154001 0.46095368
0.21675457 0.019668758 0.46127659
0.21777333 0.020183519 0.46159947
0.21881065 0.020751363 0.46087503
0.21982718 0.021264987 0.46119723
0.22084369 0.021778611 0.46151939
0.22186022 0.02229224 0.46184158
0.22287673 0.022805864 0.46216375
0.22390063 0.023366928 0.46143502
0.22491492 0.023879427 0.4617565
0.2259292 0.024391916 0.46207795
0.22694413 0.024948448 0.46134642
0.22795618 0.025459807 0.46166718
0.22896439 0.026012948 0.46093354
0.2299742 0.026523175 0.46125358
0.230984 0.027033413 0.46157363
0.23198326 0.027582027 0.4608371
0.23299083 0.028091129 0.46115643
0.23398337 0.028636336 0.46041781
0.2349887 0.029144309 0.46073642
0.23599403 0.029652279 0.46105507
0.23697762 0.030192982 0.46031356
0.23798071 0.030699819 0.46063149
0.2389838 0.031206653 0.46094939
0.23998688 0.031713493 0.46126732
0.24098995 0.032220326 0.46158525
0.24199305 0.032727174 0.46190315
0.24296097 0.033259947 0.46115673
0.24396183 0.033765655 0.46147394
0.24496266 0.034271359 0.46179113
0.24596351 0.034777068 0.46210834
0.24696435 0.035282776 0.46242556
0.24791884 0.035808757 0.46167481
0.24891745 0.036313333 0.46199131
0.24991606 0.036817908 0.46230781
0.25091466 0.037322484 0.46262431
0.25185797 0.037842821 0.46187007
0.25285435 0.038346265 0.46218586
0.25379092 0.038863197 0.46142951
0.25478506 0.039365508 0.46174458
0.25577915 0.039867818 0.46205965
0.25677329 0.040370136 0.46237475
0.25776744 0.04087244 0.46268982
0.25869057 0.041382596 0.46192917
0.25968248 0.041883782 0.46224353
0.26067436 0.04238496 0.46255788
0.26158851 0.042890575 0.46179444
0.26257819 0.043390635 0.46210811
0.26356784 0.043890681 0.46242175
0.26455748 0.044390734 0.46273541
0.26554716 0.04489078 0.46304908
0.26743531 0.045888536 0.46259427
0.26842272 0.046387449 0.46290722
0.26941013 0.04688637 0.46322018
0.27039754 0.04738529 0.46353313
0.27128488 0.047877349 0.46276113
0.27227002 0.04837513 0.4630734
0.27315062 0.04886378 0.46229926
0.27413356 0.049360435 0.46261078
0.2751165 0.049857091 0.4629223
0.27598813 0.05034123 0.46214536
0.27696884 0.050836753 0.4624562
0.27794951 0.051332276 0.462767
0.27893022 0.0518278 0.46307784
0.27991092 0.05232333 0.46338865
0.28076911 0.052800655 0.46260741
0.28174758 0.053295054 0.46291754
0.28272605 0.053789444 0.46322766
0.28370452 0.054283835 0.46353775
0.2845515 0.054755524 0.462753
0.28552771 0.055248789 0.46306241
0.28650391 0.055742048 0.46337181
0.28734201 0.056209203 0.4625842
0.28831598 0.056701329 0.46289289
0.28928995 0.057193454 0.46320158
0.29011905 0.057656102 0.46241111
0.29109079 0.058147095 0.46271911
0.29206252 0.058638103 0.46302709
0.29303426 0.059129097 0.46333507
0.29400602 0.059620097 0.46364304
0.29482168 0.060075939 0.46284837
0.29579121 0.060565807 0.46315563
0.2966001 0.061018255 0.46235877
0.29756737 0.06150699 0.46266535
0.29853463 0.061995726 0.4629719
0.2995019 0.062484469 0.46327847
0.30029967 0.062931255 0.46247813
0.3012647 0.063418858 0.46278396
-0.17561442 -0.18188724 0.45589998
-0.17363563 -0.18084657 0.45547396
-0.17166135 -0.1798082 0.45504656
-0.16969147 -0.17877203 0.45461765
-0.16772613 -0.17773816 0.45418742
-0.16576529 -0.17670657 0.45375574
-0.16380885 -0.17567722 0.45332268
-0.16255054 -0.17504141 0.45372149
-0.16060087 -0.17401546 0.45328626
-0.15865567 -0.17299177 0.4528496
-0.15740183 -0.17235823 0.45324698
-0.15614793 -0.17172466 0.45364437
-0.15489408 -0.17109112 0.45404178
-0.15364024 -0.17045759 0.45443919
-0.1523864 -0.16982405 0.45483658
-0.15113249 -0.16919048 0.45523396
-0.14987865 -0.16855694 0.45563138
-0.1479536 -0.16754343 0.4551883
-0.14670196 -0.16691101 0.45558503
-0.14545035 -0.1662786 0.4559817
-0.14419875 -0.16564618 0.45637837
-0.1422849 -0.16463833 0.45593178
-0.14103553 -0.16400705 0.45632777
-0.13912839 -0.1630026 0.45587909
-0.13788128 -0.16237244 0.45627436
-0.13598087 -0.16137139 0.45582351
-0.13473597 -0.16074236 0.45621806
-0.13284221 -0.15974468 0.4557651
-0.13095298 -0.15874928 0.45531067
-0.12906829 -0.15775615 0.45485491
-0.12783009 -0.15713051 0.45524734
-0.12595204 -0.15614077 0.45478937
-0.12471613 -0.15551627 0.45518109
-0.12284479 -0.1545299 0.45472103
-0.12161106 -0.15390652 0.45511204
-0.12037736 -0.15328316 0.45550305
-0.11851504 -0.15230134 0.45504013
-0.11728355 -0.1516791 0.45543042
-0.11542791 -0.15070067 0.45496544
-0.11419871 -0.15007958 0.45535502
-0.11296946 -0.14945847 0.45574462
-0.11112279 -0.14848457 0.45527673
-0.1098958 -0.1478646 0.45566562
-0.10805586 -0.14689408 0.45519558
-0.1068311 -0.14627524 0.45558375
-0.10499781 -0.14530809 0.45511162
-0.10377529 -0.14469039 0.45549908
-0.10194877 -0.14372666 0.45502481
-0.10072851 -0.14311008 0.45541155
-0.098908693 -0.14214976 0.45493522
-0.097690672 -0.14153431 0.45532125
-0.095877588 -0.14057738 0.45484272
-0.094661802 -0.13996308 0.45522806
-0.092855424 -0.13900954 0.45474744
-0.091641873 -0.13839635 0.45513207
-0.08984217 -0.13744618 0.45464924
-0.088630825 -0.13683411 0.45503315
-0.086837918 -0.13588738 0.45454827
-0.085628837 -0.13527645 0.45493147
-0.084419757 -0.13466552 0.4553147
-0.08263579 -0.13372332 0.45482692
-0.081428975 -0.13311352 0.45520943
-0.079651684 -0.13217467 0.4547196
-0.078447074 -0.13156602 0.45510137
-0.076676518 -0.13063055 0.4546093
-0.075474173 -0.13002303 0.45499039
-0.073710322 -0.12909098 0.45449629
-0.072510213 -0.12848458 0.45487666
-0.070753068 -0.12755594 0.45438039
-0.069555193 -0.12695067 0.45476004
-0.068357319 -0.12634541 0.4551397
-0.066609174 -0.12542127 0.4546406
-0.065413505 -0.12481715 0.45501953
-0.064217895 -0.12421302 0.45539847
-0.062478691 -0.12329341 0.4548966
-0.061285287 -0.12269042 0.45527482
-0.060091883 -0.12208742 0.45565307
-0.05836159 -0.12117232 0.45514822
-0.057170421 -0.12057044 0.45552576
-0.055979282 -0.11996858 0.45590326
-0.054257959 -0.11905803 0.4553957
-0.053069055 -0.11845727 0.45577252
-0.051880091 -0.11785655 0.45614934
-0.050167769 -0.11695051 0.45563886
-0.0489811 -0.1163509 0.45601499
-0.047794431 -0.11575131 0.4563911
-0.04609105 -0.11484981 0.45587784
-0.044906586 -0.11425135 0.45625323
-0.043209881 -0.11335319 0.45573774
-0.042027682 -0.11275586 0.45611244
-0.040337771 -0.11186114 0.45559493
-0.039157778 -0.11126494 0.45596892
-0.037474573 -0.11037362 0.45544922
-0.036296815 -0.10977852 0.4558225
-0.035119087 -0.10918346 0.45619577
-0.033444822 -0.10829665 0.45567325
-0.032269329 -0.1077027 0.45604584
-0.031093836 -0.10710874 0.4564184
-0.029918343 -0.10651481 0.45679095
-0.028255254 -0.10563365 0.45626488
-0.027082026 -0.10504085 0.45663676
-0.025425643 -0.10416308 0.45610851
0.027431428 -0.076598279 0.45074466
0.028159648 -0.076271169 0.4520286
0.029285878 -0.075702094 0.45238554
0.030020818 -0.075371571 0.4536716
0.031149283 -0.074801378 0.45402926
0.032277763 -0.074231185 0.45438695
0.033406228 -0.073660992 0.45474461
0.034152374 -0.0733248 0.45603421
0.035663188 -0.072520606 0.45545992
0.036791652 -0.071950413 0.45581758
0.037920117 -0.07138022 0.45617524
0.039421976 -0.07058055 0.45559809
0.040919378 -0.069783114 0.45501953
0.042043358 -0.069215186 0.45537576
0.04353404 -0.068421155 0.45479506
0.0446558 -0.06785436 0.4551506
0.046139777 -0.067063719 0.4545677
0.047259286 -0.066498056 0.45492253
0.048736513 -0.065710813 0.4543376
0.049853802 -0.065146282 0.45469171
0.050971076 -0.064581744 0.45504582
0.052439347 -0.063799031 0.45445803
0.053554386 -0.063235626 0.45481142
0.055015951 -0.06245631 0.45422146
0.056128755 -0.061894037 0.45457417
0.057583615 -0.061118111 0.45398211
0.05903399 -0.06034445 0.45338863
0.060479879 -0.059573047 0.45279369
0.061921284 -0.058803916 0.4521974
0.09798637 -0.040131949 0.45204306
0.099065587 -0.039586648 0.45238513
0.1001448 -0.039041348 0.45272717
0.10122401 -0.03849604 0.45306921
0.10204402 -0.038122535 0.45438227
0.10312547 -0.037576102 0.45472506
0.10420692 -0.037029669 0.45506778
0.10528838 -0.036483228 0.45541057
0.10611959 -0.036104061 0.45672718
0.10720327 -0.035556495 0.45707065
0.10828698 -0.03500893 0.45741412
0.10937066 -0.034461364 0.45775756
0.11045436 -0.033913799 0.45810103
0.1117771 -0.033204623 0.45746711
0.11285855 -0.032658182 0.45780987
0.11394 -0.032111749 0.45815262
0.11502145 -0.031565316 0.45849538
0.11610291 -0.031018883 0.45883814
0.11718436 -0.030472443 0.45918089
0.11826582 -0.029926009 0.45952365
0.11934727 -0.029379576 0.4598664
0.12042873 -0.028833143 0.46020916
0.12172908 -0.02813527 0.45956811
0.1228083 -0.027589962 0.45991015
0.12410194 -0.026895501 0.45926702
0.1251789 -0.026351333 0.45960835
0.12625588 -0.025807157 0.4599497
0.12754057 -0.025117211 0.45930368
0.12840983 -0.024718814 0.46063235
0.12969005 -0.024031132 0.45998493
0.13076478 -0.023488089 0.46032557
0.13203827 -0.022803798 0.45967603
0.13311076 -0.022261888 0.46001595
0.13437754 -0.021580994 0.45936427
0.1354478 -0.021040216 0.45970348
0.13670784 -0.02036272 0.45904967
0.13777585 -0.019823074 0.45938817
0.1390292 -0.019148961 0.45873225
0.14027806 -0.01847712 0.4580749
0.1413416 -0.017939739 0.45841199
0.14240514 -0.017402355 0.45874906
0.14346868 -0.016864974 0.45908615
0.14453222 -0.016327586 0.45942321
0.14559576 -0.015790205 0.45976031
0.1466593 -0.015252817 0.46009737
0.14772284 -0.014715429 0.46043447
0.14878638 -0.014178049 0.46077153
0.14984992 -0.013640668 0.46110862
0.15091346 -0.01310328 0.46144569
0.15213545 -0.012445018 0.46077985
0.15319675 -0.011908762 0.46111622
0.1827137 0.0033729263 0.46099284
0.18375486 0.0038989969 0.46132284
0.18488729 0.0045120046 0.46062857
0.1859262 0.0050369427 0.46095785
0.18696511 0.0055618882 0.46128711
0.18808858 0.0061703734 0.46059003
0.18912525 0.006694179 0.46091861
0.19016193 0.0072179921 0.46124718
0.1911986 0.0077417977 0.46157572
0.19223528 0.0082656071 0.46190429
0.19334531 0.0088673085 0.46120295
0.19437975 0.0093899854 0.46153077
0.19541419 0.0099126622 0.46185863
0.19644861 0.010435339 0.46218649
0.19748305 0.010958016 0.46251434
0.19857964 0.01155293 0.46180877
0.19961184 0.012074474 0.46213591
0.20070173 0.012665987 0.46142817
0.20173168 0.013186403 0.46175459
0.20281485 0.013774531 0.46104476
0.20384257 0.014293818 0.46137047
0.20487028 0.014813101 0.46169618
0.20594451 0.015396699 0.46098348
0.20696998 0.015914846 0.46130851
0.20803748 0.016495045 0.46059364
0.20906073 0.017012067 0.46091795
0.21008396 0.017529089 0.46124226
0.2111425 0.018104769 0.46052459
0.21216349 0.018620659 0.46084821
0.21318449 0.019136548 0.46117181
0.21420549 0.019652437 0.4614954
0.21525283 0.020222466 0.46077415
0.21627159 0.020737223 0.46109703
0.21729037 0.021251984 0.46141994
0.21830912 0.021766741 0.46174282
0.21934527 0.022331098 0.46101806
0.22036178 0.022844722 0.46134025
0.22137831 0.023358351 0.46166244
0.22239482 0.023871975 0.4619846
0.22341979 0.024430692 0.46125627
0.22443408 0.024943192 0.46157774
0.22544836 0.02545568 0.46189919
0.22646263 0.025968179 0.46222067
0.2274764 0.026521225 0.46148881
0.22848843 0.027032591 0.46180958
0.22949547 0.027582245 0.4610756
0.23050529 0.028092483 0.46139565
0.2315056 0.02863875 0.46065953
0.23251317 0.029147852 0.46097887
0.23350677 0.029690713 0.46024063
0.23451211 0.030198686 0.46055925
0.23551743 0.030706655 0.4608779
0.23650208 0.031245012 0.46013677
0.23750518 0.031751849 0.4604547
0.23850825 0.032258682 0.4607726
0.23951134 0.032765523 0.46109053
0.24051441 0.033272356 0.46140847
0.24148564 0.033803914 0.46066314
0.2425206 0.034286037 0.4620443
0.24352369 0.034792878 0.4623622
0.24448818 0.035321034 0.46161476
0.24548903 0.035826743 0.46193197
0.24648988 0.036332451 0.46224919
0.24744543 0.036856085 0.46149883
0.24844404 0.037360661 0.46181533
0.24944265 0.037865236 0.46213183
0.25044125 0.038369812 0.46244833
0.25138563 0.038887803 0.46169448
0.25238198 0.039391246 0.46201026
0.25337833 0.039894681 0.46232605
0.25431377 0.040408134 0.46156937
0.25530785 0.040910445 0.46188444
0.256302 0.041412763 0.46219954
0.25729614 0.041915067 0.46251461
0.25822034 0.042422876 0.46175435
0.25921226 0.042924061 0.46206871
0.26020414 0.04342524 0.46238309
0.26119602 0.043926418 0.46269748
0.26210901 0.044428576 0.46193367
0.26309866 0.044928622 0.46224734
0.26408833 0.045428675 0.46256101
0.26507798 0.04592872 0.46287468
0.26606762 0.046428774 0.46318832
0.26696721 0.046924122 0.46242025
0.26795462 0.047423035 0.46273321
0.26894203 0.047921956 0.46304616
0.26992944 0.048420876 0.46335912
0.27081782 0.048910581 0.46258754
0.27180296 0.049408361 0.46289977
0.27278817 0.049906157 0.46321201
0.27366757 0.050391328 0.46243754
0.27465051 0.050887983 0.46274909
0.27563345 0.051384639 0.46306062
0.27650392 0.051865291 0.46228334
0.2774846 0.052360814 0.46259418
0.2784653 0.052856337 0.46290499
0.27944601 0.053351868 0.46321583
0.28030527 0.053826846 0.46243498
0.28128374 0.054321244 0.4627451
0.28226221 0.054815635 0.46305519
0.28324065 0.055310026 0.46336532
0.28421909 0.055804417 0.46367544
0.28506494 0.056272626 0.46289036
0.28604114 0.056765884 0.46319976
0.28701738 0.05725915 0.46350917
0.28785425 0.057722833 0.46272123
0.28882822 0.058214959 0.46302992
0.28980219 0.058707099 0.46333861
0.2906301 0.059166238 0.46254784
0.29160187 0.059657246 0.46285585
0.2925736 0.060148239 0.46316382
0.29354534 0.06063924 0.4634718
0.29436207 0.061092734 0.46267751
0.29533157 0.061582603 0.46298477
0.29614156 0.062032711 0.4621883
0.29710883 0.062521443 0.46249488
0.29807609 0.063010186 0.46280143
0.29904336 0.063498929 0.463108
0.29984218 0.063943356 0.46230805
0.30080718 0.06443096 0.46261391
-0.17621735 -0.18055342 0.45567584
-0.17494556 -0.17991082 0.45607892
-0.17296794 -0.17887366 0.45565256
-0.17099482 -0.17783874 0.4552249
-0.16902617 -0.17680605 0.45479566
-0.16706198 -0.17577568 0.4543651
-0.1651023 -0.17474756 0.45393309
-0.16384172 -0.17411059 0.45433262
-0.16188875 -0.17308587 0.45389855
-0.16063043 -0.17245007 0.45429736
-0.15937212 -0.17181426 0.45469618
-0.15811375 -0.17117845 0.45509499
-0.15685537 -0.17054263 0.45549384
-0.15559706 -0.16990682 0.45589265
-0.15365979 -0.16889001 0.45545354
-0.15240368 -0.16825533 0.45585164
-0.15114757 -0.16762066 0.45624974
-0.14921924 -0.16660838 0.45580778
-0.14796534 -0.16597481 0.45620519
-0.1467115 -0.16534126 0.4566026
-0.14479211 -0.16433351 0.4561578
-0.14354047 -0.16370107 0.4565545
-0.14228889 -0.16306867 0.45695117
-0.14037845 -0.16206542 0.45650357
-0.1384725 -0.16106446 0.45605457
-0.13722536 -0.16043429 0.45644984
-0.13532612 -0.15943672 0.45599866
