# .PCD v0.7 - Point Cloud Data file format
VERSION 0.7
FIELDS x y z
SIZE 4 4 4
TYPE F F F
COUNT 1 1 1
WIDTH 1409
HEIGHT 1
VIEWPOINT 0 0 0 1 0 0 0
POINTS 1409
DATA ascii
-0.17492628 0.035050038 0.32325554
-0.16507669 0.035253558 0.32331333
-0.15496674 0.035063457 0.32344151
-0.14478718 0.034998037 0.32445872
-0.13490377 0.034963481 0.32598686
-0.12470008 0.035203043 0.32654962
-0.11483625 0.035341229 0.32502365
-0.10487687 0.0349967 0.32329154
-0.094950244 0.034767184 0.32316667
-0.084984526 0.035285942 0.32446167
-0.075121611 0.035301406 0.32503584
-0.064929165 0.034779843 0.32395962
-0.054962993 0.034896895 0.32491216
-0.045120362 0.03485762 0.32536814
-0.037769862 0.035457604 0.32278836
0.036860831 0.035278402 0.3228834
0.045015644 0.034999441 0.32594049
0.055130955 0.034892075 0.32730579
0.065183662 0.03498181 0.3283526
0.071714498 0.03658215 0.3285923
-0.25132349 0.048378903 0.32333654
-0.24453185 0.046168983 0.32382667
-0.23504326 0.045014262 0.32390746
-0.22493581 0.045024402 0.32268521
-0.21511848 0.045095354 0.32236105
-0.20528817 0.045091592 0.32307324
-0.19547211 0.045187239 0.32412589
-0.18500644 0.044962239 0.32347879
-0.17462735 0.045196261 0.32319227
-0.16521542 0.044986602 0.32454762
-0.15505351 0.044731829 0.32488698
-0.14514826 0.044880163 0.32530856
-0.1352209 0.045003198 0.32548919
-0.12503016 0.044992473 0.32660723
-0.11486273 0.044918682 0.32671797
-0.10493451 0.044805132 0.32514998
-0.09502691 0.044697735 0.32452282
-0.085217841 0.04522346 0.32469863
-0.074890532 0.044962876 0.32527751
-0.06460873 0.044830173 0.32478341
-0.0551355 0.044892225 0.32479587
-0.045463677 0.04498402 0.32482556
-0.037139215 0.044471353 0.32271704
0.036501203 0.044848446 0.32397169
0.044821326 0.044853374 0.32628277
0.055016506 0.045081668 0.32616508
0.064537682 0.044915698 0.32843894
0.074647933 0.044948917 0.32905784
-0.28381699 0.058630209 0.3273856
-0.2744014 0.057301983 0.32643998
-0.26465815 0.056009192 0.32504201
-0.25469843 0.05492802 0.32368496
-0.24494541 0.05487477 0.32390851
-0.23496185 0.054783739 0.32476193
-0.22482821 0.054970138 0.32433364
-0.21530512 0.055078924 0.32385796
-0.20517792 0.054984268 0.32353142
-0.19505306 0.055270158 0.32423711
-0.18500845 0.054950155 0.32472923
-0.17468764 0.054820176 0.32407856
-0.16496392 0.054875046 0.32463565
-0.1552083 0.054725539 0.32568914
-0.14513358 0.055123445 0.32625017
-0.13497166 0.055142324 0.32575676
-0.12513229 0.055034082 0.32482135
-0.11523828 0.055051755 0.32526478
-0.10494107 0.054739159 0.3254984
-0.09502551 0.05501274 0.32544717
-0.084896088 0.055013001 0.32534456
-0.074831225 0.055337965 0.32453105
-0.064867198 0.054957319 0.32501206
-0.054804813 0.055079523 0.32613045
-0.045194697 0.055137135 0.32526642
-0.037668798 0.05546055 0.32231855
0.035995111 0.055112552 0.3250151
0.04493089 0.054772902 0.32797483
0.055095594 0.055067103 0.32633474
0.064986698 0.055052184 0.32730454
0.075750858 0.055695903 0.32938123
0.082709201 0.056103393 0.32898113
-0.29378939 0.066075385 0.32628322
-0.28505462 0.065084174 0.32669848
-0.27499273 0.064925723 0.32576776
-0.26459178 0.064986989 0.32472354
-0.25466707 0.064975016 0.32416755
-0.24499238 0.064891808 0.32453024
-0.23488386 0.064964302 0.32454434
-0.22481969 0.065018974 0.32441705
-0.21507657 0.065102778 0.32559085
-0.20504114 0.065154411 0.32531196
-0.19512731 0.065139934 0.32459211
-0.1851031 0.06531623 0.32448855
-0.17522939 0.064631246 0.32426703
-0.16490197 0.064762205 0.32450163
-0.15532871 0.065155968 0.32636365
-0.14511459 0.065105572 0.3268362
-0.13478604 0.064946897 0.32601851
-0.12483237 0.065090574 0.32457325
-0.11517586 0.065266989 0.3235631
-0.10492764 0.064896531 0.32422245
-0.094920769 0.065133721 0.32552418
-0.085185066 0.065080479 0.32634202
-0.074569397 0.065044157 0.32476488
-0.065135978 0.064951174 0.32534876
-0.055274762 0.064877346 0.32670033
-0.045277584 0.064950846 0.32700455
-0.036860336 0.065144777 0.32282418
0.035804097 0.064697824 0.32547173
0.045134384 0.064802445 0.32882294
0.055183299 0.064987332 0.32799661
0.065008678 0.065266505 0.32700822
0.074994572 0.065038309 0.32832056
0.084593304 0.064595446 0.32957184
0.091051772 0.067633852 0.3297039
-0.32043922 0.079447329 0.32476866
-0.31396955 0.077131458 0.32579225
-0.3050732 0.07552997 0.3256726
-0.29517493 0.074677907 0.32459819
-0.28476441 0.075112805 0.32478169
-0.27492997 0.075302638 0.32483175
-0.26498824 0.074879169 0.32414335
-0.25481063 0.075139515 0.32400918
-0.24498095 0.074737065 0.32469624
-0.23499137 0.075203486 0.32484773
-0.22491118 0.074729547 0.32486916
-0.2153575 0.075263374 0.32628381
-0.20524149 0.075318024 0.32715246
-0.19484328 0.075002186 0.32625899
-0.184921 0.074953072 0.32507125
-0.17508982 0.074975394 0.32409504
-0.1647601 0.074959792 0.32357773
-0.15487808 0.075114369 0.32589522
-0.14508788 0.075145327 0.32810077
-0.13477474 0.074803866 0.32723576
-0.12464399 0.075100116 0.32515237
-0.11483765 0.074931912 0.3241851
-0.1049842 0.074927546 0.32455748
-0.094935365 0.074689358 0.32613033
-0.085297346 0.075042933 0.32724422
-0.075002268 0.074927032 0.32565635
-0.065005586 0.074822709 0.32633549
-0.055048466 0.074995719 0.32690319
-0.045157358 0.074862495 0.32639834
-0.037426218 0.07490027 0.32308415
0.036502067 0.075132266 0.32470629
0.044737719 0.075089462 0.32759738
0.055139512 0.075192809 0.32811931
0.064967662 0.074981697 0.32827446
0.07508868 0.074963689 0.32825342
0.083992399 0.074814834 0.32957655
0.093038805 0.073604062 0.32981461
-0.33372626 0.087577336 0.32383046
-0.32448378 0.085397236 0.32501405
-0.3147046 0.084935926 0.32607916
-0.30535978 0.085468732 0.3261469
-0.29516208 0.085061342 0.32395861
-0.28470489 0.085008591 0.32332283
-0.27515516 0.085370287 0.32480407
-0.26518857 0.085284166 0.32426143
-0.25498572 0.084949598 0.32343328
-0.24478263 0.084984437 0.32424626
-0.23478283 0.085230395 0.32437316
-0.22455548 0.084942624 0.32506999
-0.21449746 0.084969997 0.32704216
-0.20477784 0.085040107 0.32819524
-0.19504847 0.085005067 0.32798368
-0.18490954 0.084877029 0.32683527
-0.17513387 0.085038923 0.32539114
-0.16508639 0.085232109 0.32386747
-0.15489838 0.084967487 0.3247239
-0.14543135 0.085070394 0.32738635
-0.13530782 0.085012056 0.32794496
-0.12476346 0.084922194 0.32666445
-0.11469892 0.084916115 0.32570153
-0.10497536 0.084942587 0.3255696
-0.095072247 0.084851183 0.3259877
-0.085070156 0.084919505 0.32719493
-0.074911654 0.085055284 0.32617801
-0.064881265 0.084955737 0.32661346
-0.054940108 0.084671512 0.32718033
-0.044996966 0.08515653 0.3252165
-0.037312701 0.085055456 0.32205021
0.036050607 0.085430458 0.32563111
0.045059159 0.085047096 0.32761094
0.054919932 0.085286789 0.32749104
0.064959981 0.085265957 0.32826772
0.074800149 0.084866881 0.32895643
0.083184496 0.084273979 0.32955882
-0.36061442 0.099454135 0.32436699
-0.35386473 0.097679079 0.32438692
-0.34415215 0.095473975 0.32379985
-0.3348631 0.094776012 0.32376018
-0.32509217 0.095301449 0.3255893
-0.31517193 0.094832234 0.3277697
-0.30503109 0.095173389 0.32717815
-0.29520822 0.095320635 0.3250179
-0.28464508 0.094694801 0.32330725
-0.27480486 0.09529905 0.32486862
-0.26492047 0.095162854 0.32555512
-0.25498155 0.094906874 0.32417151
-0.24491996 0.095451117 0.32365635
-0.23490569 0.094931267 0.32408917
-0.22459595 0.094993986 0.32460102
-0.21525516 0.095056318 0.32719207
-0.20508234 0.094689414 0.32783249
-0.19508722 0.095023185 0.327281
-0.18499744 0.094992891 0.32732102
-0.17479436 0.095111713 0.32675824
-0.1646926 0.094989501 0.32550648
-0.15479112 0.09492366 0.32618642
-0.14493936 0.095161371 0.32721293
-0.13494246 0.09534011 0.3270047
-0.12507968 0.095058121 0.326565
-0.11474316 0.095074013 0.32628188
-0.10489427 0.09507864 0.32669908
-0.094976619 0.095022582 0.32600895
-0.084973536 0.095108956 0.32649726
-0.075012788 0.0949535 0.32730073
-0.065212168 0.094827823 0.32747728
-0.055244911 0.094739117 0.32724372
-0.045147441 0.095145181 0.32457829
-0.037995651 0.094386727 0.321605
0.035117839 0.095234409 0.32569331
0.044831604 0.094639584 0.32900661
0.054691128 0.093468063 0.32916799
0.064980984 0.093591586 0.3292968
0.073016688 0.091789275 0.32965806
0.082237758 0.090989947 0.32990813
-0.3839277 0.1087896 0.32501623
-0.37396097 0.10748027 0.3236255
-0.36428088 0.10549065 0.32354927
-0.3549093 0.1051748 0.32390365
-0.34505355 0.10496499 0.32402623
-0.33503884 0.10515705 0.32447878
-0.32496741 0.10506468 0.32620955
-0.31530938 0.10520833 0.32821453
-0.30517569 0.10505631 0.32718486
-0.29463273 0.1052364 0.32511279
-0.28469959 0.10491624 0.32379109
-0.27503306 0.10516931 0.3241601
-0.26482606 0.10520753 0.32557175
-0.25487864 0.10503181 0.32555392
-0.24512349 0.10495733 0.32441887
-0.23494837 0.10509399 0.32445958
-0.22461306 0.1051435 0.32507497
-0.21514696 0.10505756 0.32710928
-0.20512977 0.10482848 0.32788774
-0.19488136 0.10520307 0.32657242
-0.18453658 0.1049599 0.32550013
-0.17501754 0.10523089 0.32653144
-0.16478883 0.10488962 0.32667604
-0.15499747 0.10487118 0.32781187
-0.14507361 0.10495742 0.32880631
-0.13504015 0.10497763 0.32751232
-0.125111 0.1051003 0.32654214
-0.11487484 0.10510428 0.32608867
-0.10492644 0.10497728 0.3277576
-0.094851024 0.10483325 0.32836729
-0.085073449 0.10490524 0.32741809
-0.075003289 0.10482482 0.32792792
-0.06499958 0.10467874 0.32863244
-0.055016574 0.10482191 0.32761985
-0.045214862 0.10442736 0.32396811
0.035110492 0.10525022 0.32576337
0.044718653 0.10499211 0.32928944
0.051023692 0.10585722 0.32998922
-0.40222457 0.1188158 0.32575998
-0.39452857 0.11622038 0.32639635
-0.38533053 0.11458524 0.32573873
-0.37527826 0.1151786 0.32416168
-0.36500102 0.11492591 0.32363468
-0.35471252 0.1154974 0.32393321
-0.34464264 0.11494795 0.32404807
-0.33492422 0.11478983 0.32478267
-0.32496071 0.11531307 0.32646555
-0.31551006 0.11500243 0.32786557
-0.30522916 0.11513869 0.32713959
-0.29484627 0.11490802 0.32502884
-0.28489771 0.11523934 0.32417351
-0.27543536 0.11509497 0.32507107
-0.26496261 0.11483835 0.32511994
-0.25517824 0.11519293 0.32609612
-0.24511424 0.11479151 0.32570252
-0.23518132 0.11515722 0.32502848
-0.22520794 0.11504262 0.32591268
-0.2150764 0.11494731 0.32703909
-0.20497322 0.11478461 0.3279019
-0.19508661 0.11524115 0.32809168
-0.18491498 0.11480688 0.32590616
-0.17506762 0.11492676 0.32623577
-0.16501677 0.11500283 0.32741928
-0.15505506 0.11476337 0.3277275
-0.14546701 0.11483003 0.32773444
-0.13481538 0.11497062 0.32685229
-0.12479135 0.11508998 0.32699457
-0.11497625 0.11512946 0.32698867
-0.10501915 0.11493955 0.32741725
-0.095912538 0.11497024 0.32939798
-0.084524907 0.11487803 0.32940087
-0.074877828 0.11471581 0.32838634
-0.06490919 0.11492816 0.32836121
-0.055030189 0.11481172 0.32819882
-0.046448123 0.11490349 0.32423899
0.034443319 0.11496376 0.32618454
0.045893166 0.11292486 0.32952982
0.054331411 0.11567516 0.32969186
0.064135931 0.11752403 0.32973298
0.075993836 0.11902605 0.32990578
0.08133328 0.11689809 0.32999307
-0.42280054 0.12825432 0.32513458
-0.41465616 0.12650965 0.32574201
-0.40509337 0.12487067 0.32646137
-0.39527991 0.12502226 0.32768816
-0.38545284 0.12505548 0.32722929
-0.37521544 0.12522207 0.32570767
-0.36493048 0.12489932 0.32491484
-0.35486078 0.12504816 0.32521316
-0.34498045 0.12496673 0.32521561
-0.3345156 0.12515412 0.3250826
-0.32501474 0.12483402 0.3259173
-0.31466383 0.1251719 0.32688352
-0.30505812 0.12484753 0.32695794
-0.29503682 0.12496655 0.32584953
-0.28482386 0.12516452 0.3253617
-0.27512553 0.12501583 0.32662541
-0.26476434 0.12470203 0.32615554
-0.25510222 0.12526013 0.32676503
-0.24535349 0.12492642 0.32711747
-0.23499663 0.12466824 0.32586548
-0.22516137 0.12488959 0.32666606
-0.21542303 0.12488186 0.32801729
-0.20509656 0.12496594 0.32742009
-0.19514614 0.12515594 0.32749692
-0.18484607 0.12521429 0.32695666
-0.17494518 0.12480859 0.32651395
-0.16495633 0.12505688 0.32779253
-0.15494429 0.12480927 0.3281951
-0.14513913 0.12501307 0.32688895
-0.13516779 0.12508112 0.32544562
-0.12474792 0.12517689 0.3259297
-0.11514188 0.12510847 0.32767767
-0.10461771 0.12502265 0.32721674
-0.095060989 0.12511462 0.32863966
-0.084987223 0.12497845 0.3288537
-0.075017743 0.12489769 0.32866588
-0.065056726 0.12510751 0.32838851
-0.055129308 0.12480418 0.32827336
-0.04668263 0.12517209 0.32553032
0.032656353 0.12436036 0.32742664
0.056706809 0.12181066 0.32974076
0.065546617 0.12448904 0.32969841
0.073483676 0.12182022 0.32989684
-0.44317436 0.13845685 0.32393867
-0.43507466 0.13693227 0.32342732
-0.42513934 0.13490458 0.32440051
-0.41462594 0.13526399 0.32607114
-0.40483946 0.13463001 0.32749945
-0.39488858 0.13524915 0.32861534
-0.3849729 0.13476567 0.32873514
-0.37451294 0.13506132 0.32788301
-0.36476803 0.13482481 0.32756096
-0.3551535 0.13480397 0.32731137
-0.34483704 0.13519654 0.32687283
-0.33503839 0.13483867 0.32661045
-0.32482892 0.1348667 0.32594392
-0.31506583 0.13506354 0.32531279
-0.30487755 0.1349716 0.32555476
-0.29482752 0.13520482 0.32633984
-0.28499326 0.13504396 0.32701066
-0.27564934 0.13503395 0.32787439
-0.2651571 0.13498513 0.32703957
-0.25472629 0.13520911 0.32597467
-0.24537493 0.13503005 0.32727936
-0.2351182 0.1348459 0.32733488
-0.22500932 0.13481183 0.32708338
-0.21528038 0.1349427 0.32802159
-0.20499288 0.13487808 0.32802376
-0.1949079 0.13492419 0.32746953
-0.18464236 0.13505252 0.3268705
-0.17472354 0.13489754 0.32685131
-0.16512895 0.13490561 0.32772514
-0.1554182 0.13499288 0.32848564
-0.14510393 0.13517201 0.32801214
-0.13494636 0.13486923 0.3265616
-0.12510785 0.13485539 0.32611272
-0.11509033 0.1351219 0.32808825
-0.10520027 0.13493648 0.32812107
-0.095117547 0.13509347 0.32767481
-0.085062124 0.13505088 0.32803571
-0.074842274 0.13519922 0.32797211
-0.064971507 0.13507245 0.32839417
-0.055072576 0.13490835 0.32827809
-0.045357093 0.13529047 0.32551974
0.028844096 0.13522708 0.32396412
0.033964615 0.13535133 0.32870218
0.06703499 0.13000894 0.32970998
-0.44155312 0.14250498 0.32341257
-0.43425927 0.14413053 0.32350615
-0.42503989 0.1452592 0.32406539
-0.41539544 0.14474204 0.32596681
-0.40483135 0.14496256 0.32760414
-0.39517009 0.14482483 0.32838923
-0.38485816 0.14512248 0.32853797
-0.37470928 0.14502572 0.32860687
-0.36526212 0.14509109 0.3289741
-0.35521045 0.14471863 0.32869825
-0.34497058 0.14484833 0.32814959
-0.33465922 0.14505818 0.32785434
-0.3248077 0.14493622 0.32693389
-0.31477132 0.14507025 0.32530069
-0.3047756 0.14492197 0.32476422
-0.29501227 0.14517164 0.32622531
-0.28487721 0.14515518 0.32777923
-0.27497965 0.14530925 0.32775265
-0.26493603 0.14524283 0.32674202
-0.25489181 0.14503844 0.32550415
-0.24509433 0.14504258 0.3266623
-0.23542824 0.14497462 0.32824406
-0.22529775 0.14492063 0.32799786
-0.21489905 0.14502536 0.32747617
-0.20528081 0.14521191 0.32786927
-0.19524379 0.14507726 0.32759583
-0.18522051 0.14483903 0.32695413
-0.17497522 0.1450015 0.32708445
-0.16485126 0.144914 0.32809272
-0.15505444 0.14481375 0.32887092
-0.14482285 0.14483453 0.32895148
-0.13494499 0.14489299 0.3282553
-0.1247309 0.14491791 0.327272
-0.11476149 0.14513268 0.32813969
-0.10586101 0.14388798 0.32961941
-0.094782025 0.14462616 0.32882285
-0.084838822 0.14490753 0.32827398
-0.07492739 0.14526439 0.3280234
-0.064823002 0.14506033 0.32867956
-0.054820769 0.14499474 0.32859915
-0.045593623 0.14489526 0.3264454
0.028301096 0.14518304 0.32407752
0.033054616 0.14396705 0.3286247
-0.43099943 0.1508586 0.3235243
-0.42394352 0.15454456 0.32483929
-0.41478187 0.15490927 0.32624531
-0.40537179 0.15499364 0.32742655
-0.39532053 0.15521945 0.32768553
-0.38488397 0.15512539 0.32688746
-0.37486008 0.15469252 0.32729122
-0.36483943 0.15517518 0.3287138
-0.35478964 0.15490843 0.3287966
-0.34487873 0.15519504 0.32783371
-0.33510303 0.15490752 0.32800967
-0.32551333 0.15502702 0.32791033
-0.31511387 0.15492588 0.32652158
-0.30447409 0.15492032 0.32545051
-0.29479599 0.15512224 0.32645363
-0.28550279 0.15503091 0.32858339
-0.27527788 0.1550003 0.3284615
-0.26514274 0.15512812 0.32733443
-0.2549625 0.15502237 0.3266747
-0.24489796 0.15497112 0.32762694
-0.23521388 0.15463021 0.32938418
-0.22505 0.15495346 0.32880476
-0.21490246 0.1550253 0.32749602
-0.20493087 0.15509024 0.32800022
-0.19532877 0.15515842 0.3281399
-0.18507415 0.1549453 0.32744503
-0.17493747 0.15487729 0.32773796
-0.16478136 0.15479606 0.32809603
-0.15744691 0.15619047 0.3293522
-0.14211039 0.15070391 0.32956189
-0.13383843 0.15400232 0.3294057
-0.12501232 0.15486348 0.32846957
-0.1149733 0.15517306 0.32847723
-0.10607339 0.15568583 0.32965589
-0.096324116 0.1553591 0.32980385
-0.084072001 0.15205368 0.32948196
-0.074494675 0.15409625 0.32907102
-0.065850116 0.15426894 0.32938522
-0.053899914 0.15407868 0.32947263
-0.045131419 0.15513912 0.32683438
0.027402645 0.15514778 0.32541513
0.031280506 0.154319 0.32941988
-0.4216589 0.1624914 0.32651648
-0.41476697 0.16481519 0.32740036
-0.40482941 0.16499129 0.32770002
-0.39465106 0.1649791 0.3269985
-0.38430673 0.16492251 0.32579336
-0.37462613 0.1647587 0.32569683
-0.36517519 0.16533439 0.32743546
-0.35538942 0.16534697 0.32916331
-0.34490657 0.16508983 0.3281678
-0.33469084 0.1648823 0.3275536
-0.3249754 0.16499364 0.32789993
-0.31478578 0.1652302 0.32705984
-0.30482656 0.16501217 0.32623515
-0.29482901 0.16492391 0.32695785
-0.28518686 0.16522177 0.32913044
-0.27511272 0.16457726 0.32915378
-0.26503855 0.16505975 0.32779413
-0.25469065 0.1649258 0.32747564
-0.24496162 0.16495232 0.32802469
-0.23557982 0.16509743 0.32924739
-0.22468494 0.16494519 0.32915482
-0.21469007 0.16494527 0.32754025
-0.20501277 0.16505042 0.32825842
-0.19475532 0.16452356 0.3291741
-0.18498814 0.16506365 0.32858497
-0.17523675 0.16491155 0.32857028
-0.16494128 0.16505918 0.32743078
-0.15504533 0.16523218 0.32718927
-0.14493261 0.16633147 0.32855362
-0.13444473 0.16583818 0.32931197
-0.12532553 0.16437127 0.32958505
-0.11513681 0.16316998 0.32945195
-0.10370911 0.16458715 0.32967347
-0.094898008 0.16513325 0.32921401
-0.086935021 0.16743267 0.32946476
-0.079290673 0.16972627 0.32996371
-0.062631793 0.16282184 0.32985392
-0.053787559 0.16544867 0.32953131
-0.044920489 0.1652144 0.32801515
0.026786024 0.16504548 0.32592136
0.030968104 0.16633922 0.32951772
-0.41271424 0.173141 0.32868272
-0.40502417 0.17496186 0.32825989
-0.39491421 0.17523851 0.3269625
-0.38476971 0.17491536 0.32554209
-0.37492165 0.1752332 0.32514408
-0.36478025 0.17521508 0.32659423
-0.35599026 0.17487912 0.32920569
-0.34484407 0.17453398 0.32950169
-0.33504638 0.17511798 0.3284401
-0.32478675 0.1747427 0.32812724
-0.31516701 0.17518078 0.32791343
-0.30518365 0.17508341 0.32679611
-0.29492584 0.17496315 0.32674736
-0.28507382 0.17502528 0.32770741
-0.27505377 0.1750555 0.32832229
-0.26489902 0.17482176 0.32710949
-0.25530535 0.17491636 0.32644939
-0.2449977 0.17498569 0.32728779
-0.2351595 0.17504896 0.32890457
-0.22505063 0.17489696 0.3289519
-0.2150007 0.17461011 0.32705042
-0.20520435 0.17491309 0.32808664
-0.19495323 0.17532811 0.32956013
-0.18480693 0.17493752 0.32948408
-0.17647688 0.17344545 0.32964322
-0.1644251 0.1735861 0.32898343
-0.15503545 0.17511415 0.32698426
-0.14487557 0.17516853 0.32670069
-0.13490069 0.17511761 0.32788795
-0.12698321 0.17557861 0.32922527
-0.101832 0.17093962 0.32975632
-0.094643325 0.17279324 0.32940644
-0.08485081 0.17361036 0.32958892
-0.076758064 0.17693892 0.32970032
-0.05338132 0.17394994 0.32955799
-0.0449141 0.17512739 0.32846794
-0.03491329 0.17502892 0.32712451
-0.026116287 0.17745298 0.32501706
0.025128897 0.1755131 0.3263149
0.031184858 0.17270207 0.32964411
-0.40321061 0.18242195 0.32911482
-0.39486212 0.18455474 0.32855344
-0.38510129 0.1852355 0.3270036
-0.37486589 0.18517943 0.3259553
-0.36504021 0.18496792 0.32700491
-0.35645539 0.18470059 0.32919943
-0.34025729 0.18347588 0.32985884
-0.33379301 0.18464446 0.32939699
-0.32481503 0.1848522 0.32847881
-0.31501356 0.18489596 0.32837385
-0.3049911 0.18501012 0.32761735
-0.29533947 0.18528436 0.32711056
-0.28490269 0.18499224 0.32679573
-0.2752476 0.18528901 0.32654381
-0.26489684 0.18505619 0.32611039
-0.25478467 0.18496275 0.32636172
-0.24494089 0.18507774 0.32725298
-0.23527123 0.18477516 0.32896137
-0.22386833 0.18491939 0.32935145
-0.21469231 0.18483512 0.32750386
-0.20495211 0.185085 0.32725459
-0.19516031 0.18498406 0.3286882
-0.18478866 0.18502831 0.32897416
-0.17681658 0.186628 0.32953444
-0.16130774 0.1800697 0.32973447
-0.1537459 0.18357357 0.32905099
-0.1446691 0.18364802 0.32853782
-0.13494726 0.18350777 0.32879946
-0.12591635 0.18478294 0.32945955
-0.073224016 0.18351923 0.32987753
-0.051021762 0.18052617 0.32970649
-0.043943591 0.1837716 0.32912686
-0.035168719 0.18484974 0.32903367
-0.025159832 0.18213722 0.32850611
-0.014707728 0.18240251 0.32599035
-0.0044850097 0.18356238 0.32628918
0.00500252 0.18318397 0.32625866
0.014723959 0.18249036 0.32586887
0.021963751 0.18101506 0.32847932
-0.39020544 0.19502443 0.32944429
-0.38491744 0.19473104 0.32917863
-0.3750627 0.19504941 0.32803366
-0.36495045 0.19471884 0.3277584
-0.35563478 0.19521125 0.32897666
-0.3474113 0.19774823 0.32972717
-0.33365998 0.19506422 0.32966062
-0.32500967 0.19491865 0.32897574
-0.31497702 0.19520728 0.32892731
-0.30486733 0.19491555 0.32851908
-0.29487777 0.19498052 0.32856187
-0.28467697 0.19519067 0.32845184
-0.27506557 0.19493164 0.32837993
-0.26505315 0.19480933 0.32776275
-0.25499347 0.19499993 0.3280516
-0.24511589 0.19479932 0.32850146
-0.2350314 0.19482011 0.32889631
-0.22778487 0.19575331 0.32962623
-0.21281618 0.19278999 0.32916903
-0.20450981 0.19399539 0.32885501
-0.19532427 0.19423498 0.32909572
-0.18515959 0.19505845 0.32885635
-0.17536664 0.19481787 0.32915655
-0.16525067 0.1957389 0.32992756
-0.12186567 0.19047302 0.32984334
-0.035308648 0.19119544 0.32983661
-0.029590741 0.19018567 0.32995445
-0.38312912 0.20202848 0.32916355
-0.37475932 0.20497897 0.32860672
-0.36467564 0.2048815 0.32820559
-0.35450405 0.20485801 0.32782033
-0.34456807 0.20495939 0.32848009
-0.33500481 0.20498025 0.32925361
-0.32476601 0.20500825 0.32920718
-0.31574079 0.20339845 0.3295483
-0.3050414 0.202636 0.32961768
-0.29463682 0.20429692 0.32944703
-0.28498355 0.20499401 0.32910994
-0.27599466 0.20498729 0.32958636
-0.26638305 0.20367385 0.32977575
-0.25565445 0.20128161 0.32952467
-0.24462697 0.20159887 0.32982567
-0.23441841 0.20376848 0.32925186
-0.22671127 0.20475926 0.32929236
-0.18326239 0.20132641 0.32970303
-0.17658205 0.20161571 0.32967699
-0.37228569 0.21306916 0.32832664
-0.36519897 0.21497689 0.32817709
-0.35505307 0.21508323 0.32715133
-0.34467536 0.21496268 0.32700652
-0.33462268 0.21489367 0.32832718
-0.32499644 0.21504781 0.32941157
-0.31748596 0.21593879 0.32974944
-0.29073468 0.21167608 0.32979813
-0.28423053 0.21434768 0.32943767
-0.27482587 0.21503636 0.32925686
-0.26568833 0.21570529 0.32950732
-0.25929415 0.21874194 0.32966542
-0.36319947 0.22276981 0.32868057
-0.35503972 0.2249971 0.32814118
-0.34448501 0.22509746 0.32793373
-0.33570975 0.22414736 0.32903126
-0.32470095 0.22304848 0.32963258
-0.31484354 0.22521232 0.32973155
-0.30593768 0.22784853 0.32974222
-0.29824248 0.2295028 0.32949668
-0.2804417 0.22334003 0.32992005
-0.27459508 0.22249772 0.32959187
-0.26475239 0.22375132 0.32954845
-0.25807577 0.22392842 0.32964253
-0.3531383 0.233393 0.32919711
-0.34612551 0.23352151 0.32944641
-0.33822376 0.23001206 0.32964826
-0.31173947 0.2311607 0.32969344
-0.30390638 0.23300238 0.32963508
-0.29587996 0.23475327 0.32971022
-0.26072925 0.2311202 0.32979649
-0.19324739 0.23908252 0.32984817
-0.18933035 0.23994933 0.32982433
-0.34786797 0.24124777 0.32976955
-0.19443786 0.24520023 0.32922593
-0.18663406 0.24613559 0.329375
-0.19380705 0.2523258 0.32955965
-0.18582293 0.25225595 0.32947958
-0.17930464 0.25201419 0.32990256
-0.16278572 0.25446552 0.32998329
-0.23286603 0.27923667 0.32980546
-0.22821154 0.27956241 0.32998207
-0.23256269 0.285032 0.32958803
-0.22497028 0.28579766 0.32946789
-0.21908014 0.28845841 0.3298161
-0.23106812 0.29010504 0.32985935
-0.22497749 0.29213956 0.32964885
0.068722978 0.04476409 0.33016351
0.071916267 0.047629662 0.33032981
0.069367394 0.050630838 0.330156
0.074067377 0.053031515 0.33031932
0.08007659 0.059279919 0.33000863
0.08572644 0.065631576 0.33015224
0.091740616 0.068027765 0.33023348
0.086874291 0.074581154 0.3302395
0.093619801 0.076366022 0.33041251
0.076064266 0.089464061 0.3302491
0.087045357 0.085514978 0.33040082
0.095161214 0.085128196 0.33101422
0.10177588 0.086756535 0.33109
0.049018387 0.097456098 0.33020571
0.055450849 0.09771277 0.33055246
0.065177709 0.098060168 0.33034441
0.07547567 0.095467232 0.33102334
0.085053436 0.094982497 0.33103678
0.094953597 0.09508723 0.33179927
0.10418132 0.095467292 0.33195862
0.11029189 0.099744111 0.33197501
0.048739757 0.1028884 0.33014962
0.055095572 0.10485727 0.33083749
0.065202802 0.10502249 0.33081949
0.074840538 0.10489586 0.33151892
0.084929384 0.10497048 0.33201724
0.094891176 0.10500208 0.33214831
0.1051374 0.10486978 0.33230907
0.11280503 0.10645776 0.33144155
-0.093090415 0.1146756 0.3301596
-0.08833012 0.11342239 0.3302069
0.03903624 0.11770989 0.3303957
0.04423948 0.11672468 0.33053744
0.05546749 0.11424672 0.33024532
0.065114282 0.11443487 0.33042023
0.074929006 0.11496706 0.3307184
0.085091688 0.11498503 0.3313705
0.094828449 0.11498221 0.33203369
0.1050121 0.11489413 0.33202225
0.1148949 0.11504009 0.33206299
0.12130547 0.11788578 0.33148596
0.03747486 0.12539515 0.33075392
0.044963788 0.12466695 0.33155283
0.054720014 0.1257699 0.33077914
0.064441092 0.12564789 0.33027586
0.075063892 0.12532321 0.33088061
0.084941134 0.12502438 0.33100793
0.095039479 0.12508854 0.33146507
0.10495522 0.12502544 0.3316125
0.11515541 0.12498759 0.33261862
0.12342741 0.12555365 0.33201081
0.038607303 0.13412282 0.33039638
0.044987105 0.13488287 0.33172068
0.055059392 0.13498189 0.33171904
0.065142326 0.13495289 0.3312943
0.074991986 0.13500856 0.33156022
0.08500994 0.1349515 0.33232325
0.094944187 0.13510802 0.33118773
0.1051305 0.13515602 0.33106077
0.11510236 0.13517512 0.33253196
0.12495727 0.13495824 0.33297083
0.13165917 0.13684659 0.33299398
-0.15413909 0.14896743 0.33018973
-0.14727467 0.14939781 0.33031264
-0.10407148 0.147167 0.33033204
-0.09605208 0.14904657 0.33018219
-0.06291309 0.14982542 0.33006883
0.036901083 0.14638062 0.33089167
0.044875037 0.14486049 0.33284631
0.055073243 0.14496498 0.33277759
0.065089047 0.1447919 0.33232304
0.075040929 0.14496875 0.33248186
0.08504656 0.14501363 0.33269161
0.095149979 0.14513846 0.33239919
0.1051017 0.14504527 0.33212876
0.11495839 0.14492919 0.33343062
0.12485378 0.14508882 0.33403337
0.1339822 0.14547247 0.33335629
0.14091603 0.1491551 0.33320278
-0.23155992 0.15909557 0.33003891
-0.15352418 0.15410241 0.33080047
-0.14522496 0.15500371 0.33091903
-0.13729845 0.15681617 0.33034495
-0.10422587 0.15440719 0.33029544
-0.094505496 0.15488519 0.33032271
-0.085634492 0.15640292 0.33062786
-0.076132596 0.15829434 0.33052298
-0.063523099 0.15643366 0.33027533
-0.057150848 0.15619361 0.3303169
0.036054183 0.1553129 0.33165941
0.044906288 0.15463084 0.3333731
0.054966144 0.15506797 0.33414522
0.064965501 0.15491259 0.33282721
0.07494694 0.15521623 0.33215502
0.085003525 0.15516962 0.33164442
0.095129266 0.15520273 0.33235633
0.10509572 0.15493026 0.3334485
0.11496131 0.15511318 0.33337927
0.12511364 0.15536056 0.3334797
0.13511869 0.15510228 0.33354992
0.14285395 0.15606245 0.33392546
-0.28266814 0.1623558 0.33017391
-0.27848792 0.16583557 0.33007896
-0.23198462 0.16333754 0.33020887
-0.22962271 0.16545182 0.33004683
-0.19719452 0.16875038 0.33029181
-0.15108506 0.16020161 0.33076662
-0.14492469 0.16111204 0.33064812
-0.13627201 0.16236351 0.33030099
-0.12432373 0.16623524 0.33019447
-0.11460724 0.16743237 0.33039278
-0.10719152 0.16575801 0.33024585
-0.090250835 0.1621947 0.33017462
-0.083919957 0.16381377 0.33066404
-0.074832939 0.16501775 0.33107978
-0.065276816 0.16525777 0.33079115
-0.057404194 0.16443816 0.33028078
0.035575561 0.16473071 0.33120832
0.045070868 0.16488303 0.33221146
0.054913878 0.16530466 0.33296555
0.065142646 0.16495936 0.33294135
0.075106144 0.16493821 0.33277139
0.085022181 0.16519319 0.33186162
0.095046662 0.16503964 0.33227208
0.10494046 0.16505721 0.33335203
0.1151494 0.16495194 0.33359188
0.1251388 0.16510481 0.33360922
0.13503711 0.16493648 0.33428419
0.14486541 0.16520233 0.33484882
0.15109046 0.16800262 0.33444801
-0.35195085 0.17550787 0.3301639
-0.34662387 0.17771935 0.33019719
-0.22870798 0.17848213 0.3300744
-0.19519664 0.17425187 0.33020192
-0.18413949 0.17849612 0.33010215
-0.17379369 0.17585705 0.33059075
-0.1664453 0.17793097 0.33049735
-0.12258217 0.17451537 0.33042768
-0.1151059 0.17516205 0.3314679
-0.104984 0.17541116 0.33091861
-0.095239289 0.17752814 0.33062062
-0.085487582 0.17735024 0.33036196
-0.074186914 0.17435215 0.3305628
-0.064949222 0.17510366 0.33123183
-0.057177305 0.176514 0.33067289
0.027644671 0.17987326 0.330046
0.035424706 0.17521936 0.33071515
0.044942684 0.1749254 0.33186105
0.054952007 0.17503902 0.33293355
0.064977601 0.17492011 0.33278143
0.075029477 0.17494106 0.3325873
0.085116096 0.17508763 0.332764
0.095052466 0.17500186 0.33383363
0.104939 0.17478886 0.33446434
0.11500854 0.17481142 0.33486211
0.12499063 0.17472331 0.33477965
0.1351503 0.17508727 0.3340762
0.14500698 0.17516702 0.33510971
0.15325394 0.17581657 0.33456701
-0.40316471 0.18639672 0.33036634
-0.39717042 0.18838988 0.33020371
-0.35220093 0.18579181 0.33033639
-0.34550282 0.18536068 0.33071518
-0.33856267 0.18650934 0.33027649
-0.23097058 0.1859899 0.33028492
-0.22680846 0.18616235 0.33025512
-0.17389895 0.18363863 0.3305572
-0.16518699 0.18507318 0.33095491
-0.15602191 0.18758671 0.33037555
-0.14477171 0.18862909 0.33038977
-0.13512941 0.1884089 0.33041042
-0.12279344 0.18586324 0.33028114
-0.11513983 0.18512885 0.33156177
-0.10483893 0.18495201 0.331653
-0.094805442 0.18495801 0.3314473
-0.084979944 0.18518803 0.33171892
-0.075399145 0.18539557 0.3306886
-0.065124579 0.18493618 0.33151287
-0.055021025 0.18510465 0.33169565
-0.04676003 0.18740812 0.330661
-0.030924976 0.18834913 0.33027193
-0.024444653 0.18624876 0.33138666
-0.015157406 0.18702401 0.33235273
-0.005376583 0.18808524 0.33102351
0.0053030937 0.18830654 0.33071709
0.015698588 0.18713215 0.33140203
0.025145799 0.18521057 0.33158326
0.035016913 0.1851647 0.33169323
0.045171659 0.18494302 0.33172664
0.055026017 0.18514626 0.33275017
0.065129422 0.18500665 0.33382201
0.075129852 0.18488179 0.33317348
0.085106082 0.18498605 0.33345917
0.094957858 0.18494445 0.33531851
0.10506862 0.1848155 0.33531567
0.11492343 0.18490846 0.33486772
0.12489093 0.18494156 0.33513641
0.13504627 0.18503997 0.33482409
0.14494443 0.18488093 0.33617643
0.15502541 0.18511342 0.33506954
0.16175464 0.18747567 0.33443642
-0.39456567 0.19353475 0.33056056
-0.35194123 0.19250813 0.33019668
-0.34447625 0.19419409 0.33063889
-0.33729398 0.19537449 0.33025602
-0.24497919 0.19996822 0.33023295
-0.22389808 0.1946169 0.3305327
-0.21630375 0.19618239 0.33066052
-0.20642462 0.19809568 0.33043101
-0.19527568 0.1987354 0.33039561
-0.17179601 0.19599095 0.33020034
-0.16510361 0.19496357 0.33056596
-0.15485786 0.195031 0.33071405
-0.14522418 0.19492264 0.33126029
-0.13499221 0.19497682 0.33114943
-0.12504168 0.195131 0.3308835
-0.11486429 0.19493978 0.33100313
-0.1052895 0.19516559 0.33142212
-0.095014609 0.19482039 0.33125722
-0.085107684 0.19513372 0.33244404
-0.074731618 0.19507135 0.33199325
-0.06494543 0.19487898 0.33173835
-0.05504011 0.19489777 0.33225337
-0.04503765 0.19503754 0.33162507
-0.034819685 0.19534011 0.33124912
-0.024977835 0.19506007 0.33284995
-0.015290648 0.19485499 0.33463308
-0.0049168612 0.19489004 0.33287469
0.0050007654 0.19509043 0.33208731
0.014995343 0.19508888 0.33350691
0.025027364 0.19493635 0.33367601
0.035103109 0.19526328 0.33264884
0.044977557 0.19510184 0.33304843
0.054910641 0.19499163 0.33321556
0.064800516 0.19492464 0.33437786
0.074943855 0.19509403 0.33406737
0.084918477 0.19495851 0.33441889
0.094905362 0.19489974 0.33535895
0.10494046 0.19495107 0.33511913
0.11504573 0.19491087 0.3341673
0.12491861 0.19505148 0.33419725
0.13500418 0.19499798 0.33525053
0.14503273 0.19501413 0.33625007
0.15494846 0.1951426 0.33487096
0.16458334 0.1954508 0.33570737
0.17078421 0.19910131 0.33691585
-0.33495271 0.20172483 0.33011553
-0.31411439 0.20710658 0.33040747
-0.30508545 0.20662479 0.33054432
-0.2976419 0.20840025 0.33040679
-0.27285776 0.20451057 0.33024326
-0.26456705 0.20544435 0.33046222
-0.25530213 0.20635657 0.33077395
-0.24559683 0.20589609 0.33065823
-0.23609717 0.20846489 0.330336
-0.22209628 0.20537718 0.33049312
-0.21520284 0.20497958 0.33113202
-0.20499077 0.20486 0.33090624
-0.19504137 0.20502833 0.33140337
-0.18518274 0.20569131 0.33089527
-0.17440338 0.20557915 0.33071873
-0.16532829 0.20516731 0.33096749
-0.15508223 0.20483144 0.33106738
-0.14501673 0.20503245 0.33141044
-0.13507581 0.20498984 0.33129963
-0.12498605 0.20522094 0.33159474
-0.11488191 0.20504621 0.33145455
-0.10523657 0.20513764 0.33133003
-0.095065258 0.20493884 0.33131543
-0.084975116 0.20499212 0.33230671
-0.0749259 0.20502596 0.33295062
-0.064963661 0.20509657 0.33281499
-0.055104561 0.20495488 0.33223593
-0.044993877 0.20500199 0.33221418
-0.035048474 0.20506482 0.33257359
-0.025146423 0.20491278 0.33387309
-0.015020225 0.20503998 0.33459783
-0.0049173925 0.20505881 0.33381677
0.005143757 0.20508172 0.33330497
0.014893424 0.20511685 0.33442396
0.024856979 0.20506161 0.33448514
0.035250571 0.20500803 0.33312929
0.044881023 0.20506606 0.3345165
0.054961324 0.20488223 0.33438036
0.064939909 0.20492664 0.33491832
0.075015977 0.2050664 0.33452797
0.084937818 0.20491457 0.33514884
0.095027976 0.2050633 0.33492556
0.1050583 0.20514415 0.33435029
0.11519682 0.20509079 0.33323553
0.12510195 0.20503403 0.33312169
0.13512157 0.20512483 0.33451548
0.14518584 0.20499872 0.33570099
0.15513082 0.20511994 0.33486202
0.16490883 0.20507203 0.33596379
0.17248149 0.20567609 0.33661324
-0.3143563 0.21456914 0.33065057
-0.30517903 0.21473588 0.33148921
-0.29524502 0.21541493 0.33110216
-0.28657109 0.2175062 0.33024412
-0.26271129 0.21223933 0.33029345
-0.25455886 0.21494457 0.33110845
-0.24481244 0.21476214 0.33163247
-0.23458874 0.21521208 0.33127898
-0.22474289 0.21485211 0.33143169
-0.21506122 0.21492702 0.33168653
-0.20469692 0.21506512 0.33071354
-0.19508801 0.21490888 0.33152163
-0.1850031 0.21466492 0.33156899
-0.17490214 0.21498588 0.33176944
-0.16467214 0.21487805 0.33206093
-0.15475002 0.21499954 0.33198693
-0.14479585 0.21489549 0.33213958
-0.13497983 0.21507949 0.33275449
-0.12498531 0.21500488 0.33373851
-0.11516186 0.21507156 0.33385557
-0.10500873 0.21514897 0.33247876
-0.094813205 0.21493517 0.3315177
-0.084911153 0.21508902 0.33187115
-0.074998274 0.21498513 0.33358523
-0.065175451 0.2149905 0.33459473
-0.055087749 0.21489513 0.33305699
-0.044910017 0.2151975 0.33239645
-0.034912549 0.21494512 0.33294174
-0.024935741 0.21486753 0.33336517
-0.014909774 0.21490838 0.3340579
-0.0048967367 0.2150138 0.3338542
0.0049314909 0.21514264 0.33423576
0.014825318 0.21498936 0.33469495
0.025114926 0.21510519 0.33400178
0.034967668 0.21492276 0.33346072
0.044970993 0.21502846 0.33492249
0.055038292 0.21479578 0.33609694
0.064987481 0.21506689 0.33572373
0.074934177 0.21492104 0.33549082
0.084967926 0.21501017 0.33566403
0.095106252 0.21504563 0.33620879
0.10492764 0.21497962 0.33555788
0.11495637 0.21502647 0.33441529
0.1249721 0.21487151 0.33430704
0.13491906 0.2149248 0.33463886
0.14497828 0.21499833 0.33506948
0.15505187 0.21500243 0.33576226
0.16505203 0.21511634 0.33648643
0.17479862 0.21525642 0.33665454
0.18096052 0.21831191 0.33626345
-0.33284649 0.22680643 0.33029026
-0.32492995 0.22760823 0.33037296
-0.31511435 0.22407556 0.33026409
-0.305087 0.22358158 0.3307611
-0.29507944 0.22489762 0.33098668
-0.28536409 0.22507562 0.33051243
-0.27549505 0.22699881 0.33040732
-0.26593792 0.22789529 0.33025968
-0.25416201 0.22542939 0.33062902
-0.24506924 0.22499299 0.33179173
-0.23454978 0.22502632 0.33226475
-0.22473633 0.22490232 0.33298299
-0.21481664 0.22468643 0.33298737
-0.20452158 0.22504084 0.33129266
-0.19497116 0.22495243 0.33085811
-0.18497424 0.22474243 0.33128291
-0.17500003 0.22520173 0.33217794
-0.16504219 0.22472523 0.33267084
-0.15513682 0.22504649 0.33242869
-0.14498748 0.22500718 0.33275342
-0.13497131 0.22496685 0.33436644
-0.1249477 0.2249195 0.33598524
-0.11495443 0.22493999 0.33610755
-0.10497671 0.22511935 0.33460674
-0.095014974 0.22500351 0.33269942
-0.08489076 0.22506686 0.33154708
-0.074950784 0.22486362 0.33323964
-0.065080367 0.22503857 0.3352021
-0.054823469 0.22503361 0.33359179
-0.04503721 0.22498731 0.33262008
-0.034967929 0.22495802 0.33332783
-0.024956757 0.22496346 0.33346337
-0.015241057 0.22493011 0.33360636
-0.0048317485 0.22493774 0.33384135
0.0051080161 0.22494614 0.33433422
0.015122157 0.22506474 0.33431044
0.02512832 0.22497207 0.33408773
0.035067197 0.22500178 0.33462182
0.045071483 0.22498488 0.33458215
0.054799624 0.22491634 0.33654094
0.06507951 0.22499394 0.33630377
0.075120419 0.22488381 0.33643785
0.085083008 0.22488704 0.33663443
0.09505862 0.22508226 0.33675936
0.10497882 0.22499926 0.33640045
0.11505003 0.22491345 0.33571747
0.12509936 0.22495283 0.33547872
0.13505116 0.22497958 0.33530438
0.14500125 0.22501944 0.33540884
0.15491872 0.22504199 0.33620808
0.16501224 0.22506839 0.33773339
0.17497377 0.22487286 0.33875862
0.18338607 0.22589971 0.33762786
-0.34363177 0.23692609 0.33036453
-0.33500203 0.23489751 0.33095232
-0.32493794 0.23524402 0.33094314
-0.31521261 0.23550409 0.33066407
-0.30615598 0.2368596 0.3304126
-0.29356223 0.23511745 0.33042935
-0.28495073 0.23482427 0.33096206
-0.27502736 0.23501629 0.33101413
-0.26509866 0.2351198 0.33087605
-0.25522438 0.23520713 0.33130005
-0.24522053 0.23495027 0.33172074
-0.2350007 0.23491308 0.33180553
-0.22510865 0.23499019 0.33266678
-0.21530442 0.23484072 0.33307478
-0.2049578 0.2351492 0.33143458
-0.19488652 0.2344978 0.3305971
-0.18479374 0.23488972 0.33078191
-0.17521466 0.23505113 0.33210972
-0.16502054 0.23475979 0.3325198
-0.15489818 0.23499894 0.33246699
-0.14514427 0.23500785 0.33305624
-0.13498387 0.23488063 0.33411947
-0.12500651 0.23486814 0.33625019
-0.11509963 0.23497257 0.33607721
-0.10487 0.23521507 0.33507931
-0.094996341 0.2351515 0.33390227
-0.084969193 0.23499814 0.33203509
-0.075061746 0.2351276 0.33301157
-0.065128066 0.23490554 0.3346529
-0.05489463 0.23507404 0.33416432
-0.044871446 0.23499165 0.33361545
-0.035044137 0.23514575 0.33329064
-0.024991758 0.23492335 0.33394337
-0.015020307 0.23487172 0.33479068
-0.0050871316 0.23502243 0.33429143
0.0049345396 0.23492892 0.33353612
0.014986069 0.23515776 0.33331364
0.024965387 0.23513785 0.33410835
0.034916967 0.23500623 0.33545795
0.04507957 0.23485763 0.33531314
0.054939754 0.23499952 0.33643535
0.065078802 0.2350149 0.33585516
0.074998863 0.23501995 0.33544126
0.085001238 0.23492824 0.33608028
0.094882011 0.23520732 0.33623526
0.10504037 0.23497006 0.33610609
0.11495484 0.23503597 0.33558124
0.12497915 0.23503642 0.33614457
0.13498175 0.23488216 0.33657849
0.14502351 0.23487207 0.33675519
0.15498142 0.2350021 0.3369503
0.16503103 0.23503587 0.3377353
0.17489639 0.23514268 0.33868134
0.18508644 0.23499444 0.3381173
0.19200648 0.23651625 0.33855411
-0.3430433 0.24398884 0.33088961
-0.33500028 0.24517883 0.33169013
-0.3254149 0.24488063 0.33168367
-0.31528586 0.24511327 0.33140919
-0.30484051 0.24502978 0.3311359
-0.29461178 0.24495636 0.33095074
-0.28503421 0.24463388 0.33163294
-0.27496117 0.24508411 0.3315261
-0.26484174 0.2447885 0.33125964
-0.25515473 0.24524827 0.33269158
-0.24504589 0.24492615 0.33350044
-0.23500988 0.24483754 0.3322649
-0.22464049 0.24484757 0.33120137
-0.21493672 0.24519989 0.33142698
-0.20499659 0.24531843 0.33084413
-0.19838125 0.24124916 0.33020261
-0.18245423 0.24358231 0.33069935
-0.174927 0.24511738 0.33162102
-0.16513653 0.24468306 0.33196464
-0.15490231 0.24499643 0.33179381
-0.1452927 0.24521174 0.33357444
-0.13522483 0.24489951 0.33426231
-0.12497663 0.24488692 0.33414701
-0.11484507 0.24503754 0.33458817
-0.10486881 0.24514742 0.33455706
-0.095026739 0.24495438 0.33475652
-0.084869474 0.2451475 0.33482084
-0.075092897 0.24497885 0.3355279
-0.065066785 0.24473462 0.33551225
-0.055020217 0.24495855 0.33549622
-0.044935677 0.24526978 0.33513212
-0.034974724 0.24499583 0.33506358
-0.024900626 0.24479762 0.33509099
-0.014977026 0.2451331 0.33565181
-0.0049826149 0.24506181 0.33521211
0.005178879 0.24491823 0.33411908
0.014917629 0.24504654 0.33430246
0.024920318 0.24524419 0.33465216
0.034950808 0.24508637 0.33576673
0.045051716 0.2448474 0.33580184
0.055020835 0.24502854 0.33629796
0.06507007 0.2451959 0.33585235
0.074954502 0.24504729 0.33493051
0.085006371 0.24498595 0.33549625
0.095036961 0.24513619 0.3359234
0.10497417 0.2448694 0.33609086
0.11505359 0.24507542 0.33615977
0.12495126 0.24496856 0.33660442
0.13505049 0.24505067 0.3368147
0.14498682 0.24492233 0.33730948
0.15505587 0.24497131 0.33764127
0.16489546 0.24510026 0.33815068
0.17503989 0.24504822 0.33791873
0.18504579 0.24497271 0.33815774
0.19426194 0.24546552 0.33868289
0.20041431 0.24944602 0.33844107
-0.33440641 0.25290722 0.33165449
-0.32507882 0.25483149 0.33183512
-0.31491715 0.25517622 0.33194163
-0.30486342 0.25488681 0.33171049
-0.29487747 0.25519204 0.33146077
-0.28490162 0.25490165 0.33191729
-0.27507162 0.25500095 0.33277982
-0.26484716 0.25511652 0.33257157
-0.25519511 0.25479329 0.3337293
-0.24541679 0.25502524 0.33503142
-0.23527597 0.25490877 0.33378941
-0.22488509 0.2549606 0.33163333
-0.21490231 0.25507617 0.3308841
-0.20512664 0.25515673 0.33099884
-0.19539446 0.256616 0.33092931
-0.18436004 0.25647008 0.33134767
-0.17502177 0.2549814 0.33116803
-0.16500193 0.25482661 0.33071089
-0.15487024 0.25510222 0.33110431
-0.14472972 0.25515544 0.33328912
-0.13492985 0.25495249 0.33522624
-0.12466826 0.2551803 0.33451724
-0.11509299 0.25488985 0.33379656
-0.10502864 0.25509578 0.3345553
-0.094839208 0.25492316 0.33540142
-0.084868595 0.25489706 0.33583805
-0.075034007 0.25501466 0.33647701
-0.064960457 0.25508577 0.33615988
-0.055066787 0.25501034 0.33646229
-0.045114558 0.25518078 0.33639044
-0.035107981 0.25494555 0.33658412
-0.024893686 0.2548469 0.33628657
-0.014947678 0.25511846 0.33588013
-0.0051361141 0.2550894 0.33611065
0.0048610298 0.25516608 0.33595556
0.014708323 0.25490087 0.33625814
0.025072355 0.25511816 0.33526659
0.035115417 0.25497314 0.33568761
0.045205601 0.25497836 0.33639362
0.054998253 0.25505966 0.33706501
0.065024793 0.25492701 0.33690834
0.075121671 0.25500873 0.33582318
0.084973887 0.25497153 0.33650479
0.094971523 0.25513145 0.3358742
0.10499039 0.25495824 0.33597031
0.11502799 0.25514561 0.33675611
0.12509581 0.25498271 0.33709687
0.13505663 0.25505406 0.33640507
0.14508232 0.25500137 0.33738533
0.15501504 0.25491953 0.33879915
0.16509162 0.25499514 0.33863565
0.17503633 0.25504246 0.33816186
0.18496583 0.25487283 0.33849081
0.19506602 0.25486568 0.33903342
0.20240889 0.25605506 0.33834985
-0.32305968 0.26370451 0.33134815
-0.31474695 0.26496068 0.33187392
-0.30509821 0.26489311 0.33199856
-0.2949968 0.26488158 0.33139834
-0.28460351 0.2650184 0.3311474
-0.27486181 0.26515105 0.33229238
-0.26498443 0.26504973 0.33334744
-0.25509679 0.26444525 0.33398739
-0.24512658 0.26506302 0.33456561
-0.2350596 0.26536354 0.33383334
-0.22486819 0.26499313 0.3321971
-0.21499752 0.26522899 0.33200982
-0.20457196 0.26488 0.33210751
-0.19451581 0.26471215 0.33232757
-0.18516079 0.26504597 0.33382744
-0.17462166 0.26489818 0.3332248
-0.16473259 0.2648567 0.33185643
-0.15501921 0.26502687 0.33181322
-0.14520465 0.26507911 0.33344132
-0.13528536 0.26482826 0.33540925
-0.12505107 0.2650983 0.33504084
-0.11476496 0.26512092 0.33498755
-0.10519625 0.2650342 0.33637494
-0.094987795 0.26488978 0.33611122
-0.085010409 0.2649529 0.33488017
-0.075038932 0.26502979 0.33443201
-0.064853698 0.26521283 0.33487704
-0.054885298 0.26494595 0.33593187
-0.044842467 0.26514333 0.33610788
-0.03486288 0.26509979 0.33671743
-0.025043163 0.26508957 0.33722037
-0.015081983 0.26508552 0.33638588
-0.0050616115 0.26502988 0.33648327
0.0050181616 0.2650024 0.33665895
0.015058659 0.26510677 0.33626434
0.024867764 0.26516941 0.33576298
0.034980599 0.26495138 0.33533287
0.045006908 0.2649537 0.33684105
0.054932296 0.26489431 0.33808723
0.064939409 0.26492009 0.33748969
0.075104386 0.26495343 0.33694747
0.08484371 0.26504219 0.33770061
0.095045239 0.26508182 0.336193
0.10490813 0.26496658 0.33627468
0.11489367 0.26501626 0.33696139
0.12500581 0.26502636 0.33741215
0.13493587 0.26493841 0.33659023
0.14491844 0.26505643 0.33735323
0.15486339 0.26507261 0.33937788
0.16496766 0.26508397 0.33788231
0.17497483 0.26505211 0.33822551
0.18394631 0.26476207 0.33899239
0.19614977 0.26480407 0.33925694
0.20458582 0.26532167 0.33866075
0.21141009 0.26825649 0.33899736
-0.31412494 0.27344897 0.33201331
-0.30508807 0.27522203 0.33205962
-0.29496634 0.27475628 0.33164629
-0.28471038 0.27515295 0.33085439
-0.27484149 0.27464631 0.33132926
-0.26520604 0.27490315 0.33297217
-0.25552016 0.27495506 0.33370265
-0.24543574 0.27506796 0.3323881
-0.23529755 0.27463004 0.33166078
-0.22457753 0.27523226 0.33112967
-0.21476106 0.27495921 0.33174315
-0.20502143 0.27519882 0.33292931
-0.19486189 0.27472818 0.33256194
-0.18511833 0.27513182 0.33289889
-0.17514408 0.27508327 0.3334094
-0.16478774 0.27500233 0.33351976
-0.15496162 0.27511302 0.33433568
-0.14506973 0.27496579 0.33503136
-0.1351465 0.27482584 0.33558217
-0.1249399 0.27509171 0.33533052
-0.11465632 0.27499422 0.3348864
-0.10508996 0.27505958 0.33715934
-0.094954051 0.27499229 0.33687279
-0.084766217 0.2749252 0.33471945
-0.07505478 0.27495289 0.33397704
-0.064996377 0.27495319 0.33404183
-0.054882791 0.27504313 0.33481869
-0.044893626 0.2749669 0.33583352
-0.034966636 0.27522144 0.33635509
-0.025145238 0.27487445 0.33724284
-0.015003202 0.27504194 0.33751053
-0.0049674492 0.27504042 0.33762059
0.0050067557 0.27506584 0.33737755
0.015130159 0.27512759 0.33610004
0.02503358 0.27493986 0.33609027
0.035113234 0.27501094 0.33571559
0.044884611 0.27484524 0.33723238
0.055008855 0.27499214 0.33735928
0.065071635 0.27487561 0.33674043
0.075113602 0.27500585 0.33685076
0.084980801 0.27504584 0.33879954
0.095033631 0.27508155 0.33723655
0.10507771 0.27504674 0.33682543
0.11509715 0.2750901 0.3370108
0.12512085 0.27506477 0.33709213
0.13516057 0.27496871 0.33769321
0.14499651 0.27496779 0.33734205
0.15487008 0.27519998 0.33855963
0.1651046 0.27496219 0.33798638
0.17502294 0.27489612 0.33880407
0.18262006 0.27397606 0.3393864
0.19668376 0.27403486 0.33940846
0.20481648 0.27486593 0.33937117
0.21284792 0.274957 0.33951595
-0.31038904 0.28021771 0.3320961
-0.30368149 0.28392956 0.33172539
-0.29513979 0.28501946 0.33153191
-0.28537878 0.28503293 0.33138746
-0.2749685 0.28484917 0.33131772
-0.26476279 0.28496698 0.33251223
-0.255063 0.28507662 0.33415103
-0.24481793 0.28505853 0.33256134
-0.23714401 0.28496906 0.33066666
-0.22458164 0.28294632 0.33032548
-0.21498927 0.28490806 0.33075511
-0.20537779 0.28518227 0.33228427
-0.19527128 0.28495297 0.3330538
-0.1849833 0.28514084 0.33210829
-0.17491759 0.28503457 0.33212656
-0.16484773 0.28511995 0.33304849
-0.15480503 0.28509215 0.33533323
-0.14491659 0.28509256 0.33717161
-0.13502555 0.28468034 0.33659932
-0.12517634 0.2849713 0.33599854
-0.11482022 0.28497839 0.33491686
-0.10509642 0.2849122 0.33596182
-0.095134102 0.28513688 0.33636573
-0.084922656 0.2848984 0.3342669
-0.074958697 0.2850894 0.33381933
-0.065045804 0.28477615 0.33466795
-0.054977857 0.28507811 0.33500746
-0.045143679 0.28512356 0.33624169
-0.034965999 0.28487182 0.33663207
-0.024911484 0.28504387 0.3372198
-0.014988705 0.28491798 0.33757779
-0.0049365289 0.28490582 0.33778313
0.0049519734 0.28524071 0.33818305
0.015097352 0.28499794 0.33724838
0.025014045 0.28495008 0.33654037
0.035143092 0.28492257 0.33627903
0.044958647 0.28495637 0.3374798
0.055001229 0.28497276 0.33706069
0.06491337 0.2850031 0.33710086
0.075095929 0.28510496 0.33745587
0.084925368 0.28481507 0.33880869
