# .PCD v0.7 - Point Cloud Data file format
VERSION 0.7
FIELDS x y z
SIZE 4 4 4
TYPE F F F
COUNT 1 1 1
WIDTH 1411
HEIGHT 1
VIEWPOINT 0 0 0 1 0 0 0
POINTS 1411
DATA ascii
-0.10491412 0.055035312 0.51198083
-0.094830647 0.054807786 0.51189691
-0.085014984 0.05504065 0.51364458
-0.074980557 0.055036075 0.51508486
-0.065016903 0.055002991 0.51505744
-0.054974329 0.054997865 0.51474959
-0.045065235 0.055039737 0.5159325
-0.034774147 0.055100281 0.5160293
-0.024797518 0.054647814 0.51628566
-0.014994964 0.055332564 0.51708591
-0.0049091806 0.055033423 0.51663893
0.0051682154 0.054729208 0.51599509
0.014815179 0.055185556 0.51691741
0.025021978 0.054985702 0.51782346
0.035120931 0.054876063 0.51833063
0.044984534 0.055126186 0.51851952
0.05513525 0.055130154 0.51767141
0.065001406 0.054782666 0.51808876
0.074864656 0.055102665 0.51853037
0.084959812 0.054945793 0.51748794
0.095058471 0.054941647 0.51802611
0.10516777 0.055110298 0.51834428
0.11509477 0.054944392 0.51879328
0.12491865 0.054971844 0.51839739
0.13498344 0.055043142 0.51786113
0.14490733 0.054668419 0.51866537
0.15509485 0.055077668 0.51884478
0.16497941 0.054929506 0.51874352
0.17471027 0.054852471 0.51886749
0.1848321 0.054513145 0.51961082
0.19409716 0.054585218 0.51956552
0.2049959 0.055376645 0.51965338
0.21559741 0.054706044 0.51973701
0.22341463 0.053705614 0.51966894
0.24953541 0.058748245 0.51996988
0.28801885 0.051817417 0.51984435
0.29037744 0.050008826 0.51974547
-0.36329767 0.065150656 0.51161146
-0.35489517 0.064913116 0.51124638
-0.3449702 0.064759754 0.51153177
-0.33517435 0.065247044 0.51241928
-0.32514265 0.06498304 0.51331556
-0.31519449 0.06523452 0.51310313
-0.30502924 0.065060727 0.51216054
-0.29462132 0.06487862 0.51143384
-0.28522241 0.064943947 0.51137823
-0.27534121 0.064877138 0.5108372
-0.26478723 0.065298691 0.51054496
-0.25510499 0.065037653 0.51156235
-0.24518514 0.064849399 0.51234722
-0.2350051 0.065112449 0.51272893
-0.22508255 0.06494882 0.51275998
-0.21513194 0.064847037 0.51345098
-0.20496897 0.065083824 0.51359022
-0.19477114 0.065029688 0.51255041
-0.18518099 0.064925633 0.51238126
-0.17512485 0.065111116 0.51369137
-0.16512479 0.0650924 0.51494324
-0.15536565 0.064927749 0.5145281
-0.14501861 0.065122917 0.51357764
-0.13492914 0.064777792 0.51310426
-0.12491429 0.064981833 0.513448
-0.11516666 0.065057449 0.51397508
-0.10485056 0.064950205 0.51350343
-0.09505374 0.064987428 0.51360983
-0.084970966 0.065006994 0.51480544
-0.074970841 0.064982273 0.51582277
-0.06497559 0.06494344 0.51608282
-0.054890215 0.065164059 0.51594186
-0.045065101 0.064726621 0.51622486
-0.034963794 0.065210477 0.51702487
-0.024968311 0.064817391 0.51749587
-0.015084916 0.065193027 0.51796466
-0.0048469841 0.065018058 0.51762813
0.0049742633 0.065006867 0.51710844
0.01492825 0.064946435 0.51675403
0.024909273 0.064893894 0.51721919
0.035109699 0.065078713 0.51762462
0.045103088 0.064886175 0.51722693
0.054883219 0.065155141 0.5178439
0.064811699 0.06484618 0.51826465
0.074915633 0.064925522 0.51922786
0.085135184 0.0639624 0.51926053
0.095261402 0.064709269 0.51921892
0.1055081 0.06343472 0.51959318
0.11527833 0.064521044 0.51922441
0.12509751 0.064988986 0.51828861
0.13444062 0.064773656 0.51913911
0.14422578 0.061518565 0.5197404
0.15584269 0.064241141 0.51950735
0.16520111 0.063425034 0.51942974
0.17479408 0.063470148 0.51954299
0.18251374 0.061438251 0.51976341
0.19541837 0.06429413 0.51984698
0.20431347 0.062582374 0.5197522
0.21006376 0.061015993 0.51992643
-0.37212461 0.077136151 0.51218086
-0.36478186 0.074899904 0.51149791
-0.35468724 0.075330399 0.51109129
-0.34470332 0.075215749 0.51126653
-0.33468437 0.074714012 0.51184517
-0.32499155 0.075099215 0.51258022
-0.31504437 0.074810244 0.51244009
-0.30513063 0.075045757 0.51193422
-0.29517674 0.074968107 0.51152408
-0.28509358 0.075073235 0.51166981
-0.27474669 0.074943826 0.51123387
-0.26438999 0.074972987 0.51161295
-0.25495753 0.075018294 0.51332921
-0.24516702 0.074855983 0.51444399
-0.23499289 0.075024217 0.51452774
-0.22478159 0.074880272 0.51430392
-0.21479917 0.075325489 0.51475132
-0.20490144 0.074728303 0.51451707
-0.19472505 0.075201742 0.5129227
-0.18447825 0.074939311 0.51197994
-0.17502569 0.074815117 0.51361114
-0.1654284 0.075003028 0.51566112
-0.1549805 0.074998543 0.51582319
-0.14489274 0.074971154 0.51529092
-0.1352929 0.075239778 0.5149855
-0.12518163 0.074996427 0.51448137
-0.11501377 0.074958444 0.5147838
-0.10485593 0.075064197 0.51556629
-0.094748832 0.074874796 0.51593941
-0.084704295 0.075003326 0.51595968
-0.075035423 0.074900903 0.51613629
-0.06510333 0.07509236 0.51673788
-0.055353772 0.075086683 0.51846653
-0.044985496 0.074883878 0.51836437
-0.034700364 0.074977309 0.51727664
-0.025134189 0.074903689 0.51678663
-0.015075653 0.075206824 0.51689768
-0.0050228606 0.074919976 0.51715046
0.004797488 0.075116009 0.51705325
0.014895585 0.074970633 0.51727295
0.025112683 0.075026251 0.51762754
0.034943461 0.07497143 0.51758051
0.045017421 0.075074434 0.51704872
0.054905992 0.074934758 0.51750034
0.064932004 0.075019948 0.5180341
0.073662773 0.075347848 0.51905912
0.08329092 0.074938357 0.51980102
0.095460147 0.07534083 0.51962882
0.1008155 0.07581111 0.51970124
0.11746669 0.072299756 0.51956636
0.12521769 0.074711725 0.51897025
0.13470475 0.07469172 0.51929176
0.14456837 0.075521074 0.5198499
0.15521845 0.07514251 0.51965165
0.16215593 0.072939284 0.51983625
0.19586983 0.071985252 0.51996338
0.22751975 0.075531162 0.51989734
-0.37440786 0.085289322 0.51110417
-0.36530367 0.084856875 0.51138747
-0.35534781 0.085454829 0.51199198
-0.34522155 0.085146748 0.51298267
-0.33486825 0.085051998 0.51367587
-0.32472315 0.085012697 0.51369399
-0.31464016 0.084798999 0.5125379
-0.30481365 0.08489006 0.51150209
-0.2948288 0.084878989 0.51136738
-0.28508002 0.08521226 0.51230609
-0.27497664 0.085178562 0.51270366
-0.26504159 0.084768318 0.51303893
-0.25503752 0.084995769 0.51415789
-0.24553178 0.084733963 0.5152396
-0.23495761 0.085021891 0.51512623
-0.22476871 0.084938116 0.51527065
-0.21501188 0.085096546 0.51560885
-0.20531681 0.085070178 0.51586396
-0.19544056 0.085046448 0.51497161
-0.18503571 0.085041784 0.51387501
-0.17495668 0.084909029 0.51429999
-0.16529709 0.084699474 0.51511484
-0.15514316 0.085114643 0.51531768
-0.14513285 0.084949344 0.5153864
-0.13505107 0.085118786 0.51546639
-0.12486956 0.085020795 0.51543176
-0.1150621 0.085091531 0.51572734
-0.1051049 0.084868588 0.51657075
-0.094824359 0.08507511 0.5166204
-0.084797718 0.085040219 0.51612604
-0.074841604 0.084873244 0.51609719
-0.064928047 0.084958546 0.51642895
-0.055089433 0.08503399 0.51784021
-0.045093764 0.085149288 0.51892346
-0.035073645 0.084869727 0.5178405
-0.024958234 0.084989533 0.51692206
-0.015061392 0.085118845 0.51714081
-0.0052093719 0.084970184 0.51775438
0.0049752523 0.084962234 0.51769006
0.015047798 0.085022457 0.51809144
0.02476239 0.085084304 0.51901412
0.034924626 0.084972806 0.51772565
0.045217887 0.085069239 0.51608622
0.054867532 0.08492481 0.51678973
0.064993076 0.085038491 0.51770663
0.075058945 0.085020021 0.51922613
0.085243225 0.085328393 0.51933533
0.095156513 0.085022375 0.51884669
0.10400526 0.085692398 0.51945329
0.11263805 0.088199653 0.51934749
0.12671128 0.083107919 0.51983374
0.13340168 0.082129091 0.51979607
0.14943475 0.080790624 0.51967514
0.15565971 0.084164202 0.51970619
0.16633634 0.086671367 0.51968467
0.17504323 0.086613305 0.5194211
0.18100166 0.086923003 0.5195713
-0.38280386 0.095610619 0.51081747
-0.37575752 0.094758153 0.51026314
-0.3642875 0.094092131 0.51021397
-0.35503 0.095278502 0.51120132
-0.34505442 0.094656155 0.51245445
-0.33496231 0.095194943 0.51260465
-0.32494256 0.095265768 0.51379055
-0.31516561 0.09506359 0.51402873
-0.30480367 0.095165119 0.51276505
-0.29490843 0.094508916 0.51188254
-0.28505382 0.094815567 0.51229984
-0.27446505 0.095332853 0.51277471
-0.26474249 0.094895169 0.51350152
-0.2550309 0.095118463 0.51541412
-0.24492712 0.094833635 0.51643294
-0.23498748 0.095132791 0.51632965
-0.22506166 0.094834015 0.51610094
-0.21527795 0.094954818 0.5162546
-0.20547093 0.09504319 0.51616198
-0.19490556 0.095010906 0.51534557
-0.18501362 0.095028922 0.51488858
-0.17531607 0.094826594 0.51540947
-0.16507535 0.095217064 0.51568824
-0.15478042 0.094804682 0.51531869
-0.14483033 0.094924942 0.51542491
-0.13492414 0.094906799 0.51524007
-0.12496646 0.094946556 0.51475549
-0.11482364 0.094891757 0.51458633
-0.10495707 0.095108263 0.51580733
-0.094792724 0.094960764 0.51645559
-0.085123315 0.095047377 0.51674068
-0.075020298 0.095075585 0.51729512
-0.064818919 0.095013 0.51751041
-0.054849043 0.094915889 0.51734346
-0.045061883 0.094898298 0.51769686
-0.035259031 0.094964974 0.51804227
-0.025051987 0.095184095 0.51799995
-0.014862919 0.094932556 0.51826626
-0.0048741475 0.09496545 0.518695
0.0048216381 0.094838299 0.51918936
0.014533222 0.09330754 0.5194394
0.025030067 0.094129942 0.51924592
0.034985427 0.095119953 0.51857394
0.045035977 0.094840407 0.51752657
0.055017099 0.095005922 0.51757288
0.065090768 0.095014684 0.51846349
0.074403986 0.093890488 0.51962167
0.085271783 0.094970249 0.51924765
0.095057607 0.09494064 0.51898021
0.10489421 0.094976917 0.51864296
0.11404283 0.09498924 0.51868522
0.1363638 0.095826611 0.51995826
0.14457084 0.097332753 0.51978523
0.15309891 0.095989935 0.51975149
0.16556501 0.091865234 0.51978505
0.1743142 0.091543056 0.5195995
0.18210562 0.09119121 0.51980138
-0.39237469 0.10725094 0.51252705
-0.38529688 0.10480706 0.51174384
-0.37499404 0.105134 0.51096272
-0.36474955 0.10549024 0.51134652
-0.35449016 0.10488415 0.5118503
-0.34508643 0.10501811 0.51251185
-0.33500597 0.10449009 0.51183569
-0.32476962 0.10477775 0.51180017
-0.31537926 0.10524452 0.51412416
-0.3052327 0.10545135 0.51504701
-0.29506606 0.1048077 0.51422423
-0.28496301 0.10492802 0.51326841
-0.27488825 0.10497078 0.51269668
-0.2646293 0.10471828 0.51303512
-0.25527388 0.10513455 0.51455361
-0.24539346 0.10477799 0.51526219
-0.23505388 0.10523091 0.51538754
-0.22450392 0.10497519 0.51611644
-0.21471958 0.10494648 0.51632422
-0.20517203 0.10491108 0.51566929
-0.19497472 0.10515261 0.51577687
-0.18490867 0.10513164 0.51653457
-0.17492308 0.10507788 0.51668751
-0.16491149 0.1048288 0.51649272
-0.15492745 0.10497949 0.51621085
-0.14497596 0.10502239 0.51611918
-0.13481641 0.10486152 0.51634347
-0.1249242 0.10509197 0.5165562
-0.11476745 0.10488459 0.51623958
-0.10489062 0.10501979 0.51714838
-0.095178209 0.10498401 0.51797813
-0.084703714 0.10482998 0.51709342
-0.074628673 0.10492855 0.51641977
-0.065036625 0.10479742 0.51694083
-0.054950546 0.1051062 0.51703405
-0.045077093 0.10510607 0.51748413
-0.034860529 0.10493779 0.51765805
-0.025009103 0.10503983 0.51813906
-0.015009043 0.1049956 0.51838166
-0.004939476 0.10495266 0.51887864
0.0037390245 0.1039036 0.51959962
0.011234507 0.10633525 0.51980162
0.026494315 0.10554029 0.51984465
0.034630846 0.10452925 0.51959068
0.045563869 0.10408895 0.51948965
0.055070035 0.10494801 0.51903373
0.064128675 0.10516308 0.51957989
0.074898332 0.10609014 0.51980817
0.085525677 0.1050026 0.51929456
0.095079675 0.10497835 0.51895541
0.10511348 0.10495761 0.51892173
0.1141069 0.10367201 0.51908654
0.13750251 0.10681707 0.51990646
0.1443904 0.10072156 0.5197466
-0.40034282 0.11897048 0.51343292
-0.3945044 0.1153596 0.51315194
-0.38467488 0.11513585 0.51288217
-0.37454471 0.11517382 0.51292104
-0.36495808 0.11482739 0.51345384
-0.35526577 0.11518423 0.51446891
-0.3454634 0.11477661 0.51437688
-0.33524588 0.11481687 0.51332605
-0.32464251 0.11493429 0.51231289
-0.31462383 0.11505338 0.51357818
-0.30520579 0.11485912 0.51549673
-0.29537758 0.11509752 0.51541144
-0.28536651 0.11499271 0.51473182
-0.27520147 0.11511772 0.51415402
-0.26502341 0.11503384 0.51405084
-0.25521567 0.11507703 0.51473367
-0.24486114 0.11487271 0.51461917
-0.23460028 0.11511463 0.51486903
-0.22481804 0.11470879 0.5159142
-0.21533923 0.11506145 0.51646394
-0.20483334 0.11518996 0.51554418
-0.19490011 0.11483061 0.51532084
-0.18542141 0.11498237 0.5162068
-0.17517383 0.11491197 0.51621103
-0.16487949 0.11501186 0.51637959
-0.15512195 0.11503583 0.51710683
-0.14509171 0.11510752 0.5176571
-0.13521995 0.11489997 0.51868039
-0.12498154 0.11505949 0.51907408
-0.11467731 0.11500834 0.51877904
-0.10538119 0.11437555 0.51912701
-0.094440319 0.11441735 0.5190475
-0.0847473 0.11506577 0.51746285
-0.074725263 0.11482206 0.51675791
-0.065013528 0.11490104 0.51760793
-0.054759003 0.11491346 0.51766509
-0.044922911 0.11496164 0.51854581
-0.035387576 0.11467216 0.51931238
-0.025497554 0.11365837 0.51959515
-0.015007831 0.11446231 0.51941317
-0.0062139644 0.11390628 0.51947671
0.0051945178 0.11257198 0.51981223
0.013154204 0.1142719 0.51982248
0.027512498 0.11132511 0.51985222
0.035446417 0.11505561 0.5196923
0.04106269 0.11899594 0.51982379
0.055663869 0.11461648 0.51932532
0.06467241 0.11510281 0.51941973
0.075092927 0.11565977 0.51954502
0.085216843 0.11448354 0.51946878
0.095187657 0.11446666 0.51925462
0.10448343 0.11378195 0.51939529
0.11079149 0.11219231 0.51973641
0.1381726 0.1113205 0.51996219
-0.40327436 0.12610695 0.51415133
-0.39464441 0.12472474 0.51444316
-0.38512263 0.12517335 0.51512569
-0.37513694 0.12512042 0.51533693
-0.36486742 0.1248787 0.51512867
-0.35482144 0.12504409 0.51505524
-0.34476104 0.12468934 0.51471406
-0.33516273 0.12496452 0.51427394
-0.32484728 0.12483799 0.51365268
-0.31488496 0.12504387 0.51444733
-0.30516106 0.12507223 0.51572436
-0.29478028 0.1249097 0.51533502
-0.284711 0.12488987 0.51460785
-0.27476087 0.12492967 0.51457155
-0.26463771 0.12521195 0.51511431
-0.25509188 0.12506112 0.51604611
-0.24480867 0.1252488 0.51589561
-0.23467539 0.1248716 0.51539475
-0.22511196 0.12503108 0.51584983
-0.21495686 0.12490799 0.51654768
-0.20507671 0.12507765 0.51617533
-0.19471754 0.12490476 0.51538837
-0.18500875 0.12524922 0.51562047
-0.1750277 0.12497444 0.51543432
-0.16502224 0.12485029 0.51578748
-0.15501361 0.12529498 0.51748461
-0.14486897 0.1249139 0.51898825
-0.13825358 0.12487774 0.51977199
-0.1240845 0.12434679 0.51974314
-0.11464359 0.12504689 0.51932305
-0.1067597 0.12526242 0.51956582
-0.096114293 0.12494506 0.51985961
-0.084180713 0.1224462 0.51918483
-0.0750155 0.12484222 0.51862353
-0.065170258 0.12478636 0.51833141
-0.05513477 0.12501946 0.5181247
-0.045070097 0.12493604 0.51864171
-0.034960162 0.1251689 0.51931006
-0.024971703 0.12581788 0.51962125
-0.01505243 0.12542167 0.51968229
-0.0087736528 0.12639754 0.51976335
0.038765311 0.12038769 0.5199641
0.047233298 0.12222096 0.51987535
0.056567311 0.12445185 0.51969522
0.064374648 0.12376696 0.51967037
0.075340226 0.12404762 0.51968396
0.081628397 0.12597632 0.51966101
0.095053747 0.12091658 0.51982307
0.10044771 0.12022871 0.51975274
-0.41193891 0.13694319 0.51360977
-0.40467528 0.13490368 0.51419097
-0.3946991 0.13489591 0.51527929
-0.38464838 0.13513865 0.51594108
-0.37511533 0.13481639 0.51611054
-0.36522523 0.13516751 0.51556724
-0.3549692 0.13501544 0.51480681
-0.34492585 0.13487488 0.51426303
-0.33505395 0.13499601 0.5141744
-0.3250176 0.13488132 0.51406819
-0.31495515 0.13515426 0.51480544
-0.30551597 0.13501254 0.51644754
-0.29519546 0.1348311 0.51662582
-0.28525904 0.13498557 0.51563096
-0.27530876 0.13505016 0.51448548
-0.26516443 0.13462831 0.51394778
-0.25490665 0.13491727 0.51466721
-0.24534228 0.13518848 0.5158003
-0.23506913 0.13492136 0.51537067
-0.22467647 0.13469586 0.51488954
-0.21496838 0.13498081 0.51515722
-0.20498008 0.13500066 0.5150426
-0.19509263 0.13491417 0.5147559
-0.18537144 0.13508803 0.51514888
-0.17529464 0.13504173 0.5153653
-0.16480631 0.1348099 0.51541954
-0.15506892 0.13487017 0.51642996
-0.14494444 0.13478889 0.51761401
-0.13591942 0.13634223 0.51885593
-0.12525171 0.13676304 0.51933831
-0.11488852 0.13558915 0.51937068
-0.10535704 0.13490318 0.51949477
-0.095333651 0.13661748 0.51943922
-0.084839776 0.13767901 0.51912308
-0.074549176 0.13449062 0.51963973
-0.064566746 0.13422708 0.51891464
-0.054879326 0.13475047 0.51843488
-0.045121737 0.13510452 0.51898789
-0.034990616 0.13385157 0.51965058
-0.024626235 0.13499494 0.51953149
-0.014924547 0.13494845 0.51914603
-0.0062897839 0.13548052 0.51941824
0.017832994 0.13697214 0.5198819
0.024680996 0.13677949 0.51960164
0.035815794 0.13776731 0.51976764
0.045276828 0.13685721 0.51983082
0.056715772 0.13337688 0.51961505
0.064000323 0.13367519 0.51972014
0.075509042 0.13277003 0.51970041
0.082341045 0.13319468 0.51964933
-0.42020583 0.14850694 0.51318657
-0.41375628 0.14501391 0.51345229
-0.40480646 0.1449168 0.51437479
-0.39562073 0.14496353 0.51536155
-0.38521576 0.14501882 0.51551241
-0.37490186 0.14491455 0.51522583
-0.36497724 0.14490707 0.51486886
-0.35516831 0.14490505 0.5141719
-0.34496456 0.1451419 0.51349169
-0.33516896 0.14485347 0.51352215
-0.32502657 0.14518456 0.51338166
-0.31500089 0.14493482 0.5139792
-0.30509079 0.14515547 0.51598364
-0.29491013 0.14501153 0.51706469
-0.28510675 0.14526816 0.51749319
-0.27512768 0.14501366 0.51726079
-0.26543939 0.14485799 0.5166685
-0.25484803 0.14485963 0.51572567
-0.24486239 0.14507741 0.51543313
-0.23518303 0.14507647 0.51546872
-0.22504094 0.14498343 0.51522756
-0.21478327 0.1449718 0.5150739
-0.20454733 0.14513202 0.51514244
-0.19469599 0.14491394 0.51569903
-0.18498227 0.14491366 0.51627922
-0.17492346 0.14506319 0.51635444
-0.16495484 0.14505263 0.51693493
-0.15507737 0.14499541 0.51701629
-0.14482762 0.14458156 0.51595318
-0.13470355 0.14480956 0.5161407
-0.12489176 0.1449019 0.51772052
-0.1147555 0.14503783 0.51808214
-0.10497389 0.14499083 0.51865292
-0.094971366 0.14497744 0.51847297
-0.08484827 0.145053 0.51815426
-0.077790543 0.14409003 0.51923454
-0.053573519 0.14109635 0.51972014
-0.044355694 0.14442091 0.51951897
-0.034525581 0.1456324 0.51951772
-0.025001578 0.14501438 0.51923764
-0.015054896 0.14494954 0.5190413
-0.0052301302 0.1450921 0.51906317
0.0052568601 0.14691252 0.51952708
0.015109967 0.14617379 0.51957971
0.024595896 0.14376317 0.51963311
0.035672009 0.14243752 0.51971513
0.041235078 0.14293395 0.51973015
-0.42408663 0.15533546 0.51505756
-0.41513747 0.15492848 0.51505369
-0.40484986 0.15504897 0.51565391
-0.39476308 0.15471147 0.51648611
-0.3850491 0.15503904 0.5165624
-0.37495375 0.15510239 0.51604789
-0.36486009 0.15485577 0.51503229
-0.35499984 0.15521972 0.51366788
-0.34465331 0.15488294 0.51285011
-0.33441606 0.15486588 0.51261985
-0.32486081 0.15518489 0.51242316
-0.31502578 0.1547849 0.51290441
-0.30509251 0.15490676 0.51493686
-0.29514402 0.15492417 0.51786184
-0.28594661 0.15503022 0.5193646
-0.275078 0.15441115 0.5197255
-0.26463151 0.15508635 0.51918733
-0.25514311 0.1552797 0.51725078
-0.2453001 0.15496337 0.51501209
-0.23491406 0.15488479 0.5141378
-0.22488725 0.15484227 0.51534212
-0.21505064 0.15487155 0.51654458
-0.20481122 0.15529345 0.51673436
-0.19511245 0.15459868 0.51699716
-0.18488988 0.15484898 0.51712251
-0.17492177 0.15509997 0.51696533
-0.1652136 0.15506925 0.51746762
-0.15492029 0.15509781 0.5176335
-0.1448974 0.15495087 0.51732838
-0.13496405 0.15503876 0.51755214
-0.12510915 0.15493761 0.51790613
-0.11496947 0.15484083 0.51776826
-0.10495056 0.15498921 0.51790947
-0.094887033 0.15526746 0.51848471
-0.086377755 0.15356001 0.51921415
-0.079563603 0.15024981 0.51992428
-0.042324837 0.15233067 0.51978868
-0.034306739 0.15312809 0.51959467
-0.02521915 0.15377329 0.5194875
-0.014892251 0.15281388 0.51945537
-0.0045068744 0.1532615 0.51943332
0.0052559883 0.15256992 0.51956677
0.014506723 0.15246285 0.5195213
0.02224955 0.15053675 0.51988649
-0.42048746 0.16001421 0.51578504
-0.41170001 0.16057676 0.51587284
-0.40372646 0.16203339 0.51632702
-0.39532244 0.1636436 0.51753157
-0.38529944 0.16502263 0.51799834
-0.37477759 0.16487086 0.51759291
-0.36488718 0.16521287 0.51660562
-0.35488248 0.16470198 0.51487303
-0.34509769 0.16504106 0.51373434
-0.33524513 0.16501413 0.51367402
-0.32494923 0.16512468 0.51448268
-0.31482044 0.16471808 0.51566309
-0.30501962 0.16483963 0.51704216
-0.29496905 0.16487972 0.51829606
-0.28507352 0.16507134 0.51909167
-0.27476791 0.16505891 0.51896709
-0.26497805 0.16512959 0.51891559
-0.25519535 0.16522779 0.51804274
-0.24517861 0.16514106 0.51638693
-0.23513278 0.16505957 0.5159567
-0.22511561 0.16476063 0.5168525
-0.21490978 0.16492194 0.51783049
-0.20504946 0.16494328 0.51841486
-0.19506639 0.16467687 0.51866198
-0.1847488 0.16496013 0.51856399
-0.17487127 0.16481084 0.51777542
-0.16499451 0.16481477 0.5174334
-0.15499304 0.16508447 0.51774174
-0.14525187 0.16533315 0.51883906
-0.13523681 0.16486306 0.5193091
-0.12465916 0.16445005 0.51909465
-0.11501753 0.164952 0.51827937
-0.10493357 0.16490313 0.517928
-0.095348947 0.16465925 0.51904947
-0.08894439 0.16265289 0.5198456
-0.38239732 0.17110837 0.51935631
-0.374852 0.17171915 0.51932907
-0.36503607 0.17395328 0.51885438
-0.35505083 0.17421217 0.51689798
-0.34476987 0.1745083 0.51473439
-0.33494499 0.17468427 0.51422858
-0.32526049 0.17513302 0.51571882
-0.31523824 0.175217 0.51782954
-0.30505031 0.17499445 0.51892519
-0.29466534 0.17468405 0.51867235
-0.28511807 0.17517097 0.51881045
-0.2751236 0.1750998 0.51868707
-0.26502389 0.17499961 0.51876384
-0.25504953 0.17500587 0.51856041
-0.24480863 0.17490594 0.51796579
-0.2349408 0.17519198 0.51839775
-0.22517802 0.1750294 0.51872003
-0.21524079 0.17490558 0.51900411
-0.20518264 0.17485471 0.51930434
-0.19638138 0.17435864 0.51970965
-0.18299884 0.17175633 0.51972985
-0.17408809 0.17339981 0.51923466
-0.16452517 0.17468537 0.51833475
-0.15476806 0.17474753 0.51783735
-0.14488195 0.17505169 0.51843476
-0.13654487 0.17503461 0.51926297
-0.12143199 0.1709848 0.51976913
-0.11348701 0.17325497 0.51958698
-0.10501687 0.17446515 0.51924556
-0.097584568 0.17421526 0.51962024
-0.33250198 0.18041128 0.5144515
-0.32445806 0.18218671 0.51572764
-0.31491968 0.1843605 0.51799268
-0.30523524 0.18525809 0.51941603
-0.29471716 0.18492842 0.51936513
-0.28467441 0.18416075 0.51955837
-0.27511224 0.18489294 0.51945764
-0.26534894 0.1850591 0.51936698
-0.255431 0.18481937 0.51932299
-0.24493657 0.18478489 0.51843917
-0.23503353 0.18489261 0.51833814
-0.22466451 0.18505152 0.51905316
-0.21538992 0.18440847 0.51966077
-0.20509094 0.18235657 0.51967978
-0.19561076 0.18285632 0.51977074
-0.18781875 0.18540359 0.51979244
-0.16091105 0.18119374 0.51937437
-0.15424527 0.18246736 0.51943129
-0.1456064 0.18235892 0.51941371
-0.13550475 0.18417318 0.5196017
-0.12918811 0.18666749 0.51989341
-0.11270447 0.18070792 0.51996726
-0.10422202 0.18466645 0.51970154
-0.097220756 0.18583816 0.5197708
-0.30353087 0.19092366 0.51879138
-0.29431897 0.19222641 0.518704
-0.28493628 0.19419765 0.51932192
-0.27526152 0.19596931 0.51964414
-0.26589933 0.19583903 0.51978546
-0.25608182 0.19198298 0.51983249
-0.244316 0.1929657 0.51927006
-0.23482084 0.19443934 0.51907492
-0.22502291 0.19366224 0.51912051
-0.21958154 0.19164675 0.51973772
-0.10346146 0.19372539 0.51983351
-0.099855214 0.19656447 0.51984954
-0.056536481 0.19081888 0.5198952
-0.26324463 0.20116748 0.51966375
-0.23483135 0.20087849 0.51998675
-0.19224142 0.20832987 0.51953435
-0.1846581 0.20689864 0.51911169
-0.17636232 0.20722941 0.51927346
-0.16916315 0.20946983 0.51982832
-0.11407524 0.20564441 0.51995957
-0.10193698 0.20427206 0.51979411
-0.098477922 0.20427145 0.51985365
-0.19281243 0.21220282 0.51963252
-0.18491234 0.2128623 0.5190748
-0.17592965 0.21285309 0.51932448
-0.16941197 0.21191031 0.51962715
-0.15276739 0.21821637 0.51986557
-0.14499328 0.21800824 0.51971108
-0.13452379 0.21588001 0.51980388
-0.12752326 0.21464926 0.51977038
-0.11754127 0.21386829 0.51989317
-0.10121875 0.21120417 0.5197615
-0.15251784 0.2220007 0.51986521
-0.14504831 0.2217997 0.51971108
-0.13904513 0.22199883 0.51996589
0.14631598 0.018121954 0.52017635
0.25079077 0.01833128 0.5200783
0.28848994 0.015772901 0.52010638
0.29484427 0.016416233 0.52047139
0.30144709 0.018324608 0.52050638
0.13791278 0.025817428 0.52040642
0.14358893 0.025548005 0.52039289
0.22960392 0.028720858 0.52017176
0.2344013 0.028652132 0.52044308
0.24608193 0.026135443 0.52009541
0.25412455 0.027203152 0.52030742
0.26330036 0.02905223 0.52021039
0.28872877 0.025423432 0.52020115
0.29543215 0.024478208 0.52060705
0.30054951 0.021586874 0.52091545
0.13895574 0.032256387 0.52019721
0.14411542 0.032420021 0.52045554
0.19671319 0.039924737 0.52008426
0.20583439 0.038872667 0.52036917
0.21536492 0.0383466 0.52020943
0.22600186 0.036089752 0.52009141
0.23565441 0.034680374 0.52080363
0.24371919 0.03560118 0.52061194
0.25576854 0.035138413 0.52065432
0.26507378 0.035132308 0.52148134
0.27376249 0.036677942 0.52068746
0.28679144 0.036510494 0.52044946
0.29379937 0.034720529 0.52097994
0.18583046 0.048482601 0.52014154
0.1963909 0.045600895 0.52030778
0.20551455 0.044913724 0.52055252
0.21420683 0.045430552 0.52051455
0.22571576 0.045423537 0.52043605
0.2352581 0.045299266 0.52071726
0.2448993 0.045105744 0.52066386
0.25517565 0.045131717 0.52082407
0.26500893 0.045070041 0.52181041
0.27504486 0.044992957 0.5214563
0.28487408 0.044967547 0.52066511
0.29189283 0.043329731 0.52110195
0.1454695 0.059685212 0.52017218
0.17918932 0.057985369 0.52015603
0.18493608 0.056168418 0.5202176
0.19664104 0.055936497 0.52025962
0.2052158 0.054221079 0.52021456
0.21493152 0.055164095 0.52044898
0.22612864 0.055840697 0.52058572
0.23498832 0.055003699 0.52148753
0.24498692 0.054937597 0.52115184
0.25495762 0.054996587 0.5208739
0.26498061 0.054962065 0.52180773
0.27502662 0.055006195 0.52147353
0.28431663 0.054842383 0.5208317
0.2900987 0.051027551 0.52066541
0.077674069 0.069293767 0.52033257
0.085181311 0.068089642 0.52030194
0.09425281 0.068369597 0.52011442
0.10467338 0.066616327 0.52034044
0.11291829 0.068082072 0.52018344
0.13851534 0.066166379 0.52031559
0.1450206 0.065663368 0.52071458
0.15391056 0.066045031 0.52036852
0.16486426 0.067231603 0.52031809
0.17521173 0.06726335 0.52045625
0.18525074 0.065235868 0.52068096
0.19483612 0.065120302 0.52048969
0.2050814 0.065629594 0.52057862
0.21505134 0.065117426 0.52185208
0.22501613 0.064889967 0.52165091
0.23505451 0.065087542 0.52226889
0.2450268 0.065068327 0.52146542
0.25504112 0.064894214 0.52107716
0.2650539 0.064990751 0.52174199
0.27502587 0.064931035 0.52160013
0.2831575 0.064649314 0.52124757
0.077790707 0.074526042 0.52032542
0.085001498 0.074968465 0.52069336
0.094000861 0.074335612 0.52029735
0.10564298 0.07495109 0.52071619
0.11442278 0.075813614 0.52073228
0.12510015 0.079626523 0.52015555
0.13816878 0.076728567 0.52017957
0.14508931 0.075050771 0.52069646
0.15482397 0.074729316 0.5202592
0.16535984 0.075198442 0.5206936
0.1751519 0.075063661 0.52113712
0.18503754 0.074989304 0.52132636
0.19508834 0.075035721 0.52100134
0.20514137 0.074945562 0.52136236
0.21505028 0.074969999 0.52134198
0.22488448 0.074963935 0.52068245
0.23497207 0.075072579 0.52179289
0.2449754 0.075032972 0.52321541
0.25499398 0.074939869 0.52178705
0.26502109 0.075020105 0.52183628
0.27504873 0.075022109 0.52149707
0.28136623 0.073350348 0.52119899
-0.050693735 0.080093183 0.52000874
0.084457777 0.081715837 0.52028865
0.10725271 0.082900897 0.52041948
0.11558945 0.084273614 0.5206784
0.12476184 0.085449696 0.52057457
0.13562925 0.085702553 0.5205158
0.14496155 0.085102789 0.52082634
0.15443636 0.085689493 0.52034241
0.16448884 0.084403209 0.52048266
0.17501956 0.082184114 0.52056283
0.18549408 0.084694244 0.5210644
0.19482608 0.084947921 0.52199125
0.20484325 0.085078962 0.52215976
0.21502444 0.084998384 0.52219534
0.22494777 0.085008964 0.52111959
0.23501632 0.084963135 0.52151954
0.24494703 0.085064754 0.52252352
0.25494179 0.085017271 0.52250528
0.26499197 0.084992953 0.5222612
0.27417663 0.084599994 0.52186763
0.0084361685 0.097643681 0.52019507
0.014968747 0.097443245 0.5204851
0.024095578 0.098407082 0.5202567
0.075483344 0.09640912 0.52027589
0.081746489 0.097972609 0.52007866
0.11892437 0.095084876 0.52035201
0.12491237 0.094969876 0.52122855
0.13508257 0.09504015 0.52068901
0.1450246 0.094211131 0.52049768
0.1554504 0.094649293 0.52048975
0.16485986 0.095314138 0.52082169
0.17548007 0.09622553 0.52104318
0.18536793 0.095114797 0.52138144
0.19511898 0.095034972 0.52171952
0.20514348 0.094937906 0.52195752
0.21496011 0.095065907 0.52261132
0.22505353 0.094883427 0.52140433
0.2350671 0.095077813 0.52199316
0.24512157 0.095006116 0.52297693
0.25507984 0.094994277 0.52290958
0.26503855 0.094959565 0.52276456
0.27270082 0.09467686 0.52307081
0.0063533331 0.10608231 0.5202933
0.015228345 0.10490083 0.52070004
0.024366755 0.10487393 0.52038878
0.03599371 0.10627279 0.52024895
0.043521706 0.10722257 0.52027667
0.066446766 0.10524136 0.52020615
0.074821062 0.10447361 0.52044123
0.080399632 0.10621886 0.52027762
0.11706451 0.10716812 0.52060729
0.12500677 0.10498607 0.52171791
0.13485774 0.10478337 0.52073699
0.14523895 0.10511419 0.52093285
0.1550768 0.1049914 0.52164656
0.16500746 0.10494559 0.52226573
0.17497225 0.10509066 0.5220961
0.18490157 0.10502748 0.52226532
0.19495411 0.10491554 0.52216148
0.2049679 0.10506042 0.5229919
0.2150843 0.10497259 0.52253383
0.22508846 0.10497081 0.5215103
0.23503843 0.10486361 0.52209485
0.24495654 0.10497376 0.52284378
0.25506297 0.1050036 0.52342469
0.2650345 0.10503371 0.52399915
0.27116022 0.1030948 0.52421266
-0.10241701 0.11805677 0.52032018
-0.097659126 0.11876859 0.52034909
-0.033672083 0.1170553 0.52018565
-0.025083698 0.11677274 0.52033722
-0.015385394 0.11843257 0.52021164
-0.003272499 0.11641569 0.52035052
0.0050656456 0.11528917 0.52060246
0.015411623 0.11485291 0.52053738
0.024951434 0.11534336 0.52055782
0.035259023 0.11476661 0.52031171
0.045055937 0.11492571 0.52057594
0.051227231 0.11700675 0.52027678
0.066359393 0.11114679 0.5201028
0.074080192 0.11325365 0.52025449
0.083511122 0.11692748 0.52020586
0.093581997 0.1187307 0.52025431
0.10655693 0.11775368 0.52034587
0.11536396 0.11529307 0.52136731
0.12487779 0.11496838 0.52241302
0.13482665 0.11506878 0.52117008
0.14488004 0.11485858 0.52123177
0.15501617 0.11504878 0.52250314
0.16499756 0.11506494 0.52293491
0.17502244 0.11508755 0.52295756
0.18516795 0.11500525 0.52272081
0.195169 0.11493978 0.52313167
0.20501667 0.11500257 0.52391845
0.21494107 0.11510675 0.52325726
0.22496074 0.11492068 0.52236098
0.23494637 0.11481063 0.52345371
0.24503028 0.11508745 0.52424127
0.25502586 0.11505993 0.52405488
0.26393491 0.1145733 0.52405119
-0.14148284 0.12519504 0.52008265
-0.13419057 0.12509832 0.52040887
-0.1256616 0.12568206 0.52025259
-0.11881073 0.1264437 0.52004004
-0.10256603 0.12443541 0.52035367
-0.095001839 0.12517817 0.52072102
-0.085663795 0.12727571 0.52076608
-0.0371802 0.12047272 0.52013588
-0.024529058 0.12249678 0.52022117
-0.01472033 0.12454273 0.52022707
-0.0044443994 0.12478768 0.52073216
0.0048579401 0.12522893 0.5219571
0.015275369 0.12483042 0.52133197
0.025117021 0.12500893 0.52070212
0.03475666 0.12512025 0.52098262
0.044953644 0.12504987 0.52069479
0.053806502 0.12558231 0.52037877
0.065780602 0.12624528 0.52032954
0.074517749 0.12608096 0.52025241
0.085951604 0.1246727 0.52057135
0.094949365 0.12527511 0.5211401
0.1050069 0.12508357 0.52167952
0.1150444 0.12497186 0.52208155
0.12504891 0.12501043 0.52327675
0.13496093 0.12496138 0.52244759
0.14490357 0.12500805 0.52189791
0.15494935 0.12486482 0.52232826
0.16503225 0.12503625 0.52328485
0.17496571 0.12495528 0.52355164
0.18486428 0.12510066 0.52341908
0.19495693 0.12489377 0.52361822
0.20509024 0.12511873 0.52393925
0.21507001 0.12488675 0.52296448
0.22500196 0.12499473 0.52383637
0.23516487 0.12511434 0.52479297
0.24503948 0.12500897 0.52451175
0.25498402 0.1249736 0.52397144
0.2619262 0.12438576 0.52315468
-0.13344572 0.13227336 0.52040327
-0.12477206 0.13242497 0.52030557
-0.11611331 0.13301052 0.52005833
-0.10281292 0.13427016 0.52012771
-0.094168656 0.13220428 0.52047741
-0.084879026 0.13291001 0.52071828
-0.075147398 0.13583529 0.52031189
-0.066723853 0.1388748 0.52028483
-0.040902466 0.13743769 0.52012408
-0.035302576 0.13688265 0.52032626
-0.026745783 0.13481167 0.52008897
-0.0021314723 0.13350105 0.52057779
0.0048046964 0.13505316 0.52161002
0.014578503 0.13466658 0.52084041
0.025435282 0.13286126 0.5203315
0.034992591 0.13434438 0.52075469
0.045123111 0.13466059 0.52052569
0.053705793 0.1361437 0.52043575
0.06523703 0.13594544 0.52036232
0.074626796 0.13604192 0.52056074
0.085868403 0.13530734 0.5208447
0.094922841 0.13493676 0.5220626
0.10494778 0.13508627 0.52231467
0.11502554 0.13491099 0.52220821
0.12494531 0.13499793 0.52312046
0.13507052 0.13508353 0.52303499
0.14519624 0.13498063 0.52218223
0.15520151 0.13494731 0.52237105
0.1650591 0.13497539 0.52404755
0.17512612 0.13492003 0.52318978
0.18508302 0.13500439 0.52311105
0.19508874 0.13500147 0.52339888
0.20491499 0.13504022 0.52244383
0.2150389 0.13496044 0.52313787
0.22512196 0.13502395 0.52430654
0.23501107 0.13505878 0.52457649
0.24493332 0.13488247 0.52425086
0.25491971 0.13492827 0.52487105
0.26092827 0.13258725 0.52451432
-0.073213488 0.14544354 0.52078134
-0.065177187 0.14504367 0.52152085
-0.055224165 0.1460343 0.52093637
-0.046470359 0.14750579 0.52025199
-0.03608954 0.14252323 0.52026153
-0.00048751384 0.14331985 0.52016652
0.0047533805 0.14248063 0.52053118
0.014536393 0.1423883 0.52023208
0.025956666 0.14712602 0.52030486
0.034552764 0.14632134 0.52051002
0.045549322 0.14528273 0.5210495
0.054970883 0.14497906 0.52192783
0.065266423 0.14511397 0.52159399
0.075078897 0.14515169 0.52244216
0.08494851 0.14488965 0.52317464
0.094930127 0.14487615 0.52310389
0.10508513 0.14489739 0.52269959
0.11508442 0.14493099 0.52270085
0.12500218 0.14499325 0.52352703
0.13483807 0.14503153 0.52360374
0.14499442 0.1450232 0.5220632
0.1550485 0.14495353 0.52266192
0.1649953 0.14511776 0.52422321
0.17490691 0.14513171 0.52307761
0.18496411 0.14504346 0.52311963
0.19496055 0.14508645 0.5236299
0.20511743 0.14498827 0.5225994
0.21496789 0.14504267 0.523076
0.22484513 0.14504963 0.52508104
0.23497148 0.14507189 0.52551407
0.24500681 0.14504318 0.52566308
0.25361913 0.14448145 0.5261727
-0.2815482 0.15603296 0.52034163
-0.27539772 0.1557823 0.52023232
-0.26989782 0.15745151 0.52040434
-0.083111309 0.15691391 0.52068216
-0.075027913 0.15508614 0.52165091
-0.065077111 0.154927 0.52206844
-0.055079784 0.15519276 0.52118748
-0.045352943 0.15538955 0.52055782
-0.035771411 0.15714505 0.52034318
-0.024178544 0.15752466 0.52030486
-0.014805389 0.15804225 0.52041423
-0.004863169 0.15754965 0.52040523
0.0048154886 0.15673675 0.52059489
0.015602417 0.15671855 0.5207082
0.025088614 0.15499543 0.52134389
0.035130963 0.15506832 0.5216822
0.045025762 0.154866 0.52218759
0.054880533 0.15512671 0.52307737
0.065030336 0.15509208 0.52258116
0.075113729 0.15491949 0.52315605
0.085081115 0.15503183 0.52401626
0.094991267 0.1550677 0.52529389
0.10498866 0.1550561 0.52527046
0.11505956 0.15498044 0.52395862
0.12502632 0.15520297 0.52406889
0.13491696 0.15501733 0.52428573
0.14514349 0.15496142 0.52291167
0.15503511 0.15508854 0.5236575
0.16478442 0.15509428 0.5242573
0.17509134 0.15490745 0.52292937
0.18503419 0.15506329 0.52307206
0.19502297 0.15498656 0.52342081
0.20496581 0.15518342 0.5240469
0.21504538 0.1550124 0.5244965
0.22512396 0.15496103 0.52475041
0.23496118 0.15505195 0.52544433
0.24512248 0.15500259 0.52619398
0.25179601 0.15366659 0.52645999
-0.27048177 0.16077304 0.52003777
-0.19555025 0.16976592 0.52015412
-0.18953927 0.16996753 0.52027798
-0.13251358 0.16809557 0.52016437
-0.12723507 0.16879041 0.52034634
-0.0913091 0.16829163 0.52030909
-0.084636636 0.16504075 0.52095115
-0.075236224 0.16507052 0.52230924
-0.065242648 0.16488203 0.52186263
-0.05487505 0.16491342 0.52070779
-0.044763014 0.16506207 0.52085662
-0.034880579 0.16518246 0.52107632
-0.024905352 0.16480303 0.5206185
-0.014965602 0.16501844 0.52077842
-0.0050219358 0.1651171 0.5210216
0.0049067074 0.16493449 0.5215078
0.014798597 0.16487801 0.52230161
0.024882594 0.16512099 0.52301127
0.034920029 0.16516264 0.52364814
0.045031752 0.16505745 0.52326185
0.054914858 0.16511323 0.52336639
0.06500081 0.16496789 0.52300513
0.074842148 0.16489232 0.52330536
0.085017294 0.16496967 0.52392322
0.094985746 0.16480821 0.52427232
0.10501654 0.16500989 0.52381212
0.11491641 0.16513537 0.52339751
0.12505576 0.16505034 0.52402234
0.13507655 0.16506298 0.52470756
0.14494531 0.16504608 0.52410948
0.15493831 0.16485915 0.52358627
0.16501637 0.16506518 0.52425867
0.17491806 0.16497774 0.52389342
0.18492624 0.16515215 0.52450264
0.1949731 0.16503017 0.525455
0.20510273 0.16493592 0.52516407
0.21499994 0.16500317 0.52476418
0.22496906 0.16506451 0.52501178
0.23510937 0.16509582 0.52564478
0.24481125 0.16482054 0.52641058
0.25054449 0.16169499 0.52617663
-0.37287849 0.17442122 0.52031338
-0.1943011 0.17562772 0.52042007
-0.18498993 0.17578937 0.52051395
-0.17599747 0.17787413 0.52045
-0.16783884 0.17850691 0.52008295
-0.13169809 0.17532122 0.52042311
-0.12556577 0.17521667 0.5208528
-0.11614656 0.17670065 0.52044666
-0.10493723 0.17884474 0.52013236
-0.093709446 0.17564549 0.52045453
-0.08474806 0.17487653 0.52168584
-0.074879795 0.17500122 0.52303588
-0.064983658 0.17515451 0.52289784
-0.05504949 0.17512226 0.52187836
-0.045076646 0.17486551 0.52112967
-0.035129648 0.17494233 0.52109379
-0.025038304 0.17492248 0.52085364
-0.014948289 0.1751112 0.52109611
-0.0049510514 0.17484187 0.52168441
0.0050151176 0.17489891 0.52264446
0.014946466 0.17498758 0.52372825
0.025178749 0.17493211 0.523552
0.035135146 0.17492932 0.52320981
0.04496745 0.17503835 0.52268386
0.05485652 0.17478138 0.52241969
0.064770944 0.17483008 0.52302992
0.07509236 0.17495303 0.52326959
0.084875353 0.175192 0.52384216
0.094936512 0.17503051 0.52337337
0.10509954 0.17501663 0.5223369
0.11507225 0.1749693 0.52310109
0.12497413 0.1748554 0.52414393
0.13506763 0.17504552 0.52443749
0.14505243 0.17498828 0.52394211
0.15499799 0.175032 0.52347893
0.16494037 0.17487492 0.52392143
0.17494905 0.17513396 0.52463025
0.18502332 0.17507881 0.52573419
0.19507273 0.17502369 0.52632898
0.20501046 0.17501016 0.52624059
0.21502289 0.17485721 0.5253346
0.22503679 0.17503648 0.52542102
0.23493284 0.1750112 0.52548432
0.24307239 0.17450219 0.52544218
-0.30460137 0.18426181 0.52001649
-0.28639144 0.18751374 0.52018595
-0.27542078 0.18908739 0.52013767
-0.26113331 0.18958704 0.52016771
-0.2136593 0.18629056 0.52026653
-0.20490006 0.18640892 0.52052528
-0.19470054 0.18567058 0.52043974
-0.18436722 0.18503545 0.52061677
-0.17528395 0.18487312 0.52125233
-0.16552015 0.18535185 0.52123243
-0.15512499 0.18714456 0.52094424
-0.14431717 0.18732873 0.52049285
-0.13375664 0.18577839 0.52034509
-0.12474293 0.18480971 0.52068001
-0.11520988 0.18528336 0.52048713
-0.10552761 0.18576993 0.52024722
-0.093778208 0.1847842 0.52045286
-0.084816292 0.18487875 0.52109665
-0.075036541 0.18487255 0.52212584
-0.064991325 0.18503566 0.52163684
-0.05512426 0.18504818 0.52124226
-0.045086756 0.1851006 0.52165759
-0.035103291 0.18509175 0.52229238
-0.024936251 0.18519792 0.5222379
-0.014892695 0.18503596 0.52218795
-0.004783608 0.18490383 0.52238595
0.0051343455 0.18520372 0.52410442
0.015005242 0.18508473 0.52528554
0.024892913 0.18486103 0.52461058
0.035016086 0.18499535 0.52367902
0.045002963 0.18501383 0.52349865
0.055009726 0.18500882 0.52359092
0.065081447 0.18500584 0.52356851
0.075033903 0.18486136 0.52302814
0.085039414 0.18505827 0.52274889
0.094990008 0.18499921 0.52268058
0.10502829 0.18493035 0.52367008
0.11512046 0.18497431 0.52423579
0.12504221 0.18496244 0.5241614
0.13487744 0.18498157 0.52427536
0.14502317 0.18488036 0.52354252
0.1550262 0.18514527 0.52295005
0.16506405 0.18492058 0.52407163
0.17508386 0.18499902 0.52541798
0.18506706 0.18499294 0.52645093
0.19495311 0.18505621 0.52587336
0.20490195 0.18494751 0.52590317
0.21506369 0.18507636 0.52669007
0.2250746 0.18509407 0.52682096
0.23509955 0.18492131 0.52571845
0.24143361 0.18325798 0.52550501
-0.28255939 0.19140001 0.52019048
-0.27462578 0.19418399 0.52021462
-0.26421726 0.19474842 0.52028579
-0.2549215 0.19585431 0.52047342
-0.24612929 0.19734448 0.52044201
-0.23491012 0.19927211 0.52038413
-0.224436 0.19788611 0.52019656
-0.2147834 0.19513501 0.52070856
-0.20520763 0.19523017 0.52147079
-0.19498678 0.1949826 0.52143502
-0.18459678 0.1953024 0.52120197
-0.17481658 0.19489205 0.52210522
-0.16524892 0.1951589 0.52314007
-0.15504044 0.19491933 0.5225966
-0.14486495 0.19502032 0.52159095
-0.13511044 0.19509912 0.52111012
-0.12511373 0.19495244 0.5211547
-0.11498922 0.19513486 0.52079904
-0.10555604 0.19544645 0.52039969
-0.095025025 0.19505918 0.52058744
-0.085200869 0.19513211 0.52114552
-0.075214744 0.19496936 0.52164626
-0.065056674 0.19517455 0.52138674
-0.054786116 0.19513345 0.52076185
-0.044899978 0.19493839 0.5215342
-0.034854047 0.19513148 0.52254146
-0.025034161 0.19505784 0.52293247
-0.015120219 0.19486926 0.52257389
-0.0049411557 0.19476363 0.52178884
0.0050694775 0.19494881 0.52335286
0.015091933 0.19499122 0.52527404
0.024923028 0.19514073 0.52564496
0.034974072 0.19497602 0.52438778
0.044886202 0.19492437 0.52354395
0.055096604 0.19498158 0.52377945
0.064956337 0.19522782 0.52474171
0.075218327 0.19484538 0.52356672
0.08492481 0.19496688 0.52367431
0.0949753 0.1950552 0.52427208
0.10489573 0.19500996 0.52548403
0.11488575 0.19507281 0.52533883
0.12500738 0.1949223 0.5245589
0.13510574 0.19494981 0.52476233
0.14483123 0.19490775 0.52429497
0.1550162 0.19492364 0.52383846
0.16502117 0.1950589 0.52554667
0.1749994 0.19509764 0.52670598
0.18494046 0.19503182 0.52737242
0.19518161 0.19495131 0.52654558
0.20516072 0.19493601 0.52564889
0.21497418 0.1949469 0.52654469
0.22503345 0.19497131 0.5269447
0.23429711 0.19489826 0.52680171
-0.2629188 0.20134135 0.52004677
-0.25416735 0.20305315 0.52090281
-0.24452958 0.204611 0.5213778
-0.23475191 0.20508716 0.52098441
-0.22513573 0.2051551 0.52086633
-0.21521066 0.20469622 0.52085221
-0.20496032 0.20481016 0.52094322
-0.19560562 0.20421056 0.52080435
-0.18545581 0.20195422 0.52066505
-0.17438705 0.20335902 0.52121252
-0.16494721 0.20503509 0.52241945
-0.15501183 0.20507938 0.52254117
-0.14504524 0.20523532 0.52179581
-0.13509858 0.20490012 0.52148467
-0.12522139 0.20503314 0.52107626
-0.11500401 0.20514512 0.5204711
-0.10538889 0.2053366 0.52044863
-0.094155297 0.20483461 0.52053928
-0.085174203 0.2050277 0.52111489
-0.07522554 0.20479386 0.52153027
-0.065246746 0.205043 0.52186263
-0.055019345 0.20533916 0.52209896
-0.045107383 0.20491339 0.52285415
-0.035033725 0.20516022 0.52306479
-0.025120422 0.20488882 0.52338552
-0.015013054 0.20508789 0.52302843
-0.0048878919 0.20506285 0.5229668
0.0050712442 0.20493481 0.52360624
0.014931 0.20486687 0.52453953
0.024976701 0.20485498 0.52499729
0.034954183 0.20505682 0.52405018
0.045141865 0.20497404 0.52382392
0.05516516 0.20503111 0.52424848
0.064855404 0.20496808 0.5247528
0.07486929 0.20495777 0.52488881
0.085134283 0.20490192 0.52524734
0.095201001 0.20504129 0.52532142
0.10495766 0.20506874 0.52661359
0.11506463 0.20500343 0.52593416
0.12491382 0.2050171 0.52537757
0.13498016 0.20487107 0.52516532
0.14498267 0.20509011 0.52543026
0.15501328 0.20495361 0.52529848
0.16506857 0.20497847 0.52622664
0.17504652 0.20514213 0.52729529
0.18504781 0.20504482 0.52847266
0.19496547 0.20516682 0.52782011
0.20483004 0.20508653 0.52722073
0.21503936 0.20511279 0.52787644
0.22500378 0.20499524 0.52773976
0.23287469 0.20439516 0.52692485
-0.23307781 0.21068034 0.52086151
-0.22411248 0.21240988 0.52125072
-0.21487467 0.2138776 0.52171373
-0.20484108 0.21446332 0.52130544
-0.19592598 0.21584317 0.52087885
-0.18454129 0.21794498 0.52068621
-0.17336099 0.21676791 0.52067226
-0.16482534 0.21469921 0.5208376
-0.15534595 0.21443525 0.52088898
-0.14510818 0.2138055 0.52064389
-0.13541217 0.21478398 0.52040786
-0.12402637 0.21496889 0.52049214
-0.11467154 0.21516824 0.52063781
-0.10534152 0.21509291 0.52083296
-0.095005929 0.21477528 0.52102095
-0.085042365 0.21519509 0.52214479
-0.075133257 0.21486944 0.5225805
-0.065030418 0.21472424 0.52219528
-0.055172991 0.21490629 0.52248329
-0.045002021 0.21508107 0.52292395
-0.0349968 0.21498701 0.52325892
-0.024928376 0.21493742 0.52338082
-0.014792725 0.21506721 0.52345192
-0.0050424002 0.21508567 0.52435237
0.0048389896 0.21494575 0.52479118
0.01515804 0.21485296 0.52482665
0.024968214 0.21502855 0.52478921
0.034998532 0.21497598 0.52427459
0.044965945 0.21503378 0.5247032
0.054813232 0.2149881 0.52546889
0.065067835 0.21500991 0.5248301
0.074943423 0.21500276 0.52580267
0.084890477 0.21514861 0.52616638
0.094913065 0.21502385 0.52534753
0.1049198 0.21492657 0.52547848
0.11488439 0.21507323 0.52607387
0.12478226 0.2149352 0.52652085
0.13491163 0.21497405 0.52595007
0.14498721 0.21500598 0.52595884
0.15508957 0.21503824 0.52634078
0.16515647 0.21502863 0.52614802
0.17516188 0.21485066 0.52710748
0.18504603 0.21519512 0.52842081
0.19511838 0.2148385 0.52700192
0.20507273 0.21498528 0.52706063
0.2150197 0.21485959 0.52681828
0.22495905 0.21500346 0.52840006
0.23124431 0.21281688 0.52894074
-0.19352208 0.22090879 0.52188635
-0.18469974 0.22246853 0.52201492
-0.17484881 0.22399497 0.52243233
-0.16510761 0.22495799 0.52190489
-0.15549658 0.22547032 0.52091873
-0.14481786 0.2259538 0.52086085
-0.13471684 0.2251175 0.52156276
-0.12500022 0.22498055 0.52213585
-0.11522066 0.22502364 0.52222639
-0.10488271 0.22496347 0.52202338
-0.094989821 0.22493821 0.52281511
-0.085036159 0.22499299 0.52358073
-0.074952058 0.22499971 0.52411175
-0.06474404 0.22530708 0.52353466
-0.054887246 0.22483972 0.52314514
-0.044851113 0.22501652 0.52313352
-0.034915712 0.22480519 0.52336824
-0.024972178 0.22502649 0.52344948
-0.014712836 0.22495429 0.52383125
-0.0049633463 0.22492148 0.52464461
0.0050285561 0.22474281 0.52477992
0.015003232 0.22522299 0.52494019
0.024885487 0.22514124 0.52562249
0.035060622 0.22486688 0.52584106
0.044990066 0.22510543 0.52611536
0.055062145 0.22507343 0.52605164
0.065252572 0.22472197 0.52526313
0.075162545 0.22501773 0.52512115
0.084851593 0.22496367 0.52560663
0.094987385 0.22500241 0.52559423
0.10502301 0.22493514 0.5253709
0.1148723 0.22501661 0.52656907
0.12493668 0.22497706 0.52698267
0.13494924 0.2249759 0.52655834
0.14503175 0.22498667 0.52633941
0.15487289 0.22505172 0.52679551
0.16504772 0.2250514 0.52685785
0.17521201 0.22489171 0.52719021
0.18496796 0.2250379 0.52796823
0.19493435 0.22492859 0.52689803
0.20496756 0.22499923 0.52706033
0.21494858 0.22497782 0.52753258
0.22412227 0.22441606 0.52831483
-0.16264528 0.2305177 0.52243894
-0.15408801 0.23183666 0.52211469
-0.14485872 0.23281516 0.52270252
-0.13463089 0.23456569 0.52358001
-0.12515642 0.23499164 0.52406597
-0.11473274 0.2350114 0.52346402
-0.10453068 0.23486106 0.52320743
-0.09510389 0.23512264 0.52463502
-0.085052729 0.23470749 0.52518851
-0.075112015 0.23476736 0.52444035
-0.065008834 0.23519498 0.52437425
-0.054905213 0.2348789 0.52492595
-0.044877745 0.23497115 0.5247348
-0.034885839 0.23483689 0.52459776
-0.024910692 0.23488562 0.52476579
-0.014970468 0.23474792 0.52458793
-0.0048994175 0.23491159 0.52450401
0.0050608763 0.23485531 0.52452111
0.01487234 0.23481782 0.52434707
0.024871252 0.23498647 0.52532756
0.034909032 0.23510259 0.52661109
0.044962242 0.23498003 0.52670735
0.055100463 0.23493987 0.52631307
0.064882845 0.23487975 0.52671391
0.075088434 0.23506658 0.52609205
0.085031234 0.23500046 0.52679861
0.094819322 0.23513272 0.52677983
0.10513534 0.23495018 0.52629846
0.11516759 0.23503293 0.52698123
0.12516856 0.23503147 0.52763444
0.13500382 0.23504557 0.52766025
0.14495128 0.23513089 0.52719694
0.15492861 0.23496273 0.5274815
0.16493902 0.2350906 0.52762353
0.17482077 0.23497684 0.52775627
0.18496275 0.23512225 0.52884257
0.19516291 0.2348851 0.52792811
0.20512559 0.23502012 0.52785075
0.21482721 0.23454814 0.52920413
0.22267962 0.23260549 0.52904832
-0.12309137 0.24125634 0.52461773
-0.11426603 0.24240249 0.52429289
-0.10472242 0.24363564 0.52405077
-0.094834737 0.24485518 0.52476954
-0.085429274 0.24510498 0.5264383
-0.074857652 0.24501945 0.52639353
-0.064597473 0.24498187 0.52646554
