# .PCD v0.7 - Point Cloud Data file format
VERSION 0.7
FIELDS x y z
SIZE 4 4 4
TYPE F F F
COUNT 1 1 1
WIDTH 1
HEIGHT 185
VIEWPOINT 0 0 0 1 0 0 0
POINTS 185
DATA ascii
-0.084570631 -0.090981416 0.31575114
-0.083419077 -0.084613129 0.31582573
-0.081343003 -0.07861723 0.3162314
-0.075510271 -0.073691055 0.31693745
-0.067717008 -0.070631072 0.31854093
-0.070769817 -0.069807634 0.31577545
-0.078003094 -0.10076376 0.32884234
-0.081142783 -0.092955753 0.32308388
-0.079220928 -0.094705261 0.3275314
-0.081422366 -0.085770816 0.3231177
-0.07817129 -0.083897963 0.3272863
-0.08033973 -0.079899505 0.32148215
-0.074627079 -0.075991407 0.3247509
-0.06526456 -0.072744533 0.32605088
-0.054934058 -0.072734058 0.32817957
-0.04940138 -0.072640948 0.32859275
-0.052278597 -0.069212265 0.32976687
-0.080134906 -0.10421387 0.3370581
-0.078968972 -0.10243687 0.33523935
-0.078170247 -0.094999343 0.33492738
-0.076784141 -0.084770851 0.33471835
-0.07404016 -0.075537145 0.33575323
-0.06628035 -0.072475195 0.33304757
-0.057033371 -0.070931099 0.33053961
-0.070873633 -0.068540774 0.33929321
-0.064440615 -0.065399334 0.33630154
-0.056353111 -0.065141432 0.33251819
-0.060848504 -0.059257358 0.3378807
-0.057317063 -0.056578044 0.33695614
-0.07735949 -0.10402538 0.34476826
-0.07555867 -0.095303096 0.34432915
-0.076896377 -0.084061429 0.34499511
-0.074617565 -0.074906379 0.34434751
-0.072157755 -0.066658482 0.34454972
-0.066418841 -0.062145162 0.34413165
-0.058781475 -0.060056493 0.34971118
-0.06112 -0.059256196 0.34375024
-0.057585355 -0.056075666 0.34418479
-0.072443314 -0.11222988 0.35659555
-0.072182193 -0.10572515 0.35342306
-0.069141671 -0.10494804 0.35811737
-0.072592132 -0.09427841 0.35522273
-0.068987489 -0.099875748 0.35868794
-0.074800864 -0.08388675 0.35544714
-0.072094217 -0.074977271 0.35546523
-0.071650647 -0.067981832 0.35456899
-0.065215923 -0.065134823 0.35482734
-0.056653149 -0.063466512 0.35593656
-0.048966318 -0.062154233 0.35896444
-0.053979903 -0.056522787 0.35055688
-0.04781267 -0.059978217 0.35783982
-0.072497405 -0.11316299 0.36408573
-0.069931358 -0.11146307 0.36244464
-0.072944805 -0.10697468 0.36796084
-0.068682514 -0.10549424 0.36425975
-0.073342405 -0.094934851 0.36575744
-0.069805354 -0.098975211 0.3625114
-0.076987572 -0.084036268 0.36476126
-0.07518582 -0.07505808 0.36470407
-0.072223775 -0.069138601 0.36295921
-0.064744815 -0.068085827 0.3655324
-0.055239711 -0.066483386 0.36562404
-0.046568308 -0.064268894 0.36596754
-0.081025049 -0.101709 0.37688637
-0.076172084 -0.10302693 0.37231305
-0.0804113 -0.098966479 0.37806088
-0.078183815 -0.095218524 0.37423974
-0.078403868 -0.084762245 0.37486839
-0.073835216 -0.07560046 0.37449425
-0.067119934 -0.071429849 0.37654313
-0.062518239 -0.068195142 0.37395343
-0.054819841 -0.065625459 0.3743012
-0.047066581 -0.064109795 0.37494153
-0.080870017 -0.10104865 0.38159651
-0.078779988 -0.10123208 0.38656425
-0.080212772 -0.099898756 0.3810088
-0.078214668 -0.0946531 0.38511756
-0.07629735 -0.084639892 0.38523281
-0.071900196 -0.077262819 0.38467813
-0.065334067 -0.072604425 0.38519821
-0.057143304 -0.070720583 0.38753641
-0.060614273 -0.069351941 0.38083366
-0.054237973 -0.068230815 0.38399073
-0.046825051 -0.066059962 0.38526192
-0.077803947 -0.10319889 0.39449805
-0.077505149 -0.094741173 0.39482191
-0.074294418 -0.084720664 0.39477518
-0.06930393 -0.080419555 0.39900494
-0.07125672 -0.078695282 0.39207479
-0.065303251 -0.075286902 0.39473438
-0.055001572 -0.07210613 0.39538604
-0.047298346 -0.070917003 0.3969318
-0.044244539 -0.068490781 0.39443749
-0.074591406 -0.11116036 0.40787733
-0.074823953 -0.10485648 0.40495375
-0.074466884 -0.094906017 0.40496463
-0.072649874 -0.086576656 0.40340587
-0.067018278 -0.08214426 0.40590119
-0.062754713 -0.078245729 0.40379903
-0.054755416 -0.075019889 0.40547556
-0.047030773 -0.071606159 0.40509173
-0.043377239 -0.069355048 0.40498251
-0.074292213 -0.1116332 0.41475266
-0.072254412 -0.10619108 0.41531482
-0.068716161 -0.10240271 0.41900936
-0.07158035 -0.096075408 0.41180575
-0.067428753 -0.094176576 0.41609281
-0.064825848 -0.084489621 0.41293731
-0.056927942 -0.081509337 0.41801053
-0.061016548 -0.079540148 0.41161141
-0.053960834 -0.077546164 0.41408184
-0.047183566 -0.072631471 0.41466391
-0.045124829 -0.069126934 0.41149455
-0.072120436 -0.1075625 0.42295408
-0.06742771 -0.10546707 0.42429078
-0.063300312 -0.093958557 0.42040956
-0.057779659 -0.092975475 0.42599484
-0.051390946 -0.080285847 0.42185378
-0.047809172 -0.081122287 0.42733243
-0.050168276 -0.079632178 0.42257711
-0.04564365 -0.076654725 0.4239957
-0.039971173 -0.073655486 0.42353761
-0.062662892 -0.10880557 0.43511584
-0.055939987 -0.10624961 0.43651819
-0.051853776 -0.097223006 0.43495831
-0.047144439 -0.09315452 0.43709174
-0.044505849 -0.083690457 0.43583554
-0.035685461 -0.080356851 0.43829498
-0.029075613 -0.080394305 0.43618169
-0.042724449 -0.079273485 0.43214479
-0.037115626 -0.07876984 0.43363437
-0.029651523 -0.079740308 0.43412459
-0.060994018 -0.10598332 0.44460016
-0.055130489 -0.10364178 0.44396776
-0.049705584 -0.10104855 0.44063321
-0.053347997 -0.098202683 0.44792017
-0.046874009 -0.094887346 0.44487575
-0.042859711 -0.086691871 0.44518599
-0.035577673 -0.081916243 0.44483727
-0.026299249 -0.082599714 0.44555014
-0.061774608 -0.10152917 0.45122698
-0.059121788 -0.10323578 0.45790413
-0.060902491 -0.099282816 0.45226032
-0.05480019 -0.097155854 0.4541412
-0.047403116 -0.092673868 0.45255554
-0.010770917 -0.090227932 0.45268071
-0.0070025027 -0.091769159 0.45961958
-0.042547476 -0.088255063 0.45421985
-0.0352627 -0.085417867 0.45609337
-0.026427709 -0.083256312 0.45507306
-0.015048658 -0.08739841 0.45557636
-0.055147562 -0.1050877 0.46484399
-0.051820062 -0.097895309 0.46165168
-0.04548575 -0.09499082 0.46676752
-0.0035900474 -0.092738129 0.46437243
0.0026517063 -0.095269904 0.46908069
-0.041648142 -0.087706454 0.46490577
-0.035562199 -0.084891587 0.46490484
-0.026271259 -0.084216468 0.46521854
-0.015457329 -0.086757757 0.46482185
-0.0075115561 -0.089788608 0.4670724
-0.051135719 -0.11110055 0.47508955
-0.049583465 -0.11804979 0.47900903
-0.051290944 -0.10701545 0.47550306
-0.047858726 -0.10259393 0.47634235
0.016156806 -0.1027059 0.47480226
-0.043504518 -0.095624454 0.47548813
-0.039850712 -0.090939403 0.47917563
-0.0018910553 -0.091184631 0.47551364
0.0056019523 -0.094706208 0.47552177
-0.040775806 -0.0889396 0.47266793
-0.035693672 -0.085822128 0.47484612
-0.024868224 -0.084969267 0.47507787
-0.015176256 -0.086771838 0.47545177
-0.0078663016 -0.088975564 0.47512108
-0.04684978 -0.12326948 0.48682183
-0.050550152 -0.11233201 0.48618382
-0.04900701 -0.11619 0.48525801
-0.050380751 -0.10830779 0.4850466
-0.047741558 -0.10311285 0.48540357
-0.042809263 -0.096474588 0.48421791
-0.038091898 -0.091774903 0.48622838
-0.033799604 -0.087982878 0.48460367
-0.025444886 -0.086042784 0.48512971
-0.015027017 -0.086156055 0.48562083
