# .PCD v0.7 - Point Cloud Data file format
VERSION 0.7
FIELDS x y z
SIZE 4 4 4
TYPE F F F
COUNT 1 1 1
WIDTH 528
HEIGHT 1
VIEWPOINT 0 0 0 1 0 0 0
POINTS 528
DATA ascii
0.039250452 -0.074466273 0.30037838
0.030798594 -0.064177416 0.30032617
0.047844838 -0.064992115 0.30098927
0.034462169 -0.053957526 0.30077404
0.038538516 -0.051757567 0.30037674
0.033789963 -0.046351217 0.30095679
0.035072662 -0.045959529 0.30090672
0.073188834 -0.041360013 0.3009755
0.080844082 -0.035135493 0.30054009
0.087495975 -0.036088876 0.30053756
0.068198368 -0.033627 0.30096021
0.080373883 -0.03098128 0.30017686
0.011286773 0.024196792 0.3007167
0.025498698 -0.071513817 0.3044247
0.03204342 -0.071583234 0.30571699
0.044871666 -0.073629886 0.30196357
0.050106019 -0.071031854 0.30358779
0.029985357 -0.06488052 0.30306745
0.05104823 -0.064478852 0.30323651
0.029347882 -0.05346885 0.30238703
0.044679128 -0.053664811 0.30379722
0.050703876 -0.049068861 0.30564171
0.027817179 -0.045776274 0.30199912
0.029094484 -0.046864316 0.30188417
0.04520059 -0.045291767 0.30238286
0.054139171 -0.044393729 0.30394429
0.06489642 -0.042019945 0.30290732
0.03635253 -0.038647905 0.30318439
0.067171909 -0.038845576 0.30755377
0.075048655 -0.035025079 0.30377638
0.011559319 -0.030979212 0.30381936
0.03373763 -0.032220207 0.3016409
0.074636683 -0.032242596 0.30308899
0.078827754 -0.028890369 0.30606806
0.092257567 -0.032922383 0.30174577
0.0087412987 -0.02426946 0.30513102
0.023531692 -0.022552252 0.30141988
0.084644608 -0.024469588 0.30437362
0.096326299 -0.02630461 0.30292949
0.10107235 -0.022322461 0.3045823
0.0040967423 -0.015060801 0.3047739
0.020880431 -0.016132873 0.30269423
0.089556485 -0.018333636 0.3056697
0.091791987 -0.016476208 0.30542567
0.1007724 -0.015794048 0.30638921
0.019299254 -0.012741126 0.30130044
0.0010608748 -0.0048201275 0.30452499
0.018838398 -0.0025170019 0.30398369
0.093101129 -0.0049615186 0.30751306
0.0013734289 0.004962327 0.30435872
0.018495189 0.0051091984 0.30521756
0.093198262 0.0044872272 0.30716354
0.0029354072 0.01529232 0.3039467
0.017284518 0.014318113 0.30431136
0.0072130295 0.023223579 0.30351809
0.018558424 0.022092268 0.30597815
0.018085696 0.035375632 0.30671054
0.024599157 -0.070482299 0.31097046
0.037443012 -0.069821969 0.31486228
0.052339405 -0.058597744 0.30961591
0.050452933 -0.053678859 0.31107092
0.044605505 -0.038700111 0.31087452
0.054627072 -0.039544143 0.31278694
0.065366358 -0.037180029 0.31482241
0.010138988 -0.029966176 0.31183982
0.073963881 -0.032967802 0.31478143
0.077737696 -0.028365515 0.31480563
0.082721293 -0.023327705 0.31475636
0.021109827 -0.017263118 0.3140046
0.087391697 -0.015529773 0.31241247
0.019450419 -0.0081338733 0.31478649
0.089795157 -0.009050074 0.30996966
-4.1887164e-05 -0.0016674846 0.30898622
0.00077559514 -0.0056526419 0.31435245
0.087462842 -0.0046886341 0.31357738
0.091077469 -0.0034915817 0.31184205
0.10231247 -0.0045753191 0.30961215
0.0009484808 0.0051146126 0.31470096
0.092446007 0.0048633651 0.31108892
0.10335758 0.0055893343 0.31152028
0.10644228 0.0022751463 0.30935648
0.022168051 0.0086453408 0.31481278
0.090606682 0.013831609 0.31126112
0.0031218061 0.014883495 0.31466341
0.020971445 0.015002943 0.30855
0.024147708 0.015428335 0.31384051
0.088675879 0.020507643 0.30954981
0.091937095 0.014537022 0.31044701
0.10309671 0.014841952 0.31276065
0.023994198 0.024894129 0.31096777
0.087308235 0.023962591 0.31296748
0.095002517 0.024804229 0.31316102
0.10156603 0.022750614 0.31253311
0.02578626 0.032501206 0.30944231
0.028194508 0.032095075 0.31093112
0.035593349 0.034099225 0.31204134
0.074742407 0.03351618 0.31353948
0.082695931 0.032296441 0.31191787
0.084991939 0.034555852 0.31301457
0.092989162 0.032416202 0.31264243
0.024520375 0.039355483 0.31080234
0.033532549 0.037004285 0.30977836
0.038078971 0.040461976 0.31028241
0.061927173 0.041168805 0.31182942
0.067257844 0.038334422 0.31219172
0.071335018 0.039239012 0.30883339
0.080599993 0.040553346 0.31257302
0.035201922 0.04356584 0.31461969
0.045101572 0.042537611 0.31354156
0.065701954 0.042034589 0.30907229
0.035256643 -0.074069768 0.31561151
0.026116377 -0.066430256 0.31515756
0.020062625 -0.038526997 0.31771353
0.026454836 -0.040672518 0.3167291
0.010832718 -0.032094624 0.31673002
0.073023692 -0.030852566 0.31663361
0.078672454 -0.02876877 0.31537828
0.0082024541 -0.024980858 0.31529725
0.022308301 -0.023029033 0.31745598
0.0041405209 -0.01524246 0.3151758
-0.000180419 -0.0022845652 0.31707662
0.087847233 -0.0055741752 0.31562445
-0.00021196406 0.00076916069 0.31798771
0.088414401 0.0048529911 0.31664902
0.098897815 0.0084552886 0.31908813
0.088250063 0.016855525 0.31710601
0.098050095 0.017143497 0.3160966
0.006615811 0.021806909 0.31500739
0.034204509 0.027270628 0.31602547
0.028480316 0.03416343 0.32143214
0.035130791 0.033999395 0.3219443
0.046473205 0.032357484 0.31977925
0.079765625 0.028887868 0.31965175
0.02786541 0.035928834 0.31559935
0.034107994 0.03836393 0.31771743
0.035594787 0.039468199 0.31723398
0.044841457 0.037752099 0.31867015
0.052794237 0.039945357 0.31992084
0.05862955 0.03958898 0.31855732
0.065766886 0.038913086 0.31885928
0.074630611 0.038149312 0.31694606
0.045130037 0.043521628 0.31785589
0.055157125 0.04355054 0.3166633
0.064430147 0.042695194 0.3168129
0.074164674 0.042069715 0.31526148
0.038202386 -0.077484868 0.32406983
0.024282994 -0.071885325 0.32480699
0.040602118 -0.075609945 0.32734674
0.02543602 -0.066423886 0.32590204
0.043906301 -0.065054715 0.32244423
0.051614381 -0.064682528 0.32415754
0.028338045 -0.05917193 0.32611412
0.030158818 -0.042200595 0.32507861
0.013131125 -0.035980027 0.32485011
0.022893652 -0.040292315 0.32510787
0.049260646 -0.037613742 0.32238001
0.056095362 -0.037384447 0.32406366
0.06521944 -0.035636801 0.32538503
0.0095307231 -0.031573698 0.32609046
0.074095935 -0.031444944 0.32524592
0.078469321 -0.028595001 0.32497099
0.0072761686 -0.0251447 0.32466641
0.080638833 -0.024778301 0.32497948
0.0036728391 -0.015137248 0.32502067
0.084920973 -0.015289702 0.32472765
0.00082999206 -0.0071448055 0.32451719
-0.00052885781 -0.003103924 0.32610095
0.085823074 -0.0047174552 0.32489252
-0.00031446666 0.0014678886 0.3253611
0.0010121405 0.0059279227 0.32478583
0.085639358 0.005195641 0.32452446
0.022243258 0.0094525516 0.32395583
0.0043230695 0.015071412 0.32508343
0.026663709 0.017372817 0.32411423
0.082410671 0.016545683 0.32596686
0.095770136 0.015930668 0.32428324
0.010076461 0.022211935 0.32630265
0.031837411 0.023184035 0.323888
0.076253965 0.025985222 0.32570046
0.081319466 0.022114661 0.32270557
0.036346775 0.034283247 0.32381195
0.046033867 0.028441485 0.32443389
0.0528934 0.031999927 0.32547489
0.065036014 0.034472451 0.32453263
0.072993621 0.032443289 0.32316002
0.078122236 0.02900417 0.3253665
0.045194939 0.037128538 0.32397127
0.055061564 0.036698919 0.32404557
0.065038882 0.036116771 0.32422736
0.023882072 -0.072651818 0.33577052
0.042628337 -0.076914586 0.33548728
0.029326685 -0.059469908 0.33443874
0.024311811 -0.04222244 0.33418295
0.012531594 -0.037873216 0.33438352
0.017439937 -0.040780436 0.33594266
0.058645237 -0.036595397 0.33500451
0.0094238259 -0.03315552 0.33484924
0.065967135 -0.034656614 0.33560464
0.073018581 -0.031707004 0.33477855
0.078123689 -0.028097352 0.33547434
0.006143502 -0.024642289 0.33500338
0.080459557 -0.024179628 0.33535314
0.002239123 -0.014994228 0.33519036
0.084618241 -0.014965443 0.33532754
0.00023595616 -0.0087915901 0.33344495
0.01579991 -0.012231879 0.33573869
-0.00090716482 -0.0044410829 0.33569509
0.082528412 -0.0049147503 0.33466762
0.085917346 -0.0049223616 0.33508915
-0.00064352155 0.0019836947 0.33424196
0.001309383 0.0066774325 0.33478832
0.083078854 0.0054301382 0.33473063
0.081931241 0.013490023 0.33446145
0.0046821032 0.014628304 0.33501408
0.0088613927 0.020274147 0.33104143
0.027220313 0.01856673 0.3352201
0.028882787 0.020847088 0.33399591
0.078423545 0.01863759 0.33277917
0.092918329 0.015808666 0.33537057
0.012992375 0.022762368 0.33533916
0.035392411 0.025031507 0.33343047
0.044394024 0.027739298 0.33358476
0.066436976 0.027635394 0.33531368
0.07350634 0.023714457 0.33410642
0.03062626 0.032646 0.33524609
0.03806752 0.02971305 0.33302361
0.045047093 0.03216235 0.3336347
0.053638976 0.030405926 0.33381224
0.058835011 0.031792555 0.33346033
0.067163572 0.0305929 0.33290333
0.072916552 0.029947314 0.33392084
0.044566855 -0.082018316 0.33839285
0.02613016 -0.064624913 0.336126
0.051494062 -0.068934925 0.33884668
0.030226707 -0.059548445 0.34176391
0.039446533 -0.044825807 0.33722627
0.075197287 -0.030923283 0.33616173
0.014350712 -0.0049245707 0.3418504
0.018437287 0.0068059117 0.33750951
0.080751881 0.010731329 0.3412568
0.078738935 0.017758841 0.33621094
0.018267207 0.021316797 0.34262609
0.043665934 0.029012129 0.33908221
0.051655449 0.030371394 0.34072074
0.071819089 0.028620763 0.34137371
0.050551891 -0.08591336 0.34657833
0.038858473 -0.080094799 0.34771901
0.04379911 -0.082679354 0.34568861
0.023471532 -0.073624931 0.3446835
0.036407683 -0.075072758 0.34775427
0.042730048 -0.076845713 0.34482163
0.053608816 -0.074633546 0.34837532
0.026404785 -0.063698947 0.3461116
0.030670859 -0.065721974 0.34897146
0.015998369 -0.042067446 0.34530273
0.024129456 -0.045732398 0.34589186
0.033747315 -0.046539325 0.34666094
0.044196844 -0.046653017 0.3473956
0.011326546 -0.037420869 0.34594831
0.0089424206 -0.032492258 0.34493381
0.065167479 -0.034673214 0.34385401
0.074385971 -0.031484116 0.34680897
0.0052680033 -0.025017215 0.34528434
0.078955568 -0.024943963 0.34513125
0.0014147772 -0.016253101 0.34510496
0.082242593 -0.017079391 0.34503826
-0.0002980555 -0.011212654 0.34617686
-0.00098347664 -0.005120669 0.34480318
0.080941208 -0.0051462478 0.34493896
0.085455917 -0.0046389461 0.3454639
-0.00064397603 0.001487866 0.34393886
0.0012375328 0.0062719481 0.34503525
0.081754595 0.0044981972 0.34466559
0.01856024 0.0087831514 0.34638906
0.079350069 0.0084781051 0.34762204
0.0053653233 0.014496203 0.3445105
0.010531366 0.01968167 0.34600818
0.026519999 0.017501466 0.34466165
0.029001975 0.020835347 0.34549645
0.073302895 0.017987292 0.34427088
0.077366084 0.015302891 0.34475249
0.088331744 0.018198969 0.34531632
0.09166085 0.01408621 0.3446776
0.015182395 0.022971498 0.34473172
0.033104088 0.024122167 0.34544951
0.066777289 0.026638512 0.34476864
0.072379693 0.02293966 0.34458798
0.030506294 0.032008156 0.34704852
0.047429562 0.028368637 0.34341595
0.054400563 0.028921716 0.3445431
0.058005273 0.030507749 0.34445193
0.065536551 0.030288959 0.34474429
0.044828493 -0.085864507 0.35581511
0.051482629 -0.088083833 0.35283056
0.037936226 -0.081208155 0.35577282
0.022373814 -0.074486032 0.35645312
0.031433124 -0.072838083 0.3553403
0.045116939 -0.073493764 0.35420701
0.053823695 -0.074944161 0.3548888
0.06151098 -0.075235419 0.35503626
0.023929708 -0.064307787 0.354936
0.028183606 -0.064535566 0.35421506
0.03630545 -0.06400609 0.35271564
0.026963377 -0.057726193 0.35677263
0.026602119 -0.055138201 0.3548016
0.034603052 -0.054580491 0.35470238
0.016208269 -0.042982467 0.35567003
0.023395304 -0.048394058 0.35425615
0.034987155 -0.048935376 0.35282037
0.044703342 -0.048591077 0.35416901
0.011616319 -0.03800438 0.35543913
0.0082475692 -0.032751586 0.35478491
0.068043791 -0.032656021 0.35425588
0.07141754 -0.030962728 0.35296649
0.0038617151 -0.0248507 0.35475212
0.076013915 -0.025486998 0.35548094
0.079103082 -0.022554584 0.35330787
0.00077609823 -0.01720093 0.35385314
0.080153063 -0.016141398 0.35520771
-0.00054441887 -0.01343938 0.3565892
0.012113661 -0.010295354 0.35491201
0.081817269 -0.013638691 0.35380194
-0.00075836998 -0.0053685834 0.35522345
0.08183305 -0.0054066945 0.35494655
-0.00038841367 0.00085247803 0.35442832
0.0014890179 0.0059936158 0.35464954
0.079913646 0.0035178727 0.35413814
0.018214382 0.0094168624 0.35412252
0.048889309 0.010847671 0.35567388
0.090731286 0.012563904 0.35342595
0.0064662043 0.014436571 0.3550036
0.011516064 0.019674018 0.35649163
0.027227074 0.018068034 0.3559759
0.02949411 0.020789739 0.35346475
0.073078804 0.017031156 0.35428286
0.086978428 0.016552176 0.35518408
0.014960557 0.022028413 0.35411373
0.034380924 0.024787014 0.35570061
0.056136709 0.023664381 0.35507843
0.06569767 0.02485441 0.35526392
0.07099171 0.021638472 0.35364604
0.032114305 0.030752145 0.35681906
0.045179341 0.02803061 0.35651359
0.054965548 0.029732244 0.35597476
0.060245134 0.030338068 0.35356525
0.065785669 0.029148471 0.35529256
0.05542643 -0.090493768 0.35842735
0.061476544 -0.089694038 0.35961509
0.020796631 -0.075015903 0.36353695
0.049629092 -0.071096726 0.36104172
0.056380868 -0.073007531 0.36338151
0.044937856 -0.064677365 0.35986763
0.030684272 -0.050793093 0.36141416
0.044502933 -0.054097079 0.36080533
0.051547393 -0.049975321 0.35974431
0.020928582 -0.048567295 0.36360055
0.010587598 -0.038327489 0.36369181
0.068656653 -0.029794116 0.35968015
0.072871983 -0.022982625 0.36272493
0.00029321015 -0.019985206 0.36202791
0.079320282 -0.015938304 0.35796222
0.080285639 -0.0036264407 0.36104703
0.056891628 0.0035086588 0.36265761
0.080002338 0.0014010817 0.36002883
0.053530212 0.0076249233 0.35814616
0.072613679 0.013105545 0.36249784
0.090291232 0.010818951 0.36069396
0.054838169 0.014904262 0.3576144
0.062706381 0.01975669 0.35988414
0.065259263 0.017825894 0.36124593
0.070191048 0.020080946 0.36028245
0.02362665 0.025652995 0.35841608
0.045183972 0.028055655 0.36335242
0.055105656 0.029345635 0.36390296
0.04368598 -0.087887689 0.36414865
0.032623686 -0.076064058 0.36506975
0.065227449 -0.071244627 0.36852294
0.0702921 -0.070753604 0.36898166
0.023287322 -0.064481303 0.36537546
0.05433752 -0.065839447 0.36719522
0.071793646 -0.069737308 0.36950958
0.058098622 -0.060790941 0.37072444
0.023704264 -0.054741971 0.3650825
0.053959586 -0.055267755 0.3665036
0.014511536 -0.044770628 0.36664313
0.027046034 -0.048689198 0.36553156
0.079304993 -0.046599306 0.36689085
0.076701254 -0.040047511 0.36993465
0.0074958922 -0.033716559 0.36571753
0.019490698 -0.031455092 0.36963588
0.076127507 -0.033442214 0.36643752
-0.0011779254 -0.022296671 0.3679603
0.0023805366 -0.026189534 0.36461607
0.015901089 -0.024821615 0.36893705
0.023502804 -0.026687829 0.36925188
0.067655452 -0.023914246 0.36569461
0.076683417 -0.02477237 0.3655116
-0.0018365503 -0.014973488 0.36563164
0.0129024 -0.015391455 0.3668538
0.065206736 -0.014802757 0.36886075
0.075071372 -0.014863239 0.36579007
0.078776233 -0.014864514 0.36463469
0.017000131 -0.011920031 0.36984888
0.059401661 -0.012868268 0.36777973
-0.0013591577 -0.0049970383 0.36507675
0.012318701 -0.0062663332 0.36558646
0.057887435 -0.0043098908 0.36677238
0.065030918 -0.0052502071 0.36846322
0.073412336 -0.0046869903 0.37030569
0.077685684 -0.0049726516 0.36662149
-0.00033044815 0.001198796 0.36664954
0.0015849433 0.0058240294 0.36475131
0.015199589 0.0047693513 0.36595473
0.065259159 0.0048887166 0.36498249
0.075403258 0.0048157182 0.36500657
0.077772528 0.0048332615 0.36541259
0.0069104307 0.01398496 0.36536589
0.011504352 0.019061163 0.36486161
0.029484108 0.018435147 0.36691719
0.069580697 0.018732749 0.36747852
0.0734194 0.014040329 0.36456198
0.079943575 0.020578897 0.36711556
0.084420323 0.015589424 0.36519736
0.016215837 0.022092102 0.3640413
0.024744451 0.026087254 0.36579928
0.03291817 0.025631651 0.36570394
0.065778822 0.024601836 0.36508611
0.030703878 0.029930076 0.36716032
0.063311264 0.028942378 0.36412403
0.064151332 -0.058066256 0.371961
0.073897645 -0.049812257 0.37161201
0.045510821 -0.043183424 0.37296331
0.054950271 -0.044530418 0.37285116
0.064579166 -0.044036146 0.37284288
0.072303593 -0.042194005 0.37232342
0.083833411 -0.047724549 0.37442094
0.036244024 -0.041699443 0.37248632
0.044887524 -0.035096768 0.37414601
0.054819968 -0.038574018 0.3748813
0.064851373 -0.035046808 0.37604129
0.073023543 -0.03509653 0.37377676
0.02793072 -0.032579668 0.37242463
0.045211468 -0.034898296 0.37465441
0.055011291 -0.034933481 0.37586078
0.072910942 -0.032858916 0.37680247
0.10084369 -0.032581046 0.37539971
0.018423665 -0.024404926 0.37165457
0.026053645 -0.024050524 0.37144682
0.034978587 -0.024958434 0.37357429
0.044927713 -0.02483744 0.37292656
0.054973904 -0.025019616 0.37626669
0.064768493 -0.025063425 0.3777793
0.073575296 -0.024783697 0.37728038
0.018446805 -0.016595665 0.37224033
0.025012497 -0.015015881 0.37365085
0.03452969 -0.015487016 0.37685892
0.075537533 -0.015211863 0.37613958
0.017508691 -0.0050258134 0.37321353
0.024930052 -0.0048093055 0.37593558
0.075613499 -0.0052438965 0.37563229
0.017694462 0.0031818761 0.37255597
0.024916185 0.0049827378 0.37706685
0.075131536 0.0053784242 0.37604535
0.001385795 0.0077672219 0.37381601
0.019742817 0.010940246 0.37128413
0.025751809 0.012818445 0.37515405
0.071867809 0.012878855 0.37386402
0.08317785 0.012759837 0.37490141
0.0053654895 0.014186314 0.37620464
0.011117846 0.019196443 0.37550816
0.026762614 0.014907711 0.37796
0.033620108 0.015967077 0.37709755
0.067981653 0.017286932 0.37647989
0.077153362 0.017339244 0.376434
0.015649147 0.022324799 0.37643346
0.025983548 0.025084229 0.37453264
0.034848753 0.024912866 0.37654206
0.037196942 0.022424126 0.37469015
0.043718856 0.02676337 0.37642115
0.055280261 0.027785024 0.37557608
0.063991308 0.024803925 0.37606686
0.073317394 0.022617467 0.37771079
0.034976467 0.029069124 0.3732554
0.038886935 0.030152693 0.37684947
0.042951107 0.029726595 0.37797648
0.065035999 -0.025467636 0.37832066
0.07500115 -0.024882844 0.3781555
0.082793489 -0.024202194 0.37880191
0.065313801 -0.017118983 0.3792493
0.072899118 -0.015534632 0.3800199
0.081680343 -0.019377114 0.37950531
0.085582808 -0.017496413 0.3813886
0.10816066 -0.015153603 0.38468617
0.051656418 -0.009204343 0.37997091
0.063966781 -0.012845333 0.38066882
0.076081254 -0.012847073 0.38076693
0.1091789 -0.0085347202 0.38474223
0.024625696 -0.005152246 0.37818515
0.033811644 -0.0042204196 0.37868175
0.041024528 -0.0016659349 0.37951484
0.065078191 -0.0049177064 0.38203204
0.073743343 -0.0050395187 0.38187629
0.084665358 -0.004970897 0.38435185
0.033483334 0.0047508441 0.37926638
0.038540974 0.0039293943 0.3800301
0.044796757 0.0050362381 0.38088185
0.052924674 0.0043033864 0.3801651
0.06497284 0.0051437947 0.38241833
0.073655777 0.0043378877 0.38284898
0.084639102 0.004576013 0.38283491
0.036408588 0.010826346 0.38061056
0.070836708 0.010172479 0.38004318
0.081433825 0.010881464 0.38075182
0.087213844 0.0092280312 0.37807345
0.032048818 0.015216195 0.37948149
0.036313143 0.014993146 0.3808153
0.04494708 0.014946599 0.38196644
0.054944925 0.014958621 0.38256177
0.06110134 0.020034947 0.38159916
0.064659983 0.014576936 0.38346791
0.07383921 0.014011904 0.38270503
0.038269691 0.021418024 0.38033223
0.045087095 0.024631342 0.38062575
0.054988142 0.024084797 0.38075089
0.064499296 0.022568658 0.38169396
0.070511639 0.021028206 0.38014856
0.041285753 0.030591726 0.37860745
0.054684356 0.030325556 0.37891981
