# .PCD v0.7 - Point Cloud Data file format
VERSION 0.7
FIELDS x y z
SIZE 4 4 4
TYPE F F F
COUNT 1 1 1
WIDTH 1359
HEIGHT 1
VIEWPOINT 0 0 0 1 0 0 0
POINTS 1359
DATA ascii
-0.064860329 -0.14464276 0.48603576
-0.055206832 -0.1447195 0.4842042
-0.045283258 -0.14482984 0.48330021
-0.035699442 -0.14462142 0.48183918
-0.02921709 -0.14148769 0.4802587
-0.081526868 -0.13616 0.48900652
-0.075978406 -0.13594462 0.48874581
-0.064162277 -0.13545479 0.48888484
-0.054758076 -0.13507399 0.48787728
-0.045047026 -0.13512805 0.48552588
-0.035294503 -0.13475159 0.48355415
-0.027549963 -0.13422637 0.48140272
-0.073639981 -0.1250402 0.48900688
-0.063862257 -0.12488446 0.48896295
-0.054723125 -0.12462743 0.48839843
-0.04485397 -0.12501737 0.48621127
-0.035247121 -0.1248401 0.48430365
-0.026308607 -0.12491655 0.48168874
-0.051583696 -0.1177737 0.48900774
-0.044522993 -0.11561318 0.48804042
-0.034988217 -0.11508922 0.48643687
-0.02536987 -0.11503252 0.48292071
-0.019051647 -0.1125626 0.48038408
-0.042085405 -0.10849146 0.48893666
-0.034048054 -0.10668094 0.48843336
-0.02490663 -0.10510305 0.48520246
-0.018545881 -0.10447074 0.48159999
-0.030071918 -0.099764727 0.48900864
-0.024268422 -0.095983818 0.48789254
-0.016868237 -0.094082266 0.4832364
-0.013018992 -0.088410333 0.48575932
-0.0095162718 -0.088099211 0.48100948
0.015239805 -0.082818031 0.48012802
0.022242894 -0.081542902 0.48001072
0.0092730783 -0.070395149 0.48001021
0.01500959 -0.074879013 0.48113748
0.023370154 -0.07439062 0.4802666
0.0090280846 -0.064051069 0.4803102
0.014995289 -0.065149978 0.4829011
0.024993403 -0.064971365 0.48158896
0.033901315 -0.063456818 0.48042578
0.040557072 -0.060381617 0.48001149
0.0068691703 -0.05374768 0.4844048
0.014951432 -0.055198103 0.4862344
0.02512688 -0.055221785 0.4841671
0.035088178 -0.055009581 0.48230821
0.043648202 -0.053337153 0.48055217
-0.0020189998 -0.04729934 0.48700976
0.004703938 -0.049241543 0.48829576
0.016915374 -0.04604087 0.48851052
0.025233475 -0.045319498 0.48627645
0.035195913 -0.045087762 0.48379242
0.045117978 -0.044920489 0.48199612
0.052800722 -0.043363128 0.4803223
0.019217787 -0.039417837 0.4890106
0.026304446 -0.03682426 0.48859644
0.035416722 -0.035221178 0.48687056
0.04528496 -0.034998134 0.48379281
0.055108238 -0.034828492 0.4814651
0.06219019 -0.032578439 0.48012346
0.036302648 -0.027195837 0.48826844
0.045357075 -0.025102397 0.48649618
0.055202909 -0.024802463 0.48308888
0.064035103 -0.024155157 0.48029825
0.070587344 -0.020334799 0.48001271
0.047558296 -0.015960757 0.48887539
0.05494744 -0.014954812 0.48629379
0.065166451 -0.014697254 0.4822433
0.074432939 -0.013799091 0.48111486
0.081459999 -0.011160679 0.48017982
0.04794202 -0.0073317899 0.48901176
0.055117399 -0.0054326239 0.48834535
0.064819343 -0.0048948922 0.48593897
0.075176604 -0.0045745159 0.48352757
0.084005743 -0.0040448783 0.48094928
0.090608053 -0.00031100531 0.48001352
0.058734953 0.0035053028 0.48901224
0.06481456 0.0053381049 0.48788545
0.074648574 0.0053925645 0.48612228
0.084909298 0.0053034551 0.48363295
0.094522007 0.006311249 0.48134699
0.10145274 0.0088666966 0.48001394
0.066171005 0.011155002 0.48901251
0.076580264 0.013422432 0.48862004
0.085002616 0.015163923 0.48645392
0.095015369 0.015441583 0.48337474
0.10333107 0.015820634 0.48056412
0.079556011 0.023649607 0.48901305
0.084889114 0.024588002 0.4883863
0.094947629 0.023954432 0.48542678
0.10313648 0.022911496 0.48206165
0.083220668 0.030916555 0.4890132
-0.13605553 -0.19027574 0.49900433
-0.13194071 -0.18735816 0.49881694
-0.12528363 -0.18517479 0.49754053
-0.11567472 -0.18457025 0.49473059
-0.10572172 -0.18360937 0.49176073
-0.097893044 -0.18184221 0.4903059
-0.1316537 -0.17376368 0.49900448
-0.12528649 -0.17491703 0.4982633
-0.1150726 -0.17470884 0.49545822
-0.10495447 -0.17522387 0.49268422
-0.097710848 -0.17546669 0.49062124
-0.13150391 -0.16946059 0.49900451
-0.12443021 -0.16872829 0.49900478
-0.11401955 -0.16562982 0.49814469
-0.105074 -0.16516805 0.49397162
-0.098799817 -0.16425508 0.49018764
-0.084207989 -0.16043939 0.49000639
-0.11376695 -0.1548975 0.49856403
-0.10519674 -0.15481438 0.49548024
-0.095185593 -0.15432531 0.49170595
-0.084865883 -0.15461834 0.49130157
-0.079037741 -0.15490332 0.49000666
-0.11278266 -0.1474175 0.49887484
-0.1045388 -0.1458133 0.49806449
-0.095096834 -0.14508009 0.49545589
-0.086090557 -0.14515607 0.49180651
-0.07995066 -0.14915484 0.4900066
-0.10119482 -0.13797589 0.49900571
-0.095357947 -0.1349633 0.49689496
-0.086190842 -0.13468891 0.49177921
-0.073706612 -0.13205057 0.49000686
-0.068369597 -0.13293019 0.49000701
-0.093933925 -0.12551375 0.49733943
-0.084972546 -0.12488439 0.4930377
-0.07566385 -0.12499081 0.49019736
-0.068253718 -0.12424342 0.49000704
-0.059513506 -0.12041037 0.49000743
-0.090922154 -0.11693367 0.49878392
-0.084887803 -0.11505919 0.49681336
-0.075087339 -0.11484193 0.49397692
-0.065240204 -0.11495676 0.49182975
-0.055571105 -0.11427988 0.49043599
-0.048272591 -0.1107008 0.49000788
-0.084388331 -0.10501429 0.49753839
-0.075448863 -0.10486195 0.49739397
-0.064772688 -0.10471231 0.49606687
-0.054922856 -0.10521588 0.49304211
-0.045402262 -0.10404671 0.49084449
-0.036096621 -0.10228316 0.49067515
-0.082278766 -0.098270804 0.49846107
-0.074823134 -0.094243497 0.49900669
-0.064953059 -0.094771691 0.49804047
-0.05500878 -0.095255427 0.49540064
-0.045129985 -0.094853289 0.49332038
-0.034830648 -0.094847873 0.49166968
-0.027186062 -0.092500262 0.49000877
-0.065186396 -0.089694455 0.49820718
-0.053136799 -0.085908577 0.49780178
-0.044929028 -0.08507134 0.49529636
-0.034676876 -0.084767461 0.49299341
-0.024672229 -0.085068822 0.49329475
-0.017129889 -0.08556363 0.49455464
-0.052024826 -0.076504007 0.49706328
-0.044706106 -0.074813306 0.49522632
-0.035055228 -0.074759811 0.4939746
-0.024627514 -0.075064786 0.49377266
-0.018311443 -0.077005692 0.49600911
-0.044769984 -0.064495616 0.49506927
-0.034828074 -0.06531129 0.49530342
-0.02636278 -0.065470353 0.4924373
-0.052540414 -0.058308732 0.49736491
-0.044784799 -0.056161556 0.49690795
-0.036270808 -0.056150697 0.49663055
-0.027003692 -0.05838016 0.49300873
-0.045001671 -0.049768843 0.499008
-0.012533805 -0.040571924 0.49267599
-0.0039242157 -0.042364273 0.49270195
0.0060077938 -0.043592531 0.49164048
0.012387606 -0.043440547 0.49049038
-0.014378764 -0.034330774 0.49263966
-0.0052867192 -0.034559902 0.49557224
0.0050331978 -0.034485009 0.49449453
0.015145523 -0.034943338 0.49157956
0.02375659 -0.032842826 0.49044558
-0.015394174 -0.025512997 0.4960832
-0.0052794684 -0.025221387 0.49814168
0.0050619184 -0.024957474 0.49729583
0.015431266 -0.025412016 0.49496287
0.025392292 -0.025463615 0.49217209
0.03382425 -0.022753159 0.49068975
0.040759511 -0.02076067 0.49001148
-0.023521237 -0.019832665 0.4986755
-0.018985482 -0.019845568 0.49900904
-0.00077253778 -0.019844161 0.49900979
0.0065817675 -0.016244642 0.49861988
0.015410594 -0.015214366 0.49661988
0.024984283 -0.015131519 0.49392155
0.034507431 -0.015072514 0.49199575
0.043021526 -0.014509637 0.49051145
0.009262206 -0.0073916786 0.49901015
0.015451174 -0.0050169146 0.49796209
0.024979996 -0.004765369 0.49564248
0.034563605 -0.0048173019 0.49282381
0.044016168 -0.0043234071 0.49075219
0.052148201 -0.0012147634 0.49021196
0.016547672 0.0044111912 0.49875236
0.024569497 0.0047852267 0.49692005
0.034721199 0.0048404313 0.49504694
0.044991422 0.0054018702 0.49367833
0.054281738 0.0057584755 0.49126655
0.060557794 0.0098999273 0.49001229
0.018738974 0.010729076 0.49901056
0.025276026 0.012519595 0.49826083
0.035106208 0.014396415 0.49766704
0.045041405 0.015100874 0.49590644
0.055102695 0.015094872 0.49269059
0.064993814 0.015501172 0.49091247
0.073765703 0.016578639 0.49047709
0.037535809 0.024556773 0.49897894
0.045266144 0.024968332 0.49751148
0.055364296 0.024846543 0.49502769
0.065374739 0.024725946 0.49265307
0.075005047 0.024713561 0.49092802
0.03911854 0.031328622 0.4990114
0.046398547 0.033781059 0.49875528
0.055282436 0.034930132 0.49713922
0.065038078 0.035199914 0.49389818
0.074772894 0.034387842 0.49160105
0.080787152 0.034698147 0.49134645
0.049958862 0.040652756 0.49901184
0.055408087 0.044601966 0.49838993
0.063874952 0.044346415 0.49599072
0.072569817 0.042727273 0.49507159
0.055510681 0.053443529 0.49839452
0.062183596 0.051235031 0.4969123
-0.18375206 -0.19207273 0.50840241
-0.17511678 -0.19154076 0.50609356
-0.1650943 -0.19155215 0.50450307
-0.15499605 -0.19174744 0.50447017
-0.1454453 -0.19094367 0.50200397
-0.13893533 -0.19065723 0.50000417
-0.1817448 -0.18596417 0.50900245
-0.1755376 -0.18507214 0.50768185
-0.16489619 -0.18540213 0.50493526
-0.15495993 -0.18491167 0.5043534
-0.14493556 -0.18513453 0.50271302
-0.13603397 -0.18429162 0.50058579
-0.18124768 -0.17949502 0.50900245
-0.17506486 -0.17500006 0.5080213
-0.16501261 -0.17488405 0.50553644
-0.15498812 -0.17485489 0.50471526
-0.14500591 -0.17511538 0.50320768
-0.13644621 -0.1751478 0.50067109
-0.17248459 -0.16807644 0.50891942
-0.1645956 -0.16749988 0.508488
-0.15489714 -0.16519512 0.50763983
-0.14502443 -0.16516131 0.50495309
-0.13484679 -0.1649261 0.50232118
-0.12530029 -0.16393831 0.50091976
-0.11804183 -0.16317244 0.50020504
-0.15291181 -0.15661563 0.50896519
-0.14483821 -0.1552738 0.5079338
-0.13552949 -0.15523475 0.50631458
-0.12525874 -0.1549613 0.50262302
-0.11863238 -0.15509567 0.50006378
-0.14071658 -0.14607574 0.50900412
-0.13469981 -0.14496523 0.50586802
-0.12504804 -0.14480731 0.50238204
-0.11596151 -0.14344631 0.50084955
-0.10755769 -0.14132756 0.50022769
-0.14223886 -0.13397846 0.50750405
-0.13536854 -0.13600272 0.50313336
-0.1244159 -0.13525425 0.50309104
-0.11501806 -0.13493733 0.50370163
-0.10573239 -0.134836 0.50144774
-0.12204419 -0.12559803 0.50241226
-0.11491479 -0.12488537 0.50583053
-0.10480153 -0.12489851 0.50386763
-0.097718842 -0.1230485 0.50073916
-0.11515889 -0.11483962 0.50711608
-0.10521416 -0.11486481 0.50739145
-0.095796011 -0.11450582 0.50278139
-0.1158205 -0.10508268 0.50638968
-0.10493073 -0.10515489 0.5087747
-0.095083542 -0.10509072 0.50490606
-0.089197658 -0.10398737 0.50045067
-0.071810395 -0.10070837 0.50000691
-0.11777879 -0.098488837 0.50758833
-0.10063894 -0.098873839 0.50900573
-0.094986148 -0.096378289 0.50755435
-0.087276042 -0.098338947 0.50120628
-0.074358515 -0.096560962 0.50000674
-0.061792463 -0.084760927 0.50440729
-0.057425912 -0.084331803 0.50164384
-0.072641276 -0.0649148 0.50767344
-0.06624838 -0.063275039 0.50374788
-0.071116388 -0.058729954 0.50900692
-0.064325616 -0.056150522 0.50727987
-0.055364247 -0.054174829 0.50348669
-0.048297018 -0.051612027 0.50113285
-0.060501143 -0.049440168 0.50900733
-0.053225826 -0.048831761 0.50500768
-0.04754087 -0.049061693 0.50175786
-0.068464346 -0.033516835 0.50900698
-0.011202298 -0.021188246 0.50000936
-0.0059881709 -0.021187844 0.5000096
-0.031711366 -0.012706596 0.50834185
-0.024650699 -0.014477693 0.50458872
-0.015124588 -0.015311759 0.50266367
-0.0054256786 -0.015284893 0.50132704
0.0024003701 -0.013602257 0.5004012
-0.022858458 -0.0058103693 0.50855714
-0.015126789 -0.0048159398 0.50631976
-0.005236059 -0.0050571696 0.50405777
0.0045825755 -0.0045935749 0.5012207
0.010956133 -0.00033002894 0.50001025
-0.021192964 0.0031450579 0.50900888
-0.014613694 0.0048909229 0.50799102
-0.0047468538 0.0049464479 0.50607079
0.00511176 0.0049155834 0.50290287
0.012336396 0.0058502275 0.50037879
-0.012291606 0.010499512 0.5090093
-0.0033994659 0.013368009 0.50867629
0.0051452615 0.014847489 0.50619751
0.014798693 0.014896022 0.50282526
0.023741229 0.017386448 0.50068933
0.030942144 0.018789979 0.50001103
-0.0013606257 0.022601288 0.50900966
0.0054013594 0.024626812 0.50795346
0.015137885 0.024890156 0.50501043
0.024736352 0.025194056 0.50204194
0.03269653 0.025559373 0.5002839
0.0081621548 0.032250706 0.50888515
0.014949707 0.03487942 0.50717694
0.024831504 0.035146985 0.50399297
0.034921363 0.035157025 0.50129414
0.043172739 0.037181702 0.50018805
0.016672833 0.04307387 0.50857562
0.025130508 0.044920206 0.50651079
0.035332128 0.04498969 0.50383937
0.044971298 0.044777412 0.50145793
0.050827231 0.046173882 0.50009519
0.026361775 0.052856397 0.50816089
0.03565944 0.051752802 0.50465822
0.045944747 0.052607019 0.50218552
0.050716776 0.054428965 0.50008333
-0.22283281 -0.19335856 0.51747131
-0.2147622 -0.19305278 0.51500112
-0.20492126 -0.19336547 0.51440698
-0.19496538 -0.19293447 0.51156187
-0.18874952 -0.19198082 0.51000214
-0.22147651 -0.18653539 0.51710087
-0.21471354 -0.18554331 0.51310372
-0.20475167 -0.1849311 0.51170993
-0.19508906 -0.18470471 0.51172394
-0.18640532 -0.18476628 0.51057035
-0.20466955 -0.17405106 0.51369721
-0.19532593 -0.17529491 0.51432395
-0.18524662 -0.17463428 0.51143086
-0.1789453 -0.17120504 0.51000261
-0.21554898 -0.16871457 0.51752275
-0.20326133 -0.16629392 0.51900154
-0.19517045 -0.16492692 0.51658881
-0.18507902 -0.16514747 0.51266259
-0.17571358 -0.16391666 0.51082492
-0.16584869 -0.16251326 0.51048785
-0.15900204 -0.16123149 0.51000339
-0.20177785 -0.15642852 0.51855713
-0.19465871 -0.15627648 0.51629925
-0.18470614 -0.15618604 0.51366079
-0.17491922 -0.15471257 0.5127095
-0.16489018 -0.15497561 0.51138496
-0.15662701 -0.15384491 0.51020348
-0.14836603 -0.15059383 0.51000381
-0.17469899 -0.14474411 0.51393259
-0.16493805 -0.14485779 0.51426113
-0.15515123 -0.1452838 0.51272762
-0.14608432 -0.14500694 0.51141697
-0.18040508 -0.137426 0.51800245
-0.17619789 -0.13842268 0.51594394
-0.16383827 -0.13772127 0.51835316
-0.1550588 -0.13536875 0.51583034
-0.14708278 -0.13549444 0.51238316
-0.17659728 -0.12115969 0.5181455
-0.16045868 -0.12145491 0.51900333
-0.15498199 -0.12515257 0.51718003
-0.14841357 -0.12679516 0.51187879
-0.16464429 -0.11426719 0.51844764
-0.15543731 -0.11449882 0.5148083
-0.16447565 -0.10731049 0.51843637
-0.15493023 -0.10510904 0.51598346
-0.11213826 -0.10039856 0.51000535
-0.10715224 -0.10039818 0.51000547
-0.15147083 -0.098357022 0.51800364
-0.14532752 -0.094460256 0.51508957
-0.12241507 -0.091724172 0.51235783
-0.11458372 -0.094342992 0.51267183
-0.10512771 -0.094569966 0.51152563
-0.096718602 -0.092282474 0.51063091
-0.14194989 -0.088775493 0.51860404
-0.13435924 -0.087000713 0.51535732
-0.12581691 -0.086789943 0.51581424
-0.11422515 -0.08653482 0.51756775
-0.10490074 -0.085226841 0.51500553
-0.095862806 -0.085449733 0.51362586
-0.1113534 -0.071170107 0.51840532
-0.10427006 -0.076114714 0.51624966
-0.095191009 -0.074664347 0.51536804
-0.087080106 -0.073512591 0.51474696
-0.11243343 -0.066071875 0.51861387
-0.10485559 -0.065345868 0.51749271
-0.094930708 -0.065286905 0.51709294
-0.085023448 -0.064827211 0.51361418
-0.077486016 -0.064470693 0.51104003
-0.094514608 -0.055681564 0.51826787
-0.085282452 -0.054631401 0.51550633
-0.075396195 -0.05466982 0.5125351
-0.06725771 -0.052641917 0.51064998
-0.090104848 -0.049060445 0.51900619
-0.083546832 -0.047940031 0.51860636
-0.074857675 -0.045204163 0.51644683
-0.066075839 -0.045346767 0.51276892
-0.090106159 -0.032147117 0.51900619
-0.084391117 -0.034093875 0.51772064
-0.076221123 -0.035780158 0.51548666
-0.067566484 -0.038738854 0.51225704
-0.090106413 -0.028764449 0.51900619
-0.084603615 -0.025126217 0.51668078
-0.075899906 -0.025277631 0.51231915
-0.082295239 -0.01669181 0.51741821
-0.031371787 -0.010976555 0.51000857
-0.079130515 -0.0098017827 0.51800656
-0.042503901 -0.0016897015 0.51600808
-0.03384937 -0.0042882273 0.51296401
-0.026984377 -0.0039588301 0.51048869
-0.044957317 0.0055248067 0.51754284
-0.034985404 0.0050200964 0.51415116
-0.025448617 0.0053451932 0.51081371
-0.019406907 0.0089684064 0.51000905
-0.044187464 0.014883639 0.51839834
-0.035103008 0.015127734 0.51588327
-0.024875117 0.01504484 0.51300877
-0.015040329 0.015447577 0.51111257
-0.0063715186 0.016751928 0.51027882
-0.04139993 0.021753779 0.51900816
-0.033900149 0.024231004 0.51809186
-0.025020441 0.025218433 0.51596791
-0.014858196 0.025095703 0.51343781
-0.0053666132 0.025361625 0.5111047
0.00097882701 0.02847082 0.51000983
-0.031017415 0.032343712 0.51884186
-0.024888866 0.03454354 0.51813936
-0.014947399 0.034671981 0.51650929
-0.0047504297 0.035076149 0.5138278
0.0041962643 0.035827879 0.51100999
-0.022146404 0.043057382 0.51900887
-0.014917808 0.044868439 0.5180409
-0.0049187597 0.045228396 0.51528955
0.0052042617 0.045062728 0.51217079
0.01379062 0.046396475 0.51047194
-0.021377001 0.053507276 0.51900893
-0.014637684 0.053005036 0.51783681
-0.004573924 0.054461095 0.51671427
0.0053667924 0.054840244 0.51449275
0.015238801 0.055143427 0.5127604
0.02211812 0.054187506 0.51074761
-0.00080770336 0.060311452 0.51700974
0.0047568106 0.060319971 0.5154385
0.014703104 0.06149409 0.51401031
-0.24445672 -0.20053257 0.52949995
-0.2429006 -0.19809477 0.52923071
-0.23443604 -0.19535474 0.52592891
-0.22823179 -0.19408424 0.52171487
-0.23101452 -0.18715094 0.52875048
-0.22708979 -0.18657656 0.52345514
-0.2280656 -0.17727797 0.52200055
-0.22306865 -0.16343337 0.52145535
-0.21486746 -0.16431095 0.52179658
-0.20587249 -0.16514023 0.52068454
-0.2223665 -0.1578913 0.52185792
-0.21499999 -0.15758513 0.52243435
-0.20663479 -0.15722723 0.52080137
-0.18077871 -0.13323124 0.52220243
-0.1748285 -0.13419224 0.52269357
-0.16580708 -0.1339017 0.52129716
-0.18064585 -0.12706944 0.52260244
-0.17475881 -0.12568076 0.52294862
-0.16535918 -0.12547605 0.52164757
-0.15895995 -0.12711145 0.52000338
-0.17160812 -0.11881898 0.52057427
-0.16704503 -0.1183883 0.52038771
-0.18664446 -0.10084996 0.5280022
-0.17130478 -0.1028082 0.52089173
-0.16594705 -0.10297132 0.52054155
-0.15873604 -0.10067581 0.52000338
-0.18283017 -0.097695552 0.52693093
-0.17484935 -0.095466517 0.52579892
-0.16496767 -0.095328555 0.52418172
-0.15539198 -0.094316289 0.52202523
-0.14878288 -0.091315515 0.52075374
-0.17461999 -0.084794573 0.52791572
-0.16512725 -0.084642909 0.52607328
-0.15530609 -0.084659077 0.5252763
-0.14549135 -0.084826 0.52334428
-0.13585089 -0.082409032 0.52117819
-0.12412494 -0.082484052 0.52152324
-0.11631695 -0.082698509 0.52152687
-0.17316161 -0.078558333 0.52885991
-0.16401306 -0.078514472 0.52870315
-0.15383115 -0.076546319 0.52825356
-0.14496601 -0.075173758 0.52659309
-0.13478525 -0.074858189 0.52437931
-0.12510949 -0.075325392 0.52360457
-0.11564557 -0.075668253 0.52235413
-0.14332888 -0.065682165 0.52835011
-0.13510178 -0.064759262 0.5255962
-0.12455992 -0.064900041 0.52193213
-0.11611651 -0.063742988 0.52036864
-0.10510172 -0.060636047 0.52008247
-0.099225029 -0.061085563 0.52000582
-0.1418267 -0.055699378 0.52878982
-0.13521247 -0.055332009 0.52635854
-0.12503205 -0.054954752 0.52359647
-0.11502339 -0.054740172 0.52155626
-0.10533661 -0.054651938 0.52072001
-0.0982337 -0.052343082 0.5202558
-0.13435985 -0.046443012 0.5279187
-0.12512125 -0.044928495 0.52612966
-0.11490008 -0.044821966 0.52446282
-0.10488547 -0.045209482 0.52348703
-0.094785869 -0.0451685 0.52194339
-0.085408486 -0.0438083 0.52044755
-0.13045821 -0.03897544 0.52900451
-0.12470096 -0.0347936 0.52833825
-0.11477894 -0.034681171 0.52665806
-0.1045413 -0.034937128 0.52428865
-0.094911799 -0.035222385 0.52137119
-0.086517364 -0.039002359 0.52020627
-0.12409955 -0.025671648 0.52798045
-0.11469487 -0.025053833 0.52627033
-0.10482172 -0.024987023 0.5249238
-0.094839193 -0.024769543 0.52221423
-0.089010522 -0.021383427 0.52050614
-0.12181721 -0.019100349 0.52860487
-0.11425599 -0.017550079 0.52765894
-0.10501077 -0.015709501 0.52722299
-0.09544912 -0.015396804 0.52573508
-0.086564362 -0.014360207 0.52236116
-0.10057929 -0.0081724161 0.52900577
-0.094922408 -0.0085613895 0.52844065
-0.085177734 -0.009080844 0.52446789
-0.054285225 0.0077908346 0.52032334
-0.084051661 0.018532604 0.52829206
-0.074005261 0.017708365 0.52531928
-0.064360917 0.01557432 0.52269143
-0.055141415 0.014593136 0.52098715
-0.048890334 0.01610131 0.52000779
-0.08246658 0.023065772 0.52842754
-0.074875355 0.02488713 0.52691424
-0.065165654 0.024980623 0.52513206
-0.055339027 0.024872521 0.52282894
-0.045291211 0.025778499 0.52154636
-0.036863439 0.027952433 0.52043688
-0.072539896 0.031365003 0.5290069
-0.063902527 0.033473264 0.52828717
-0.054604903 0.035228431 0.52683109
-0.044601262 0.035224173 0.52478343
-0.035324518 0.035363935 0.52168274
-0.028828098 0.038516652 0.52000862
-0.053275399 0.044733591 0.52863628
-0.044781242 0.044980198 0.52688551
-0.034973476 0.044732399 0.52396768
-0.026045896 0.045514505 0.52074057
-0.019790938 0.047103282 0.52000898
-0.050934952 0.051134292 0.52900767
-0.04469081 0.054712497 0.52778333
-0.035044093 0.055087797 0.52504426
-0.026437068 0.05472618 0.52141899
-0.044343363 0.061603386 0.52741975
-0.036258105 0.062575065 0.52547497
-0.3010408 -0.20345709 0.53999764
-0.29459682 -0.20202577 0.53752416
-0.28430098 -0.20166934 0.53433162
-0.27456692 -0.20150949 0.5343737
-0.26545513 -0.20127073 0.5347212
-0.25581178 -0.20098643 0.53236312
-0.24930105 -0.20110095 0.53099966
-0.29419765 -0.19517694 0.53815174
-0.28451282 -0.19484621 0.53472739
-0.27511171 -0.19497231 0.53528446
-0.26523301 -0.19515675 0.53690088
-0.25510812 -0.19529548 0.53508109
-0.24535196 -0.1938422 0.53348875
-0.2922827 -0.18714005 0.53936166
-0.28487957 -0.18617171 0.53781873
-0.27498573 -0.18582121 0.53759438
-0.26607859 -0.18754406 0.53704435
-0.25670162 -0.18843983 0.53633273
-0.2022907 -0.10145236 0.53850162
-0.1939096 -0.10115891 0.53366858
-0.20124483 -0.097065665 0.53883499
-0.19485275 -0.094918288 0.53644085
-0.18552186 -0.093975484 0.53150225
-0.1927931 -0.086011782 0.53765196
-0.18494064 -0.084958605 0.53274649
-0.17906269 -0.080505155 0.53000253
-0.19088604 -0.077609114 0.53866869
-0.18438633 -0.075320631 0.5353682
-0.17519441 -0.074129403 0.53239399
-0.16518183 -0.074178934 0.53108197
-0.15670893 -0.073055491 0.53010345
-0.18201657 -0.065123841 0.53873926
-0.17491755 -0.064985156 0.53673011
-0.16502862 -0.065065861 0.53375304
-0.15464784 -0.064796701 0.53155732
-0.147578 -0.064368173 0.5301289
-0.18465489 -0.055925924 0.53856975
-0.17487074 -0.056385785 0.53797328
-0.16465813 -0.054932747 0.53640735
-0.15496589 -0.054844305 0.53427625
-0.14632714 -0.054435112 0.5306983
-0.16241322 -0.046647064 0.53795058
-0.15491092 -0.044887535 0.53561717
-0.14497033 -0.044910561 0.53228056
-0.13620533 -0.041683998 0.53056681
-0.1613417 -0.034717947 0.53900325
-0.15488604 -0.035486672 0.5365566
-0.14508516 -0.035000741 0.53379941
-0.13528143 -0.034906123 0.53133756
-0.12932345 -0.034903765 0.53000456
-0.16159198 -0.028753642 0.53900319
-0.1546848 -0.026835134 0.53755903
-0.14479892 -0.02503797 0.53547192
-0.13508785 -0.025502263 0.5319826
-0.12831862 -0.022472959 0.53012955
-0.15736879 -0.011595905 0.53831106
-0.14198564 -0.015613425 0.53871828
-0.13511908 -0.014874713 0.53591174
-0.125202 -0.014435912 0.53242129
-0.11586815 -0.012527963 0.53143364
-0.10680211 -0.010648946 0.53022766
-0.14299811 -0.0066904523 0.53900403
-0.13517596 -0.0059265881 0.53723294
-0.12513867 -0.0048962049 0.53613818
-0.11513437 -0.0059357523 0.53466219
-0.10505728 -0.0055608228 0.53112674
-0.094828598 -0.0045044185 0.53026915
-0.088564262 -0.0058840006 0.53000617
-0.11175507 0.015828338 0.53853863
-0.10516465 0.016609931 0.53611273
-0.096472733 0.017988818 0.53320581
-0.088566184 0.018987387 0.53000617
-0.11112338 0.022640901 0.53888029
-0.10468221 0.025003526 0.53732473
-0.095010184 0.024539443 0.53389233
-0.086732097 0.025420504 0.53060627
-0.10310932 0.034104757 0.53855389
-0.094781958 0.03477652 0.53679305
-0.084895201 0.034454733 0.53360218
-0.075030826 0.035425156 0.53145111
-0.065704137 0.037530772 0.53036714
-0.10061131 0.040387262 0.5390057
-0.0936433 0.042336728 0.53859699
-0.084786572 0.044372965 0.53721476
-0.074779183 0.045084473 0.53512913
-0.064604096 0.045393098 0.53174186
-0.057972524 0.046229843 0.53000742
-0.082757458 0.05333297 0.53877908
-0.075079516 0.055194154 0.53667337
-0.064824671 0.05528615 0.53355819
-0.055043153 0.055241585 0.53081191
-0.049189571 0.059060998 0.53000778
-0.07455422 0.063583925 0.53796965
-0.065434135 0.063149624 0.53559965
-0.05493423 0.062063437 0.53205514
-0.049189787 0.061824486 0.53000778
-0.3023037 -0.20171826 0.54099751
-0.30246103 -0.19447449 0.54233092
-0.29927191 -0.19360811 0.54099762
-0.30299607 -0.18445989 0.54470122
-0.29564843 -0.18386728 0.54244226
-0.28526884 -0.18141575 0.54190308
-0.2777108 -0.18119775 0.54185569
-0.30383623 -0.17492157 0.54813629
-0.29509082 -0.17504691 0.54605895
-0.28481761 -0.17503326 0.54541332
-0.30420247 -0.16525413 0.54917938
-0.29524574 -0.16476212 0.54672277
-0.28522006 -0.16532612 0.54540628
-0.27546549 -0.16481811 0.54502642
-0.30255747 -0.15566771 0.54970336
-0.29495475 -0.15490828 0.54763609
-0.28516555 -0.1551607 0.54567814
-0.27523267 -0.15457065 0.5437237
-0.29389578 -0.14813948 0.54985493
-0.28492612 -0.14501902 0.54831642
-0.27704442 -0.14694576 0.54557008
-0.28394574 -0.13739625 0.54966491
-0.27994311 -0.13778672 0.54899842
-0.21325865 -0.10125664 0.54500115
-0.20598722 -0.10083233 0.54120141
-0.21345057 -0.094640777 0.54663074
-0.20557649 -0.094545551 0.54191571
-0.19933489 -0.091176033 0.54000169
-0.21197109 -0.086775169 0.54818302
-0.20486732 -0.084849462 0.54513484
-0.19729447 -0.084343344 0.541107
-0.20250842 -0.076166302 0.54794604
-0.1956619 -0.074800812 0.54397327
-0.1890589 -0.0719411 0.54040211
-0.20115523 -0.063904665 0.5488016
-0.19487923 -0.065268293 0.54477102
-0.18673488 -0.064798996 0.54052222
-0.20152329 -0.054337136 0.54800171
-0.19470792 -0.054992318 0.54277331
-0.18566774 -0.05282779 0.54016882
-0.17570731 -0.051843531 0.54093122
-0.16977385 -0.05105105 0.54000288
-0.20104647 -0.048281103 0.54850161
-0.19428314 -0.046698213 0.5462352
-0.18519488 -0.047048811 0.54552734
-0.17525564 -0.045424778 0.54569656
-0.16699778 -0.044038758 0.54176301
-0.18160048 -0.033409692 0.54850239
-0.17505959 -0.034508504 0.54547888
-0.16607042 -0.035427436 0.54125303
-0.1822211 -0.024524523 0.54850245
-0.17499854 -0.024536669 0.54528844
-0.16527972 -0.024325816 0.54129851
-0.15541922 -0.021504801 0.5405035
-0.14795512 -0.020077448 0.54000378
-0.18170071 -0.01783113 0.54880244
-0.1746058 -0.015737334 0.54513168
-0.16581862 -0.016282152 0.54104304
-0.15431811 -0.015317996 0.54067796
-0.14649117 -0.014069129 0.54041761
-0.15034942 -0.0068441764 0.54000372
-0.14578818 -0.0057738856 0.54000384
-0.15319736 0.017259456 0.54839253
-0.1446123 0.01649718 0.54654449
-0.13513836 0.015151827 0.54460895
-0.12548196 0.015209548 0.54324961
-0.1169623 0.01523943 0.54097164
-0.1523028 0.024907168 0.5488925
-0.14508668 0.025333149 0.54775918
-0.1349594 0.025382312 0.54685855
-0.12490432 0.02503047 0.54330707
-0.11570505 0.025453426 0.54066348
-0.15114115 0.031114029 0.54900366
-0.14431782 0.034040697 0.54856646
-0.13505267 0.035318974 0.54759622
-0.12510303 0.035132207 0.54467136
-0.11517931 0.034922104 0.54141331
-0.107848 0.035929393 0.540061
-0.13424154 0.042608913 0.54858321
-0.12516162 0.045239616 0.54669517
-0.11520733 0.044732489 0.5423882
-0.10527706 0.044846501 0.5408597
-0.096290246 0.046550434 0.54045033
-0.08953616 0.048909962 0.54000616
-0.12409905 0.05509641 0.54727978
-0.11472373 0.055152554 0.54416072
-0.10523923 0.054770246 0.54313338
-0.095431603 0.054654852 0.54198498
-0.087273076 0.055447284 0.54019153
-0.12275461 0.063887835 0.54837316
-0.11472999 0.064678803 0.5470981
-0.10482787 0.065150335 0.54631156
-0.094666354 0.06504748 0.54469341
-0.085041635 0.064540915 0.54200643
-0.078441314 0.066667534 0.54033989
-0.10210735 0.070934184 0.54700565
-0.093421862 0.072183274 0.5456726
-0.086384468 0.072727978 0.54400629
-0.3082546 -0.16199285 0.55099726
-0.30658734 -0.15461855 0.55126047
-0.3043586 -0.14474578 0.55283463
-0.29590684 -0.1439704 0.55164295
-0.31084666 -0.13365573 0.55866385
-0.30532035 -0.1349366 0.55623555
-0.29500169 -0.13499862 0.55318928
-0.28660107 -0.13328426 0.55217677
-0.30397981 -0.1256284 0.55879748
-0.29486486 -0.1251663 0.55608886
-0.28628451 -0.12515129 0.55453146
-0.30143455 -0.11736151 0.55966425
-0.2949658 -0.1154573 0.55761325
-0.28548384 -0.11411239 0.55502528
-0.29297405 -0.10645912 0.55924785
-0.28494844 -0.10516116 0.55801946
-0.27921408 -0.10640991 0.55899841
-0.28542638 -0.095373116 0.559879
-0.27971679 -0.090908341 0.55999839
-0.28336683 -0.088962018 0.55999821
-0.27971691 -0.089448385 0.55999839
-0.20663828 -0.055294037 0.55231953
-0.21355754 -0.045736998 0.55756122
-0.20549396 -0.044689339 0.55359608
-0.19552003 -0.041880105 0.55105746
-0.18487206 -0.041804299 0.55017877
-0.21267092 -0.038346555 0.55700117
-0.20372842 -0.03610513 0.55359524
-0.19515356 -0.034845792 0.55284953
-0.1864216 -0.035263598 0.5510959
-0.19413057 -0.028211938 0.55292499
-0.18711054 -0.026334876 0.55129629
-0.21368292 -0.0016596385 0.55862606
-0.20736994 -0.00062527723 0.55650139
-0.21204105 0.0032005373 0.55861652
-0.20479551 0.0054312064 0.55722642
-0.19543573 0.0067333342 0.55569881
-0.18520372 0.0088850241 0.55383563
-0.17930844 0.009695502 0.55200249
-0.20198564 0.011274341 0.55900151
-0.19404322 0.013040832 0.55827969
-0.18481317 0.015241258 0.55623305
-0.17555194 0.015811143 0.55400264
-0.1650942 0.016547738 0.55181897
-0.15810697 0.018026255 0.55000341
-0.18268102 0.022282634 0.55889124
-0.17466803 0.024953566 0.55740815
-0.16456361 0.025277117 0.55377239
-0.15702049 0.025830833 0.55079502
-0.17415026 0.034042384 0.55838495
-0.16540872 0.034712918 0.55549031
-0.15513676 0.035496663 0.5520035
-0.14712797 0.037961423 0.55043238
-0.17321226 0.044467077 0.5583874
-0.16476044 0.044580884 0.55630934
-0.1549475 0.04475667 0.55433673
-0.14482135 0.045559727 0.55179459
-0.13586988 0.047261413 0.55046576
-0.12990962 0.04909594 0.55000448
-0.17176796 0.051080659 0.55866945
-0.16437913 0.053875197 0.55754369
-0.1550056 0.054765757 0.5555616
-0.14529161 0.054765359 0.55359489
-0.13527322 0.055162881 0.55195022
-0.12955168 0.055906922 0.55000448
-0.1611837 0.060827333 0.55900323
-0.15377645 0.064368129 0.55809182
-0.14506215 0.064990163 0.55630618
-0.13506937 0.064560011 0.55349374
-0.12682778 0.066038467 0.55044901
-0.15171178 0.071758181 0.55900359
-0.14539795 0.074942313 0.55827677
-0.13497271 0.071473643 0.5543614
-0.12723646 0.07071121 0.55083793
-0.14586222 0.08425948 0.55827314
-0.31238967 -0.13056234 0.56099713
-0.31212714 -0.12460223 0.5627194
-0.30772838 -0.12244326 0.56149733
-0.31314716 -0.11505305 0.56566375
-0.30573696 -0.11443314 0.5629006
-0.29922819 -0.11008545 0.56099766
-0.31388962 -0.10530649 0.56831962
-0.30511069 -0.10517954 0.56547105
-0.2970767 -0.10347365 0.5623135
-0.280718 -0.10177399 0.56242698
-0.31369117 -0.096897103 0.56982309
-0.30554354 -0.094922371 0.56772709
-0.2954846 -0.094734028 0.56322008
-0.28173587 -0.096460342 0.56218016
-0.30385032 -0.085199669 0.56914908
-0.29452047 -0.084671915 0.56592274
-0.28464687 -0.084202632 0.56361532
-0.27843091 -0.084889114 0.5656507
-0.30355477 -0.074743941 0.56962258
-0.29494268 -0.074393265 0.56846285
-0.28500691 -0.074986838 0.56748664
-0.30254656 -0.06727048 0.56999761
-0.29471931 -0.065066606 0.56943691
-0.28452575 -0.065480188 0.56831539
-0.27512139 -0.065247707 0.56797606
-0.29250422 -0.057830747 0.5697313
-0.28458014 -0.055690277 0.56878769
-0.27520394 -0.05510984 0.5672369
-0.26496422 -0.05522434 0.56663364
-0.28100058 -0.048693486 0.56999838
-0.27403346 -0.046251751 0.569309
-0.26472628 -0.044670727 0.56814796
-0.2549943 -0.044972111 0.56781757
-0.27183762 -0.037299912 0.56999874
-0.26466766 -0.034769677 0.5689773
-0.25446835 -0.034847867 0.56681526
-0.2455841 -0.034577452 0.56469542
-0.23493254 -0.036121469 0.56529438
-0.21694276 -0.038345091 0.56000096
-0.26236147 -0.027774364 0.56985629
-0.25465569 -0.025327461 0.56792051
-0.24476628 -0.025336012 0.56453639
-0.23612472 -0.024458028 0.5625174
-0.22895195 -0.021389231 0.56200051
-0.25325206 -0.015888387 0.56927949
-0.24510051 -0.015391221 0.56666642
-0.23526798 -0.015083496 0.56366682
-0.22604902 -0.014459363 0.5615561
-0.25054014 -0.0085684238 0.56999964
-0.24420226 -0.0056530996 0.56874186
-0.23501733 -0.0047002845 0.56562525
-0.22490472 -0.0048849904 0.56238693
-0.21752934 -0.0046688286 0.56000096
-0.24311078 0.0010913206 0.56999993
-0.23369445 0.0046009226 0.56811142
-0.224961 0.0052696397 0.56457961
-0.21615215 0.0064757261 0.56107002
-0.20891671 0.0098340604 0.56000125
-0.23081771 0.01221595 0.56900036
-0.22476323 0.014954858 0.56728184
-0.21483989 0.01494644 0.56367671
-0.20512228 0.015480188 0.56188715
-0.19586585 0.016769076 0.56058079
-0.22230412 0.023590147 0.56864786
-0.21471661 0.024743348 0.56622064
-0.20473656 0.024397774 0.56362361
-0.19500898 0.024720997 0.56266093
-0.18578169 0.025455618 0.56100225
-0.21372052 0.032946222 0.56830108
-0.20468679 0.034747496 0.56677639
-0.19496535 0.034780346 0.56511289
-0.18480122 0.034788877 0.56212139
-0.17825973 0.036845606 0.56000257
-0.20115155 0.041144911 0.56900156
-0.19394659 0.043987159 0.56816858
-0.18518043 0.045003206 0.56444955
-0.17820612 0.045389827 0.56068999
-0.19113924 0.051158763 0.56900191
-0.18479773 0.054973632 0.56694168
-0.17509247 0.055431385 0.56250256
-0.16727963 0.058616091 0.56050295
-0.18461832 0.065044731 0.56832677
-0.175412 0.064962253 0.56590509
-0.16486083 0.065031305 0.56250304
-0.15780455 0.067614734 0.56022555
-0.18399155 0.073070474 0.56859487
-0.17461714 0.0748621 0.56760269
-0.16515478 0.074819423 0.56478363
-0.15552856 0.075499743 0.56136709
-0.17118965 0.082386278 0.56900281
-0.16450837 0.08513999 0.5672887
-0.15538745 0.084544592 0.56242448
-0.14979415 0.082836397 0.56000364
-0.16365598 0.094135143 0.56837159
-0.15820001 0.092087463 0.56525332
-0.31622499 -0.092944361 0.57099694
-0.31470162 -0.085375234 0.57183021
-0.30860537 -0.083125882 0.57099724
-0.31493926 -0.074997559 0.57225865
-0.30858478 -0.074534342 0.57099724
-0.32093409 -0.064257868 0.57633013
-0.31496042 -0.064639315 0.57407397
-0.30588496 -0.063792676 0.57144564
-0.32147804 -0.057319771 0.57885391
-0.3147577 -0.054823559 0.57759708
-0.30488479 -0.054826953 0.574534
-0.2961328 -0.054375868 0.57195771
-0.28856438 -0.05138455 0.57099807
-0.3108806 -0.048793476 0.57999718
-0.3040182 -0.045377079 0.57834232
-0.29479074 -0.045382697 0.57515186
-0.28528795 -0.045052297 0.57251179
-0.27741703 -0.042621724 0.57114142
-0.30309257 -0.035575777 0.57851744
-0.29464477 -0.034808952 0.5757671
-0.28523314 -0.034730081 0.57379818
-0.27595863 -0.034226708 0.57177633
-0.26884168 -0.030170001 0.57099891
-0.30105349 -0.029135458 0.57999754
-0.29394898 -0.027034735 0.57888019
-0.28510323 -0.024822652 0.57725453
-0.2749052 -0.025092144 0.57459861
-0.26575872 -0.024484904 0.57199901
-0.25991058 -0.021237515 0.57099926
-0.28451669 -0.015071893 0.5789358
-0.27511391 -0.015425324 0.57633185
-0.26513141 -0.015121222 0.57361454
-0.25779113 -0.014264593 0.57124931
-0.2832737 -0.0067665116 0.57968247
-0.27486584 -0.0048815301 0.57785213
-0.26497674 -0.0049000806 0.57576084
-0.25546291 -0.0049173329 0.57316607
-0.24817753 -0.0018854135 0.57139969
-0.27461529 0.0048790365 0.57891035
-0.26504242 0.0048663253 0.5773046
-0.2550157 0.0048495019 0.57505494
-0.24482028 0.005044471 0.5719409
-0.23763663 0.0068754447 0.57033348
-0.27392599 0.014014544 0.57909548
-0.26493612 0.014645975 0.57707047
-0.25523344 0.014607414 0.57554704
-0.24540618 0.014559819 0.57361883
-0.23576041 0.01484925 0.57113194
-0.22924252 0.018429365 0.57000047
-0.27005935 0.020766133 0.57999879
-0.26401171 0.021951854 0.57933241
-0.25431007 0.024313992 0.57815087
-0.2448709 0.025229266 0.57565832
-0.23488878 0.025003081 0.57297647
-0.22656977 0.025895828 0.57075059
-0.25115904 0.032864366 0.57999963
-0.24459696 0.034978706 0.57814687
-0.23517719 0.034665596 0.57534403
-0.22504795 0.0351566 0.57232571
-0.21599892 0.037324999 0.5707401
-0.20744912 0.039730754 0.57000136
-0.24270263 0.041887477 0.57929993
-0.23442039 0.044502921 0.57647526
-0.22492313 0.044871155 0.57433408
-0.21497802 0.045368116 0.57330871
-0.20487142 0.045076415 0.57154185
-0.19711716 0.047178499 0.57020175
-0.23375621 0.054801736 0.57782173
-0.22522697 0.055122636 0.57554817
-0.21496215 0.054991577 0.57418483
-0.20492117 0.054909308 0.57331103
-0.19551586 0.055041827 0.57100177
-0.18961821 0.058307461 0.57000208
-0.23222928 0.061957169 0.57866699
-0.22439347 0.064503789 0.57713395
-0.21467833 0.064621754 0.57468534
-0.20459868 0.065266863 0.57240641
-0.19506638 0.065074205 0.57071596
-0.18961866 0.064251564 0.57000208
-0.22129384 0.070547208 0.57900083
-0.21386403 0.073121473 0.57709187
-0.20503491 0.0750627 0.57391578
-0.19513588 0.074775994 0.5709185
-0.18585432 0.077890657 0.57030231
-0.17847466 0.07985571 0.57000256
-0.20407164 0.084136665 0.57678717
-0.1946303 0.08485049 0.5750019
-0.18497451 0.085465588 0.57365096
-0.17532241 0.08551541 0.57109356
-0.16881616 0.088029608 0.57000291
-0.20120761 0.091265306 0.57875162
-0.19427195 0.094308168 0.57803309
-0.18481888 0.094939455 0.57586336
-0.17505407 0.09483736 0.57256675
-0.16818902 0.093414612 0.57011408
-0.19179814 0.10284144 0.57855749
-0.18485166 0.10465816 0.57624614
-0.17548248 0.10467461 0.57340878
-0.16752778 0.10152256 0.57066965
-0.18358661 0.11372935 0.57758123
-0.17786756 0.1127762 0.57523334
-0.32272604 -0.052134529 0.58166337
-0.31747535 -0.050392762 0.58099693
-0.32351947 -0.044320524 0.58517516
-0.31528589 -0.044869225 0.58279109
-0.30876631 -0.043575916 0.58099729
-0.32341275 -0.034801494 0.58626324
-0.31417716 -0.035259783 0.5834676
-0.30788869 -0.034044035 0.58119732
-0.32367256 -0.025028093 0.58789992
-0.31507599 -0.024617605 0.58670437
-0.30517349 -0.024672 0.58385855
-0.29591599 -0.022509223 0.58185488
-0.32239628 -0.017333545 0.5899967
-0.31457275 -0.014981436 0.58830267
-0.30455542 -0.014905159 0.58526415
-0.29445332 -0.014818315 0.58188659
-0.31282094 -0.006323704 0.5891971
-0.30483243 -0.0049528433 0.58685845
-0.29494417 -0.0051998748 0.58343375
-0.28648174 -0.0029319024 0.58161718
-0.30371141 0.0040273461 0.58921969
-0.29502913 0.0048334771 0.58625501
-0.28473037 0.0049070967 0.58216476
-0.279612 0.0048968587 0.58099842
-0.30086416 0.011893301 0.58999753
-0.29517844 0.014917226 0.58785492
-0.28495896 0.015003118 0.58313328
-0.27843478 0.01625723 0.58099848
-0.29515141 0.025091331 0.58837271
-0.28478944 0.024677321 0.58459824
-0.27492976 0.024770079 0.58262712
-0.26515007 0.02691328 0.58208233
-0.25782236 0.028600195 0.58114213
-0.29338452 0.032797854 0.5893867
-0.28467315 0.034644283 0.58832324
-0.2749823 0.034811564 0.58727777
-0.26523718 0.034798156 0.5848847
-0.25563347 0.035678435 0.58212841
-0.24932055 0.038980037 0.58099967
-0.28202391 0.04150448 0.5899983
-0.27487391 0.04477473 0.58891279
-0.26479912 0.044863813 0.58626366
-0.2547898 0.044811808 0.58386415
-0.24596445 0.045837201 0.5814997
-0.23981957 0.048742261 0.58000004
-0.27216357 0.054266203 0.58983201
-0.26495481 0.054536711 0.58799911
-0.25547537 0.054828934 0.58607441
-0.24492753 0.055217039 0.58261758
-0.2385827 0.055345211 0.58014297
-0.27301937 0.065488435 0.58999872
-0.26517314 0.064933091 0.58808732
-0.25522435 0.065429829 0.58662742
-0.24531621 0.065087624 0.58482915
-0.23573785 0.065631263 0.58181268
-0.22835965 0.068188153 0.58033377
-0.27273336 0.074639894 0.58999872
-0.26510987 0.07450816 0.58834118
-0.25538042 0.075314306 0.58772039
-0.24495445 0.075329281 0.58686101
-0.23503628 0.075246319 0.58537865
-0.22505808 0.074915953 0.58269769
-0.21685414 0.077344663 0.5809176
-0.27061892 0.081625894 0.58999872
-0.26389015 0.083118446 0.58966571
-0.25510389 0.084605865 0.58899939
-0.24509335 0.084877707 0.58817917
-0.2348254 0.084395356 0.58728218
-0.22463877 0.084830143 0.58620566
-0.21519528 0.085257694 0.58291012
-0.20869254 0.087101735 0.58033466
-0.25261027 0.090920389 0.5899995
-0.24455304 0.092182331 0.58994991
-0.23401169 0.090959549 0.58854574
-0.22467485 0.094358213 0.58809733
-0.21506846 0.094779246 0.58523637
-0.20502318 0.095355354 0.58140141
-0.19818172 0.097913109 0.58014458
-0.22137816 0.10262606 0.58875072
-0.21443585 0.1049927 0.58730668
-0.2050225 0.10531971 0.58470404
-0.19610809 0.10526965 0.58117574
-0.18992509 0.10998604 0.58000207
-0.21258245 0.11514667 0.58886778
-0.20549101 0.11528762 0.58775145
-0.19499676 0.11496484 0.58372408
-0.18707599 0.11695841 0.58054066
-0.2136035 0.12167239 0.58900112
-0.20450923 0.12457949 0.58833474
-0.19540493 0.12505786 0.58630949
-0.18663445 0.1232043 0.58276689
-0.20140503 0.13231005 0.58850163
-0.19651964 0.13254535 0.58750176
-0.32561308 -0.013909695 0.59164655
-0.33061486 -0.0027498878 0.59649634
-0.32517588 -0.0051018558 0.59405208
-0.31714812 -0.0036596265 0.59168106
-0.33126217 0.0050359587 0.59766299
-0.32520053 0.0051377253 0.59633946
-0.315097 0.0050051007 0.59362197
-0.3076255 0.0063972617 0.59141392
-0.3313463 0.012529195 0.59942484
-0.32457715 0.014540973 0.59917849
-0.31522807 0.015009422 0.59655261
-0.30560297 0.015328394 0.59265363
-0.32253334 0.025150716 0.59963948
-0.31531712 0.025261072 0.59696364
-0.3054924 0.025094481 0.59299743
-0.32125801 0.032941777 0.59983003
-0.31487796 0.034544341 0.59827286
-0.30489242 0.034782998 0.59418488
-0.2961632 0.036887828 0.59163398
-0.28827971 0.039648429 0.59099805
-0.31200099 0.04111556 0.59956849
-0.30456772 0.044990566 0.59841114
-0.29476637 0.045292221 0.59423119
-0.28556013 0.04534065 0.59153152
-0.27980614 0.048893727 0.59099841
-0.30222437 0.05389538 0.59990662
-0.29546231 0.055060338 0.59803003
-0.28493109 0.054864902 0.59399825
-0.27675596 0.05586265 0.59136206
-0.30190092 0.06183812 0.59999752
-0.2956298 0.064850204 0.59851205
-0.28550434 0.064756989 0.59402579
-0.27758431 0.064513847 0.59118605
-0.29382539 0.075083576 0.59873468
-0.2847136 0.074974895 0.59381634
-0.2775071 0.075646602 0.59111619
-0.29222494 0.083656207 0.59939796
-0.28503305 0.084836945 0.5963316
-0.27518672 0.085464835 0.59276515
-0.26628348 0.087285697 0.59135193
-0.25977916 0.08895541 0.59099919
-0.28370002 0.092422761 0.59921253
-0.27495489 0.095061317 0.59706515
-0.26495153 0.09492401 0.59344023
-0.25540856 0.095131524 0.59169936
-0.24520527 0.097580805 0.5912379
-0.23535211 0.096485659 0.59045732
-0.22755156 0.098549061 0.59000045
-0.27331033 0.10321996 0.59926528
-0.26478365 0.10477978 0.59799904
-0.25478676 0.104398 0.59568512
-0.24480319 0.10549916 0.59327757
-0.23456863 0.1050608 0.59116238
-0.22565262 0.10560799 0.59025061
-0.21934877 0.10880414 0.59000087
-0.26113018 0.11116692 0.59999913
-0.25519091 0.11495291 0.5987494
-0.24506302 0.11500559 0.59479976
-0.23467746 0.11490037 0.59221077
-0.22514284 0.11516587 0.59107196
-0.21736246 0.11527742 0.59000105
-0.25358045 0.12464095 0.59930718
-0.24496619 0.12491205 0.59654826
-0.23524132 0.12526172 0.59400016
-0.22490899 0.12533967 0.59180617
-0.21530896 0.12594968 0.59055275
-0.20819853 0.12764756 0.59000134
-0.25219801 0.13198774 0.59983283
-0.2447172 0.1340338 0.59851587
-0.23495342 0.13521121 0.59728134
-0.22451919 0.13530488 0.59591246
-0.21493712 0.13480477 0.59363741
-0.20608619 0.13489969 0.59100127
-0.24105808 0.14036757 0.5999999
-0.23206729 0.14013427 0.59900028
-0.2239791 0.14448115 0.59855622
-0.21519099 0.14459857 0.59593427
-0.20784557 0.14133444 0.59337634
-0.22278993 0.15239817 0.59877849
-0.21856749 0.15125008 0.59766757
-0.33222264 0.018015701 0.60187137
-0.32842204 0.018397084 0.6014964
-0.33296415 0.025246128 0.60341722
-0.32741481 0.025656847 0.60168397
-0.3333813 0.03541277 0.60513908
-0.32572362 0.035324343 0.60239661
-0.31954175 0.038815103 0.60199684
-0.33390662 0.044655126 0.60670453
-0.32466853 0.044887085 0.60434794
-0.31527427 0.046091795 0.60244864
-0.30873683 0.04818007 0.60133052
-0.33395913 0.055182867 0.60766292
-0.3251065 0.054811515 0.60532081
-0.31437123 0.055350855 0.6026082
-0.30636317 0.055943251 0.60141838
-0.33379635 0.062256198 0.60955179
-0.32489213 0.065315552 0.60759044
-0.31461009 0.064892225 0.60430002
-0.30583361 0.06511087 0.60203904
-0.32251379 0.074427076 0.60934973
-0.31490937 0.074625969 0.60762203
-0.30494153 0.074599855 0.6043523
-0.29836753 0.077024803 0.6016227
-0.32061112 0.081474453 0.60999674
-0.31441194 0.084523283 0.60866368
-0.30513549 0.084994107 0.60573268
-0.29680717 0.085607745 0.60238665
-0.31230605 0.093053117 0.60930467
-0.30483466 0.095684178 0.6079368
-0.29492629 0.094962709 0.60486871
-0.28642446 0.096451156 0.60253149
-0.2798444 0.099860594 0.60099834
-0.30341765 0.1033968 0.60953069
-0.2951647 0.10512191 0.60811204
-0.28469968 0.10471945 0.6044358
-0.27631876 0.1074945 0.60206091
-0.26809382 0.10926257 0.60099888
-0.29554853 0.11471028 0.60913646
-0.28492427 0.11518244 0.6067549
-0.27476487 0.11556718 0.60424858
-0.26546514 0.11505942 0.60196674
-0.29433808 0.12264442 0.60909772
-0.28530392 0.12518178 0.60855365
-0.27522257 0.12517393 0.60685146
-0.26530969 0.12468103 0.60356563
-0.25877893 0.12569009 0.60149926
-0.273673 0.13414778 0.6090486
-0.26491156 0.13451628 0.60590219
-0.25559402 0.13633685 0.60291934
-0.2481261 0.13858902 0.60133302
-0.27131611 0.14111486 0.6099987
-0.26437375 0.14410242 0.60892493
-0.25476032 0.14560482 0.60616595
-0.24521956 0.14502031 0.6029675
-0.23536043 0.14484884 0.60087889
-0.22818919 0.14733654 0.60000044
-0.26275775 0.15408942 0.60964197
-0.2554808 0.1552401 0.60782003
-0.24527475 0.15484373 0.60459983
-0.23565252 0.15500468 0.60216701
-0.22769544 0.15521476 0.60027826
-0.27109587 0.16880612 0.60949874
-0.26415187 0.16597478 0.60826564
-0.25513986 0.16503263 0.60626245
-0.24532422 0.1632662 0.60421711
-0.23594896 0.16392961 0.60169244
-0.22873686 0.16083753 0.60050046
-0.34032071 0.067600787 0.61399591
-0.33537427 0.066555277 0.61173296
-0.3413507 0.075031511 0.61585301
-0.33558747 0.075237013 0.61383998
-0.32751045 0.076264441 0.6113494
-0.34163874 0.085273929 0.61766249
-0.33516553 0.085362412 0.61599612
-0.3251982 0.085192777 0.61221081
-0.31901342 0.088245355 0.61099672
-0.34203193 0.090621509 0.61999583
-0.33408582 0.094973736 0.61849618
-0.32472175 0.095041513 0.61454839
-0.3162424 0.095718063 0.61141795
-0.33353087 0.10580725 0.61947453
-0.32487193 0.10485692 0.6165632
-0.31489837 0.10501517 0.61279696
-0.30694705 0.10667308 0.61110836
-0.33247069 0.11208422 0.61987126
-0.32469213 0.11435885 0.61845803
-0.31508493 0.11476822 0.61460412
-0.30551222 0.11517445 0.61159742
-0.32183966 0.12177519 0.61949664
-0.3150056 0.1243796 0.61770523
-0.30492985 0.12516104 0.61363065
-0.29626495 0.12722896 0.61136132
-0.31169525 0.13096316 0.61966372
-0.30429778 0.13430949 0.61819732
-0.29488775 0.13504729 0.61493099
-0.28502488 0.13514453 0.61222398
-0.27714628 0.13753416 0.61116511
-0.30054882 0.14181006 0.6199975
-0.29427567 0.14549604 0.61789435
-0.28412959 0.14464955 0.61340445
-0.2746568 0.14574327 0.61142278
-0.26793846 0.14803672 0.61099887
-0.29402816 0.15496525 0.61865163
-0.28466386 0.15468122 0.61465335
-0.27466452 0.15517609 0.61213756
-0.26718244 0.15528457 0.61099887
-0.29306588 0.16467513 0.61966449
-0.28561383 0.16492458 0.61693358
-0.27512369 0.16452032 0.61245298
-0.26733783 0.16223143 0.61099887
-0.29220781 0.17416039 0.61944228
-0.28502715 0.1746048 0.61577237
-0.27756631 0.17374365 0.61149853
-0.29193109 0.18060382 0.61999786
-0.34348872 0.095538743 0.62242442
-0.33891723 0.09773849 0.62139595
-0.34355322 0.10487294 0.62289584
-0.3389568 0.10485916 0.62135959
-0.34360242 0.11494618 0.62332904
-0.3357147 0.11632501 0.62234217
-0.32827905 0.11865754 0.62149644
-0.34416202 0.12452988 0.62703276
-0.33516979 0.12515171 0.62560332
-0.32543173 0.1260245 0.62295115
-0.3183018 0.12908559 0.62099683
-0.34410644 0.13512863 0.62903285
-0.33496702 0.13422324 0.62711746
-0.32531554 0.13516903 0.62589318
-0.3156113 0.1356378 0.62325621
-0.30769044 0.13833106 0.62179726
-0.34344834 0.14172776 0.62969583
-0.33420089 0.14354531 0.62907952
-0.32522205 0.14456968 0.62789971
-0.31493151 0.14544667 0.62602633
-0.30511361 0.14535345 0.62292057
-0.32378042 0.15415035 0.6290707
-0.31467825 0.15550403 0.62689352
-0.30517259 0.15490976 0.62393063
-0.29887611 0.15660985 0.62099761
-0.32246763 0.163413 0.62933004
-0.31496102 0.16509023 0.62734175
-0.30530235 0.16474159 0.62419742
-0.29786986 0.16551214 0.62159765
-0.32127589 0.17037544 0.62999672
-0.3143169 0.17390615 0.62890172
-0.3046793 0.17486003 0.62593287
-0.29645085 0.17568699 0.62221199
-0.31142199 0.1802309 0.62999707
-0.30540004 0.18318747 0.62799734
