# .PCD v0.7 - Point Cloud Data file format
VERSION 0.7
FIELDS x y z
SIZE 4 4 4
TYPE F F F
COUNT 1 1 1
WIDTH 1
HEIGHT 920
VIEWPOINT 0 0 0 1 0 0 0
POINTS 920
DATA ascii
-0.23722206 -0.12292669 0.47912109
-0.25186431 -0.11375994 0.47986725
-0.24341884 -0.11523254 0.47963059
-0.23624273 -0.11512782 0.47880185
-0.22984464 -0.1179584 0.47936299
-0.24010429 -0.10991961 0.47970477
-0.238591 -0.10916519 0.47988942
-0.21170694 -0.092165917 0.47912005
-0.20870778 -0.091002502 0.47761989
-0.21187024 -0.086124286 0.47962877
-0.20761098 -0.085891433 0.47876367
-0.20333803 -0.077951267 0.47972843
-0.1959442 -0.071877532 0.47816271
-0.19321613 -0.065615728 0.47831705
-0.18862845 -0.062587596 0.47755563
-0.19178399 -0.059070449 0.47935516
-0.1851722 -0.056045074 0.47947535
-0.18167603 -0.047165513 0.47936192
-0.17520477 -0.043484807 0.47890353
-0.16680625 -0.0419663 0.47884172
-0.15477753 -0.04177231 0.47959337
-0.14920801 -0.041787326 0.47814372
-0.173739 -0.038768373 0.47963852
-0.16600777 -0.039183799 0.47965801
-0.15142542 -0.034455732 0.47897747
-0.14800788 -0.034435902 0.47678253
-0.15301551 -0.024211496 0.47801018
-0.14631185 -0.024375318 0.47434372
-0.15225479 -0.018018646 0.47863004
-0.14539152 -0.015697181 0.47636753
-0.14512709 -0.0093947351 0.47981107
-0.23842259 -0.13064186 0.48116237
-0.24354559 -0.12354517 0.48078427
-0.23844317 -0.12673411 0.48060337
-0.22392963 -0.12065058 0.48181835
-0.26184461 -0.11130628 0.48241401
-0.25482205 -0.1139848 0.48061839
-0.24620096 -0.11435732 0.48027706
-0.23184538 -0.11221147 0.48078147
-0.22492346 -0.11452315 0.48195562
-0.21931057 -0.11130621 0.48076597
-0.27087957 -0.1057404 0.48858756
-0.26480266 -0.10481469 0.48623407
-0.25501338 -0.10489734 0.48329982
-0.24514641 -0.10502688 0.48174909
-0.23514822 -0.10494345 0.48138106
-0.22486122 -0.10504764 0.48296708
-0.21741217 -0.10435309 0.48247492
-0.26257947 -0.098636135 0.48898131
-0.25456747 -0.095610216 0.48754409
-0.24509154 -0.094845779 0.48393363
-0.23517902 -0.094780467 0.48216727
-0.2249984 -0.094978839 0.48339218
-0.21631697 -0.095467791 0.48193544
-0.25142321 -0.088139586 0.48909801
-0.24455473 -0.085506245 0.48727638
-0.23528107 -0.084918216 0.48442358
-0.2249373 -0.084698491 0.48213792
-0.21623141 -0.084377714 0.48065084
-0.20861423 -0.082159609 0.48025119
-0.24203016 -0.078276612 0.48906332
-0.23447739 -0.075404391 0.48703393
-0.22499447 -0.074798904 0.4849852
-0.21517769 -0.074902542 0.48283595
-0.20518261 -0.074167311 0.48165679
-0.19964276 -0.071426064 0.48036408
-0.2305501 -0.069720685 0.48936757
-0.22334579 -0.066428013 0.48878387
-0.21507038 -0.06515228 0.48629692
-0.20489413 -0.064992018 0.48372608
-0.19786814 -0.064237215 0.48115125
-0.22043249 -0.058482721 0.48979264
-0.21437278 -0.055411607 0.48782945
-0.20506327 -0.054933194 0.48481393
-0.19523463 -0.05468544 0.48232949
-0.18732059 -0.053928897 0.48125628
-0.21175413 -0.049024362 0.4892281
-0.20443429 -0.046676178 0.48746336
-0.19487122 -0.045040336 0.48619282
-0.18577994 -0.044303894 0.48261499
-0.17864898 -0.041757099 0.48062086
-0.16082737 -0.041057765 0.4803583
-0.15543345 -0.041165963 0.48039079
-0.19187534 -0.038315535 0.48869693
-0.18476938 -0.035150643 0.48584154
-0.17521805 -0.03482499 0.48230895
-0.16489178 -0.034371961 0.48171121
-0.15629219 -0.035127223 0.48095796
-0.18298815 -0.028263124 0.48843539
-0.17492363 -0.025134752 0.48656008
-0.16495283 -0.0246963 0.48343697
-0.15791065 -0.02512642 0.4809452
-0.17212188 -0.017055718 0.48869827
-0.16475724 -0.015178215 0.48707777
-0.15558887 -0.014590235 0.48316544
-0.14873624 -0.011203879 0.48056525
-0.16332138 -0.0057770251 0.48863456
-0.15524727 -0.0049461615 0.48508963
-0.1485417 -0.0074842582 0.481453
-0.15523033 0.0013311926 0.48859149
-0.27448004 -0.10290789 0.49452379
-0.26935786 -0.10097808 0.49147868
-0.27254331 -0.097093262 0.49682644
-0.26545691 -0.094358757 0.49384975
-0.25776479 -0.091786876 0.49146411
-0.26258373 -0.087984785 0.49801484
-0.25511661 -0.084915787 0.49452174
-0.24880807 -0.082127333 0.4910644
-0.2520192 -0.078160889 0.49747139
-0.24535933 -0.074631065 0.49425086
-0.23776431 -0.071568884 0.49104246
-0.24185945 -0.06891913 0.49756339
-0.23422822 -0.066282414 0.49541432
-0.22695626 -0.063545696 0.49218401
-0.23059776 -0.058528859 0.49935663
-0.22481321 -0.055181652 0.49506578
-0.21813613 -0.052056618 0.49097851
-0.22271809 -0.047955699 0.49759695
-0.21467511 -0.045723807 0.49533349
-0.20629866 -0.042407993 0.49316067
-0.19825445 -0.040696848 0.49069095
-0.21101415 -0.039305862 0.49945164
-0.20404881 -0.038194031 0.4969418
-0.19551405 -0.034592479 0.4939478
-0.18919259 -0.031780425 0.4905194
-0.19350904 -0.02690479 0.49694946
-0.18536372 -0.024107592 0.49380472
-0.17922989 -0.021328602 0.49076051
-0.18136646 -0.018708544 0.4971621
-0.17629686 -0.014526054 0.49378902
-0.16954972 -0.010659032 0.49003276
-0.18084638 -0.0030940089 0.49963325
-0.17494899 -0.0048217168 0.49518624
-0.16677877 -0.0031784214 0.49154788
-0.17413957 0.0017711036 0.49842334
-0.16491334 0.0022715465 0.49604625
-0.15794134 0.0028559961 0.49340639
-0.28386641 -0.10195047 0.50543952
-0.2788631 -0.10119469 0.50140363
-0.28333646 -0.09711612 0.50791639
-0.2759935 -0.094020911 0.50402158
-0.26907244 -0.090846308 0.50090241
-0.27285782 -0.088015601 0.50711411
-0.26504847 -0.084850535 0.50462323
-0.25859517 -0.081296295 0.50341833
-0.25371033 -0.075904272 0.50528049
-0.24828996 -0.071305461 0.50349963
-0.25052178 -0.069929942 0.50945485
-0.24399289 -0.066692844 0.50593764
-0.23687114 -0.062780499 0.50379449
-0.23366733 -0.055490229 0.50549978
-0.22870979 -0.051927298 0.50092113
-0.23201019 -0.047115069 0.50715005
-0.22556426 -0.044087905 0.50406736
-0.21722883 -0.041973297 0.50184137
-0.22148639 -0.038750917 0.50774133
-0.21472605 -0.036816876 0.50541842
-0.20457233 -0.034194537 0.50435752
-0.19938977 -0.030886913 0.50083381
-0.20162882 -0.026036322 0.50714964
-0.19619451 -0.023237735 0.50309116
-0.18764989 -0.020933101 0.50206399
-0.19355346 -0.01856729 0.50810635
-0.18485034 -0.015304863 0.50506306
-0.17965503 -0.013010035 0.50037009
-0.18375888 -0.005917911 0.50334024
-0.17945009 -0.0087262392 0.50013316
-0.1811381 0.0012260444 0.50217777
-0.17531469 0.0048931479 0.50343913
-0.16563967 0.0054198722 0.50420535
-0.15709992 0.0038395301 0.5047546
-0.29104561 -0.10058093 0.511572
-0.29174969 -0.09765251 0.51373345
-0.28603703 -0.093663603 0.51171088
-0.2789596 -0.090576142 0.51041424
-0.28273639 -0.088957869 0.51383549
-0.27478606 -0.08601135 0.51411587
-0.26571295 -0.081746854 0.51372093
-0.26175186 -0.079171166 0.51670885
-0.25604355 -0.074907161 0.51409435
-0.25165445 -0.067969665 0.51421976
-0.24612902 -0.063587345 0.5136444
-0.23997776 -0.061053008 0.51001573
-0.24135087 -0.058654133 0.51456201
-0.23740064 -0.054684218 0.5132286
-0.23261881 -0.046569452 0.51234215
-0.2260109 -0.041132901 0.51243144
-0.22151084 -0.038474508 0.51213837
-0.21434571 -0.034074005 0.51327944
-0.20736477 -0.031730637 0.51306421
-0.20381454 -0.026103349 0.51390457
-0.19916853 -0.020847965 0.5134899
-0.19376461 -0.016562525 0.51322073
-0.18863958 -0.012521579 0.51316124
-0.18554319 -0.0080531286 0.51159912
-0.17109124 0.0056989864 0.51359308
-0.16462429 0.0056824568 0.51464313
-0.15870212 0.0041335151 0.51275373
-0.29076844 -0.10187626 0.52669001
-0.28887868 -0.096723944 0.52254319
-0.27521399 -0.087151587 0.52172226
-0.26705727 -0.08291135 0.52272314
-0.25988859 -0.080000937 0.52594113
-0.26112837 -0.078734025 0.52105826
-0.25612432 -0.075346336 0.52318573
-0.24531323 -0.064573936 0.52468276
-0.23732483 -0.057153739 0.52337968
-0.22949578 -0.050006226 0.5246833
-0.21844804 -0.042581677 0.52686232
-0.2122333 -0.035531115 0.52236015
-0.20748842 -0.032579586 0.5234583
-0.20257454 -0.026454756 0.52118915
-0.1965355 -0.021425337 0.52021861
-0.1908088 -0.015828878 0.52003241
-0.18531205 -0.013902813 0.52474946
-0.14680171 -0.0014227728 0.52633721
-0.1627903 0.003459774 0.52459276
-0.15498608 0.0026006564 0.52486837
-0.27566159 -0.09480986 0.53544474
-0.24374677 -0.06812796 0.53455919
-0.23587038 -0.062122971 0.5346694
-0.23240878 -0.057857193 0.53302443
-0.226697 -0.054389663 0.53603625
-0.21586876 -0.044635203 0.53431696
-0.20866604 -0.041250333 0.53975546
-0.20471303 -0.035775986 0.53471524
-0.19591288 -0.030154735 0.53858823
-0.19357105 -0.02634274 0.53451532
-0.18804772 -0.023993105 0.53855813
-0.18077353 -0.014860451 0.53265053
-0.1778793 -0.014762849 0.53583157
-0.16392297 -0.0023088157 0.53927559
-0.14473912 -0.0010205706 0.53575909
-0.16034792 0.0029323101 0.53054279
-0.1553233 0.0020791374 0.53588545
-0.14722478 0.00052960217 0.53624272
-0.26390404 -0.094024539 0.54880619
-0.25337565 -0.084955364 0.54661953
-0.24911922 -0.080506727 0.54669106
-0.24521801 -0.076411165 0.54782689
-0.23906673 -0.07119894 0.5482952
-0.23523465 -0.06784004 0.54722589
-0.22804224 -0.063021168 0.54954076
-0.22480464 -0.058423929 0.5456214
-0.2176529 -0.052534804 0.54470336
-0.21354789 -0.048282005 0.5440892
-0.20610429 -0.043240868 0.54784745
-0.20492154 -0.039396197 0.54184222
-0.19431323 -0.033294998 0.54714423
-0.19208589 -0.028218001 0.54065567
-0.18694015 -0.027195642 0.54647261
-0.17894453 -0.02091448 0.5482232
-0.17516124 -0.017751526 0.5461055
-0.16760714 -0.012823517 0.54743999
-0.16237617 -0.005737789 0.54685396
-0.15741724 -0.0013771147 0.54813755
-0.14247544 -0.00097316998 0.5433256
-0.1519538 0.0012387399 0.54595762
-0.14707558 0.0010366719 0.54525781
-0.27147174 -0.10286718 0.55619711
-0.26919067 -0.10232937 0.55868059
-0.26279676 -0.096535303 0.55605495
-0.25753844 -0.093338937 0.55665207
-0.25242761 -0.086332485 0.55666274
-0.24832003 -0.081573389 0.55583489
-0.24395448 -0.07751292 0.55684519
-0.23692881 -0.072556674 0.55646479
-0.2319303 -0.06800466 0.55623633
-0.22585605 -0.063578874 0.55658633
-0.22247139 -0.058873117 0.55014992
-0.20537961 -0.044309326 0.55639887
-0.25275564 -0.14192596 0.47850266
-0.24868274 -0.14429161 0.47976461
-0.27088174 -0.13094829 0.47889483
-0.26413211 -0.13275613 0.47593838
-0.25516284 -0.13453302 0.4764981
-0.24921244 -0.1343064 0.47925261
-0.27136213 -0.1281434 0.47920808
-0.26463532 -0.12554626 0.47830388
-0.25500005 -0.125063 0.47752455
-0.24629515 -0.12405392 0.47845134
-0.23123729 -0.12406197 0.47994962
-0.22635323 -0.12266639 0.47944838
-0.26223093 -0.11547292 0.47955826
-0.25512606 -0.11485908 0.47784615
-0.24517013 -0.11486353 0.47758007
-0.23548476 -0.11370453 0.47917441
-0.22653712 -0.11433528 0.47965884
-0.26197907 -0.10812882 0.47985801
-0.25460607 -0.10728288 0.4789876
-0.24503379 -0.10516451 0.47829387
-0.23526604 -0.10485596 0.47805732
-0.22531278 -0.10471109 0.47769895
-0.21634495 -0.10156277 0.47873741
-0.20761231 -0.10100485 0.47926411
-0.24278989 -0.098990731 0.47983569
-0.23360913 -0.097873501 0.47918841
-0.224971 -0.095082201 0.47789219
-0.21510655 -0.094828181 0.47783673
-0.20830566 -0.097564459 0.47897184
-0.22343215 -0.087618373 0.47911885
-0.21700029 -0.087861083 0.47916198
-0.20047194 -0.081748351 0.479882
-0.1999763 -0.080709651 0.47992912
-0.20064703 -0.074414119 0.47987291
-0.196375 -0.072397538 0.47971097
-0.19384353 -0.065013766 0.47958624
-0.18840885 -0.061714351 0.47967717
-0.19251919 -0.055803061 0.47969088
-0.18556936 -0.054145318 0.47950587
-0.17761494 -0.051546 0.47949848
-0.16384362 -0.050034136 0.47973028
-0.19134887 -0.044881269 0.47968069
-0.18519181 -0.044971701 0.47925222
-0.17511833 -0.044901531 0.47910535
-0.16493405 -0.04441138 0.4781543
-0.15769704 -0.044093754 0.47812861
-0.19198287 -0.038203914 0.47976318
-0.18809588 -0.038315181 0.47973415
-0.17220964 -0.038370769 0.47940838
-0.16436823 -0.03557121 0.47880125
-0.15799369 -0.035241555 0.47946525
-0.16237231 -0.025208309 0.47929791
-0.15543939 -0.024634343 0.47900295
-0.14796819 -0.022489151 0.47943985
-0.16091141 -0.018864634 0.47965074
-0.15487231 -0.018178627 0.47921333
-0.14774412 -0.018526981 0.4796392
-0.2503958 -0.14539015 0.48009852
-0.24502727 -0.14339596 0.48388904
-0.23750485 -0.14186156 0.48929751
-0.27436045 -0.13073988 0.48130703
-0.2446669 -0.13526326 0.48334101
-0.23526986 -0.13463484 0.4845579
-0.22864981 -0.13231131 0.483174
-0.29093757 -0.12169484 0.48935243
-0.28414848 -0.12290021 0.48616314
-0.27517617 -0.12443241 0.48192099
-0.26730809 -0.1214236 0.48035342
-0.24224445 -0.12663987 0.48074758
-0.23508176 -0.12496301 0.48087037
-0.22819455 -0.12537371 0.48033258
-0.28403565 -0.11554641 0.48724285
-0.27492589 -0.11489525 0.48191985
-0.26650503 -0.11472017 0.48058414
-0.24019311 -0.11843464 0.4800407
-0.23363067 -0.11765781 0.48035017
-0.22442274 -0.11542035 0.48073772
-0.2153897 -0.11433149 0.48603755
-0.20724788 -0.11245419 0.48855233
-0.28342235 -0.10473384 0.48733386
-0.27487254 -0.10474046 0.48469886
-0.26514938 -0.10465818 0.48250037
-0.25563484 -0.10248224 0.48156539
-0.24798994 -0.10077053 0.48073152
-0.22023098 -0.1077708 0.48000178
-0.214757 -0.10630494 0.48249575
-0.20460792 -0.10483859 0.48320451
-0.19723029 -0.10228518 0.48502052
-0.28344032 -0.099807665 0.48969212
-0.27187133 -0.098508984 0.4888016
-0.26432467 -0.096168377 0.48759937
-0.25492373 -0.094979793 0.48505846
-0.24515077 -0.09486001 0.48251957
-0.23579864 -0.093801886 0.48153245
-0.22960538 -0.090862416 0.48051634
-0.21109374 -0.091119185 0.48037255
-0.20445275 -0.094605915 0.48286486
-0.1954596 -0.09473294 0.48443106
-0.18963166 -0.090287566 0.48323685
-0.25376409 -0.086436845 0.48776716
-0.24515203 -0.085021883 0.48548934
-0.23514909 -0.084770314 0.48285675
-0.22579557 -0.083629884 0.48116615
-0.21436681 -0.084063753 0.48065913
-0.20529123 -0.084898077 0.48139858
-0.19484153 -0.084892906 0.48225817
-0.18556678 -0.08418905 0.48511392
-0.17852437 -0.082781248 0.48938388
-0.25014731 -0.079743207 0.48989853
-0.24400376 -0.076203391 0.48803961
-0.23510066 -0.074926332 0.48625171
-0.22501177 -0.075113289 0.48376587
-0.21500762 -0.074891903 0.48117518
-0.20553756 -0.074834265 0.48090512
-0.1949753 -0.075654298 0.48119974
-0.18508767 -0.075166278 0.48526818
-0.1752726 -0.074533798 0.48684868
-0.16958955 -0.071719252 0.48956114
-0.23320416 -0.068308517 0.48911601
-0.22422697 -0.065609172 0.48724493
-0.21494973 -0.0650585 0.48532578
-0.20501311 -0.06495785 0.48280138
-0.19678172 -0.064572193 0.48052961
-0.18463959 -0.065347955 0.481776
-0.175145 -0.065004475 0.48368418
-0.16900308 -0.064100005 0.48791149
-0.22148056 -0.059115995 0.48974955
-0.21387829 -0.055692047 0.48835301
-0.20494573 -0.054970227 0.48365352
-0.19614987 -0.054559924 0.48051041
-0.18340111 -0.056808472 0.48041415
-0.17443979 -0.05571875 0.48123917
-0.16577332 -0.053981155 0.48320785
-0.15996227 -0.051044084 0.48148477
-0.21206318 -0.045360338 0.48842889
-0.20483449 -0.045069762 0.48342496
-0.19574073 -0.044987421 0.48077115
-0.18326417 -0.043113273 0.48015919
-0.17463094 -0.045084286 0.48018828
-0.16634941 -0.049479481 0.48038229
-0.15341778 -0.042448834 0.48197734
-0.14501192 -0.042737301 0.48726395
-0.13757882 -0.043854047 0.48761901
-0.21175487 -0.037866391 0.48719284
-0.20465955 -0.035290167 0.48412216
-0.19522892 -0.034770753 0.481428
-0.18469256 -0.03470498 0.4821527
-0.17540751 -0.034416713 0.48189178
-0.16818336 -0.03224469 0.48131648
-0.1531679 -0.034748919 0.48107985
-0.14517243 -0.034905337 0.48298225
-0.13682067 -0.034576375 0.48671064
-0.20179592 -0.028407 0.48345783
-0.19449541 -0.026481446 0.48465833
-0.18491575 -0.025067411 0.48679587
-0.17490844 -0.024946351 0.48462725
-0.16710716 -0.024686731 0.4814865
-0.15215909 -0.028503874 0.48025155
-0.14432606 -0.025459016 0.48096466
-0.13539807 -0.02513402 0.48480266
-0.12957364 -0.027277894 0.48871446
-0.18295994 -0.016831229 0.48851979
-0.17466947 -0.016219581 0.48730129
-0.16517115 -0.014872262 0.48422495
-0.15524273 -0.013192012 0.48216072
-0.14483403 -0.014261531 0.48205969
-0.13791575 -0.016172316 0.48181516
-0.17046025 -0.0053130705 0.48971301
-0.16509582 -0.0063439421 0.48797539
-0.15494604 -0.0064098998 0.48746195
-0.14623675 -0.0068919468 0.48659617
-0.23669669 -0.1504139 0.4966009
-0.23615554 -0.14562368 0.49278221
-0.29552966 -0.12110491 0.49458879
-0.29436684 -0.11525115 0.4954727
-0.28849924 -0.11460887 0.4909884
-0.2042505 -0.11511255 0.49354845
-0.198805 -0.11187185 0.49633321
-0.2926155 -0.10747197 0.49526289
-0.28831202 -0.10506654 0.4910717
-0.27780718 -0.10035852 0.49043792
-0.19643825 -0.10767388 0.49212807
-0.28325793 -0.09745355 0.49406978
-0.27537891 -0.095039576 0.49453247
-0.26661509 -0.091717787 0.49155888
-0.27279845 -0.087827474 0.49734089
-0.2644625 -0.085925728 0.49394095
-0.25683028 -0.082730822 0.49168512
-0.17504625 -0.084029116 0.49296793
-0.26024932 -0.078922331 0.49546194
-0.25381544 -0.076074399 0.49346521
-0.24684928 -0.072423093 0.49139875
-0.17410025 -0.079739615 0.49048749
-0.16881007 -0.075271025 0.49127525
-0.24336565 -0.066547103 0.49330923
-0.23554063 -0.064120919 0.49265665
-0.22841053 -0.062345676 0.49105719
-0.16665891 -0.064354524 0.49260467
-0.15844902 -0.060347967 0.49946275
-0.2334719 -0.057228722 0.49570379
-0.22512278 -0.055097617 0.49247298
-0.21795279 -0.053148817 0.49103215
-0.16162607 -0.058004886 0.4918642
-0.1566328 -0.058141515 0.49717736
-0.14291048 -0.051485792 0.49718654
-0.13817087 -0.05254015 0.49714807
-0.22192258 -0.047843963 0.49347654
-0.21652482 -0.045994006 0.49124157
-0.14410245 -0.047252655 0.49216211
-0.13582243 -0.046231341 0.49147367
-0.12996989 -0.040257484 0.49855426
-0.13207902 -0.036348458 0.49302667
-0.12677063 -0.03421713 0.49590233
-0.19176801 -0.02135523 0.49048907
-0.18826504 -0.020517174 0.49028945
-0.13031419 -0.029715717 0.49007174
-0.12748659 -0.027971908 0.49307191
-0.19154637 -0.019013083 0.49164847
-0.18527928 -0.014815762 0.49098206
-0.17577565 -0.011558636 0.49129945
-0.18133226 -0.0093204994 0.49295801
-0.17403533 -0.0063557066 0.4921743
-0.16445142 -0.0014177407 0.49098098
-0.15549479 -0.001575647 0.49068382
-0.14942589 -0.0018410683 0.49003321
-0.17056705 0.00084384036 0.49204466
-0.16477586 0.0023822789 0.49293581
-0.15622024 0.0029094494 0.49253175
-0.23430786 -0.15337846 0.5051856
-0.22867107 -0.14681338 0.50595856
-0.30317888 -0.1207694 0.50332797
-0.20285034 -0.12201279 0.50577772
-0.30245498 -0.11795343 0.5027014
-0.29908249 -0.11224777 0.50028235
-0.20307776 -0.11844936 0.50014436
-0.19729444 -0.11583769 0.50548303
-0.29791543 -0.10908025 0.50053722
-0.28181624 -0.0932827 0.50082403
-0.27921233 -0.091449767 0.50051111
-0.17054595 -0.09092398 0.50796652
-0.27818343 -0.089276373 0.50025582
-0.16354975 -0.073549286 0.5091725
-0.16078497 -0.066980034 0.50798559
-0.15614875 -0.062579401 0.50637335
-0.1440983 -0.054717056 0.50450981
-0.13898265 -0.055088989 0.50331914
-0.12623501 -0.042211983 0.50465983
-0.11832392 -0.04061389 0.50702399
-0.12282471 -0.036111932 0.5018875
-0.11838085 -0.037319366 0.50734276
-0.16897239 0.0027092993 0.50687551
-0.23685464 -0.1620653 0.515185
-0.23217347 -0.15700677 0.51468265
-0.20195122 -0.12692679 0.5147754
-0.19684626 -0.12231229 0.51590163
-0.19556893 -0.11853515 0.51267719
-0.18923783 -0.11327878 0.5143556
-0.18507077 -0.10801694 0.51566404
-0.17077072 -0.092962459 0.51084125
-0.16725773 -0.093684554 0.51758504
-0.16292775 -0.085722499 0.51724017
-0.16187343 -0.074920647 0.51370579
-0.15773812 -0.071259737 0.51818132
-0.16115203 -0.069558032 0.51133347
-0.15534717 -0.0672547 0.51526684
-0.14792551 -0.062264156 0.51643324
-0.1444349 -0.058566444 0.5124073
-0.12275039 -0.046231903 0.51333398
-0.11526284 -0.043988634 0.51576155
-0.1152967 -0.036573928 0.51576531
-0.23490807 -0.17088836 0.52937561
-0.23443384 -0.16712756 0.5262289
-0.22869922 -0.15639287 0.52250743
-0.20127925 -0.13435578 0.52591193
-0.19808628 -0.13263646 0.52761281
-0.1952467 -0.12640664 0.52517527
-0.17309794 -0.10286155 0.525662
-0.16490664 -0.096267961 0.5257588
-0.1577431 -0.09183117 0.52932245
-0.16136864 -0.087382644 0.52068412
-0.15550148 -0.08367496 0.52617204
-0.14691037 -0.081486121 0.52907681
-0.16037858 -0.07745336 0.52341378
-0.15444195 -0.075341694 0.52372861
-0.14508532 -0.07494016 0.52646548
-0.13778293 -0.072569504 0.52895641
-0.15138845 -0.068699241 0.52145529
-0.14586796 -0.067541905 0.52303416
-0.13638465 -0.067931011 0.52755022
-0.12892658 -0.062774599 0.52581447
-0.12054928 -0.050296538 0.52132022
-0.11574019 -0.053070009 0.52712959
-0.12019213 -0.048917785 0.5204103
-0.11453745 -0.048691776 0.52264094
-0.10742108 -0.043592952 0.52672887
-0.11283926 -0.035401035 0.52394056
-0.10839446 -0.038411908 0.52725333
-0.23083831 -0.16797072 0.53238708
-0.1919181 -0.12773558 0.53191108
-0.25097382 -0.11672387 0.46910802
-0.24617596 -0.11585596 0.46910796
-0.26454374 -0.15116739 0.47861472
-0.25929451 -0.15080325 0.47911477
-0.26377445 -0.14490841 0.47698304
-0.25597867 -0.14373828 0.47783345
-0.249286 -0.14079387 0.47911292
-0.26274955 -0.13559881 0.47605753
-0.25468233 -0.13491474 0.47616246
-0.24728364 -0.13435288 0.4779402
-0.26230669 -0.12550548 0.47368652
-0.2548801 -0.12547222 0.47294602
-0.24501055 -0.12515628 0.47456288
-0.23599328 -0.12224765 0.47700223
-0.22564377 -0.12087765 0.47827601
-0.21926004 -0.12077466 0.47910944
-0.26278052 -0.11383361 0.47503829
-0.25557956 -0.11511073 0.47157314
-0.24410504 -0.11429562 0.47056773
-0.23523322 -0.11444974 0.47372508
-0.22521009 -0.11445948 0.47578001
-0.21553734 -0.11410735 0.47706202
-0.20925155 -0.11076527 0.47910759
-0.2608864 -0.10572427 0.47849023
-0.25445548 -0.10514993 0.47516808
-0.24461257 -0.10512151 0.47307557
-0.23648277 -0.10528818 0.47678342
-0.22351617 -0.10839234 0.47857347
-0.21507421 -0.1076498 0.4782401
-0.26054791 -0.099507473 0.47910434
-0.25366819 -0.09700314 0.47707364
-0.24462555 -0.095816158 0.47590706
-0.23551726 -0.096400745 0.47724694
-0.21408455 -0.082882881 0.47847322
-0.20744756 -0.082629383 0.47872686
-0.22051308 -0.077611148 0.47910064
-0.2143766 -0.075331546 0.47823483
-0.20678638 -0.075095445 0.47837949
-0.19111255 -0.060719751 0.47909778
-0.18356696 -0.062987 0.47884023
-0.17922688 -0.061344787 0.47909811
-0.20354556 -0.053662203 0.47895321
-0.19463381 -0.054679856 0.47849271
-0.18474478 -0.054842006 0.4769856
-0.17597662 -0.05348799 0.47746018
-0.16859286 -0.050709814 0.47909617
-0.20278677 -0.045138579 0.47850615
-0.19488119 -0.044824831 0.47679824
-0.1851014 -0.044566836 0.47447795
-0.17520118 -0.044694018 0.47415525
-0.16568987 -0.044263322 0.47681126
-0.15920991 -0.040700462 0.4790943
-0.20192219 -0.037911411 0.47720399
-0.19479923 -0.035285968 0.47527608
-0.18527284 -0.034681283 0.4737488
-0.17487276 -0.034548678 0.47307774
-0.16508381 -0.035050362 0.47642633
-0.15526839 -0.033594642 0.47817993
-0.14537047 -0.032694884 0.47824013
-0.19143334 -0.028343918 0.47566256
-0.18432599 -0.025722452 0.47550735
-0.17488395 -0.025162179 0.47637209
-0.16518396 -0.025064547 0.47688133
-0.15543124 -0.024956757 0.47709116
-0.14549734 -0.025202407 0.47783375
-0.17103724 -0.018174103 0.47892284
-0.16453706 -0.017111206 0.47854882
-0.15473378 -0.016813302 0.47845528
-0.14668448 -0.017882509 0.47858989
-0.27056989 -0.16169244 0.48361677
-0.26507276 -0.16207068 0.48665544
-0.27029017 -0.15963225 0.48311636
-0.26479143 -0.15646188 0.48246455
-0.25735745 -0.1537243 0.48499042
-0.25293872 -0.14721136 0.48267937
-0.24672653 -0.1423976 0.48423329
-0.24280615 -0.13544619 0.4828141
-0.23680457 -0.13251087 0.48711145
-0.24119729 -0.12905726 0.48044404
-0.234668 -0.1269289 0.48274669
-0.22476262 -0.12590034 0.48385397
-0.21505202 -0.12404373 0.48415273
-0.20914 -0.12163976 0.4876098
-0.26735994 -0.11099903 0.48010653
-0.21209227 -0.11808281 0.48065445
-0.20794284 -0.11456805 0.48405582
-0.26586565 -0.10512209 0.48139948
-0.2317263 -0.10490733 0.48046601
-0.22540687 -0.10410595 0.48101893
-0.21426088 -0.10306854 0.48108262
-0.20601134 -0.10478774 0.48441532
-0.19746019 -0.10123226 0.48810589
-0.26431775 -0.094594508 0.48292315
-0.25571793 -0.092391178 0.48137888
-0.24542052 -0.091095105 0.48010287
-0.2341222 -0.09227325 0.48020333
-0.22507921 -0.095440075 0.48100269
-0.21508934 -0.095333733 0.48201972
-0.20491976 -0.095305897 0.48295453
-0.1951599 -0.094506808 0.48471391
-0.188913 -0.091938429 0.48688188
-0.26216167 -0.08837828 0.48410207
-0.25465479 -0.085620537 0.4829461
-0.24481982 -0.085524403 0.48138312
-0.23467855 -0.0854932 0.4812113
-0.2249334 -0.085567571 0.48089525
-0.21560915 -0.087907478 0.4804242
-0.20393355 -0.085971296 0.48076952
-0.19518276 -0.084543712 0.48299319
-0.18701451 -0.084539533 0.4861781
-0.25118843 -0.079100341 0.48130035
-0.24412614 -0.07670898 0.48044884
-0.23480089 -0.075286627 0.48063716
-0.22519384 -0.075239375 0.48059091
-0.21830948 -0.071661085 0.48009944
-0.20198986 -0.075541429 0.48076719
-0.19512112 -0.075065985 0.48283273
-0.18501556 -0.075477287 0.48348022
-0.17570674 -0.073692918 0.48501739
-0.16877492 -0.071237028 0.48685032
-0.23242916 -0.066652566 0.48244306
-0.22497642 -0.065121174 0.48342666
-0.21486929 -0.065413885 0.48191482
-0.20468777 -0.065544643 0.48103696
-0.19494411 -0.065631822 0.48120034
-0.18592615 -0.067119896 0.48013362
-0.17515628 -0.065282755 0.48158395
-0.16654676 -0.063903838 0.4857851
-0.15965071 -0.060584221 0.48809832
-0.2236813 -0.056795426 0.48459631
-0.21498106 -0.055280428 0.48186976
-0.20667419 -0.05677462 0.48020777
-0.19769064 -0.059234824 0.48009729
-0.17312708 -0.057449732 0.48139745
-0.16491471 -0.055097625 0.48349717
-0.15560724 -0.054120712 0.48656768
-0.14875615 -0.051289394 0.48859665
-0.21274966 -0.048497263 0.48082221
-0.20734039 -0.047369584 0.48009473
-0.1996612 -0.049563281 0.48009533
-0.16197342 -0.048468541 0.48055038
-0.15512256 -0.045227941 0.48219821
-0.14549549 -0.044618133 0.48507571
-0.13578866 -0.042616814 0.48609513
-0.12943088 -0.040106565 0.48709476
-0.15428095 -0.038431209 0.48035711
-0.14442495 -0.037714567 0.48112431
-0.13496479 -0.035207212 0.48240799
-0.12770222 -0.03435085 0.48666027
-0.18273711 -0.020726748 0.48008978
-0.17897594 -0.020726584 0.48008984
-0.14094605 -0.022814455 0.48009098
-0.13508965 -0.025229966 0.48234162
-0.12680764 -0.02567533 0.48659188
-0.18163025 -0.018694457 0.48158941
-0.1744944 -0.015869055 0.48051754
-0.16543853 -0.012234539 0.48034763
-0.15501997 -0.011898774 0.48026237
-0.1444263 -0.013973099 0.48039344
-0.13543877 -0.015457869 0.48307514
-0.12847552 -0.018957993 0.48709047
-0.1707315 -0.0088426191 0.48158759
-0.16431282 -0.005593759 0.48142689
-0.15514098 -0.0050398689 0.48301584
-0.14516331 -0.0054476759 0.48423493
-0.13795753 -0.0071338462 0.48553786
-0.16160236 0.0020079592 0.48586333
-0.15650499 0.0019841506 0.48778132
-0.1483833 0.0005991389 0.48875275
-0.27091902 -0.16612326 0.49111769
-0.26304069 -0.16493897 0.49093008
-0.25850683 -0.16259594 0.49394074
-0.25579891 -0.15531465 0.49363583
-0.25167578 -0.14918634 0.49236459
-0.24442521 -0.14461371 0.49422491
-0.23753671 -0.14156814 0.49721327
-0.24053654 -0.13904852 0.49061275
-0.23488958 -0.13653658 0.49321762
-0.2261878 -0.13353111 0.49295804
-0.21836537 -0.13125491 0.49261159
-0.2160532 -0.12926857 0.49077785
-0.20934267 -0.12092724 0.49510965
-0.20511986 -0.1135998 0.49465996
-0.197486 -0.11098526 0.49835786
-0.20219557 -0.10793051 0.49135712
-0.19492811 -0.10490499 0.49412635
-0.18985361 -0.1006465 0.49710587
-0.1909806 -0.098577209 0.49110547
-0.18671514 -0.093907282 0.49443787
-0.1824809 -0.086451337 0.4926365
-0.17778358 -0.083519444 0.49437186
-0.17438591 -0.07849098 0.49147666
-0.1683532 -0.071839176 0.49243379
-0.16320072 -0.065249085 0.49182644
-0.15627494 -0.061791718 0.49493203
-0.15271015 -0.057788216 0.49141037
-0.14694849 -0.054113679 0.49424011
-0.1426398 -0.048439872 0.49097118
-0.1363198 -0.046109151 0.492953
-0.12888566 -0.041214295 0.49429497
-0.12375563 -0.034455687 0.49341717
-0.11923667 -0.03158325 0.4970932
-0.12272957 -0.024668178 0.49320289
-0.11943181 -0.028271843 0.49709252
-0.13247775 -0.013239422 0.49436191
-0.12773211 -0.018198971 0.49423319
-0.14189439 -0.0013259571 0.49283662
-0.13709885 -0.0066631124 0.49408782
-0.15404694 0.0060930178 0.49203598
-0.14608236 0.0037307732 0.49371713
-0.25887874 -0.16109046 0.50345021
-0.2551778 -0.155449 0.50476575
-0.24630567 -0.15102987 0.50644845
-0.24337231 -0.14812872 0.50311458
-0.23539668 -0.14402694 0.50388306
-0.22900158 -0.1416326 0.50911349
-0.23017684 -0.13912876 0.50011295
-0.22832339 -0.13915618 0.50177968
-0.21088746 -0.12253587 0.50710994
-0.20812786 -0.12048765 0.5068596
-0.20388661 -0.116781 0.50363064
-0.19651097 -0.11314224 0.50481415
-0.19163279 -0.10617954 0.50381285
-0.18946503 -0.10104449 0.505606
-0.18517955 -0.095585823 0.50375712
-0.17878196 -0.091113284 0.50470412
-0.17636032 -0.086410046 0.50354075
-0.16707702 -0.070909314 0.50410026
-0.16347261 -0.06873142 0.50584996
-0.15511604 -0.064195752 0.50391161
-0.14916457 -0.060894683 0.50659859
-0.14571156 -0.056097005 0.50368589
-0.13962691 -0.050872214 0.50559676
-0.13745706 -0.04835986 0.5000962
-0.12705237 -0.041172989 0.50809503
-0.12253169 -0.037096247 0.50376093
-0.11873894 -0.033539101 0.50482088
-0.12243266 -0.023611983 0.50352007
-0.1190083 -0.028389122 0.50494963
-0.13292441 -0.012793061 0.50368917
-0.12816897 -0.017742407 0.50209022
-0.14142558 -0.00135376 0.5025866
-0.13740999 -0.0068342686 0.50364333
-0.14387488 0.0019461513 0.50658596
-0.26102391 -0.16379793 0.51611739
-0.25718892 -0.16098279 0.51736689
-0.25372905 -0.15754226 0.51411629
-0.24494798 -0.15543973 0.51534182
-0.23895192 -0.15156959 0.515782
-0.24010783 -0.14990388 0.51011497
-0.23443368 -0.14675461 0.51375729
-0.22821738 -0.14242885 0.51561368
-0.22376256 -0.13935027 0.51544648
-0.21262911 -0.1260512 0.51551068
-0.20592909 -0.12262279 0.51499236
-0.19961128 -0.12001275 0.51910967
-0.20120759 -0.11883189 0.51110935
-0.19648841 -0.11556208 0.5152517
-0.19144152 -0.10623532 0.51477361
-0.18842363 -0.10137286 0.51510614
-0.18466297 -0.097162709 0.51096237
-0.17869155 -0.092225075 0.51160443
-0.17643742 -0.086286269 0.51610321
-0.17206354 -0.077059329 0.51443475
-0.16636267 -0.07190638 0.51440048
-0.16081069 -0.068912096 0.51209998
-0.15452038 -0.066542432 0.51509964
-0.14872316 -0.06164455 0.51524156
-0.14406818 -0.055748187 0.51402068
-0.13861819 -0.051279765 0.51409686
-0.13338822 -0.047171991 0.51809615
-0.12662035 -0.042021949 0.51447016
-0.12210727 -0.039196301 0.51323754
-0.11788099 -0.034684259 0.51488334
-0.12233803 -0.024086531 0.51449168
-0.11882402 -0.028315669 0.51559252
-0.13319659 -0.012919117 0.51475579
-0.1284228 -0.017812759 0.51359028
-0.14196736 -0.0020594767 0.51408678
-0.13800649 -0.0068435259 0.51394498
-0.14455253 0.000633888 0.51608616
-0.26469347 -0.1723538 0.52642673
-0.25778726 -0.17052598 0.52861881
-0.26187086 -0.16749305 0.52345145
-0.25463593 -0.16544501 0.52442086
-0.24610998 -0.16347678 0.52557909
-0.24185975 -0.157708 0.52340221
-0.23785153 -0.15254685 0.5254792
-0.23295085 -0.14786042 0.52461469
-0.22601163 -0.14260533 0.52536374
-0.22139205 -0.13734156 0.52577943
-0.21556491 -0.1328242 0.52690142
-0.20947537 -0.130492 0.52861154
-0.21210028 -0.12855731 0.52261114
-0.20486289 -0.1255786 0.52505517
-0.19942547 -0.12109521 0.52577651
-0.19542331 -0.11515065 0.52457935
-0.19206181 -0.10780229 0.5256629
-0.18683729 -0.10314732 0.52581233
-0.18219118 -0.098488696 0.52360559
-0.17768425 -0.093329936 0.52577132
-0.17555292 -0.085473269 0.5253253
-0.17239085 -0.077839918 0.52497661
-0.1649549 -0.073965721 0.52599567
-0.15724291 -0.071228571 0.52638626
-0.15279943 -0.067794964 0.52509993
-0.14740191 -0.062706493 0.52663231
-0.14385624 -0.05725304 0.52516937
-0.138495 -0.052491054 0.52509707
-0.1242392 -0.051065587 0.52873337
-0.13238093 -0.047481734 0.52487397
-0.12439629 -0.04574877 0.52592099
-0.11711203 -0.043026593 0.52701861
-0.11581577 -0.03585843 0.52594036
-0.12274287 -0.023559332 0.52467483
-0.11849694 -0.028202651 0.52609253
-0.13284495 -0.013055371 0.52468914
-0.12821896 -0.018076062 0.52464581
-0.14158805 -0.0034683961 0.52508706
-0.13776089 -0.0075612892 0.52358794
-0.14719623 0.0026916917 0.52308571
-0.27237752 -0.18284068 0.53697824
-0.27023286 -0.1792748 0.53412038
-0.26459438 -0.17675267 0.53281224
-0.25447789 -0.17576754 0.53361994
-0.25090641 -0.16962527 0.53011876
-0.24296027 -0.16596571 0.53406262
-0.24054666 -0.1586519 0.53231674
-0.23150697 -0.14872405 0.53086489
-0.22428134 -0.14616661 0.53290397
-0.22105265 -0.13879484 0.53044641
-0.21431193 -0.13706356 0.5319404
-0.19087009 -0.10881478 0.53060752
-0.18030885 -0.099021494 0.53010577
-0.17293262 -0.08548785 0.53338444
-0.17181925 -0.079369582 0.53060192
-0.16416705 -0.077455752 0.53210169
-0.15133353 -0.069069587 0.53043354
-0.14126478 -0.058024585 0.53076476
-0.13194253 -0.049214527 0.5304299
-0.12338791 -0.022246644 0.53479123
-0.13224471 -0.012220055 0.53424287
-0.12835827 -0.016704263 0.53629005
-0.14219387 -0.0028283915 0.53446192
-0.13671936 -0.0073200674 0.53480226
-0.15042774 0.0048452746 0.53458524
-0.14804712 0.0024051163 0.53608572
-0.1421282 -0.0011557484 0.54365802
-0.15208411 0.0049680644 0.54808515
-0.14581032 0.0017700903 0.54647052
