# .PCD v0.7 - Point Cloud Data file format
VERSION 0.7
FIELDS x y z
SIZE 4 4 4
TYPE F F F
COUNT 1 1 1
WIDTH 1
HEIGHT 318
VIEWPOINT 0 0 0 1 0 0 0
POINTS 318
DATA ascii
0.049975246 0.069818035 0.30177978
0.053526934 0.06912481 0.3005386
0.036633112 0.079345189 0.30306008
0.045228265 0.075837046 0.30084687
0.051998965 0.070743583 0.30056188
0.079360686 0.078684822 0.3012284
0.085520051 0.079166219 0.3038615
0.094096385 0.079103276 0.30330041
0.028032724 0.086376324 0.30361012
0.034693696 0.084641151 0.30215833
0.041414831 0.082022958 0.30051765
0.069461375 0.083081357 0.30027312
0.075613655 0.081274576 0.30502701
0.082916893 0.080492333 0.3093324
0.097349368 0.081172928 0.30668423
0.10496472 0.085555658 0.30442551
0.026502827 0.095358126 0.30084762
0.031638701 0.09551961 0.30059716
0.11426982 0.094356984 0.30454853
0.019824892 0.10793044 0.30025506
0.025343969 0.10339204 0.30051261
0.032304652 0.10222414 0.30046743
0.11870478 0.1014534 0.30211037
0.12127168 0.10506446 0.30601808
0.025630862 0.11323026 0.30012935
0.12387138 0.11456171 0.305251
0.021668907 0.12638973 0.30028698
0.021983653 0.13071752 0.30014771
0.036565498 0.15963268 0.30175322
0.038609065 0.1609346 0.30233893
0.044630207 0.16591878 0.30298299
0.049196392 0.1708269 0.30099261
0.078129224 0.083176285 0.31321526
0.086275205 0.08129406 0.31490386
0.09542834 0.081963681 0.31517848
0.10502709 0.086337492 0.31500784
0.11050022 0.089427404 0.31647849
0.11564898 0.093732044 0.31467786
0.12078047 0.099017531 0.31553552
0.12360663 0.10459513 0.31519488
0.12711436 0.11362758 0.31368899
0.13023603 0.11536501 0.31978226
0.043437198 0.16210154 0.31834179
0.086537212 0.083158195 0.32355168
0.094874829 0.084471762 0.32442227
0.10468458 0.087158874 0.32469383
0.1110034 0.089739256 0.32167348
0.11579479 0.093012951 0.3252922
0.12097133 0.098199211 0.32451993
0.12534207 0.10461143 0.32499841
0.12927592 0.11170981 0.32149896
0.13274787 0.11582897 0.32641774
0.1360769 0.12379718 0.32635659
0.048472106 0.16404557 0.32916534
0.08912389 0.083720267 0.33358806
0.09482991 0.086215593 0.3345671
0.10466015 0.088875741 0.33405131
0.10962041 0.090331912 0.33708405
0.11571889 0.092969067 0.33465451
0.12228191 0.098026998 0.33585528
0.12713806 0.104397 0.33487552
0.13085645 0.10911527 0.33562845
0.13372463 0.11509185 0.33531263
0.13654949 0.12490254 0.33493486
0.13824137 0.13163272 0.33763829
0.051068634 0.16499038 0.33128592
0.088275567 0.086886801 0.34645897
0.094152644 0.087370016 0.34526712
0.10246313 0.089382112 0.34491408
0.10708509 0.090568379 0.34637469
0.11506023 0.092761561 0.34488925
0.12262437 0.09722919 0.34522739
0.12745473 0.10261149 0.34512997
0.1312647 0.10795774 0.34524721
0.13401107 0.11508898 0.34530506
0.13573191 0.12539525 0.34552404
0.12831908 0.13783731 0.34788868
0.13414522 0.13408762 0.34487683
0.12725016 0.14127927 0.34722236
0.13063504 0.14083108 0.34467095
0.058254775 0.16778249 0.34659091
0.061021447 0.17063627 0.34706801
0.087100618 0.089266427 0.35357323
0.095519416 0.089708835 0.35079476
0.08888153 0.090843618 0.35643765
0.094807431 0.091866404 0.35570544
0.10511557 0.0923419 0.35546184
0.11555193 0.09533269 0.35558185
0.1222638 0.098159812 0.35385507
0.12588157 0.10469035 0.35592598
0.13084967 0.10883151 0.35287535
0.059779063 0.16833586 0.35354769
0.062065482 0.16958353 0.35624316
0.064062409 0.17157726 0.35557592
0.078342624 0.098435692 0.36905169
0.085701421 0.09574376 0.3664777
0.094915301 0.096600167 0.36547554
0.10472497 0.097002231 0.36453062
0.1132907 0.098020487 0.36257595
0.079233319 0.10196445 0.36920378
0.085193679 0.10449808 0.36841717
0.087897629 0.11133993 0.36966133
0.078942657 0.12994567 0.36878866
0.078738473 0.13298145 0.3658939
0.084877163 0.13479152 0.36380851
0.088337272 0.14096521 0.36184299
0.059766784 0.16455328 0.36870366
0.060984969 0.16782208 0.36725131
0.076034635 0.10541377 0.37290218
0.081810959 0.10811307 0.37082037
0.076297186 0.11494147 0.37314752
0.035587415 0.078520164 0.30130184
0.077029042 0.079614028 0.30088067
0.081007302 0.079897612 0.30047512
0.028532023 0.088518962 0.30291066
0.034171056 0.084976748 0.30125314
0.049694508 0.089945793 0.30094424
0.0559032 0.088438869 0.30441159
0.065314636 0.086146094 0.30470359
0.074852794 0.082620896 0.30524626
0.084735736 0.082220346 0.30475041
0.094893903 0.083252721 0.30472305
0.10491122 0.086876094 0.30503944
0.11014652 0.089857429 0.30628139
0.026900399 0.095101029 0.30139637
0.034794111 0.094599172 0.30067903
0.045136128 0.094513766 0.30424407
0.051288173 0.091112599 0.3068817
0.10937434 0.09023115 0.30135357
0.11330123 0.094725609 0.30477741
0.037235662 0.10497174 0.30234033
0.041492548 0.10373831 0.30721149
0.11639328 0.10294382 0.30491081
0.037061732 0.11462718 0.30239737
0.041463558 0.11442414 0.30736145
0.038418692 0.12337977 0.30055723
0.13515677 0.13973379 0.30214253
0.140231 0.1388375 0.30930296
0.02775136 0.14905578 0.30298984
0.030475503 0.14941703 0.30706236
0.13556969 0.14468952 0.30575973
0.03561886 0.15442358 0.30450672
0.040482458 0.15933323 0.3068167
0.12745851 0.15761127 0.30310783
0.13147078 0.15378205 0.30611604
0.045336425 0.16320024 0.30442432
0.053800292 0.16776159 0.30559289
0.11685406 0.16796224 0.30338401
0.12340068 0.1637931 0.30537474
0.058544278 0.17137264 0.30430472
0.0652771 0.17413953 0.30489534
0.074843615 0.17548673 0.30531585
0.085393049 0.17646942 0.30463347
0.095155194 0.17556378 0.30477387
0.10468426 0.17296767 0.30501294
0.11236228 0.17128849 0.30599147
0.057760067 0.089420557 0.31138447
0.065402985 0.088825829 0.31369025
0.074918203 0.086231992 0.31444454
0.084839702 0.084639445 0.31512171
0.095088191 0.08413215 0.31532329
0.10522496 0.086992383 0.31516543
0.048133742 0.097462207 0.3124471
0.054458689 0.094348945 0.31531784
0.062870994 0.091144048 0.31753486
0.10985988 0.090617836 0.31694523
0.11369155 0.094496556 0.31479129
0.046461962 0.10479579 0.31409046
0.050767977 0.10344457 0.31901732
0.11788257 0.10131128 0.31437498
0.046309061 0.11336724 0.31321284
0.051317818 0.11434355 0.31814843
0.14182246 0.13685936 0.31189698
0.029352739 0.14728542 0.31489712
0.032249596 0.14843869 0.3156805
0.13776539 0.14818139 0.3121216
0.14277048 0.14430773 0.31749627
0.03694183 0.15317421 0.31493551
0.04106462 0.15819216 0.31613144
0.13513106 0.15584007 0.3144269
0.14020358 0.15057987 0.31852657
0.046198435 0.1622566 0.31469533
0.054767549 0.16708627 0.31545049
0.11794043 0.16994578 0.31002721
0.12536998 0.16714634 0.31439102
0.13200365 0.16268615 0.3166832
0.059057131 0.17052214 0.31329194
0.064559944 0.17312375 0.31509614
0.075022422 0.17677356 0.31534377
0.084938936 0.17680846 0.31446192
0.095035158 0.17856047 0.31445214
0.10515277 0.17691213 0.31479034
0.11458462 0.17336896 0.31516203
0.12127207 0.17122385 0.31769967
0.098280139 0.18064301 0.31881157
0.10164064 0.18025124 0.31850612
0.069122389 0.089984357 0.32088655
0.076112278 0.088357538 0.32441288
0.08494404 0.086888231 0.32497382
0.095161051 0.086235836 0.32460868
0.10363806 0.088096716 0.3240577
0.057503447 0.097504698 0.32220653
0.064626545 0.094225034 0.32518715
0.072458319 0.090718441 0.32771572
0.10814361 0.091218062 0.3262105
0.1137194 0.095835343 0.32488993
0.055906381 0.10510963 0.32438484
0.061411522 0.10442097 0.32899314
0.11739566 0.10146169 0.32501864
0.056248076 0.11242317 0.32393101
0.060574934 0.11449546 0.32566366
0.1543863 0.12787105 0.32853308
0.1485949 0.138253 0.32303619
0.1524419 0.13503239 0.32731953
0.035058446 0.14739272 0.32611442
0.14622043 0.14600872 0.32467508
0.15113722 0.14098692 0.32894227
0.037945844 0.15283763 0.32411179
0.042152166 0.15725228 0.32585835
0.13850057 0.15735805 0.32148609
0.14291994 0.15457299 0.32589903
0.04746956 0.16170663 0.32478717
0.055200625 0.16669615 0.32530493
0.12864214 0.16895819 0.32227924
0.13524619 0.16607764 0.32519826
0.14092512 0.16302946 0.32895315
0.059786819 0.1704734 0.32931027
0.064666271 0.17303403 0.32524008
0.074022017 0.17751718 0.32477972
0.085165143 0.17833079 0.32306898
0.091966368 0.17863616 0.32339767
0.10795443 0.17921755 0.3208375
0.11559971 0.17715651 0.324036
0.12464341 0.1736609 0.3259193
0.13270634 0.17132877 0.32825887
0.078193195 0.18167639 0.32710204
0.084459499 0.18257079 0.3273834
0.095691279 0.18189739 0.32592571
0.10462934 0.18258165 0.3254762
0.11292867 0.18145931 0.32770306
0.078651823 0.089722022 0.33086592
0.086012363 0.088929564 0.33341148
0.094915845 0.088224269 0.33505371
0.10151947 0.08925382 0.33487219
0.067855261 0.097047858 0.33188239
0.075379081 0.094921924 0.33460414
0.083056085 0.092736714 0.3377113
0.10690668 0.092315175 0.33509335
0.11177146 0.097041592 0.33482748
0.066009037 0.10470042 0.33259171
0.074054562 0.10358001 0.33725718
0.11310693 0.10157324 0.3356216
0.062431306 0.11074242 0.33009061
0.15922184 0.11802449 0.33663249
0.15816754 0.12564445 0.33301979
0.036883362 0.14570564 0.33458745
0.14973517 0.14642219 0.33070603
0.039151132 0.152154 0.33260143
0.043474201 0.1567886 0.33507755
0.14764729 0.15642974 0.33230412
0.048358135 0.16155912 0.33517599
0.054343451 0.16645314 0.33533442
0.1389396 0.16984361 0.33069181
0.059078515 0.17044389 0.33572832
0.064955942 0.17556989 0.33468637
0.072003655 0.17833979 0.33179498
0.12661409 0.1776213 0.33247656
0.13546948 0.17561962 0.33456242
0.069123626 0.18067273 0.33761254
0.075495824 0.18287817 0.33509746
0.0846809 0.18598816 0.33420071
0.094865188 0.18527605 0.3343665
0.1050032 0.18633296 0.33486319
0.11502423 0.18460619 0.33499458
0.12420103 0.18280773 0.33681348
0.089753941 0.089883447 0.34059769
0.096190237 0.089272261 0.34226465
0.10096928 0.089588821 0.34227535
0.086032145 0.096009098 0.34209934
0.09483438 0.094473451 0.34571913
0.10461427 0.094831459 0.34472835
0.11022189 0.098801911 0.34074304
0.078607738 0.10574004 0.34085968
0.085278958 0.10339633 0.34334978
0.094874583 0.10317604 0.34629115
0.10565814 0.10220084 0.34493864
0.11047742 0.10284251 0.34037974
0.037425529 0.13793403 0.3452405
0.038236506 0.1430786 0.34198469
0.040701281 0.14578941 0.34637228
0.044898063 0.15576929 0.34478563
0.048766356 0.16197453 0.34432223
0.052873142 0.16703935 0.34410468
0.057971556 0.17084233 0.34540331
0.063531607 0.17561767 0.34449968
0.068646595 0.18110242 0.34518626
0.075106241 0.18414083 0.34476233
0.085133769 0.18761523 0.34553856
0.095297061 0.18802942 0.34585151
0.10457991 0.18889098 0.34262982
0.03868854 0.13572255 0.35093421
0.040204734 0.13904732 0.35299847
0.043178681 0.14531338 0.35540259
0.046695031 0.15475655 0.35417977
0.049367335 0.16082188 0.35363245
0.053141646 0.16609277 0.35482138
0.058190979 0.1711148 0.35455397
0.064232454 0.1759145 0.35478383
0.068817019 0.18111117 0.3552829
0.075371377 0.18526247 0.35579211
0.04211916 0.13462876 0.36574447
0.045213707 0.14451914 0.36516485
0.048326854 0.15341929 0.36366826
0.050571565 0.15799926 0.36608413
0.054727618 0.16548583 0.36525685
0.042885259 0.12490299 0.37628421
0.043946683 0.13519776 0.37601426
0.04697872 0.14544037 0.37590784
