# .PCD v0.7 - Point Cloud Data file format
VERSION 0.7
FIELDS x y z
SIZE 4 4 4
TYPE F F F
COUNT 1 1 1
WIDTH 1
HEIGHT 427
VIEWPOINT 0 0 0 1 0 0 0
POINTS 427
DATA ascii
-0.012504824 0.016821196 0.30531847
-0.012625192 0.025103124 0.30465463
-0.012264077 0.035012942 0.30484939
0.035379305 0.036729995 0.30508408
-0.013024354 0.044878732 0.30456656
0.034504011 0.044584662 0.30459675
-0.012808418 0.05525874 0.30443579
0.029732049 0.059821896 0.3015632
0.03415177 0.055156842 0.30547965
-0.013165931 0.06519755 0.30465817
0.028777817 0.065830007 0.30147928
0.033072073 0.064978607 0.30631724
-0.0139019 0.074915908 0.30474359
0.028901471 0.074946344 0.3015193
0.032890912 0.075531155 0.30618021
-0.01465583 0.084805638 0.30477896
0.029303711 0.085080639 0.30118155
0.032760918 0.084924288 0.30524436
-0.013893879 0.095030807 0.30495048
0.028332759 0.095627405 0.3019464
0.032308187 0.094660431 0.30668691
-0.014650904 0.10464798 0.30445603
0.02842403 0.10547447 0.30146751
0.032967363 0.10517617 0.30671516
-0.015181843 0.11551093 0.30443877
0.02856217 0.11467193 0.30187723
0.032315608 0.1152031 0.30627537
-0.01529362 0.1252888 0.30445009
0.028765857 0.12596975 0.30179548
0.03272837 0.1250928 0.30669016
-0.015195814 0.13521658 0.30394837
0.027051957 0.1355852 0.30308697
0.031390913 0.13443041 0.30827308
-0.013986186 0.14505295 0.30442572
0.02677539 0.14510074 0.30286199
0.031136647 0.14514248 0.30850238
-0.013755711 0.15498395 0.30409107
0.026278621 0.15542278 0.30291837
0.031186178 0.15380831 0.30830941
-0.014468497 0.16473588 0.30378938
0.025105614 0.16495439 0.30282804
0.031048769 0.16510876 0.30879256
-0.011818275 0.17186354 0.30623469
-0.0059318035 0.1751015 0.30430949
0.0047214204 0.17643152 0.30495816
0.015471452 0.17527086 0.30400822
0.024586024 0.17387991 0.3041423
0.031843647 0.17283823 0.30940789
-0.014710176 0.0085278703 0.31745538
-0.014645412 0.014926312 0.31495756
-0.014706789 0.024970898 0.3152909
-0.014585097 0.034852009 0.3151997
0.038911186 0.036861159 0.31026536
0.043152913 0.03653143 0.31616482
-0.015101828 0.044629779 0.31495133
0.039044846 0.045589045 0.31107369
0.04260426 0.045485161 0.31606337
-0.014710397 0.055141427 0.31530377
0.038695421 0.05631537 0.31176811
0.042355251 0.055572022 0.31664392
-0.015591456 0.064938605 0.3149285
0.037914835 0.065380588 0.31280249
0.041354045 0.065647125 0.31762931
-0.015829185 0.074769832 0.31520054
0.037548508 0.074850447 0.31240672
0.041253511 0.075525083 0.31731951
-0.016278218 0.084971569 0.31534806
0.037662894 0.085737765 0.31271827
0.041147087 0.085358165 0.31787011
-0.015940262 0.094557472 0.31560916
0.037426218 0.094980881 0.31377676
0.040854108 0.095282108 0.31878653
-0.016347982 0.10469853 0.31494433
0.03827044 0.1055053 0.31409773
0.041389264 0.10553716 0.3184824
-0.016698435 0.11528063 0.31525335
0.037434727 0.11475553 0.31320649
0.041318636 0.11553802 0.318528
-0.017523486 0.12494341 0.31534684
0.037294429 0.12489345 0.31294137
0.041310307 0.12515141 0.31853986
-0.017796598 0.13513526 0.31465569
0.03633051 0.13470894 0.31498784
-0.016490618 0.14545859 0.31535816
0.035605449 0.14532401 0.31481013
-0.016649518 0.15513256 0.31506079
0.036104057 0.15486458 0.31511083
-0.017612135 0.16488136 0.31504947
0.035632085 0.16492236 0.31482822
-0.013405434 0.17272596 0.31550646
-0.0057811728 0.17817427 0.31474435
0.0042723618 0.17904519 0.31292728
0.016713083 0.1783784 0.3129825
0.024830794 0.17889194 0.3139511
0.035397902 0.1752876 0.3154175
-0.00049164891 0.18056443 0.31842595
0.025571216 0.18067262 0.31861907
0.031094253 0.18062353 0.3180953
0.048044492 0.03549977 0.32305041
0.047392271 0.044369098 0.32288009
0.04741608 0.055361461 0.32377967
-0.018232061 0.065001652 0.32389838
0.046630025 0.065091074 0.32387307
-0.018251631 0.075043619 0.32355639
0.046492465 0.074836589 0.32432956
-0.018415887 0.084901005 0.32381627
0.045959875 0.085079841 0.32429609
-0.018532278 0.09529043 0.32314312
0.045361847 0.094887562 0.32522911
-0.018181479 0.10490996 0.32414043
0.045817297 0.10522503 0.32493579
-0.018636731 0.11451358 0.32370245
0.046265297 0.11457295 0.32506225
-0.019302292 0.12521799 0.32315773
0.046509258 0.12486539 0.32556954
-0.019248376 0.13425061 0.32320607
0.039252982 0.13881242 0.32002491
0.043946464 0.13504428 0.32532862
-0.018648114 0.14548481 0.32415572
0.039326183 0.14353387 0.32047042
0.043367241 0.14535034 0.32571173
-0.018538058 0.15374658 0.32406801
0.039654836 0.15972593 0.32051915
0.043962289 0.15475708 0.32576618
-0.021613471 0.16411594 0.32750073
-0.018996699 0.16647194 0.32316527
0.039444312 0.1629014 0.32017869
0.043880247 0.1650517 0.32580867
-0.014595965 0.1748286 0.32607725
-0.0086613223 0.17920184 0.3232044
0.039928287 0.1789736 0.32226175
0.044095811 0.17488863 0.32541606
-0.0052883318 0.18188746 0.32626632
0.0045154383 0.1829159 0.32531822
0.01498716 0.18174292 0.32486588
0.025774034 0.18276413 0.32567382
0.035532422 0.18325305 0.32544783
0.042883731 0.18207029 0.32799369
-0.012656655 -0.0081216842 0.30616707
-0.012121798 0.0036983117 0.30300504
-0.01398316 0.016450077 0.30076644
0.033947617 0.01823554 0.30383936
-0.015261933 0.026491838 0.30446097
0.032548264 0.026120415 0.30272707
-0.014575176 0.033335619 0.30360255
0.032240555 0.035227206 0.30508542
-0.01563382 0.044651527 0.30447441
0.032386139 0.045088753 0.30315092
-0.015011704 0.053980034 0.3030428
0.032958578 0.054861274 0.3047168
-0.015181968 0.065159477 0.30465302
0.032139517 0.065810665 0.30175418
-0.015040026 0.075157799 0.30447257
0.031422704 0.074680082 0.30560595
-0.015804429 0.084881388 0.30485883
0.029584199 0.083693251 0.3009221
0.031374007 0.085575208 0.30534354
-0.016183874 0.094532728 0.30469894
0.029436212 0.096513376 0.30172905
0.03128491 0.094500169 0.30624717
-0.015441968 0.10533037 0.3048372
0.02896511 0.1056418 0.30233201
0.03073428 0.10445604 0.30752358
-0.014949706 0.11490151 0.30446932
0.028877519 0.11473799 0.30252865
0.030782832 0.11507956 0.30749282
-0.014025474 0.12548274 0.30419537
0.028924452 0.12531838 0.3020592
0.03076176 0.12480271 0.30698469
-0.013284196 0.13500896 0.30411512
0.028196136 0.13542278 0.30372214
0.03052434 0.13135931 0.30824575
-0.014860491 0.14439209 0.30478963
0.02825699 0.14421846 0.3045567
0.030460596 0.14872476 0.3099882
-0.015754243 0.15512604 0.30480096
0.028625796 0.15456904 0.30411735
0.03013736 0.15304933 0.30941546
-0.013941132 0.16537675 0.30461818
0.028472437 0.16498116 0.30451649
-0.013264726 0.17376973 0.30481502
-0.005553992 0.17697808 0.30249199
0.0045488602 0.17870137 0.30380866
0.014707245 0.17851943 0.30387941
0.025826899 0.17555346 0.30484203
-0.0014760932 0.1801949 0.30767941
0.0053360239 0.18021743 0.30919281
-0.015584339 -0.014233723 0.31701842
-0.015338749 -0.0063254666 0.31607428
-0.015959688 0.005314447 0.31438509
-0.019508597 0.019339636 0.31808585
0.037340313 0.015944624 0.31543472
-0.020445846 0.022952318 0.31900814
-0.01853417 0.025640428 0.31536338
0.035561282 0.026028778 0.31660593
-0.018416716 0.035467535 0.31587529
0.03542966 0.034644332 0.31523639
-0.020645736 0.044675436 0.31875309
-0.018685441 0.046021201 0.31383628
0.036228497 0.044685882 0.31631735
-0.020946538 0.05673689 0.31870976
-0.018624207 0.055315502 0.31438348
0.036085106 0.054791447 0.31545597
-0.021427333 0.064597569 0.31855887
-0.018700436 0.064152256 0.3131426
0.035751574 0.063790597 0.31613591
-0.020691324 0.075130112 0.31906381
-0.018939154 0.074277274 0.31469643
0.034002118 0.075211555 0.31561521
-0.020977341 0.085081108 0.31802994
-0.018998858 0.084853634 0.31296197
0.034531981 0.084957592 0.3144612
-0.020690279 0.095892869 0.3181375
-0.018992797 0.094500788 0.31305769
0.034126297 0.094798014 0.31505096
-0.020641385 0.10564718 0.31844714
-0.01870165 0.10506968 0.31364572
0.033173621 0.1046938 0.31554639
-0.020586422 0.11393116 0.31865963
-0.018674113 0.11379563 0.31393716
0.03306064 0.11509807 0.31502667
-0.020965487 0.12725389 0.31880993
-0.018328296 0.12404585 0.31448445
0.033199169 0.12573618 0.31487617
-0.021549284 0.13480899 0.31835881
-0.018388076 0.13477813 0.31337762
0.031525321 0.13542834 0.31452739
-0.021704014 0.14566146 0.31671906
-0.018961092 0.14335197 0.31254265
0.031541731 0.14425948 0.31508502
-0.021679632 0.15497465 0.31618971
-0.019027878 0.15642425 0.31196961
0.031654656 0.15295188 0.31508452
-0.021557422 0.16528553 0.31677407
-0.018735314 0.16475791 0.31170404
0.031415574 0.1648784 0.31577724
-0.020781498 0.17186168 0.31709751
-0.016153298 0.1763721 0.31373239
-0.0090788808 0.17995176 0.31148413
0.01699998 0.17963409 0.31084326
0.026715757 0.1781716 0.31360966
0.031133171 0.17316501 0.31464681
-0.011952767 0.18031901 0.31590489
-0.0047423132 0.18125629 0.3146984
0.0051366263 0.18120007 0.31484228
0.014010618 0.18048316 0.31408668
0.024937104 0.18020438 0.31938148
0.038786728 0.054579049 0.32381994
0.038233154 0.085477263 0.32319289
0.036709335 0.11496687 0.32580209
-0.025606053 0.12476783 0.32434687
0.036880076 0.12499342 0.32606563
-0.026458438 0.1349937 0.32427487
0.034890153 0.13483477 0.32536739
-0.026740579 0.14487045 0.32468557
0.034993041 0.14458479 0.32594094
-0.026619716 0.15534993 0.32472432
0.034401294 0.15415764 0.3254475
-0.026230816 0.16471691 0.32479414
0.034046218 0.16516306 0.32559699
-0.023015168 0.17444164 0.3257044
-0.018379094 0.17854653 0.32243121
0.02915246 0.17942287 0.32250565
0.033817895 0.17508799 0.32613891
-0.014184772 0.18178271 0.32532868
-0.0051483987 0.18372582 0.32503825
0.0045131836 0.18329161 0.32546645
0.014715938 0.18214661 0.32468551
0.024968846 0.18126033 0.32551238
-0.011255257 -0.030980065 0.30939174
-0.022222638 -0.02305305 0.30908829
-0.013105996 -0.028633699 0.307951
-0.0047380859 -0.024985837 0.3049109
0.0077435449 -0.02535294 0.30600309
0.016334129 -0.025213206 0.30579895
0.024833677 -0.02384649 0.30724213
-0.022546802 -0.013599229 0.30620688
-0.017297916 -0.015354566 0.30205712
0.0075867772 -0.019498795 0.30138358
0.015987575 -0.018973321 0.30083948
0.02753746 -0.016811892 0.30310857
0.030448142 -0.012245812 0.30544552
-0.023413723 -0.0047349087 0.30655798
-0.018936411 -0.0063483641 0.30082789
0.031298716 -0.0047905492 0.30423599
-0.022613226 0.005250562 0.30606803
-0.019042302 0.0056193471 0.30139986
0.032022253 0.0054470268 0.30485657
-0.023150574 0.014809516 0.3058565
-0.019305343 0.012193839 0.30186993
0.031810492 0.015227088 0.30523494
-0.023435766 0.02507057 0.30602238
-0.019407731 0.026054069 0.30091467
0.031642452 0.025021344 0.30497774
-0.023569144 0.035178997 0.30586198
-0.019068718 0.034188963 0.30084327
0.030844793 0.034835618 0.30576721
-0.022953302 0.044111207 0.30536476
-0.019525707 0.047276687 0.30099264
0.029981866 0.049028307 0.30114383
0.030524643 0.045143049 0.30495477
-0.023098083 0.054982904 0.30607525
-0.01872912 0.056038663 0.30055302
0.029907212 0.051475763 0.30038387
0.030807814 0.055374973 0.30477363
-0.023150513 0.066710524 0.30524817
-0.019553654 0.063446432 0.3007504
0.030822812 0.064869419 0.30514726
-0.024118882 0.07465589 0.30681416
-0.019691817 0.074369162 0.30062401
0.031084556 0.075171635 0.30524737
-0.02277247 0.085319221 0.30491892
-0.019404804 0.085470945 0.3003234
0.031495601 0.085052855 0.30471578
-0.022533758 0.093756646 0.30512193
-0.019361531 0.097053617 0.30125612
0.029557403 0.097822957 0.30416021
0.030681625 0.093073703 0.30534124
-0.023428837 0.10499682 0.3060582
-0.018761765 0.10465477 0.30093789
0.028284483 0.10492519 0.30506578
-0.031276315 0.11901057 0.30850279
-0.025003787 0.11538355 0.30462119
-0.018531173 0.11039248 0.30021816
0.027894085 0.11477392 0.30520055
-0.031541757 0.12542073 0.30769181
-0.025987541 0.12454616 0.3024343
0.027298497 0.1251114 0.30449033
-0.031213135 0.13483267 0.30752745
-0.02715176 0.13465467 0.30247924
0.02703579 0.13520409 0.30446312
-0.030816972 0.14172405 0.30864874
-0.027087808 0.14477009 0.30451101
0.027494101 0.14540726 0.30424306
-0.024030894 0.15526214 0.30441514
0.02660189 0.15442684 0.30440798
-0.023985766 0.16478625 0.3062917
-0.019551348 0.1650807 0.30055076
0.025410175 0.16385752 0.30419391
-0.021279003 0.17212816 0.30636093
-0.015330398 0.1762348 0.30444357
-0.0084911333 0.17951064 0.30081227
0.016712751 0.17963794 0.30274674
0.023150953 0.17553003 0.30418399
-0.010996923 0.18039122 0.30753791
-0.0044784648 0.18087643 0.30475178
0.0052119959 0.18058921 0.30469799
0.014538234 0.1802808 0.3055903
-0.015017919 -0.037115149 0.31465557
-0.0052813841 -0.035540409 0.31409776
0.0050925636 -0.035552938 0.31411162
0.015162993 -0.035718396 0.31399068
-0.026514646 -0.024646237 0.31277436
0.027943293 -0.02633111 0.31380448
-0.02817603 -0.015775222 0.31232554
0.029896796 -0.019055694 0.31089571
0.030935828 -0.015753292 0.31587106
-0.027971406 -0.0048628366 0.31242254
0.032601085 -0.0049895928 0.31569138
-0.027494891 0.0038228035 0.31167248
0.032843564 0.0049433792 0.31557438
-0.033751264 0.01467108 0.31711748
-0.028566254 0.014359431 0.31214187
0.032029971 0.014974049 0.31554133
-0.033875439 0.02506203 0.31722972
-0.028205367 0.025054924 0.31174746
0.031893473 0.024653971 0.31543472
-0.032912727 0.034512345 0.31689501
-0.028469216 0.036112774 0.31164688
0.03217208 0.035159398 0.31577399
-0.031955957 0.045710426 0.3181932
-0.028427357 0.044704501 0.31344977
0.032163158 0.045058701 0.31540805
-0.032754209 0.054782707 0.31779739
-0.027686 0.050982744 0.31263891
0.032194577 0.055010818 0.3154777
-0.032056771 0.063578181 0.31744501
-0.028371003 0.063922726 0.31237656
0.031452727 0.064979851 0.31500444
-0.032855645 0.075753532 0.31861219
-0.028683061 0.076188914 0.31348786
0.032618362 0.075066403 0.31550449
-0.032274678 0.086183369 0.31709701
-0.028601933 0.085334092 0.31272608
0.032834198 0.085157402 0.31539366
-0.033317819 0.095664918 0.31790903
-0.028042918 0.094696373 0.31234488
0.029754585 0.098337792 0.31263518
0.0311085 0.09393838 0.31580579
-0.040630385 0.10928309 0.31978035
-0.034530476 0.10511906 0.31660181
-0.027968675 0.10341443 0.31131372
0.029049642 0.10490722 0.31367558
0.0305156 0.1050849 0.31862885
-0.041154072 0.11428621 0.31921253
-0.034634475 0.11345454 0.31370628
0.02925081 0.11557874 0.31462294
0.030523214 0.11382458 0.31880322
-0.041150868 0.12355082 0.31944388
-0.037298586 0.1241736 0.31472868
0.028052952 0.12429465 0.31514505
-0.040062875 0.13000822 0.31860882
-0.036270801 0.13604607 0.31500742
0.027635502 0.13526599 0.31524503
-0.034478948 0.1444927 0.3156558
0.027136382 0.14507614 0.31499639
-0.033227764 0.15503637 0.31654882
-0.028884416 0.15733291 0.3115769
0.026165022 0.15422334 0.31512523
-0.0322663 0.16381021 0.31660885
-0.028408479 0.16660449 0.31275621
0.024609497 0.16478066 0.31546444
-0.024403837 0.17412171 0.31595099
-0.017531153 0.17825544 0.31430116
0.018762965 0.17960353 0.31520858
0.022653515 0.1745224 0.31518957
-0.013389315 0.18060336 0.31582776
-0.0053399191 0.18133934 0.31513658
0.0047584288 0.18062718 0.31497145
0.013536754 0.18066838 0.31468275
-0.038923204 0.10313168 0.32063019
0.028936708 0.12617771 0.32279408
-0.039153144 0.13917562 0.32024407
-0.03856793 0.14533709 0.32169238
-0.038117819 0.15419096 0.32167441
-0.036564045 0.16607499 0.32352427
0.018795788 0.1793718 0.32180634
