# .PCD v0.7 - Point Cloud Data file format
VERSION 0.7
FIELDS x y z
SIZE 4 4 4
TYPE F F F
COUNT 1 1 1
WIDTH 1367
HEIGHT 1
VIEWPOINT 0 0 0 1 0 0 0
POINTS 1367
DATA ascii
-0.16171369 0.020976046 0.4855468
-0.15962139 0.021642387 0.48571646
-0.1584681 0.022328161 0.48645774
-0.1563817 0.022990996 0.48662362
-0.15523037 0.023675615 0.48736367
-0.15314987 0.024334941 0.48752579
-0.15107331 0.02499195 0.48768541
-0.14900073 0.025646612 0.48784247
-0.14785525 0.026327729 0.48857874
-0.14670977 0.027008832 0.48931494
-0.14464489 0.027658848 0.48946694
-0.14350137 0.028338781 0.49020192
-0.14144251 0.028985292 0.49035022
-0.13938752 0.029629463 0.49049592
-0.13824794 0.030307079 0.49122837
-0.13619885 0.030947763 0.49137035
-0.13415363 0.031586103 0.49150977
-0.13211235 0.032222115 0.49164665
-0.13007507 0.032855794 0.49178103
-0.12894329 0.033528745 0.49250844
-0.12691185 0.034158915 0.49263906
-0.12488428 0.034786772 0.49276713
-0.1237565 0.035457376 0.49349204
0.26354504 0.20104294 0.61081445
-0.24612054 -0.013591863 0.45939109
-0.24388024 -0.012840381 0.45965609
-0.2426798 -0.0121266 0.46042767
-0.24147949 -0.01141285 0.46119919
-0.23924693 -0.010666026 0.46145913
-0.23804852 -0.0099534374 0.4622294
-0.23582205 -0.009210106 0.46248558
-0.23359939 -0.0084691439 0.46273917
-0.23240492 -0.00775888 0.46350691
-0.23121044 -0.0070486162 0.46427467
-0.22899565 -0.0063122883 0.46452332
-0.22780308 -0.0056032017 0.4652898
-0.22559425 -0.0048703756 0.46553463
-0.22338924 -0.0041399002 0.46577689
-0.22118816 -0.0034117382 0.46601662
-0.21899107 -0.0026859082 0.46625391
-0.21679792 -0.0019624326 0.46648863
-0.21561512 -0.0012591574 0.46724883
-0.21342787 -0.00053917617 0.4674798
-0.21224704 0.00016293675 0.46823874
-0.21106628 0.00086503476 0.46899766
-0.20888677 0.0015803576 0.46922353
-0.20671126 0.0022933502 0.46944693
-0.20553443 0.0029931236 0.47020334
-0.20435753 0.0036928821 0.47095975
-0.20218989 0.0044012181 0.47117808
-0.20101497 0.0050998293 0.47193322
-0.19984004 0.0057984255 0.47268838
-0.19768021 0.00650209 0.4729017
-0.1965073 0.007199524 0.47365558
-0.19435325 0.0078996755 0.47386506
-0.19220325 0.0085975137 0.47407207
-0.19103423 0.0092926081 0.47482342
-0.18889007 0.0099869445 0.47502664
-0.18772301 0.010680869 0.47577673
-0.18655595 0.011374809 0.47652683
-0.18441966 0.012064481 0.47672504
-0.18325457 0.012757258 0.47747388
-0.18112418 0.013443422 0.47766829
-0.17996106 0.014135037 0.47841588
-0.17879787 0.014826644 0.47916344
-0.17667529 0.015508132 0.47935277
-0.17551407 0.016198577 0.48009908
-0.17435291 0.016889015 0.48084542
-0.17319176 0.017579461 0.48159176
-0.1720306 0.018269898 0.48233807
-0.16991982 0.018944401 0.48251984
-0.16876057 0.019633677 0.48326489
-0.16760138 0.020322952 0.48400998
-0.16549841 0.020992784 0.48418674
-0.16434118 0.021680882 0.48493055
-0.16224405 0.022347221 0.48510346
-0.16015086 0.02301123 0.4852739
-0.15899757 0.023697004 0.48601517
-0.15691027 0.024357514 0.48618183
-0.15482697 0.025015693 0.48634598
-0.15367755 0.025699135 0.48708472
-0.15160009 0.026353819 0.48724508
-0.14952657 0.027006149 0.48740295
-0.14838108 0.027687266 0.48813918
-0.1463134 0.028336106 0.48829317
-0.14516982 0.029016053 0.48902816
-0.1431081 0.029661395 0.48917845
-0.14196655 0.030340172 0.48991215
-0.13991067 0.030982012 0.49005863
-0.13877109 0.031659625 0.49079108
-0.1367211 0.032297987 0.49093381
-0.1337665 0.032893576 0.49048296
-0.13263282 0.033567689 0.49121162
-0.13059458 0.034199029 0.49134675
-0.12946281 0.034871981 0.49207416
-0.12743053 0.035499819 0.49220553
-0.12630072 0.036171608 0.49293169
-0.24771324 -0.012200193 0.45943555
-0.24547014 -0.011449896 0.45970249
-0.24323091 -0.010701885 0.45996702
-0.24203053 -0.0099881347 0.46073854
-0.24083015 -0.0092743691 0.46151009
-0.23859873 -0.008531047 0.46176949
-0.23740026 -0.0078184437 0.46253979
-0.2351748 -0.0070786215 0.46279547
-0.23397836 -0.0063671954 0.46356449
-0.2317588 -0.0056308825 0.46381629
-0.23056421 -0.0049206037 0.46458408
-0.22835061 -0.0041877925 0.46483216
-0.22614083 -0.0034572985 0.46507776
-0.22393492 -0.0027291477 0.4653208
-0.22173294 -0.0020033177 0.46556127
-0.22054633 -0.0012977179 0.466324
-0.21835026 -0.00057538226 0.46656075
-0.21615812 0.00014461391 0.46679497
-0.21497533 0.00084788911 0.46755517
-0.21278915 0.0015643761 0.46778563
-0.21160838 0.0022664741 0.46854457
-0.21042761 0.0029685721 0.46930349
-0.20824912 0.003680408 0.46952882
-0.20607468 0.0043899138 0.46975175
-0.20489785 0.0050896723 0.47050813
-0.20372096 0.0057894457 0.47126454
-0.20155433 0.00649428 0.47148237
-0.20037946 0.0071928762 0.47223756
-0.19920453 0.0078914724 0.47299269
-0.19704577 0.0085916426 0.47320548
-0.19587281 0.0092890766 0.47395939
-0.19371983 0.0099857412 0.47416833
-0.19157085 0.01068007 0.47437483
-0.19040188 0.011375187 0.47512621
-0.18923286 0.012070289 0.47587758
-0.18709174 0.012759954 0.47607902
-0.18592468 0.013453901 0.47682914
-0.18378946 0.014140071 0.47702682
-0.18262431 0.014832841 0.47777566
-0.18145928 0.015525611 0.47852451
-0.17933187 0.016207132 0.47871712
-0.17816874 0.016898725 0.47946468
-0.17700562 0.017590333 0.4802123
-0.17488602 0.018267171 0.48039982
-0.1737248 0.018957617 0.48114619
-0.17256364 0.019648055 0.4818925
-0.17140248 0.020338492 0.48263881
-0.16929278 0.021009509 0.48282009
-0.16813353 0.021698784 0.48356515
-0.16697434 0.022388045 0.48431021
-0.16487244 0.023054389 0.48448646
-0.16371521 0.023742495 0.48523027
-0.16161916 0.024405347 0.4854027
-0.15952703 0.025065854 0.48557261
-0.15743884 0.025724033 0.48574001
-0.15535459 0.02637988 0.4859049
-0.15420523 0.027063321 0.48664367
-0.15212688 0.027715674 0.48680478
-0.15005246 0.028365687 0.48696336
-0.14890698 0.029046804 0.48769963
-0.14683834 0.029693311 0.48785436
-0.14569482 0.030373259 0.48858935
-0.14363214 0.031016275 0.48874038
-0.1424906 0.031695053 0.48947409
-0.14043388 0.032334566 0.48962131
-0.13929424 0.033012182 0.49035379
-0.13724336 0.033648204 0.49049726
-0.13610569 0.03432465 0.49122846
-0.13315329 0.034913249 0.49077657
-0.13201961 0.035587355 0.49150524
-0.12998244 0.036215223 0.49163988
-0.12794921 0.036840737 0.491772
-0.1268194 0.037512526 0.49249816
-0.24826613 -0.010770822 0.45897344
-0.24706182 -0.010054732 0.45974746
-0.24585745 -0.0093386117 0.46052155
-0.24361739 -0.0085929558 0.46078673
-0.2413812 -0.0078496467 0.46104947
-0.24018082 -0.0071358811 0.46182099
-0.23795041 -0.0063960534 0.46207991
-0.236752 -0.00568345 0.46285018
-0.23452762 -0.0049471296 0.46310535
-0.23230717 -0.0042131487 0.46335793
-0.23111263 -0.00350287 0.46412569
-0.22889802 -0.0027723908 0.46437454
-0.22770545 -0.0020632893 0.46514103
-0.2254968 -0.0013362896 0.46538612
-0.22329196 -0.00061161071 0.46562865
-0.22109112 0.00011071004 0.46586862
-0.21990439 0.00081630982 0.46663135
-0.21770939 0.0015351512 0.4668676
-0.21551833 0.002251653 0.46710131
-0.21433559 0.0029549133 0.4678615
-0.21215042 0.0036679134 0.46809146
-0.21096966 0.0043700114 0.46885037
-0.20978889 0.0050721094 0.46960932
-0.20761147 0.005780451 0.46983415
-0.20543811 0.0064864475 0.47005656
-0.20426127 0.007186221 0.47081295
-0.20308438 0.0078859795 0.47156936
-0.20091876 0.0085873343 0.47178671
-0.19974396 0.0092859305 0.47254184
-0.19856903 0.0099845417 0.47329697
-0.19641128 0.01068121 0.47350928
-0.19523832 0.011378644 0.47426316
-0.19308648 0.012071822 0.47447163
-0.19093856 0.012762664 0.47467762
-0.18976954 0.013457766 0.475429
-0.18860051 0.014152868 0.47618034
-0.18646047 0.014839046 0.47638127
-0.18529341 0.015532985 0.4771314
-0.1831592 0.016215654 0.47732857
-0.18199417 0.016908424 0.47807744
-0.18082902 0.017601201 0.47882628
-0.17966393 0.018293971 0.47957513
-0.17753956 0.018970821 0.47976595
-0.17637643 0.019662429 0.48051354
-0.1742579 0.020335773 0.48070058
-0.17309675 0.021026211 0.48144692
-0.17193553 0.021716649 0.48219326
-0.17077443 0.022407079 0.48293957
-0.16866574 0.023074608 0.48312032
-0.16750655 0.023763869 0.48386538
-0.16540369 0.024427889 0.48404238
-0.16424647 0.025115995 0.48478618
-0.16214952 0.025776522 0.48495939
-0.1600565 0.026434697 0.48513004
-0.15796742 0.027090551 0.48529819
-0.15588233 0.027744073 0.48546386
-0.15473291 0.028427515 0.48620263
-0.15265366 0.029077535 0.48636445
-0.15057835 0.029725224 0.48652384
-0.14850685 0.030370576 0.4866806
-0.14736333 0.031050516 0.48741558
-0.1452978 0.031692371 0.48756862
-0.14415625 0.032371148 0.48830232
-0.1430147 0.033049926 0.48903605
-0.14095703 0.033687115 0.48918402
-0.13981745 0.03436473 0.48991647
-0.13776562 0.034998428 0.49006072
-0.136628 0.035674874 0.49079192
-0.13458207 0.03630507 0.49093232
-0.13254008 0.036932923 0.49107021
-0.13140634 0.037607044 0.49179891
-0.12937024 0.038231395 0.49193299
-0.25090417 -0.0094028879 0.45951986
-0.24865529 -0.0086549036 0.45979086
-0.24641034 -0.0079092328 0.4600594
-0.24520609 -0.0071931574 0.46083346
-0.24400172 -0.0064770523 0.46160752
-0.24176463 -0.005736053 0.46187094
-0.23953149 -0.0049973931 0.46213192
-0.23833111 -0.0042836126 0.46290347
-0.23610374 -0.0035484638 0.46316057
-0.23388043 -0.0028156303 0.46341524
-0.23166099 -0.0020851288 0.46366733
-0.22944555 -0.0013569742 0.46391693
-0.22825298 -0.00064787269 0.46468344
-0.22706041 6.1228871e-05 0.46544993
-0.22383758 0.00079914927 0.46517253
-0.22264895 0.0015059114 0.46593651
-0.22044918 0.0022247378 0.466176
-0.21926251 0.0029303525 0.4669387
-0.21706858 0.0036456697 0.46717444
-0.21487859 0.0043586846 0.46740764
-0.21369585 0.0050619449 0.46816781
-0.2115117 0.0057714581 0.46839729
-0.21033093 0.0064735562 0.46915621
-0.20915017 0.0071756542 0.46991512
-0.20697388 0.0078805089 0.47013947
-0.20480153 0.0085830186 0.47036135
-0.2036247 0.0092827771 0.47111776
-0.20244774 0.0099825654 0.47187421
-0.20127091 0.010682324 0.47263059
-0.19910839 0.011379 0.47284612
-0.19793352 0.012077596 0.47360128
-0.19577685 0.012770778 0.47381309
-0.19460389 0.013468212 0.47456697
-0.192453 0.014157902 0.47477493
-0.19030622 0.014845243 0.47498041
-0.18913719 0.015540345 0.47573176
-0.18699619 0.016224198 0.47593346
-0.18582913 0.016918138 0.47668359
-0.18369409 0.017598474 0.4768815
-0.182529 0.018291244 0.47763035
-0.18136391 0.018984022 0.47837919
-0.18019882 0.019676792 0.47912803
-0.17903373 0.020369561 0.47987688
-0.17691037 0.021042917 0.48006722
-0.17479095 0.021713937 0.48025504
-0.17362979 0.022404375 0.48100135
-0.17246863 0.023094812 0.48174766
-0.17130747 0.023785243 0.48249397
-0.17014632 0.024475696 0.48324034
-0.1680387 0.025139708 0.48342058
-0.1668795 0.025828984 0.48416564
-0.16477773 0.026489502 0.48434213
-0.16267988 0.027147697 0.48451605
-0.16058597 0.027803555 0.48468748
-0.15849599 0.028457077 0.4848564
-0.15734467 0.029141696 0.48559642
-0.15526059 0.029791716 0.48576155
-0.15318045 0.030439412 0.48592415
-0.15110418 0.031084761 0.48608425
-0.14903179 0.031727791 0.48624179
-0.14788827 0.032407731 0.48697677
-0.14674476 0.033087678 0.48771176
-0.14468029 0.033726037 0.48786429
-0.14353874 0.034404814 0.48859802
-0.14148018 0.035039671 0.48874673
-0.1403406 0.035717286 0.48947918
-0.13828787 0.03634866 0.48962417
-0.13715026 0.037025105 0.49035537
-0.13601264 0.037701543 0.49108657
-0.13306054 0.038278498 0.49063519
-0.1319268 0.038952619 0.49136385
-0.25250229 -0.0079972632 0.45955974
-0.25025067 -0.007250445 0.45983282
-0.24904236 -0.0065320004 0.46060941
-0.24783412 -0.0058135707 0.46138597
-0.24559018 -0.0050714202 0.46165395
-0.2433503 -0.0043315832 0.46191946
-0.24111423 -0.0035940707 0.46218237
-0.23888215 -0.0028588902 0.46244282
-0.23768178 -0.0021451395 0.46321434
-0.23545548 -0.0014134925 0.46347097
-0.23323318 -0.00068411604 0.46372515
-0.23101488 4.2868778e-05 0.46397671
-0.22880045 0.00076752901 0.4642258
-0.22760794 0.0014766306 0.46499231
-0.22539935 0.0021978263 0.46523765
-0.22319469 0.0029166639 0.46548042
-0.22200605 0.0036234111 0.46624437
-0.2198073 0.004338773 0.46648332
-0.21862063 0.0050443728 0.46724606
-0.21642777 0.0057562031 0.46748129
-0.21423885 0.0064657088 0.46771398
-0.21305606 0.007168984 0.46847418
-0.21187332 0.0078722592 0.46923438
-0.20969221 0.0085770935 0.46946204
-0.20851144 0.0092792064 0.47022095
-0.20733067 0.0099813044 0.4709799
-0.20515737 0.010681488 0.47120246
-0.20298806 0.011379341 0.47142258
-0.20181116 0.012079099 0.472179
-0.19964775 0.01277345 0.4723953
-0.19847283 0.013472047 0.47315043
-0.19729796 0.014170658 0.47390559
-0.19514236 0.014860338 0.47411689
-0.19299063 0.015547704 0.47432557
-0.1908429 0.016232712 0.47453183
-0.18967387 0.016927814 0.47528318
-0.18753204 0.017609335 0.47548562
-0.18636498 0.018303275 0.47623575
-0.18519792 0.0189972 0.47698584
-0.18306389 0.019674065 0.47718325
-0.1818988 0.020366842 0.47793213
-0.18073365 0.021059612 0.47868094
-0.17956862 0.021752382 0.47942981
-0.17840353 0.022445152 0.48017862
-0.17628124 0.023115013 0.48036847
-0.17511812 0.023806613 0.48111606
-0.17300174 0.024472976 0.48130208
-0.17184052 0.025163407 0.48204842
-0.17067936 0.025853859 0.48279473
-0.16857085 0.02651554 0.48297575
-0.16741166 0.027204815 0.48372081
-0.16530904 0.027863009 0.48389804
-0.16415176 0.028551122 0.48464188
-0.16111544 0.029172398 0.48424491
-0.15996215 0.029858172 0.48498622
-0.15787324 0.030508215 0.4851546
-0.15578827 0.031155903 0.48532048
-0.15370718 0.031801276 0.48548386
-0.15163007 0.032444298 0.4856447
-0.15048459 0.033125415 0.48638096
-0.14841327 0.033764943 0.48653796
-0.14726976 0.034444891 0.48727295
-0.1452044 0.035080917 0.48742625
-0.14406285 0.035759695 0.48815995
-0.1429213 0.036438473 0.48889366
-0.14086375 0.037069835 0.48904189
-0.13972417 0.03774745 0.48977435
-0.13767251 0.038375322 0.48991883
-0.1365349 0.03905176 0.49065003
-0.13448915 0.039676145 0.49079069
-0.13244727 0.040298186 0.4909288
-0.25305787 -0.0065609105 0.45909536
-0.25184771 -0.0058413185 0.4598732
-0.25063744 -0.0051217116 0.46065107
-0.2483888 -0.0043795425 0.46092233
-0.24718055 -0.0036611129 0.46169892
-0.24493769 -0.0029224418 0.46196637
-0.24269888 -0.0021860991 0.46223137
-0.24046388 -0.0014521033 0.46249378
-0.23823288 -0.00072042458 0.46275371
-0.23600569 8.9053065e-06 0.46301109
-0.23480722 0.00072153844 0.46378139
-0.232586 0.0014473535 0.46403503
-0.23036876 0.0021708664 0.46428609
-0.22815534 0.0028920397 0.46453467
-0.22696277 0.0036011562 0.46530119
-0.22475538 0.0043188278 0.46554601
-0.22255173 0.0050341561 0.46578825
-0.22136304 0.005740948 0.46655223
-0.21916541 0.0064527933 0.46679071
-0.21797875 0.0071583781 0.46755341
-0.21679208 0.0078639928 0.46831611
-0.2146022 0.0085711591 0.46854958
-0.21241626 0.0092760231 0.46878052
-0.21123359 0.0099792834 0.46954069
-0.21005079 0.010682559 0.47030088
-0.20787272 0.011382744 0.47052678
-0.20669195 0.012084857 0.47128573
-0.20451972 0.012781531 0.47150779
-0.20334086 0.013482466 0.47226545
-0.20117459 0.014175655 0.47248381
-0.19999775 0.014875429 0.47324023
-0.19783732 0.015565116 0.47345474
-0.19568083 0.016252464 0.47366679
-0.19450793 0.016949913 0.4744207
-0.19235721 0.017633755 0.47462887
-0.19021055 0.018315291 0.47483459
-0.18904153 0.019010393 0.47558597
-0.18690071 0.01968842 0.47578791
-0.18573365 0.020382345 0.476538
-0.18456659 0.021076292 0.4772881
-0.18243363 0.021749655 0.47748503
-0.18126854 0.022442425 0.47823387
-0.18010351 0.023135195 0.47898272
-0.17893836 0.023827964 0.47973156
-0.17777327 0.024520742 0.4804804
-0.17660818 0.025213512 0.48122928
-0.17448899 0.025878709 0.48141733
-0.17332581 0.026570316 0.48216489
-0.1712124 0.027232016 0.48234919
-0.17005125 0.027922446 0.4830955
-0.16794381 0.028580647 0.48327598
-0.16678461 0.029269915 0.48402104
-0.16468301 0.029924622 0.4841978
-0.16258535 0.030576998 0.48437199
-0.16049162 0.031227022 0.48454365
-0.15840182 0.031874731 0.48471281
-0.15631589 0.032520097 0.48487943
-0.15516648 0.033203539 0.4856182
-0.15308651 0.033845402 0.48578104
-0.15101048 0.034484945 0.48594141
-0.14893827 0.035122149 0.48609915
-0.14779469 0.035802096 0.48683414
-0.14572844 0.036435798 0.48698819
-0.14458689 0.037114576 0.48772189
-0.14344534 0.037793353 0.48845562
-0.1413869 0.038422383 0.48860461
-0.14024732 0.039099999 0.48933706
-0.13819477 0.039725553 0.48948228
-0.13705716 0.040401991 0.49021348
-0.25465873 -0.0051483046 0.45913303
-0.25240329 -0.0044049583 0.45940879
-0.25119302 -0.0036853515 0.46018666
-0.24998286 -0.0029657595 0.4609645
-0.24773523 -0.0022270847 0.46123528
-0.24652705 -0.0015086699 0.46201184
-0.2442852 -0.0007734783 0.46227881
-0.2420474 -4.0622428e-05 0.46254331
-0.23981354 0.00068987161 0.46280518
-0.23758355 0.001418056 0.46306464
-0.23638317 0.0021318216 0.46383616
-0.23415896 0.0028565098 0.46409181
-0.23193881 0.0035788529 0.46434492
-0.22972259 0.0042988714 0.46459547
-0.2275103 0.0050165653 0.4648436
-0.22631773 0.005725652 0.46561006
-0.22411135 0.0064398292 0.46585438
-0.22292075 0.0071477685 0.46661961
-0.22072014 0.0078584626 0.46686009
-0.21953151 0.0085652247 0.4676241
-0.21733686 0.0092724133 0.46786076
-0.21615019 0.0099779982 0.46862346
-0.21496353 0.010683613 0.46938619
-0.21277669 0.011386123 0.46961787
-0.21059379 0.012086337 0.46984705
-0.20941105 0.012789598 0.47060725
-0.207234 0.013486296 0.47083265
-0.20605323 0.014188394 0.47159156
-0.20487246 0.014890492 0.47235051
-0.20171484 0.015572438 0.47203222
-0.20053801 0.016272211 0.4727886
-0.19837674 0.016959567 0.47300389
-0.19720182 0.017658163 0.47375906
-0.1950464 0.018342039 0.47397059
-0.19387344 0.019039473 0.4747245
-0.19172379 0.019719828 0.47493216
-0.18957821 0.020397855 0.47513738
-0.18743649 0.021073565 0.47534007
-0.18626943 0.02176749 0.47609016
-0.18510237 0.022461437 0.47684029
-0.18393531 0.023155376 0.47759038
-0.18276826 0.023849316 0.47834048
-0.18063834 0.024518007 0.47853562
-0.17947325 0.025210777 0.4792845
-0.17830816 0.025903555 0.48003334
-0.17714307 0.026596325 0.48078218
-0.17597798 0.027289094 0.48153102
-0.1738598 0.027950797 0.48171857
-0.17174551 0.028610179 0.48190358
-0.17058435 0.02930061 0.48264989
-0.16847602 0.029956479 0.48283115
-0.16731676 0.030645747 0.48357621
-0.16521427 0.031298123 0.48375371
-0.16405705 0.031986237 0.48449752
-0.16102108 0.032595865 0.48410109
-0.15986773 0.033281639 0.48484236
-0.15777901 0.033925846 0.48501101
-0.15569422 0.034567732 0.48517713
-0.1536133 0.035207272 0.48534074
-0.15153632 0.035844482 0.48550186
-0.14946321 0.036479354 0.48566034
-0.14831969 0.037159301 0.48639533
-0.14625248 0.037790671 0.48655012
-0.14511093 0.038469449 0.48728386
-0.14396939 0.039148226 0.48801756
-0.14191005 0.039774939 0.48816732
-0.14077052 0.040452555 0.48889977
-0.13871703 0.041075777 0.48904574
-0.25626138 -0.0037310347 0.45916915
-0.25504729 -0.0030091032 0.45994952
-0.2527909 -0.0022680815 0.46022609
-0.25053844 -0.0015293993 0.46050009
-0.24932823 -0.00080980733 0.46127793
-0.24708173 -7.4641779e-05 0.46154818
-0.24587342 0.00064380281 0.4623248
-0.2436327 0.0013754927 0.46259126
-0.24139592 0.0021048393 0.46285522
-0.23916313 0.002831839 0.46311662
-0.23693427 0.003556544 0.46337554
-0.23573384 0.0042703096 0.46414709
-0.2335107 0.004991496 0.4644022
-0.23129168 0.0057103299 0.4646548
-0.22907647 0.0064268615 0.46490487
-0.22788194 0.0071371403 0.46567261
-0.22567269 0.0078501552 0.46591893
-0.22448012 0.0085592717 0.46668544
-0.22227672 0.0092687849 0.46692798
-0.22108611 0.0099767242 0.46769324
-0.21888861 0.010682739 0.46793193
-0.21769992 0.011389516 0.46869591
-0.21550831 0.012092041 0.46893081
-0.21432158 0.012797626 0.46969354
-0.21213582 0.013496671 0.46992475
-0.20995399 0.014193362 0.47015336
-0.20877126 0.014896637 0.47091356
-0.20758852 0.015599897 0.47167376
-0.2054145 0.016291924 0.47189739
-0.20324442 0.016981624 0.47211844
-0.20107827 0.017668994 0.47233704
-0.19990143 0.018368753 0.47309342
-0.19774118 0.019052621 0.47330821
-0.19558486 0.019734165 0.47352049
-0.1944119 0.020431599 0.4742744
-0.19226143 0.021109629 0.4744828
-0.19011489 0.021785324 0.4746888
-0.18894586 0.022480441 0.47544017
-0.18680522 0.023152627 0.47564235
-0.18563816 0.023846574 0.47639245
-0.1844711 0.024540514 0.47714254
-0.18330404 0.025234453 0.47789267
-0.18213698 0.025928393 0.47864279
-0.18000814 0.02659359 0.4788374
-0.17884305 0.027286367 0.47958627
-0.17767796 0.027979137 0.48033509
-0.17651287 0.028671907 0.48108393
-0.17534778 0.029364677 0.48183277
-0.17323062 0.030022893 0.48201984
-0.1711174 0.030678766 0.48220435
-0.16995624 0.031369202 0.48295066
-0.16784897 0.032021571 0.48313138
-0.16668972 0.032710854 0.48387647
-0.1645883 0.033359744 0.48405346
-0.16249081 0.034006275 0.48422787
-0.1603972 0.03465049 0.48439977
-0.15830758 0.035292365 0.48456916
-0.1571562 0.035976976 0.48530921
-0.15507242 0.036615361 0.48547485
-0.15299264 0.037251405 0.48563793
-0.15091673 0.037885122 0.48579851
-0.14884463 0.038516514 0.48595652
-0.14770111 0.039196447 0.4866915
-0.14563504 0.039824329 0.48684579
-0.14449343 0.040503107 0.48757952
-0.14243326 0.041127488 0.48773
-0.14037696 0.041749548 0.48787799
-0.13923928 0.042425994 0.48860919
-0.25681874 -0.0022900254 0.45870325
-0.25560459 -0.0015680939 0.45948362
-0.25439045 -0.00084614754 0.460264
-0.2531763 -0.00012423098 0.46104434
-0.25092301 0.00061212666 0.46131915
-0.24867359 0.0013461374 0.46159139
-0.2464281 0.0020778384 0.46186116
-0.24521992 0.0027962681 0.46263775
-0.24298021 0.0035244487 0.46290368
-0.24074456 0.0042502861 0.46316716
-0.23851272 0.0049738362 0.46342802
-0.23628494 0.0056950245 0.46368644
-0.23406091 0.0064138789 0.46394232
-0.23286244 0.0071264822 0.46471259
-0.23064443 0.0078418441 0.46496472
-0.22843036 0.008554874 0.46521425
-0.22723582 0.0092651378 0.46598199
-0.22604129 0.0099754017 0.46674976
-0.22383508 0.01068376 0.46699432
-0.22264251 0.011392862 0.4677608
-0.22044215 0.012097726 0.46800157
-0.2182456 0.012800269 0.46823981
-0.21705696 0.013507031 0.46900377
-0.21486637 0.014206046 0.46923819
-0.21367976 0.014911661 0.47000089
-0.21149501 0.015607189 0.47023156
-0.21031031 0.016311627 0.47099304
-0.20813152 0.017003661 0.47121993
-0.20694873 0.017706936 0.47198009
-0.20477584 0.018395461 0.47220322
-0.20260677 0.019081667 0.47242376
-0.20044169 0.019765535 0.47264186
-0.19828054 0.020447072 0.47285739
-0.19710562 0.021145683 0.47361252
-0.19495043 0.021823725 0.47382429
-0.19377747 0.022521159 0.47457817
-0.19065157 0.023172801 0.47424021
-0.18948254 0.023867918 0.47499159
-0.18831351 0.024563005 0.47574294
-0.18617395 0.025231719 0.47594461
-0.18500689 0.025925659 0.47669473
-0.18383983 0.026619598 0.47744483
-0.18267271 0.027313538 0.47819492
-0.18150571 0.02800747 0.47894505
-0.17937788 0.028669188 0.47913918
-0.17821285 0.029361958 0.47988802
-0.1770477 0.030054728 0.48063686
-0.17588267 0.030747497 0.48138568
-0.17471752 0.031440273 0.48213455
-0.17260149 0.032094974 0.48232108
-0.17048934 0.032747358 0.48250508
-0.16932818 0.033437796 0.48325139
-0.16722193 0.034086686 0.48343164
-0.16606268 0.034775961 0.48417673
-0.16396233 0.035421342 0.48435318
-0.16186592 0.036064386 0.48452711
-0.15977332 0.036705099 0.4846985
-0.15768477 0.037343495 0.48486739
-0.15653345 0.038028099 0.48560742
-0.15445074 0.038662996 0.48577252
-0.15237197 0.039295547 0.48593512
-0.15029714 0.039925776 0.48609522
-0.14822611 0.040553652 0.4862527
-0.14615908 0.04117921 0.48640776
-0.14501753 0.041857988 0.48714146
-0.14295641 0.042480044 0.48729271
-0.14181682 0.043157659 0.48802516
-0.1397616 0.043776218 0.48817265
-0.25842413 -0.00086575188 0.45873711
-0.25720802 -0.00014265813 0.45951873
-0.25494787 0.00059486181 0.4597981
-0.25373372 0.0013167784 0.46057847
-0.25251958 0.0020387098 0.46135882
-0.25026736 0.0027715582 0.46163312
-0.24801895 0.0035021044 0.46190485
-0.2457746 0.0042302962 0.46217409
-0.24456629 0.0049487259 0.46295068
-0.24129745 0.0056796651 0.46270499
-0.24009308 0.0063957851 0.46347907
-0.23786238 0.0071158037 0.46373945
-0.23563561 0.0078334976 0.46399733
-0.23341265 0.00854888 0.46425271
-0.23221418 0.0092614833 0.46502301
-0.22999725 0.009973336 0.4652746
-0.22778419 0.010682879 0.46552363
-0.22658965 0.011393143 0.4662914
-0.22438249 0.012099169 0.4665367
-0.22318998 0.012808271 0.46730319
-0.22199741 0.013517372 0.4680697
-0.21979806 0.014218749 0.46830997
-0.21760264 0.014917776 0.46854767
-0.21641406 0.015624538 0.46931162
-0.21422455 0.016320081 0.46954551
-0.21303782 0.017025666 0.47030821
-0.21085414 0.017717723 0.47053844
-0.20867446 0.018407425 0.47076607
-0.20749173 0.0191107 0.47152624
-0.20531794 0.0197969 0.47175011
-0.20314798 0.020480782 0.47197139
-0.20098194 0.021162318 0.47219023
-0.19980511 0.021862091 0.47294664
-0.19764504 0.022540141 0.47316167
-0.19647011 0.023238737 0.4739168
-0.19431594 0.023913285 0.4741281
-0.19216558 0.024585482 0.47433677
-0.19001922 0.025255388 0.47454301
-0.18885019 0.025950475 0.47529435
-0.18768117 0.026645584 0.47604573
-0.18651214 0.027340686 0.47679707
-0.18437561 0.028004736 0.47699699
-0.18320855 0.028698675 0.47774711
-0.1820415 0.029392608 0.47849721
-0.18087444 0.030086547 0.4792473
-0.17970738 0.030780479 0.47999743
-0.17758259 0.031437539 0.48018977
-0.1764175 0.032130308 0.48093861
-0.17525241 0.032823086 0.48168746
-0.17313549 0.033475462 0.48187473
-0.17197236 0.03416707 0.48262236
-0.16986123 0.034815952 0.48280582
-0.16870007 0.03550639 0.48355216
-0.16659483 0.0361518 0.4837319
-0.16543564 0.036841068 0.48447695
-0.16333637 0.037482947 0.48465291
-0.16124102 0.038122505 0.48482633
-0.1591495 0.038759731 0.48499724
-0.15706202 0.039394617 0.4851656
-0.15591058 0.040079229 0.48590562
-0.15382901 0.040710617 0.48607025
-0.15082297 0.041285306 0.48565567
-0.14967749 0.041966408 0.48639187
-0.14760754 0.042590812 0.48654887
-0.14554164 0.043212868 0.48670343
-0.14440009 0.043891639 0.48743713
-0.14234003 0.044510208 0.48758787
-0.25898239 0.00057758205 0.45827046
-0.25776634 0.0013006758 0.45905209
-0.25655016 0.0020237695 0.45983371
-0.25429115 0.0027578026 0.46011254
-0.253077 0.0034797341 0.46089292
-0.25186285 0.0042016506 0.46167329
-0.24961159 0.0049310196 0.46194708
-0.24736437 0.0056580491 0.46221828
-0.24512097 0.0063827541 0.46248704
-0.24288151 0.0071051158 0.46275321
-0.24064597 0.0078251567 0.46301696
-0.2394416 0.0085412618 0.46379098
-0.23618671 0.0092582051 0.46353671
-0.23498628 0.0099719707 0.46430829
-0.23276439 0.010683859 0.46456313
-0.23156598 0.011396447 0.4653334
-0.22935006 0.01210482 0.46558449
-0.22713807 0.012810869 0.46583304
-0.22594354 0.013521133 0.46660078
-0.22373745 0.01422368 0.46684557
-0.22254488 0.014932781 0.46761206
-0.22135231 0.015641883 0.46837857
-0.21915409 0.016339744 0.4686183
-0.21695969 0.017035283 0.46885553
-0.21577105 0.01774206 0.46961948
-0.21358261 0.018434087 0.46985286
-0.21239594 0.019139702 0.4706156
-0.21021333 0.019828256 0.47084525
-0.20803472 0.020514464 0.47107241
-0.20585999 0.02119834 0.47129703
-0.20467922 0.021900453 0.47205594
-0.20251033 0.022580825 0.47227672
-0.20034537 0.023258867 0.47249505
-0.1981844 0.023934592 0.47271085
-0.19700953 0.024633188 0.47346598
-0.19485441 0.025305411 0.47367799
-0.19368145 0.026002845 0.4744319
-0.19153216 0.026671562 0.47464004
-0.18938687 0.027337937 0.47484577
-0.18821785 0.028033046 0.47559714
-0.18704882 0.028728148 0.47634849
-0.1858798 0.02942325 0.47709987
-0.18374428 0.03008382 0.47729927
-0.18257728 0.030777752 0.47804937
-0.18141022 0.031471692 0.47879949
-0.18024316 0.032165624 0.47954959
-0.17907611 0.032859564 0.48029968
-0.17695239 0.033513121 0.48049155
-0.1757873 0.034205899 0.48124039
-0.17462215 0.034898669 0.48198923
-0.17345712 0.035591438 0.48273808
-0.17134318 0.036239166 0.4829236
-0.16923311 0.036884546 0.48310658
-0.16807196 0.037574999 0.48385289
-0.16596785 0.038216893 0.48403212
-0.1648086 0.038906168 0.48477718
-0.1627104 0.039544553 0.48495266
-0.16155311 0.040232658 0.48569646
-0.15852568 0.040814348 0.48529592
-0.15643916 0.041445747 0.48546383
-0.15528783 0.042130351 0.48620382
-0.15320727 0.042758252 0.48636794
-0.15113065 0.043383814 0.4865295
-0.14905789 0.044007048 0.48668858
-0.14698902 0.04462795 0.48684505
-0.1458455 0.04530789 0.48758003
-0.14378259 0.045925304 0.4877328
-0.25954065 0.002020916 0.45780382
-0.25832459 0.0027440097 0.45858544
-0.25710848 0.0034671035 0.45936707
-0.25589237 0.0041902121 0.46014872
-0.25363442 0.0049207434 0.46042702
-0.25242028 0.00564266 0.46120736
-0.25016811 0.0063697118 0.46148193
-0.24791995 0.0070944168 0.4617539
-0.24670973 0.0078140087 0.46253175
-0.24446747 0.0085352045 0.46279997
-0.24222896 0.0092540942 0.46306565
-0.2399945 0.0099706259 0.46332887
-0.23673782 0.010682927 0.46307608
-0.23553738 0.011396693 0.46384764
-0.2333146 0.012106257 0.46410325
-0.23211613 0.012818845 0.46487352
-0.22989938 0.013524886 0.46512535
-0.22768643 0.014228603 0.46537465
-0.2264919 0.014938867 0.46614239
-0.22529742 0.015649131 0.46691015
-0.22309241 0.016348191 0.46715444
-0.22189984 0.017057292 0.46792096
-0.21970066 0.017752828 0.46816143
-0.21750543 0.018446043 0.46839938
-0.21631673 0.01915282 0.46916339
-0.21412739 0.0198425 0.46939752
-0.21294072 0.020548115 0.47016025
-0.21075723 0.021234345 0.47039065
-0.20857772 0.021918228 0.47061852
-0.20739493 0.022621488 0.47137871
-0.20522127 0.023301892 0.47160286
-0.2040405 0.02400399 0.47236177
-0.20088568 0.024655657 0.47204345
-0.19970879 0.02535543 0.47279987
-0.1975489 0.026027646 0.47301513
-0.19539288 0.026697537 0.47322789
-0.19421992 0.027394971 0.4739818
-0.19206974 0.028061356 0.47419071
-0.18992355 0.028725414 0.47439718
-0.18875453 0.029420523 0.47514856
-0.1875855 0.030115625 0.4758999
-0.18641648 0.030810727 0.47665128
-0.18524745 0.031505845 0.47740266
-0.18407843 0.032200947 0.47815403
-0.18194601 0.032856837 0.47835162
-0.18077895 0.033550769 0.47910175
-0.17961189 0.034244709 0.47985184
-0.17844483 0.034938648 0.48060197
-0.17632213 0.035588712 0.48079333
-0.17515704 0.036281481 0.48154214
-0.17399195 0.036974251 0.48229101
-0.17282686 0.037667021 0.48303983
-0.17071399 0.038311262 0.48322487
-0.168605 0.038953163 0.48340735
-0.16744384 0.039643593 0.48415366
-0.16534081 0.040282 0.48433235
-0.16418156 0.040971268 0.48507741
-0.16208443 0.041606165 0.48525238
-0.16092715 0.042294271 0.48599619
-0.15790179 0.042868972 0.48559466
-0.15581641 0.04349687 0.48576203
-0.15373489 0.044122446 0.4859269
-0.15258554 0.044805881 0.48666564
-0.14958379 0.045366585 0.48624903
-0.1484383 0.046047695 0.48698527
-0.14637044 0.046665095 0.48714122
-0.26114967 0.0034544766 0.45783469
-0.25888285 0.004187366 0.45811877
-0.2576668 0.0049104597 0.45890042
-0.25645068 0.0056335684 0.45968205
-0.25419173 0.0063617527 0.45996112
-0.25297764 0.0070836693 0.46074149
-0.25072464 0.0078083891 0.4610168
-0.24847552 0.008530762 0.4612895
-0.24726531 0.009250354 0.46206734
-0.24502215 0.0099692252 0.46233633
-0.2427828 0.010685783 0.46260279
-0.24054739 0.011400005 0.46286672
-0.23831597 0.012111872 0.46312809
-0.23608848 0.012821415 0.46338701
-0.23488805 0.013535196 0.46415856
-0.23266634 0.014241235 0.46441364
-0.23044863 0.014944952 0.46466625
-0.22823486 0.015646344 0.46491629
-0.22704032 0.016356608 0.46568403
-0.22584578 0.017066872 0.46645179
-0.22363988 0.0177636 0.46669683
-0.22244731 0.018472701 0.46746334
-0.2212548 0.019181788 0.46822983
-0.2190567 0.019873852 0.46846983
-0.21686241 0.020563573 0.46870726
-0.21567377 0.02127032 0.46947125
-0.21348551 0.021956543 0.4697049
-0.21229884 0.022662142 0.4704676
-0.21011636 0.023344878 0.47069752
-0.20793793 0.024025252 0.47092488
-0.20576337 0.024703324 0.47114974
-0.20458254 0.025405422 0.47190869
-0.20241389 0.02607996 0.4721297
-0.20024911 0.026752206 0.47234824
-0.19907221 0.027451964 0.47310469
-0.19691333 0.028120708 0.47331944
-0.19475839 0.028787097 0.47353169
-0.19358549 0.029484531 0.47428557
-0.19143632 0.03014743 0.47449401
-0.18929121 0.030807992 0.47469997
-0.18812218 0.031503096 0.47545132
-0.18695316 0.032198198 0.4762027
-0.18578413 0.032893315 0.47695407
-0.18461511 0.033588417 0.47770545
-0.18248174 0.034241982 0.47790381
-0.18131468 0.034935914 0.47865391
-0.18014762 0.035629854 0.479404
-0.17898056 0.036323793 0.48015413
-0.17685702 0.036971532 0.48034623
-0.17569193 0.037664302 0.48109508
-0.17452684 0.038357072 0.48184392
-0.17336175 0.039049841 0.48259276
-0.17219666 0.039742619 0.4833416
-0.17008486 0.040383358 0.48352611
-0.16797695 0.041021749 0.48370808
-0.16681573 0.041712195 0.48445442
-0.16471377 0.0423471 0.48463261
-0.16355452 0.043036375 0.48537767
-0.16145846 0.043667778 0.4855521
-0.15936622 0.044296853 0.485724
-0.15727791 0.044923581 0.48589337
-0.1551936 0.045547999 0.48606023
-0.15311322 0.046170067 0.48622456
-0.1519638 0.046853509 0.48696336
-0.14896414 0.047407232 0.48654571
-0.26065728 0.0049076062 0.45687053
-0.25944117 0.0056306999 0.45765212
-0.25822505 0.0063537937 0.45843378
-0.2559633 0.0070808381 0.45871487
-0.25474915 0.0078027695 0.45949522
-0.253535 0.0085246861 0.46027556
-0.25128111 0.0092470888 0.46055165
-0.24903116 0.0099671297 0.46082512
-0.24782094 0.010686722 0.46160296
-0.24557683 0.011403261 0.46187267
-0.24333653 0.012117494 0.4621399
-0.24110028 0.012829384 0.46240458
-0.23886797 0.013538927 0.46266672
-0.23663953 0.014246138 0.46292639
-0.23543915 0.014959918 0.46369794
-0.23321649 0.015663626 0.46395376
-0.23099789 0.016365018 0.46420711
-0.22878322 0.017064078 0.4644579
-0.22758874 0.017774342 0.46522567
-0.22537991 0.018469892 0.46547273
-0.22418734 0.019178994 0.46623921
-0.22299477 0.019888096 0.4670057
-0.2218022 0.020597182 0.46777222
-0.21960327 0.021286914 0.46801296
-0.21740809 0.021974318 0.46825114
-0.21621951 0.022681065 0.46901512
-0.21403024 0.023364963 0.46924952
-0.21284363 0.024070563 0.47001225
-0.21066031 0.024750967 0.47024292
-0.20848092 0.025429023 0.47047102
-0.20729813 0.026132284 0.47123119
-0.20512465 0.026806861 0.47145557
-0.20394388 0.027508959 0.47221449
-0.20177618 0.028180018 0.47243503
-0.19961247 0.028848747 0.47265306
-0.19745275 0.029515158 0.47286859
-0.19627783 0.030213755 0.47362375
-0.19412395 0.030876657 0.4738355
-0.19295105 0.0315741 0.47458938
-0.1908029 0.032233495 0.47479728
-0.18865886 0.032890558 0.47500274
-0.18748984 0.03358566 0.47575411
-0.18632081 0.034280777 0.47650549
-0.18515179 0.034975879 0.47725686
-0.18301752 0.035627119 0.47745597
-0.18185052 0.036321051 0.47820607
-0.18068346 0.037014991 0.47895619
-0.17951635 0.037708931 0.47970632
-0.17739186 0.038354337 0.47989914
-0.17622682 0.039047107 0.48064801
-0.17506167 0.039739877 0.48139682
-0.17389664 0.040432647 0.4821457
-0.17178199 0.041072231 0.4823322
-0.1706188 0.041763838 0.48307979
-0.16850999 0.042399906 0.48326251
-0.16734883 0.043090351 0.48400882
-0.16618767 0.043780781 0.48475516
-0.16408673 0.044412199 0.48493287
-0.16198972 0.045041278 0.48510805
-0.16083243 0.045729391 0.48585185
-0.15780744 0.046292432 0.4854508
-0.15572217 0.046914518 0.48561841
-0.15457079 0.047599122 0.48635843
-0.15249142 0.048217703 0.48652229
-0.26226804 0.006345816 0.45689988
-0.25999948 0.0070740338 0.45718548
-0.25878331 0.0077971276 0.4579671
-0.25756726 0.0085202362 0.45874876
-0.25530657 0.0092437789 0.45902932
-0.25409243 0.0099656954 0.45980969
-0.25183758 0.010685766 0.46008649
-0.24958667 0.011403482 0.46036074
-0.24837646 0.012123074 0.46113858
-0.24613151 0.012837289 0.46140906
-0.2449232 0.013555733 0.46218565
-0.24165317 0.014258748 0.46194246
-0.24044886 0.014974823 0.46271652
-0.23719063 0.015670845 0.46246573
-0.2359902 0.016384626 0.46323732
-0.2337667 0.017086009 0.46349388
-0.23154721 0.017785069 0.46374801
-0.22933158 0.018481804 0.46399954
-0.22813711 0.019192068 0.46476731
-0.22694257 0.019902332 0.46553504
-0.22473481 0.020594396 0.4657816
-0.2235423 0.021303497 0.46654812
-0.22234973 0.022012584 0.4673146
-0.22014984 0.022699991 0.46755609
-0.21895924 0.023407916 0.46832135
-0.21676514 0.024091803 0.468559
-0.21457502 0.024773384 0.46879417
-0.21338841 0.025478983 0.4695569
-0.21220168 0.026184583 0.4703196
-0.21001944 0.0268615 0.47054976
-0.20784113 0.027536048 0.47077736
-0.20665833 0.028239323 0.47153756
-0.20448598 0.028910398 0.47176141
-0.20330516 0.029612496 0.47252032
-0.20015278 0.030245537 0.4722015
-0.19897589 0.030945318 0.47295791
-0.19681725 0.03160822 0.4731729
-0.19564232 0.032306824 0.47392803
-0.19348952 0.032966234 0.4741393
-0.1923165 0.033663675 0.47489318
-0.19016954 0.034319583 0.47510058
-0.18802652 0.034973145 0.47530553
-0.18685749 0.035668261 0.4760569
-0.18568847 0.036363363 0.47680828
-0.18355331 0.037012264 0.47700813
-0.18238625 0.037706196 0.47775826
-0.18121919 0.038400136 0.47850835
-0.1790919 0.03904438 0.4787032
-0.17792675 0.039737158 0.47945207
-0.17676172 0.040429927 0.48020092
-0.17559657 0.041122697 0.48094976
-0.17443153 0.041815467 0.4816986
-0.17231593 0.042452727 0.48188588
-0.1711528 0.043144334 0.48263344
-0.16998968 0.043835934 0.48338106
-0.16788188 0.044468515 0.48356327
-0.16672072 0.045158945 0.48430958
-0.16555956 0.04584939 0.48505589
-0.16345969 0.046477307 0.4852331
-0.16136369 0.047102898 0.4854078
-0.15927169 0.047726147 0.48557991
-0.15718356 0.048347063 0.48574951
-0.26388058 0.0077886861 0.45692775
-0.26160917 0.008515738 0.4572154
-0.25934163 0.0092404764 0.45750046
-0.25812551 0.0099635851 0.45828208
-0.25690946 0.010686664 0.45906371
-0.25464985 0.01140672 0.45934376
-0.25239405 0.012124458 0.45962134
-0.25014231 0.012839843 0.45989633
-0.24893209 0.013559435 0.46067417
-0.24668619 0.014271325 0.4609454
-0.24547789 0.014989769 0.46172199
-0.24220607 0.015688127 0.46148032
-0.23997197 0.016393013 0.46174395
-0.23774168 0.017095568 0.46200511
-0.23551533 0.01779581 0.46226373
-0.23431692 0.018508399 0.463034
-0.23209652 0.019205134 0.46328887
-0.22987995 0.019899538 0.46354118
-0.22868547 0.020609802 0.46430892
-0.22749099 0.021320065 0.46507666
-0.22528228 0.022009805 0.46532398
-0.22408971 0.022718906 0.46609047
-0.2228972 0.023427993 0.46685699
-0.22170463 0.024137095 0.46762347
-0.21950582 0.024821 0.46786448
-0.21731088 0.025502555 0.4681029
-0.21612224 0.026209347 0.46886688
-0.2139332 0.026887404 0.46910152
-0.21274647 0.027593004 0.46986422
-0.21155986 0.028298618 0.47062695
-0.20937857 0.028972019 0.47085658
-0.20720133 0.029643102 0.47108367
-0.20502803 0.030311845 0.47130832
-0.20384726 0.031013943 0.47206724
-0.20266643 0.031716041 0.47282615
-0.19951615 0.032342099 0.47250631
-0.19833931 0.033041857 0.4732627
-0.19618168 0.033701275 0.47347721
-0.19500682 0.034399871 0.47423235
-0.19285497 0.035055794 0.47444311
-0.19168207 0.035753235 0.47519699
-0.18953612 0.036405634 0.47540388
-0.18739417 0.037055723 0.47560832
-0.18622515 0.037750825 0.4763597
-0.18505612 0.038445927 0.47711104
-0.18292204 0.039091334 0.47731042
-0.18175498 0.039785273 0.47806051
-0.17962673 0.040427193 0.47825614
-0.17846164 0.04111997 0.47900498
-0.17729655 0.04181274 0.47975382
-0.17613146 0.04250551 0.48050267
-0.17496637 0.04319828 0.48125151
-0.17284992 0.043833207 0.48143956
-0.1707373 0.044465788 0.48162505
-0.17052361 0.045216415 0.48293471
-0.16936049 0.045908023 0.4836823
-0.16725382 0.046537094 0.48386401
-0.1660926 0.047227539 0.48461035
-0.1639919 0.047853131 0.48478827
-0.16189501 0.048476391 0.48496372
-0.16073772 0.049164496 0.48570752
-0.26444075 0.0092366915 0.45645958
-0.2632207 0.0099621248 0.45724371
-0.2609503 0.01068569 0.45753086
-0.25868383 0.011406941 0.45781544
-0.25746772 0.01213002 0.45859706
-0.25520721 0.012847736 0.45887789
-0.25399306 0.013569683 0.45965824
-0.2517384 0.014283905 0.45993528
-0.24948767 0.014995802 0.46020976
-0.24724087 0.01570536 0.46048176
-0.24499789 0.016412605 0.46075124
-0.24275896 0.017117506 0.46101817
-0.2405239 0.01782006 0.46128258
-0.23829278 0.01852029 0.46154448
-0.23606548 0.019218208 0.46180388
-0.23486707 0.019930797 0.46257415
-0.23264578 0.020625208 0.46282974
-0.23144928 0.021336649 0.46359876
-0.22923383 0.02202755 0.46385053
-0.22803935 0.022737814 0.4646183
-0.22684482 0.023448078 0.46538606
-0.22463724 0.02413433 0.46563286
-0.22344467 0.024843417 0.46639934
-0.2222521 0.025552519 0.46716586
-0.22105953 0.02626162 0.46793234
-0.21886179 0.026942017 0.46817282
-0.21666786 0.027620114 0.46841076
-0.21547922 0.028326876 0.46917474
-0.21329126 0.029001439 0.46940887
-0.21210459 0.029707054 0.4701716
-0.21091792 0.030412639 0.4709343
-0.20873782 0.031082559 0.47116342
-0.2065616 0.031750128 0.47139001
-0.20537886 0.032453403 0.47215024
-0.20320854 0.033117481 0.47237307
-0.20202777 0.033819586 0.47313198
-0.19887963 0.034438647 0.47281107
-0.19770274 0.035138428 0.47356752
-0.19554618 0.035794336 0.4737815
-0.19437125 0.036492947 0.47453666
-0.19222054 0.037145376 0.47474691
-0.19104764 0.03784281 0.47550079
-0.18890271 0.038491722 0.47570714
-0.18676183 0.039138302 0.47591111
-0.1855928 0.039833404 0.47666246
-0.18345782 0.040476486 0.47686258
-0.18229076 0.041170426 0.47761267
-0.1811237 0.041864365 0.4783628
-0.17899653 0.042502791 0.47855791
-0.17783144 0.043195561 0.47930673
-0.17666635 0.04388833 0.4800556
-0.17550126 0.0445811 0.48080441
-0.17338392 0.045213696 0.48099321
-0.17222074 0.045905303 0.4817408
-0.17105761 0.046596903 0.48248839
-0.16894802 0.047224827 0.48267213
-0.16778687 0.047915258 0.48341843
-0.16662571 0.048605703 0.48416474
-0.26500079 0.01068469 0.45599142
-0.2637808 0.011410123 0.45677558
-0.2625607 0.012135556 0.45755973
-0.26029143 0.012855627 0.45784634
-0.25802603 0.013573354 0.45813039
-0.25680992 0.014296448 0.45891201
-0.25455043 0.015010692 0.45919237
-0.25229487 0.01572259 0.45947015
-0.25004324 0.016432155 0.45974538
-0.24779555 0.017139381 0.46001813
-0.24658725 0.017857825 0.46079472
-0.24331185 0.018546885 0.46055606
-0.24210748 0.01926296 0.46133012
-0.23884389 0.019945012 0.46108386
-0.23764345 0.020658793 0.46185541
-0.23541722 0.021353187 0.46211424
-0.23421881 0.022065775 0.46288452
-0.23199853 0.022756699 0.46313965
-0.22978219 0.023445277 0.46339217
-0.22858772 0.02415554 0.46415994
-0.22739324 0.024865804 0.46492767
-0.22619864 0.025576068 0.46569544
-0.2239922 0.026258826 0.46594176
-0.22279963 0.026967928 0.46670821
-0.22160706 0.027677029 0.46747473
-0.22041449 0.028386131 0.46824124
-0.21821782 0.029063033 0.46848121
-0.21602497 0.029737622 0.46871862
-0.21483633 0.030444384 0.4694826
-0.21364769 0.031151161 0.47024658
-0.21146271 0.031821065 0.47047892
-0.21027604 0.032526679 0.47124165
-0.20809695 0.033193093 0.4714703
-0.20592186 0.033857167 0.47169638
-0.20473906 0.034560427 0.47245654
-0.20256981 0.035221018 0.47267887
-0.20138904 0.035923116 0.47343782
-0.19922563 0.036580227 0.47365633
-0.19706616 0.037234977 0.47387233
-0.19491062 0.037887398 0.47408581
-0.19373575 0.038586002 0.47484097
-0.19158611 0.039234929 0.47505069
-0.19041315 0.039932363 0.4758046
-0.18826935 0.040577766 0.47601044
-0.18612948 0.041220874 0.47621387
-0.18496045 0.041915976 0.47696522
-0.18282655 0.042555563 0.47716483
-0.18165943 0.043249503 0.47791496
-0.17953143 0.043885611 0.47811082
-0.17836627 0.044578381 0.47885966
-0.17720124 0.045271151 0.47960851
-0.17603615 0.045963921 0.48035735
-0.174871 0.046656698 0.48110619
-0.17275473 0.047285799 0.48129448
-0.17064229 0.047912553 0.48148021
-0.16948113 0.048602998 0.48222652
-0.16831997 0.049293429 0.48297286
-0.16715881 0.049983874 0.48371917
-0.26661691 0.012136888 0.4560163
-0.26434085 0.012858121 0.45630741
-0.26312086 0.013583554 0.45709157
-0.26085064 0.014301285 0.45737892
-0.25858435 0.015016688 0.45766374
-0.25736824 0.015739782 0.45844537
-0.25510785 0.016451702 0.45872647
-0.2538937 0.017173633 0.45950684
-0.25059888 0.017868515 0.459281
-0.24938866 0.018588107 0.46005884
-0.24714199 0.019291861 0.46033108
-0.24489918 0.019993272 0.46060076
-0.24266037 0.020692332 0.46086797
-0.24042556 0.021389075 0.46113262
-0.23819456 0.022083515 0.46139479
-0.23699412 0.022797266 0.46216631
-0.23476902 0.023488173 0.46242467
-0.23357055 0.024200791 0.46319494
-0.23135135 0.024888206 0.46344957
-0.2301549 0.025599618 0.46421856
-0.2279416 0.026283538 0.46446931
-0.22674707 0.026993802 0.46523708
-0.22555253 0.027704081 0.46600485
-0.22435805 0.028414344 0.46677259
-0.22316352 0.029124608 0.46754035
-0.22096196 0.029801525 0.4677836
-0.21976945 0.030510627 0.46855012
-0.21757373 0.031184064 0.46878958
-0.21638319 0.031891987 0.46955481
-0.21419331 0.032561913 0.46979046
-0.21300468 0.033268675 0.47055444
-0.21082082 0.0339351 0.4707863
-0.20963416 0.034640685 0.471549
-0.20745608 0.035303619 0.47177711
-0.20528206 0.035964191 0.47200271
-0.20409927 0.036667474 0.47276291
-0.20193109 0.03732457 0.4729847
-0.20075032 0.038026676 0.47374365
-0.19858798 0.038680263 0.47396162
-0.19642958 0.039331518 0.47417715
-0.19525275 0.040031292 0.47493353
-0.19310018 0.040679064 0.47514528
-0.19095162 0.041324489 0.47535449
-0.18977866 0.042021923 0.47610837
-0.18763593 0.042663854 0.47631374
-0.18549713 0.043303452 0.47651663
-0.18336233 0.043940715 0.47671703
-0.18219522 0.044634655 0.47746712
-0.18006626 0.045268416 0.47766373
-0.17986116 0.046022527 0.47896734
-0.17773607 0.046653956 0.47916141
-0.17657098 0.047346726 0.47991028
-0.17540589 0.048039503 0.48065913
-0.17328867 0.04866628 0.48084816
-0.17117539 0.049290717 0.48103461
-0.26823488 0.013593741 0.45603964
-0.26595595 0.014313798 0.4563328
-0.26368091 0.015031559 0.45662341
-0.26246092 0.015756993 0.45740756
-0.26019177 0.016471222 0.45769444
-0.25792655 0.017183138 0.4579787
-0.25671038 0.017906247 0.45876035
-0.25445113 0.01861465 0.45904091
-0.25219569 0.019320728 0.45931897
-0.24994418 0.020024467 0.45959443
-0.24769667 0.020725882 0.45986745
-0.24648842 0.021444311 0.46064404
-0.24321327 0.022121703 0.46040586
-0.24200895 0.022837808 0.46117988
-0.23977515 0.023531072 0.46144405
-0.23754522 0.024221966 0.46170568
-0.23634484 0.024935732 0.46247724
-0.2341207 0.025623182 0.46273506
-0.23292229 0.02633577 0.46350533
-0.23172387 0.027048374 0.46427563
-0.22950765 0.027731124 0.46452844
-0.22831121 0.02844255 0.46529746
-0.22711477 0.029153991 0.46606648
-0.22591826 0.029865418 0.4668355
-0.22371194 0.030542342 0.46708196
-0.22251734 0.031252608 0.46784973
-0.22031686 0.031926028 0.46809247
-0.21912429 0.03263513 0.46885899
-0.21793178 0.033344232 0.46962547
-0.21573916 0.034012996 0.46986321
-0.21454856 0.03472092 0.47062841
-0.21236178 0.03538619 0.4708623
-0.21017894 0.036049105 0.47109362
-0.20899227 0.03675472 0.47185636
-0.2078056 0.037460305 0.47261909
-0.20563063 0.038118575 0.47284541
-0.20345953 0.038774498 0.47306922
-0.20129243 0.039428107 0.47329053
-0.19912919 0.040079378 0.47350928
-0.19696984 0.040728301 0.47372556
-0.195793 0.041428074 0.47448197
-0.19363961 0.042073514 0.47469443
-0.19246468 0.042772103 0.47544956
-0.19031718 0.043414056 0.47565827
-0.1881735 0.044053648 0.47586438
-0.18603382 0.044690914 0.47606805
-0.18486479 0.045386031 0.47681946
-0.182731 0.046019785 0.47701928
-0.18156394 0.046713725 0.4777694
-0.17710587 0.048729546 0.47946319
-0.1749858 0.049355168 0.47965422
-0.17382267 0.050046775 0.48040181
-0.17265955 0.050738376 0.48114941
-0.26757285 0.015774138 0.45635661
-0.26634893 0.016501911 0.45714331
-0.26407298 0.017217334 0.45743471
-0.26180097 0.017930401 0.45772353
-0.2595329 0.018641159 0.4580099
-0.2572687 0.019349588 0.45829371
-0.25605258 0.020072667 0.45907533
-0.25379434 0.020777583 0.45935538
-0.25154004 0.02148016 0.4596329
-0.2492896 0.022180427 0.45990789
-0.2470431 0.022878354 0.46018037
-0.24480048 0.023573924 0.46045032
-0.24256185 0.024267187 0.46071777
-0.24135754 0.024983292 0.46149182
-0.23912475 0.025673054 0.46175542
-0.23689589 0.026360461 0.46201658
-0.23569545 0.027074242 0.46278813
-0.2334725 0.027758146 0.46304545
-0.23227403 0.028470749 0.46381575
-0.23107561 0.029183352 0.46458602
-0.2298772 0.029895941 0.46535629
-0.22867867 0.030608544 0.46612659
-0.22748026 0.031321131 0.46689686
-0.22527108 0.031996932 0.46714541
-0.22306576 0.032670349 0.46739134
-0.22187123 0.033380613 0.46815911
-0.22067675 0.034090891 0.46892688
-0.21847925 0.034759641 0.46916786
-0.21728668 0.035468742 0.46993437
-0.21609417 0.036177829 0.47070083
-0.21390453 0.036841929 0.47093681
-0.21171883 0.037503704 0.47117016
-0.21053019 0.038210481 0.47193414
-0.20835039 0.038868725 0.47216371
