# .PCD v0.7 - Point Cloud Data file format
VERSION 0.7
FIELDS x y z
SIZE 4 4 4
TYPE F F F
COUNT 1 1 1
WIDTH 176
HEIGHT 1
VIEWPOINT 0 0 0 1 0 0 0
POINTS 176
DATA ascii
-0.061710179 -0.10854888 0.41911733
-0.060559854 -0.10732431 0.41952515
-0.056573778 -0.10596687 0.4191325
-0.05237833 -0.10315756 0.41840193
-0.049309622 -0.10034716 0.41792601
-0.046562701 -0.097521305 0.41772527
-0.043989826 -0.09297394 0.41710809
-0.041695103 -0.091645882 0.41495764
-0.043372441 -0.088899627 0.41786665
-0.03882144 -0.086428434 0.41686857
-0.036073871 -0.083496407 0.41797858
-0.034470599 -0.080875978 0.4175562
-0.032574888 -0.074853472 0.41816324
-0.032309689 -0.068866432 0.41795683
-0.033212379 -0.063241549 0.41818264
-0.03200046 -0.057925534 0.41909614
-0.033367731 -0.051586758 0.41984129
-0.036140174 -0.047299176 0.41988188
-0.0351834 -0.046102744 0.41981176
-0.078548148 -0.11240768 0.42592579
-0.073971093 -0.11159754 0.42520317
-0.068708919 -0.10998221 0.42399555
-0.064493969 -0.10907464 0.42166212
-0.062643267 -0.10620242 0.42343691
-0.057108056 -0.10405967 0.42284882
-0.053193439 -0.10247701 0.42185748
-0.050662059 -0.099533625 0.4228619
-0.047579523 -0.096434332 0.42196393
-0.046175689 -0.09371601 0.42263913
-0.043624088 -0.088238135 0.42054039
-0.039061822 -0.085187025 0.42221648
-0.036849324 -0.082516529 0.42299545
-0.035171427 -0.079546027 0.42189923
-0.033807039 -0.075024977 0.42261553
-0.033191044 -0.070052624 0.42123023
-0.036535874 -0.061678596 0.42409053
-0.035267558 -0.061336748 0.42183882
-0.036720309 -0.057365716 0.42483333
-0.034445848 -0.056728624 0.42198449
-0.037799139 -0.050746165 0.42325941
-0.034796312 -0.051709864 0.42119235
-0.042423382 -0.04326123 0.42485777
-0.039358281 -0.044888228 0.42227837
-0.035202965 -0.045908131 0.4203918
-0.042937484 -0.040201496 0.42532942
-0.040006083 -0.039122306 0.42325789
-0.04041611 -0.034840096 0.4248217
-0.085944362 -0.10976309 0.42983684
-0.080955207 -0.11000359 0.42878821
-0.075412698 -0.10991766 0.42769545
-0.070342079 -0.10865657 0.42723304
-0.1032552 -0.10213226 0.42954218
-0.098161735 -0.10337607 0.43073848
-0.092627078 -0.10459379 0.43100998
-0.087548606 -0.10601852 0.43156156
-0.082176931 -0.10743602 0.43156779
-0.074493304 -0.10702489 0.43086123
-0.068671115 -0.10552847 0.42981401
-0.063608713 -0.10402361 0.42831707
-0.058459621 -0.1025738 0.42705423
-0.10884096 -0.09690959 0.42953745
-0.10492745 -0.098597072 0.43025377
-0.099327907 -0.10002249 0.43140474
-0.094247647 -0.10081434 0.43157536
-0.066897467 -0.10172586 0.43178344
-0.062866181 -0.10068113 0.43068972
-0.056395929 -0.10032589 0.42958727
-0.05151362 -0.098178774 0.4287627
-0.11038437 -0.094559334 0.43121868
-0.10607293 -0.095946416 0.43168813
-0.049764551 -0.094926253 0.43081561
-0.047205139 -0.094597019 0.42844996
-0.11605253 -0.089252248 0.43197057
-0.039361123 -0.085606121 0.42921907
-0.037218288 -0.081913367 0.43010217
-0.035529222 -0.079302609 0.42840144
-0.034007192 -0.075081863 0.42915395
-0.037105069 -0.060898677 0.42603478
-0.037929922 -0.057547711 0.42683688
-0.039361879 -0.053508222 0.4261007
-0.044718187 -0.037661649 0.42679995
-0.050124545 -0.032054536 0.42989898
-0.045075741 -0.033100639 0.42762542
-0.041900411 -0.03364446 0.42660975
-0.05089625 -0.027887071 0.42935327
-0.046402007 -0.028699541 0.42762557
-0.086016379 -0.10377697 0.43291509
-0.081125647 -0.10557486 0.43323418
-0.075110286 -0.10488224 0.43303365
-0.070406586 -0.10284847 0.43269289
-0.10322236 -0.097035386 0.43242171
-0.098676793 -0.097740158 0.43306643
-0.092635393 -0.099341802 0.43251088
-0.0883523 -0.10158432 0.43268147
-0.068168804 -0.10044999 0.43260187
-0.057397336 -0.098320305 0.43206877
-0.11463261 -0.090734482 0.43228549
-0.11097166 -0.091967061 0.43272856
-0.10522665 -0.093467399 0.434255
-0.10055739 -0.09506882 0.43543005
-0.1162795 -0.086066842 0.43309626
-0.1111403 -0.087038077 0.43344074
-0.10675935 -0.087839231 0.43513387
-0.044263594 -0.086201273 0.43444875
-0.04072509 -0.085139476 0.43321207
-0.12108602 -0.080157086 0.43541351
-0.11705837 -0.080972999 0.43539864
-0.11196695 -0.08116965 0.43532845
-0.043404017 -0.082350783 0.43644297
-0.039071113 -0.080728039 0.43520173
-0.035103619 -0.078048348 0.43479902
-0.12145559 -0.076419577 0.43681437
-0.1169651 -0.075954638 0.43711454
-0.11265394 -0.076145686 0.43741289
-0.036270693 -0.077720031 0.43738103
-0.034182299 -0.075901814 0.43493009
-0.032508224 -0.071450263 0.43420878
-0.072294518 -0.022155277 0.43765453
-0.070063345 -0.020416962 0.43763748
-0.03982354 -0.078723647 0.43886328
-0.12119273 -0.073178664 0.43876737
-0.11718213 -0.073082976 0.43850705
-0.11308283 -0.073156752 0.43850508
-0.037500679 -0.076066293 0.44117525
-0.034382124 -0.074032873 0.43984738
-0.12151568 -0.068982549 0.4407644
-0.11764657 -0.069119684 0.44012755
-0.1130771 -0.071935907 0.43874708
-0.12126004 -0.062689431 0.44118059
-0.11813583 -0.063044973 0.4405843
-0.12174137 -0.058811821 0.4426702
-0.11828497 -0.057089627 0.44249004
-0.092864752 -0.02551334 0.44294173
-0.092384353 -0.022451807 0.44293374
-0.086887106 -0.021358009 0.44134387
-0.081100844 -0.02038198 0.43958953
-0.074899562 -0.020604389 0.43889508
-0.070955358 -0.021244446 0.43820608
-0.080059372 -0.016931793 0.43930483
-0.074837774 -0.016849764 0.43895248
-0.0715551 -0.016962886 0.43845284
-0.037442654 -0.075287655 0.44573349
-0.12705256 -0.05715511 0.44903478
-0.12340163 -0.056297366 0.44627616
-0.11868789 -0.054825164 0.44504738
-0.12632483 -0.053458728 0.44992697
-0.12246205 -0.051370066 0.44856137
-0.11716841 -0.050994597 0.44607037
-0.11262877 -0.049724642 0.44624808
-0.12141659 -0.045508645 0.44847754
-0.11713918 -0.045148585 0.44680896
-0.1111016 -0.044995576 0.44837362
-0.10684011 -0.042812109 0.44932437
-0.11520438 -0.040772542 0.44659525
-0.1108295 -0.039028034 0.44746307
-0.10658255 -0.038779937 0.44746149
-0.10963259 -0.034040861 0.44627348
-0.10512024 -0.032916322 0.44611004
-0.099616416 -0.031374734 0.44570953
-0.10380678 -0.029157966 0.44689485
-0.098779596 -0.027418334 0.44581094
-0.095290706 -0.027004534 0.44465014
-0.097140402 -0.023622435 0.44431871
-0.13393031 -0.05526948 0.45202237
-0.12995528 -0.055632528 0.45066562
-0.13853875 -0.051802553 0.45505953
-0.13492887 -0.050805118 0.45366466
-0.12904298 -0.050735738 0.45145255
-0.12492082 -0.049543817 0.45025539
-0.13464403 -0.046540141 0.45506638
-0.12890592 -0.045881353 0.45310107
-0.12433137 -0.046117876 0.45074925
-0.10593586 -0.044998433 0.45098966
-0.14054395 -0.049853232 0.45738041
-0.13960946 -0.046059325 0.45758948
-0.13559438 -0.044496741 0.45685127
