# .PCD v0.7 - Point Cloud Data file format
VERSION 0.7
FIELDS x y z
SIZE 4 4 4
TYPE F F F
COUNT 1 1 1
WIDTH 485
HEIGHT 1
VIEWPOINT 0 0 0 1 0 0 0
POINTS 485
DATA ascii
-0.09777081 -0.10244888 0.41960156
-0.092476703 -0.10354595 0.41871473
-0.086952344 -0.10418525 0.41889086
-0.081530988 -0.10564519 0.41958946
-0.064022884 -0.10376515 0.41895095
-0.062976308 -0.10105248 0.41835189
-0.073265202 -0.10822398 0.42184937
-0.070514753 -0.10822393 0.42184937
-0.084067434 -0.10247984 0.4208515
-0.079910845 -0.10372138 0.42103282
-0.075071298 -0.10510878 0.42182106
-0.068882853 -0.1047176 0.42139223
-0.10813439 -0.096806139 0.42485362
-0.10454132 -0.098898642 0.42465287
-0.099051945 -0.10045528 0.42313007
-0.09333171 -0.100959 0.42338535
-0.087305263 -0.10151716 0.42325181
-0.081082247 -0.10158554 0.42374066
-0.074906223 -0.10156935 0.42335171
-0.068667531 -0.10112025 0.42147687
-0.10894418 -0.095923364 0.42585394
-0.045644097 -0.032402497 0.4251619
-0.046196133 -0.028174942 0.42587772
-0.10432524 -0.096912168 0.42818689
-0.099225722 -0.09841232 0.42946413
-0.092835709 -0.099698365 0.42913833
-0.087800287 -0.10023364 0.42926899
-0.11474447 -0.09100695 0.42885572
-0.11050416 -0.092351817 0.42896634
-0.10606108 -0.094691418 0.42993772
-0.11542604 -0.086552121 0.43035731
-0.11289177 -0.088374898 0.43075663
-0.11733326 -0.083319701 0.43152511
-0.050391581 -0.031952742 0.42956871
-0.047417723 -0.032137398 0.42687631
-0.06022222 -0.024011532 0.43087927
-0.055191364 -0.026234454 0.43044987
-0.051149227 -0.02745457 0.42892149
-0.047139492 -0.02851944 0.42687759
-0.061512373 -0.020220138 0.43060789
-0.056874748 -0.021770006 0.42809749
-0.052654278 -0.023435896 0.42721274
-0.102268 -0.096370831 0.43285376
-0.098426633 -0.096862897 0.43546894
-0.09306711 -0.097982943 0.43529752
-0.088083237 -0.09905307 0.4359777
-0.108621 -0.090627186 0.43418917
-0.10510688 -0.093289949 0.43549126
-0.10115827 -0.095594622 0.43618736
-0.11481811 -0.084615022 0.43335801
-0.11129531 -0.08701349 0.43516147
-0.120608 -0.078490347 0.43386018
-0.11667841 -0.080658428 0.4348951
-0.1133607 -0.082828864 0.43645865
-0.12111903 -0.074154347 0.43601561
-0.11842769 -0.075571775 0.43662596
-0.12170196 -0.069042288 0.43750641
-0.11943606 -0.06950777 0.43786338
-0.12257636 -0.064654782 0.43786514
-0.05498394 -0.032098927 0.43387637
-0.053728402 -0.031460475 0.43287659
-0.062058881 -0.02485865 0.43587896
-0.057390131 -0.027565897 0.43373516
-0.072619423 -0.019263498 0.43788102
-0.068701304 -0.019490419 0.43654764
-0.064007968 -0.021071319 0.43454704
-0.073190406 -0.01755067 0.43788165
-0.068850383 -0.017462347 0.43568164
-0.086151004 -0.10206129 0.44285163
-0.092743792 -0.096766032 0.44128212
-0.088394344 -0.099676408 0.44251919
-0.10449422 -0.091731459 0.44132203
-0.099378906 -0.094448559 0.44126624
-0.094814524 -0.095476508 0.44125399
-0.1096967 -0.086653627 0.4412573
-0.1070718 -0.089274712 0.44245633
-0.11462722 -0.078810804 0.43986002
-0.11263942 -0.08167775 0.44193044
-0.11609179 -0.075124376 0.44138762
-0.1208533 -0.066805281 0.43886435
-0.11762402 -0.068969376 0.44140902
-0.12168521 -0.06264358 0.43911579
-0.11825405 -0.062975243 0.44154429
-0.12216382 -0.056850839 0.44077703
-0.11782938 -0.05698042 0.44256788
-0.12242399 -0.051673841 0.44270313
-0.11788362 -0.05123309 0.44276986
-0.12129395 -0.045546502 0.44362193
-0.11728677 -0.044689249 0.44325921
-0.12153587 -0.039553963 0.44387406
-0.11689735 -0.038586967 0.44340774
-0.11273863 -0.037701733 0.44387475
-0.11590265 -0.033766169 0.44387612
-0.11145099 -0.032261286 0.44387659
-0.10718261 -0.030524893 0.44387722
-0.10957183 -0.028453551 0.44365576
-0.10493443 -0.026736856 0.44342858
-0.099542975 -0.025431579 0.44387898
-0.095028602 -0.024736967 0.44387922
-0.066518791 -0.024680641 0.44287908
-0.064420089 -0.025116082 0.4403789
-0.10372018 -0.021957105 0.44228029
-0.098864868 -0.021219051 0.44292054
-0.093283214 -0.021144874 0.44338056
-0.087311745 -0.020507531 0.44378072
-0.08092995 -0.020056603 0.442738
-0.075579166 -0.019965736 0.44071415
-0.069277808 -0.022183064 0.44165775
-0.065345913 -0.022740871 0.43887973
-0.098965928 -0.017771775 0.4433817
-0.093292437 -0.017791713 0.44388166
-0.087985627 -0.017771553 0.44338164
-0.080927394 -0.01768117 0.44113162
-0.076218776 -0.017590836 0.43888164
-0.087512404 -0.10250109 0.44985148
-0.091728836 -0.097299494 0.44752002
-0.088775575 -0.10018224 0.44735232
-0.10324245 -0.090745769 0.44685575
-0.099029988 -0.092779808 0.44712162
-0.094768539 -0.095088258 0.44810417
-0.10913783 -0.085223295 0.4471435
-0.10609527 -0.088056631 0.44754905
-0.11144977 -0.080858484 0.44735932
-0.11486753 -0.074216813 0.44675052
-0.11357063 -0.076463543 0.44852757
-0.11506678 -0.069292098 0.44753018
-0.11332309 -0.066133074 0.44986457
-0.1151702 -0.063192576 0.44566566
-0.11347821 -0.062961452 0.44816571
-0.12881331 -0.054589324 0.44661874
-0.11512199 -0.057063941 0.44568595
-0.11354801 -0.056859065 0.44823149
-0.12829642 -0.051221959 0.44806999
-0.12499408 -0.049917676 0.44547039
-0.11511876 -0.050964724 0.44547001
-0.11311424 -0.050438616 0.44833168
-0.12717514 -0.044935044 0.44907221
-0.12411625 -0.044726506 0.44620556
-0.11467461 -0.046255764 0.44487163
-0.11166396 -0.044561163 0.44774723
-0.12726018 -0.040863894 0.4493736
-0.1242319 -0.040382702 0.44620714
-0.11023933 -0.039062589 0.44671422
-0.10704507 -0.037641808 0.44937468
-0.10954066 -0.033962563 0.44509819
-0.10525014 -0.032955877 0.44722259
-0.10054345 -0.031179165 0.44912696
-0.10371134 -0.029159971 0.44512767
-0.098794132 -0.028306004 0.44637796
-0.093037575 -0.026533263 0.4469896
-0.088227533 -0.025387613 0.4485456
-0.06950631 -0.024922276 0.44721234
-0.090602092 -0.023632482 0.44487956
-0.086298734 -0.023250479 0.4458797
-0.081484877 -0.023128033 0.44754636
-0.074859738 -0.02301902 0.44700474
-0.070565499 -0.023720643 0.44654608
-0.09272144 -0.097168341 0.45235342
-0.089473993 -0.10104518 0.45385203
-0.09875077 -0.091885455 0.45343867
-0.095392145 -0.095127262 0.45385414
-0.10817324 -0.084288955 0.45285806
-0.10492606 -0.087235071 0.4533307
-0.10128597 -0.089140624 0.45552298
-0.10997173 -0.080693163 0.45298439
-0.10770085 -0.083658427 0.45585832
-0.1124875 -0.074885279 0.45312807
-0.1129161 -0.069170743 0.45329207
-0.11186083 -0.063115932 0.45346561
-0.13405973 -0.054724175 0.45253539
-0.1114922 -0.056946535 0.4531031
-0.13939802 -0.050989076 0.4552035
-0.13504688 -0.051332396 0.45386991
-0.13091631 -0.049649529 0.45147052
-0.11049826 -0.05126112 0.45321989
-0.13950254 -0.047697239 0.45587128
-0.13442521 -0.045426983 0.45511019
-0.12987138 -0.045421723 0.45178109
-0.10897241 -0.04608212 0.45227164
-0.10704207 -0.044452865 0.45476115
-0.132376 -0.041957948 0.45487326
-0.12980832 -0.041114368 0.45212355
-0.1054159 -0.03926383 0.45322412
-0.10105173 -0.03606585 0.45537519
-0.10298462 -0.035317816 0.45187551
-0.099065669 -0.032908641 0.45275134
-0.094021976 -0.031084413 0.45487693
-0.092781074 -0.029054025 0.45187765
-0.087045208 -0.026724074 0.45354509
-0.081440181 -0.025280239 0.45362893
-0.073917091 -0.02622745 0.45462856
-0.069651395 -0.026773445 0.45387834
-0.07830222 -0.02395108 0.4508794
-0.089846246 -0.10282598 0.46185136
-0.097604036 -0.092350401 0.45868847
-0.095038623 -0.095965512 0.45785385
-0.10394451 -0.08573994 0.45852411
-0.10057675 -0.088055149 0.45952332
-0.10888845 -0.079334103 0.45835981
-0.10684644 -0.081669144 0.45950183
-0.11041355 -0.074954659 0.45919466
-0.10791372 -0.077532619 0.46186045
-0.11090334 -0.068941489 0.45964924
-0.11014808 -0.062513664 0.45932037
-0.10930508 -0.056986202 0.45886782
-0.10791417 -0.055250049 0.46186838
-0.10857103 -0.052582517 0.45786938
-0.10682724 -0.050464366 0.45979863
-0.13995746 -0.045419019 0.45687208
-0.13721296 -0.04367438 0.4568727
-0.10500865 -0.044812564 0.4590596
-0.10307351 -0.040273484 0.45820701
-0.10036892 -0.038023051 0.45941994
-0.097272143 -0.034623317 0.45827571
-0.09343604 -0.032553028 0.45937639
-0.089847721 -0.030558188 0.46187708
-0.062010467 -0.034097016 0.46087566
-0.086766802 -0.028282341 0.45912787
-0.081004746 -0.027343774 0.45954481
-0.075519793 -0.027848793 0.46021131
-0.069143511 -0.028235285 0.45837781
-0.08735273 -0.10904197 0.46784914
-0.097648658 -0.092695303 0.46542645
-0.10273472 -0.084722191 0.46385789
-0.10009498 -0.087138824 0.46522063
-0.10463308 -0.080838785 0.46495923
-0.10188556 -0.082720838 0.46735859
-0.10870575 -0.073900819 0.46461177
-0.1068313 -0.07572031 0.4662247
-0.10911731 -0.069149703 0.46513617
-0.10890083 -0.063394092 0.46506548
-0.10786451 -0.061326902 0.4668662
-0.10822556 -0.058430269 0.4632006
-0.1065552 -0.056761507 0.4660345
-0.10454373 -0.051269822 0.46546975
-0.10321283 -0.04576112 0.46457171
-0.10133477 -0.044470634 0.46670553
-0.098647363 -0.039455663 0.46468648
-0.095283307 -0.037382506 0.46687469
-0.092595071 -0.033980887 0.4652395
-0.088498287 -0.031127241 0.46587688
-0.065576732 -0.031364974 0.46487665
-0.085702159 -0.029586731 0.46554407
-0.081223927 -0.029449029 0.46654406
-0.0755082 -0.029713662 0.46754396
-0.070579976 -0.029607613 0.46587729
-0.096303567 -0.096029684 0.46985382
-0.094651669 -0.099318549 0.47385263
-0.09753295 -0.09295103 0.4718549
-0.040044192 -0.091015361 0.47352198
-0.099537916 -0.086851425 0.47125706
-0.039239883 -0.088824444 0.47325605
-0.10267624 -0.079590067 0.47100258
-0.10122433 -0.082284741 0.47185874
-0.10401582 -0.074958578 0.4710353
-0.10832633 -0.06831453 0.46886373
-0.10563836 -0.069408447 0.4717724
-0.1083264 -0.06525775 0.4688648
-0.10577025 -0.063085333 0.47177035
-0.10401009 -0.057339553 0.47116172
-0.10151158 -0.055165667 0.47320172
-0.10248957 -0.051029921 0.46920314
-0.10037767 -0.050609522 0.47213668
-0.098812439 -0.044812575 0.4710826
-0.095409214 -0.04285619 0.47353938
-0.096575655 -0.040424701 0.46920693
-0.093430199 -0.038591355 0.47173139
-0.091145173 -0.034782086 0.47012562
-0.087343179 -0.032568432 0.47177634
-0.081412993 -0.031330083 0.47354344
-0.074702516 -0.029798403 0.46887726
-0.086614832 -0.1100395 0.47831029
-0.090944849 -0.10373157 0.47710106
-0.088719927 -0.10663525 0.47785002
-0.096292086 -0.096634008 0.47585362
-0.094719529 -0.099425592 0.47835258
-0.038911648 -0.096820645 0.47985324
-0.097083367 -0.092896216 0.47714064
-0.042930752 -0.094153613 0.47585422
-0.038823519 -0.093674727 0.47656864
-0.033547718 -0.092500284 0.47844297
-0.098689578 -0.086961165 0.47725701
-0.037280947 -0.08737994 0.47502324
-0.033293195 -0.08739429 0.47752327
-0.028644314 -0.086040914 0.47975698
-0.10043122 -0.080738135 0.47725931
-0.036803421 -0.078805402 0.47685963
-0.032777581 -0.080784969 0.47733262
-0.027706778 -0.080862314 0.47872546
-0.10228203 -0.072903633 0.4748621
-0.10050651 -0.075043015 0.47778988
-0.032819271 -0.075140178 0.47601882
-0.026906723 -0.075069711 0.47786087
-0.10282727 -0.068157524 0.47523874
-0.10061262 -0.069242239 0.47829193
-0.031369884 -0.070045464 0.47529128
-0.027509077 -0.070814535 0.47748742
-0.1030283 -0.063395388 0.47586545
-0.10090398 -0.062558837 0.47861579
-0.10228231 -0.059281729 0.47486693
-0.09929464 -0.056665536 0.47769141
-0.0978797 -0.051422402 0.47663891
-0.095367193 -0.049234722 0.47953713
-0.096707523 -0.046586078 0.47547141
-0.094017245 -0.044767797 0.47745538
-0.091483288 -0.04001582 0.47669193
-0.089010537 -0.037434224 0.47787461
-0.08656653 -0.034358378 0.47700071
-0.083883762 -0.032725502 0.47587627
-0.077138782 -0.031517491 0.47637665
-0.067608908 -0.032656386 0.47487622
-0.085181408 -0.10872731 0.48084927
-0.081657015 -0.11058801 0.48351514
-0.091045089 -0.10283913 0.48225135
-0.086930037 -0.10549845 0.48350042
-0.083025038 -0.10742345 0.48534968
-0.093726069 -0.099761166 0.48431402
-0.043834288 -0.1005272 0.48429638
-0.038749944 -0.10015585 0.48342344
-0.033138409 -0.099171311 0.48358923
-0.02826607 -0.097986035 0.48510274
-0.096628249 -0.092747733 0.48285499
-0.095781133 -0.094864674 0.48585421
-0.031858332 -0.094804883 0.48105392
-0.027205434 -0.093078792 0.48315454
-0.097751074 -0.087113447 0.48307922
-0.026038466 -0.087650254 0.48172313
-0.021490166 -0.086853504 0.48462138
-0.098896131 -0.081160232 0.48347446
-0.024789592 -0.081166975 0.48102543
-0.021681091 -0.08114367 0.48417449
-0.098418176 -0.074824497 0.48326135
-0.021898272 -0.075128257 0.48380208
-0.098502971 -0.068618439 0.48306355
-0.024874991 -0.069693647 0.48269615
-0.022996277 -0.070234105 0.48466259
-0.098543584 -0.063265197 0.4830083
-0.09708079 -0.05779298 0.48253408
-0.095634088 -0.056768209 0.48511779
-0.096050531 -0.052506633 0.48086929
-0.09426491 -0.050780773 0.4834154
-0.091690712 -0.045367949 0.48314455
-0.089355007 -0.042872682 0.48537269
-0.0879106 -0.039180841 0.48314676
-0.084486455 -0.035725422 0.48287523
-0.075407684 -0.032435257 0.48387632
-0.079130128 -0.10934895 0.487349
-0.074857533 -0.10970728 0.48990434
-0.070406467 -0.10900142 0.49151573
-0.055391002 -0.11228838 0.48944783
-0.050833311 -0.11123441 0.48818153
-0.086521879 -0.10316332 0.48795122
-0.081275307 -0.10543503 0.48970753
-0.075766116 -0.10650812 0.49118334
-0.070027269 -0.10651069 0.49184993
-0.049610846 -0.10632274 0.48784989
-0.045285217 -0.10543208 0.48785028
-0.092341468 -0.098194249 0.48904058
-0.087832481 -0.10043761 0.49046767
-0.096175388 -0.091438398 0.48785543
-0.094683148 -0.093545951 0.49002138
-0.059766103 -0.095393963 0.49185383
-0.096800074 -0.086639866 0.48860717
-0.095681146 -0.088339977 0.49185652
-0.097207233 -0.080954812 0.48985916
-0.096983984 -0.075034998 0.4887363
-0.095681436 -0.074230552 0.49186158
-0.019113166 -0.074624255 0.48786101
-0.096830644 -0.069187738 0.48796338
-0.095535681 -0.068995461 0.49111342
-0.02076206 -0.069080912 0.48912621
-0.096632451 -0.063895382 0.48803189
-0.095071338 -0.062405545 0.49019909
-0.058060531 -0.061964821 0.49122936
-0.025890315 -0.063087754 0.49003181
-0.022964805 -0.064947702 0.49119782
-0.094105005 -0.056482222 0.48914054
-0.05714336 -0.058777209 0.49136686
-0.092257284 -0.050755024 0.48936987
-0.090727255 -0.047691956 0.489371
-0.088836089 -0.044513382 0.4894971
-0.086057782 -0.039697051 0.48912379
-0.082574762 -0.036694724 0.49020818
-0.0751094 -0.034370258 0.48916134
-0.071856342 -0.032212239 0.4868764
-0.080512188 -0.10257431 0.49322641
-0.075013377 -0.10384447 0.49353847
-0.068870395 -0.104226 0.49318415
-0.065028593 -0.10201441 0.49285153
-0.09073434 -0.096873805 0.49285349
-0.086200371 -0.09823171 0.49404058
-0.080836989 -0.098626658 0.49521282
-0.075016923 -0.098615482 0.49515277
-0.069221832 -0.098951839 0.49437645
-0.064064704 -0.098158553 0.4928529
-0.092030048 -0.09245877 0.49446625
-0.087575592 -0.093573704 0.49647367
-0.081159346 -0.093834631 0.49718773
-0.074636228 -0.092811063 0.49733093
-0.068893917 -0.093463011 0.49585456
-0.063185148 -0.093138106 0.49350461
-0.059030831 -0.091303609 0.49285531
-0.09391211 -0.087039307 0.49540696
-0.068211854 -0.087972075 0.497318
-0.062815286 -0.087080047 0.49565688
-0.057604115 -0.086376294 0.49447244
-0.094900921 -0.080911785 0.49501297
-0.061740432 -0.082760528 0.49742979
-0.057026975 -0.0809405 0.49680635
-0.053732611 -0.081215575 0.49535885
-0.094471693 -0.075161152 0.49531576
-0.093636937 -0.068802148 0.49548849
-0.063522711 -0.067303829 0.49686387
-0.092641905 -0.063085429 0.49572271
-0.06728138 -0.062173638 0.49729425
-0.063344888 -0.063053362 0.49474031
-0.059888221 -0.06474112 0.49286476
-0.092135221 -0.057186525 0.49509841
-0.066897713 -0.057530109 0.4972007
-0.063061625 -0.057077184 0.49482203
-0.058198679 -0.056388833 0.49341318
-0.090885676 -0.052530523 0.49486926
-0.088792913 -0.049420331 0.49549535
-0.061979301 -0.052016553 0.49694616
-0.058371857 -0.052254576 0.49636921
-0.086670764 -0.045047794 0.49537191
-0.083865844 -0.042028654 0.49787298
-0.084844187 -0.040746808 0.49412343
-0.081147134 -0.038086429 0.49569252
-0.074814789 -0.037432574 0.49620786
-0.070665315 -0.038022436 0.49637431
-0.085767835 -0.090680964 0.49885562
-0.080780953 -0.090897687 0.49885556
-0.076227725 -0.090247132 0.49885574
-0.091162249 -0.086472183 0.49960721
-0.086995199 -0.086701013 0.5009371
-0.081073381 -0.086653247 0.50065708
-0.075194903 -0.086800106 0.49944791
-0.070156842 -0.085910589 0.49885726
-0.092192821 -0.081185803 0.50028759
-0.087217949 -0.080762565 0.50320703
-0.081167944 -0.08033549 0.50308663
-0.07508634 -0.081015699 0.50165904
-0.068971463 -0.081188731 0.50026804
-0.091905601 -0.075156435 0.5003227
-0.087545983 -0.074911267 0.50308853
-0.081152782 -0.074946173 0.50386119
-0.09122549 -0.069159985 0.49957761
-0.087102465 -0.068863496 0.50255907
-0.082685821 -0.070566326 0.5038628
-0.074335121 -0.068787426 0.50366336
-0.069335423 -0.069041878 0.50073832
-0.064997002 -0.069913007 0.49919629
-0.090538464 -0.062928006 0.49886554
-0.087977365 -0.063303016 0.50242102
-0.074178666 -0.063023701 0.50341088
-0.070097998 -0.063383453 0.50009608
-0.090538569 -0.057724308 0.49886739
-0.087938726 -0.056590956 0.50239724
-0.073488764 -0.057437904 0.50349241
-0.069863245 -0.05668962 0.50046772
-0.086478457 -0.051256083 0.50080729
-0.082211405 -0.050250992 0.5036478
-0.073050514 -0.05107573 0.50386965
-0.06900613 -0.051046334 0.50166976
-0.06406451 -0.050358009 0.49936986
-0.084552042 -0.045846034 0.49937162
-0.080859162 -0.045168903 0.50200224
-0.075142749 -0.044881985 0.50269008
-0.069076754 -0.04525974 0.50239348
-0.063832931 -0.047202609 0.50112104
-0.08068563 -0.040346943 0.50001639
-0.075108804 -0.040259179 0.50007355
-0.07025896 -0.040609375 0.50037342
-0.079119578 -0.072900578 0.50486195
-0.080582291 -0.068431407 0.50512666
-0.077144809 -0.068950839 0.50486332
-0.085373498 -0.062039029 0.50486583
-0.081247196 -0.063144378 0.50581539
-0.07691218 -0.062655494 0.50506556
-0.085608676 -0.058042318 0.5048672
-0.081267565 -0.057224918 0.50594759
-0.076246314 -0.056837905 0.50545096
-0.080060288 -0.051864002 0.50514215
-0.075891607 -0.051220164 0.50528634
