# .PCD v0.7 - Point Cloud Data file format
VERSION 0.7
FIELDS x y z
SIZE 4 4 4
TYPE F F F
COUNT 1 1 1
WIDTH 650
HEIGHT 1
VIEWPOINT 0 0 0 1 0 0 0
POINTS 650
DATA ascii
-0.062471479 -0.1063828 0.41958123
-0.056993619 -0.10359602 0.41912588
-0.050384019 -0.097794063 0.41890183
-0.048467308 -0.094999984 0.41875777
-0.046354175 -0.092500202 0.41839585
-0.043902021 -0.08709427 0.4188523
-0.041560635 -0.086026102 0.41785592
-0.042353362 -0.082804397 0.41944695
-0.040573642 -0.081042036 0.41837046
-0.039063446 -0.075390272 0.41824535
-0.037948772 -0.069300249 0.41893154
-0.03739465 -0.063276693 0.41950446
-0.036818743 -0.059726074 0.41944149
-0.073654138 -0.11059861 0.42452893
-0.069887727 -0.10923173 0.42292419
-0.072289288 -0.10778691 0.42580321
-0.068245679 -0.10675026 0.42407906
-0.063045971 -0.10537245 0.42305458
-0.057876647 -0.10311792 0.42280683
-0.054905087 -0.1011494 0.42294535
-0.051854987 -0.098117568 0.42242599
-0.049280606 -0.093434885 0.42329127
-0.047300223 -0.091398358 0.42123684
-0.046301074 -0.086984724 0.42265454
-0.044320375 -0.081450693 0.42265031
-0.041585162 -0.078870565 0.42037374
-0.042516913 -0.077194281 0.42377478
-0.040705983 -0.074377313 0.42264161
-0.039633702 -0.068872675 0.42253867
-0.038863439 -0.063068122 0.42262891
-0.037844576 -0.057221778 0.42339906
-0.038219851 -0.051495347 0.42495644
-0.039190024 -0.04658933 0.4254252
-0.08024779 -0.11409445 0.42825347
-0.096624911 -0.1086656 0.43126407
-0.092583187 -0.10978449 0.43112981
-0.08619599 -0.11188047 0.43117744
-0.080531314 -0.11171768 0.42985609
-0.075800188 -0.10996164 0.42806506
-0.098900497 -0.10715398 0.4313091
-0.073184542 -0.10711922 0.42984581
-0.069425538 -0.10573137 0.42883357
-0.062766656 -0.10425257 0.4289155
-0.058253951 -0.10261717 0.42881241
-0.055205304 -0.10069362 0.42927381
-0.052607894 -0.097682372 0.42845502
-0.04973029 -0.093510605 0.4288128
-0.04764092 -0.091049522 0.43115419
-0.046395041 -0.087019116 0.42913228
-0.044208907 -0.080827139 0.42865923
-0.042255301 -0.077692263 0.42924687
-0.04056333 -0.074910566 0.42963338
-0.039268158 -0.069673486 0.42905742
-0.038753688 -0.063174888 0.42894864
-0.03887374 -0.057357833 0.42873439
-0.040130306 -0.050787348 0.42904526
-0.042759318 -0.043878235 0.43039879
-0.040861156 -0.044865999 0.42775086
-0.043245632 -0.03904872 0.43033576
-0.041385025 -0.040560864 0.42821366
-0.044274312 -0.034386516 0.43065253
-0.092584595 -0.10862814 0.43254384
-0.086516552 -0.10925109 0.43432233
-0.080888689 -0.1091416 0.43505126
-0.077388003 -0.10858365 0.43334928
-0.10306888 -0.10392109 0.43245879
-0.098786458 -0.10454547 0.43310598
-0.093182452 -0.10615532 0.43496913
-0.088209324 -0.10751098 0.43682933
-0.074718602 -0.10688394 0.43504459
-0.069224171 -0.10532821 0.43465316
-0.063040137 -0.1043397 0.43474895
-0.059174482 -0.10274949 0.43502012
-0.10991485 -0.097751029 0.43335003
-0.10475435 -0.098992206 0.43413717
-0.099868149 -0.10094461 0.43525812
-0.056269899 -0.10059674 0.43458572
-0.052396145 -0.097440511 0.43461654
-0.11665458 -0.091803357 0.43463996
-0.11108305 -0.092957675 0.43454102
-0.10704198 -0.094369553 0.43558383
-0.049285769 -0.094434433 0.43456334
-0.047091994 -0.091605723 0.4353283
-0.12079245 -0.08835949 0.43798691
-0.11643373 -0.08811748 0.43681198
-0.1117688 -0.087504826 0.4365558
-0.045083705 -0.087116838 0.43518332
-0.043136988 -0.081410326 0.43451345
-0.040713109 -0.079065889 0.43673933
-0.03923554 -0.075310312 0.43537328
-0.037368082 -0.068697266 0.43488872
-0.037220787 -0.062746972 0.43526146
-0.03847773 -0.057047617 0.43478364
-0.042109907 -0.048042849 0.43267673
-0.040784217 -0.05112002 0.43521178
-0.043561112 -0.044482511 0.43446907
-0.045259912 -0.038784903 0.43421462
-0.048770815 -0.031667396 0.43746251
-0.046279166 -0.034078404 0.43475759
-0.084258348 -0.10830711 0.43988693
-0.081108078 -0.10848315 0.44052354
-0.092477217 -0.10416605 0.44106188
-0.087631732 -0.10700389 0.44110656
-0.080265857 -0.10791552 0.44252884
-0.075055644 -0.1074383 0.44085726
-0.06888704 -0.10658352 0.44057244
-0.062644735 -0.10540722 0.44096208
-0.057396796 -0.10336824 0.4416303
-0.09867432 -0.099169381 0.44032437
-0.094840437 -0.10142355 0.44304115
-0.055797383 -0.10102923 0.43909216
-0.051550947 -0.099044964 0.44093242
-0.047356024 -0.096811384 0.44349521
-0.10457584 -0.092981122 0.43898356
-0.10034243 -0.094245948 0.44211531
-0.04905346 -0.095523193 0.43828258
-0.045022398 -0.093699336 0.44152403
-0.12115372 -0.085945211 0.44106016
-0.11797724 -0.085900985 0.43939334
-0.11349799 -0.084344253 0.43875417
-0.10707873 -0.088421956 0.43841237
-0.042330056 -0.08827439 0.44112042
-0.040850021 -0.085389018 0.44217157
-0.12117255 -0.081759438 0.44293907
-0.11786543 -0.081960417 0.44136578
-0.039853349 -0.080756724 0.44129276
-0.11941272 -0.077222422 0.44349661
-0.037201285 -0.075330228 0.44094259
-0.035599679 -0.072720036 0.44201887
-0.036674321 -0.071543142 0.43821821
-0.035312228 -0.069205485 0.44117838
-0.036272209 -0.061321739 0.44075224
-0.035536796 -0.064240657 0.44107574
-0.037768137 -0.05736031 0.44018951
-0.039968498 -0.05130671 0.44102317
-0.042717457 -0.04477125 0.44119662
-0.040996879 -0.046841666 0.44333839
-0.045334585 -0.038861822 0.44104367
-0.050075982 -0.031959046 0.44123644
-0.047326993 -0.034522187 0.43884632
-0.080110684 -0.10848626 0.44673374
-0.075584382 -0.10872989 0.44737145
-0.069640286 -0.10877865 0.44750702
-0.064155102 -0.10858903 0.44859967
-0.091624975 -0.10319594 0.44477555
-0.086916737 -0.1059904 0.44709429
-0.083147526 -0.10764894 0.44672894
-0.076891363 -0.10788633 0.44419536
-0.067566991 -0.10766755 0.4448671
-0.062695362 -0.10695484 0.44569492
-0.057039429 -0.10538869 0.44727015
-0.052451253 -0.10316976 0.44824615
-0.096136719 -0.098830596 0.44531202
-0.049819238 -0.10056551 0.4463031
-0.045414075 -0.097972266 0.44739905
-0.040821217 -0.094230488 0.44692832
-0.038501464 -0.08667592 0.44706422
-0.12222506 -0.079367191 0.44439194
-0.037883643 -0.080040202 0.44703197
-0.12225246 -0.07487677 0.44501075
-0.036710516 -0.076452166 0.44499403
-0.034729186 -0.074923754 0.44759688
-0.1261552 -0.06836614 0.44933033
-0.12385879 -0.069205128 0.44733
-0.033570446 -0.069073021 0.44670647
-0.12296969 -0.063425928 0.44826916
-0.034390833 -0.063385896 0.44682488
-0.12136687 -0.057299472 0.44918996
-0.1197826 -0.055289492 0.44896609
-0.036926955 -0.055959191 0.44583559
-0.035512257 -0.058067888 0.4483043
-0.11885688 -0.052292753 0.44947287
-0.038347386 -0.050573122 0.44683653
-0.042281955 -0.042237088 0.4493323
-0.040856838 -0.04488695 0.44797468
-0.11011055 -0.037146747 0.44965392
-0.045073345 -0.038493581 0.44758549
-0.049892604 -0.033236906 0.44483164
-0.096588053 -0.02681838 0.44817865
-0.094158493 -0.024869889 0.4475539
-0.091514729 -0.023254529 0.44706193
-0.08659444 -0.022223644 0.44732711
-0.081182845 -0.020416144 0.44663313
-0.077877998 -0.018504277 0.44578704
-0.079535782 -0.017964497 0.4493666
-0.080996774 -0.10864469 0.45298901
-0.075234905 -0.11015986 0.4528392
-0.069197044 -0.11046405 0.45314175
-0.06225504 -0.10955971 0.45304841
-0.058858231 -0.10872051 0.4533211
-0.090740532 -0.10359158 0.45017105
-0.085082896 -0.10680959 0.45461008
-0.055817932 -0.10708097 0.45306659
-0.050894964 -0.10458367 0.45337638
-0.047239631 -0.10246134 0.45375505
-0.044728711 -0.10037998 0.45287949
-0.039296292 -0.098220505 0.45341468
-0.037082236 -0.086008959 0.45296231
-0.03567481 -0.08898434 0.45452696
-0.037130699 -0.081790879 0.45317546
-0.035278399 -0.078845225 0.45340455
-0.033408802 -0.074862339 0.4524937
-0.12653567 -0.066819847 0.45009395
-0.032309614 -0.069242343 0.45305029
-0.12741688 -0.06247618 0.45297652
-0.1248814 -0.062367428 0.45068368
-0.032928769 -0.063141175 0.45248106
-0.12717959 -0.057862289 0.45438275
-0.12369335 -0.056357391 0.45203364
-0.033903964 -0.057167806 0.45282188
-0.12607312 -0.053547367 0.45567718
-0.12249069 -0.052064754 0.45391804
-0.11821828 -0.049838901 0.45216471
-0.03670305 -0.048856348 0.45464453
-0.11600694 -0.045404218 0.45362607
-0.11368597 -0.043673698 0.451278
-0.040290166 -0.04424268 0.45351657
-0.11489248 -0.04071353 0.45443168
-0.11236497 -0.03870564 0.45263475
-0.043424111 -0.040479455 0.45303616
-0.11084983 -0.033921197 0.45136634
-0.10425086 -0.032005556 0.45286497
-0.10068247 -0.031071842 0.45392755
-0.048643619 -0.035929397 0.45042053
-0.098317079 -0.028959418 0.4525333
-0.094156347 -0.026331171 0.45277587
-0.089618146 -0.02475813 0.45531017
-0.0918248 -0.023768224 0.45089623
-0.08642593 -0.02178424 0.4521831
-0.081821047 -0.019003576 0.45276091
-0.080076545 -0.017882288 0.45152724
-0.079641037 -0.10975604 0.45870551
-0.074444398 -0.11123377 0.45902061
-0.068254493 -0.11191037 0.45891374
-0.062153175 -0.11149306 0.45927164
-0.056956768 -0.10956543 0.45897284
-0.053143263 -0.10841213 0.4615826
-0.08673206 -0.1062407 0.45658103
-0.054258466 -0.10767479 0.45765194
-0.050324693 -0.10611891 0.45919523
-0.046123624 -0.10332667 0.45895165
-0.043151706 -0.10116164 0.45857522
-0.039058916 -0.10002969 0.45905742
-0.034641515 -0.097793378 0.45931247
-0.034516785 -0.093447097 0.45921966
-0.036459092 -0.08601772 0.45884785
-0.035578698 -0.089716658 0.45845056
-0.036430687 -0.082810178 0.45894486
-0.034494549 -0.079889886 0.45895463
-0.032127522 -0.074980453 0.45893341
-0.030976165 -0.068915732 0.45804238
-0.13232242 -0.060550019 0.45809439
-0.13015512 -0.060856551 0.45671892
-0.030619523 -0.061928306 0.45780739
-0.029453596 -0.064465895 0.4602716
-0.13998434 -0.056167237 0.46060139
-0.13482659 -0.056551989 0.45888364
-0.12994412 -0.056728065 0.45713213
-0.031418789 -0.057838198 0.4580923
-0.029830724 -0.058091164 0.46191576
-0.13969994 -0.052400395 0.46136284
-0.13472794 -0.051543649 0.4603425
-0.1288643 -0.050887424 0.45907909
-0.12327705 -0.049800422 0.45834586
-0.11978856 -0.048614025 0.4561463
-0.03637588 -0.048247814 0.46192777
-0.034319982 -0.051330343 0.45843595
-0.13248393 -0.047854766 0.46142021
-0.12153067 -0.047654953 0.46052703
-0.11788277 -0.044986863 0.45923942
-0.038732208 -0.0458083 0.45810863
-0.11600997 -0.040117469 0.45912674
-0.11231536 -0.038683631 0.45815229
-0.10949431 -0.034970552 0.45671135
-0.092534982 -0.027406596 0.45730069
-0.088479839 -0.025773665 0.45872653
-0.083279788 -0.024468258 0.46138498
-0.085492924 -0.02352979 0.45695686
-0.081146374 -0.021865318 0.45935288
-0.082498774 -0.10880741 0.46228307
-0.07578671 -0.11188786 0.46514457
-0.069115832 -0.11315229 0.46494833
-0.061911404 -0.11279209 0.46502969
-0.056657478 -0.11023368 0.46504992
-0.053169012 -0.10836884 0.46524373
-0.050016031 -0.10699476 0.46522427
-0.045082837 -0.1041464 0.46491417
-0.040840775 -0.1022734 0.46621382
-0.03808153 -0.1008774 0.46472448
-0.034203727 -0.09848585 0.46486548
-0.033815432 -0.092623569 0.46547899
-0.0343435 -0.086859643 0.46524954
-0.032983661 -0.080837473 0.46472853
-0.031037588 -0.075482816 0.4650093
-0.029622545 -0.072733708 0.46675682
-0.030179262 -0.070766971 0.46252599
-0.02882985 -0.068718635 0.46433577
-0.027397782 -0.062748194 0.46531764
-0.14608733 -0.05459119 0.4633927
-0.14365973 -0.05434002 0.46206003
-0.030784771 -0.055299811 0.46284544
-0.028965175 -0.056718066 0.46673083
-0.14641087 -0.051109511 0.46520355
-0.14170012 -0.050149493 0.46311909
-0.13575815 -0.048732363 0.46254501
-0.12786473 -0.048834477 0.46418396
-0.12444237 -0.048940655 0.4648068
-0.033135235 -0.051320653 0.46460447
-0.14437741 -0.047536254 0.46667588
-0.14105619 -0.046872273 0.465469
-0.13564718 -0.047372498 0.46404517
-0.12135208 -0.046368718 0.46299061
-0.11875974 -0.043547921 0.46440569
-0.037085444 -0.046651602 0.46532208
-0.11663874 -0.040634923 0.46405402
-0.11130252 -0.040375452 0.46495569
-0.093766868 -0.033934381 0.4646132
-0.088393316 -0.030438066 0.46652466
-0.084752142 -0.026121594 0.46348357
-0.079631925 -0.025575414 0.46733513
-0.07881391 -0.022598863 0.46305662
-0.068610109 -0.1147312 0.47124648
-0.062986992 -0.11441983 0.47129244
-0.072291583 -0.11365239 0.46853358
-0.069497287 -0.11394854 0.46921539
-0.061489493 -0.1135536 0.46999305
-0.057444748 -0.11133543 0.47099048
-0.052354854 -0.10881694 0.47172102
-0.049486049 -0.10742529 0.47043848
-0.045200836 -0.1052158 0.47136658
-0.040917963 -0.1028266 0.47070491
-0.037856761 -0.10134527 0.47084388
-0.033294 -0.098718427 0.47369212
-0.032546617 -0.091796279 0.47228774
-0.0324504 -0.086548924 0.47164673
-0.03140891 -0.081310332 0.47085297
-0.030373802 -0.077241987 0.47086373
-0.028857015 -0.074261285 0.47209486
-0.026062744 -0.06930773 0.47097027
-0.023666143 -0.066064641 0.47367328
-0.024982065 -0.062989227 0.47098067
-0.023661077 -0.064361289 0.47305599
-0.027486611 -0.057605684 0.47184867
-0.15061532 -0.050522935 0.47109661
-0.14832892 -0.049247604 0.47020486
-0.13521309 -0.04840371 0.4725076
-0.13032381 -0.049473807 0.47048247
-0.031399786 -0.052521951 0.46962357
-0.1458623 -0.047476351 0.47153282
-0.14143297 -0.046789408 0.47066051
-0.13523497 -0.047717869 0.46912944
-0.11208954 -0.042736307 0.47306237
-0.11526132 -0.04175137 0.46921146
-0.11112821 -0.041196182 0.46940777
-0.092153162 -0.035393476 0.46880651
-0.086012043 -0.032777622 0.47187707
-0.082681865 -0.030482173 0.47224432
-0.079994217 -0.028018638 0.4709284
-0.075043954 -0.026992714 0.47181979
-0.073238805 -0.11696096 0.47761267
-0.068675235 -0.116047 0.47707748
-0.063001581 -0.11488489 0.47688714
-0.060377836 -0.11341476 0.47798425
-0.057276409 -0.11120831 0.47657827
-0.052508514 -0.1089137 0.47694251
-0.049649704 -0.10755053 0.47738913
-0.045261007 -0.10556335 0.4772386
-0.040068228 -0.10286151 0.47693282
-0.037666515 -0.10158563 0.47821283
-0.033482537 -0.099300519 0.47755238
-0.031642828 -0.093418628 0.47737727
-0.031426288 -0.08720576 0.47740704
-0.030690182 -0.081312545 0.47695988
-0.029561013 -0.07830599 0.4788914
-0.028618271 -0.074791998 0.47664428
-0.025283076 -0.069979735 0.4775407
-0.023629129 -0.067158133 0.47714201
-0.024957646 -0.061630607 0.47815886
-0.023598798 -0.064440519 0.47692525
-0.027066547 -0.056795619 0.47721162
-0.15048018 -0.048565313 0.47533327
-0.13964644 -0.048677877 0.4798471
-0.13581675 -0.048971254 0.47720087
-0.13028675 -0.050825223 0.47724977
-0.031734824 -0.050420985 0.47418559
-0.14745875 -0.047244638 0.47591004
-0.14177307 -0.047672905 0.47684398
-0.11209688 -0.04472686 0.47600111
-0.08045093 -0.032270201 0.4772293
-0.075769275 -0.030417815 0.47911456
-0.075200029 -0.028830349 0.47570595
-0.07012637 -0.028630242 0.47704309
-0.072781749 -0.11812314 0.48339355
-0.069328956 -0.11598554 0.48335496
-0.064383537 -0.11479792 0.48145804
-0.062380947 -0.1132604 0.48356748
-0.057077013 -0.11103854 0.48278421
-0.052060194 -0.10880653 0.48311496
-0.049064066 -0.10752407 0.48371235
-0.044695776 -0.10491914 0.48313546
-0.041230686 -0.10242522 0.48272789
-0.038608924 -0.10062831 0.48363784
-0.034235813 -0.098497875 0.48284835
-0.032113485 -0.093415298 0.48287925
-0.031123862 -0.087293066 0.4833183
-0.03038593 -0.081760176 0.4828555
-0.02984497 -0.079717591 0.48401004
-0.028285323 -0.074534014 0.48323789
-0.025641633 -0.06870582 0.48313373
-0.024955761 -0.063361987 0.48324046
-0.025192656 -0.057945885 0.48345852
-0.14033635 -0.048969444 0.48337626
-0.13523097 -0.050094869 0.48362598
-0.11007467 -0.048451141 0.48198685
-0.14429063 -0.047607698 0.48112369
-0.096817523 -0.047046915 0.48319265
-0.084901065 -0.040086791 0.48301178
-0.082876638 -0.037655089 0.48437232
-0.079507083 -0.034436412 0.48352671
-0.075715952 -0.032142576 0.48291767
-0.068481937 -0.030829981 0.482573
-0.065574735 -0.031938717 0.4859302
-0.07466618 -0.11555305 0.48890212
-0.070077397 -0.11478685 0.48650831
-0.078246832 -0.11215116 0.49190834
-0.074438214 -0.11268889 0.49115574
-0.069313698 -0.11245384 0.48952526
-0.062958777 -0.1118918 0.48903343
-0.056924198 -0.11011852 0.48904663
-0.053059995 -0.10865271 0.48831838
-0.049880523 -0.1070338 0.48932385
-0.04586086 -0.10422139 0.48878559
-0.043475159 -0.10075908 0.49007052
-0.039148115 -0.098685361 0.48864228
-0.035572756 -0.096945666 0.48718396
-0.037167031 -0.094799519 0.4905391
-0.033997577 -0.092932433 0.48847321
-0.03227219 -0.087330885 0.48935217
-0.030686647 -0.081637919 0.48891395
-0.029635876 -0.079427525 0.48701489
-0.030272469 -0.077775098 0.48978099
-0.029324194 -0.075546816 0.48909798
-0.028303269 -0.06929554 0.48906803
-0.027225783 -0.063381717 0.48910052
-0.025506074 -0.057608716 0.48924655
-0.14197296 -0.049460366 0.48698622
-0.13456143 -0.051135778 0.4881146
-0.093032509 -0.04935763 0.48924664
-0.083018005 -0.0446066 0.49025297
-0.082508892 -0.038924959 0.48936093
-0.078943811 -0.035472605 0.48888609
-0.075137123 -0.033896666 0.48963046
-0.069128819 -0.032786276 0.48983148
-0.063329846 -0.033079971 0.49067226
-0.079780474 -0.11021445 0.49433059
-0.075178556 -0.10970297 0.49379349
-0.068943426 -0.10946518 0.49406075
-0.062813804 -0.10952067 0.49408534
-0.056973998 -0.10870179 0.4934617
-0.051872224 -0.10816939 0.49239162
-0.080349907 -0.10545709 0.49669132
-0.075262263 -0.10592305 0.49641192
-0.069282554 -0.10609896 0.49684897
-0.063239872 -0.10604793 0.49675998
-0.056771025 -0.10567454 0.49653453
-0.051150072 -0.10474199 0.49437845
-0.04724443 -0.1032737 0.4926067
-0.056279603 -0.098983198 0.49741447
-0.050914101 -0.099015944 0.49594113
-0.045370705 -0.098453388 0.49360019
-0.040987331 -0.096947096 0.49236903
-0.061906129 -0.091121331 0.49757099
-0.056903005 -0.093154021 0.49695787
-0.050853841 -0.093811095 0.49669814
-0.044336673 -0.093478449 0.49597475
-0.039364267 -0.09238895 0.49422434
-0.035518929 -0.091303483 0.49235392
-0.062854961 -0.086782314 0.49669921
-0.056898888 -0.087074116 0.49622193
-0.052715607 -0.085469484 0.49719614
-0.034661565 -0.086648531 0.49398509
-0.062218931 -0.081965238 0.49702397
-0.05751453 -0.082649715 0.49715826
-0.05256027 -0.083141968 0.49791959
-0.042582303 -0.080426678 0.49787202
-0.038933109 -0.081109874 0.49739951
-0.033181328 -0.081035741 0.49445733
-0.037851918 -0.075784467 0.49741969
-0.032810152 -0.075159743 0.49520677
-0.029597521 -0.073492095 0.49269995
-0.037089437 -0.069482818 0.49762222
-0.032780617 -0.069061182 0.49541211
-0.029829046 -0.069965236 0.49245569
-0.11014354 -0.060311481 0.49603212
-0.10700357 -0.06087999 0.49762672
-0.067771763 -0.061864235 0.49792612
-0.064372927 -0.061330304 0.49793956
-0.032103147 -0.063506775 0.49557537
-0.029301472 -0.06150873 0.49278587
-0.1226661 -0.055931509 0.49581504
-0.11005509 -0.058869317 0.49224889
-0.1065135 -0.057382993 0.49432737
-0.067119896 -0.059573561 0.49653068
-0.031100497 -0.05781994 0.49649081
-0.028076023 -0.056910951 0.49415281
-0.13462035 -0.052976929 0.49525079
-0.12862127 -0.053831562 0.49539503
-0.10054466 -0.05161126 0.49587974
-0.093547523 -0.050490849 0.49338752
-0.085808836 -0.050276529 0.49619588
-0.083378494 -0.048521891 0.49478251
-0.083587147 -0.044785503 0.49512258
-0.081451192 -0.038773824 0.49468502
-0.07690078 -0.036343962 0.49585783
-0.074683525 -0.03501239 0.49442106
-0.069186442 -0.034134369 0.49550551
-0.062119924 -0.033918671 0.49531889
-0.05621928 -0.034760952 0.49641261
-0.090929806 -0.12147076 0.50333118
-0.092305206 -0.1170103 0.50230777
-0.09635213 -0.10856228 0.50375855
-0.094396465 -0.11137329 0.50223583
-0.095421985 -0.10727753 0.50305861
-0.078710109 -0.10271344 0.49911234
-0.074246399 -0.1031038 0.49895722
-0.068701804 -0.10292323 0.49874982
-0.063215986 -0.10329273 0.49831513
-0.058931816 -0.10331853 0.49821982
-0.0742817 -0.099515535 0.50170296
-0.06916406 -0.09914425 0.50054181
-0.063407138 -0.098893441 0.49891722
-0.058943313 -0.10048004 0.49841273
-0.073085837 -0.093062304 0.50352037
-0.06879624 -0.093244128 0.50119638
-0.063287541 -0.093531221 0.49850446
-0.059527248 -0.094348863 0.49807549
-0.072552912 -0.088241473 0.50269061
-0.069088064 -0.086640589 0.50067854
-0.065460145 -0.089168683 0.49851835
-0.068805262 -0.080932274 0.50129998
-0.063983008 -0.080276288 0.49878466
-0.056418028 -0.07964316 0.49830812
-0.050218869 -0.080399543 0.4987193
-0.045175374 -0.081027761 0.49871361
-0.067992896 -0.075602546 0.50252789
-0.063100077 -0.075113423 0.50027502
-0.057009596 -0.075027697 0.49982432
-0.050964531 -0.075027086 0.49952233
-0.045054037 -0.074866809 0.49843955
-0.04034353 -0.074729137 0.49820957
-0.067745246 -0.069331549 0.50109017
-0.06355612 -0.06892097 0.49964699
-0.057346463 -0.068901129 0.49976128
-0.050804034 -0.068714648 0.50056785
-0.044931453 -0.069196761 0.49954477
-0.03990297 -0.068399332 0.49893874
-0.11436746 -0.060083345 0.49979395
-0.11050475 -0.061416555 0.50100064
-0.10499664 -0.061217885 0.50178051
-0.067896485 -0.064411268 0.49892348
-0.062564164 -0.063557632 0.49912754
-0.056939922 -0.06318365 0.50053346
-0.050627925 -0.062795542 0.50251091
-0.044841129 -0.063047417 0.50192815
-0.038777191 -0.062825121 0.50025725
-0.034679268 -0.062154096 0.49843016
-0.13375522 -0.054930016 0.50083888
-0.1293385 -0.055165607 0.50180292
-0.1240386 -0.056059644 0.50080943
-0.11693664 -0.058903635 0.50171006
-0.10258064 -0.058529854 0.50130719
-0.044677503 -0.059079003 0.50317806
-0.038820975 -0.0583442 0.50191772
-0.034037109 -0.057840656 0.49956352
-0.097911566 -0.052856933 0.50076145
-0.094150245 -0.053335324 0.50363773
-0.086504377 -0.050434459 0.50074816
-0.084551595 -0.045949075 0.50181544
-0.083793342 -0.044074774 0.50101894
-0.081299976 -0.039946821 0.50092345
-0.075370453 -0.03679822 0.50186348
-0.070011318 -0.036187872 0.50398397
-0.050104722 -0.036933482 0.50236195
-0.045543749 -0.039369356 0.50267345
-0.072886243 -0.035780199 0.49975738
-0.068264514 -0.035101973 0.50001335
-0.06244551 -0.034741573 0.50054681
-0.057560235 -0.034923609 0.50137639
-0.052593827 -0.035628751 0.50245953
-0.094698511 -0.11681741 0.50491685
-0.098521486 -0.11056207 0.50724733
-0.095560133 -0.11264081 0.50428879
-0.098101459 -0.10479687 0.50693172
-0.097979516 -0.099573106 0.50809789
-0.074838437 -0.092430122 0.50508404
-0.07400506 -0.086944029 0.50490201
-0.072939515 -0.08119373 0.50568521
-0.071356967 -0.080898762 0.50486231
-0.071366683 -0.076724641 0.50511813
-0.11097892 -0.060784247 0.50711375
-0.10509773 -0.061025355 0.50660855
-0.0533382 -0.060073882 0.50402498
-0.12736006 -0.056898773 0.50730062
-0.12241658 -0.057349965 0.50667059
-0.11727682 -0.058843151 0.5067715
-0.11290216 -0.059628084 0.50998849
-0.10431877 -0.059589222 0.50861025
-0.099853627 -0.0587974 0.50768644
-0.093499519 -0.054467719 0.5085088
-0.049574181 -0.059701428 0.50437331
-0.091823645 -0.053187899 0.50716907
-0.08807914 -0.050479315 0.50696295
-0.085358769 -0.046930213 0.50678569
-0.082660362 -0.04381711 0.50802487
-0.07985653 -0.040440522 0.50632071
-0.075342484 -0.03818078 0.50680971
-0.069274247 -0.036688205 0.50797665
-0.06488803 -0.036032975 0.5070917
-0.048469603 -0.036580488 0.506975
-0.044139978 -0.038348559 0.50745386
-0.067757964 -0.035792738 0.5040139
-0.063173138 -0.035609838 0.50724477
-0.05693781 -0.035186671 0.50712287
-0.051402815 -0.03546983 0.50726455
-0.10085678 -0.09880285 0.5113824
-0.10921204 -0.060206726 0.51004732
-0.12241933 -0.058533266 0.51291484
-0.11607126 -0.059434075 0.51332277
-0.11082066 -0.059389338 0.51308995
-0.10534653 -0.059378669 0.51258612
-0.099476114 -0.058782015 0.51385868
-0.094039239 -0.056000579 0.51292789
-0.091243558 -0.05213052 0.51325107
-0.088392392 -0.049668048 0.51271319
-0.085499205 -0.04661759 0.51302874
-0.081496291 -0.043654732 0.51360577
-0.079110682 -0.041890427 0.51215458
-0.074928179 -0.039254688 0.51287705
-0.068937287 -0.036913831 0.51298553
-0.065630913 -0.036109477 0.51173568
-0.066689685 -0.035861954 0.51486242
-0.062484048 -0.035034843 0.513659
-0.12272759 -0.061570488 0.52038372
-0.1180287 -0.06006597 0.5200969
-0.12182935 -0.059558235 0.51644707
-0.11573301 -0.059383485 0.51916522
-0.11073157 -0.058660768 0.51895922
-0.10476208 -0.058350585 0.51910651
-0.094184063 -0.055182695 0.51733309
-0.088944927 -0.048481077 0.51681376
