# .PCD v0.7 - Point Cloud Data file format
VERSION 0.7
FIELDS x y z
SIZE 4 4 4
TYPE F F F
COUNT 1 1 1
WIDTH 137
HEIGHT 1
VIEWPOINT 0 0 0 1 0 0 0
POINTS 137
DATA ascii
-0.04682292 -0.11036932 0.47491741
-0.049066953 -0.1132025 0.4857735
-0.057064988 -0.11695633 0.49081674
-0.052578915 -0.11469834 0.48725119
-0.055244874 -0.11190849 0.49083591
-0.051327456 -0.11091667 0.48863474
-0.044982854 -0.10964557 0.48878515
-0.050001513 -0.10724268 0.49074247
-0.044982325 -0.10734899 0.4912391
-0.037251227 -0.099427797 0.49148253
-0.032995123 -0.098722793 0.49031958
-0.029174082 -0.09751337 0.48996854
-0.036824822 -0.095324673 0.49180779
-0.033040911 -0.093105532 0.49102864
-0.028012654 -0.092567854 0.48984066
-0.03125824 -0.087587774 0.49155483
-0.026838258 -0.087202571 0.49034333
-0.023614705 -0.084774435 0.48964739
-0.026631318 -0.081441879 0.49099049
-0.022150317 -0.080081835 0.48922017
-0.026349107 -0.075271226 0.49105376
-0.022403535 -0.075109951 0.48958203
-0.024842033 -0.069666557 0.49135017
-0.021579431 -0.068985812 0.48949748
-0.024865866 -0.065312341 0.49179977
-0.021607744 -0.063441142 0.49038908
-0.022440434 -0.058232322 0.49136069
-0.063089117 -0.11703426 0.49563092
-0.059191484 -0.11652733 0.49349117
-0.066594541 -0.10821019 0.49778193
-0.062515736 -0.11108224 0.49669275
-0.057779178 -0.11081234 0.49393871
-0.06603007 -0.10702777 0.49783576
-0.06254109 -0.10503299 0.49742165
-0.057441264 -0.10496136 0.49481156
-0.049738608 -0.10240054 0.49456644
-0.0444635 -0.10426608 0.492901
-0.061078973 -0.10007397 0.4976252
-0.057121534 -0.098876119 0.49627399
-0.051127058 -0.099075973 0.49557215
-0.04009464 -0.098998725 0.49304715
-0.057063315 -0.094894223 0.49751535
-0.051059864 -0.092998788 0.49697828
-0.045048781 -0.092983209 0.49564561
-0.039315693 -0.092889503 0.49315232
-0.035962895 -0.090665519 0.49245998
-0.05021986 -0.087299809 0.49750903
-0.044970576 -0.087171108 0.49587357
-0.039118908 -0.08694917 0.49422196
-0.034054026 -0.086666904 0.49264205
-0.049427833 -0.082692601 0.49733302
-0.044429019 -0.081543595 0.49677959
-0.03853289 -0.081122562 0.49621522
-0.032939166 -0.08086282 0.49415436
-0.028855423 -0.079772152 0.4923397
-0.032603413 -0.075279966 0.49607795
-0.028937783 -0.074480072 0.49354231
-0.032052729 -0.069054298 0.49679717
-0.027541654 -0.068975255 0.49378026
-0.032483868 -0.063141651 0.49689335
-0.027094034 -0.062862851 0.49446756
-0.023818456 -0.062224004 0.49261311
-0.031579725 -0.058337729 0.49750137
-0.026639806 -0.057070211 0.49500671
-0.023407131 -0.054929629 0.49268928
-0.025060464 -0.051928729 0.49667543
-0.02349627 -0.053010866 0.49434936
-0.085023582 -0.10801187 0.50163603
-0.080577306 -0.11046319 0.50144821
-0.086219586 -0.10457897 0.50263172
-0.081069835 -0.1048817 0.50164616
-0.075145818 -0.10464785 0.50135815
-0.064807355 -0.10447545 0.49875283
-0.086129554 -0.10014705 0.50344551
-0.081451938 -0.10065881 0.50312763
-0.06390091 -0.098674685 0.49956518
-0.057125516 -0.092051506 0.49863812
-0.053885743 -0.091112405 0.49816108
-0.057256538 -0.086936653 0.49937108
-0.052744038 -0.086501293 0.49871334
-0.06243689 -0.081091739 0.50275642
-0.057228867 -0.080736943 0.50029254
-0.051372215 -0.080528818 0.49933726
-0.046151664 -0.079047613 0.49842891
-0.061188255 -0.075970672 0.50354493
-0.05678051 -0.075257368 0.50203085
-0.050820209 -0.074913874 0.5011704
-0.044832386 -0.063141085 0.50212574
-0.038980093 -0.0629346 0.49960613
-0.035229489 -0.063235931 0.49823695
-0.039038874 -0.057055902 0.50123698
-0.033650048 -0.056255043 0.49946722
-0.028410658 -0.054454435 0.4983229
-0.027711997 -0.050807763 0.4999516
-0.090538144 -0.096870393 0.50564313
-0.08745876 -0.09772817 0.50474435
-0.091423154 -0.092696406 0.5067628
-0.087200716 -0.093083985 0.50628906
-0.092033036 -0.086760916 0.50752145
-0.087167479 -0.0869307 0.50699806
-0.091250308 -0.081700794 0.50771481
-0.086923853 -0.080826521 0.50735927
-0.08096718 -0.081005521 0.50740904
-0.090984553 -0.07714431 0.50865793
-0.087055743 -0.075023219 0.50873619
-0.081178889 -0.07492394 0.50727069
-0.07505051 -0.074918859 0.50680721
-0.06910938 -0.075000025 0.50618529
-0.085704051 -0.069724254 0.5095039
-0.081034891 -0.069079772 0.50858253
-0.075002074 -0.069050759 0.50808769
-0.069124594 -0.068808086 0.50703019
-0.08004079 -0.06383419 0.50976765
-0.074766293 -0.063545533 0.50948638
-0.068826102 -0.063102953 0.50858277
-0.079500772 -0.05814819 0.50981206
-0.073159359 -0.057132185 0.50974911
-0.069074787 -0.057136308 0.50946093
-0.054794431 -0.040462997 0.50921369
-0.050927892 -0.040092029 0.50725424
-0.045458168 -0.040608563 0.50659621
-0.091319263 -0.073544174 0.51055491
-0.089868248 -0.072773963 0.51023996
-0.091253623 -0.071421005 0.51095784
-0.088177107 -0.068285845 0.51059014
-0.082324013 -0.066296503 0.51016629
-0.086251535 -0.063635267 0.51114386
-0.081569828 -0.062745534 0.51070839
-0.075705171 -0.061390746 0.51029146
-0.084605284 -0.057548571 0.51229411
-0.081261881 -0.056933623 0.51089108
-0.075353235 -0.057135552 0.51034582
-0.080285236 -0.052230038 0.51149452
-0.074837312 -0.051430773 0.51131856
-0.069226608 -0.051054347 0.51102167
-0.073103316 -0.047118112 0.51244444
-0.068927653 -0.045380905 0.51190388
