# .PCD v0.7 - Point Cloud Data file format
VERSION 0.7
FIELDS x y z
SIZE 4 4 4
TYPE F F F
COUNT 1 1 1
WIDTH 109
HEIGHT 1
VIEWPOINT 0 0 0 1 0 0 0
POINTS 109
DATA ascii
-0.17594233 0.8701492 2.6361976
-0.17594248 0.87702143 2.6362
-0.17594261 0.88389361 2.6362023
-0.17674316 0.86720687 2.6481967
-0.16983995 0.88101399 2.6482015
-0.1698401 0.88791746 2.6482038
-0.16984038 0.90172458 2.6482091
-0.17747726 0.863877 2.6591954
-0.17054537 0.87774152 2.6592002
-0.16361347 0.89160597 2.6592054
-0.15668128 0.89160615 2.6592054
-0.1497491 0.89160627 2.659205
-0.19134234 0.89853764 2.6592078
-0.18441014 0.89853776 2.6592078
-0.17747796 0.89853793 2.6592078
-0.15668142 0.89853835 2.6592078
-0.14974923 0.89853847 2.6592078
-0.14281705 0.89853865 2.6592078
-0.1782781 0.86081219 2.6711946
-0.16435173 0.88866633 2.6712041
-0.14346147 0.89563018 2.6712065
-0.17131549 0.90259314 2.6712093
-0.16435201 0.90259326 2.6712093
-0.13649815 0.90259385 2.6712093
-0.17202032 0.87134945 2.682198
-0.17202047 0.87834162 2.6822004
-0.15803646 0.89232618 2.6822057
-0.15104431 0.89232635 2.6822057
-0.13706015 0.8993187 2.6822081
-0.13006815 0.90631104 2.6822104
-0.16576687 0.88929504 2.6942043
-0.15874344 0.88929516 2.6942043
-0.14469671 0.89631891 2.6942067
-0.13065 0.9033426 2.6942096
-0.18061411 0.86503702 2.7061958
-0.16650513 0.88620144 2.7062035
-0.15239583 0.89325643 2.7062058
-0.13828655 0.90031147 2.7062082
-0.17432921 0.87595922 2.7181997
-0.16724336 0.88304532 2.7182021
-0.16015752 0.89013153 2.7182045
-0.15307151 0.89013165 2.7182045
-0.14598566 0.89721769 2.7182074
-0.13181379 0.90430403 2.7182097
-0.1247281 0.91847622 2.7182145
-0.18221575 0.85847443 2.7301936
-0.18221588 0.86559176 2.730196
-0.14663005 0.89406163 2.730206
-0.13951293 0.90117902 2.7302084
-0.12527865 0.91541386 2.7302132
-0.16872002 0.88369393 2.7422023
-0.16157161 0.89084262 2.7422051
-0.15442303 0.8908428 2.7422047
-0.12582919 0.91228902 2.7422123
-0.17670228 0.88070083 2.7552013
-0.14797273 0.89506632 2.7552066
-0.17747168 0.87010944 2.7671976
-0.17747182 0.87732321 2.7672005
-0.16304463 0.89175099 2.7672052
-0.15583088 0.89175111 2.7672052
-0.17105815 0.88869274 2.7802043
-0.14931539 0.89594084 2.7802067
-0.14206791 0.90318859 2.7802095
-0.13540223 0.90708721 2.7922106
-0.12084499 0.93620318 2.7922206
-0.12084514 0.94348216 2.7922235
-0.12140634 0.87474704 2.8051991
-0.12140649 0.88205981 2.8052015
-0.17259634 0.88937157 2.8052044
-0.15797086 0.89668465 2.8052068
-0.14334539 0.90399778 2.8052096
-0.13603257 0.90399796 2.8052096
-0.12140753 0.93324953 2.8052197
-0.17339611 0.88614661 2.8182034
-0.15870285 0.89349365 2.8182058
-0.11462262 0.89349455 2.8182058
-0.10727591 0.89349473 2.8182054
-0.16604972 0.90084022 2.8182087
-0.15135631 0.90084052 2.8182082
-0.11462291 0.90818793 2.8182106
-0.12197008 0.93022788 2.8182187
-0.15943485 0.89023489 2.8312049
-0.12991247 0.89023548 2.8312044
-0.16681561 0.89761531 2.8312073
-0.15205441 0.89761561 2.8312073
-0.12253202 0.89761621 2.8312073
-0.10039023 0.89761668 2.8312068
-0.13729335 0.90499645 2.8312097
-0.12991276 0.90499663 2.8312097
-0.12253218 0.90499675 2.8312097
-0.11515187 0.91975814 2.8312149
-0.13792354 0.89432317 2.8442059
-0.13792369 0.90173769 2.8442087
-0.1305092 0.90173787 2.8442087
-0.14533833 0.90915203 2.8442116
-0.11568037 0.90915263 2.8442111
-0.10826603 0.91656727 2.844214
-0.10826619 0.92398173 2.8442163
-0.160899 0.89096224 2.8572049
-0.16834754 0.89841044 2.8572078
-0.15345077 0.89841074 2.8572078
-0.1460024 0.89841086 2.8572078
-0.14600255 0.90585929 2.8572102
-0.10876079 0.91330838 2.8572125
-0.15420258 0.89532828 2.8712063
-0.094323859 0.91029924 2.8712115
-0.10180904 0.92526883 2.8712168
-0.1022699 0.92193955 2.8842158
-0.10227021 0.93697709 2.8842211
