# .PCD v0.7 - Point Cloud Data file format
VERSION 0.7
FIELDS x y z
SIZE 4 4 4
TYPE F F F
COUNT 1 1 1
WIDTH 1377
HEIGHT 1
VIEWPOINT 0 0 0 1 0 0 0
POINTS 1377
DATA ascii
-0.054040007 -0.015027756 0.509
-0.052612375 -0.014998232 0.50800002
-0.051290914 -0.014998232 0.50800002
-0.049871091 -0.014968709 0.50700003
-0.04855223 -0.014968709 0.50700003
-0.047140211 -0.014939185 0.50600004
-0.04582395 -0.014939185 0.50600004
-0.044419728 -0.01490966 0.505
-0.043106068 -0.01490966 0.505
-0.041792411 -0.01490966 0.505
-0.040478755 -0.01490966 0.505
-0.039165098 -0.01490966 0.505
-0.037851442 -0.01490966 0.505
-0.036610138 -0.014939185 0.50600004
-0.035293877 -0.014939185 0.50600004
-0.034044769 -0.014968709 0.50700003
-0.032790456 -0.014998232 0.50800002
-0.031530943 -0.015027756 0.509
-0.030266227 -0.015057282 0.51000005
-0.028996306 -0.015086805 0.51100004
-0.027721182 -0.015116329 0.51200002
-0.026440857 -0.015145852 0.51300001
-0.025155328 -0.015175376 0.514
-0.023818258 -0.015175376 0.514
-0.022524931 -0.015204902 0.51500005
-0.021185258 -0.015204902 0.51500005
-0.019845588 -0.015204902 0.51500005
-0.018541852 -0.015234426 0.51600003
-0.01719958 -0.015234426 0.51600003
-0.015857307 -0.015234426 0.51600003
-0.014515035 -0.015234426 0.51600003
-0.013198292 -0.01526395 0.51700002
-0.0091636721 -0.01526395 0.51700002
-0.0078187995 -0.01526395 0.51700002
-0.0064614038 -0.015234426 0.51600003
-0.0051191323 -0.015234426 0.51600003
-0.0037768602 -0.015234426 0.51600003
-0.0024393064 -0.01526395 0.51700002
-0.0010944332 -0.01526395 0.51700002
0.00025043995 -0.01526395 0.51700002
0.0015983988 -0.015293472 0.51800001
0.0029458732 -0.015293472 0.51800001
0.004301636 -0.015322998 0.51900005
0.005651712 -0.015322998 0.51900005
0.007015279 -0.015352522 0.52000004
0.0083679566 -0.015352522 0.52000004
0.0097206328 -0.015352522 0.52000004
0.011094605 -0.015382046 0.52100003
0.012449883 -0.015382046 0.52100003
0.013805161 -0.015382046 0.52100003
0.01516044 -0.015382046 0.52100003
0.016515719 -0.015382046 0.52100003
0.017870998 -0.015382046 0.52100003
0.019189373 -0.015352522 0.52000004
0.02054205 -0.015352522 0.52000004
0.021894729 -0.015352522 0.52000004
0.023247404 -0.015352522 0.52000004
0.024600081 -0.015352522 0.52000004
0.025952758 -0.015352522 0.52000004
0.027305435 -0.015352522 0.52000004
0.028658113 -0.015352522 0.52000004
0.03001079 -0.015352522 0.52000004
0.031363465 -0.015352522 0.52000004
0.032716148 -0.015352522 0.52000004
0.034068819 -0.015352522 0.52000004
0.035421498 -0.015352522 0.52000004
0.036774177 -0.015352522 0.52000004
0.038126852 -0.015352522 0.52000004
0.039555453 -0.015382046 0.52100003
0.040910732 -0.015382046 0.52100003
0.042347129 -0.01541157 0.52200001
0.043705009 -0.01541157 0.52200001
0.045062892 -0.01541157 0.52200001
0.046420772 -0.01541157 0.52200001
0.047778651 -0.01541157 0.52200001
0.049136531 -0.01541157 0.52200001
0.050397675 -0.015382046 0.52100003
0.051752955 -0.015382046 0.52100003
0.053108234 -0.015382046 0.52100003
0.054463513 -0.015382046 0.52100003
0.055818792 -0.015382046 0.52100003
0.057174072 -0.015382046 0.52100003
0.058529351 -0.015382046 0.52100003
0.059884626 -0.015382046 0.52100003
0.061239906 -0.015382046 0.52100003
0.062595181 -0.015382046 0.52100003
0.063950464 -0.015382046 0.52100003
0.06530574 -0.015382046 0.52100003
0.066661023 -0.015382046 0.52100003
0.067885749 -0.015352522 0.52000004
0.069238432 -0.015352522 0.52000004
0.070591107 -0.015352522 0.52000004
0.071943775 -0.015352522 0.52000004
0.073437415 -0.015382046 0.52100003
0.074792691 -0.015382046 0.52100003
0.076147974 -0.015382046 0.52100003
0.077503242 -0.015382046 0.52100003
0.079009883 -0.01541157 0.52200001
0.080367759 -0.01541157 0.52200001
0.081882201 -0.015441094 0.523
0.083242685 -0.015441094 0.523
0.084603161 -0.015441094 0.523
0.085963652 -0.015441094 0.523
0.087324128 -0.015441094 0.523
0.088684611 -0.015441094 0.523
0.09021727 -0.015470618 0.52400005
0.091580346 -0.015470618 0.52400005
0.09294343 -0.015470618 0.52400005
0.094306514 -0.015470618 0.52400005
0.095669597 -0.015470618 0.52400005
0.096847489 -0.015441094 0.523
0.098207973 -0.015441094 0.523
0.099568456 -0.015441094 0.523
0.10092893 -0.015441094 0.523
0.10228942 -0.015441094 0.523
0.1036499 -0.015441094 0.523
0.1048096 -0.01541157 0.52200001
0.10616747 -0.01541157 0.52200001
0.10752536 -0.01541157 0.52200001
0.10888324 -0.01541157 0.52200001
0.11024112 -0.01541157 0.52200001
0.111599 -0.01541157 0.52200001
0.11295687 -0.01541157 0.52200001
0.11431475 -0.01541157 0.52200001
0.11567263 -0.01541157 0.52200001
0.11703051 -0.01541157 0.52200001
0.11838839 -0.01541157 0.52200001
0.11997566 -0.015441094 0.523
0.12133615 -0.015441094 0.523
0.12246203 -0.01541157 0.52200001
0.12405711 -0.015441094 0.523
0.12541759 -0.015441094 0.523
0.12677807 -0.015441094 0.523
0.12813856 -0.015441094 0.523
0.12949903 -0.015441094 0.523
0.13085951 -0.015441094 0.523
0.13221999 -0.015441094 0.523
0.13358048 -0.015441094 0.523
0.13494097 -0.015441094 0.523
0.13630144 -0.015441094 0.523
0.13766192 -0.015441094 0.523
0.13902241 -0.015441094 0.523
0.14038289 -0.015441094 0.523
0.14174336 -0.015441094 0.523
0.14310384 -0.015441094 0.523
0.14446431 -0.015441094 0.523
0.14610365 -0.015470618 0.52400005
0.14746673 -0.015470618 0.52400005
0.1488298 -0.015470618 0.52400005
0.15019289 -0.015470618 0.52400005
0.15184519 -0.015500142 0.52500004
0.15321089 -0.015500142 0.52500004
0.15457657 -0.015500142 0.52500004
0.15594225 -0.015500142 0.52500004
0.15730792 -0.015500142 0.52500004
0.15867361 -0.015500142 0.52500004
0.16034414 -0.015529666 0.52600002
0.16140498 -0.015500142 0.52500004
0.16277066 -0.015500142 0.52500004
0.16413635 -0.015500142 0.52500004
0.16550204 -0.015500142 0.52500004
0.16686772 -0.015500142 0.52500004
0.16823341 -0.015500142 0.52500004
0.16992213 -0.015529666 0.52600002
0.17096476 -0.015500142 0.52500004
0.1726587 -0.015529666 0.52600002
0.17402698 -0.015529666 0.52600002
0.17539527 -0.015529666 0.52600002
0.17676355 -0.015529666 0.52600002
0.17813183 -0.015529666 0.52600002
0.17984138 -0.01555919 0.52700001
0.18121226 -0.01555919 0.52700001
0.18258314 -0.01555919 0.52700001
0.18395403 -0.01555919 0.52700001
0.18532491 -0.01555919 0.52700001
0.18669581 -0.01555919 0.52700001
0.18806669 -0.01555919 0.52700001
0.18943757 -0.01555919 0.52700001
0.19080846 -0.01555919 0.52700001
0.19217935 -0.01555919 0.52700001
0.19355024 -0.01555919 0.52700001
0.19492112 -0.01555919 0.52700001
0.196292 -0.01555919 0.52700001
0.19766289 -0.01555919 0.52700001
0.19903378 -0.01555919 0.52700001
0.20040467 -0.01555919 0.52700001
0.20215842 -0.015588714 0.528
0.20353191 -0.015588714 0.528
0.20490539 -0.015588714 0.528
0.20627889 -0.015588714 0.528
0.20765238 -0.015588714 0.528
0.20902586 -0.015588714 0.528
0.21039934 -0.015588714 0.528
0.21177283 -0.015588714 0.528
0.21314633 -0.015588714 0.528
0.21451981 -0.015588714 0.528
0.2158933 -0.015588714 0.528
0.21767829 -0.015618239 0.52900004
0.21905437 -0.015618239 0.52900004
0.22043048 -0.015618239 0.52900004
0.22180656 -0.015618239 0.52900004
0.22360453 -0.015647763 0.53000003
0.22498322 -0.015647763 0.53000003
0.22636193 -0.015647763 0.53000003
0.22817031 -0.015677286 0.53100002
0.2295516 -0.015677286 0.53100002
0.23136778 -0.015706809 0.53200001
0.23275167 -0.015706809 0.53200001
0.23413557 -0.015706809 0.53200001
0.23551947 -0.015706809 0.53200001
0.23690335 -0.015706809 0.53200001
0.23828724 -0.015706809 0.53200001
0.23967113 -0.015706809 0.53200001
0.24150817 -0.015736336 0.53300005
0.24289466 -0.015736336 0.53300005
0.24428114 -0.015736336 0.53300005
0.24612854 -0.015765859 0.53400004
0.24751765 -0.015765859 0.53400004
0.24890675 -0.015765859 0.53400004
0.25029585 -0.015765859 0.53400004
0.25168493 -0.015765859 0.53400004
0.25354794 -0.015795384 0.53500003
0.25493965 -0.015795384 0.53500003
0.25633135 -0.015795384 0.53500003
0.25772303 -0.015795384 0.53500003
0.25911474 -0.015795384 0.53500003
-0.28067163 -0.013649849 0.50700003
-0.27935275 -0.013649849 0.50700003
-0.27803391 -0.013649849 0.50700003
-0.27726081 -0.013676771 0.50800002
-0.27593935 -0.013676771 0.50800002
-0.27461791 -0.013676771 0.50800002
-0.27329645 -0.013676771 0.50800002
-0.27197498 -0.013676771 0.50800002
-0.27065352 -0.013676771 0.50800002
-0.26933205 -0.013676771 0.50800002
-0.26801059 -0.013676771 0.50800002
-0.26668912 -0.013676771 0.50800002
-0.26536769 -0.013676771 0.50800002
-0.26404622 -0.013676771 0.50800002
-0.26272473 -0.013676771 0.50800002
-0.26140329 -0.013676771 0.50800002
-0.26008183 -0.013676771 0.50800002
-0.25876036 -0.013676771 0.50800002
-0.2574389 -0.013676771 0.50800002
-0.25611743 -0.013676771 0.50800002
-0.254796 -0.013676771 0.50800002
-0.2534745 -0.013676771 0.50800002
-0.25215307 -0.013676771 0.50800002
-0.2508316 -0.013676771 0.50800002
-0.24951014 -0.013676771 0.50800002
-0.24867722 -0.013703694 0.509
-0.24735317 -0.013703694 0.509
-0.24602909 -0.013703694 0.509
-0.24470504 -0.013703694 0.509
-0.24338098 -0.013703694 0.509
-0.24205691 -0.013703694 0.509
-0.24073285 -0.013703694 0.509
-0.23940879 -0.013703694 0.509
-0.23761699 -0.013676771 0.50800002
-0.23629551 -0.013676771 0.50800002
-0.23497406 -0.013676771 0.50800002
-0.23365259 -0.013676771 0.50800002
-0.23233114 -0.013676771 0.50800002
-0.23055494 -0.013649849 0.50700003
-0.22923607 -0.013649849 0.50700003
-0.22791721 -0.013649849 0.50700003
-0.22659835 -0.013649849 0.50700003
-0.2252795 -0.013649849 0.50700003
-0.22351891 -0.013622927 0.50600004
-0.22220264 -0.013622927 0.50600004
-0.22088638 -0.013622927 0.50600004
-0.21957013 -0.013622927 0.50600004
-0.21825387 -0.013622927 0.50600004
-0.21693762 -0.013622927 0.50600004
-0.21562134 -0.013622927 0.50600004
-0.21430509 -0.013622927 0.50600004
-0.21298884 -0.013622927 0.50600004
-0.21209089 -0.013649849 0.50700003
-0.21077204 -0.013649849 0.50700003
-0.20945317 -0.013649849 0.50700003
-0.20813431 -0.013649849 0.50700003
-0.20681545 -0.013649849 0.50700003
-0.20549659 -0.013649849 0.50700003
-0.20417772 -0.013649849 0.50700003
-0.20285887 -0.013649849 0.50700003
-0.20193753 -0.013676771 0.50800002
-0.20061606 -0.013676771 0.50800002
-0.1992946 -0.013676771 0.50800002
-0.19797313 -0.013676771 0.50800002
-0.19703877 -0.013703694 0.509
-0.19571471 -0.013703694 0.509
-0.19439065 -0.013703694 0.509
-0.1930666 -0.013703694 0.509
-0.19174252 -0.013703694 0.509
-0.19041847 -0.013703694 0.509
-0.18909441 -0.013703694 0.509
-0.18777035 -0.013703694 0.509
-0.18644628 -0.013703694 0.509
-0.18512221 -0.013703694 0.509
-0.18379815 -0.013703694 0.509
-0.18247409 -0.013703694 0.509
-0.18115003 -0.013703694 0.509
-0.17982596 -0.013703694 0.509
-0.1785019 -0.013703694 0.509
-0.17717783 -0.013703694 0.509
-0.17585377 -0.013703694 0.509
-0.17418684 -0.013676771 0.50800002
-0.17286536 -0.013676771 0.50800002
-0.17154391 -0.013676771 0.50800002
-0.17022245 -0.013676771 0.50800002
-0.16890098 -0.013676771 0.50800002
-0.16724965 -0.013649849 0.50700003
-0.16593078 -0.013649849 0.50700003
-0.16461192 -0.013649849 0.50700003
-0.16329306 -0.013649849 0.50700003
-0.16197421 -0.013649849 0.50700003
-0.16065535 -0.013649849 0.50700003
-0.12187093 -0.011280645 0.41900003
-0.12078099 -0.011280645 0.41900003
-0.11997671 -0.011307567 0.42000002
-0.11888416 -0.011307567 0.42000002
-0.11807208 -0.01133449 0.42100003
-0.11725477 -0.011361413 0.42200002
-0.11670753 -0.011415258 0.42400002
-0.11587723 -0.011442181 0.42500001
-0.11531178 -0.011496026 0.42700002
-0.11473593 -0.011549872 0.42900002
-0.11414966 -0.011603718 0.43100002
-0.113553 -0.011657563 0.43300003
-0.11294593 -0.011711409 0.43500003
-0.11232845 -0.011765254 0.43700001
-0.111955 -0.011846023 0.44000003
-0.11106227 -0.011872945 0.44100001
-0.11066283 -0.011953714 0.44400004
-0.11024777 -0.012034482 0.44700003
-0.10981709 -0.01211525 0.45000002
-0.10937081 -0.012196018 0.45300001
-0.10890894 -0.012276787 0.45600003
-0.10843144 -0.012357555 0.45900002
-0.10793834 -0.012438323 0.46200001
-0.10742964 -0.012519092 0.46500003
-0.10690533 -0.01259986 0.46800002
-0.1063654 -0.012680628 0.47100002
-0.10558664 -0.012734475 0.47300002
-0.1050181 -0.012815243 0.47600001
-0.10465198 -0.012922933 0.48000002
-0.10404963 -0.013003701 0.48300001
-0.10364449 -0.013111393 0.48700002
-0.10321854 -0.013219085 0.49100003
-0.10256416 -0.013299853 0.49400002
-0.10209919 -0.013407544 0.49800003
-0.10161342 -0.013515235 0.50200003
-0.10070719 -0.01356908 0.50400001
-0.099790566 -0.013622927 0.50600004
-0.098668918 -0.013649849 0.50700003
-0.09754207 -0.013676771 0.50800002
-0.096410006 -0.013703694 0.509
-0.095272765 -0.013730618 0.51000005
-0.093946107 -0.013730618 0.51000005
-0.092619441 -0.013730618 0.51000005
-0.091292776 -0.013730618 0.51000005
-0.089966111 -0.013730618 0.51000005
-0.088639446 -0.013730618 0.51000005
-0.087312788 -0.013730618 0.51000005
-0.085986122 -0.013730618 0.51000005
-0.084659457 -0.013730618 0.51000005
-0.083332792 -0.013730618 0.51000005
-0.082006127 -0.013730618 0.51000005
-0.080679461 -0.013730618 0.51000005
-0.079352796 -0.013730618 0.51000005
-0.078179128 -0.01375754 0.51100004
-0.076849855 -0.01375754 0.51100004
-0.075520597 -0.01375754 0.51100004
-0.074191324 -0.01375754 0.51100004
-0.072862066 -0.01375754 0.51100004
-0.071532793 -0.01375754 0.51100004
-0.070203535 -0.01375754 0.51100004
-0.06887427 -0.01375754 0.51100004
-0.067544997 -0.01375754 0.51100004
-0.066215739 -0.01375754 0.51100004
-0.064886466 -0.01375754 0.51100004
-0.063557208 -0.01375754 0.51100004
-0.062227938 -0.01375754 0.51100004
-0.060779501 -0.013730618 0.51000005
-0.059452835 -0.013730618 0.51000005
-0.058126174 -0.013730618 0.51000005
-0.056688134 -0.013703694 0.509
-0.055255301 -0.013676771 0.50800002
-0.05393384 -0.013676771 0.50800002
-0.052508809 -0.013649849 0.50700003
-0.051189948 -0.013649849 0.50700003
-0.049772728 -0.013622927 0.50600004
-0.048360702 -0.013596002 0.505
-0.047047041 -0.013596002 0.505
-0.045642827 -0.01356908 0.50400001
-0.044331767 -0.01356908 0.50400001
-0.04302071 -0.01356908 0.50400001
-0.041709654 -0.01356908 0.50400001
-0.040318448 -0.013542158 0.50300002
-0.039087545 -0.01356908 0.50400001
-0.037776489 -0.01356908 0.50400001
-0.036537781 -0.013596002 0.505
-0.035224125 -0.013596002 0.505
-0.034044769 -0.013649849 0.50700003
-0.032790456 -0.013676771 0.50800002
-0.031530943 -0.013703694 0.509
-0.030266227 -0.013730618 0.51000005
-0.028996306 -0.01375754 0.51100004
-0.027721182 -0.013784463 0.51200002
-0.026440857 -0.013811385 0.51300001
-0.025106389 -0.013811385 0.51300001
-0.023818258 -0.013838308 0.514
-0.02248119 -0.013838308 0.514
-0.021185258 -0.013865232 0.51500005
-0.019845588 -0.013865232 0.51500005
-0.018541852 -0.013892154 0.51600003
-0.01719958 -0.013892154 0.51600003
-0.015857307 -0.013892154 0.51600003
-0.014515035 -0.013892154 0.51600003
-0.0078036757 -0.013892154 0.51600003
-0.0064614038 -0.013892154 0.51600003
-0.0051191323 -0.013892154 0.51600003
-0.0037768602 -0.013892154 0.51600003
-0.002434588 -0.013892154 0.51600003
-0.0010944332 -0.013919076 0.51700002
0.00025043995 -0.013919076 0.51700002
0.0015983988 -0.013945999 0.51800001
0.0029458732 -0.013945999 0.51800001
0.004301636 -0.013972923 0.51900005
0.005651712 -0.013972923 0.51900005
0.007015279 -0.013999845 0.52000004
0.0083679566 -0.013999845 0.52000004
0.0097206328 -0.013999845 0.52000004
0.011094605 -0.014026768 0.52100003
0.012449883 -0.014026768 0.52100003
0.013805161 -0.014026768 0.52100003
0.015131342 -0.013999845 0.52000004
0.016484018 -0.013999845 0.52000004
0.017836697 -0.013999845 0.52000004
0.019189373 -0.013999845 0.52000004
0.02054205 -0.013999845 0.52000004
0.021894729 -0.013999845 0.52000004
0.023247404 -0.013999845 0.52000004
0.024600081 -0.013999845 0.52000004
0.025952758 -0.013999845 0.52000004
0.027305435 -0.013999845 0.52000004
0.028658113 -0.013999845 0.52000004
0.03001079 -0.013999845 0.52000004
0.031363465 -0.013999845 0.52000004
0.032716148 -0.013999845 0.52000004
0.034068819 -0.013999845 0.52000004
0.035421498 -0.013999845 0.52000004
0.036774177 -0.013999845 0.52000004
0.038200174 -0.014026768 0.52100003
0.039555453 -0.014026768 0.52100003
0.040910732 -0.014026768 0.52100003
0.042347129 -0.01405369 0.52200001
0.043705009 -0.01405369 0.52200001
0.045062892 -0.01405369 0.52200001
0.046420772 -0.01405369 0.52200001
0.047778651 -0.01405369 0.52200001
0.049136531 -0.01405369 0.52200001
0.050397675 -0.014026768 0.52100003
0.051752955 -0.014026768 0.52100003
0.053108234 -0.014026768 0.52100003
0.054463513 -0.014026768 0.52100003
0.055818792 -0.014026768 0.52100003
0.057174072 -0.014026768 0.52100003
0.058417011 -0.013999845 0.52000004
0.059769686 -0.013999845 0.52000004
0.061122362 -0.013999845 0.52000004
0.062595181 -0.014026768 0.52100003
0.063950464 -0.014026768 0.52100003
0.06530574 -0.014026768 0.52100003
0.066661023 -0.014026768 0.52100003
0.068016298 -0.014026768 0.52100003
0.069371581 -0.014026768 0.52100003
0.070726857 -0.014026768 0.52100003
0.072082132 -0.014026768 0.52100003
0.073437415 -0.014026768 0.52100003
0.074792691 -0.014026768 0.52100003
0.076294124 -0.01405369 0.52200001
0.077652 -0.01405369 0.52200001
0.079009883 -0.01405369 0.52200001
0.080521725 -0.014080613 0.523
0.081882201 -0.014080613 0.523
0.083242685 -0.014080613 0.523
0.084603161 -0.014080613 0.523
0.085963652 -0.014080613 0.523
0.087491103 -0.014107537 0.52400005
0.088684611 -0.014080613 0.523
0.09021727 -0.014107537 0.52400005
0.091580346 -0.014107537 0.52400005
0.09294343 -0.014107537 0.52400005
0.094306514 -0.014107537 0.52400005
0.095669597 -0.014107537 0.52400005
0.096847489 -0.014080613 0.523
0.098207973 -0.014080613 0.523
0.099568456 -0.014080613 0.523
0.10092893 -0.014080613 0.523
0.10228942 -0.014080613 0.523
0.1036499 -0.014080613 0.523
0.10501038 -0.014080613 0.523
0.10616747 -0.01405369 0.52200001
0.10752536 -0.01405369 0.52200001
0.10888324 -0.01405369 0.52200001
0.11024112 -0.01405369 0.52200001
0.111599 -0.01405369 0.52200001
0.11295687 -0.01405369 0.52200001
0.11453374 -0.014080613 0.523
0.11589423 -0.014080613 0.523
0.1172547 -0.014080613 0.523
0.11861519 -0.014080613 0.523
0.11997566 -0.014080613 0.523
0.12133615 -0.014080613 0.523
0.12269663 -0.014080613 0.523
0.12405711 -0.014080613 0.523
0.12541759 -0.014080613 0.523
0.12677807 -0.014080613 0.523
0.12813856 -0.014080613 0.523
0.12949903 -0.014080613 0.523
0.13085951 -0.014080613 0.523
0.13221999 -0.014080613 0.523
0.13358048 -0.014080613 0.523
0.13494097 -0.014080613 0.523
0.13630144 -0.014080613 0.523
0.13766192 -0.014080613 0.523
0.13902241 -0.014080613 0.523
0.14038289 -0.014080613 0.523
0.1420144 -0.014107537 0.52400005
0.14337748 -0.014107537 0.52400005
0.14474055 -0.014107537 0.52400005
0.14610365 -0.014107537 0.52400005
0.14746673 -0.014107537 0.52400005
0.1488298 -0.014107537 0.52400005
0.15047951 -0.014134459 0.52500004
0.15184519 -0.014134459 0.52500004
0.15321089 -0.014134459 0.52500004
0.15457657 -0.014134459 0.52500004
0.15594225 -0.014134459 0.52500004
0.15730792 -0.014134459 0.52500004
0.15897584 -0.014161382 0.52600002
0.16034414 -0.014161382 0.52600002
0.16171242 -0.014161382 0.52600002
0.16277066 -0.014134459 0.52500004
0.16413635 -0.014134459 0.52500004
0.16550204 -0.014134459 0.52500004
0.16686772 -0.014134459 0.52500004
0.16823341 -0.014134459 0.52500004
0.16959909 -0.014134459 0.52500004
0.17096476 -0.014134459 0.52500004
0.17233045 -0.014134459 0.52500004
0.17402698 -0.014161382 0.52600002
0.17539527 -0.014161382 0.52600002
0.17676355 -0.014161382 0.52600002
0.17813183 -0.014161382 0.52600002
0.17984138 -0.014188304 0.52700001
0.18121226 -0.014188304 0.52700001
0.18258314 -0.014188304 0.52700001
0.18395403 -0.014188304 0.52700001
0.18532491 -0.014188304 0.52700001
0.18669581 -0.014188304 0.52700001
0.18806669 -0.014188304 0.52700001
0.18943757 -0.014188304 0.52700001
0.19080846 -0.014188304 0.52700001
0.19217935 -0.014188304 0.52700001
0.19355024 -0.014188304 0.52700001
0.19492112 -0.014188304 0.52700001
0.196292 -0.014188304 0.52700001
0.19766289 -0.014188304 0.52700001
0.19903378 -0.014188304 0.52700001
0.20040467 -0.014188304 0.52700001
0.20215842 -0.014215226 0.528
0.20353191 -0.014215226 0.528
0.20490539 -0.014215226 0.528
0.20627889 -0.014215226 0.528
0.20765238 -0.014215226 0.528
0.20902586 -0.014215226 0.528
0.21039934 -0.014215226 0.528
0.21177283 -0.014215226 0.528
0.21314633 -0.014215226 0.528
0.21451981 -0.014215226 0.528
0.2158933 -0.014215226 0.528
0.21767829 -0.014242151 0.52900004
0.21905437 -0.014242151 0.52900004
0.22043048 -0.014242151 0.52900004
0.22180656 -0.014242151 0.52900004
0.22360453 -0.014269073 0.53000003
0.22498322 -0.014269073 0.53000003
0.22678901 -0.014295995 0.53100002
0.22817031 -0.014295995 0.53100002
0.2295516 -0.014295995 0.53100002
0.23093288 -0.014295995 0.53100002
0.23275167 -0.014322918 0.53200001
0.23413557 -0.014322918 0.53200001
0.23551947 -0.014322918 0.53200001
0.23690335 -0.014322918 0.53200001
0.23828724 -0.014322918 0.53200001
0.23967113 -0.014322918 0.53200001
0.24105504 -0.014322918 0.53200001
0.24243893 -0.014322918 0.53200001
0.24428114 -0.014349842 0.53300005
0.24566764 -0.014349842 0.53300005
0.24705413 -0.014349842 0.53300005
0.24890675 -0.014376764 0.53400004
0.25029585 -0.014376764 0.53400004
0.25168493 -0.014376764 0.53400004
0.25307402 -0.014376764 0.53400004
0.25446314 -0.014376764 0.53400004
0.25633135 -0.014403687 0.53500003
0.25772303 -0.014403687 0.53500003
0.25911474 -0.014403687 0.53500003
-0.28067163 -0.012330988 0.50700003
-0.27935275 -0.012330988 0.50700003
-0.27803391 -0.012330988 0.50700003
-0.27671504 -0.012330988 0.50700003
-0.27539617 -0.012330988 0.50700003
-0.27407733 -0.012330988 0.50700003
-0.27275845 -0.012330988 0.50700003
-0.27143961 -0.012330988 0.50700003
-0.27065352 -0.012355309 0.50800002
-0.26933205 -0.012355309 0.50800002
-0.26801059 -0.012355309 0.50800002
-0.26668912 -0.012355309 0.50800002
-0.26536769 -0.012355309 0.50800002
-0.26404622 -0.012355309 0.50800002
-0.26272473 -0.012355309 0.50800002
-0.26140329 -0.012355309 0.50800002
-0.26008183 -0.012355309 0.50800002
-0.25876036 -0.012355309 0.50800002
-0.2574389 -0.012355309 0.50800002
-0.25611743 -0.012355309 0.50800002
-0.254796 -0.012355309 0.50800002
-0.2534745 -0.012355309 0.50800002
-0.25215307 -0.012355309 0.50800002
-0.2508316 -0.012355309 0.50800002
-0.24951014 -0.012355309 0.50800002
-0.24818866 -0.012355309 0.50800002
-0.24686721 -0.012355309 0.50800002
-0.24554574 -0.012355309 0.50800002
-0.2442243 -0.012355309 0.50800002
-0.24290283 -0.012355309 0.50800002
-0.24158137 -0.012355309 0.50800002
-0.2402599 -0.012355309 0.50800002
-0.23893844 -0.012355309 0.50800002
-0.23761699 -0.012355309 0.50800002
-0.23629551 -0.012355309 0.50800002
-0.23497406 -0.012355309 0.50800002
-0.23365259 -0.012355309 0.50800002
-0.23233114 -0.012355309 0.50800002
-0.23055494 -0.012330988 0.50700003
-0.22923607 -0.012330988 0.50700003
-0.22791721 -0.012330988 0.50700003
-0.22659835 -0.012330988 0.50700003
-0.2252795 -0.012330988 0.50700003
-0.22351891 -0.012306667 0.50600004
-0.22220264 -0.012306667 0.50600004
-0.22088638 -0.012306667 0.50600004
-0.21957013 -0.012306667 0.50600004
-0.21825387 -0.012306667 0.50600004
-0.21693762 -0.012306667 0.50600004
-0.21562134 -0.012306667 0.50600004
-0.21430509 -0.012306667 0.50600004
-0.21298884 -0.012306667 0.50600004
-0.21209089 -0.012330988 0.50700003
-0.21077204 -0.012330988 0.50700003
-0.20945317 -0.012330988 0.50700003
-0.20813431 -0.012330988 0.50700003
-0.20681545 -0.012330988 0.50700003
-0.20549659 -0.012330988 0.50700003
-0.20458044 -0.012355309 0.50800002
-0.20325898 -0.012355309 0.50800002
-0.20233503 -0.01237963 0.509
-0.20101097 -0.01237963 0.509
-0.19968691 -0.01237963 0.509
-0.19836284 -0.01237963 0.509
-0.19703877 -0.01237963 0.509
-0.19571471 -0.01237963 0.509
-0.19439065 -0.01237963 0.509
-0.19344592 -0.012403953 0.51000005
-0.19211924 -0.012403953 0.51000005
-0.19041847 -0.01237963 0.509
-0.18909441 -0.01237963 0.509
-0.18777035 -0.01237963 0.509
-0.18644628 -0.01237963 0.509
-0.18512221 -0.01237963 0.509
-0.18379815 -0.01237963 0.509
-0.18247409 -0.01237963 0.509
-0.18115003 -0.01237963 0.509
-0.17982596 -0.01237963 0.509
-0.1785019 -0.01237963 0.509
-0.17717783 -0.01237963 0.509
-0.17550829 -0.012355309 0.50800002
-0.17418684 -0.012355309 0.50800002
-0.17286536 -0.012355309 0.50800002
-0.17154391 -0.012355309 0.50800002
-0.17022245 -0.012355309 0.50800002
-0.16856851 -0.012330988 0.50700003
-0.16724965 -0.012330988 0.50700003
-0.16593078 -0.012330988 0.50700003
-0.16461192 -0.012330988 0.50700003
-0.16329306 -0.012330988 0.50700003
-0.16197421 -0.012330988 0.50700003
-0.16065535 -0.012330988 0.50700003
-0.12187093 -0.010190698 0.41900003
-0.12078099 -0.010190698 0.41900003
-0.11997671 -0.01021502 0.42000002
-0.11888416 -0.01021502 0.42000002
-0.11807208 -0.010239341 0.42100003
-0.11725477 -0.010263663 0.42200002
-0.11643227 -0.010287983 0.42300001
-0.11560458 -0.010312306 0.42400002
-0.11504173 -0.010360949 0.42600003
-0.11446849 -0.010409592 0.42800003
-0.11361996 -0.010433913 0.42900002
-0.1130285 -0.010482556 0.43100002
-0.11242663 -0.010531199 0.43300003
-0.11181436 -0.010579842 0.43500003
-0.11119167 -0.010628484 0.43700001
-0.11055858 -0.010677127 0.43900001
-0.1099151 -0.01072577 0.44100001
-0.10950785 -0.010798736 0.44400004
-0.10908498 -0.0108717 0.44700003
-0.10888795 -0.010968986 0.45100003
-0.10843126 -0.01104195 0.45400003
-0.10795897 -0.011114914 0.45700002
-0.10747108 -0.011187878 0.46000001
-0.10696758 -0.011260843 0.46300003
-0.10644846 -0.011333807 0.46600002
-0.10568791 -0.01138245 0.46800002
-0.10491696 -0.011431093 0.47000003
-0.10435623 -0.011504058 0.47300002
-0.10377988 -0.011577022 0.47600001
-0.10318794 -0.011649987 0.47900003
-0.10216743 -0.011820237 0.48600003
-0.10173368 -0.011917522 0.49000001
-0.10127912 -0.012014809 0.49400002
-0.10080375 -0.012112095 0.49800003
-0.10010774 -0.012185059 0.50100005
-0.099198923 -0.012233702 0.50300002
-0.098474301 -0.012306667 0.50600004
-0.097350061 -0.012330988 0.50700003
-0.096220605 -0.012355309 0.50800002
-0.095085949 -0.01237963 0.509
-0.093946107 -0.012403953 0.51000005
-0.092619441 -0.012403953 0.51000005
-0.091471784 -0.012428274 0.51100004
-0.090142511 -0.012428274 0.51100004
-0.088813245 -0.012428274 0.51100004
-0.087312788 -0.012403953 0.51000005
-0.085986122 -0.012403953 0.51000005
-0.084659457 -0.012403953 0.51000005
-0.083332792 -0.012403953 0.51000005
-0.082006127 -0.012403953 0.51000005
-0.080679461 -0.012403953 0.51000005
-0.079352796 -0.012403953 0.51000005
-0.078026138 -0.012403953 0.51000005
-0.076849855 -0.012428274 0.51100004
-0.075520597 -0.012428274 0.51100004
-0.074191324 -0.012428274 0.51100004
-0.072862066 -0.012428274 0.51100004
-0.071532793 -0.012428274 0.51100004
-0.070203535 -0.012428274 0.51100004
-0.06887427 -0.012428274 0.51100004
-0.067544997 -0.012428274 0.51100004
-0.066215739 -0.012428274 0.51100004
-0.064759493 -0.012403953 0.51000005
-0.063432828 -0.012403953 0.51000005
-0.062106166 -0.012403953 0.51000005
-0.060779501 -0.012403953 0.51000005
-0.059452835 -0.012403953 0.51000005
-0.058012195 -0.01237963 0.509
-0.056576762 -0.012355309 0.50800002
-0.05514653 -0.012330988 0.50700003
-0.053827669 -0.012330988 0.50700003
-0.052405246 -0.012306667 0.50600004
-0.050988015 -0.012282345 0.505
-0.049674358 -0.012282345 0.505
-0.048264939 -0.012258023 0.50400001
-0.046860721 -0.012233702 0.50300002
-0.045552265 -0.012233702 0.50300002
-0.044155851 -0.012209381 0.50200003
-0.042849995 -0.012209381 0.50200003
-0.041544143 -0.012209381 0.50200003
-0.040238291 -0.012209381 0.50200003
-0.038932439 -0.012209381 0.50200003
-0.037701536 -0.012233702 0.50300002
-0.036465432 -0.012258023 0.50400001
-0.035224125 -0.012282345 0.505
-0.033977617 -0.012306667 0.50600004
-0.032725912 -0.012330988 0.50700003
-0.031530943 -0.01237963 0.509
-0.030266227 -0.012403953 0.51000005
-0.028996306 -0.012428274 0.51100004
-0.027721182 -0.012452595 0.51200002
-0.026389316 -0.012452595 0.51200002
-0.025106389 -0.012476916 0.51300001
-0.023771919 -0.012476916 0.51300001
-0.02248119 -0.012501238 0.514
-0.02114412 -0.012501238 0.514
-0.01980705 -0.012501238 0.514
-0.018469982 -0.012501238 0.514
-0.017166248 -0.01252556 0.51500005
-0.015826577 -0.01252556 0.51500005
-0.014486905 -0.01252556 0.51500005
-0.0091459481 -0.012549882 0.51600003
-0.0078036757 -0.012549882 0.51600003
-0.0064614038 -0.012549882 0.51600003
-0.0051191323 -0.012549882 0.51600003
-0.0037768602 -0.012549882 0.51600003
-0.002434588 -0.012549882 0.51600003
-0.0010944332 -0.012574202 0.51700002
0.00025043995 -0.012574202 0.51700002
0.0015983988 -0.012598524 0.51800001
0.0029458732 -0.012598524 0.51800001
0.004301636 -0.012622846 0.51900005
0.005651712 -0.012622846 0.51900005
0.0070017884 -0.012622846 0.51900005
0.0083679566 -0.012647168 0.52000004
0.0097206328 -0.012647168 0.52000004
0.011094605 -0.012671488 0.52100003
0.012425987 -0.012647168 0.52000004
0.013778664 -0.012647168 0.52000004
0.015131342 -0.012647168 0.52000004
0.016484018 -0.012647168 0.52000004
0.017836697 -0.012647168 0.52000004
0.019189373 -0.012647168 0.52000004
0.02054205 -0.012647168 0.52000004
0.021894729 -0.012647168 0.52000004
0.023247404 -0.012647168 0.52000004
0.024600081 -0.012647168 0.52000004
0.025952758 -0.012647168 0.52000004
0.027305435 -0.012647168 0.52000004
0.028658113 -0.012647168 0.52000004
0.03001079 -0.012647168 0.52000004
0.031363465 -0.012647168 0.52000004
0.032716148 -0.012647168 0.52000004
0.034068819 -0.012647168 0.52000004
0.035421498 -0.012647168 0.52000004
0.036774177 -0.012647168 0.52000004
0.038200174 -0.012671488 0.52100003
0.039555453 -0.012671488 0.52100003
0.040910732 -0.012671488 0.52100003
0.042347129 -0.01269581 0.52200001
0.043705009 -0.01269581 0.52200001
0.045062892 -0.01269581 0.52200001
0.046420772 -0.01269581 0.52200001
0.047778651 -0.01269581 0.52200001
0.049136531 -0.01269581 0.52200001
0.050494406 -0.01269581 0.52200001
0.051752955 -0.012671488 0.52100003
0.053108234 -0.012671488 0.52100003
0.054463513 -0.012671488 0.52100003
0.055818792 -0.012671488 0.52100003
0.057174072 -0.012671488 0.52100003
0.058529351 -0.012671488 0.52100003
0.059884626 -0.012671488 0.52100003
0.061239906 -0.012671488 0.52100003
0.062595181 -0.012671488 0.52100003
0.063950464 -0.012671488 0.52100003
0.06530574 -0.012671488 0.52100003
0.066661023 -0.012671488 0.52100003
0.068016298 -0.012671488 0.52100003
0.069371581 -0.012671488 0.52100003
0.070726857 -0.012671488 0.52100003
0.072082132 -0.012671488 0.52100003
0.073578365 -0.01269581 0.52200001
0.074936241 -0.01269581 0.52200001
0.076294124 -0.01269581 0.52200001
0.077652 -0.01269581 0.52200001
0.079009883 -0.01269581 0.52200001
0.080521725 -0.012720131 0.523
0.081882201 -0.012720131 0.523
0.083242685 -0.012720131 0.523
0.084603161 -0.012720131 0.523
0.085963652 -0.012720131 0.523
0.087324128 -0.012720131 0.523
0.088854186 -0.012744454 0.52400005
0.09021727 -0.012744454 0.52400005
0.091580346 -0.012744454 0.52400005
0.09294343 -0.012744454 0.52400005
0.094306514 -0.012744454 0.52400005
0.095669597 -0.012744454 0.52400005
0.096847489 -0.012720131 0.523
0.098207973 -0.012720131 0.523
0.099568456 -0.012720131 0.523
0.10092893 -0.012720131 0.523
0.10228942 -0.012720131 0.523
0.1036499 -0.012720131 0.523
0.10501038 -0.012720131 0.523
0.10637086 -0.012720131 0.523
0.10773133 -0.012720131 0.523
0.10909183 -0.012720131 0.523
0.1104523 -0.012720131 0.523
0.11181279 -0.012720131 0.523
0.11317326 -0.012720131 0.523
0.11453374 -0.012720131 0.523
0.11589423 -0.012720131 0.523
0.1172547 -0.012720131 0.523
0.11861519 -0.012720131 0.523
0.11997566 -0.012720131 0.523
0.12133615 -0.012720131 0.523
0.12269663 -0.012720131 0.523
0.12405711 -0.012720131 0.523
0.12541759 -0.012720131 0.523
0.12677807 -0.012720131 0.523
0.12813856 -0.012720131 0.523
0.12949903 -0.012720131 0.523
0.13085951 -0.012720131 0.523
0.13221999 -0.012720131 0.523
0.13358048 -0.012720131 0.523
0.13494097 -0.012720131 0.523
0.13630144 -0.012720131 0.523
0.13766192 -0.012720131 0.523
0.13902241 -0.012720131 0.523
0.14065132 -0.012744454 0.52400005
0.1420144 -0.012744454 0.52400005
0.14337748 -0.012744454 0.52400005
0.14474055 -0.012744454 0.52400005
0.14610365 -0.012744454 0.52400005
0.14746673 -0.012744454 0.52400005
0.14911383 -0.012768775 0.52500004
0.15047951 -0.012768775 0.52500004
0.15184519 -0.012768775 0.52500004
0.15321089 -0.012768775 0.52500004
0.15457657 -0.012768775 0.52500004
0.15594225 -0.012768775 0.52500004
0.15760756 -0.012793096 0.52600002
0.15897584 -0.012793096 0.52600002
0.16034414 -0.012793096 0.52600002
0.16171242 -0.012793096 0.52600002
0.16277066 -0.012768775 0.52500004
0.16413635 -0.012768775 0.52500004
0.16550204 -0.012768775 0.52500004
0.16686772 -0.012768775 0.52500004
0.16823341 -0.012768775 0.52500004
0.16959909 -0.012768775 0.52500004
0.17096476 -0.012768775 0.52500004
0.17233045 -0.012768775 0.52500004
0.17369615 -0.012768775 0.52500004
0.17539527 -0.012793096 0.52600002
0.17676355 -0.012793096 0.52600002
0.17813183 -0.012793096 0.52600002
0.17950013 -0.012793096 0.52600002
0.1808684 -0.012793096 0.52600002
0.18258314 -0.012817417 0.52700001
0.18395403 -0.012817417 0.52700001
0.18532491 -0.012817417 0.52700001
0.18669581 -0.012817417 0.52700001
0.18806669 -0.012817417 0.52700001
0.18943757 -0.012817417 0.52700001
0.19080846 -0.012817417 0.52700001
0.19217935 -0.012817417 0.52700001
0.19355024 -0.012817417 0.52700001
0.19492112 -0.012817417 0.52700001
0.196292 -0.012817417 0.52700001
0.19766289 -0.012817417 0.52700001
0.19903378 -0.012817417 0.52700001
0.20078494 -0.012841738 0.528
0.20215842 -0.012841738 0.528
0.20353191 -0.012841738 0.528
0.20490539 -0.012841738 0.528
0.20627889 -0.012841738 0.528
0.20765238 -0.012841738 0.528
0.20902586 -0.012841738 0.528
0.21039934 -0.012841738 0.528
0.21177283 -0.012841738 0.528
0.21314633 -0.012841738 0.528
0.21451981 -0.012841738 0.528
0.2163022 -0.012866061 0.52900004
0.21767829 -0.012866061 0.52900004
0.21905437 -0.012866061 0.52900004
0.22043048 -0.012866061 0.52900004
0.22180656 -0.012866061 0.52900004
0.22360453 -0.012890382 0.53000003
0.22498322 -0.012890382 0.53000003
0.22678901 -0.012914703 0.53100002
0.22817031 -0.012914703 0.53100002
0.2295516 -0.012914703 0.53100002
0.23093288 -0.012914703 0.53100002
0.23275167 -0.012939025 0.53200001
0.23413557 -0.012939025 0.53200001
0.23551947 -0.012939025 0.53200001
0.23690335 -0.012939025 0.53200001
0.23828724 -0.012939025 0.53200001
0.23967113 -0.012939025 0.53200001
0.24105504 -0.012939025 0.53200001
0.24243893 -0.012939025 0.53200001
0.24382281 -0.012939025 0.53200001
0.2452067 -0.012939025 0.53200001
0.24705413 -0.012963347 0.53300005
0.24844064 -0.012963347 0.53300005
0.24982713 -0.012963347 0.53300005
0.25168493 -0.012987668 0.53400004
0.25307402 -0.012987668 0.53400004
0.25446314 -0.012987668 0.53400004
0.25633135 -0.013011989 0.53500003
0.25772303 -0.013011989 0.53500003
0.25911474 -0.013011989 0.53500003
-0.28067163 -0.011012129 0.50700003
-0.27935275 -0.011012129 0.50700003
-0.27803391 -0.011012129 0.50700003
-0.27671504 -0.011012129 0.50700003
-0.27539617 -0.011012129 0.50700003
-0.27407733 -0.011012129 0.50700003
-0.27275845 -0.011012129 0.50700003
-0.27143961 -0.011012129 0.50700003
-0.27012074 -0.011012129 0.50700003
-0.26933205 -0.011033848 0.50800002
-0.26801059 -0.011033848 0.50800002
-0.26668912 -0.011033848 0.50800002
-0.26536769 -0.011033848 0.50800002
-0.26404622 -0.011033848 0.50800002
-0.26272473 -0.011033848 0.50800002
-0.26140329 -0.011033848 0.50800002
-0.26008183 -0.011033848 0.50800002
-0.25876036 -0.011033848 0.50800002
-0.2574389 -0.011033848 0.50800002
-0.25611743 -0.011033848 0.50800002
-0.254796 -0.011033848 0.50800002
-0.2534745 -0.011033848 0.50800002
-0.25215307 -0.011033848 0.50800002
-0.2508316 -0.011033848 0.50800002
-0.24951014 -0.011033848 0.50800002
-0.24818866 -0.011033848 0.50800002
-0.24686721 -0.011033848 0.50800002
-0.24554574 -0.011033848 0.50800002
-0.2442243 -0.011033848 0.50800002
-0.24290283 -0.011033848 0.50800002
-0.24158137 -0.011033848 0.50800002
-0.2402599 -0.011033848 0.50800002
-0.23893844 -0.011033848 0.50800002
-0.23761699 -0.011033848 0.50800002
-0.23629551 -0.011033848 0.50800002
-0.23497406 -0.011033848 0.50800002
-0.23365259 -0.011033848 0.50800002
-0.23233114 -0.011033848 0.50800002
-0.23055494 -0.011012129 0.50700003
-0.22923607 -0.011012129 0.50700003
-0.22791721 -0.011012129 0.50700003
-0.22659835 -0.011012129 0.50700003
-0.2252795 -0.011012129 0.50700003
-0.22351891 -0.010990408 0.50600004
-0.22220264 -0.010990408 0.50600004
-0.22088638 -0.010990408 0.50600004
-0.21957013 -0.010990408 0.50600004
-0.21825387 -0.010990408 0.50600004
-0.21693762 -0.010990408 0.50600004
-0.21562134 -0.010990408 0.50600004
-0.21430509 -0.010990408 0.50600004
-0.21340975 -0.011012129 0.50700003
-0.21209089 -0.011012129 0.50700003
-0.21077204 -0.011012129 0.50700003
-0.20945317 -0.011012129 0.50700003
-0.20854482 -0.011033848 0.50800002
-0.20722337 -0.011033848 0.50800002
-0.20590191 -0.011033848 0.50800002
-0.20458044 -0.011033848 0.50800002
-0.20365909 -0.011055568 0.509
-0.20233503 -0.011055568 0.509
-0.20101097 -0.011055568 0.509
-0.19968691 -0.011055568 0.509
-0.19836284 -0.011055568 0.509
-0.1974259 -0.011077289 0.51000005
-0.19609924 -0.011077289 0.51000005
-0.19477259 -0.011077289 0.51000005
-0.19344592 -0.011077289 0.51000005
-0.19211924 -0.011077289 0.51000005
-0.19079259 -0.011077289 0.51000005
-0.18946593 -0.011077289 0.51000005
-0.18813926 -0.011077289 0.51000005
-0.18681259 -0.011077289 0.51000005
-0.18512221 -0.011055568 0.509
-0.18379815 -0.011055568 0.509
-0.18247409 -0.011055568 0.509
-0.18115003 -0.011055568 0.509
-0.17982596 -0.011055568 0.509
-0.1785019 -0.011055568 0.509
-0.17682976 -0.011033848 0.50800002
-0.17550829 -0.011033848 0.50800002
-0.17418684 -0.011033848 0.50800002
-0.17252508 -0.011012129 0.50700003
-0.17120622 -0.011012129 0.50700003
-0.16988736 -0.011012129 0.50700003
-0.16856851 -0.011012129 0.50700003
-0.16724965 -0.011012129 0.50700003
-0.16593078 -0.011012129 0.50700003
-0.16461192 -0.011012129 0.50700003
-0.16297099 -0.010990408 0.50600004
-0.12405083 -0.0091007529 0.41900003
-0.12296089 -0.0091007529 0.41900003
-0.12187093 -0.0091007529 0.41900003
-0.12106925 -0.0091224732 0.42000002
-0.11997671 -0.0091224732 0.42000002
-0.11888416 -0.0091224732 0.42000002
-0.11807208 -0.0091441935 0.42100003
-0.11697692 -0.0091441935 0.42100003
-0.11615703 -0.0091659138 0.42200002
-0.11533193 -0.0091876332 0.42300001
-0.11477168 -0.0092310738 0.42500001
-0.11393359 -0.0092527941 0.42600003
-0.11335512 -0.0092962347 0.42800003
-0.11250401 -0.009317955 0.42900002
-0.11190734 -0.0093613947 0.43100002
-0.11130027 -0.0094048353 0.43300003
-0.11093722 -0.0094699962 0.43600002
-0.1100549 -0.0094917156 0.43700001
-0.10941662 -0.0095351562 0.43900001
-0.10901457 -0.0096003171 0.44200003
-0.10859691 -0.0096654771 0.44500002
-0.10816363 -0.009730638 0.44800001
-0.10795359 -0.0098175183 0.45200002
-0.1074865 -0.0098826792 0.45500001
-0.10700382 -0.0099478401 0.45800003
-0.10650551 -0.010013 0.46100003
-0.1059916 -0.01007816 0.46400002
-0.10523625 -0.010121601 0.46600002
-0.10424727 -0.010143321 0.46700001
-0.10347372 -0.010186762 0.46900001
-0.10290778 -0.010251923 0.47200003
-0.10232624 -0.010317083 0.47500002
-0.10069558 -0.010534284 0.48500001
-0.10025402 -0.010621165 0.48900002
-0.099791661 -0.010708046 0.49300003
-0.099308476 -0.010794926 0.49700001
-0.098607272 -0.010860086 0.5
-0.09769585 -0.010903528 0.50200003
-0.096966028 -0.010968687 0.505
-0.096031196 -0.011012129 0.50700003
-0.095085949 -0.011055568 0.509
-0.093946107 -0.011077289 0.51000005
-0.092619441 -0.011077289 0.51000005
-0.091471784 -0.011099009 0.51100004
-0.089966111 -0.011077289 0.51000005
-0.088813245 -0.011099009 0.51100004
-0.087312788 -0.011077289 0.51000005
-0.085986122 -0.011077289 0.51000005
-0.084659457 -0.011077289 0.51000005
-0.083332792 -0.011077289 0.51000005
-0.082006127 -0.011077289 0.51000005
-0.080679461 -0.011077289 0.51000005
-0.079352796 -0.011077289 0.51000005
-0.078026138 -0.011077289 0.51000005
-0.076699473 -0.011077289 0.51000005
-0.075372808 -0.011077289 0.51000005
-0.074046142 -0.011077289 0.51000005
-0.072719477 -0.011077289 0.51000005
-0.071392812 -0.011077289 0.51000005
-0.070066147 -0.011077289 0.51000005
-0.068739489 -0.011077289 0.51000005
-0.067412823 -0.011077289 0.51000005
-0.066086158 -0.011077289 0.51000005
-0.064759493 -0.011077289 0.51000005
-0.063432828 -0.011077289 0.51000005
-0.062106166 -0.011077289 0.51000005
-0.060660318 -0.011055568 0.509
-0.059336256 -0.011055568 0.509
-0.057898223 -0.011033848 0.50800002
-0.056465391 -0.011012129 0.50700003
-0.05514653 -0.011012129 0.50700003
-0.053721502 -0.010990408 0.50600004
-0.052301671 -0.010968687 0.505
-0.050887048 -0.010946968 0.50400001
-0.049477633 -0.010925247 0.50300002
-0.048169177 -0.010925247 0.50300002
-0.046767559 -0.010903528 0.50200003
-0.045461703 -0.010903528 0.50200003
-0.044067893 -0.010881808 0.50100005
-0.042764638 -0.010881808 0.50100005
-0.041461386 -0.010881808 0.50100005
-0.040238291 -0.010903528 0.50200003
-0.038932439 -0.010903528 0.50200003
-0.037626583 -0.010903528 0.50200003
-0.03639308 -0.010925247 0.50300002
-0.035224125 -0.010968687 0.505
-0.033977617 -0.010990408 0.50600004
-0.032725912 -0.011012129 0.50700003
-0.031530943 -0.011055568 0.509
-0.030266227 -0.011077289 0.51000005
-0.028996306 -0.011099009 0.51100004
-0.027721182 -0.011120729 0.51200002
-0.026389316 -0.011120729 0.51200002
-0.025057448 -0.011120729 0.51200002
-0.023771919 -0.011142449 0.51300001
-0.022437453 -0.011142449 0.51300001
-0.021102985 -0.011142449 0.51300001
-0.019768516 -0.011142449 0.51300001
-0.018469982 -0.011164169 0.514
-0.017132914 -0.011164169 0.514
-0.015795844 -0.011164169 0.514
-0.014486905 -0.01118589 0.51500005
-0.011807565 -0.01118589 0.51500005
-0.010467893 -0.01118589 0.51500005
-0.0091459481 -0.011207609 0.51600003
-0.0078036757 -0.011207609 0.51600003
-0.0064614038 -0.011207609 0.51600003
-0.0051191323 -0.011207609 0.51600003
-0.0037768602 -0.011207609 0.51600003
-0.002434588 -0.011207609 0.51600003
-0.0010944332 -0.01122933 0.51700002
0.00025043995 -0.01122933 0.51700002
0.0015983988 -0.01125105 0.51800001
0.0029458732 -0.01125105 0.51800001
0.004301636 -0.011272771 0.51900005
0.005651712 -0.011272771 0.51900005
0.0070017884 -0.011272771 0.51900005
0.0083679566 -0.011294491 0.52000004
0.0097206328 -0.011294491 0.52000004
0.01107331 -0.011294491 0.52000004
0.012425987 -0.011294491 0.52000004
0.013778664 -0.011294491 0.52000004
0.015131342 -0.011294491 0.52000004
0.016484018 -0.011294491 0.52000004
0.017836697 -0.011294491 0.52000004
0.019189373 -0.011294491 0.52000004
0.020502547 -0.011272771 0.51900005
0.021894729 -0.011294491 0.52000004
0.023247404 -0.011294491 0.52000004
0.024600081 -0.011294491 0.52000004
0.025952758 -0.011294491 0.52000004
0.027305435 -0.011294491 0.52000004
0.028658113 -0.011294491 0.52000004
0.03001079 -0.011294491 0.52000004
0.031363465 -0.011294491 0.52000004
0.032716148 -0.011294491 0.52000004
0.034068819 -0.011294491 0.52000004
0.035421498 -0.011294491 0.52000004
0.036774177 -0.011294491 0.52000004
0.038200174 -0.011316211 0.52100003
0.039555453 -0.011316211 0.52100003
0.040989254 -0.01133793 0.52200001
0.042347129 -0.01133793 0.52200001
0.043705009 -0.01133793 0.52200001
0.045062892 -0.01133793 0.52200001
0.046420772 -0.01133793 0.52200001
0.047778651 -0.01133793 0.52200001
0.049136531 -0.01133793 0.52200001
0.050494406 -0.01133793 0.52200001
0.051752955 -0.011316211 0.52100003
0.053108234 -0.011316211 0.52100003
0.054463513 -0.011316211 0.52100003
0.055818792 -0.011316211 0.52100003
0.057174072 -0.011316211 0.52100003
0.058529351 -0.011316211 0.52100003
0.059884626 -0.011316211 0.52100003
0.061239906 -0.011316211 0.52100003
0.062595181 -0.011316211 0.52100003
0.064073205 -0.01133793 0.52200001
0.065431081 -0.01133793 0.52200001
0.066788964 -0.01133793 0.52200001
0.068146847 -0.01133793 0.52200001
0.06950473 -0.01133793 0.52200001
0.070862606 -0.01133793 0.52200001
0.072220482 -0.01133793 0.52200001
0.073578365 -0.01133793 0.52200001
0.074936241 -0.01133793 0.52200001
0.076294124 -0.01133793 0.52200001
0.077652 -0.01133793 0.52200001
0.079161242 -0.011359651 0.523
0.080521725 -0.011359651 0.523
0.081882201 -0.011359651 0.523
0.083242685 -0.011359651 0.523
0.084603161 -0.011359651 0.523
0.085963652 -0.011359651 0.523
0.087324128 -0.011359651 0.523
0.088854186 -0.011381372 0.52400005
0.09021727 -0.011381372 0.52400005
0.091580346 -0.011381372 0.52400005
0.09294343 -0.011381372 0.52400005
0.094306514 -0.011381372 0.52400005
0.095669597 -0.011381372 0.52400005
0.096847489 -0.011359651 0.523
0.098207973 -0.011359651 0.523
0.099568456 -0.011359651 0.523
0.10092893 -0.011359651 0.523
0.10228942 -0.011359651 0.523
0.1036499 -0.011359651 0.523
0.10501038 -0.011359651 0.523
0.10637086 -0.011359651 0.523
0.10773133 -0.011359651 0.523
0.10909183 -0.011359651 0.523
0.1104523 -0.011359651 0.523
0.11181279 -0.011359651 0.523
0.11317326 -0.011359651 0.523
0.11453374 -0.011359651 0.523
0.11589423 -0.011359651 0.523
0.1172547 -0.011359651 0.523
0.11861519 -0.011359651 0.523
0.12020507 -0.011381372 0.52400005
0.12156817 -0.011381372 0.52400005
0.12269663 -0.011359651 0.523
0.12429433 -0.011381372 0.52400005
0.12541759 -0.011359651 0.523
0.12677807 -0.011359651 0.523
0.12813856 -0.011359651 0.523
0.12949903 -0.011359651 0.523
0.13085951 -0.011359651 0.523
0.13221999 -0.011359651 0.523
0.13358048 -0.011359651 0.523
0.13494097 -0.011359651 0.523
0.13630144 -0.011359651 0.523
0.13792515 -0.011381372 0.52400005
0.13928823 -0.011381372 0.52400005
0.14065132 -0.011381372 0.52400005
0.1420144 -0.011381372 0.52400005
0.14337748 -0.011381372 0.52400005
0.14474055 -0.011381372 0.52400005
0.14610365 -0.011381372 0.52400005
0.14774816 -0.011403091 0.52500004
0.14911383 -0.011403091 0.52500004
0.15047951 -0.011403091 0.52500004
0.15184519 -0.011403091 0.52500004
0.15321089 -0.011403091 0.52500004
0.15457657 -0.011403091 0.52500004
0.15594225 -0.011403091 0.52500004
0.15730792 -0.011403091 0.52500004
0.15897584 -0.011424812 0.52600002
0.16034414 -0.011424812 0.52600002
0.16140498 -0.011403091 0.52500004
0.16277066 -0.011403091 0.52500004
0.16413635 -0.011403091 0.52500004
0.16550204 -0.011403091 0.52500004
0.16686772 -0.011403091 0.52500004
0.16823341 -0.011403091 0.52500004
0.16959909 -0.011403091 0.52500004
0.17096476 -0.011403091 0.52500004
0.17233045 -0.011403091 0.52500004
0.17369615 -0.011403091 0.52500004
0.17506182 -0.011403091 0.52500004
0.17676355 -0.011424812 0.52600002
0.17813183 -0.011424812 0.52600002
0.17950013 -0.011424812 0.52600002
0.1808684 -0.011424812 0.52600002
0.18258314 -0.011446531 0.52700001
0.18395403 -0.011446531 0.52700001
0.18532491 -0.011446531 0.52700001
0.18669581 -0.011446531 0.52700001
0.18806669 -0.011446531 0.52700001
0.18943757 -0.011446531 0.52700001
0.19080846 -0.011446531 0.52700001
0.19217935 -0.011446531 0.52700001
0.19355024 -0.011446531 0.52700001
0.19492112 -0.011446531 0.52700001
0.19666447 -0.011468251 0.528
0.19803795 -0.011468251 0.528
0.19941145 -0.011468251 0.528
0.20078494 -0.011468251 0.528
0.20215842 -0.011468251 0.528
0.20353191 -0.011468251 0.528
0.20490539 -0.011468251 0.528
0.20627889 -0.011468251 0.528
0.20765238 -0.011468251 0.528
0.20902586 -0.011468251 0.528
0.21039934 -0.011468251 0.528
0.21177283 -0.011468251 0.528
0.21314633 -0.011468251 0.528
0.21451981 -0.011468251 0.528
0.2163022 -0.011489972 0.52900004
0.21767829 -0.011489972 0.52900004
0.21905437 -0.011489972 0.52900004
0.22084716 -0.011511692 0.53000003
0.22222584 -0.011511692 0.53000003
0.22360453 -0.011511692 0.53000003
0.22540772 -0.011533412 0.53100002
0.22678901 -0.011533412 0.53100002
0.22817031 -0.011533412 0.53100002
0.2295516 -0.011533412 0.53100002
0.23093288 -0.011533412 0.53100002
0.23275167 -0.011555132 0.53200001
0.23413557 -0.011555132 0.53200001
0.23551947 -0.011555132 0.53200001
0.23690335 -0.011555132 0.53200001
0.23828724 -0.011555132 0.53200001
0.23967113 -0.011555132 0.53200001
0.24105504 -0.011555132 0.53200001
0.24243893 -0.011555132 0.53200001
