# .PCD v0.7 - Point Cloud Data file format
VERSION 0.7
FIELDS x y z
SIZE 4 4 4
TYPE F F F
COUNT 1 1 1
WIDTH 1416
HEIGHT 1
VIEWPOINT 0 0 0 1 0 0 0
POINTS 1416
DATA ascii
0.14953135 -0.16992436 0.51700002
0.15087624 -0.16992436 0.51700002
0.15222111 -0.16992436 0.51700002
0.15356599 -0.16992436 0.51700002
0.15491085 -0.16992436 0.51700002
0.15625572 -0.16992436 0.51700002
0.15760061 -0.16992436 0.51700002
0.15894547 -0.16992436 0.51700002
0.16029035 -0.16992436 0.51700002
0.16163522 -0.16992436 0.51700002
0.16298009 -0.16992436 0.51700002
0.16432497 -0.16992436 0.51700002
0.16566984 -0.16992436 0.51700002
0.16701472 -0.16992436 0.51700002
0.16835958 -0.16992436 0.51700002
0.17003271 -0.17025304 0.51800001
0.17138018 -0.17025304 0.51800001
0.17306112 -0.17058173 0.51900005
0.17441119 -0.17058173 0.51900005
0.17576127 -0.17058173 0.51900005
0.17711136 -0.17058173 0.51900005
0.17846143 -0.17058173 0.51900005
0.18015794 -0.17091039 0.52000004
0.18151063 -0.17091039 0.52000004
0.1828633 -0.17091039 0.52000004
0.18421599 -0.17091039 0.52000004
0.18556866 -0.17091039 0.52000004
0.18692133 -0.17091039 0.52000004
0.18827401 -0.17091039 0.52000004
0.18926203 -0.17058173 0.51900005
0.19061211 -0.17058173 0.51900005
0.19196218 -0.17058173 0.51900005
0.19331226 -0.17058173 0.51900005
0.19466233 -0.17058173 0.51900005
0.19601242 -0.17058173 0.51900005
0.19736248 -0.17058173 0.51900005
0.19871256 -0.17058173 0.51900005
0.20006263 -0.17058173 0.51900005
0.20180078 -0.17091039 0.52000004
0.20315348 -0.17091039 0.52000004
0.20450614 -0.17091039 0.52000004
0.20585881 -0.17091039 0.52000004
0.20721149 -0.17091039 0.52000004
0.20856416 -0.17091039 0.52000004
0.20991686 -0.17091039 0.52000004
0.21126953 -0.17091039 0.52000004
0.2126222 -0.17091039 0.52000004
0.21397488 -0.17091039 0.52000004
0.21532755 -0.17091039 0.52000004
0.21668024 -0.17091039 0.52000004
0.21803291 -0.17091039 0.52000004
0.21938558 -0.17091039 0.52000004
0.22073826 -0.17091039 0.52000004
0.22251804 -0.17123906 0.52100003
0.22387332 -0.17123906 0.52100003
0.22522859 -0.17123906 0.52100003
0.22658387 -0.17123906 0.52100003
0.22793914 -0.17123906 0.52100003
0.22929443 -0.17123906 0.52100003
0.23064971 -0.17123906 0.52100003
0.23200499 -0.17123906 0.52100003
0.23336026 -0.17123906 0.52100003
0.23471554 -0.17123906 0.52100003
0.23652393 -0.17156774 0.52200001
0.23788181 -0.17156774 0.52200001
0.23923968 -0.17156774 0.52200001
0.24059756 -0.17156774 0.52200001
0.24195543 -0.17156774 0.52200001
0.24331333 -0.17156774 0.52200001
0.24467121 -0.17156774 0.52200001
0.24602908 -0.17156774 0.52200001
0.24738696 -0.17156774 0.52200001
0.24874485 -0.17156774 0.52200001
0.25010273 -0.17156774 0.52200001
0.25146061 -0.17156774 0.52200001
-0.27698472 -0.16238412 0.49800003
-0.27568927 -0.16238412 0.49800003
-0.27439383 -0.16238412 0.49800003
-0.27309841 -0.16238412 0.49800003
-0.27180293 -0.16238412 0.49800003
-0.27105066 -0.16271019 0.49900001
-0.27029321 -0.16303626 0.5
-0.26899254 -0.16303626 0.5
-0.26769191 -0.16303626 0.5
-0.26692405 -0.16336234 0.50100005
-0.2656208 -0.16336234 0.50100005
-0.26484513 -0.16368841 0.50200003
-0.26353925 -0.16368841 0.50200003
-0.26223344 -0.16368841 0.50200003
-0.26092756 -0.16368841 0.50200003
-0.25962171 -0.16368841 0.50200003
-0.25831586 -0.16368841 0.50200003
-0.25649804 -0.16336234 0.50100005
-0.25519478 -0.16336234 0.50100005
-0.25389153 -0.16336234 0.50100005
-0.25309244 -0.16368841 0.50200003
-0.25178659 -0.16368841 0.50200003
-0.25048074 -0.16368841 0.50200003
-0.24917488 -0.16368841 0.50200003
-0.24836278 -0.16401449 0.50300002
-0.24705434 -0.16401449 0.50300002
-0.24623442 -0.16434056 0.50400001
-0.24492337 -0.16434056 0.50400001
-0.24409567 -0.16466662 0.505
-0.24278201 -0.16466662 0.505
-0.24146836 -0.16466662 0.505
-0.24015468 -0.16466662 0.505
-0.23884103 -0.16466662 0.505
-0.23752739 -0.16466662 0.505
-0.23621373 -0.16466662 0.505
-0.23490006 -0.16466662 0.505
-0.2335864 -0.16466662 0.505
-0.23227274 -0.16466662 0.505
-0.23095909 -0.16466662 0.505
-0.22919071 -0.16434056 0.50400001
-0.22787963 -0.16434056 0.50400001
-0.22656858 -0.16434056 0.50400001
-0.22525753 -0.16434056 0.50400001
-0.22350214 -0.16401449 0.50300002
-0.22219369 -0.16401449 0.50300002
-0.22088522 -0.16401449 0.50300002
-0.21957678 -0.16401449 0.50300002
-0.21826832 -0.16401449 0.50300002
-0.21695986 -0.16401449 0.50300002
-0.21565141 -0.16401449 0.50300002
-0.21434295 -0.16401449 0.50300002
-0.2130345 -0.16401449 0.50300002
-0.21172604 -0.16401449 0.50300002
-0.2104176 -0.16401449 0.50300002
-0.20952486 -0.16434056 0.50400001
-0.20821379 -0.16434056 0.50400001
-0.20690274 -0.16434056 0.50400001
-0.20559168 -0.16434056 0.50400001
-0.20468594 -0.16466662 0.505
-0.20337227 -0.16466662 0.505
-0.20205863 -0.16466662 0.505
-0.20074497 -0.16466662 0.505
-0.19982624 -0.1649927 0.50600004
-0.19850999 -0.1649927 0.50600004
-0.19719371 -0.1649927 0.50600004
-0.19587746 -0.1649927 0.50600004
-0.19456121 -0.1649927 0.50600004
-0.19324495 -0.1649927 0.50600004
-0.1919287 -0.1649927 0.50600004
-0.19061242 -0.1649927 0.50600004
-0.18929617 -0.1649927 0.50600004
-0.18797991 -0.1649927 0.50600004
-0.18629473 -0.16466662 0.505
-0.18498108 -0.16466662 0.505
-0.18366742 -0.16466662 0.505
-0.18235376 -0.16466662 0.505
-0.18104011 -0.16466662 0.505
-0.17972645 -0.16466662 0.505
-0.17841278 -0.16466662 0.505
-0.17709912 -0.16466662 0.505
-0.17613359 -0.1649927 0.50600004
-0.17481732 -0.1649927 0.50600004
-0.17350107 -0.1649927 0.50600004
-0.1721848 -0.1649927 0.50600004
-0.17086855 -0.1649927 0.50600004
-0.16955228 -0.1649927 0.50600004
-0.16823603 -0.1649927 0.50600004
-0.16691978 -0.1649927 0.50600004
-0.1656035 -0.1649927 0.50600004
-0.16461192 -0.16531877 0.50700003
-0.16329306 -0.16531877 0.50700003
-0.16165474 -0.1649927 0.50600004
-0.16033848 -0.1649927 0.50600004
-0.15902221 -0.1649927 0.50600004
-0.15770596 -0.1649927 0.50600004
-0.1563897 -0.1649927 0.50600004
-0.15507345 -0.1649927 0.50600004
-0.15345329 -0.16466662 0.505
-0.15213963 -0.16466662 0.505
-0.15082598 -0.16466662 0.505
-0.14951234 -0.16466662 0.505
-0.14819868 -0.16466662 0.505
-0.14688501 -0.16466662 0.505
-0.14557135 -0.16466662 0.505
-0.14425769 -0.16466662 0.505
-0.14294404 -0.16466662 0.505
-0.14163038 -0.16466662 0.505
-0.14031672 -0.16466662 0.505
-0.13900307 -0.16466662 0.505
-0.13768941 -0.16466662 0.505
-0.13637576 -0.16466662 0.505
-0.1350621 -0.16466662 0.505
-0.13374843 -0.16466662 0.505
-0.13243477 -0.16466662 0.505
-0.13112113 -0.16466662 0.505
-0.12980747 -0.16466662 0.505
-0.12823936 -0.16434056 0.50400001
-0.12718014 -0.16466662 0.505
-0.12586649 -0.16466662 0.505
-0.12455284 -0.16466662 0.505
-0.12323917 -0.16466662 0.505
-0.12192552 -0.16466662 0.505
-0.1208507 -0.1649927 0.50600004
-0.11953445 -0.1649927 0.50600004
-0.11821819 -0.1649927 0.50600004
-0.11713296 -0.16531877 0.50700003
-0.1158141 -0.16531877 0.50700003
-0.11449524 -0.16531877 0.50700003
-0.11317638 -0.16531877 0.50700003
-0.11207815 -0.16564484 0.50800002
-0.11075668 -0.16564484 0.50800002
-0.10943522 -0.16564484 0.50800002
-0.10811376 -0.16564484 0.50800002
-0.1067923 -0.16564484 0.50800002
-0.10547083 -0.16564484 0.50800002
-0.10414937 -0.16564484 0.50800002
-0.10303033 -0.16597091 0.509
-0.10170627 -0.16597091 0.509
-0.1003822 -0.16597091 0.509
-0.098863527 -0.16564484 0.50800002
-0.09754207 -0.16564484 0.50800002
-0.096220605 -0.16564484 0.50800002
-0.09489914 -0.16564484 0.50800002
-0.093577683 -0.16564484 0.50800002
-0.092256218 -0.16564484 0.50800002
-0.090755761 -0.16531877 0.50700003
-0.089436896 -0.16531877 0.50700003
-0.088118039 -0.16531877 0.50700003
-0.086799182 -0.16531877 0.50700003
-0.085480317 -0.16531877 0.50700003
-0.08416146 -0.16531877 0.50700003
-0.082842596 -0.16531877 0.50700003
-0.081523739 -0.16531877 0.50700003
-0.080204874 -0.16531877 0.50700003
-0.078886017 -0.16531877 0.50700003
-0.07756716 -0.16531877 0.50700003
-0.076248296 -0.16531877 0.50700003
-0.074929439 -0.16531877 0.50700003
-0.073610574 -0.16531877 0.50700003
-0.072149128 -0.1649927 0.50600004
-0.070832863 -0.1649927 0.50600004
-0.069379218 -0.16466662 0.505
-0.06793078 -0.16434056 0.50400001
-0.042997934 -0.14640658 0.44900003
-0.042016275 -0.14705871 0.45100003
-0.040933646 -0.14738478 0.45200002
-0.039933778 -0.14803693 0.45400003
-0.038838144 -0.14836299 0.45500001
-0.037820064 -0.14901514 0.45700002
-0.036791585 -0.14966729 0.45900002
-0.035675138 -0.14999336 0.46000001
-0.034553494 -0.15031944 0.46100003
-0.033498999 -0.15097158 0.46300003
-0.032364346 -0.15129766 0.46400002
-0.031291641 -0.15194979 0.46600002
-0.03027308 -0.15292801 0.46900001
-0.029362803 -0.15455839 0.47400004
-0.028426513 -0.15618874 0.47900003
-0.027464211 -0.15781911 0.48400003
-0.026475893 -0.15944947 0.48900002
-0.025461566 -0.16107982 0.49400002
-0.024372283 -0.16238412 0.49800003
-0.023215853 -0.16336234 0.50100005
-0.022000076 -0.16401449 0.50300002
-0.020773893 -0.16466662 0.505
-0.019460235 -0.16466662 0.505
-0.018182514 -0.1649927 0.50600004
-0.016899586 -0.16531877 0.50700003
-0.015580727 -0.16531877 0.50700003
-0.014289996 -0.16564484 0.50800002
-0.012968535 -0.16564484 0.50800002
-0.011647073 -0.16564484 0.50800002
-0.010325611 -0.16564484 0.50800002
-0.0090041496 -0.16564484 0.50800002
-0.0076826885 -0.16564484 0.50800002
-0.0063737486 -0.16597091 0.509
-0.0050496864 -0.16597091 0.509
-0.0037256235 -0.16597091 0.509
-0.0024015605 -0.16597091 0.509
-0.0010774981 -0.16597091 0.509
0.00024704909 -0.166297 0.51000005
0.0015737133 -0.166297 0.51000005
0.0029003774 -0.166297 0.51000005
0.0042270413 -0.166297 0.51000005
0.0055537056 -0.166297 0.51000005
0.00688037 -0.166297 0.51000005
0.0082070343 -0.166297 0.51000005
0.0095336977 -0.166297 0.51000005
0.010860362 -0.166297 0.51000005
0.012187026 -0.166297 0.51000005
0.01351369 -0.166297 0.51000005
0.014840355 -0.166297 0.51000005
0.016167019 -0.166297 0.51000005
0.017493684 -0.166297 0.51000005
0.018820347 -0.166297 0.51000005
0.020147011 -0.166297 0.51000005
0.021473676 -0.166297 0.51000005
0.022800339 -0.166297 0.51000005
0.024127003 -0.166297 0.51000005
0.025453668 -0.166297 0.51000005
0.026780332 -0.166297 0.51000005
0.028106995 -0.166297 0.51000005
0.02943366 -0.166297 0.51000005
0.030760324 -0.166297 0.51000005
0.032086991 -0.166297 0.51000005
0.033413652 -0.166297 0.51000005
0.034672193 -0.16597091 0.509
0.035996258 -0.16597091 0.509
0.03732032 -0.16597091 0.509
0.038644385 -0.16597091 0.509
0.039968446 -0.16597091 0.509
0.041292507 -0.16597091 0.509
0.042616569 -0.16597091 0.509
0.043940634 -0.16597091 0.509
0.045264699 -0.16597091 0.509
0.04658876 -0.16597091 0.509
0.048006959 -0.166297 0.51000005
0.049333621 -0.166297 0.51000005
0.050660286 -0.166297 0.51000005
0.051986951 -0.166297 0.51000005
0.053313613 -0.166297 0.51000005
0.054640278 -0.166297 0.51000005
0.0558572 -0.16597091 0.509
0.057181261 -0.16597091 0.509
0.058390383 -0.16564484 0.50800002
0.059594303 -0.16531877 0.50700003
0.060913164 -0.16531877 0.50700003
0.061986528 -0.16466662 0.505
0.063174836 -0.16434056 0.50400001
0.064230002 -0.16368841 0.50200003
0.065144204 -0.16271019 0.49900001
0.06617596 -0.16205804 0.49700001
0.0671973 -0.16140591 0.49500003
0.068069875 -0.16042767 0.49200001
0.069067813 -0.15977554 0.49000001
0.069911778 -0.15879732 0.48700002
0.070740148 -0.15781911 0.48400003
0.071701661 -0.15716696 0.48200002
0.072652772 -0.15651481 0.48000002
0.073439509 -0.15553659 0.47700003
0.074523762 -0.15521052 0.47600001
0.075443663 -0.15455839 0.47400004
0.076353148 -0.15390624 0.47200003
0.076923497 -0.15260194 0.46800002
0.078297697 -0.14608049 0.44800001
0.078576222 -0.14445013 0.44300002
0.079368643 -0.14379798 0.44100001
0.080333248 -0.14347191 0.44000003
0.081292637 -0.14314584 0.43900001
0.082059048 -0.1424937 0.43700001
0.083005443 -0.14216763 0.43600002
0.083753645 -0.14151548 0.43400002
0.084687039 -0.14118941 0.43300003
0.08561521 -0.14086333 0.43200001
0.086538196 -0.14053726 0.43100002
0.08725258 -0.13988511 0.42900002
0.087956563 -0.13923296 0.42700002
0.088858739 -0.1389069 0.42600003
0.089755699 -0.13858083 0.42500001
0.090647466 -0.13825475 0.42400002
0.091534019 -0.13792868 0.42300001
0.11568534 -0.16825342 0.51600003
0.11702761 -0.16825342 0.51600003
0.11836988 -0.16825342 0.51600003
0.11971216 -0.16825342 0.51600003
0.12105443 -0.16825342 0.51600003
0.12239669 -0.16825342 0.51600003
0.12373897 -0.16825342 0.51600003
0.12508124 -0.16825342 0.51600003
0.12642352 -0.16825342 0.51600003
0.12801339 -0.16857949 0.51700002
0.12935826 -0.16857949 0.51700002
0.13070314 -0.16857949 0.51700002
0.13204801 -0.16857949 0.51700002
0.13339289 -0.16857949 0.51700002
0.13473776 -0.16857949 0.51700002
0.13608262 -0.16857949 0.51700002
0.13742751 -0.16857949 0.51700002
0.13877238 -0.16857949 0.51700002
0.14011724 -0.16857949 0.51700002
0.14146212 -0.16857949 0.51700002
0.14280699 -0.16857949 0.51700002
0.14415188 -0.16857949 0.51700002
0.14549674 -0.16857949 0.51700002
0.14684162 -0.16857949 0.51700002
0.14818649 -0.16857949 0.51700002
0.14953135 -0.16857949 0.51700002
0.15087624 -0.16857949 0.51700002
0.15222111 -0.16857949 0.51700002
0.15356599 -0.16857949 0.51700002
0.15491085 -0.16857949 0.51700002
0.15625572 -0.16857949 0.51700002
0.15760061 -0.16857949 0.51700002
0.15894547 -0.16857949 0.51700002
0.16029035 -0.16857949 0.51700002
0.16163522 -0.16857949 0.51700002
0.16298009 -0.16857949 0.51700002
0.16432497 -0.16857949 0.51700002
0.16566984 -0.16857949 0.51700002
0.16701472 -0.16857949 0.51700002
0.16835958 -0.16857949 0.51700002
0.17003271 -0.16890557 0.51800001
0.17138018 -0.16890557 0.51800001
0.17272766 -0.16890557 0.51800001
0.17441119 -0.16923165 0.51900005
0.17576127 -0.16923165 0.51900005
0.17711136 -0.16923165 0.51900005
0.17846143 -0.16923165 0.51900005
0.18015794 -0.16955772 0.52000004
0.18151063 -0.16955772 0.52000004
0.1828633 -0.16955772 0.52000004
0.18421599 -0.16955772 0.52000004
0.18556866 -0.16955772 0.52000004
0.18692133 -0.16955772 0.52000004
0.18827401 -0.16955772 0.52000004
0.18926203 -0.16923165 0.51900005
0.19061211 -0.16923165 0.51900005
0.19196218 -0.16923165 0.51900005
0.19331226 -0.16923165 0.51900005
0.19466233 -0.16923165 0.51900005
0.19601242 -0.16923165 0.51900005
0.19736248 -0.16923165 0.51900005
0.19909543 -0.16955772 0.52000004
0.20044811 -0.16955772 0.52000004
0.20180078 -0.16955772 0.52000004
0.20315348 -0.16955772 0.52000004
0.20489942 -0.16988379 0.52100003
0.20625469 -0.16988379 0.52100003
0.20760997 -0.16988379 0.52100003
0.20896524 -0.16988379 0.52100003
0.21032053 -0.16988379 0.52100003
0.21167581 -0.16988379 0.52100003
0.21303108 -0.16988379 0.52100003
0.21438636 -0.16988379 0.52100003
0.21574163 -0.16988379 0.52100003
0.21709692 -0.16988379 0.52100003
0.2184522 -0.16988379 0.52100003
0.21980748 -0.16988379 0.52100003
0.22116275 -0.16988379 0.52100003
0.22251804 -0.16988379 0.52100003
0.22387332 -0.16988379 0.52100003
0.22522859 -0.16988379 0.52100003
0.22658387 -0.16988379 0.52100003
0.22793914 -0.16988379 0.52100003
0.22929443 -0.16988379 0.52100003
0.23064971 -0.16988379 0.52100003
0.23200499 -0.16988379 0.52100003
0.23336026 -0.16988379 0.52100003
0.23471554 -0.16988379 0.52100003
0.23607083 -0.16988379 0.52100003
0.2374261 -0.16988379 0.52100003
0.23878138 -0.16988379 0.52100003
0.24013665 -0.16988379 0.52100003
0.24195543 -0.17020985 0.52200001
0.24331333 -0.17020985 0.52200001
0.24467121 -0.17020985 0.52200001
0.24602908 -0.17020985 0.52200001
0.24738696 -0.17020985 0.52200001
0.24874485 -0.17020985 0.52200001
0.25010273 -0.17020985 0.52200001
0.25146061 -0.17020985 0.52200001
-0.27698472 -0.16108866 0.49800003
-0.27568927 -0.16108866 0.49800003
-0.27439383 -0.16108866 0.49800003
-0.27364677 -0.16141212 0.49900001
-0.27234873 -0.16141212 0.49900001
-0.27159384 -0.16173559 0.5
-0.27029321 -0.16173559 0.5
-0.26953056 -0.16205908 0.50100005
-0.26822731 -0.16205908 0.50100005
-0.26745683 -0.16238254 0.50200003
-0.26615095 -0.16238254 0.50200003
-0.26484513 -0.16238254 0.50200003
-0.26353925 -0.16238254 0.50200003
-0.26223344 -0.16238254 0.50200003
-0.26092756 -0.16238254 0.50200003
-0.25962171 -0.16238254 0.50200003
-0.25831586 -0.16238254 0.50200003
-0.25700998 -0.16238254 0.50200003
-0.25570416 -0.16238254 0.50200003
-0.25439829 -0.16238254 0.50200003
-0.25309244 -0.16238254 0.50200003
-0.25178659 -0.16238254 0.50200003
-0.25048074 -0.16238254 0.50200003
-0.24967124 -0.16270602 0.50300002
-0.24836278 -0.16270602 0.50300002
-0.24754548 -0.16302948 0.50400001
-0.24623442 -0.16302948 0.50400001
-0.24492337 -0.16302948 0.50400001
-0.24409567 -0.16335295 0.505
-0.24278201 -0.16335295 0.505
-0.24146836 -0.16335295 0.505
-0.24015468 -0.16335295 0.505
-0.23884103 -0.16335295 0.505
-0.23752739 -0.16335295 0.505
-0.23621373 -0.16335295 0.505
-0.23490006 -0.16335295 0.505
-0.2335864 -0.16335295 0.505
-0.2318128 -0.16302948 0.50400001
-0.23050176 -0.16302948 0.50400001
-0.22919071 -0.16302948 0.50400001
-0.22787963 -0.16302948 0.50400001
-0.22656858 -0.16302948 0.50400001
-0.22525753 -0.16302948 0.50400001
-0.22394647 -0.16302948 0.50400001
-0.22263542 -0.16302948 0.50400001
-0.22132435 -0.16302948 0.50400001
-0.22001331 -0.16302948 0.50400001
-0.21826832 -0.16270602 0.50300002
-0.21695986 -0.16270602 0.50300002
-0.21565141 -0.16270602 0.50300002
-0.21434295 -0.16270602 0.50300002
-0.2130345 -0.16270602 0.50300002
-0.21172604 -0.16270602 0.50300002
-0.2104176 -0.16270602 0.50300002
-0.20952486 -0.16302948 0.50400001
-0.20821379 -0.16302948 0.50400001
-0.20690274 -0.16302948 0.50400001
-0.20559168 -0.16302948 0.50400001
-0.20428063 -0.16302948 0.50400001
-0.20337227 -0.16335295 0.505
-0.20205863 -0.16335295 0.505
-0.20074497 -0.16335295 0.505
-0.19943132 -0.16335295 0.505
-0.19850999 -0.16367644 0.50600004
-0.19719371 -0.16367644 0.50600004
-0.19587746 -0.16367644 0.50600004
-0.19456121 -0.16367644 0.50600004
-0.19324495 -0.16367644 0.50600004
-0.1919287 -0.16367644 0.50600004
-0.19061242 -0.16367644 0.50600004
-0.18929617 -0.16367644 0.50600004
-0.18797991 -0.16367644 0.50600004
-0.18666366 -0.16367644 0.50600004
-0.18534741 -0.16367644 0.50600004
-0.18403113 -0.16367644 0.50600004
-0.18271488 -0.16367644 0.50600004
-0.18104011 -0.16335295 0.505
-0.17972645 -0.16335295 0.505
-0.17841278 -0.16335295 0.505
-0.17744984 -0.16367644 0.50600004
-0.17613359 -0.16367644 0.50600004
-0.17481732 -0.16367644 0.50600004
-0.17350107 -0.16367644 0.50600004
-0.1721848 -0.16367644 0.50600004
-0.17086855 -0.16367644 0.50600004
-0.16955228 -0.16367644 0.50600004
-0.16823603 -0.16367644 0.50600004
-0.16691978 -0.16367644 0.50600004
-0.16593078 -0.1639999 0.50700003
-0.16428725 -0.16367644 0.50600004
-0.16297099 -0.16367644 0.50600004
-0.16165474 -0.16367644 0.50600004
-0.16033848 -0.16367644 0.50600004
-0.15902221 -0.16367644 0.50600004
-0.15770596 -0.16367644 0.50600004
-0.1563897 -0.16367644 0.50600004
-0.15507345 -0.16367644 0.50600004
-0.15345329 -0.16335295 0.505
-0.15213963 -0.16335295 0.505
-0.15082598 -0.16335295 0.505
-0.14951234 -0.16335295 0.505
-0.14819868 -0.16335295 0.505
-0.14688501 -0.16335295 0.505
-0.14557135 -0.16335295 0.505
-0.14425769 -0.16335295 0.505
-0.14294404 -0.16335295 0.505
-0.14163038 -0.16335295 0.505
-0.14031672 -0.16335295 0.505
-0.13900307 -0.16335295 0.505
-0.13768941 -0.16335295 0.505
-0.13637576 -0.16335295 0.505
-0.1350621 -0.16335295 0.505
-0.13374843 -0.16335295 0.505
-0.13243477 -0.16335295 0.505
-0.13112113 -0.16335295 0.505
-0.12980747 -0.16335295 0.505
-0.1284938 -0.16335295 0.505
-0.12718014 -0.16335295 0.505
-0.12586649 -0.16335295 0.505
-0.12455284 -0.16335295 0.505
-0.12323917 -0.16335295 0.505
-0.12216697 -0.16367644 0.50600004
-0.1208507 -0.16367644 0.50600004
-0.11953445 -0.16367644 0.50600004
-0.11845183 -0.1639999 0.50700003
-0.11713296 -0.1639999 0.50700003
-0.1158141 -0.1639999 0.50700003
-0.11449524 -0.1639999 0.50700003
-0.11317638 -0.1639999 0.50700003
-0.11207815 -0.16432337 0.50800002
-0.11075668 -0.16432337 0.50800002
-0.10943522 -0.16432337 0.50800002
-0.10811376 -0.16432337 0.50800002
-0.1067923 -0.16432337 0.50800002
-0.10547083 -0.16432337 0.50800002
-0.10435439 -0.16464683 0.509
-0.10303033 -0.16464683 0.509
-0.10170627 -0.16464683 0.509
-0.1003822 -0.16464683 0.509
-0.099058136 -0.16464683 0.509
-0.097734079 -0.16464683 0.509
-0.096220605 -0.16432337 0.50800002
-0.09489914 -0.16432337 0.50800002
-0.093577683 -0.16432337 0.50800002
-0.092256218 -0.16432337 0.50800002
-0.090755761 -0.1639999 0.50700003
-0.089436896 -0.1639999 0.50700003
-0.088118039 -0.1639999 0.50700003
-0.086799182 -0.1639999 0.50700003
-0.085480317 -0.1639999 0.50700003
-0.08416146 -0.1639999 0.50700003
-0.082842596 -0.1639999 0.50700003
-0.08168453 -0.16432337 0.50800002
-0.080363065 -0.16432337 0.50800002
-0.079041608 -0.16432337 0.50800002
-0.07756716 -0.1639999 0.50700003
-0.076248296 -0.1639999 0.50700003
-0.074929439 -0.1639999 0.50700003
-0.073610574 -0.1639999 0.50700003
-0.072291717 -0.1639999 0.50700003
-0.070832863 -0.16367644 0.50600004
-0.069379218 -0.16335295 0.505
-0.06793078 -0.16302948 0.50400001
-0.066355363 -0.16238254 0.50200003
-0.043380987 -0.14653245 0.45300001
-0.042295761 -0.14685594 0.45400003
-0.04111477 -0.14685594 0.45400003
-0.040109698 -0.14750287 0.45600003
-0.03900886 -0.14782634 0.45700002
-0.037902825 -0.14814982 0.45800003
-0.036871739 -0.14879675 0.46000001
-0.035752695 -0.14912023 0.46100003
-0.034628447 -0.14944369 0.46200001
-0.033571351 -0.15009063 0.46400002
-0.032434098 -0.15041411 0.46500003
-0.03135879 -0.15106104 0.46700001
-0.030402176 -0.15235494 0.47100002
-0.029424749 -0.15364882 0.47500002
-0.028485859 -0.15526618 0.48000002
-0.027520955 -0.15688354 0.48500001
-0.026530037 -0.15850088 0.49000001
-0.025513109 -0.16011825 0.49500003
-0.024421224 -0.16141212 0.49900001
-0.023262192 -0.16238254 0.50200003
-0.022043813 -0.16302948 0.50400001
-0.020773893 -0.16335295 0.505
-0.019498771 -0.16367644 0.50600004
-0.018218447 -0.1639999 0.50700003
-0.016899586 -0.1639999 0.50700003
-0.015580727 -0.1639999 0.50700003
-0.014289996 -0.16432337 0.50800002
-0.012968535 -0.16432337 0.50800002
-0.011647073 -0.16432337 0.50800002
-0.010325611 -0.16432337 0.50800002
-0.0090218745 -0.16464683 0.509
-0.0076978114 -0.16464683 0.509
-0.0063737486 -0.16464683 0.509
-0.0050496864 -0.16464683 0.509
-0.0037256235 -0.16464683 0.509
-0.0024015605 -0.16464683 0.509
-0.0010774981 -0.16464683 0.509
0.00024704909 -0.16497032 0.51000005
0.0015737133 -0.16497032 0.51000005
0.0029003774 -0.16497032 0.51000005
0.0042270413 -0.16497032 0.51000005
0.0055537056 -0.16497032 0.51000005
0.00688037 -0.16497032 0.51000005
0.0082070343 -0.16497032 0.51000005
0.0095336977 -0.16497032 0.51000005
0.010860362 -0.16497032 0.51000005
0.012187026 -0.16497032 0.51000005
0.01351369 -0.16497032 0.51000005
0.014840355 -0.16497032 0.51000005
0.016167019 -0.16497032 0.51000005
0.017493684 -0.16497032 0.51000005
0.018820347 -0.16497032 0.51000005
0.020147011 -0.16497032 0.51000005
0.021473676 -0.16497032 0.51000005
0.022800339 -0.16497032 0.51000005
0.024127003 -0.16497032 0.51000005
0.025453668 -0.16497032 0.51000005
0.026780332 -0.16497032 0.51000005
0.028106995 -0.16497032 0.51000005
0.02943366 -0.16497032 0.51000005
0.030760324 -0.16497032 0.51000005
0.032086991 -0.16497032 0.51000005
0.033413652 -0.16497032 0.51000005
0.034740314 -0.16497032 0.51000005
0.035996258 -0.16464683 0.509
0.03732032 -0.16464683 0.509
0.038644385 -0.16464683 0.509
0.039968446 -0.16464683 0.509
0.041292507 -0.16464683 0.509
0.042616569 -0.16464683 0.509
0.043940634 -0.16464683 0.509
0.045264699 -0.16464683 0.509
0.046680294 -0.16497032 0.51000005
0.048006959 -0.16497032 0.51000005
0.049333621 -0.16497032 0.51000005
0.050660286 -0.16497032 0.51000005
0.051986951 -0.16497032 0.51000005
0.053313613 -0.16497032 0.51000005
0.054640278 -0.16497032 0.51000005
0.055966944 -0.16497032 0.51000005
0.057181261 -0.16464683 0.509
0.058505323 -0.16464683 0.509
0.059711844 -0.16432337 0.50800002
0.060913164 -0.1639999 0.50700003
0.06210928 -0.16367644 0.50600004
0.063174836 -0.16302948 0.50400001
0.064230002 -0.16238254 0.50200003
0.065274753 -0.16173559 0.5
0.06617596 -0.16076519 0.49700001
0.0671973 -0.16011825 0.49500003
0.068069875 -0.15914783 0.49200001
0.069067813 -0.15850088 0.49000001
0.069911778 -0.15753047 0.48700002
0.070740148 -0.15656006 0.48400003
0.071701661 -0.15591311 0.48200002
0.072652772 -0.15526618 0.48000002
0.073593467 -0.15461923 0.47800002
0.074523762 -0.15397228 0.47600001
0.075602822 -0.15364882 0.47500002
0.076514907 -0.15300187 0.47300002
0.076923497 -0.15138452 0.46800002
0.078297697 -0.1449151 0.44800001
0.078576222 -0.14329775 0.44300002
0.079368643 -0.1426508 0.44100001
0.080150671 -0.14200385 0.43900001
0.081107467 -0.14168039 0.43800002
0.081871279 -0.14103344 0.43600002
0.082815066 -0.14070998 0.43500003
0.083753645 -0.14038651 0.43400002
0.084687039 -0.14006303 0.43300003
0.08561521 -0.13973956 0.43200001
0.08633741 -0.13909261 0.43000001
0.08725258 -0.13876915 0.42900002
0.087956563 -0.1381222 0.42700002
0.088858739 -0.13779874 0.42600003
0.089755699 -0.13747525 0.42500001
0.090647466 -0.13715179 0.42400002
0.091534019 -0.13682832 0.42300001
0.092415377 -0.13650484 0.42200002
0.11702761 -0.16691114 0.51600003
0.11836988 -0.16691114 0.51600003
0.11971216 -0.16691114 0.51600003
0.12105443 -0.16691114 0.51600003
0.12239669 -0.16691114 0.51600003
0.12373897 -0.16691114 0.51600003
0.12508124 -0.16691114 0.51600003
0.12642352 -0.16691114 0.51600003
0.12801339 -0.16723461 0.51700002
0.12935826 -0.16723461 0.51700002
0.13070314 -0.16723461 0.51700002
0.13204801 -0.16723461 0.51700002
0.13339289 -0.16723461 0.51700002
0.13473776 -0.16723461 0.51700002
0.13608262 -0.16723461 0.51700002
0.13742751 -0.16723461 0.51700002
0.13877238 -0.16723461 0.51700002
0.14011724 -0.16723461 0.51700002
0.14146212 -0.16723461 0.51700002
0.14280699 -0.16723461 0.51700002
0.14415188 -0.16723461 0.51700002
0.14549674 -0.16723461 0.51700002
0.14684162 -0.16723461 0.51700002
0.14818649 -0.16723461 0.51700002
0.14953135 -0.16723461 0.51700002
0.15087624 -0.16723461 0.51700002
0.15222111 -0.16723461 0.51700002
0.15356599 -0.16723461 0.51700002
0.15491085 -0.16723461 0.51700002
0.15625572 -0.16723461 0.51700002
0.15760061 -0.16723461 0.51700002
0.15894547 -0.16723461 0.51700002
0.16029035 -0.16723461 0.51700002
0.16163522 -0.16723461 0.51700002
0.16298009 -0.16723461 0.51700002
0.16432497 -0.16723461 0.51700002
0.16566984 -0.16723461 0.51700002
0.16701472 -0.16723461 0.51700002
0.16835958 -0.16723461 0.51700002
0.17003271 -0.16755807 0.51800001
0.17138018 -0.16755807 0.51800001
0.17272766 -0.16755807 0.51800001
0.17441119 -0.16788156 0.51900005
0.17576127 -0.16788156 0.51900005
0.17711136 -0.16788156 0.51900005
0.17846143 -0.16788156 0.51900005
0.18015794 -0.16820504 0.52000004
0.18151063 -0.16820504 0.52000004
0.1828633 -0.16820504 0.52000004
0.18421599 -0.16820504 0.52000004
0.18556866 -0.16820504 0.52000004
0.18692133 -0.16820504 0.52000004
0.18827401 -0.16820504 0.52000004
0.18962669 -0.16820504 0.52000004
0.19061211 -0.16788156 0.51900005
0.19196218 -0.16788156 0.51900005
0.19331226 -0.16788156 0.51900005
0.19466233 -0.16788156 0.51900005
0.19601242 -0.16788156 0.51900005
0.19774276 -0.16820504 0.52000004
0.19909543 -0.16820504 0.52000004
0.20044811 -0.16820504 0.52000004
0.20180078 -0.16820504 0.52000004
0.20354414 -0.1685285 0.52100003
0.20489942 -0.1685285 0.52100003
0.20625469 -0.1685285 0.52100003
0.20760997 -0.1685285 0.52100003
0.20896524 -0.1685285 0.52100003
0.21032053 -0.1685285 0.52100003
0.21167581 -0.1685285 0.52100003
0.21303108 -0.1685285 0.52100003
0.21438636 -0.1685285 0.52100003
0.21615572 -0.16885197 0.52200001
0.21751361 -0.16885197 0.52200001
0.21887149 -0.16885197 0.52200001
0.22022937 -0.16885197 0.52200001
0.22158724 -0.16885197 0.52200001
0.22294514 -0.16885197 0.52200001
0.22430301 -0.16885197 0.52200001
0.22566089 -0.16885197 0.52200001
0.22701876 -0.16885197 0.52200001
0.22837664 -0.16885197 0.52200001
0.22973453 -0.16885197 0.52200001
0.23109241 -0.16885197 0.52200001
0.23245029 -0.16885197 0.52200001
0.23336026 -0.1685285 0.52100003
0.23471554 -0.1685285 0.52100003
0.23607083 -0.1685285 0.52100003
0.2374261 -0.1685285 0.52100003
0.23878138 -0.1685285 0.52100003
0.24013665 -0.1685285 0.52100003
0.24149193 -0.1685285 0.52100003
0.24284722 -0.1685285 0.52100003
0.24420249 -0.1685285 0.52100003
0.24602908 -0.16885197 0.52200001
0.24738696 -0.16885197 0.52200001
0.24874485 -0.16885197 0.52200001
0.25010273 -0.16885197 0.52200001
0.25146061 -0.16885197 0.52200001
-0.27698472 -0.15979321 0.49800003
-0.27624288 -0.16011408 0.49900001
-0.27494481 -0.16011408 0.49900001
-0.27419516 -0.16043495 0.5
-0.2728945 -0.16043495 0.5
-0.27159384 -0.16043495 0.5
-0.27083382 -0.16075583 0.50100005
-0.26953056 -0.16075583 0.50100005
-0.26822731 -0.16075583 0.50100005
-0.26745683 -0.16107669 0.50200003
-0.26615095 -0.16107669 0.50200003
-0.26484513 -0.16107669 0.50200003
-0.26406422 -0.16139756 0.50300002
-0.26223344 -0.16107669 0.50200003
-0.26092756 -0.16107669 0.50200003
-0.25962171 -0.16107669 0.50200003
-0.25831586 -0.16107669 0.50200003
-0.25700998 -0.16107669 0.50200003
-0.25570416 -0.16107669 0.50200003
-0.25439829 -0.16107669 0.50200003
-0.25309244 -0.16107669 0.50200003
-0.25178659 -0.16107669 0.50200003
-0.25097969 -0.16139756 0.50300002
-0.24967124 -0.16139756 0.50300002
-0.24836278 -0.16139756 0.50300002
-0.24754548 -0.16171843 0.50400001
-0.24623442 -0.16171843 0.50400001
-0.24492337 -0.16171843 0.50400001
-0.24409567 -0.16203929 0.505
-0.24278201 -0.16203929 0.505
-0.24146836 -0.16203929 0.505
-0.24015468 -0.16203929 0.505
-0.23884103 -0.16203929 0.505
-0.23752739 -0.16203929 0.505
-0.23621373 -0.16203929 0.505
-0.23490006 -0.16203929 0.505
-0.23312385 -0.16171843 0.50400001
-0.2318128 -0.16171843 0.50400001
-0.23050176 -0.16171843 0.50400001
-0.22919071 -0.16171843 0.50400001
-0.22787963 -0.16171843 0.50400001
-0.22656858 -0.16171843 0.50400001
-0.22525753 -0.16171843 0.50400001
-0.22394647 -0.16171843 0.50400001
-0.22263542 -0.16171843 0.50400001
-0.22132435 -0.16171843 0.50400001
-0.22001331 -0.16171843 0.50400001
-0.21826832 -0.16139756 0.50300002
-0.21695986 -0.16139756 0.50300002
-0.21565141 -0.16139756 0.50300002
-0.21434295 -0.16139756 0.50300002
-0.2130345 -0.16139756 0.50300002
-0.21172604 -0.16139756 0.50300002
-0.2104176 -0.16139756 0.50300002
-0.20910914 -0.16139756 0.50300002
-0.20780067 -0.16139756 0.50300002
-0.20690274 -0.16171843 0.50400001
-0.20559168 -0.16171843 0.50400001
-0.20428063 -0.16171843 0.50400001
-0.20296957 -0.16171843 0.50400001
-0.20205863 -0.16203929 0.505
-0.20074497 -0.16203929 0.505
-0.19943132 -0.16203929 0.505
-0.19850999 -0.16236018 0.50600004
-0.19719371 -0.16236018 0.50600004
-0.19587746 -0.16236018 0.50600004
-0.19456121 -0.16236018 0.50600004
-0.19324495 -0.16236018 0.50600004
-0.19230799 -0.16268104 0.50700003
-0.19098912 -0.16268104 0.50700003
-0.18929617 -0.16236018 0.50600004
-0.18797991 -0.16236018 0.50600004
-0.18666366 -0.16236018 0.50600004
-0.18534741 -0.16236018 0.50600004
-0.18403113 -0.16236018 0.50600004
-0.18271488 -0.16236018 0.50600004
-0.18139862 -0.16236018 0.50600004
-0.18008237 -0.16236018 0.50600004
-0.17876609 -0.16236018 0.50600004
-0.17744984 -0.16236018 0.50600004
-0.17613359 -0.16236018 0.50600004
-0.17481732 -0.16236018 0.50600004
-0.17350107 -0.16236018 0.50600004
-0.1721848 -0.16236018 0.50600004
-0.17086855 -0.16236018 0.50600004
-0.16955228 -0.16236018 0.50600004
-0.16823603 -0.16236018 0.50600004
-0.16691978 -0.16236018 0.50600004
-0.1656035 -0.16236018 0.50600004
-0.16428725 -0.16236018 0.50600004
-0.16297099 -0.16236018 0.50600004
-0.16165474 -0.16236018 0.50600004
-0.16033848 -0.16236018 0.50600004
-0.15902221 -0.16236018 0.50600004
-0.15770596 -0.16236018 0.50600004
-0.1563897 -0.16236018 0.50600004
-0.15507345 -0.16236018 0.50600004
-0.15345329 -0.16203929 0.505
-0.15213963 -0.16203929 0.505
-0.15082598 -0.16203929 0.505
-0.14951234 -0.16203929 0.505
-0.14819868 -0.16203929 0.505
-0.14688501 -0.16203929 0.505
-0.14557135 -0.16203929 0.505
-0.14425769 -0.16203929 0.505
-0.14294404 -0.16203929 0.505
-0.14163038 -0.16203929 0.505
-0.14031672 -0.16203929 0.505
-0.13900307 -0.16203929 0.505
-0.13768941 -0.16203929 0.505
-0.13637576 -0.16203929 0.505
-0.1350621 -0.16203929 0.505
-0.13374843 -0.16203929 0.505
-0.13243477 -0.16203929 0.505
-0.13112113 -0.16203929 0.505
-0.12980747 -0.16203929 0.505
-0.1284938 -0.16203929 0.505
-0.12718014 -0.16203929 0.505
-0.12586649 -0.16203929 0.505
-0.12455284 -0.16203929 0.505
-0.12348323 -0.16236018 0.50600004
-0.12216697 -0.16236018 0.50600004
-0.1208507 -0.16236018 0.50600004
-0.11953445 -0.16236018 0.50600004
-0.11845183 -0.16268104 0.50700003
-0.11713296 -0.16268104 0.50700003
-0.1158141 -0.16268104 0.50700003
-0.11449524 -0.16268104 0.50700003
-0.1133996 -0.16300191 0.50800002
-0.11207815 -0.16300191 0.50800002
-0.11075668 -0.16300191 0.50800002
-0.10943522 -0.16300191 0.50800002
-0.10832658 -0.16332278 0.509
-0.10700252 -0.16332278 0.509
-0.10567845 -0.16332278 0.509
-0.10435439 -0.16332278 0.509
-0.10303033 -0.16332278 0.509
-0.10170627 -0.16332278 0.509
-0.1003822 -0.16332278 0.509
-0.099058136 -0.16332278 0.509
-0.097734079 -0.16332278 0.509
-0.096410006 -0.16332278 0.509
-0.095085949 -0.16332278 0.509
-0.093577683 -0.16300191 0.50800002
-0.092256218 -0.16300191 0.50800002
-0.090934761 -0.16300191 0.50800002
-0.089613296 -0.16300191 0.50800002
-0.088118039 -0.16268104 0.50700003
-0.086799182 -0.16268104 0.50700003
-0.085648909 -0.16300191 0.50800002
-0.084327452 -0.16300191 0.50800002
-0.083005987 -0.16300191 0.50800002
-0.08168453 -0.16300191 0.50800002
-0.080363065 -0.16300191 0.50800002
-0.079041608 -0.16300191 0.50800002
-0.07772015 -0.16300191 0.50800002
-0.076398686 -0.16300191 0.50800002
-0.074929439 -0.16268104 0.50700003
-0.073610574 -0.16268104 0.50700003
-0.072291717 -0.16268104 0.50700003
-0.070832863 -0.16236018 0.50600004
-0.069516607 -0.16236018 0.50600004
-0.06793078 -0.16171843 0.50400001
-0.066355363 -0.16107669 0.50200003
-0.064790346 -0.16043495 0.5
-0.061318401 -0.15818886 0.49300003
-0.042575248 -0.14663754 0.45700002
-0.041386452 -0.14663754 0.45700002
-0.040197656 -0.14663754 0.45700002
-0.039094221 -0.14695843 0.45800003
-0.038068336 -0.14760016 0.46000001
-0.036951896 -0.14792103 0.46100003
-0.035830248 -0.14824189 0.46200001
-0.034703404 -0.14856277 0.46300003
-0.033643704 -0.14920451 0.46500003
-0.032503847 -0.14952537 0.46600002
-0.031425938 -0.15016712 0.46800002
-0.030466726 -0.1514506 0.47200003
-0.029486695 -0.15273407 0.47600001
-0.028545205 -0.15433843 0.48100004
-0.027577698 -0.15594278 0.48600003
-0.02658418 -0.15754713 0.49100003
-0.02556465 -0.15915148 0.49600002
-0.024470164 -0.16043495 0.5
-0.02330853 -0.16139756 0.50300002
-0.02208755 -0.16203929 0.505
-0.020773893 -0.16203929 0.505
-0.019498771 -0.16236018 0.50600004
-0.018218447 -0.16268104 0.50700003
-0.016899586 -0.16268104 0.50700003
-0.015611458 -0.16300191 0.50800002
-0.014289996 -0.16300191 0.50800002
-0.012994062 -0.16332278 0.509
-0.011647073 -0.16300191 0.50800002
-0.010345937 -0.16332278 0.509
-0.0090218745 -0.16332278 0.509
-0.0076978114 -0.16332278 0.509
-0.0063737486 -0.16332278 0.509
-0.0050496864 -0.16332278 0.509
-0.0037256235 -0.16332278 0.509
-0.0024015605 -0.16332278 0.509
-0.0010774981 -0.16332278 0.509
0.00024704909 -0.16364366 0.51000005
0.0015737133 -0.16364366 0.51000005
0.0029003774 -0.16364366 0.51000005
0.0042270413 -0.16364366 0.51000005
0.0055537056 -0.16364366 0.51000005
0.00688037 -0.16364366 0.51000005
0.0082070343 -0.16364366 0.51000005
0.0095336977 -0.16364366 0.51000005
0.010860362 -0.16364366 0.51000005
0.012187026 -0.16364366 0.51000005
0.01351369 -0.16364366 0.51000005
0.014840355 -0.16364366 0.51000005
0.016167019 -0.16364366 0.51000005
0.017493684 -0.16364366 0.51000005
0.018820347 -0.16364366 0.51000005
0.020147011 -0.16364366 0.51000005
0.021473676 -0.16364366 0.51000005
0.022800339 -0.16364366 0.51000005
0.024127003 -0.16364366 0.51000005
0.025453668 -0.16364366 0.51000005
0.026780332 -0.16364366 0.51000005
0.028106995 -0.16364366 0.51000005
0.02943366 -0.16364366 0.51000005
0.030760324 -0.16364366 0.51000005
0.032086991 -0.16364366 0.51000005
0.033413652 -0.16364366 0.51000005
0.034740314 -0.16364366 0.51000005
0.035996258 -0.16332278 0.509
0.03732032 -0.16332278 0.509
0.038644385 -0.16332278 0.509
0.039968446 -0.16332278 0.509
0.041292507 -0.16332278 0.509
0.042616569 -0.16332278 0.509
0.044026963 -0.16364366 0.51000005
0.045353629 -0.16364366 0.51000005
0.046680294 -0.16364366 0.51000005
0.048006959 -0.16364366 0.51000005
0.049333621 -0.16364366 0.51000005
0.050660286 -0.16364366 0.51000005
0.051986951 -0.16364366 0.51000005
0.053313613 -0.16364366 0.51000005
0.054640278 -0.16364366 0.51000005
0.055966944 -0.16364366 0.51000005
0.057293609 -0.16364366 0.51000005
0.058505323 -0.16332278 0.509
0.059711844 -0.16300191 0.50800002
0.060913164 -0.16268104 0.50700003
0.06210928 -0.16236018 0.50600004
0.063300185 -0.16203929 0.505
0.064230002 -0.16107669 0.50200003
0.065274753 -0.16043495 0.5
0.066309109 -0.15979321 0.49800003
0.0671973 -0.15883061 0.49500003
0.068069875 -0.157868 0.49200001
0.069067813 -0.15722625 0.49000001
0.069911778 -0.15626365 0.48700002
0.070740148 -0.15530103 0.48400003
0.071552902 -0.15433843 0.48100004
0.072652772 -0.15401755 0.48000002
0.073593467 -0.15337582 0.47800002
0.074523762 -0.15273407 0.47600001
0.075602822 -0.1524132 0.47500002
0.076514907 -0.15177147 0.47300002
0.077087864 -0.15048799 0.46900001
0.078297697 -0.14374971 0.44800001
0.078576222 -0.14214537 0.44300002
0.079188675 -0.14118277 0.44000003
0.080150671 -0.14086188 0.43900001
0.081107467 -0.14054102 0.43800002
0.081871279 -0.13989928 0.43600002
0.082815066 -0.13957842 0.43500003
0.083753645 -0.13925754 0.43400002
0.084687039 -0.13893667 0.43300003
0.085417032 -0.13829494 0.43100002
0.08633741 -0.13797405 0.43000001
0.08725258 -0.13765319 0.42900002
0.087956563 -0.13701145 0.42700002
0.088858739 -0.13669059 0.42600003
0.089755699 -0.13636971 0.42500001
0.090647466 -0.13604884 0.42400002
0.091534019 -0.13572797 0.42300001
0.092415377 -0.13540711 0.42200002
0.11702761 -0.16556887 0.51600003
0.11836988 -0.16556887 0.51600003
0.11971216 -0.16556887 0.51600003
0.12105443 -0.16556887 0.51600003
0.12239669 -0.16556887 0.51600003
0.12373897 -0.16556887 0.51600003
0.12508124 -0.16556887 0.51600003
0.12666851 -0.16588974 0.51700002
0.12801339 -0.16588974 0.51700002
0.12935826 -0.16588974 0.51700002
0.13070314 -0.16588974 0.51700002
0.13204801 -0.16588974 0.51700002
0.13339289 -0.16588974 0.51700002
0.13473776 -0.16588974 0.51700002
0.13608262 -0.16588974 0.51700002
0.13742751 -0.16588974 0.51700002
0.13877238 -0.16588974 0.51700002
0.14011724 -0.16588974 0.51700002
0.14146212 -0.16588974 0.51700002
0.14280699 -0.16588974 0.51700002
0.14415188 -0.16588974 0.51700002
0.14549674 -0.16588974 0.51700002
0.14684162 -0.16588974 0.51700002
0.14818649 -0.16588974 0.51700002
0.14953135 -0.16588974 0.51700002
0.15087624 -0.16588974 0.51700002
0.15222111 -0.16588974 0.51700002
0.15356599 -0.16588974 0.51700002
0.15521048 -0.16621061 0.51800001
0.15655795 -0.16621061 0.51800001
0.15790544 -0.16621061 0.51800001
0.15894547 -0.16588974 0.51700002
0.16029035 -0.16588974 0.51700002
0.16163522 -0.16588974 0.51700002
0.16298009 -0.16588974 0.51700002
0.16432497 -0.16588974 0.51700002
0.16566984 -0.16588974 0.51700002
0.16701472 -0.16588974 0.51700002
0.16868523 -0.16621061 0.51800001
0.17003271 -0.16621061 0.51800001
0.17138018 -0.16621061 0.51800001
0.17272766 -0.16621061 0.51800001
0.17441119 -0.16653149 0.51900005
0.17576127 -0.16653149 0.51900005
0.17711136 -0.16653149 0.51900005
0.17846143 -0.16653149 0.51900005
0.18015794 -0.16685236 0.52000004
0.18151063 -0.16685236 0.52000004
0.1828633 -0.16685236 0.52000004
0.18421599 -0.16685236 0.52000004
0.18556866 -0.16685236 0.52000004
0.18692133 -0.16685236 0.52000004
0.18827401 -0.16685236 0.52000004
0.18962669 -0.16685236 0.52000004
0.19097938 -0.16685236 0.52000004
0.19233204 -0.16685236 0.52000004
0.19368473 -0.16685236 0.52000004
0.19503739 -0.16685236 0.52000004
0.19639008 -0.16685236 0.52000004
0.19774276 -0.16685236 0.52000004
0.19909543 -0.16685236 0.52000004
0.20083357 -0.16717322 0.52100003
0.20218885 -0.16717322 0.52100003
0.20354414 -0.16717322 0.52100003
0.20489942 -0.16717322 0.52100003
0.20665057 -0.16749409 0.52200001
0.20800845 -0.16749409 0.52200001
0.20936632 -0.16749409 0.52200001
0.21072422 -0.16749409 0.52200001
0.21208209 -0.16749409 0.52200001
0.21343997 -0.16749409 0.52200001
0.21479784 -0.16749409 0.52200001
0.21615572 -0.16749409 0.52200001
0.21751361 -0.16749409 0.52200001
0.21929078 -0.16781496 0.523
0.22065125 -0.16781496 0.523
0.22201173 -0.16781496 0.523
0.22337222 -0.16781496 0.523
0.2247327 -0.16781496 0.523
0.22609319 -0.16781496 0.523
0.22745366 -0.16781496 0.523
0.22881414 -0.16781496 0.523
0.22973453 -0.16749409 0.52200001
0.23109241 -0.16749409 0.52200001
0.23245029 -0.16749409 0.52200001
0.23380816 -0.16749409 0.52200001
0.23516604 -0.16749409 0.52200001
0.23652393 -0.16749409 0.52200001
0.2374261 -0.16717322 0.52100003
0.23878138 -0.16717322 0.52100003
0.24013665 -0.16717322 0.52100003
0.24149193 -0.16717322 0.52100003
0.24284722 -0.16717322 0.52100003
0.24420249 -0.16717322 0.52100003
0.24602908 -0.16749409 0.52200001
0.24738696 -0.16749409 0.52200001
0.24874485 -0.16749409 0.52200001
0.25010273 -0.16749409 0.52200001
0.25146061 -0.16749409 0.52200001
-0.27754089 -0.15881604 0.49900001
-0.27679646 -0.1591343 0.5
-0.2754958 -0.1591343 0.5
-0.27419516 -0.1591343 0.5
-0.2734403 -0.15945259 0.50100005
-0.27213705 -0.15945259 0.50100005
-0.27083382 -0.15945259 0.50100005
-0.27006853 -0.15977085 0.50200003
-0.26876271 -0.15977085 0.50200003
-0.26745683 -0.15977085 0.50200003
-0.26668113 -0.16008911 0.50300002
-0.26537269 -0.16008911 0.50300002
-0.26406422 -0.16008911 0.50300002
-0.26275581 -0.16008911 0.50300002
-0.26144734 -0.16008911 0.50300002
-0.26013887 -0.16008911 0.50300002
-0.25883043 -0.16008911 0.50300002
-0.25752196 -0.16008911 0.50300002
-0.25621352 -0.16008911 0.50300002
-0.25439829 -0.15977085 0.50200003
-0.25309244 -0.15977085 0.50200003
-0.25228816 -0.16008911 0.50300002
-0.25097969 -0.16008911 0.50300002
-0.24967124 -0.16008911 0.50300002
-0.24836278 -0.16008911 0.50300002
-0.24705434 -0.16008911 0.50300002
-0.24623442 -0.16040738 0.50400001
-0.24492337 -0.16040738 0.50400001
-0.24361232 -0.16040738 0.50400001
-0.24230126 -0.16040738 0.50400001
-0.24099021 -0.16040738 0.50400001
-0.23967914 -0.16040738 0.50400001
-0.23836808 -0.16040738 0.50400001
-0.23705703 -0.16040738 0.50400001
-0.23574598 -0.16040738 0.50400001
-0.23443492 -0.16040738 0.50400001
-0.23312385 -0.16040738 0.50400001
-0.2318128 -0.16040738 0.50400001
-0.23095909 -0.16072564 0.505
-0.22919071 -0.16040738 0.50400001
-0.22833177 -0.16072564 0.505
-0.22656858 -0.16040738 0.50400001
-0.22525753 -0.16040738 0.50400001
-0.22394647 -0.16040738 0.50400001
-0.22263542 -0.16040738 0.50400001
-0.22132435 -0.16040738 0.50400001
-0.22001331 -0.16040738 0.50400001
-0.21870224 -0.16040738 0.50400001
-0.21739119 -0.16040738 0.50400001
-0.21608014 -0.16040738 0.50400001
-0.21434295 -0.16008911 0.50300002
-0.2130345 -0.16008911 0.50300002
-0.21172604 -0.16008911 0.50300002
-0.2104176 -0.16008911 0.50300002
-0.20910914 -0.16008911 0.50300002
-0.20780067 -0.16008911 0.50300002
-0.20649222 -0.16008911 0.50300002
-0.20559168 -0.16040738 0.50400001
-0.20428063 -0.16040738 0.50400001
-0.20337227 -0.16072564 0.505
-0.20205863 -0.16072564 0.505
-0.20074497 -0.16072564 0.505
-0.19943132 -0.16072564 0.505
-0.19811766 -0.16072564 0.505
-0.19719371 -0.16104393 0.50600004
-0.19587746 -0.16104393 0.50600004
-0.19456121 -0.16104393 0.50600004
-0.19362685 -0.16136219 0.50700003
-0.19230799 -0.16136219 0.50700003
-0.19098912 -0.16136219 0.50700003
-0.18967026 -0.16136219 0.50700003
-0.18835141 -0.16136219 0.50700003
-0.18703255 -0.16136219 0.50700003
-0.18534741 -0.16104393 0.50600004
-0.18403113 -0.16104393 0.50600004
-0.18271488 -0.16104393 0.50600004
-0.18139862 -0.16104393 0.50600004
-0.18008237 -0.16104393 0.50600004
-0.17876609 -0.16104393 0.50600004
-0.17744984 -0.16104393 0.50600004
-0.17613359 -0.16104393 0.50600004
-0.17481732 -0.16104393 0.50600004
-0.17350107 -0.16104393 0.50600004
-0.1721848 -0.16104393 0.50600004
-0.17086855 -0.16104393 0.50600004
-0.16955228 -0.16104393 0.50600004
-0.16823603 -0.16104393 0.50600004
-0.16691978 -0.16104393 0.50600004
-0.1656035 -0.16104393 0.50600004
-0.16428725 -0.16104393 0.50600004
-0.16297099 -0.16104393 0.50600004
-0.16165474 -0.16104393 0.50600004
-0.16033848 -0.16104393 0.50600004
-0.15902221 -0.16104393 0.50600004
-0.15770596 -0.16104393 0.50600004
-0.1563897 -0.16104393 0.50600004
-0.15507345 -0.16104393 0.50600004
-0.15345329 -0.16072564 0.505
-0.15213963 -0.16072564 0.505
-0.15082598 -0.16072564 0.505
-0.14951234 -0.16072564 0.505
-0.14819868 -0.16072564 0.505
-0.14688501 -0.16072564 0.505
-0.14557135 -0.16072564 0.505
-0.14425769 -0.16072564 0.505
-0.14294404 -0.16072564 0.505
-0.14163038 -0.16072564 0.505
-0.14031672 -0.16072564 0.505
-0.13900307 -0.16072564 0.505
-0.13768941 -0.16072564 0.505
-0.13637576 -0.16072564 0.505
-0.1350621 -0.16072564 0.505
-0.13374843 -0.16072564 0.505
-0.13243477 -0.16072564 0.505
-0.13112113 -0.16072564 0.505
-0.12980747 -0.16072564 0.505
-0.1284938 -0.16072564 0.505
-0.12718014 -0.16072564 0.505
-0.12586649 -0.16072564 0.505
-0.12479949 -0.16104393 0.50600004
-0.12348323 -0.16104393 0.50600004
-0.12216697 -0.16104393 0.50600004
-0.12108954 -0.16136219 0.50700003
-0.11977068 -0.16136219 0.50700003
-0.11845183 -0.16136219 0.50700003
-0.11713296 -0.16136219 0.50700003
-0.1158141 -0.16136219 0.50700003
-0.11472106 -0.16168045 0.50800002
-0.1133996 -0.16168045 0.50800002
-0.11207815 -0.16168045 0.50800002
-0.11075668 -0.16168045 0.50800002
-0.10965064 -0.16199872 0.509
-0.10832658 -0.16199872 0.509
-0.10700252 -0.16199872 0.509
-0.10567845 -0.16199872 0.509
-0.10435439 -0.16199872 0.509
-0.10303033 -0.16199872 0.509
-0.10170627 -0.16199872 0.509
-0.1003822 -0.16199872 0.509
-0.099058136 -0.16199872 0.509
-0.097734079 -0.16199872 0.509
-0.096410006 -0.16199872 0.509
-0.095085949 -0.16199872 0.509
-0.093761891 -0.16199872 0.509
-0.092437826 -0.16199872 0.509
-0.090934761 -0.16168045 0.50800002
-0.089613296 -0.16168045 0.50800002
-0.088291839 -0.16168045 0.50800002
-0.086970381 -0.16168045 0.50800002
-0.085648909 -0.16168045 0.50800002
-0.084327452 -0.16168045 0.50800002
-0.083005987 -0.16168045 0.50800002
-0.08168453 -0.16168045 0.50800002
-0.080363065 -0.16168045 0.50800002
-0.079041608 -0.16168045 0.50800002
-0.07772015 -0.16168045 0.50800002
-0.076398686 -0.16168045 0.50800002
-0.075077221 -0.16168045 0.50800002
-0.073610574 -0.16136219 0.50700003
-0.072291717 -0.16136219 0.50700003
-0.070832863 -0.16104393 0.50600004
-0.069379218 -0.16072564 0.505
-0.068065561 -0.16072564 0.505
-0.066487543 -0.16008911 0.50300002
-0.063235737 -0.15849777 0.49800003
-0.061442778 -0.1572247 0.49400002
-0.059548847 -0.15563335 0.48900002
-0.057919286 -0.15467855 0.48600003
-0.056305327 -0.15372373 0.48300001
-0.054820959 -0.15308721 0.48100004
-0.053458359 -0.15276894 0.48000002
-0.052209735 -0.15276894 0.48000002
-0.048676807 -0.14958625 0.47000003
-0.043955572 -0.14608529 0.45900002
-0.041567575 -0.14608529 0.45900002
-0.040373575 -0.14608529 0.45900002
-0.039264936 -0.14640355 0.46000001
-0.038151093 -0.14672183 0.46100003
-0.037032053 -0.1470401 0.46200001
-0.035907805 -0.14735837 0.46300003
-0.034778353 -0.14767663 0.46400002
-0.033643704 -0.14799491 0.46500003
-0.032503847 -0.14831318 0.46600002
-0.031493086 -0.14926797 0.46900001
-0.030531272 -0.15054105 0.47300002
-0.029548643 -0.15181413 0.47700003
-0.02860455 -0.15340547 0.48200002
-0.027577698 -0.15467855 0.48600003
-0.02658418 -0.15626989 0.49100003
-0.02556465 -0.15786123 0.49600002
-0.024470164 -0.1591343 0.5
-0.02330853 -0.16008911 0.50300002
-0.02208755 -0.16072564 0.505
-0.020773893 -0.16072564 0.505
-0.019537305 -0.16136219 0.50700003
