# .PCD v0.7 - Point Cloud Data file format
VERSION 0.7
FIELDS x y z
SIZE 4 4 4
TYPE F F F
COUNT 1 1 1
WIDTH 1346
HEIGHT 1
VIEWPOINT 0 0 0 1 0 0 0
POINTS 1346
DATA ascii
-0.17654477 -0.011099009 0.51100004
-0.17521551 -0.011099009 0.51100004
-0.17388622 -0.011099009 0.51100004
-0.17289464 -0.011120729 0.51200002
-0.17156278 -0.011120729 0.51200002
-0.17023093 -0.011120729 0.51200002
-0.16889906 -0.011120729 0.51200002
-0.16756718 -0.011120729 0.51200002
-0.16623531 -0.011120729 0.51200002
-0.16490345 -0.011120729 0.51200002
-0.16357158 -0.011120729 0.51200002
-0.16223973 -0.011120729 0.51200002
-0.16090785 -0.011120729 0.51200002
-0.15957598 -0.011120729 0.51200002
-0.15824412 -0.011120729 0.51200002
-0.15691225 -0.011120729 0.51200002
-0.15558037 -0.011120729 0.51200002
-0.15424851 -0.011120729 0.51200002
-0.15291665 -0.011120729 0.51200002
-0.15158479 -0.011120729 0.51200002
-0.15025292 -0.011120729 0.51200002
-0.14892104 -0.011120729 0.51200002
-0.14758918 -0.011120729 0.51200002
-0.14625731 -0.011120729 0.51200002
-0.14492545 -0.011120729 0.51200002
-0.14359359 -0.011120729 0.51200002
-0.14253956 -0.011142449 0.51300001
-0.1412051 -0.011142449 0.51300001
-0.13987063 -0.011142449 0.51300001
-0.13853617 -0.011142449 0.51300001
-0.1372017 -0.011142449 0.51300001
-0.13586722 -0.011142449 0.51300001
-0.13453276 -0.011142449 0.51300001
-0.13319829 -0.011142449 0.51300001
-0.13186383 -0.011142449 0.51300001
-0.13052934 -0.011142449 0.51300001
-0.12919489 -0.011142449 0.51300001
-0.12786041 -0.011142449 0.51300001
-0.12652595 -0.011142449 0.51300001
-0.12519148 -0.011142449 0.51300001
-0.12385701 -0.011142449 0.51300001
-0.12252255 -0.011142449 0.51300001
-0.12118808 -0.011142449 0.51300001
-0.11985362 -0.011142449 0.51300001
-0.11851914 -0.011142449 0.51300001
-0.11718468 -0.011142449 0.51300001
-0.1158502 -0.011142449 0.51300001
-0.11473896 -0.011164169 0.514
-0.1134019 -0.011164169 0.514
-0.11206482 -0.011164169 0.514
-0.11072776 -0.011164169 0.514
-0.10939068 -0.011164169 0.514
-0.10826385 -0.01118589 0.51500005
-0.10692418 -0.01118589 0.51500005
-0.10558451 -0.01118589 0.51500005
-0.10444725 -0.011207609 0.51600003
-0.10310498 -0.011207609 0.51600003
-0.10176271 -0.011207609 0.51600003
-0.10042044 -0.011207609 0.51600003
-0.099270172 -0.01122933 0.51700002
-0.097925298 -0.01122933 0.51700002
-0.096580431 -0.01122933 0.51700002
-0.095235556 -0.01122933 0.51700002
-0.093890682 -0.01122933 0.51700002
-0.092545807 -0.01122933 0.51700002
-0.091024533 -0.011207609 0.51600003
-0.089856066 -0.01122933 0.51700002
-0.088339992 -0.011207609 0.51600003
-0.086997718 -0.011207609 0.51600003
-0.085821442 -0.01122933 0.51700002
-0.084476568 -0.01122933 0.51700002
-0.083131701 -0.01122933 0.51700002
-0.081786819 -0.01122933 0.51700002
-0.080441952 -0.01122933 0.51700002
-0.079250067 -0.01125105 0.51800001
-0.077902593 -0.01125105 0.51800001
-0.076555118 -0.01125105 0.51800001
-0.075207643 -0.01125105 0.51800001
-0.073860168 -0.01125105 0.51800001
-0.072652683 -0.011272771 0.51900005
-0.071302608 -0.011272771 0.51900005
-0.06995254 -0.011272771 0.51900005
-0.068602458 -0.011272771 0.51900005
-0.067252383 -0.011272771 0.51900005
-0.065902308 -0.011272771 0.51900005
-0.064552233 -0.011272771 0.51900005
-0.063202158 -0.011272771 0.51900005
-0.061852079 -0.011272771 0.51900005
-0.060502004 -0.011272771 0.51900005
-0.059151933 -0.011272771 0.51900005
-0.057913225 -0.011294491 0.52000004
-0.056560546 -0.011294491 0.52000004
-0.055207867 -0.011294491 0.52000004
-0.053855192 -0.011294491 0.52000004
-0.052603479 -0.011316211 0.52100003
-0.051248204 -0.011316211 0.52100003
-0.049892925 -0.011316211 0.52100003
-0.048537645 -0.011316211 0.52100003
-0.047091808 -0.011294491 0.52000004
-0.045739129 -0.011294491 0.52000004
-0.04438645 -0.011294491 0.52000004
-0.042951018 -0.011272771 0.51900005
-0.041600943 -0.011272771 0.51900005
-0.040250868 -0.011272771 0.51900005
-0.013834521 -0.0083622672 0.38500002
-0.012799686 -0.0083405469 0.384
-0.011800786 -0.0083405469 0.384
-0.010773757 -0.0083188266 0.38300002
-0.0097519299 -0.0082971063 0.38200003
-0.0087582329 -0.0082971063 0.38200003
-0.0077442084 -0.0082753859 0.38100001
-0.0067353882 -0.0082536666 0.38000003
-0.0057317694 -0.0082319453 0.37900001
-0.0047333539 -0.008210226 0.37800002
-0.0037401409 -0.0081885057 0.377
-0.0027521306 -0.0081667854 0.37600002
-0.0017693228 -0.008145065 0.37500003
-0.00079171767 -0.0081233447 0.37400001
0.00018068492 -0.0081016254 0.37300003
0.0011509707 -0.0081016254 0.37300003
0.0021155691 -0.0080799041 0.37200001
0.0030749652 -0.0080581848 0.37100002
0.0040400485 -0.0080581848 0.37100002
0.0050051315 -0.0080581848 0.37100002
0.0059541222 -0.0080364645 0.37
0.006916604 -0.0080364645 0.37
0.0078790849 -0.0080364645 0.37
0.0088654635 -0.0080581848 0.37100002
0.0098305466 -0.0080581848 0.37100002
0.010795631 -0.0080581848 0.37100002
0.011792413 -0.0080799041 0.37200001
0.012760097 -0.0080799041 0.37200001
0.013727781 -0.0080799041 0.37200001
0.014695466 -0.0080799041 0.37200001
0.015621046 -0.0080581848 0.37100002
0.016586129 -0.0080581848 0.37100002
0.017551212 -0.0080581848 0.37100002
0.018516295 -0.0080581848 0.37100002
0.019533888 -0.0080799041 0.37200001
0.020556685 -0.0081016254 0.37300003
0.021642396 -0.008145065 0.37500003
0.022678198 -0.0081667854 0.37600002
0.023845036 -0.0082319453 0.37900001
0.024961961 -0.0082753859 0.38100001
0.026021177 -0.0082971063 0.38200003
0.027085593 -0.0083188266 0.38300002
0.028155213 -0.0083405469 0.384
0.029230036 -0.0083622672 0.38500002
0.030310061 -0.0083839865 0.38600001
0.031395286 -0.0084057078 0.38700002
0.03240199 -0.0084057078 0.38700002
0.033495024 -0.0084274272 0.38800001
0.034504328 -0.0084274272 0.38800001
0.035513632 -0.0084274272 0.38800001
0.03652294 -0.0084274272 0.38800001
0.037628975 -0.0084491475 0.38900003
0.038640883 -0.0084491475 0.38900003
0.039652791 -0.0084491475 0.38900003
0.040769231 -0.0084708678 0.39000002
0.041783739 -0.0084708678 0.39000002
0.042907991 -0.0084925881 0.39100003
0.043925099 -0.0084925881 0.39100003
0.045057148 -0.0085143084 0.39200002
0.046076857 -0.0085143084 0.39200002
0.047096569 -0.0085143084 0.39200002
0.048116278 -0.0085143084 0.39200002
0.049261332 -0.0085360277 0.39300001
0.050283648 -0.0085360277 0.39300001
0.051305957 -0.0085360277 0.39300001
0.05232827 -0.0085360277 0.39300001
0.075079799 -0.011359651 0.523
0.076294124 -0.01133793 0.52200001
0.077652 -0.01133793 0.52200001
0.079009883 -0.01133793 0.52200001
0.080367759 -0.01133793 0.52200001
0.081569076 -0.011316211 0.52100003
0.082924359 -0.011316211 0.52100003
0.084279634 -0.011316211 0.52100003
0.085634917 -0.011316211 0.52100003
0.086990193 -0.011316211 0.52100003
0.088345475 -0.011316211 0.52100003
0.089700751 -0.011316211 0.52100003
0.091056027 -0.011316211 0.52100003
0.092588678 -0.01133793 0.52200001
0.093946561 -0.01133793 0.52200001
0.095304444 -0.01133793 0.52200001
0.09666232 -0.01133793 0.52200001
0.098020196 -0.01133793 0.52200001
0.099378079 -0.01133793 0.52200001
0.10073595 -0.01133793 0.52200001
0.10228942 -0.011359651 0.523
0.1036499 -0.011359651 0.523
0.10501038 -0.011359651 0.523
0.10637086 -0.011359651 0.523
0.10773133 -0.011359651 0.523
0.10909183 -0.011359651 0.523
0.1106635 -0.011381372 0.52400005
0.11202659 -0.011381372 0.52400005
0.11338966 -0.011381372 0.52400005
0.11475275 -0.011381372 0.52400005
0.11611583 -0.011381372 0.52400005
0.1177031 -0.011403091 0.52500004
0.11906879 -0.011403091 0.52500004
0.12043447 -0.011403091 0.52500004
0.12180016 -0.011403091 0.52500004
0.12316584 -0.011403091 0.52500004
0.12453152 -0.011403091 0.52500004
0.12589721 -0.011403091 0.52500004
0.12702049 -0.011381372 0.52400005
0.12838358 -0.011381372 0.52400005
0.12974666 -0.011381372 0.52400005
0.13085951 -0.011359651 0.523
0.13221999 -0.011359651 0.523
0.13358048 -0.011359651 0.523
0.13494097 -0.011359651 0.523
0.13630144 -0.011359651 0.523
0.13766192 -0.011359651 0.523
0.13902241 -0.011359651 0.523
0.14038289 -0.011359651 0.523
0.14174336 -0.011359651 0.523
0.14310384 -0.011359651 0.523
0.14446431 -0.011359651 0.523
0.14582482 -0.011359651 0.523
0.1471853 -0.011359651 0.523
0.14854577 -0.011359651 0.523
0.14990625 -0.011359651 0.523
0.15126672 -0.011359651 0.523
0.15291905 -0.011381372 0.52400005
0.15428214 -0.011381372 0.52400005
0.15564522 -0.011381372 0.52400005
0.15700831 -0.011381372 0.52400005
0.15837137 -0.011381372 0.52400005
0.15973447 -0.011381372 0.52400005
0.16109756 -0.011381372 0.52400005
0.16246063 -0.011381372 0.52400005
0.16382371 -0.011381372 0.52400005
0.16518681 -0.011381372 0.52400005
0.16654988 -0.011381372 0.52400005
0.16791296 -0.011381372 0.52400005
0.16959909 -0.011403091 0.52500004
0.17096476 -0.011403091 0.52500004
0.17233045 -0.011403091 0.52500004
0.17402698 -0.011424812 0.52600002
0.17539527 -0.011424812 0.52600002
0.1770996 -0.011446531 0.52700001
0.17847048 -0.011446531 0.52700001
0.17984138 -0.011446531 0.52700001
0.18155611 -0.011468251 0.528
0.18292959 -0.011468251 0.528
0.18430308 -0.011468251 0.528
0.18602824 -0.011489972 0.52900004
0.18740435 -0.011489972 0.52900004
0.18878043 -0.011489972 0.52900004
0.19015652 -0.011489972 0.52900004
0.1915326 -0.011489972 0.52900004
0.1929087 -0.011489972 0.52900004
0.19428478 -0.011489972 0.52900004
0.19529098 -0.011468251 0.528
0.19666447 -0.011468251 0.528
0.19803795 -0.011468251 0.528
0.19941145 -0.011468251 0.528
0.20078494 -0.011468251 0.528
0.20215842 -0.011468251 0.528
0.20353191 -0.011468251 0.528
0.20490539 -0.011468251 0.528
0.20588821 -0.011446531 0.52700001
0.2072591 -0.011446531 0.52700001
0.20862998 -0.011446531 0.52700001
0.21039934 -0.011468251 0.528
0.21177283 -0.011468251 0.528
0.21314633 -0.011468251 0.528
0.21451981 -0.011468251 0.528
0.2158933 -0.011468251 0.528
0.21726678 -0.011468251 0.528
0.21864027 -0.011468251 0.528
0.22043048 -0.011489972 0.52900004
0.22180656 -0.011489972 0.52900004
0.22318265 -0.011489972 0.52900004
0.22455873 -0.011489972 0.52900004
0.22636193 -0.011511692 0.53000003
0.22774062 -0.011511692 0.53000003
0.2291193 -0.011511692 0.53000003
0.23093288 -0.011533412 0.53100002
0.23231417 -0.011533412 0.53100002
0.23369548 -0.011533412 0.53100002
0.23507676 -0.011533412 0.53100002
0.23690335 -0.011555132 0.53200001
0.23783934 -0.011533412 0.53100002
0.23922062 -0.011533412 0.53100002
0.24060193 -0.011533412 0.53100002
0.24198322 -0.011533412 0.53100002
0.24382281 -0.011555132 0.53200001
0.2452067 -0.011555132 0.53200001
0.24612708 -0.011533412 0.53100002
0.24750839 -0.011533412 0.53100002
0.24935839 -0.011555132 0.53200001
0.25074229 -0.011555132 0.53200001
0.25212616 -0.011555132 0.53200001
0.25351006 -0.011555132 0.53200001
0.25489396 -0.011555132 0.53200001
0.25627786 -0.011555132 0.53200001
0.25766173 -0.011555132 0.53200001
-0.28067163 -0.0096932687 0.50700003
-0.27935275 -0.0096932687 0.50700003
-0.27803391 -0.0096932687 0.50700003
-0.27671504 -0.0096932687 0.50700003
-0.27539617 -0.0096932687 0.50700003
-0.27407733 -0.0096932687 0.50700003
-0.27275845 -0.0096932687 0.50700003
-0.27143961 -0.0096932687 0.50700003
-0.27012074 -0.0096932687 0.50700003
-0.26880187 -0.0096932687 0.50700003
-0.26748303 -0.0096932687 0.50700003
-0.26616415 -0.0096932687 0.50700003
-0.26484531 -0.0096932687 0.50700003
-0.26352644 -0.0096932687 0.50700003
-0.26220757 -0.0096932687 0.50700003
-0.26088873 -0.0096932687 0.50700003
-0.25956985 -0.0096932687 0.50700003
-0.25825101 -0.0096932687 0.50700003
-0.25693214 -0.0096932687 0.50700003
-0.25561327 -0.0096932687 0.50700003
-0.25429443 -0.0096932687 0.50700003
-0.25297555 -0.0096932687 0.50700003
-0.25165671 -0.0096932687 0.50700003
-0.25033784 -0.0096932687 0.50700003
-0.24901898 -0.0096932687 0.50700003
-0.24770011 -0.0096932687 0.50700003
-0.24638125 -0.0096932687 0.50700003
-0.2450624 -0.0096932687 0.50700003
-0.24374354 -0.0096932687 0.50700003
-0.24242468 -0.0096932687 0.50700003
-0.24158137 -0.0097123869 0.50800002
-0.2402599 -0.0097123869 0.50800002
-0.23893844 -0.0097123869 0.50800002
-0.23808473 -0.009731506 0.509
-0.23676065 -0.009731506 0.509
-0.23543659 -0.009731506 0.509
-0.2345725 -0.0097506251 0.51000005
-0.23278847 -0.009731506 0.509
-0.23191918 -0.0097506251 0.51000005
-0.2305925 -0.0097506251 0.51000005
-0.22926584 -0.0097506251 0.51000005
-0.22793919 -0.0097506251 0.51000005
-0.22661252 -0.0097506251 0.51000005
-0.22528586 -0.0097506251 0.51000005
-0.22395918 -0.0097506251 0.51000005
-0.22263253 -0.0097506251 0.51000005
-0.22130586 -0.0097506251 0.51000005
-0.2199792 -0.0097506251 0.51000005
-0.21865255 -0.0097506251 0.51000005
-0.21732587 -0.0097506251 0.51000005
-0.2159992 -0.0097506251 0.51000005
-0.21467254 -0.0097506251 0.51000005
-0.21334589 -0.0097506251 0.51000005
-0.21201922 -0.0097506251 0.51000005
-0.21069254 -0.0097506251 0.51000005
-0.20936589 -0.0097506251 0.51000005
-0.20803922 -0.0097506251 0.51000005
-0.20671256 -0.0097506251 0.51000005
-0.20538588 -0.0097506251 0.51000005
-0.20405923 -0.0097506251 0.51000005
-0.20313007 -0.0097697442 0.51100004
-0.20180081 -0.0097697442 0.51100004
-0.20047155 -0.0097697442 0.51100004
-0.19914228 -0.0097697442 0.51100004
-0.197813 -0.0097697442 0.51100004
-0.19648375 -0.0097697442 0.51100004
-0.19515449 -0.0097697442 0.51100004
-0.19382522 -0.0097697442 0.51100004
-0.19249594 -0.0097697442 0.51100004
-0.19116668 -0.0097697442 0.51100004
-0.18983743 -0.0097697442 0.51100004
-0.18850815 -0.0097697442 0.51100004
-0.18717889 -0.0097697442 0.51100004
-0.18584962 -0.0097697442 0.51100004
-0.18452035 -0.0097697442 0.51100004
-0.18319109 -0.0097697442 0.51100004
-0.18150595 -0.0097506251 0.51000005
-0.18053256 -0.0097697442 0.51100004
-0.17920329 -0.0097697442 0.51100004
-0.17787403 -0.0097697442 0.51100004
-0.17654477 -0.0097697442 0.51100004
-0.17521551 -0.0097697442 0.51100004
-0.17388622 -0.0097697442 0.51100004
-0.17289464 -0.0097888624 0.51200002
-0.17156278 -0.0097888624 0.51200002
-0.17023093 -0.0097888624 0.51200002
-0.16889906 -0.0097888624 0.51200002
-0.16756718 -0.0097888624 0.51200002
-0.16655999 -0.0098079816 0.51300001
-0.16522552 -0.0098079816 0.51300001
-0.16389106 -0.0098079816 0.51300001
-0.16255659 -0.0098079816 0.51300001
-0.16122212 -0.0098079816 0.51300001
-0.15957598 -0.0097888624 0.51200002
-0.15824412 -0.0097888624 0.51200002
-0.15691225 -0.0097888624 0.51200002
-0.15558037 -0.0097888624 0.51200002
-0.15424851 -0.0097888624 0.51200002
-0.15291665 -0.0097888624 0.51200002
-0.15158479 -0.0097888624 0.51200002
-0.15025292 -0.0097888624 0.51200002
-0.14892104 -0.0097888624 0.51200002
-0.14758918 -0.0097888624 0.51200002
-0.14625731 -0.0097888624 0.51200002
-0.14520851 -0.0098079816 0.51300001
-0.14387403 -0.0098079816 0.51300001
-0.14253956 -0.0098079816 0.51300001
-0.1412051 -0.0098079816 0.51300001
-0.13987063 -0.0098079816 0.51300001
-0.13853617 -0.0098079816 0.51300001
-0.13746914 -0.0098270997 0.514
-0.13586722 -0.0098079816 0.51300001
-0.13453276 -0.0098079816 0.51300001
-0.13319829 -0.0098079816 0.51300001
-0.13186383 -0.0098079816 0.51300001
-0.13052934 -0.0098079816 0.51300001
-0.12944672 -0.0098270997 0.514
-0.12810966 -0.0098270997 0.514
-0.1267726 -0.0098270997 0.514
-0.12543552 -0.0098270997 0.514
-0.12409845 -0.0098270997 0.514
-0.12276138 -0.0098270997 0.514
-0.12142431 -0.0098270997 0.514
-0.12008724 -0.0098270997 0.514
-0.11875017 -0.0098270997 0.514
-0.1174131 -0.0098270997 0.514
-0.11607603 -0.0098270997 0.514
-0.11473896 -0.0098270997 0.514
-0.1134019 -0.0098270997 0.514
-0.11206482 -0.0098270997 0.514
-0.11072776 -0.0098270997 0.514
-0.10960352 -0.0098462198 0.51500005
-0.10826385 -0.0098462198 0.51500005
-0.10692418 -0.0098462198 0.51500005
-0.10578953 -0.009865338 0.51600003
-0.10444725 -0.009865338 0.51600003
-0.10310498 -0.009865338 0.51600003
-0.10176271 -0.009865338 0.51600003
-0.10061505 -0.0098844571 0.51700002
-0.099270172 -0.0098844571 0.51700002
-0.097925298 -0.0098844571 0.51700002
-0.096580431 -0.0098844571 0.51700002
-0.095235556 -0.0098844571 0.51700002
-0.093890682 -0.0098844571 0.51700002
-0.092545807 -0.0098844571 0.51700002
-0.091200933 -0.0098844571 0.51700002
-0.089856066 -0.0098844571 0.51700002
-0.088339992 -0.009865338 0.51600003
-0.086997718 -0.009865338 0.51600003
-0.085821442 -0.0098844571 0.51700002
-0.084476568 -0.0098844571 0.51700002
-0.083131701 -0.0098844571 0.51700002
-0.081786819 -0.0098844571 0.51700002
-0.080441952 -0.0098844571 0.51700002
-0.079097077 -0.0098844571 0.51700002
-0.077902593 -0.0099035753 0.51800001
-0.076555118 -0.0099035753 0.51800001
-0.075207643 -0.0099035753 0.51800001
-0.073860168 -0.0099035753 0.51800001
-0.072512694 -0.0099035753 0.51800001
-0.071302608 -0.0099226953 0.51900005
-0.06995254 -0.0099226953 0.51900005
-0.068470269 -0.0099035753 0.51800001
-0.067122802 -0.0099035753 0.51800001
-0.065902308 -0.0099226953 0.51900005
-0.064552233 -0.0099226953 0.51900005
-0.063202158 -0.0099226953 0.51900005
-0.061852079 -0.0099226953 0.51900005
-0.060502004 -0.0099226953 0.51900005
-0.059151933 -0.0099226953 0.51900005
-0.057801854 -0.0099226953 0.51900005
-0.056560546 -0.0099418135 0.52000004
-0.055207867 -0.0099418135 0.52000004
-0.053958759 -0.0099609327 0.52100003
-0.052603479 -0.0099609327 0.52100003
-0.051248204 -0.0099609327 0.52100003
-0.049892925 -0.0099609327 0.52100003
-0.048444483 -0.0099418135 0.52000004
-0.047091808 -0.0099418135 0.52000004
-0.045739129 -0.0099418135 0.52000004
-0.04438645 -0.0099418135 0.52000004
-0.042951018 -0.0099226953 0.51900005
-0.041600943 -0.0099226953 0.51900005
-0.040250868 -0.0099226953 0.51900005
-0.038825836 -0.0099035753 0.51800001
-0.037478361 -0.0099035753 0.51800001
-0.013834521 -0.0073607657 0.38500002
-0.012799686 -0.0073416466 0.384
-0.011800786 -0.0073416466 0.384
-0.010773757 -0.0073225279 0.38300002
-0.0097774584 -0.0073225279 0.38300002
-0.0087582329 -0.0073034093 0.38200003
-0.0077442084 -0.0072842902 0.38100001
-0.0067353882 -0.0072651715 0.38000003
-0.0057317694 -0.0072460524 0.37900001
-0.0047333539 -0.0072269337 0.37800002
-0.0037401409 -0.0072078146 0.377
-0.0027448111 -0.0071695773 0.37500003
-0.0017693228 -0.0071695773 0.37500003
-0.00079171767 -0.0071504582 0.37400001
0.00018068492 -0.0071313395 0.37300003
0.0011478849 -0.0071122204 0.37200001
0.0021098822 -0.0070931017 0.37100002
0.0030749652 -0.0070931017 0.37100002
0.0040291585 -0.0070739826 0.37
0.0049916403 -0.0070739826 0.37
0.0059541222 -0.0070739826 0.37
0.006916604 -0.0070739826 0.37
0.0078790849 -0.0070739826 0.37
0.0088415677 -0.0070739826 0.37
0.0098040486 -0.0070739826 0.37
0.010795631 -0.0070931017 0.37100002
0.011760714 -0.0070931017 0.37100002
0.012725797 -0.0070931017 0.37100002
0.013727781 -0.0071122204 0.37200001
0.014655963 -0.0070931017 0.37100002
0.015621046 -0.0070931017 0.37100002
0.016586129 -0.0070931017 0.37100002
0.017551212 -0.0070931017 0.37100002
0.018516295 -0.0070931017 0.37100002
0.019481378 -0.0070931017 0.37100002
0.020556685 -0.0071313395 0.37300003
0.021642396 -0.0071695773 0.37500003
0.023907952 -0.0072651715 0.38000003
0.02502748 -0.0073034093 0.38200003
0.026089294 -0.0073225279 0.38300002
0.027156312 -0.0073416466 0.384
0.028228534 -0.0073607657 0.38500002
0.029305957 -0.0073798844 0.38600001
0.030388586 -0.007399004 0.38700002
0.031476412 -0.0074181226 0.38800001
0.032485716 -0.0074181226 0.38800001
0.03358135 -0.0074372417 0.38900003
0.034593258 -0.0074372417 0.38900003
0.035605166 -0.0074372417 0.38900003
0.03661707 -0.0074372417 0.38900003
0.037725706 -0.0074563604 0.39000002
0.038740214 -0.0074563604 0.39000002
0.039754722 -0.0074563604 0.39000002
0.04087377 -0.0074754795 0.39100003
0.041890878 -0.0074754795 0.39100003
0.043017726 -0.0074945982 0.39200002
0.044149779 -0.0075137168 0.39300001
0.045172088 -0.0075137168 0.39300001
0.046194397 -0.0075137168 0.39300001
0.04721671 -0.0075137168 0.39300001
0.048239022 -0.0075137168 0.39300001
0.04938668 -0.0075328359 0.39400002
0.050411597 -0.0075328359 0.39400002
0.05143651 -0.0075328359 0.39400002
0.052461423 -0.0075328359 0.39400002
0.07386028 -0.01001829 0.52400005
0.075079799 -0.00999917 0.523
0.076440282 -0.00999917 0.523
0.077800758 -0.00999917 0.523
0.079161242 -0.00999917 0.523
0.080521725 -0.00999917 0.523
0.081725642 -0.0099800508 0.52200001
0.083083525 -0.0099800508 0.52200001
0.084441401 -0.0099800508 0.52200001
0.085799284 -0.0099800508 0.52200001
0.08715716 -0.0099800508 0.52200001
0.088515043 -0.0099800508 0.52200001
0.089872919 -0.0099800508 0.52200001
0.091230795 -0.0099800508 0.52200001
0.092588678 -0.0099800508 0.52200001
0.093946561 -0.0099800508 0.52200001
0.095304444 -0.0099800508 0.52200001
0.09666232 -0.0099800508 0.52200001
0.098020196 -0.0099800508 0.52200001
0.099378079 -0.0099800508 0.52200001
0.10073595 -0.0099800508 0.52200001
0.10228942 -0.00999917 0.523
0.1036499 -0.00999917 0.523
0.10501038 -0.00999917 0.523
0.10637086 -0.00999917 0.523
0.10773133 -0.00999917 0.523
0.10930042 -0.01001829 0.52400005
0.1106635 -0.01001829 0.52400005
0.11202659 -0.01001829 0.52400005
0.11338966 -0.01001829 0.52400005
0.11475275 -0.01001829 0.52400005
0.11633743 -0.010037408 0.52500004
0.1177031 -0.010037408 0.52500004
0.11906879 -0.010037408 0.52500004
0.12043447 -0.010037408 0.52500004
0.12180016 -0.010037408 0.52500004
0.12316584 -0.010037408 0.52500004
0.12453152 -0.010037408 0.52500004
0.12565741 -0.01001829 0.52400005
0.12702049 -0.01001829 0.52400005
0.12838358 -0.01001829 0.52400005
0.12949903 -0.00999917 0.523
0.13085951 -0.00999917 0.523
0.13221999 -0.00999917 0.523
0.13358048 -0.00999917 0.523
0.13494097 -0.00999917 0.523
0.13630144 -0.00999917 0.523
0.13766192 -0.00999917 0.523
0.13902241 -0.00999917 0.523
0.14038289 -0.00999917 0.523
0.14174336 -0.00999917 0.523
0.14310384 -0.00999917 0.523
0.14446431 -0.00999917 0.523
0.14582482 -0.00999917 0.523
0.1471853 -0.00999917 0.523
0.14854577 -0.00999917 0.523
0.14990625 -0.00999917 0.523
0.15126672 -0.00999917 0.523
0.15262721 -0.00999917 0.523
0.15428214 -0.01001829 0.52400005
0.15564522 -0.01001829 0.52400005
0.15700831 -0.01001829 0.52400005
0.15837137 -0.01001829 0.52400005
0.15973447 -0.01001829 0.52400005
0.16109756 -0.01001829 0.52400005
0.16246063 -0.01001829 0.52400005
0.16382371 -0.01001829 0.52400005
0.16518681 -0.01001829 0.52400005
0.16654988 -0.01001829 0.52400005
0.16791296 -0.01001829 0.52400005
0.16959909 -0.010037408 0.52500004
0.17096476 -0.010037408 0.52500004
0.17233045 -0.010037408 0.52500004
0.17402698 -0.010056527 0.52600002
0.17539527 -0.010056527 0.52600002
0.1770996 -0.010075646 0.52700001
0.17847048 -0.010075646 0.52700001
0.17984138 -0.010075646 0.52700001
0.18121226 -0.010075646 0.52700001
0.18292959 -0.010094764 0.528
0.18430308 -0.010094764 0.528
0.18567656 -0.010094764 0.528
0.18740435 -0.010113884 0.52900004
0.18878043 -0.010113884 0.52900004
0.19015652 -0.010113884 0.52900004
0.1915326 -0.010113884 0.52900004
0.1929087 -0.010113884 0.52900004
0.19428478 -0.010113884 0.52900004
0.19566087 -0.010113884 0.52900004
0.19703695 -0.010113884 0.52900004
0.19841304 -0.010113884 0.52900004
0.19941145 -0.010094764 0.528
0.20078494 -0.010094764 0.528
0.20215842 -0.010094764 0.528
0.20353191 -0.010094764 0.528
0.20490539 -0.010094764 0.528
0.20627889 -0.010094764 0.528
0.20765238 -0.010094764 0.528
0.20902586 -0.010094764 0.528
0.21039934 -0.010094764 0.528
0.21177283 -0.010094764 0.528
0.21314633 -0.010094764 0.528
0.21451981 -0.010094764 0.528
0.2158933 -0.010094764 0.528
0.21726678 -0.010094764 0.528
0.21864027 -0.010094764 0.528
0.22001377 -0.010094764 0.528
0.22180656 -0.010113884 0.52900004
0.22318265 -0.010113884 0.52900004
0.22455873 -0.010113884 0.52900004
0.22636193 -0.010133003 0.53000003
0.22774062 -0.010133003 0.53000003
0.2291193 -0.010133003 0.53000003
0.23093288 -0.010152121 0.53100002
0.23231417 -0.010152121 0.53100002
0.23369548 -0.010152121 0.53100002
0.23507676 -0.010152121 0.53100002
0.23690335 -0.01017124 0.53200001
0.23828724 -0.01017124 0.53200001
0.23967113 -0.01017124 0.53200001
0.24105504 -0.01017124 0.53200001
0.24243893 -0.01017124 0.53200001
0.24382281 -0.01017124 0.53200001
0.2452067 -0.01017124 0.53200001
0.24612708 -0.010152121 0.53100002
0.24750839 -0.010152121 0.53100002
0.24935839 -0.01017124 0.53200001
0.25074229 -0.01017124 0.53200001
0.25212616 -0.01017124 0.53200001
0.25351006 -0.01017124 0.53200001
0.25489396 -0.01017124 0.53200001
0.25627786 -0.01017124 0.53200001
0.25766173 -0.01017124 0.53200001
-0.28067163 -0.0083744079 0.50700003
-0.27935275 -0.0083744079 0.50700003
-0.27803391 -0.0083744079 0.50700003
-0.27671504 -0.0083744079 0.50700003
-0.27539617 -0.0083744079 0.50700003
-0.27461791 -0.0083909249 0.50800002
-0.27329645 -0.0083909249 0.50800002
-0.27143961 -0.0083744079 0.50700003
-0.27012074 -0.0083744079 0.50700003
-0.26880187 -0.0083744079 0.50700003
-0.26748303 -0.0083744079 0.50700003
-0.26616415 -0.0083744079 0.50700003
-0.26484531 -0.0083744079 0.50700003
-0.26352644 -0.0083744079 0.50700003
-0.26220757 -0.0083744079 0.50700003
-0.26088873 -0.0083744079 0.50700003
-0.25956985 -0.0083744079 0.50700003
-0.25825101 -0.0083744079 0.50700003
-0.25693214 -0.0083744079 0.50700003
-0.25561327 -0.0083744079 0.50700003
-0.25429443 -0.0083744079 0.50700003
-0.25297555 -0.0083744079 0.50700003
-0.25165671 -0.0083744079 0.50700003
-0.25033784 -0.0083744079 0.50700003
-0.24901898 -0.0083744079 0.50700003
-0.24770011 -0.0083744079 0.50700003
-0.24638125 -0.0083744079 0.50700003
-0.2450624 -0.0083744079 0.50700003
-0.24374354 -0.0083744079 0.50700003
-0.24242468 -0.0083744079 0.50700003
-0.24110581 -0.0083744079 0.50700003
-0.2402599 -0.0083909249 0.50800002
-0.23893844 -0.0083909249 0.50800002
-0.23808473 -0.0084074419 0.509
-0.23676065 -0.0084074419 0.509
-0.23543659 -0.0084074419 0.509
-0.2345725 -0.0084239608 0.51000005
-0.23324583 -0.0084239608 0.51000005
-0.23191918 -0.0084239608 0.51000005
-0.2305925 -0.0084239608 0.51000005
-0.22926584 -0.0084239608 0.51000005
-0.22793919 -0.0084239608 0.51000005
-0.22661252 -0.0084239608 0.51000005
-0.22528586 -0.0084239608 0.51000005
-0.22395918 -0.0084239608 0.51000005
-0.22263253 -0.0084239608 0.51000005
-0.22130586 -0.0084239608 0.51000005
-0.2199792 -0.0084239608 0.51000005
-0.21865255 -0.0084239608 0.51000005
-0.21775199 -0.0084404778 0.51100004
-0.21642272 -0.0084404778 0.51100004
-0.21509346 -0.0084404778 0.51100004
-0.21376421 -0.0084404778 0.51100004
-0.21243493 -0.0084404778 0.51100004
-0.21110566 -0.0084404778 0.51100004
-0.2097764 -0.0084404778 0.51100004
-0.20844714 -0.0084404778 0.51100004
-0.20711787 -0.0084404778 0.51100004
-0.2057886 -0.0084404778 0.51100004
-0.20445934 -0.0084404778 0.51100004
-0.20313007 -0.0084404778 0.51100004
-0.20180081 -0.0084404778 0.51100004
-0.20047155 -0.0084404778 0.51100004
-0.19914228 -0.0084404778 0.51100004
-0.197813 -0.0084404778 0.51100004
-0.19686826 -0.0084569957 0.51200002
-0.19515449 -0.0084404778 0.51100004
-0.19420452 -0.0084569957 0.51200002
-0.19287264 -0.0084569957 0.51200002
-0.19116668 -0.0084404778 0.51100004
-0.18983743 -0.0084404778 0.51100004
-0.18850815 -0.0084404778 0.51100004
-0.18717889 -0.0084404778 0.51100004
-0.18584962 -0.0084404778 0.51100004
-0.18452035 -0.0084404778 0.51100004
-0.18319109 -0.0084404778 0.51100004
-0.18186183 -0.0084404778 0.51100004
-0.18053256 -0.0084404778 0.51100004
-0.17920329 -0.0084404778 0.51100004
-0.17787403 -0.0084404778 0.51100004
-0.17654477 -0.0084404778 0.51100004
-0.17521551 -0.0084404778 0.51100004
-0.17388622 -0.0084404778 0.51100004
-0.17289464 -0.0084569957 0.51200002
-0.17156278 -0.0084569957 0.51200002
-0.17023093 -0.0084569957 0.51200002
-0.16889906 -0.0084569957 0.51200002
-0.16756718 -0.0084569957 0.51200002
-0.16623531 -0.0084569957 0.51200002
-0.16522552 -0.0084735127 0.51300001
-0.16389106 -0.0084735127 0.51300001
-0.16255659 -0.0084735127 0.51300001
-0.16122212 -0.0084735127 0.51300001
-0.15988764 -0.0084735127 0.51300001
-0.15855318 -0.0084735127 0.51300001
-0.15721872 -0.0084735127 0.51300001
-0.15558037 -0.0084569957 0.51200002
-0.15424851 -0.0084569957 0.51200002
-0.15291665 -0.0084569957 0.51200002
-0.15158479 -0.0084569957 0.51200002
-0.15054639 -0.0084735127 0.51300001
-0.1492119 -0.0084735127 0.51300001
-0.14787744 -0.0084735127 0.51300001
-0.14654297 -0.0084735127 0.51300001
-0.14520851 -0.0084735127 0.51300001
-0.14387403 -0.0084735127 0.51300001
-0.14281741 -0.0084900297 0.514
-0.14148034 -0.0084900297 0.514
-0.14014328 -0.0084900297 0.514
-0.13880621 -0.0084900297 0.514
-0.13746914 -0.0084900297 0.514
-0.13613206 -0.0084900297 0.514
-0.134795 -0.0084900297 0.514
-0.13345793 -0.0084900297 0.514
-0.13212086 -0.0084900297 0.514
-0.13078378 -0.0084900297 0.514
-0.12944672 -0.0084900297 0.514
-0.12810966 -0.0084900297 0.514
-0.1267726 -0.0084900297 0.514
-0.12543552 -0.0084900297 0.514
-0.1243399 -0.0085065486 0.51500005
-0.12300023 -0.0085065486 0.51500005
-0.12166055 -0.0085065486 0.51500005
-0.12032089 -0.0085065486 0.51500005
-0.11898121 -0.0085065486 0.51500005
-0.11764155 -0.0085065486 0.51500005
-0.11630187 -0.0085065486 0.51500005
-0.11473896 -0.0084900297 0.514
-0.1134019 -0.0084900297 0.514
-0.11228286 -0.0085065486 0.51500005
-0.11094319 -0.0085065486 0.51500005
-0.10960352 -0.0085065486 0.51500005
-0.10826385 -0.0085065486 0.51500005
-0.10692418 -0.0085065486 0.51500005
-0.10578953 -0.0085230656 0.51600003
-0.10444725 -0.0085230656 0.51600003
-0.10310498 -0.0085230656 0.51600003
-0.10176271 -0.0085230656 0.51600003
-0.10042044 -0.0085230656 0.51600003
-0.099078164 -0.0085230656 0.51600003
-0.097735889 -0.0085230656 0.51600003
-0.096393622 -0.0085230656 0.51600003
-0.095235556 -0.0085395835 0.51700002
-0.093709074 -0.0085230656 0.51600003
-0.092366807 -0.0085230656 0.51600003
-0.091024533 -0.0085230656 0.51600003
-0.089682259 -0.0085230656 0.51600003
-0.088339992 -0.0085230656 0.51600003
-0.086997718 -0.0085230656 0.51600003
-0.085821442 -0.0085395835 0.51700002
-0.084476568 -0.0085395835 0.51700002
-0.083131701 -0.0085395835 0.51700002
-0.081786819 -0.0085395835 0.51700002
-0.080441952 -0.0085395835 0.51700002
-0.079250067 -0.0085561005 0.51800001
-0.077752203 -0.0085395835 0.51700002
-0.076555118 -0.0085561005 0.51800001
-0.075062454 -0.0085395835 0.51700002
-0.073860168 -0.0085561005 0.51800001
-0.072512694 -0.0085561005 0.51800001
-0.071165219 -0.0085561005 0.51800001
-0.069817752 -0.0085561005 0.51800001
-0.068470269 -0.0085561005 0.51800001
-0.067122802 -0.0085561005 0.51800001
-0.06577532 -0.0085561005 0.51800001
-0.064427853 -0.0085561005 0.51800001
-0.063202158 -0.0085726185 0.51900005
-0.061852079 -0.0085726185 0.51900005
-0.060502004 -0.0085726185 0.51900005
-0.059151933 -0.0085726185 0.51900005
-0.057801854 -0.0085726185 0.51900005
-0.056560546 -0.0085891364 0.52000004
-0.055207867 -0.0085891364 0.52000004
-0.053958759 -0.0086056534 0.52100003
-0.052603479 -0.0086056534 0.52100003
-0.051248204 -0.0086056534 0.52100003
-0.049892925 -0.0086056534 0.52100003
-0.048537645 -0.0086056534 0.52100003
-0.047091808 -0.0085891364 0.52000004
-0.045739129 -0.0085891364 0.52000004
-0.04438645 -0.0085891364 0.52000004
-0.040250868 -0.0085726185 0.51900005
-0.038825836 -0.0085561005 0.51800001
-0.014874556 -0.0063757817 0.38600001
-0.013798586 -0.0063427463 0.384
-0.012799686 -0.0063427463 0.384
-0.011770056 -0.0063262288 0.38300002
-0.010773757 -0.0063262288 0.38300002
-0.0097519299 -0.0063097114 0.38200003
-0.0087582329 -0.0063097114 0.38200003
-0.0077442084 -0.0062931939 0.38100001
-0.0067353882 -0.0062766764 0.38000003
-0.0057317694 -0.0062601585 0.37900001
-0.0047333539 -0.006243641 0.37800002
-0.0037302203 -0.0062106061 0.37600002
-0.0027448111 -0.0061940886 0.37500003
-0.0017646046 -0.0061775707 0.37400001
-0.00078960077 -0.0061610532 0.37300003
0.0001802005 -0.0061445357 0.37200001
0.0011478849 -0.0061445357 0.37200001
0.0021041951 -0.0061115003 0.37
0.0030666767 -0.0061115003 0.37
0.0040291585 -0.0061115003 0.37
0.0049781497 -0.0060949828 0.36900002
0.0059541222 -0.0061115003 0.37
0.0068979105 -0.0060949828 0.36900002
0.0078790849 -0.0061115003 0.37
0.0088415677 -0.0061115003 0.37
0.0098040486 -0.0061115003 0.37
0.010795631 -0.0061280183 0.37100002
0.011760714 -0.0061280183 0.37100002
0.012725797 -0.0061280183 0.37100002
0.013690879 -0.0061280183 0.37100002
0.014655963 -0.0061280183 0.37100002
0.01557894 -0.0061115003 0.37
0.016541421 -0.0061115003 0.37
0.017503902 -0.0061115003 0.37
0.018466385 -0.0061115003 0.37
0.019481378 -0.0061280183 0.37100002
0.025092995 -0.0063262288 0.38300002
0.026157413 -0.0063427463 0.384
0.027227033 -0.0063592643 0.38500002
0.028301856 -0.0063757817 0.38600001
0.029381881 -0.0063922992 0.38700002
0.030467108 -0.0064088167 0.38800001
0.031476412 -0.0064088167 0.38800001
0.032569446 -0.0064253346 0.38900003
0.03358135 -0.0064253346 0.38900003
0.034682184 -0.0064418521 0.39000002
0.035696693 -0.0064418521 0.39000002
0.036805335 -0.0064583695 0.39100003
0.03782244 -0.0064583695 0.39100003
0.038839553 -0.0064583695 0.39100003
0.039958596 -0.006474887 0.39200002
0.040978305 -0.006474887 0.39200002
0.042105153 -0.0064914045 0.39300001
0.043127466 -0.0064914045 0.39300001
0.044262119 -0.0065079224 0.39400002
0.045287032 -0.0065079224 0.39400002
0.046311945 -0.0065079224 0.39400002
0.047336858 -0.0065079224 0.39400002
0.048361771 -0.0065079224 0.39400002
0.04938668 -0.0065079224 0.39400002
0.050411597 -0.0065079224 0.39400002
0.075223356 -0.0086552063 0.52400005
0.076440282 -0.0086386884 0.523
0.077800758 -0.0086386884 0.523
0.079161242 -0.0086386884 0.523
0.080521725 -0.0086386884 0.523
0.081882201 -0.0086386884 0.523
0.083242685 -0.0086386884 0.523
0.084603161 -0.0086386884 0.523
0.085799284 -0.0086221714 0.52200001
0.08715716 -0.0086221714 0.52200001
0.088515043 -0.0086221714 0.52200001
0.089872919 -0.0086221714 0.52200001
0.091230795 -0.0086221714 0.52200001
0.092588678 -0.0086221714 0.52200001
0.093946561 -0.0086221714 0.52200001
0.095304444 -0.0086221714 0.52200001
0.09666232 -0.0086221714 0.52200001
0.098020196 -0.0086221714 0.52200001
0.099378079 -0.0086221714 0.52200001
0.10073595 -0.0086221714 0.52200001
0.10228942 -0.0086386884 0.523
0.1036499 -0.0086386884 0.523
0.10501038 -0.0086386884 0.523
0.10637086 -0.0086386884 0.523
0.10773133 -0.0086386884 0.523
0.10909183 -0.0086386884 0.523
0.1106635 -0.0086552063 0.52400005
0.11202659 -0.0086552063 0.52400005
0.11338966 -0.0086552063 0.52400005
0.11475275 -0.0086552063 0.52400005
0.11611583 -0.0086552063 0.52400005
0.1177031 -0.0086717242 0.52500004
0.11906879 -0.0086717242 0.52500004
0.12043447 -0.0086717242 0.52500004
0.12180016 -0.0086717242 0.52500004
0.12316584 -0.0086717242 0.52500004
0.12429433 -0.0086552063 0.52400005
0.12565741 -0.0086552063 0.52400005
0.12702049 -0.0086552063 0.52400005
0.12813856 -0.0086386884 0.523
0.12949903 -0.0086386884 0.523
0.13085951 -0.0086386884 0.523
0.13221999 -0.0086386884 0.523
0.13358048 -0.0086386884 0.523
0.13494097 -0.0086386884 0.523
0.13630144 -0.0086386884 0.523
0.13766192 -0.0086386884 0.523
0.13902241 -0.0086386884 0.523
0.14038289 -0.0086386884 0.523
0.14174336 -0.0086386884 0.523
0.14310384 -0.0086386884 0.523
0.14446431 -0.0086386884 0.523
0.14582482 -0.0086386884 0.523
0.1471853 -0.0086386884 0.523
0.14854577 -0.0086386884 0.523
0.14990625 -0.0086386884 0.523
0.15126672 -0.0086386884 0.523
0.15262721 -0.0086386884 0.523
0.15398769 -0.0086386884 0.523
0.15564522 -0.0086552063 0.52400005
0.15700831 -0.0086552063 0.52400005
0.15837137 -0.0086552063 0.52400005
0.15973447 -0.0086552063 0.52400005
0.16109756 -0.0086552063 0.52400005
0.16246063 -0.0086552063 0.52400005
0.16382371 -0.0086552063 0.52400005
0.16518681 -0.0086552063 0.52400005
0.16654988 -0.0086552063 0.52400005
0.16791296 -0.0086552063 0.52400005
0.16927604 -0.0086552063 0.52400005
0.17096476 -0.0086717242 0.52500004
0.17233045 -0.0086717242 0.52500004
0.17402698 -0.0086882412 0.52600002
0.17539527 -0.0086882412 0.52600002
0.17676355 -0.0086882412 0.52600002
0.17847048 -0.0087047582 0.52700001
0.17984138 -0.0087047582 0.52700001
0.18121226 -0.0087047582 0.52700001
0.18292959 -0.0087212762 0.528
0.18430308 -0.0087212762 0.528
0.18602824 -0.0087377941 0.52900004
0.18740435 -0.0087377941 0.52900004
0.18878043 -0.0087377941 0.52900004
0.19015652 -0.0087377941 0.52900004
0.1915326 -0.0087377941 0.52900004
0.1929087 -0.0087377941 0.52900004
0.19428478 -0.0087377941 0.52900004
0.19566087 -0.0087377941 0.52900004
0.19703695 -0.0087377941 0.52900004
0.19841304 -0.0087377941 0.52900004
0.19978914 -0.0087377941 0.52900004
0.20116523 -0.0087377941 0.52900004
0.20254132 -0.0087377941 0.52900004
0.20353191 -0.0087212762 0.528
0.20490539 -0.0087212762 0.528
0.20627889 -0.0087212762 0.528
0.20765238 -0.0087212762 0.528
0.20902586 -0.0087212762 0.528
0.21039934 -0.0087212762 0.528
0.21177283 -0.0087212762 0.528
0.21314633 -0.0087212762 0.528
0.21451981 -0.0087212762 0.528
0.2158933 -0.0087212762 0.528
0.21726678 -0.0087212762 0.528
0.21864027 -0.0087212762 0.528
0.22001377 -0.0087212762 0.528
0.22138725 -0.0087212762 0.528
0.22318265 -0.0087377941 0.52900004
0.22455873 -0.0087377941 0.52900004
0.22636193 -0.0087543121 0.53000003
0.22774062 -0.0087543121 0.53000003
0.2291193 -0.0087543121 0.53000003
0.23049799 -0.0087543121 0.53000003
0.23231417 -0.0087708291 0.53100002
0.23369548 -0.0087708291 0.53100002
0.23507676 -0.0087708291 0.53100002
0.23690335 -0.0087873461 0.53200001
0.23828724 -0.0087873461 0.53200001
0.23967113 -0.0087873461 0.53200001
0.24105504 -0.0087873461 0.53200001
0.24243893 -0.0087873461 0.53200001
0.24382281 -0.0087873461 0.53200001
0.2452067 -0.0087873461 0.53200001
0.2465906 -0.0087873461 0.53200001
0.2479745 -0.0087873461 0.53200001
0.24935839 -0.0087873461 0.53200001
0.25074229 -0.0087873461 0.53200001
0.25212616 -0.0087873461 0.53200001
0.25351006 -0.0087873461 0.53200001
0.25489396 -0.0087873461 0.53200001
0.25627786 -0.0087873461 0.53200001
0.25766173 -0.0087873461 0.53200001
-0.2812252 -0.0070694638 0.50800002
-0.27990374 -0.0070694638 0.50800002
-0.2785823 -0.0070694638 0.50800002
-0.27671504 -0.007055548 0.50700003
-0.27539617 -0.007055548 0.50700003
-0.27407733 -0.007055548 0.50700003
-0.27275845 -0.007055548 0.50700003
-0.27143961 -0.007055548 0.50700003
-0.27012074 -0.007055548 0.50700003
-0.26880187 -0.007055548 0.50700003
-0.26801059 -0.0070694638 0.50800002
-0.26668912 -0.0070694638 0.50800002
-0.26484531 -0.007055548 0.50700003
-0.26352644 -0.007055548 0.50700003
-0.26220757 -0.007055548 0.50700003
-0.26088873 -0.007055548 0.50700003
-0.26008183 -0.0070694638 0.50800002
-0.25876036 -0.0070694638 0.50800002
-0.2574389 -0.0070694638 0.50800002
-0.25611743 -0.0070694638 0.50800002
-0.25429443 -0.007055548 0.50700003
-0.25297555 -0.007055548 0.50700003
-0.25165671 -0.007055548 0.50700003
-0.25033784 -0.007055548 0.50700003
-0.24901898 -0.007055548 0.50700003
-0.24770011 -0.007055548 0.50700003
-0.24638125 -0.007055548 0.50700003
-0.2450624 -0.007055548 0.50700003
-0.24374354 -0.007055548 0.50700003
-0.24242468 -0.007055548 0.50700003
-0.24110581 -0.007055548 0.50700003
-0.2402599 -0.0070694638 0.50800002
-0.23893844 -0.0070694638 0.50800002
-0.23808473 -0.0070833801 0.509
-0.23676065 -0.0070833801 0.509
-0.23543659 -0.0070833801 0.509
-0.2345725 -0.0070972969 0.51000005
-0.23324583 -0.0070972969 0.51000005
-0.23191918 -0.0070972969 0.51000005
-0.2305925 -0.0070972969 0.51000005
-0.22926584 -0.0070972969 0.51000005
-0.22793919 -0.0070972969 0.51000005
-0.22661252 -0.0070972969 0.51000005
-0.22528586 -0.0070972969 0.51000005
-0.22395918 -0.0070972969 0.51000005
-0.22263253 -0.0070972969 0.51000005
-0.22173978 -0.0071112132 0.51100004
-0.22041053 -0.0071112132 0.51100004
-0.21908127 -0.0071112132 0.51100004
-0.21775199 -0.0071112132 0.51100004
-0.21642272 -0.0071112132 0.51100004
-0.21509346 -0.0071112132 0.51100004
-0.21376421 -0.0071112132 0.51100004
-0.21243493 -0.0071112132 0.51100004
-0.21110566 -0.0071112132 0.51100004
-0.2097764 -0.0071112132 0.51100004
-0.20844714 -0.0071112132 0.51100004
-0.20711787 -0.0071112132 0.51100004
-0.2057886 -0.0071112132 0.51100004
-0.20445934 -0.0071112132 0.51100004
-0.20352758 -0.007125129 0.51200002
-0.20219572 -0.007125129 0.51200002
-0.20086385 -0.007125129 0.51200002
-0.19953197 -0.007125129 0.51200002
-0.19820011 -0.007125129 0.51200002
-0.19686826 -0.007125129 0.51200002
-0.19553639 -0.007125129 0.51200002
-0.19420452 -0.007125129 0.51200002
-0.19287264 -0.007125129 0.51200002
-0.19154078 -0.007125129 0.51200002
-0.18983743 -0.0071112132 0.51100004
-0.18850815 -0.0071112132 0.51100004
-0.18717889 -0.0071112132 0.51100004
-0.18584962 -0.0071112132 0.51100004
-0.18452035 -0.0071112132 0.51100004
-0.18319109 -0.0071112132 0.51100004
-0.18186183 -0.0071112132 0.51100004
-0.18017927 -0.0070972969 0.51000005
-0.17920329 -0.0071112132 0.51100004
-0.17787403 -0.0071112132 0.51100004
-0.17654477 -0.0071112132 0.51100004
-0.17521551 -0.0071112132 0.51100004
-0.17388622 -0.0071112132 0.51100004
-0.17289464 -0.007125129 0.51200002
-0.17156278 -0.007125129 0.51200002
-0.17023093 -0.007125129 0.51200002
-0.16889906 -0.007125129 0.51200002
-0.16789445 -0.0071390453 0.51300001
-0.16655999 -0.0071390453 0.51300001
-0.16522552 -0.0071390453 0.51300001
-0.16389106 -0.0071390453 0.51300001
-0.16255659 -0.0071390453 0.51300001
-0.16122212 -0.0071390453 0.51300001
-0.15988764 -0.0071390453 0.51300001
-0.15855318 -0.0071390453 0.51300001
-0.15721872 -0.0071390453 0.51300001
-0.15588424 -0.0071390453 0.51300001
-0.15454978 -0.0071390453 0.51300001
-0.1532153 -0.0071390453 0.51300001
-0.15188085 -0.0071390453 0.51300001
-0.15054639 -0.0071390453 0.51300001
-0.1492119 -0.0071390453 0.51300001
-0.14787744 -0.0071390453 0.51300001
-0.14654297 -0.0071390453 0.51300001
-0.14549156 -0.0071529611 0.514
-0.14415449 -0.0071529611 0.514
-0.14281741 -0.0071529611 0.514
-0.14148034 -0.0071529611 0.514
-0.14014328 -0.0071529611 0.514
-0.13880621 -0.0071529611 0.514
-0.13746914 -0.0071529611 0.514
-0.13613206 -0.0071529611 0.514
-0.134795 -0.0071529611 0.514
-0.13345793 -0.0071529611 0.514
-0.13212086 -0.0071529611 0.514
-0.13078378 -0.0071529611 0.514
-0.12969857 -0.0071668783 0.51500005
-0.12835892 -0.0071668783 0.51500005
-0.12701924 -0.0071668783 0.51500005
-0.12567957 -0.0071668783 0.51500005
-0.1243399 -0.0071668783 0.51500005
-0.12300023 -0.0071668783 0.51500005
-0.12166055 -0.0071668783 0.51500005
-0.12055452 -0.0071807941 0.51600003
-0.11898121 -0.0071668783 0.51500005
-0.11764155 -0.0071668783 0.51500005
-0.11630187 -0.0071668783 0.51500005
-0.11496221 -0.0071668783 0.51500005
-0.11362254 -0.0071668783 0.51500005
-0.11228286 -0.0071668783 0.51500005
-0.11094319 -0.0071668783 0.51500005
-0.10960352 -0.0071668783 0.51500005
-0.10826385 -0.0071668783 0.51500005
-0.10713179 -0.0071807941 0.51600003
-0.10578953 -0.0071807941 0.51600003
-0.10444725 -0.0071807941 0.51600003
-0.10310498 -0.0071807941 0.51600003
-0.10176271 -0.0071807941 0.51600003
-0.10042044 -0.0071807941 0.51600003
-0.099078164 -0.0071807941 0.51600003
-0.097735889 -0.0071807941 0.51600003
-0.096393622 -0.0071807941 0.51600003
-0.095051356 -0.0071807941 0.51600003
-0.093709074 -0.0071807941 0.51600003
-0.092366807 -0.0071807941 0.51600003
-0.091024533 -0.0071807941 0.51600003
-0.089682259 -0.0071807941 0.51600003
-0.088339992 -0.0071807941 0.51600003
-0.086997718 -0.0071807941 0.51600003
-0.085655451 -0.0071807941 0.51600003
-0.084313169 -0.0071807941 0.51600003
-0.083131701 -0.0071947104 0.51700002
-0.081786819 -0.0071947104 0.51700002
-0.080441952 -0.0071947104 0.51700002
-0.079097077 -0.0071947104 0.51700002
-0.077752203 -0.0071947104 0.51700002
-0.076555118 -0.0072086263 0.51800001
-0.075062454 -0.0071947104 0.51700002
-0.073717587 -0.0071947104 0.51700002
-0.072372705 -0.0071947104 0.51700002
-0.071165219 -0.0072086263 0.51800001
-0.069817752 -0.0072086263 0.51800001
-0.068338089 -0.0071947104 0.51700002
-0.067122802 -0.0072086263 0.51800001
-0.06577532 -0.0072086263 0.51800001
-0.064427853 -0.0072086263 0.51800001
-0.06308037 -0.0072086263 0.51800001
-0.061852079 -0.0072225435 0.51900005
-0.060502004 -0.0072225435 0.51900005
-0.059151933 -0.0072225435 0.51900005
-0.057913225 -0.0072364593 0.52000004
-0.056560546 -0.0072364593 0.52000004
-0.055207867 -0.0072364593 0.52000004
-0.053958759 -0.0072503756 0.52100003
-0.052603479 -0.0072503756 0.52100003
-0.051248204 -0.0072503756 0.52100003
-0.049892925 -0.0072503756 0.52100003
-0.048537645 -0.0072503756 0.52100003
-0.047091808 -0.0072364593 0.52000004
-0.045739129 -0.0072364593 0.52000004
-0.015919795 -0.0053855958 0.38700002
-0.014874556 -0.0053716791 0.38600001
-0.013798586 -0.0053438465 0.384
-0.012799686 -0.0053438465 0.384
-0.011770056 -0.0053299307 0.38300002
-0.010773757 -0.0053299307 0.38300002
-0.0097519299 -0.0053160144 0.38200003
-0.0087582329 -0.0053160144 0.38200003
-0.0077442084 -0.0053020981 0.38100001
-0.0067353882 -0.0052881818 0.38000003
-0.0057166461 -0.0052603493 0.37800002
-0.0047208318 -0.005246433 0.377
-0.0037302203 -0.0052325167 0.37600002
-0.0027448111 -0.0052186004 0.37500003
-0.0017646046 -0.0052046841 0.37400001
-0.00078960077 -0.0051907678 0.37300003
0.0001802005 -0.0051768515 0.37200001
0.0011447992 -0.0051629352 0.37100002
0.0021041951 -0.005149019 0.37
0.0030666767 -0.005149019 0.37
0.004018269 -0.0051351027 0.36900002
0.0049781497 -0.0051351027 0.36900002
0.0059380303 -0.0051351027 0.36900002
0.0068979105 -0.0051351027 0.36900002
0.0078790849 -0.005149019 0.37
0.0088415677 -0.005149019 0.37
0.0098040486 -0.005149019 0.37
0.010766531 -0.005149019 0.37
0.011760714 -0.0051629352 0.37100002
0.012725797 -0.0051629352 0.37100002
0.013690879 -0.0051629352 0.37100002
0.014655963 -0.0051629352 0.37100002
0.01557894 -0.005149019 0.37
0.016541421 -0.005149019 0.37
0.017503902 -0.005149019 0.37
0.018466385 -0.005149019 0.37
0.025158511 -0.0053438465 0.384
0.026225531 -0.0053577633 0.38500002
0.027297752 -0.0053716791 0.38600001
0.028375177 -0.0053855958 0.38700002
0.029381881 -0.0053855958 0.38700002
0.030467108 -0.0053995117 0.38800001
0.031557538 -0.0054134284 0.38900003
0.032653168 -0.0054273442 0.39000002
0.033667676 -0.0054273442 0.39000002
0.034771115 -0.005441261 0.39100003
0.035788227 -0.005441261 0.39100003
0.036899466 -0.0054551768 0.39200002
0.037919171 -0.0054551768 0.39200002
0.038938884 -0.0054551768 0.39200002
0.040060528 -0.0054690931 0.39300001
0.04118738 -0.0054830094 0.39400002
0.042212293 -0.0054830094 0.39400002
0.043346945 -0.0054969257 0.39500001
0.044374458 -0.0054969257 0.39500001
0.045401972 -0.0054969257 0.39500001
0.046429485 -0.0054969257 0.39500001
0.047456998 -0.0054969257 0.39500001
0.048484515 -0.0054969257 0.39500001
0.049512025 -0.0054969257 0.39500001
0.050539546 -0.0054969257 0.39500001
0.075366914 -0.0073060407 0.52500004
0.076586448 -0.0072921244 0.52400005
0.077949524 -0.0072921244 0.52400005
0.079312608 -0.0072921244 0.52400005
0.080521725 -0.0072782077 0.523
0.081882201 -0.0072782077 0.523
0.083242685 -0.0072782077 0.523
0.084603161 -0.0072782077 0.523
0.085963652 -0.0072782077 0.523
0.087324128 -0.0072782077 0.523
0.088515043 -0.0072642914 0.52200001
0.089872919 -0.0072642914 0.52200001
0.091230795 -0.0072642914 0.52200001
0.092588678 -0.0072642914 0.52200001
0.093946561 -0.0072642914 0.52200001
0.095304444 -0.0072642914 0.52200001
0.09666232 -0.0072642914 0.52200001
0.098020196 -0.0072642914 0.52200001
0.099378079 -0.0072642914 0.52200001
0.10092893 -0.0072782077 0.523
0.10228942 -0.0072782077 0.523
0.1036499 -0.0072782077 0.523
0.10501038 -0.0072782077 0.523
0.10637086 -0.0072782077 0.523
0.10773133 -0.0072782077 0.523
0.10909183 -0.0072782077 0.523
0.1106635 -0.0072921244 0.52400005
0.11202659 -0.0072921244 0.52400005
0.11338966 -0.0072921244 0.52400005
0.11475275 -0.0072921244 0.52400005
0.11611583 -0.0072921244 0.52400005
0.11747891 -0.0072921244 0.52400005
0.118842 -0.0072921244 0.52400005
0.12020507 -0.0072921244 0.52400005
0.12156817 -0.0072921244 0.52400005
0.12293124 -0.0072921244 0.52400005
0.12429433 -0.0072921244 0.52400005
0.12565741 -0.0072921244 0.52400005
0.12702049 -0.0072921244 0.52400005
0.12813856 -0.0072782077 0.523
0.12949903 -0.0072782077 0.523
0.13085951 -0.0072782077 0.523
0.13221999 -0.0072782077 0.523
