# .PCD v0.7 - Point Cloud Data file format
VERSION 0.7
FIELDS x y z
SIZE 4 4 4
TYPE F F F
COUNT 1 1 1
WIDTH 1
HEIGHT 115
VIEWPOINT 0 0 0 1 0 0 0
POINTS 115
DATA ascii
-0.061264999 -0.08343526 0.40840316
-0.055460319 -0.081407644 0.40739495
-0.049237132 -0.080220237 0.40610993
-0.051377151 -0.079415031 0.40865687
-0.044402041 -0.075074799 0.40728113
-0.038232006 -0.070879586 0.40636334
-0.040323913 -0.069785774 0.40938702
-0.033689063 -0.068522193 0.4080762
-0.027340055 -0.050657079 0.40908694
-0.028260592 -0.044923838 0.40898255
-0.024979278 -0.037556782 0.40987498
-0.063437827 -0.083085187 0.41561425
-0.058843397 -0.080859438 0.41203907
-0.06040886 -0.079917796 0.41640204
-0.054550614 -0.078484967 0.41494903
-0.045154475 -0.073811382 0.41468817
-0.040387213 -0.069857158 0.41484958
-0.034909271 -0.066715874 0.4150852
-0.027304556 -0.062603608 0.41452986
-0.030052602 -0.050249636 0.41869372
-0.027789608 -0.055124067 0.41547233
-0.030404991 -0.044211343 0.41617349
-0.029509293 -0.045146823 0.41326621
-0.031354446 -0.034906037 0.41636071
-0.028110445 -0.035366267 0.41206795
-0.032408461 -0.028297935 0.41781631
-0.071658269 -0.084144063 0.42774662
-0.065580986 -0.082716629 0.42453626
-0.057992399 -0.080691546 0.42682543
-0.053976517 -0.078637235 0.42411917
-0.044979472 -0.074185915 0.42487669
-0.04054749 -0.069802076 0.4238047
-0.034982901 -0.064727545 0.42476195
-0.030816101 -0.055402167 0.42557633
-0.029721029 -0.054974131 0.42123267
-0.030361546 -0.045961011 0.4238548
-0.029653093 -0.044874709 0.42761192
-0.03185029 -0.034625541 0.42478794
-0.034258548 -0.026697714 0.42499799
-0.072524853 -0.083741114 0.43094847
-0.065015092 -0.083106823 0.43475574
-0.055469792 -0.081564851 0.43510526
-0.048971832 -0.080202848 0.43866313
-0.051313829 -0.079719275 0.43213162
-0.044423893 -0.076446146 0.43444479
-0.038720064 -0.071744017 0.43639594
-0.03452161 -0.065278523 0.43457478
-0.030807246 -0.055865463 0.43340775
-0.029368268 -0.053556472 0.43721831
-0.028258776 -0.04518589 0.43478754
-0.031993002 -0.032704607 0.43380359
-0.029216286 -0.037997231 0.43528578
-0.035923973 -0.026626203 0.43486452
-0.062743127 -0.084684148 0.44419941
-0.054725505 -0.083150975 0.44494984
-0.046957977 -0.081033073 0.44619915
-0.042789634 -0.07818684 0.44394749
-0.036834933 -0.073448122 0.44537717
-0.03189756 -0.066325739 0.44383407
-0.02891285 -0.06227972 0.44641501
-0.02738229 -0.054911185 0.44497913
-0.025609193 -0.045937046 0.44487336
-0.032560181 -0.031838764 0.44196415
-0.028536221 -0.037910953 0.44478184
-0.040738255 -0.024614811 0.44121993
-0.035669196 -0.028295219 0.44331467
-0.05511478 -0.086402558 0.45442411
-0.045394592 -0.082912333 0.45601141
-0.041659355 -0.079214692 0.45271593
-0.035203055 -0.075284101 0.45498413
-0.029684559 -0.070861906 0.45666829
-0.030722797 -0.069139719 0.45121962
-0.027204083 -0.064882614 0.45537272
-0.024460999 -0.055126581 0.4553144
-0.024048932 -0.045423001 0.45486715
-0.02809009 -0.036998812 0.45501429
-0.054081343 -0.091138676 0.46507633
-0.047780026 -0.090602659 0.46903765
-0.050739408 -0.087954313 0.46120512
-0.043799147 -0.085553713 0.46458784
-0.038982451 -0.081894435 0.46681684
-0.034022588 -0.076416686 0.46462703
-0.029141605 -0.071386024 0.46464449
-0.026262974 -0.064831987 0.46480083
-0.022940347 -0.055454399 0.4650436
-0.022025827 -0.045923989 0.46510214
-0.024283856 -0.039375842 0.46393904
-0.044101916 -0.091740251 0.47627193
-0.041157771 -0.088414535 0.47272697
-0.03721175 -0.084267318 0.47558737
-0.032330986 -0.0764217 0.47474125
-0.02913191 -0.071718186 0.47574931
-0.02591086 -0.065498635 0.47504941
-0.021484423 -0.055725899 0.47468865
-0.019644639 -0.05161773 0.47610167
-0.020534493 -0.044703413 0.47137785
-0.019398702 -0.047277234 0.47647056
-0.043230493 -0.092502341 0.48185244
-0.039440855 -0.090779811 0.48628998
-0.03626268 -0.084760293 0.48526704
-0.032826722 -0.076288491 0.48572344
-0.028757745 -0.071375765 0.48501346
-0.025806222 -0.064548053 0.48541769
-0.022380855 -0.055595886 0.48512608
-0.01989913 -0.051168472 0.48145524
-0.021070868 -0.04947415 0.48758164
-0.019794032 -0.048795268 0.48162037
-0.049969196 -0.10787648 0.49252427
-0.038543742 -0.08377526 0.49114785
-0.040488124 -0.078667171 0.49357522
-0.03558328 -0.074307971 0.49258763
-0.029694334 -0.070062734 0.49086821
-0.031285927 -0.066293605 0.49453688
-0.028589189 -0.064159229 0.49155056
-0.027121115 -0.057741772 0.49110687
