# .PCD v0.7 - Point Cloud Data file format
VERSION 0.7
FIELDS x y z
SIZE 4 4 4
TYPE F F F
COUNT 1 1 1
WIDTH 1330
HEIGHT 1
VIEWPOINT 0 0 0 1 0 0 0
POINTS 1330
DATA ascii
-0.057315759 -0.126362 0.40302527
-0.056544632 -0.12698892 0.4050253
-0.055763073 -0.12761585 0.40702531
-0.054971091 -0.12824279 0.40902534
-0.054168679 -0.12886973 0.41102538
-0.053485166 -0.12981023 0.4140254
-0.052786011 -0.1307507 0.41702542
-0.05219534 -0.13200475 0.4210254
-0.051583804 -0.13325879 0.42502537
-0.051070314 -0.13482636 0.43002534
-0.05007882 -0.13827507 0.44102529
-0.049706675 -0.14046976 0.44802523
-0.048535291 -0.14391844 0.45902517
-0.04694723 -0.14642644 0.46702516
-0.046023872 -0.1473669 0.47002518
-0.045084868 -0.14830734 0.4730252
-0.14020789 -0.099829108 0.32102075
-0.13893664 -0.099517979 0.32002088
-0.13810238 -0.099517837 0.32002094
-0.13726813 -0.099517696 0.320021
-0.13600734 -0.099206552 0.31902108
-0.13517568 -0.09920641 0.31902114
-0.13434404 -0.099206276 0.3190212
-0.13309366 -0.098895147 0.3180213
-0.1322646 -0.098895006 0.31802136
-0.13143556 -0.098894872 0.31802142
-0.1301956 -0.098583736 0.31702149
-0.12936917 -0.098583594 0.31702155
-0.12813705 -0.098272465 0.31602165
-0.12731323 -0.098272324 0.31602171
-0.1264894 -0.098272189 0.31602177
-0.12566556 -0.098272055 0.31602183
-0.12444648 -0.097960919 0.31502193
-0.12362526 -0.097960785 0.31502199
-0.12280404 -0.097960651 0.31502205
-0.12198281 -0.097960509 0.31502211
-0.12116159 -0.097960375 0.31502214
-0.12034035 -0.097960234 0.3150222
-0.11913952 -0.097649112 0.3140223
-0.1183209 -0.097648971 0.31402233
-0.11750229 -0.097648837 0.31402239
-0.11668366 -0.097648703 0.31402245
-0.11549588 -0.097337581 0.31302255
-0.11467986 -0.097337447 0.31302261
-0.11386386 -0.097337313 0.31302267
-0.11268646 -0.097026177 0.31202272
-0.11187307 -0.097026043 0.31202278
-0.11105966 -0.097025909 0.31202284
-0.11024626 -0.097025774 0.31202289
-0.10908192 -0.096714653 0.311023
-0.10827112 -0.096714512 0.31102306
-0.10746033 -0.096714377 0.31102309
-0.10664953 -0.096714243 0.31102315
-0.10583874 -0.096714109 0.31102321
-0.10502794 -0.096713975 0.31102327
-0.10421715 -0.096713841 0.31102332
-0.10307366 -0.09640272 0.3100234
-0.10226548 -0.096402586 0.31002346
-0.10145728 -0.096402451 0.31002352
-0.1006491 -0.096402317 0.31002355
-0.099518649 -0.096091203 0.30902365
-0.098713078 -0.096091069 0.30902371
-0.097907484 -0.096090935 0.30902377
-0.096787475 -0.095779821 0.30802387
-0.095984504 -0.095779687 0.30802393
-0.095181525 -0.095779553 0.30802399
-0.094378553 -0.095779419 0.30802402
-0.093271554 -0.095468313 0.30702409
-0.09247119 -0.095468178 0.30702415
-0.091670819 -0.095468044 0.30702421
-0.090870455 -0.09546791 0.30702427
-0.090070084 -0.095467776 0.30702433
-0.08926972 -0.095467642 0.30702439
-0.088469349 -0.095467508 0.30702442
-0.087668985 -0.095467381 0.30702448
-0.086868607 -0.095467247 0.30702454
-0.086068235 -0.095467113 0.3070246
-0.085267872 -0.095466979 0.30702466
-0.0844675 -0.095466845 0.30702469
-0.083667137 -0.095466711 0.30702475
-0.082866766 -0.095466577 0.30702481
-0.082333907 -0.095777407 0.30802485
-0.081530929 -0.095777273 0.30802491
-0.080727957 -0.095777139 0.30802497
-0.073166065 -0.10572555 0.34002507
-0.072492421 -0.10603637 0.34102511
-0.071813561 -0.10634719 0.34202513
-0.071337029 -0.10696895 0.34402514
-0.070645139 -0.10727978 0.34502518
-0.069948025 -0.10759058 0.3460252
-0.069445431 -0.10821236 0.34802523
-0.068932399 -0.10883412 0.35002524
-0.068408951 -0.10945589 0.35202524
-0.06768316 -0.10976669 0.35302526
-0.067141458 -0.11038846 0.35502529
-0.066589318 -0.11101022 0.3570253
-0.066210844 -0.11194294 0.36002529
-0.065816715 -0.11287566 0.36302525
-0.065406948 -0.11380837 0.36602527
-0.065334067 -0.11536299 0.3710252
-0.06506145 -0.11660666 0.37502518
-0.064767972 -0.11785031 0.37902513
-0.064285219 -0.11878302 0.38202512
-0.064118475 -0.12033763 0.38702509
-0.063435979 -0.12095937 0.38902509
-0.06274306 -0.12158111 0.39102513
-0.062039714 -0.12220284 0.39302513
-0.061325949 -0.12282458 0.39502513
-0.060448956 -0.12313537 0.39602521
-0.059566744 -0.12344614 0.39702523
-0.05867932 -0.12375692 0.3980253
-0.057931654 -0.12437864 0.40002531
-0.057031203 -0.12468943 0.40102535
-0.056405045 -0.12562211 0.40402538
-0.055626098 -0.12624383 0.40602538
-0.054836728 -0.12686555 0.40802541
-0.054036919 -0.12748727 0.41002545
-0.053356014 -0.12841994 0.41302547
-0.052659471 -0.1293526 0.41602546
-0.051947288 -0.13028528 0.41902548
-0.051462483 -0.13183981 0.42402545
-0.0509516 -0.13339438 0.42902541
-0.050414652 -0.13494894 0.43402538
-0.04985163 -0.13650346 0.43902537
-0.049484704 -0.13867989 0.44602531
-0.048864335 -0.14023443 0.45102531
-0.047648627 -0.14365442 0.46202523
-0.046746124 -0.14458705 0.46502528
-0.045827981 -0.14551967 0.46802527
-0.044894196 -0.14645232 0.47102529
-0.043944765 -0.14738493 0.47402534
-0.14020802 -0.098992243 0.32102081
-0.13937114 -0.098992102 0.32102087
-0.13810253 -0.098683588 0.32002097
-0.13726828 -0.098683447 0.32002103
-0.13643402 -0.098683313 0.32002109
-0.13517581 -0.098374769 0.31902117
-0.13434418 -0.098374635 0.31902122
-0.1330938 -0.098066106 0.31802133
-0.13226475 -0.098065965 0.31802139
-0.13143571 -0.098065831 0.31802145
-0.13019574 -0.097757302 0.31702152
-0.1293693 -0.097757161 0.31702158
-0.12854287 -0.097757027 0.31702164
-0.12731336 -0.097448498 0.31602174
-0.12648953 -0.097448364 0.3160218
-0.12566569 -0.09744823 0.31602186
-0.12484187 -0.097448088 0.31602192
-0.12362541 -0.097139567 0.31502202
-0.12280418 -0.097139433 0.31502208
-0.12198295 -0.097139291 0.31502214
-0.12116173 -0.097139157 0.3150222
-0.1203405 -0.097139016 0.31502226
-0.11951928 -0.097138882 0.31502229
-0.11832104 -0.096830361 0.31402239
-0.11750243 -0.096830226 0.31402242
-0.1166838 -0.096830092 0.31402248
-0.11586519 -0.096829951 0.31402254
-0.11468 -0.096521437 0.31302264
-0.113864 -0.096521303 0.3130227
-0.11304798 -0.096521161 0.31302276
-0.1118732 -0.09621264 0.31202281
-0.11105979 -0.096212506 0.31202286
-0.1102464 -0.096212372 0.31202292
-0.10943299 -0.096212231 0.31202298
-0.10827126 -0.095903717 0.31102309
-0.10746047 -0.095903583 0.31102315
-0.10664967 -0.095903449 0.31102318
-0.10583887 -0.095903315 0.31102324
-0.10502807 -0.095903181 0.31102329
-0.10421728 -0.095903046 0.31102335
-0.10307379 -0.095594533 0.31002343
-0.10226561 -0.095594399 0.31002349
-0.10145742 -0.095594265 0.31002355
-0.10064923 -0.09559413 0.31002358
-0.099518783 -0.095285624 0.30902368
-0.098713212 -0.09528549 0.30902374
-0.097907618 -0.095285356 0.3090238
-0.097102031 -0.095285222 0.30902386
-0.095984638 -0.094976723 0.30802396
-0.095181659 -0.094976589 0.30802402
-0.094378687 -0.094976455 0.30802408
-0.093575701 -0.094976321 0.30802411
-0.092471324 -0.094667815 0.30702418
-0.091670953 -0.094667681 0.30702424
-0.090870589 -0.094667546 0.3070243
-0.090070218 -0.094667412 0.30702436
-0.089269854 -0.094667278 0.30702442
-0.088469483 -0.094667144 0.30702448
-0.087669119 -0.094667017 0.30702451
-0.086868741 -0.094666883 0.30702457
-0.086068369 -0.094666749 0.30702463
-0.085268006 -0.094666615 0.30702469
-0.084467635 -0.094666481 0.30702475
-0.083667271 -0.094666347 0.30702478
-0.0828669 -0.094666213 0.30702484
-0.082334042 -0.094974443 0.30802488
-0.081531063 -0.094974309 0.30802494
-0.080728091 -0.094974175 0.308025
-0.080184795 -0.095282398 0.30902499
-0.079379216 -0.095282264 0.30902505
-0.078573629 -0.09528213 0.30902511
-0.07801991 -0.09559036 0.31002513
-0.077460974 -0.095898584 0.31102517
-0.07665018 -0.095898449 0.31102523
-0.076083422 -0.096206672 0.31202522
-0.073836111 -0.10329767 0.33502513
-0.073398694 -0.10391423 0.33702514
-0.072735481 -0.10422245 0.33802518
-0.072279811 -0.104839 0.34002516
-0.071603559 -0.10514722 0.3410252
-0.070922092 -0.10545543 0.34202522
-0.070440352 -0.10607199 0.34402522
-0.069745854 -0.1063802 0.3450253
-0.06924586 -0.10699674 0.34702528
-0.068735443 -0.1076133 0.34902528
-0.068214588 -0.10822985 0.35102528
-0.067491412 -0.10853805 0.35202536
-0.066952311 -0.1091546 0.35402533
-0.066402793 -0.10977115 0.35602534
-0.066026926 -0.11069605 0.35902536
-0.065635398 -0.11162095 0.36202532
-0.065228246 -0.11254583 0.36502531
-0.064981699 -0.11377908 0.36902529
-0.064714305 -0.11501232 0.37302527
-0.06442605 -0.11624555 0.37702522
-0.06411694 -0.11747878 0.3810252
-0.063786976 -0.118712 0.38502517
-0.063272916 -0.11963688 0.38802513
-0.062743232 -0.12056176 0.39102516
-0.062039886 -0.12117827 0.39302516
-0.06132612 -0.12179479 0.39502519
-0.060449127 -0.12210298 0.39602524
-0.059566919 -0.12241114 0.39702529
-0.058679495 -0.12271932 0.39802536
-0.057786856 -0.12302748 0.39902538
-0.057031378 -0.123644 0.40102541
-0.056265462 -0.12426051 0.40302545
-0.055489123 -0.12487703 0.40502548
-0.054702353 -0.12549353 0.40702549
-0.053905156 -0.12611005 0.40902552
-0.053226862 -0.12703489 0.41202554
-0.052532926 -0.12795973 0.41502553
-0.051823352 -0.12888457 0.41802552
-0.051219638 -0.13011776 0.42202553
-0.050713979 -0.13165927 0.4270255
-0.050065953 -0.13289244 0.43102551
-0.049624443 -0.13474229 0.43702543
-0.049151652 -0.13659212 0.44302544
-0.048539098 -0.13813363 0.44802541
-0.048006348 -0.13998346 0.45402536
-0.047235787 -0.14121662 0.45802537
-0.046545018 -0.1427581 0.46302536
-0.04563209 -0.1436829 0.46602538
-0.044798963 -0.14491606 0.47002539
-0.043852136 -0.14584085 0.47302541
-0.042709228 -0.14614898 0.47402549
-0.13810267 -0.097849317 0.320021
-0.13726841 -0.097849175 0.32002106
-0.13643415 -0.097849041 0.32002112
-0.13517594 -0.097543105 0.3190212
-0.13434431 -0.097542971 0.31902125
-0.13351265 -0.09754283 0.31902131
-0.13226488 -0.097236909 0.31802142
-0.13143584 -0.097236775 0.31802148
-0.13060679 -0.097236633 0.31802154
-0.12936944 -0.096930712 0.31702161
-0.128543 -0.096930578 0.31702167
-0.12771657 -0.096930444 0.31702173
-0.12648968 -0.096624523 0.31602183
-0.12566584 -0.096624389 0.31602189
-0.124842 -0.096624248 0.31602195
-0.12401818 -0.096624114 0.31602201
-0.12280431 -0.0963182 0.31502211
-0.12198309 -0.096318059 0.31502217
-0.12116186 -0.096317925 0.31502223
-0.12034063 -0.096317783 0.31502229
-0.11951941 -0.096317649 0.31502235
-0.11832117 -0.096011735 0.31402242
-0.11750256 -0.096011601 0.31402248
-0.11668394 -0.096011467 0.31402251
-0.11586533 -0.096011326 0.31402257
-0.1150467 -0.096011192 0.31402263
-0.11386413 -0.095705286 0.31302273
-0.11304811 -0.095705144 0.31302279
-0.11187334 -0.095399231 0.31202284
-0.11105993 -0.095399097 0.31202289
-0.11024654 -0.095398962 0.31202295
-0.10943313 -0.095398821 0.31202301
-0.10861972 -0.095398687 0.31202307
-0.10780632 -0.095398553 0.3120231
-0.1066498 -0.095092647 0.31102324
-0.10583901 -0.095092513 0.31102327
-0.1050282 -0.095092379 0.31102332
-0.10421742 -0.095092244 0.31102338
-0.10340662 -0.09509211 0.31102344
-0.10226575 -0.094786204 0.31002352
-0.10145755 -0.09478607 0.31002358
-0.10064936 -0.094785936 0.31002364
-0.09984117 -0.094785802 0.31002367
-0.098713346 -0.094479904 0.30902377
-0.097907752 -0.094479769 0.30902383
-0.097102165 -0.094479635 0.30902389
-0.096296594 -0.094479501 0.30902395
-0.095181793 -0.094173603 0.30802405
-0.094378822 -0.094173469 0.30802411
-0.093575835 -0.094173335 0.30802417
-0.092772864 -0.0941732 0.3080242
-0.091671087 -0.093867302 0.30702427
-0.090870723 -0.093867168 0.30702433
-0.090070352 -0.093867034 0.30702439
-0.089269988 -0.0938669 0.30702445
-0.088469617 -0.093866765 0.30702451
-0.087669253 -0.093866639 0.30702454
-0.086868875 -0.093866505 0.3070246
-0.086068504 -0.093866371 0.30702466
-0.08526814 -0.093866237 0.30702472
-0.084467769 -0.093866102 0.30702478
-0.083667405 -0.093865968 0.30702484
-0.083137147 -0.094171591 0.30802485
-0.08206667 -0.0938657 0.30702493
-0.081531197 -0.094171323 0.30802497
-0.080728225 -0.094171189 0.30802503
-0.079925247 -0.094171055 0.30802509
-0.07937935 -0.094476677 0.30902508
-0.078828231 -0.0947823 0.3100251
-0.078020044 -0.094782166 0.31002516
-0.077461109 -0.095087782 0.3110252
-0.076650314 -0.095087647 0.31102526
-0.076083563 -0.095393263 0.31202528
-0.075511605 -0.095698893 0.31302536
-0.074934416 -0.096004508 0.31402534
-0.074352026 -0.096310124 0.31502539
-0.074040063 -0.10150719 0.3320252
-0.072520263 -0.1030355 0.33702523
-0.071854442 -0.10334112 0.33802527
-0.071393549 -0.10395245 0.34002525
-0.070922241 -0.1045638 0.34202525
-0.070235565 -0.10486941 0.34302533
-0.069746003 -0.10548076 0.34502533
-0.069046281 -0.10578635 0.34602535
-0.06853848 -0.1063977 0.34802535
-0.068020232 -0.10700903 0.35002539
-0.067299657 -0.10731462 0.3510254
-0.066763178 -0.10792596 0.35302541
-0.066216253 -0.10853729 0.35502541
-0.065843001 -0.10945436 0.3580254
-0.065272614 -0.1100657 0.36002541
-0.064870663 -0.11098276 0.3630254
-0.064629339 -0.11220559 0.36702538
-0.064367168 -0.11342839 0.37102535
-0.064255171 -0.11495695 0.37602529
-0.063948661 -0.11617974 0.38002527
-0.063621305 -0.11740254 0.38402522
-0.063273087 -0.11862534 0.38802519
-0.062743396 -0.11954239 0.39102522
-0.062040053 -0.12015369 0.39302522
-0.061326291 -0.120765 0.39502522
-0.060449298 -0.12107057 0.3960253
-0.05956709 -0.12137613 0.39702532
-0.058679666 -0.12168171 0.39802539
-0.057787031 -0.12198726 0.39902544
-0.056889176 -0.12229282 0.40002546
-0.056125879 -0.12290412 0.40202549
-0.055352144 -0.12351543 0.40402552
-0.054567982 -0.12412672 0.40602556
-0.053773399 -0.12473801 0.40802559
-0.053097706 -0.12565504 0.41102558
-0.052406382 -0.12657207 0.4140256
-0.051699415 -0.12748908 0.41702563
-0.051098313 -0.12871183 0.4210256
-0.050476357 -0.12993458 0.42502558
-0.049949836 -0.13146305 0.43002555
-0.049397256 -0.13299152 0.43502554
-0.04892968 -0.13482572 0.44102553
-0.048213869 -0.13604847 0.4450255
-0.047688939 -0.13788266 0.45102549
-0.047029458 -0.13941112 0.45602545
-0.046243254 -0.14063382 0.46002543
-0.045436196 -0.14185655 0.46402547
-0.04460828 -0.14307928 0.46802548
-0.043666679 -0.14399625 0.4710255
-0.042619202 -0.1446075 0.47302553
-0.13643429 -0.097014777 0.32002115
-0.13517609 -0.096711449 0.31902122
-0.13434446 -0.096711315 0.31902128
-0.13351279 -0.096711174 0.31902134
-0.13226502 -0.096407861 0.31802145
-0.13143598 -0.096407726 0.31802151
-0.13060692 -0.096407585 0.31802157
-0.12977788 -0.096407451 0.31802163
-0.12854314 -0.096104138 0.3170217
-0.12771671 -0.096104003 0.31702176
-0.12689026 -0.096103862 0.31702182
-0.12566598 -0.095800556 0.31602192
-0.12484214 -0.095800415 0.31602198
-0.12401832 -0.095800281 0.31602204
-0.12280445 -0.095496975 0.31502214
-0.12198322 -0.095496833 0.3150222
-0.121162 -0.095496699 0.31502226
-0.12034076 -0.095496558 0.31502232
-0.11951955 -0.095496424 0.31502238
-0.11869831 -0.095496289 0.31502244
-0.1175027 -0.095192984 0.31402251
-0.11668407 -0.09519285 0.31402257
-0.11586546 -0.095192708 0.3140226
-0.11504684 -0.095192574 0.31402266
-0.11386427 -0.094889276 0.31302276
-0.11304825 -0.094889134 0.31302282
-0.11223225 -0.094889 0.31302288
-0.11106007 -0.094585694 0.31202292
-0.11024667 -0.09458556 0.31202298
-0.10943326 -0.094585419 0.31202304
-0.10861985 -0.094585285 0.3120231
-0.10780645 -0.09458515 0.31202316
-0.10699305 -0.094585016 0.31202319
-0.10583914 -0.094281718 0.31102332
-0.10502834 -0.094281584 0.31102335
-0.10421755 -0.09428145 0.31102341
-0.10340675 -0.094281316 0.31102347
-0.10259596 -0.094281182 0.31102353
-0.10145769 -0.093977876 0.31002361
-0.1006495 -0.093977742 0.31002367
-0.099841304 -0.093977608 0.31002373
-0.099033117 -0.093977474 0.31002375
-0.097907886 -0.093674183 0.30902386
-0.097102299 -0.093674049 0.30902392
-0.096296728 -0.093673915 0.30902398
-0.095491141 -0.093673781 0.30902404
-0.094378956 -0.09337049 0.30802414
-0.093575969 -0.093370356 0.3080242
-0.092772998 -0.093370222 0.30802426
-0.091970012 -0.093370087 0.30802429
-0.091167048 -0.093369953 0.30802435
-0.090070486 -0.093066663 0.30702442
-0.089270122 -0.093066528 0.30702448
-0.088469751 -0.093066394 0.30702454
-0.087669387 -0.093066268 0.3070246
-0.086869009 -0.093066134 0.30702463
-0.086068638 -0.093065999 0.30702469
-0.085268274 -0.093065865 0.30702475
-0.084467903 -0.093065731 0.30702481
-0.083667539 -0.093065597 0.30702487
-0.082867168 -0.093065463 0.30702493
-0.08233431 -0.093368478 0.30802494
-0.081531331 -0.093368344 0.308025
-0.08072836 -0.09336821 0.30802506
-0.080185063 -0.093671225 0.30902508
-0.079379484 -0.093671091 0.30902514
-0.078828365 -0.093974106 0.31002513
-0.078020178 -0.093973972 0.31002519
-0.077461243 -0.094276987 0.31102523
-0.076650448 -0.094276853 0.31102529
-0.076083697 -0.094579861 0.31202531
-0.075511739 -0.094882883 0.31302539
-0.07493455 -0.095185891 0.3140254
-0.07435216 -0.095488898 0.31502542
-0.073715687 -0.097913638 0.32302535
-0.07359384 -0.10003535 0.33002529
-0.073174663 -0.1006415 0.33202529
-0.07274507 -0.10124765 0.33402529
-0.072305046 -0.10185378 0.3360253
-0.071854591 -0.10245992 0.3380253
-0.071183555 -0.10276292 0.33902532
-0.070714846 -0.10336904 0.34102535
-0.070235714 -0.10397518 0.34302536
-0.069543816 -0.10427816 0.34402537
-0.069046438 -0.1048843 0.34602538
-0.068538629 -0.10549043 0.34802541
-0.067825876 -0.10579341 0.34902543
-0.067299813 -0.10639954 0.35102543
-0.066763327 -0.10700566 0.35302544
-0.066216409 -0.10761178 0.35502547
-0.065659061 -0.1082179 0.35702547
-0.065091297 -0.10882401 0.35902551
-0.064691961 -0.10973326 0.36202547
-0.064453237 -0.11094565 0.36602545
-0.064020015 -0.1118549 0.36902544
-0.063742198 -0.11306728 0.37302542
-0.063611954 -0.11458278 0.37802535
-0.063289814 -0.11579516 0.38202533
-0.062946804 -0.11700751 0.38602528
-0.062422331 -0.11791676 0.3890253
-0.06188222 -0.11882599 0.39202529
-0.061171059 -0.11943208 0.39402533
-0.06029667 -0.11973503 0.39502534
-0.059417076 -0.12003799 0.39602542
-0.058532257 -0.12034095 0.39702544
-0.057642233 -0.12064391 0.39802551
-0.056746986 -0.12094686 0.39902553
-0.055986293 -0.12155295 0.40102556
-0.055215169 -0.12215903 0.4030256
-0.054433614 -0.12276512 0.40502563
-0.053641632 -0.12337119 0.40702564
-0.05296855 -0.1242804 0.41002566
-0.052406561 -0.12549274 0.41402566
-0.051575474 -0.1260988 0.41602567
-0.050976984 -0.12731114 0.42002568
-0.050357636 -0.12852345 0.42402565
-0.04971743 -0.12973578 0.42802566
-0.048485536 -0.13246351 0.43702561
-0.047888633 -0.13397895 0.44202563
-0.047265656 -0.13549437 0.4470256
-0.046719864 -0.13731292 0.45302555
-0.045941487 -0.1385252 0.45702556
-0.045240298 -0.14004062 0.46202555
-0.044417601 -0.14125291 0.46602556
-0.04357405 -0.1424652 0.47002557
-0.042529184 -0.14307122 0.4720256
-0.041473888 -0.14367726 0.47402567
-0.13560016 -0.096180379 0.32002124
-0.13434459 -0.095879667 0.31902131
-0.13351293 -0.095879525 0.31902137
-0.13268127 -0.095879391 0.31902143
-0.13184962 -0.095879249 0.31902149
-0.13060705 -0.095578544 0.3180216
-0.12977801 -0.09557841 0.31802166
-0.12894897 -0.095578268 0.31802171
-0.12771685 -0.09527757 0.31702179
-0.12689041 -0.095277429 0.31702185
-0.12606397 -0.095277295 0.31702191
-0.12484228 -0.094976589 0.31602201
-0.12401845 -0.094976455 0.31602207
-0.12319462 -0.094976313 0.31602213
-0.12198336 -0.094675615 0.31502223
-0.12116214 -0.094675481 0.31502229
-0.12034091 -0.09467534 0.31502235
-0.11951969 -0.094675206 0.31502241
-0.11869846 -0.094675072 0.31502247
-0.11750283 -0.094374366 0.31402254
-0.11668421 -0.094374232 0.3140226
-0.1158656 -0.09437409 0.31402266
-0.11504697 -0.094373956 0.31402269
-0.1138644 -0.094073266 0.31302282
-0.11304838 -0.094073124 0.31302285
-0.11223238 -0.09407299 0.31302291
-0.11141636 -0.094072856 0.31302297
-0.11024681 -0.093772158 0.31202301
-0.1094334 -0.093772016 0.31202307
-0.10861999 -0.093771882 0.31202313
-0.10780659 -0.093771748 0.31202319
-0.10699318 -0.093771614 0.31202325
-0.10617978 -0.09377148 0.31202328
-0.10502848 -0.093470789 0.31102341
-0.10421769 -0.093470655 0.31102344
-0.10340689 -0.093470521 0.3110235
-0.1025961 -0.093470387 0.31102356
-0.10178529 -0.093470246 0.31102362
-0.10064963 -0.093169563 0.3100237
-0.099841438 -0.093169428 0.31002375
-0.099033251 -0.093169294 0.31002381
-0.098225057 -0.09316916 0.31002384
-0.097102433 -0.09286847 0.30902395
-0.096296862 -0.092868336 0.30902401
-0.095491275 -0.092868201 0.30902407
-0.094685696 -0.092868067 0.30902413
-0.093576103 -0.092567384 0.30802423
-0.092773132 -0.09256725 0.30802429
-0.091970146 -0.092567116 0.30802435
-0.091167182 -0.092566982 0.30802438
-0.090364195 -0.092566848 0.30802444
-0.089270249 -0.092266165 0.30702451
-0.088469878 -0.092266031 0.30702457
-0.087669514 -0.092265904 0.30702463
-0.086869135 -0.09226577 0.30702469
-0.086068764 -0.092265636 0.30702472
-0.085268401 -0.092265502 0.30702478
-0.084468029 -0.092265368 0.30702484
-0.083667666 -0.092265233 0.3070249
-0.083137415 -0.092565641 0.30802494
-0.082334444 -0.092565507 0.30802497
-0.081531465 -0.092565373 0.30802503
-0.080728494 -0.092565238 0.30802509
-0.080185197 -0.092865646 0.30902511
-0.079379618 -0.092865512 0.30902517
-0.078828499 -0.093165927 0.31002519
-0.078020312 -0.093165793 0.31002522
-0.077461384 -0.093466192 0.31102526
-0.07665059 -0.093466058 0.31102532
-0.076083831 -0.093766458 0.31202534
-0.075511873 -0.094066873 0.31302541
-0.074934684 -0.094367273 0.31402543
-0.074352302 -0.094667681 0.31502548
-0.073998295 -0.095268615 0.31702545
-0.073864885 -0.09617009 0.32002544
-0.073487431 -0.096771024 0.32202545
-0.073551133 -0.097973026 0.32602537
-0.073370799 -0.098874502 0.32902536
-0.07295423 -0.099475421 0.33102536
-0.072527237 -0.10007635 0.33302534
-0.072089821 -0.10067727 0.33502534
-0.071641974 -0.10127819 0.33702534
-0.071183704 -0.10187913 0.33902538
-0.070507444 -0.1021795 0.3400254
-0.070030928 -0.10278042 0.3420254
-0.069543965 -0.10338134 0.3440254
-0.068846859 -0.10368173 0.34502545
-0.068341658 -0.10428263 0.34702545
-0.067826033 -0.10488354 0.34902546
-0.067299962 -0.10548446 0.35102546
-0.066574194 -0.10578484 0.35202554
-0.066029869 -0.10638574 0.35402551
-0.065475136 -0.10698665 0.35602552
-0.064909972 -0.10758755 0.35802555
-0.064513251 -0.10848898 0.36102554
-0.064100884 -0.10939042 0.36402553
-0.06367287 -0.11029185 0.36702552
-0.063400269 -0.11149379 0.3710255
-0.063106798 -0.11269574 0.37502548
-0.062958315 -0.11419821 0.38002542
-0.062620528 -0.11540014 0.38402537
-0.062101267 -0.11630156 0.38702539
-0.061566368 -0.11720297 0.39002538
-0.060860418 -0.11780385 0.39202541
-0.060144048 -0.11840473 0.39402542
-0.059267052 -0.11870508 0.39502546
-0.058237262 -0.11870491 0.39502552
-0.057497423 -0.11930578 0.39702556
-0.056604791 -0.11960614 0.39802563
-0.055846699 -0.120207 0.40002564
-0.055078186 -0.12080786 0.40202564
-0.054299239 -0.12140874 0.40402567
-0.053509865 -0.12200961 0.40602571
-0.052968729 -0.12321151 0.41002572
-0.052280016 -0.1241129 0.41302571
-0.051575653 -0.12501426 0.4160257
-0.050855655 -0.12591565 0.41902575
-0.050238907 -0.12711754 0.42302573
-0.049601316 -0.12831943 0.42702571
-0.048942868 -0.12952133 0.43102571
-0.048374642 -0.13102372 0.43602568
-0.047671866 -0.1322256 0.44002572
-0.047054108 -0.133728 0.44502568
-0.046410274 -0.13523038 0.45002568
-0.045740373 -0.13673276 0.45502564
-0.045044404 -0.13823512 0.46002564
-0.044322364 -0.13973752 0.46502563
-0.043481417 -0.14093937 0.46902561
-0.042439159 -0.1415402 0.47102568
-0.041386474 -0.14214101 0.47302571
-0.040238343 -0.14244133 0.47402582
-0.13643457 -0.095346257 0.32002121
-0.1356003 -0.095346116 0.32002127
-0.13434473 -0.09504801 0.31902137
-0.13351306 -0.095047869 0.31902143
-0.1326814 -0.095047735 0.31902146
-0.13184975 -0.095047593 0.31902152
-0.1310181 -0.095047452 0.31902158
-0.12977816 -0.094749361 0.31802168
-0.12894912 -0.09474922 0.31802174
-0.12771699 -0.094451122 0.31702185
-0.12689054 -0.09445098 0.31702188
-0.12606411 -0.094450846 0.31702194
-0.12484241 -0.094152749 0.31602204
-0.12401859 -0.094152614 0.3160221
-0.12319475 -0.094152473 0.31602216
-0.12237093 -0.094152339 0.31602222
-0.12116227 -0.093854249 0.31502232
-0.12034104 -0.093854107 0.31502238
-0.11951982 -0.093853973 0.31502244
-0.11869859 -0.093853839 0.3150225
-0.11787737 -0.093853697 0.31502256
-0.11668435 -0.093555614 0.31402263
-0.11586574 -0.093555473 0.31402269
-0.11504711 -0.093555339 0.31402275
-0.11386453 -0.093257256 0.31302285
-0.11304852 -0.093257114 0.31302291
-0.11223251 -0.09325698 0.31302294
-0.1114165 -0.093256846 0.313023
-0.11024694 -0.092958748 0.31202304
-0.10943353 -0.092958607 0.3120231
-0.10862012 -0.092958473 0.31202316
-0.10780672 -0.092958339 0.31202322
-0.10699332 -0.092958204 0.31202328
-0.10617992 -0.09295807 0.31202334
-0.10536651 -0.092957929 0.31202337
-0.10421783 -0.092659853 0.3110235
-0.10340703 -0.092659719 0.31102353
-0.10259623 -0.092659585 0.31102359
-0.10178543 -0.092659444 0.31102365
-0.10097464 -0.09265931 0.31102371
-0.099841572 -0.092361234 0.31002378
-0.099033386 -0.0923611 0.31002384
-0.098225191 -0.092360966 0.3100239
-0.097102568 -0.092062883 0.30902401
-0.096296996 -0.092062749 0.30902404
-0.095491409 -0.092062615 0.3090241
-0.09468583 -0.092062481 0.30902416
-0.093576238 -0.091764405 0.30802426
-0.092773266 -0.091764271 0.30802432
-0.09197028 -0.091764137 0.30802438
-0.091167316 -0.091764003 0.30802441
-0.09036433 -0.091763869 0.30802447
-0.089561366 -0.091763735 0.30802453
-0.088758379 -0.091763601 0.30802459
-0.087669648 -0.091465533 0.30702466
-0.08686927 -0.091465399 0.30702472
-0.086068898 -0.091465265 0.30702478
-0.085268535 -0.09146513 0.30702481
-0.0847435 -0.09176293 0.30802485
-0.083940528 -0.091762796 0.30802491
-0.083137549 -0.091762662 0.30802497
-0.082334578 -0.091762528 0.30802503
-0.081531599 -0.091762394 0.30802506
-0.080990918 -0.092060193 0.30902508
-0.080185331 -0.092060059 0.30902514
-0.079379752 -0.092059925 0.3090252
-0.078828633 -0.092357732 0.31002522
-0.078020446 -0.092357598 0.31002527
-0.077212252 -0.092357464 0.3100253
-0.076650724 -0.092655256 0.31102535
-0.076083966 -0.092953049 0.31202537
-0.075512007 -0.093250863 0.31302544
-0.074934825 -0.093548656 0.31402546
-0.074352436 -0.093846448 0.31502551
-0.073998436 -0.094442166 0.31702548
-0.073634006 -0.095037892 0.31902549
-0.073487572 -0.095931545 0.32202548
-0.073325485 -0.096825197 0.32502544
-0.073147751 -0.097718835 0.3280254
-0.07273379 -0.098314546 0.3300254
-0.072309405 -0.098910265 0.33202541
-0.071874596 -0.099505976 0.33402541
-0.071429364 -0.10010169 0.33602545
-0.070973694 -0.1006974 0.33802545
-0.070507593 -0.10129309 0.34002542
-0.069826134 -0.10159088 0.34102547
-0.069341786 -0.10218658 0.34302548
-0.068847016 -0.10278229 0.34502551
-0.068144687 -0.10308006 0.34602553
-0.067631677 -0.10367576 0.34802553
-0.067108214 -0.10427146 0.35002553
-0.066574343 -0.10486715 0.35202557
-0.066030025 -0.10546283 0.35402554
-0.065475285 -0.10605853 0.35602558
-0.064910129 -0.10665421 0.35802558
-0.064334542 -0.10724991 0.36002561
-0.063924775 -0.10814351 0.36302558
-0.063499376 -0.10903712 0.3660256
-0.063058324 -0.10993072 0.36902559
-0.062770084 -0.11112224 0.37302557
-0.062626809 -0.11261167 0.3780255
-0.062131014 -0.11350527 0.38102549
-0.061619576 -0.11439886 0.38402548
-0.0610925 -0.11529245 0.38702551
-0.060549784 -0.11618603 0.3900255
-0.059838623 -0.1167817 0.3920255
-0.058966842 -0.11707944 0.39302555
-0.058089849 -0.1173772 0.39402559
-0.057352625 -0.11797285 0.39602563
-0.05646259 -0.11827059 0.39702567
-0.055707112 -0.11886625 0.39902571
-0.054941207 -0.11946191 0.40102574
-0.054164872 -0.12005757 0.40302578
-0.053510044 -0.12095113 0.40602577
-0.052839573 -0.12184469 0.40902576
-0.052153468 -0.12273826 0.41202578
-0.051575836 -0.12392972 0.41602576
-0.050855838 -0.12482329 0.41902578
-0.050239094 -0.12601475 0.42302576
-0.049601499 -0.12720621 0.42702577
-0.048829362 -0.12809975 0.43002576
-0.048152659 -0.12929121 0.43402576
-0.047455106 -0.13048266 0.4380258
-0.046736691 -0.13167411 0.44202581
-0.04610068 -0.13316345 0.44702578
-0.044750452 -0.13614215 0.45702574
-0.044036236 -0.13763149 0.46202573
-0.043295946 -0.13912083 0.4670257
-0.042349134 -0.14001435 0.47002575
-0.041211437 -0.14031206 0.47102579
-0.040153533 -0.14090766 0.47302586
-0.13726896 -0.094512135 0.32002121
-0.1364347 -0.094512001 0.32002127
-0.13476618 -0.094511718 0.32002136
-0.13393192 -0.094511583 0.32002142
-0.13268155 -0.094216086 0.31902152
-0.1318499 -0.094215944 0.31902155
-0.13101825 -0.094215803 0.31902161
-0.1301866 -0.094215669 0.31902167
-0.12894925 -0.093920179 0.31802177
-0.12812021 -0.093920045 0.31802183
-0.12689067 -0.093624547 0.31702194
-0.12606424 -0.093624413 0.31702197
-0.12523779 -0.093624271 0.31702203
-0.12401873 -0.093328789 0.31602216
-0.1231949 -0.093328647 0.31602219
-0.12237107 -0.093328513 0.31602225
-0.12154723 -0.093328372 0.31602231
-0.12034117 -0.093032889 0.31502241
-0.11951996 -0.093032755 0.31502247
-0.11869872 -0.093032621 0.31502253
-0.11787751 -0.093032479 0.31502259
-0.11668448 -0.092736997 0.31402266
-0.11586587 -0.092736855 0.31402272
-0.11504725 -0.092736721 0.31402278
-0.11422864 -0.092736587 0.31402284
-0.11304866 -0.092441104 0.31302294
-0.11223266 -0.09244097 0.313023
-0.11141664 -0.092440836 0.31302303
-0.11060063 -0.092440702 0.31302309
-0.10943367 -0.092145212 0.31202313
-0.10862026 -0.092145078 0.31202319
-0.10780685 -0.092144944 0.31202325
-0.10699345 -0.09214481 0.31202331
-0.10618005 -0.092144676 0.31202337
-0.10536664 -0.092144534 0.31202343
-0.10421796 -0.091849059 0.31102353
-0.10340716 -0.091848925 0.31102359
-0.10259636 -0.091848791 0.31102362
-0.10178556 -0.091848649 0.31102368
-0.10097478 -0.091848515 0.31102374
-0.10016397 -0.091848381 0.3110238
-0.09903352 -0.091552913 0.31002387
-0.098225325 -0.091552779 0.31002393
-0.097417131 -0.091552645 0.31002399
-0.09629713 -0.091257177 0.3090241
-0.095491543 -0.091257043 0.30902413
-0.094685964 -0.091256909 0.30902418
-0.093576372 -0.090961434 0.30802429
-0.0927734 -0.0909613 0.30802435
-0.091970414 -0.090961166 0.30802441
-0.09116745 -0.090961032 0.30802447
-0.090364464 -0.090960898 0.3080245
-0.0895615 -0.090960763 0.30802456
-0.088758513 -0.090960629 0.30802462
-0.087955542 -0.090960495 0.30802467
-0.087152563 -0.090960361 0.30802473
-0.086069033 -0.090664901 0.30702481
-0.085268669 -0.090664767 0.30702484
-0.084743634 -0.090959959 0.30802488
-0.083940662 -0.090959825 0.30802494
-0.083137684 -0.090959691 0.308025
-0.082334712 -0.090959556 0.30802506
-0.081531733 -0.090959422 0.30802512
-0.080728762 -0.090959288 0.30802515
-0.080185466 -0.091254488 0.30902517
-0.079379886 -0.091254354 0.30902523
-0.078828767 -0.091549546 0.31002524
-0.07802058 -0.091549411 0.3100253
-0.077212386 -0.091549277 0.31002536
-0.076650858 -0.091844462 0.31102538
-0.0760841 -0.092139654 0.3120254
-0.075512148 -0.092434853 0.31302547
-0.074934959 -0.092730038 0.31402549
-0.07435257 -0.09302523 0.31502554
-0.07399857 -0.093615733 0.31702551
-0.073634148 -0.094206244 0.31902552
-0.073259301 -0.094796747 0.32102552
-0.073099822 -0.095682576 0.32402548
-0.072924703 -0.096568406 0.32702547
-0.072513357 -0.097158909 0.32902548
-0.072091579 -0.097749405 0.33102548
-0.071659371 -0.098339893 0.33302549
-0.07121674 -0.098930396 0.33502549
-0.070973843 -0.099816218 0.33802548
-0.070300199 -0.10011139 0.3390255
-0.069826283 -0.10070188 0.3410255
-0.069341935 -0.10129237 0.34302554
-0.068847165 -0.10188285 0.34502554
-0.068144836 -0.10217802 0.34602556
-0.067631826 -0.1027685 0.34802556
-0.06710837 -0.10335899 0.35002559
-0.066574499 -0.10394947 0.3520256
-0.066030174 -0.10453994 0.3540256
-0.065291367 -0.10483511 0.35502565
-0.064728811 -0.10542558 0.35702565
-0.064155824 -0.10601605 0.35902569
-0.06374868 -0.10690184 0.36202565
-0.063152224 -0.10749232 0.36402568
-0.061092671 -0.11428352 0.38702554
-0.060239136 -0.11457866 0.38802558
-0.059533197 -0.11516912 0.39002559
-0.058666635 -0.11546426 0.39102566
-0.057942435 -0.1160547 0.39302567
-0.057207815 -0.11664516 0.39502567
-0.056320399 -0.11694029 0.39602575
-0.055567529 -0.11753074 0.39802578
-0.054804221 -0.11812117 0.40002578
-0.054030497 -0.11871161 0.40202582
-0.05337828 -0.11959736 0.40502584
-0.052710418 -0.1204831 0.40802583
-0.052153647 -0.12166416 0.41202584
-0.051451895 -0.12254989 0.41502583
-0.050734505 -0.12343562 0.41802585
-0.050120372 -0.12461666 0.42202583
-0.049485389 -0.1257977 0.42602584
-0.04871586 -0.12668343 0.42902586
-0.04793068 -0.12756915 0.43202585
-0.047238339 -0.12875016 0.43602586
-0.046525139 -0.1299312 0.4400259
-0.045791086 -0.13111222 0.4440259
-0.045136832 -0.13258852 0.44902587
-0.044456508 -0.13406484 0.45402586
-0.043845553 -0.13583644 0.46002582
-0.043110482 -0.13731275 0.46502581
-0.042168882 -0.13819844 0.46802583
-0.04112402 -0.13878885 0.4700259
-0.040068727 -0.13937923 0.47202593
-0.039003003 -0.13996963 0.47402599
-0.13643485 -0.093677737 0.3200213
-0.13560058 -0.093677595 0.32002136
-0.13476633 -0.093677454 0.32002142
-0.13393207 -0.09367732 0.32002145
-0.1330978 -0.093677178 0.32002151
-0.13185003 -0.093384288 0.31902161
-0.13101839 -0.093384147 0.31902167
-0.13018674 -0.093384013 0.3190217
-0.12935507 -0.093383871 0.31902176
-0.12812035 -0.093090989 0.31802189
-0.12729129 -0.093090847 0.31802192
-0.12606438 -0.092797972 0.31702203
-0.12523793 -0.092797831 0.31702209
-0.12401886 -0.092504956 0.31602219
-0.12319503 -0.092504814 0.31602225
-0.1223712 -0.09250468 0.31602228
-0.12154736 -0.092504539 0.31602234
-0.12034132 -0.092211656 0.31502244
-0.1195201 -0.092211522 0.3150225
-0.11869887 -0.092211388 0.31502256
-0.11787765 -0.092211246 0.31502262
-0.11705642 -0.092211112 0.31502268
-0.11586601 -0.091918238 0.31402275
-0.11504738 -0.091918103 0.31402281
-0.11422877 -0.091917969 0.31402287
-0.11304879 -0.091625087 0.31302297
-0.11223279 -0.091624953 0.31302303
-0.11141677 -0.091624819 0.31302309
-0.11060076 -0.091624685 0.31302312
-0.10978475 -0.091624543 0.31302318
-0.10862039 -0.091331668 0.31202322
-0.10780699 -0.091331534 0.31202328
-0.10699359 -0.0913314 0.31202334
-0.10618018 -0.091331266 0.3120234
-0.10536677 -0.091331124 0.31202346
-0.10455338 -0.09133099 0.31202352
-0.10373997 -0.091330856 0.31202355
-0.1025965 -0.091037989 0.31102368
-0.1017857 -0.091037847 0.31102371
-0.10097491 -0.091037713 0.31102377
-0.10016411 -0.091037579 0.31102383
-0.099353313 -0.091037445 0.31102389
-0.098225459 -0.090744585 0.31002396
-0.097417265 -0.090744451 0.31002402
-0.096297264 -0.090451591 0.30902413
-0.095491678 -0.090451457 0.30902418
-0.094686098 -0.090451322 0.30902421
-0.093880512 -0.090451188 0.30902427
-0.092773527 -0.090158321 0.30802438
-0.091970541 -0.090158187 0.30802444
-0.091167577 -0.090158053 0.3080245
-0.09036459 -0.090157919 0.30802456
-0.089561626 -0.090157785 0.30802459
-0.08875864 -0.09015765 0.30802464
-0.087955669 -0.090157516 0.3080247
-0.08715269 -0.090157382 0.30802476
-0.086349711 -0.090157248 0.30802482
-0.085546739 -0.090157114 0.30802488
-0.084743761 -0.09015698 0.30802491
-0.083940789 -0.090156846 0.30802497
-0.08313781 -0.090156712 0.30802503
-0.082334839 -0.090156578 0.30802509
-0.08153186 -0.090156443 0.30802515
-0.080991186 -0.090449035 0.30902514
-0.0801856 -0.090448901 0.3090252
-0.07938002 -0.090448767 0.30902526
-0.078574434 -0.090448633 0.30902532
-0.078020714 -0.090741217 0.31002533
-0.07721252 -0.090741083 0.31002539
-0.076650992 -0.09103366 0.31102544
-0.076084234 -0.091326244 0.31202543
-0.075270832 -0.09132611 0.31202549
-0.074935094 -0.09191142 0.31402552
-0.074352711 -0.092203997 0.31502557
-0.073998712 -0.092789292 0.31702554
-0.073634289 -0.093374588 0.31902555
-0.073259443 -0.093959875 0.32102555
-0.073099963 -0.094837882 0.32402551
-0.072701655 -0.095423177 0.32602552
-0.072292916 -0.096008465 0.32802552
-0.072091721 -0.096886463 0.33102554
-0.071659513 -0.097471736 0.33302552
-0.07100413 -0.097764313 0.33402556
-0.070763834 -0.098642305 0.33702552
-0.070092797 -0.098934874 0.33802557
-0.069621481 -0.099520147 0.34002557
-0.069139749 -0.10010543 0.34202558
-0.068647586 -0.1006907 0.34402558
-0.067947872 -0.10098326 0.34502563
-0.067631975 -0.10186124 0.34802562
-0.067108519 -0.10244651 0.35002562
-0.066574648 -0.10303178 0.35202563
-0.065843642 -0.10332433 0.35302567
-0.065291516 -0.10390959 0.35502568
-0.06472896 -0.10449485 0.35702571
-0.063977115 -0.1047874 0.35802573
-0.063572571 -0.10566537 0.36102575
-0.062978722 -0.10625063 0.36302572
-0.062545508 -0.10712859 0.36602575
-0.062096644 -0.10800655 0.36902574
-0.061797976 -0.10917722 0.37302572
-0.059773095 -0.112689 0.38502568
-0.058366418 -0.11385949 0.38902575
-0.057647441 -0.11444473 0.39102578
-0.056918029 -0.11502995 0.39302576
-0.056178197 -0.11561519 0.39502579
-0.055427935 -0.11620042 0.39702582
-0.054667242 -0.11678564 0.39902586
-0.053896125 -0.11737087 0.40102589
-0.053246513 -0.1182488 0.40402588
-0.052581258 -0.11912671 0.40702587
-0.052027091 -0.12029734 0.41102588
-0.051327959 -0.12117526 0.4140259
-0.050613172 -0.12205317 0.41702592
-0.050001651 -0.12322378 0.42102593
-0.049252976 -0.12410168 0.42402592
-0.048488658 -0.12497959 0.42702594
-0.047708698 -0.12585749 0.43002594
-0.047021568 -0.12702811 0.43402594
-0.046207715 -0.12790598 0.43702596
-0.044260606 -0.13229585 0.45202595
-0.043017849 -0.13580777 0.46402588
-0.041988626 -0.13639294 0.46602592
-0.04094898 -0.13697813 0.46802598
-0.039983917 -0.13785601 0.471026
-0.038920805 -0.13844118 0.47302604
-0.13686153 -0.093133613 0.32102129
-0.13602465 -0.093133472 0.32102135
-0.13476646 -0.092843205 0.32002145
-0.1339322 -0.092843071 0.32002151
-0.13309793 -0.092842929 0.32002157
-0.13226368 -0.092842788 0.3200216
-0.13142942 -0.092842653 0.32002166
-0.13018687 -0.092552364 0.31902176
-0.12935521 -0.092552222 0.31902179
-0.12852356 -0.092552088 0.31902185
-0.12729143 -0.092261806 0.31802198
-0.12646239 -0.092261665 0.31802201
-0.12523808 -0.091971397 0.31702211
-0.12441164 -0.091971263 0.31702217
-0.12319517 -0.091680981 0.31602228
-0.12237135 -0.091680847 0.31602234
-0.12154751 -0.091680706 0.31602237
-0.12072367 -0.091680571 0.31602243
-0.11952023 -0.091390304 0.31502256
-0.118699 -0.09139017 0.31502259
-0.11787778 -0.091390029 0.31502265
-0.11705656 -0.091389894 0.31502271
-0.11586615 -0.09109962 0.31402278
-0.11504752 -0.091099486 0.31402284
-0.11422891 -0.091099352 0.3140229
-0.11341029 -0.09109921 0.31402296
-0.11259168 -0.091099076 0.31402302
-0.11141691 -0.090808816 0.31302312
-0.1106009 -0.090808682 0.31302318
-0.10978489 -0.090808541 0.31302321
-0.10896887 -0.090808406 0.31302327
-0.10780713 -0.090518132 0.31202331
-0.10699373 -0.090517998 0.31202337
-0.10618033 -0.090517864 0.31202343
-0.10536692 -0.090517722 0.31202349
-0.10455352 -0.090517588 0.31202355
-0.10374011 -0.090517454 0.31202361
-0.10292671 -0.09051732 0.31202367
-0.10178583 -0.09022706 0.31102377
-0.10097504 -0.090226926 0.3110238
-0.10016424 -0.090226792 0.31102386
-0.099353448 -0.090226658 0.31102392
-0.098225594 -0.089936398 0.31002399
-0.097417399 -0.089936264 0.31002405
-0.096609212 -0.08993613 0.31002411
-0.095491812 -0.089645877 0.30902421
-0.094686233 -0.089645743 0.30902424
-0.093880646 -0.089645609 0.3090243
-0.093075059 -0.089645468 0.30902436
-0.091970675 -0.089355215 0.30802447
-0.091167711 -0.089355081 0.30802453
-0.090364724 -0.089354947 0.30802459
-0.08956176 -0.089354813 0.30802464
-0.088758774 -0.089354679 0.30802467
-0.087955803 -0.089354545 0.30802473
-0.087152824 -0.089354411 0.30802479
-0.086349845 -0.089354277 0.30802485
-0.085546874 -0.089354143 0.30802491
-0.084743895 -0.089354008 0.30802497
-0.083940923 -0.089353874 0.308025
-0.083137944 -0.08935374 0.30802506
-0.082334973 -0.089353606 0.30802512
-0.081531994 -0.089353472 0.30802518
-0.08099132 -0.089643456 0.3090252
-0.080185734 -0.089643322 0.30902523
-0.079380155 -0.089643188 0.30902529
-0.078574568 -0.089643054 0.30902535
-0.078020848 -0.08993303 0.31002536
-0.077212654 -0.089932896 0.31002542
-0.076651126 -0.090222873 0.31102547
-0.075840332 -0.090222739 0.31102553
-0.075270973 -0.090512708 0.31202552
-0.074696407 -0.090802692 0.31302559
-0.074352846 -0.091382779 0.3150256
-0.073765241 -0.091672741 0.31602561
-0.073403418 -0.092252821 0.31802562
-0.07303118 -0.092832915 0.32002562
-0.0728743 -0.093703099 0.32302558
-0.072478607 -0.094283171 0.32502559
-0.071873888 -0.095733419 0.33002558
-0.071444295 -0.096313499 0.33202559
-0.071004272 -0.096893564 0.33402559
-0.070553824 -0.097473629 0.3360256
-0.070092946 -0.098053694 0.33802563
-0.069416702 -0.098343648 0.33902565
-0.06893757 -0.098923706 0.34102565
-0.068448015 -0.09950377 0.34302565
-0.067948021 -0.10008384 0.34502569
-0.067437612 -0.10066388 0.34702566
-0.067108668 -0.10153405 0.35002565
-0.066574797 -0.1021141 0.35202569
-0.066030487 -0.10269414 0.35402566
-0.065291673 -0.10298409 0.35502571
-0.064729117 -0.10356414 0.35702574
-0.063977271 -0.10385408 0.35802576
-0.063396469 -0.10443413 0.36002579
-0.062805235 -0.10501417 0.3620258
-0.062374618 -0.10588431 0.36502579
-0.061759926 -0.10646436 0.36702582
-0.061466467 -0.10762458 0.3710258
-0.060335118 -0.10907476 0.3760258
-0.0598289 -0.10994488 0.37902579
-0.059307043 -0.11081501 0.38202581
-0.058769543 -0.11168513 0.3850258
-0.058066208 -0.11226515 0.38702583
-0.057352442 -0.11284517 0.38902587
-0.056628253 -0.1134252 0.39102587
-0.055893626 -0.11400521 0.39302588
-0.055148579 -0.11458523 0.39502591
-0.054530259 -0.11545534 0.39802593
-0.053761743 -0.11603535 0.40002593
-0.053114746 -0.11690546 0.40302595
-0.052452099 -0.11777556 0.40602598
-0.051773816 -0.11864565 0.40902597
-0.051204018 -0.11980585 0.41302598
-0.05049184 -0.12067594 0.41602597
-0.049882926 -0.12183612 0.42002597
-0.049136855 -0.1227062 0.42302597
-0.048261456 -0.1232862 0.425026
-0.047486715 -0.1241563 0.42802605
-0.046804801 -0.12531646 0.43202603
-0.046102036 -0.12647662 0.43602604
-0.042832375 -0.13401791 0.46202597
-0.041808371 -0.13459788 0.464026
-0.040773939 -0.13517785 0.46602607
-0.039814092 -0.1360479 0.46902609
-0.038756195 -0.13662788 0.47102612
-0.037767671 -0.13749792 0.47402617
-0.13686167 -0.092296742 0.32102132
-0.13602479 -0.0922966 0.32102138
-0.13518792 -0.092296466 0.32102144
-0.13435106 -0.092296325 0.32102147
-0.13309807 -0.092008658 0.3200216
-0.13226381 -0.092008516 0.32002166
-0.13142955 -0.092008382 0.32002172
-0.1305953 -0.092008241 0.32002175
-0.12935534 -0.091720566 0.31902185
-0.12852369 -0.091720432 0.31902191
-0.12729158 -0.091432758 0.31802201
-0.12646253 -0.091432616 0.31802207
-0.12523821 -0.091144949 0.31702214
-0.12441178 -0.091144815 0.3170222
-0.12358534 -0.091144674 0.31702226
-0.12237148 -0.090857014 0.31602237
-0.12154764 -0.090856872 0.31602243
-0.12072381 -0.090856738 0.31602249
-0.11989997 -0.090856604 0.31602252
-0.11869913 -0.090568937 0.31502265
-0.11787792 -0.090568796 0.31502268
-0.11705669 -0.090568662 0.31502274
-0.11623546 -0.090568528 0.3150228
-0.11504766 -0.090280868 0.31402287
-0.11422905 -0.090280734 0.31402293
-0.11341042 -0.090280592 0.31402299
-0.11259181 -0.090280458 0.31402305
-0.11177319 -0.090280324 0.31402311
-0.11060103 -0.089992665 0.31302321
-0.10978502 -0.089992523 0.31302327
-0.108969 -0.089992389 0.31302333
-0.10815299 -0.089992255 0.31302336
-0.10733698 -0.089992121 0.31302342
-0.10618046 -0.089704454 0.31202346
-0.10536705 -0.089704312 0.31202352
-0.10455365 -0.089704178 0.31202358
-0.10374025 -0.089704044 0.31202364
-0.10292684 -0.08970391 0.3120237
-0.10211344 -0.089703776 0.31202376
-0.10097518 -0.089416124 0.31102386
-0.10016438 -0.08941599 0.31102389
-0.099353582 -0.089415856 0.31102395
-0.09854278 -0.089415722 0.31102401
-0.097417541 -0.08912807 0.31002408
-0.096609354 -0.089127935 0.31002414
-0.095801167 -0.089127794 0.3100242
-0.094686367 -0.088840157 0.3090243
-0.09388078 -0.088840023 0.30902433
-0.093075193 -0.088839881 0.30902439
-0.091970809 -0.088552237 0.3080245
-0.091167845 -0.088552102 0.30802456
-0.090364859 -0.088551968 0.30802462
-0.089561895 -0.088551834 0.30802467
-0.088758908 -0.0885517 0.30802473
-0.087955937 -0.088551566 0.30802476
-0.087152958 -0.088551432 0.30802482
-0.086349979 -0.088551298 0.30802488
-0.085547008 -0.088551164 0.30802494
-0.084744029 -0.08855103 0.308025
-0.083941057 -0.088550895 0.30802503
-0.083138078 -0.088550761 0.30802509
-0.082335107 -0.088550627 0.30802515
-0.081797034 -0.088838004 0.30902517
-0.080991454 -0.088837869 0.30902523
-0.080185868 -0.088837735 0.30902529
-0.079380289 -0.088837601 0.30902532
-0.078574702 -0.088837467 0.30902538
-0.07802099 -0.089124836 0.31002539
-0.077212796 -0.089124702 0.31002545
-0.076404609 -0.089124568 0.31002551
-0.075840466 -0.089411937 0.31102556
-0.075271107 -0.089699298 0.31202558
-0.074696541 -0.089986674 0.31302562
-0.074116752 -0.090274043 0.31402564
-0.073765375 -0.090848908 0.31602564
-0.073172547 -0.091136269 0.31702566
-0.072802916 -0.091711141 0.31902567
-0.072648652 -0.092573509 0.32202566
-0.072255559 -0.093148366 0.32402566
-0.072072618 -0.094010733 0.32702565
-0.071656063 -0.09458559 0.32902566
-0.071229078 -0.095160447 0.33102566
-0.070791654 -0.095735289 0.33302563
-0.070343807 -0.096310146 0.33502564
-0.069885544 -0.096885003 0.33702567
-0.069416843 -0.097459853 0.33902568
-0.068735383 -0.097747192 0.34002569
-0.068248428 -0.098322049 0.3420257
-0.06775105 -0.098896891 0.34402573
-0.067243241 -0.099471733 0.34602574
-0.06691692 -0.10033406 0.34902573
-0.066385649 -0.10090891 0.35102573
-0.065843955 -0.10148374 0.35302573
-0.065291829 -0.10205858 0.35502577
-0.064729273 -0.10263342 0.35702577
-0.06397742 -0.10292074 0.35802582
-0.063396625 -0.10349558 0.36002582
-0.062631734 -0.10378291 0.36102587
-0.062032677 -0.10435774 0.36302587
-0.06159164 -0.10522006 0.36602589
-0.061134961 -0.10608238 0.36902589
-0.0604994 -0.1066572 0.37102589
-0.060014043 -0.10751951 0.37402588
-0.059513036 -0.10838182 0.37702587
-0.058996398 -0.10924412 0.38002589
-0.058464106 -0.11010642 0.38302588
-0.05776599 -0.11068124 0.38502592
-0.05705744 -0.11125605 0.38702592
-0.05648344 -0.11211834 0.39002594
-0.055751428 -0.11269315 0.39202595
-0.055008985 -0.11326795 0.39402598
-0.054256119 -0.11384275 0.39602602
-0.053627372 -0.11470503 0.39902601
-0.052982979 -0.11556731 0.40202603
-0.052322943 -0.1164296 0.40502605
-0.051647265 -0.11729188 0.40802604
-0.051080078 -0.11844164 0.41202605
-0.050370507 -0.11930391 0.41502604
-0.049645297 -0.12016618 0.41802606
-0.049020741 -0.12131593 0.42202604
-0.04814795 -0.12189071 0.4240261
-0.047264725 -0.1224655 0.42602614
-0.04658803 -0.12361523 0.43002611
-0.045784608 -0.12447749 0.43302613
-0.043273494 -0.13051382 0.4540261
-0.042646904 -0.13223848 0.46002606
-0.041628111 -0.13281325 0.46202609
-0.039729275 -0.13453771 0.46802616
-0.038673989 -0.13511246 0.4700262
-0.037688073 -0.13597468 0.47302625
-0.036609322 -0.13654944 0.47502628
-0.13602492 -0.091459736 0.32102141
-0.13518806 -0.091459602 0.32102147
-0.13435119 -0.091459461 0.32102153
-0.13351431 -0.091459319 0.32102159
-0.13226394 -0.091174267 0.32002169
-0.13142969 -0.091174133 0.32002175
-0.13059543 -0.091173992 0.32002181
-0.12935549 -0.090888917 0.31902188
-0.12852384 -0.090888783 0.31902194
-0.12769219 -0.090888642 0.319022
-0.12646267 -0.090603575 0.3180221
-0.12563363 -0.090603441 0.31802216
-0.12441192 -0.090318382 0.31702223
-0.12358548 -0.09031824 0.31702229
-0.12275904 -0.090318106 0.31702235
-0.12154777 -0.090033047 0.31602246
-0.12072394 -0.090032913 0.31602252
-0.11990011 -0.090032779 0.31602257
-0.11869927 -0.089747719 0.31502268
-0.11787806 -0.089747578 0.31502274
-0.11705683 -0.089747444 0.31502277
-0.11623561 -0.08974731 0.31502283
-0.11504779 -0.08946225 0.3140229
-0.11422918 -0.089462116 0.31402296
-0.11341055 -0.089461975 0.31402302
-0.11259194 -0.089461841 0.31402308
-0.11177332 -0.089461707 0.31402314
-0.11060116 -0.089176662 0.31302324
-0.10978515 -0.089176521 0.3130233
-0.10896914 -0.089176387 0.31302336
-0.10815313 -0.089176252 0.31302342
-0.10733712 -0.089176118 0.31302345
-0.10652111 -0.089175977 0.31302351
-0.10536718 -0.088890918 0.31202355
-0.10455379 -0.088890783 0.31202361
-0.10374038 -0.088890649 0.31202367
-0.10292698 -0.088890515 0.31202373
-0.10211357 -0.088890381 0.31202379
-0.10130017 -0.08889024 0.31202385
-0.10016451 -0.088605195 0.31102392
-0.099353716 -0.088605061 0.31102398
-0.098542914 -0.088604927 0.31102404
-0.097417675 -0.08831989 0.31002411
-0.096609488 -0.088319756 0.31002417
-0.095801301 -0.088319615 0.31002423
