# .PCD v0.7 - Point Cloud Data file format
VERSION 0.7
FIELDS x y z
SIZE 4 4 4
TYPE F F F
COUNT 1 1 1
WIDTH 1376
HEIGHT 1
VIEWPOINT 0 0 0 1 0 0 0
POINTS 1376
DATA ascii
0.24557713 0.015118089 0.51329303
0.24654073 0.015607107 0.51363719
0.24750434 0.016096134 0.51398134
0.24846794 0.016585153 0.5143255
0.24943154 0.017074171 0.51466966
0.25033271 0.017627414 0.51391709
0.25129408 0.018115316 0.51426041
0.2522555 0.018603217 0.51460379
0.25314778 0.019151948 0.51384801
0.25410697 0.019638725 0.51419055
0.2549926 0.020184092 0.51343244
0.25594956 0.020669743 0.51377428
0.25690651 0.021155395 0.51411605
0.25778332 0.021696279 0.51335472
0.25873807 0.022180798 0.51369572
0.25969282 0.022665324 0.51403672
0.26064754 0.02314985 0.51437771
0.26151329 0.023685092 0.51361239
0.26246578 0.024168493 0.51395261
0.26341832 0.024651894 0.51429284
0.26437086 0.025135303 0.51463306
0.2653234 0.025618697 0.51497328
0.26627591 0.026102098 0.51531351
0.26722842 0.026585499 0.51565367
0.26818097 0.0270689 0.51599383
0.26913351 0.027552301 0.51633406
0.26997703 0.02807631 0.51556087
0.27092737 0.028558586 0.51590031
0.27176428 0.029079227 0.5151248
0.27271238 0.02956037 0.51546341
0.27366048 0.030041529 0.51580203
0.27448854 0.03055767 0.51502329
0.27543443 0.031037696 0.51536107
0.27625585 0.031550467 0.51458001
0.27719951 0.032029375 0.51491714
0.27814317 0.032508284 0.51525414
0.27908683 0.032987177 0.51559114
0.27989721 0.033494323 0.51480615
0.28083861 0.033972099 0.51514238
0.28178012 0.034449883 0.51547861
0.28272152 0.034927659 0.5158149
0.28366297 0.035405442 0.51615113
0.28460443 0.035883218 0.51648736
0.28554589 0.036361001 0.51682365
0.28633851 0.036859158 0.51603222
0.28727776 0.037335817 0.51636767
0.28821701 0.037812483 0.51670313
-0.17327982 -0.20708731 0.48933798
-0.17205703 -0.20646676 0.48977473
-0.17012033 -0.20539084 0.48939201
-0.16889974 -0.2047714 0.48982796
-0.16696972 -0.20369892 0.489443
-0.1657514 -0.20308061 0.48987815
-0.16382802 -0.2020115 0.48949078
-0.1619091 -0.2009446 0.4891018
-0.16069514 -0.20032853 0.48953536
-0.1587829 -0.19926503 0.489144
-0.15757114 -0.19865009 0.48957679
-0.15566546 -0.19758995 0.48918307
-0.15445596 -0.19697611 0.48961505
-0.15255702 -0.19591938 0.48921895
-0.15134972 -0.19530667 0.48965013
-0.14945737 -0.1942533 0.48925167
-0.14825231 -0.19364175 0.48968208
-0.1463666 -0.1925917 0.48928124
-0.14516374 -0.19198126 0.48971084
-0.14328468 -0.19093463 0.4893077
-0.14208406 -0.19032532 0.4897365
-0.14088345 -0.18971601 0.49016532
-0.13901317 -0.18867381 0.48975888
-0.13781476 -0.18806563 0.4901869
-0.13661635 -0.18745743 0.49061495
-0.13475502 -0.1864198 0.49020538
-0.13355881 -0.18581273 0.49063262
-0.1323626 -0.18520568 0.49105987
-0.13051015 -0.18417251 0.49064717
-0.12931615 -0.18356657 0.49107361
-0.12812215 -0.18296063 0.49150005
-0.12627852 -0.18193197 0.49108422
-0.12508678 -0.18132716 0.49150988
-0.12324974 -0.18030185 0.49109158
-0.12206018 -0.17969814 0.49151644
-0.12022987 -0.17867623 0.49109581
-0.11904252 -0.17807366 0.4915199
-0.11785519 -0.17747109 0.49194396
-0.11666787 -0.17686853 0.49236801
-0.11484861 -0.17585222 0.49194348
-0.11366349 -0.1752508 0.49236676
-0.11185086 -0.17423788 0.49193981
-0.11004269 -0.17322721 0.49151132
-0.10886198 -0.17262802 0.49193302
-0.1070604 -0.17162067 0.49150208
-0.10588193 -0.17102262 0.49192297
-0.10408705 -0.17001869 0.49148971
-0.10229659 -0.169017 0.49105486
-0.10112256 -0.16842116 0.49147418
-0.099948496 -0.16782536 0.49189353
-0.098166883 -0.16682817 0.4914555
-0.096995056 -0.16623348 0.49187401
-0.095220089 -0.16523963 0.49143359
-0.094050467 -0.16464607 0.49185133
-0.092880845 -0.16405249 0.49226907
-0.091114759 -0.16306317 0.49182552
-0.089947343 -0.16247073 0.49224249
-0.088779926 -0.16187829 0.49265942
-0.087612569 -0.16128582 0.49307635
-0.085857511 -0.16030213 0.49262887
-0.084692359 -0.15971081 0.49304503
-0.083527148 -0.15911949 0.49346119
-0.082361996 -0.15852816 0.49387735
-0.081196785 -0.15793686 0.49429351
-0.080031633 -0.15734552 0.49470967
-0.078292102 -0.1563697 0.49425662
-0.077129126 -0.1557795 0.49467197
-0.07596615 -0.15518929 0.49508736
-0.074803174 -0.1545991 0.49550271
-0.073640227 -0.15400891 0.49591807
-0.071914017 -0.15303981 0.4954603
-0.070753247 -0.15245074 0.49587488
-0.069592476 -0.15186167 0.49628946
-0.067875117 -0.15089706 0.49582842
-0.066716552 -0.15030912 0.49624223
-0.065005839 -0.1493479 0.49577889
-0.063849509 -0.14876109 0.49619189
-0.062145472 -0.14780323 0.49572617
-0.060991347 -0.14721753 0.49613836
-0.059837222 -0.14663182 0.49655059
-0.057600915 -0.14531085 0.49520063
-0.056451261 -0.14472739 0.49561125
-0.054764867 -0.14377852 0.49513918
-0.053617418 -0.1431962 0.49554902
-0.051937729 -0.14225072 0.4950746
-0.050792456 -0.14166951 0.49548364
-0.049119383 -0.14072742 0.49500686
-0.047450781 -0.13978755 0.4945285
-0.046309948 -0.1392086 0.49493596
-0.044647932 -0.13827211 0.49445519
-0.043509364 -0.13769427 0.49486184
-0.041854024 -0.13676116 0.49437872
-0.040717602 -0.13618445 0.49478459
-0.039581239 -0.13560775 0.49519047
-0.03793478 -0.13467912 0.49470422
-0.036292702 -0.13375278 0.49421635
-0.03516075 -0.13317831 0.49462062
-0.034028769 -0.13260384 0.49502492
-0.032395601 -0.13168199 0.49453393
-0.031265855 -0.13110866 0.49493742
-0.029639304 -0.13019013 0.49444395
-0.028511763 -0.12961791 0.49484667
-0.027384281 -0.1290457 0.49524936
-0.02625674 -0.12847349 0.49565208
-0.024641275 -0.12756062 0.49515474
-0.023030251 -0.12664999 0.49465579
-0.021423623 -0.12574162 0.49415529
-0.020302743 -0.12517278 0.49455562
-0.019181862 -0.12460394 0.49495596
0.099055134 -0.061250113 0.4985092
0.099834278 -0.060947746 0.49986184
0.10035808 -0.060868002 0.50219762
0.10114828 -0.060560018 0.50355417
0.10219828 -0.060027152 0.5039292
0.10324828 -0.059494287 0.50430417
0.1045492 -0.058741041 0.50369453
0.10559697 -0.0582093 0.50406873
0.10664476 -0.05767756 0.50444293
0.10769254 -0.057145819 0.50481719
0.10898237 -0.056398198 0.50420356
0.11002794 -0.055867583 0.50457692
0.1110735 -0.055336967 0.5049504
0.11235449 -0.054593831 0.50433356
0.11339784 -0.054064348 0.5047062
0.11444119 -0.05353485 0.50507885
0.11548454 -0.053005353 0.50545144
0.11652789 -0.05247587 0.50582409
0.11757123 -0.051946372 0.50619674
0.11861458 -0.051416874 0.50656939
0.11987784 -0.050682753 0.50594628
0.12091897 -0.050154381 0.50631809
0.12196011 -0.049626015 0.50668997
0.12300124 -0.04909765 0.50706184
0.12425342 -0.048369132 0.50643468
0.12529235 -0.047841884 0.50680578
0.12633127 -0.047314644 0.50717682
0.12757458 -0.046590626 0.5065465
0.12881346 -0.045868874 0.50591469
0.12984794 -0.045343876 0.50628412
0.13088244 -0.044818878 0.50665367
0.13211247 -0.044101596 0.50601864
0.13314474 -0.043577731 0.50638729
0.13436812 -0.042863838 0.50574994
0.13539818 -0.042341091 0.50611782
0.13642824 -0.041818343 0.5064857
0.13745829 -0.041295595 0.50685358
0.13867062 -0.040587313 0.50621223
0.13969846 -0.040065691 0.50657934
0.1407263 -0.039544068 0.50694644
0.14175415 -0.039022446 0.50731355
0.14278199 -0.038500823 0.50768065
0.14380984 -0.0379792 0.50804776
0.14500663 -0.037278801 0.50740087
0.14603226 -0.036758296 0.5077672
0.14705789 -0.036237799 0.50813353
0.14824581 -0.035541892 0.50748348
0.14926922 -0.03502252 0.50784898
0.15029265 -0.034503147 0.50821447
0.15147173 -0.033811733 0.50756127
0.15249294 -0.033293486 0.50792599
0.15351413 -0.032775238 0.50829077
0.15468433 -0.03208831 0.50763434
0.15570332 -0.031571187 0.50799829
0.15672231 -0.031054057 0.50836223
0.15788364 -0.030371629 0.50770271
0.15890042 -0.029855624 0.50806582
0.15991719 -0.029339626 0.50842893
0.16106969 -0.028661713 0.50776625
0.16208425 -0.028146833 0.50812864
0.1630988 -0.027631953 0.50849104
0.16411334 -0.027117081 0.50885332
0.16525476 -0.026444778 0.5081867
0.1662671 -0.025931023 0.50854826
0.16727944 -0.025417268 0.50890982
0.16829178 -0.024903513 0.50927138
0.16942213 -0.024236843 0.50860071
0.17043225 -0.023724213 0.50896156
0.17144237 -0.023211583 0.50932229
0.17245251 -0.022698954 0.50968307
0.17357177 -0.022037894 0.50900847
0.17457967 -0.021526381 0.50936842
0.17558758 -0.021014884 0.50972843
0.17669797 -0.020358317 0.50905073
0.17770366 -0.019847937 0.5094099
0.17870936 -0.01933755 0.50976908
0.17981091 -0.018685482 0.50908816
0.18081439 -0.01817622 0.50944656
0.18190929 -0.017527536 0.50876331
0.18291055 -0.017019399 0.50912094
0.18399881 -0.016374078 0.50843525
0.18499786 -0.015867073 0.50879204
0.18607946 -0.015225116 0.50810403
0.18707629 -0.014719229 0.50846004
0.18807311 -0.01421335 0.50881612
0.18914586 -0.013575897 0.50812489
0.19014049 -0.013071142 0.50848013
0.19113511 -0.01256638 0.50883538
0.19212972 -0.012061626 0.50919056
0.19319139 -0.011429779 0.50849545
0.1941838 -0.01092615 0.50884986
0.1951762 -0.010422513 0.50920433
0.1961686 -0.009918876 0.5095588
0.19716099 -0.0094152391 0.50991321
0.19815341 -0.0089116022 0.51026767
0.19914579 -0.0084079728 0.51062214
0.20013821 -0.0079043284 0.51097655
0.20117994 -0.0072826296 0.51027429
0.20217012 -0.0067801178 0.51062799
0.2031603 -0.0062776059 0.51098156
0.2041505 -0.005775094 0.51133525
0.20514068 -0.0052725822 0.51168895
0.20616913 -0.0046576187 0.51098192
0.20715711 -0.0041562244 0.51133478
0.20814507 -0.0036548376 0.51168764
0.20916466 -0.0030443631 0.51097739
0.21015041 -0.0025441088 0.51132953
0.21116336 -0.0019369945 0.51061696
0.21214688 -0.0014378577 0.51096821
0.21313043 -0.00093871355 0.51131952
0.21413451 -0.00033610314 0.51060379
0.21511583 0.00016190857 0.51095426
0.21609716 0.00065992028 0.51130474
0.21709238 0.0012580231 0.5105859
0.21807149 0.0017549172 0.5109356
0.21905059 0.0022518039 0.51128531
0.22003695 0.0028454065 0.51056319
0.22101384 0.0033411756 0.51091212
0.22199073 0.0038369447 0.51126099
0.22296762 0.0043327063 0.51160991
0.22394453 0.0048284754 0.51195884
0.22491761 0.0054153316 0.51123208
0.22589228 0.0059099756 0.51158023
0.22686698 0.0064046234 0.51192832
0.22783116 0.0069869906 0.51119828
0.22880363 0.0074805096 0.51154566
0.2297761 0.0079740286 0.51189291
0.23074855 0.0084675476 0.51224029
0.23172103 0.0089610666 0.51258761
0.23267195 0.009536691 0.51185292
0.23364219 0.010029081 0.51219946
0.23461244 0.010521475 0.51254594
0.23558268 0.011013869 0.51289248
0.23652253 0.011583876 0.51215386
0.23749055 0.012075145 0.51249957
0.2384586 0.012566421 0.51284528
0.23938957 0.013131917 0.5121035
0.24035539 0.01362206 0.51244843
0.24132122 0.014112212 0.51279342
0.24228702 0.014602358 0.51313835
0.24325284 0.015092501 0.51348329
0.24421866 0.015582645 0.51382828
0.24518448 0.016072797 0.51417321
0.24609773 0.016629297 0.51342505
0.24706134 0.017118324 0.51376921
0.24802494 0.017607342 0.51411343
0.24898854 0.018096361 0.51445758
0.24989073 0.01864725 0.51370537
0.25085211 0.019135151 0.51404881
0.25181353 0.019623052 0.51439214
0.25270683 0.020169437 0.51363683
0.25366601 0.020656213 0.51397943
0.25462517 0.021142989 0.51432204
0.25558436 0.021629766 0.51466465
0.25646657 0.022170536 0.51390541
0.25742358 0.022656187 0.51424718
0.25829914 0.023193585 0.51348555
0.25925389 0.023678111 0.51382649
0.26020861 0.024162637 0.51416755
0.26107538 0.024695532 0.5134027
0.26202789 0.025178934 0.51374292
0.26298043 0.025662335 0.51408315
0.26393294 0.026145743 0.51442337
0.26488549 0.026629137 0.51476359
0.26583803 0.027112538 0.51510382
0.26679054 0.027595939 0.51544398
0.26774305 0.02807934 0.51578414
0.26869559 0.028562741 0.51612437
0.26954019 0.029084396 0.51535165
0.27049047 0.029566672 0.5156911
0.2714408 0.030048948 0.51603055
0.27227652 0.030566109 0.51525474
0.27322462 0.031047268 0.51559329
0.27405369 0.031561054 0.51481509
0.27499959 0.03204108 0.51515293
0.27594548 0.032521114 0.51549077
0.2767657 0.033030413 0.51470935
0.27770936 0.033509322 0.51504636
0.27865303 0.033988215 0.51538348
0.27959669 0.034467123 0.51572049
0.28040582 0.034970798 0.51493514
0.28134727 0.035448581 0.51527143
0.28228873 0.035926357 0.5156076
0.28323019 0.03640414 0.51594388
0.28417164 0.036881916 0.51628011
0.2851131 0.0373597 0.51661634
0.28590673 0.037855495 0.51582551
0.28684595 0.038332153 0.51616096
0.2877852 0.038808819 0.51649642
-0.17261919 -0.20516962 0.48950553
-0.1713964 -0.20454907 0.48994228
-0.16946089 -0.20347665 0.48955926
-0.16824031 -0.20285721 0.48999521
-0.1663115 -0.20178817 0.48960996
-0.16438711 -0.20072141 0.48922303
-0.16317099 -0.20010424 0.4896574
-0.16125321 -0.19904083 0.48926812
-0.16003931 -0.19842476 0.48970169
-0.1581282 -0.19736472 0.48931003
-0.15691656 -0.19674978 0.48974279
-0.15501201 -0.19569309 0.4893488
-0.15380251 -0.19507928 0.48978078
-0.15190473 -0.19402598 0.48938438
-0.15069747 -0.1934133 0.48981556
-0.14880627 -0.19236341 0.48941681
-0.14691955 -0.19131571 0.48901644
-0.14571673 -0.19070527 0.48944604
-0.14383662 -0.18966097 0.48904338
-0.142636 -0.18905166 0.48947221
-0.14143538 -0.18844235 0.48990101
-0.1395641 -0.18740253 0.48949507
-0.13836569 -0.18679436 0.48992309
-0.13716727 -0.18618615 0.49035111
-0.13530493 -0.18515085 0.48994204
-0.13410872 -0.18454377 0.49036929
-0.13291255 -0.18393673 0.49079654
-0.13105905 -0.18290594 0.49038431
-0.12986505 -0.1823 0.49081075
-0.1280182 -0.18127254 0.49039623
-0.12682641 -0.18066773 0.49082187
-0.12563467 -0.18006292 0.49124753
-0.12379661 -0.17903993 0.49082971
-0.12260705 -0.17843625 0.49125457
-0.1207757 -0.1774167 0.49083444
-0.11958838 -0.17681414 0.49125853
-0.11840105 -0.17621158 0.49168259
-0.11721373 -0.17560901 0.49210665
-0.1153934 -0.17459504 0.49168259
-0.11420834 -0.17399362 0.49210587
-0.11239469 -0.17298304 0.4916794
-0.11121178 -0.17238271 0.49210191
-0.1094048 -0.17137553 0.49167308
-0.10760218 -0.17037052 0.49124265
-0.10642374 -0.16977248 0.49166355
-0.10462779 -0.16877089 0.49123076
-0.10283634 -0.16777156 0.49079642
-0.10166228 -0.16717574 0.49121574
-0.10048825 -0.16657992 0.49163505
-0.098705649 -0.16558509 0.49119753
-0.097533822 -0.1649904 0.49161604
-0.096361935 -0.16439569 0.49203458
-0.094588161 -0.16340533 0.49159387
-0.093418539 -0.16281176 0.49201161
-0.092248917 -0.16221818 0.49242935
-0.090484023 -0.16123232 0.49198547
-0.089316607 -0.16063988 0.49240243
-0.08814925 -0.16004744 0.49281937
-0.086981833 -0.159455 0.49323633
-0.085814446 -0.15886256 0.49365327
-0.084062815 -0.15788345 0.49320468
-0.082897663 -0.15729214 0.49362084
-0.081732452 -0.1567008 0.494037
-0.0805673 -0.1561095 0.49445316
-0.078826755 -0.155136 0.49400058
-0.077663779 -0.1545458 0.49441597
-0.076500803 -0.15395559 0.49483132
-0.075337827 -0.1533654 0.49524671
-0.074174881 -0.15277521 0.49566206
-0.073011905 -0.15218501 0.49607742
-0.071286887 -0.15121941 0.49561936
-0.070126116 -0.15063034 0.49603394
-0.068965375 -0.15004127 0.49644849
-0.067249179 -0.14908013 0.49598718
-0.066090643 -0.14849217 0.49640095
-0.064381093 -0.14753443 0.49593735
-0.063224792 -0.14694762 0.49635032
-0.061521918 -0.14599325 0.4958843
-0.060367823 -0.14540754 0.4962965
-0.058671594 -0.14445655 0.49582815
-0.056979775 -0.14350779 0.49535817
-0.055830121 -0.14292434 0.49576879
-0.054144919 -0.14197895 0.49529642
-0.05299747 -0.14139664 0.49570623
-0.051318944 -0.14045462 0.49523154
-0.049644887 -0.13951486 0.49475524
-0.048501849 -0.13893478 0.4951635
-0.046834409 -0.1379984 0.49468482
-0.04517138 -0.13706425 0.49420452
-0.044032812 -0.13648643 0.49461117
-0.042894185 -0.1359086 0.49501786
-0.041240036 -0.13497895 0.49453443
-0.040103674 -0.13440225 0.49494031
-0.038456172 -0.13347599 0.49445453
-0.037322015 -0.1329004 0.49485961
-0.035681158 -0.13197751 0.49437144
-0.034549177 -0.13140304 0.49477574
-0.033417225 -0.1308286 0.49518001
-0.03178525 -0.1299102 0.49468872
-0.030655503 -0.12933685 0.49509221
-0.029525757 -0.12876353 0.49549571
-0.027902633 -0.12784961 0.49500114
-0.026775092 -0.1272774 0.49540386
-0.025158614 -0.12636688 0.49490702
-0.023546562 -0.12545861 0.49440855
-0.022423446 -0.12488864 0.49480969
-0.02081804 -0.12398373 0.49430889
-0.01969716 -0.12341489 0.49470922
0.098576494 -0.060145669 0.49828002
0.099354625 -0.059840947 0.49963215
0.099876381 -0.05975651 0.50196695
0.10066557 -0.059446171 0.50332308
0.10171556 -0.058913305 0.50369805
0.10276557 -0.05838044 0.50407302
0.10381556 -0.057847574 0.50444806
0.10486556 -0.057314709 0.50482309
0.10616306 -0.056566067 0.50421226
0.10721084 -0.056034327 0.50458652
0.10825862 -0.055502586 0.50496078
0.10954726 -0.05475843 0.50434679
0.11059283 -0.054227814 0.50472021
0.1116384 -0.053697199 0.50509369
0.11268396 -0.053166583 0.50546706
0.11372952 -0.052635968 0.50584054
0.11500488 -0.051898569 0.50522184
0.11604823 -0.051369071 0.50559443
0.11709158 -0.050839573 0.50596708
0.11813493 -0.05031009 0.50633973
0.11917828 -0.049780592 0.50671238
0.12044033 -0.049049929 0.50608891
0.12148146 -0.048521563 0.50646079
0.1225226 -0.047993198 0.5068326
0.1237758 -0.047267027 0.50620598
0.12481472 -0.046739779 0.50657701
0.12585364 -0.046212539 0.50694811
0.12709798 -0.045490883 0.50631833
0.12833788 -0.04477147 0.50568694
0.12937236 -0.044246472 0.50605643
0.13040686 -0.043721475 0.50642586
0.1316379 -0.043006554 0.50579137
0.13267018 -0.042482689 0.50616002
0.13370246 -0.041958809 0.50652874
0.13492464 -0.041248389 0.50589108
0.13595469 -0.040725641 0.50625896
0.13698477 -0.040202893 0.50662684
0.13801482 -0.039680146 0.50699472
0.13904488 -0.039157398 0.5073626
0.14025378 -0.038453735 0.50672019
0.14128162 -0.037932113 0.50708723
0.14230946 -0.03741049 0.5074544
0.14333731 -0.036888868 0.50782144
0.14436516 -0.036367238 0.50818861
0.14556074 -0.035670303 0.50754142
0.14658637 -0.035149798 0.50790775
0.14761201 -0.0346293 0.50827408
0.14879873 -0.033936866 0.50762367
0.14982215 -0.033417493 0.50798917
0.15100226 -0.032728434 0.5073365
0.15202346 -0.032210186 0.50770116
0.1531969 -0.031524487 0.5070461
0.15421587 -0.031007357 0.50741005
0.15523486 -0.030490227 0.507774
0.15625384 -0.029973105 0.50813794
0.15741622 -0.029293045 0.50747883
0.15843299 -0.028777048 0.507842
0.15944976 -0.028261043 0.50820518
0.16046652 -0.027745038 0.50856829
0.16161783 -0.027070589 0.5079053
0.16263238 -0.02655571 0.50826764
0.16364694 -0.02604083 0.50863004
0.16478936 -0.025370874 0.50796378
0.1658017 -0.024857119 0.50832534
0.16681404 -0.024343364 0.5086869
0.16782638 -0.023829609 0.50904846
0.16895775 -0.023165286 0.50837839
0.16996787 -0.022652656 0.50873917
0.17097799 -0.022140026 0.50909996
0.17198813 -0.021627396 0.50946069
0.17299825 -0.021114767 0.50982153
0.1741163 -0.020457193 0.50914657
0.17512421 -0.019945681 0.50950658
0.17613211 -0.019434169 0.50986654
0.17724133 -0.018781088 0.50918853
0.17824702 -0.018270701 0.50954771
0.1792527 -0.017760321 0.50990689
0.18035306 -0.017111726 0.50922561
0.18135653 -0.016602471 0.50958407
0.18245023 -0.015957251 0.50890052
0.1834515 -0.015449114 0.50925815
0.18453856 -0.014807273 0.5085721
0.18553761 -0.014300261 0.50892895
0.18661802 -0.013661783 0.50824058
0.18761484 -0.013155904 0.50859666
0.18861169 -0.012650024 0.50895268
0.18960851 -0.01214413 0.5093087
0.19067785 -0.011511281 0.50861645
0.19167246 -0.011006519 0.50897169
0.19266708 -0.010501757 0.50932688
0.1936617 -0.0099969953 0.50968212
0.19465631 -0.0094922408 0.51003736
0.19571237 -0.0088661313 0.50934029
0.19670476 -0.0083624944 0.50969476
0.19769716 -0.0078588575 0.51004922
0.19868957 -0.0073552206 0.51040363
0.19968197 -0.0068515912 0.5107581
0.20067437 -0.0063479468 0.51111257
0.20166677 -0.0058443174 0.51146698
0.20265917 -0.0053406805 0.51182145
0.20369528 -0.0047246814 0.51111728
0.20468546 -0.0042221695 0.51147091
0.20567565 -0.0037196577 0.51182461
0.2067029 -0.0031081736 0.51111722
0.20769088 -0.0026067868 0.51147014
0.20871148 -0.0019986592 0.51076043
0.20969723 -0.0014983974 0.51111245
0.2107112 -0.00089365244 0.51040041
0.21169472 -0.00039451569 0.51075172
0.21267827 0.0001046285 0.51110303
0.21366182 0.00060376525 0.51145434
0.2146647 0.0012029 0.51073825
0.21564603 0.0017009191 0.51108873
0.21662734 0.0021989308 0.5114392
0.21762136 0.0027935654 0.51072001
0.21860047 0.0032904521 0.51106977
0.21957958 0.0037873462 0.51141942
0.22055869 0.0042842329 0.51176918
0.22154164 0.004873246 0.51104593
0.22251853 0.0053690076 0.51139486
0.22349542 0.0058647767 0.51174378
0.22447231 0.0063605383 0.51209271
0.22544418 0.0069439299 0.51136565
0.22641888 0.0074385777 0.51171374
0.22739354 0.0079332143 0.51206183
0.22835657 0.0085121095 0.51133156
0.22932903 0.0090056285 0.51167887
0.23030148 0.0094991475 0.51202619
0.23127395 0.0099926665 0.51237357
0.23224641 0.010486186 0.51272082
0.23319614 0.011058327 0.5119859
0.23416638 0.011550721 0.51233244
0.23513663 0.012043115 0.51267892
0.23610689 0.012535512 0.51302546
0.23704553 0.013102043 0.51228642
0.23801357 0.01359332 0.51263225
0.2389816 0.014084589 0.51297796
0.23991136 0.014646614 0.51223588
0.2408772 0.015136765 0.51258075
0.24184301 0.015626909 0.51292574
0.24280883 0.016117053 0.51327074
0.24377465 0.016607197 0.51361561
0.24474047 0.017097348 0.5139606
0.24565473 0.017651495 0.51321292
0.24661835 0.018140521 0.51355708
0.24758194 0.01862954 0.51390123
0.24854554 0.019118559 0.51424539
0.24944875 0.0196671 0.51349378
0.25041014 0.020155001 0.5138371
0.25137153 0.020642903 0.51418054
0.25233293 0.021130797 0.51452386
0.25329429 0.021618698 0.51486725
0.25418419 0.022160493 0.51411092
0.2551434 0.022647269 0.51445341
0.25610256 0.023134038 0.51479602
0.25698364 0.023671336 0.51403648
0.25794059 0.02415698 0.51437831
0.25881499 0.024690906 0.51361632
0.25976971 0.025175432 0.51395738
0.26072446 0.02565995 0.51429832
0.26159 0.026189381 0.51353323
0.26254255 0.026672782 0.51387346
0.26349506 0.027156191 0.51421368
0.26444757 0.027639585 0.5145539
0.26540011 0.028122986 0.51489413
0.26635265 0.028606387 0.51523429
0.26730517 0.029089788 0.51557446
0.26825768 0.029573189 0.51591468
0.26921022 0.03005659 0.5162549
0.2700536 0.030574773 0.51548195
0.2710039 0.031057049 0.51582134
0.27184063 0.031571865 0.515046
0.27278876 0.032053024 0.51538461
0.27373683 0.032534175 0.51572323
0.27456474 0.033044487 0.51494467
0.27551061 0.033524521 0.51528251
0.27645648 0.034004554 0.51562035
0.27727553 0.034510367 0.5148387
0.27821919 0.03498926 0.5151757
0.27916288 0.035468169 0.5155127
0.28010651 0.03594707 0.51584983
0.28091449 0.036447279 0.51506412
0.28185594 0.036925055 0.51540041
0.2827974 0.037402838 0.51573658
0.28373882 0.037880614 0.51607287
0.28468031 0.038358398 0.51640916
0.28547493 0.038851846 0.51561868
0.28641415 0.039328504 0.51595414
0.2873534 0.03980517 0.51628965
-0.17389944 -0.20432425 0.49005398
-0.17195854 -0.20325199 0.48967311
-0.17073575 -0.20263141 0.49010983
-0.16880143 -0.20156245 0.48972651
-0.1675809 -0.20094301 0.49016246
-0.16565323 -0.19987746 0.48977688
-0.16373008 -0.19881418 0.48938969
-0.16251391 -0.19819698 0.48982406
-0.16059738 -0.19713703 0.48943445
-0.15868527 -0.19607934 0.4890433
-0.15747356 -0.1954644 0.48947605
-0.15556803 -0.19441007 0.48908255
-0.15435857 -0.19379626 0.48951453
-0.15245974 -0.19274531 0.48911861
-0.15125251 -0.19213264 0.48954979
-0.1493603 -0.19108507 0.48915151
-0.14815524 -0.19047353 0.48958191
-0.14626968 -0.18942931 0.48918125
-0.14506686 -0.18881887 0.48961088
-0.14318797 -0.18777803 0.48920789
-0.14198735 -0.18716872 0.48963672
-0.14011502 -0.18613125 0.48923126
-0.13891661 -0.18552308 0.48965928
-0.1377182 -0.18491487 0.4900873
-0.13585484 -0.18388192 0.48967874
-0.13465863 -0.18327485 0.49010596
-0.13346246 -0.18266781 0.4905332
-0.13160795 -0.18163937 0.49012148
-0.13041395 -0.18103343 0.49054793
-0.12856606 -0.18000832 0.49013388
-0.12737429 -0.17940351 0.49055952
-0.12618256 -0.17879871 0.49098518
-0.12434345 -0.17777807 0.49056786
-0.12315392 -0.17717439 0.49099272
-0.12132156 -0.17615719 0.49057308
-0.12013423 -0.17555462 0.49099714
-0.11894688 -0.17495205 0.49142119
-0.11775956 -0.17434949 0.49184528
-0.1165722 -0.17374693 0.49226934
-0.11475313 -0.17273644 0.49184498
-0.11356801 -0.17213498 0.49226826
-0.11175558 -0.1711279 0.4918415
-0.10994756 -0.17012304 0.49141318
-0.10876688 -0.16952385 0.49183488
-0.10696548 -0.16852236 0.49140415
-0.10516858 -0.1675231 0.49097183
-0.10399228 -0.16692616 0.49139193
-0.10220203 -0.1659303 0.49095729
-0.10102797 -0.16533448 0.49137661
-0.099853933 -0.16473867 0.49179593
-0.098072529 -0.16374731 0.4913581
-0.096900672 -0.16315262 0.49177662
-0.095728844 -0.16255793 0.49219516
-0.094557017 -0.16196322 0.4926137
-0.09278664 -0.16097745 0.49217185
-0.091617048 -0.16038388 0.49258962
-0.090447426 -0.15979031 0.49300736
-0.08868593 -0.15880907 0.49256238
-0.087518513 -0.15821663 0.49297935
-0.086351126 -0.15762419 0.49339628
-0.08518371 -0.15703171 0.49381325
-0.08343333 -0.15605612 0.49336433
-0.082268119 -0.15546478 0.49378049
-0.081102967 -0.15487348 0.49419665
-0.079361379 -0.15390234 0.49374458
-0.078198433 -0.15331213 0.49415994
-0.077035427 -0.15272193 0.49457532
-0.075872481 -0.15213174 0.49499068
-0.074709535 -0.15154155 0.49540606
-0.073546529 -0.15095134 0.49582142
-0.072383583 -0.15036115 0.49623677
-0.070659757 -0.14939901 0.49577841
-0.069499016 -0.14880994 0.49619296
-0.068338245 -0.14822087 0.49660754
-0.066623241 -0.1472632 0.4961459
-0.065464675 -0.14667524 0.49655971
-0.063756377 -0.14572099 0.49609578
-0.062600046 -0.14513415 0.49650878
-0.060898364 -0.14418326 0.49604246
-0.059744269 -0.14359756 0.49645466
-0.058049202 -0.14265004 0.49598598
-0.056358635 -0.14170477 0.4955157
-0.055208981 -0.14112133 0.49592632
-0.053525001 -0.1401794 0.49545366
-0.052377522 -0.13959706 0.49586347
-0.050700217 -0.13865852 0.49538845
-0.049027324 -0.13772227 0.49491188
-0.047884285 -0.13714218 0.49532011
-0.046218038 -0.13620926 0.49484113
-0.04455626 -0.1352786 0.49436054
-0.043417633 -0.13470078 0.49476722
-0.042279035 -0.13412294 0.49517387
-0.040626109 -0.13319677 0.49469015
-0.039489686 -0.13262007 0.495096
-0.038353324 -0.13204336 0.49550188
-0.036709249 -0.13112171 0.49501503
-0.035575062 -0.13054612 0.4954201
-0.033937633 -0.12962784 0.49493083
-0.032805681 -0.12905337 0.49533513
-0.031174868 -0.12813844 0.49484351
-0.030045152 -0.1275651 0.49524701
-0.028420985 -0.12665355 0.49475294
-0.027293444 -0.12608133 0.49515566
-0.025675938 -0.12517315 0.4946593
-0.024062872 -0.12426724 0.49416131
-0.022454217 -0.12336355 0.49366179
-0.021333337 -0.12279472 0.49406213
-0.020212442 -0.12222588 0.49446246
0.098097861 -0.059041239 0.49805081
0.098874971 -0.058734179 0.49940246
0.099394694 -0.058645025 0.50173628
0.10018287 -0.058332339 0.50309193
0.10123286 -0.057799473 0.5034669
0.10228286 -0.057266608 0.50384194
0.10333286 -0.056733742 0.50421691
0.10438286 -0.056200877 0.50459194
0.10543285 -0.055668011 0.50496697
0.10672916 -0.054922841 0.50435591
0.10777694 -0.054391101 0.50473011
0.10882472 -0.053859361 0.5051043
0.1098725 -0.053327613 0.5054785
0.11092028 -0.052795872 0.50585276
0.11220329 -0.052057445 0.50523692
0.11324885 -0.05152683 0.50561035
0.11429442 -0.050996214 0.50598383
0.11556858 -0.050262302 0.50536478
0.11661193 -0.049732804 0.50573742
0.11765528 -0.049203306 0.50611007
0.11869863 -0.048673823 0.50648272
0.11996169 -0.047945499 0.50585973
0.12100283 -0.047417134 0.50623155
0.12204397 -0.046888769 0.50660342
0.1230851 -0.046360396 0.50697529
0.12433711 -0.045637704 0.50634837
0.12537603 -0.045110464 0.50671941
0.12662138 -0.044391155 0.5060901
0.1278623 -0.043674089 0.50545919
0.12889679 -0.043149091 0.50582868
0.12993127 -0.042624094 0.50619817
0.13116334 -0.041911513 0.50556409
0.13219562 -0.041387647 0.50593281
0.13342103 -0.040678456 0.50529641
0.13445109 -0.040155709 0.50566435
0.13548115 -0.039632961 0.50603223
0.13651121 -0.039110214 0.50640011
0.13754128 -0.038587466 0.50676799
0.13857134 -0.038064718 0.50713587
0.13978125 -0.037363395 0.50649393
0.14080909 -0.036841772 0.50686097
0.14183694 -0.03632015 0.50722814
0.14286479 -0.03579852 0.50759518
0.14389263 -0.035276905 0.50796235
0.14508924 -0.034582324 0.50731564
0.14611487 -0.034061827 0.50768197
0.1471405 -0.033541329 0.5080483
0.14832824 -0.032851242 0.50739837
0.14935167 -0.032331869 0.50776392
0.1505328 -0.031645149 0.50711167
0.15155399 -0.031126887 0.50747639
0.15272844 -0.030443542 0.50682175
0.15374742 -0.029926419 0.5071857
0.15476641 -0.029409297 0.50754964
0.1557854 -0.028892167 0.50791359
0.15694879 -0.028214455 0.50725502
0.15796556 -0.027698457 0.50761819
0.15898232 -0.027182452 0.5079813
0.15999909 -0.026666448 0.50834447
0.16115141 -0.025994353 0.50768197
0.16216597 -0.025479473 0.50804436
0.16318052 -0.024964593 0.50840664
0.16419508 -0.024449721 0.50876904
0.16533631 -0.023783237 0.50810254
0.16634864 -0.023269482 0.5084641
0.16736098 -0.022755727 0.50882566
0.16849339 -0.022093758 0.50815606
0.1695035 -0.021581128 0.50851679
0.17051363 -0.021068498 0.50887758
0.17152375 -0.020555869 0.50923836
0.17253387 -0.020043239 0.50959909
0.17354399 -0.019530609 0.50995994
0.17466086 -0.018876493 0.50928468
0.17566876 -0.018364981 0.50964463
0.17667666 -0.017853484 0.51000464
0.17778468 -0.017203867 0.50932634
0.17879036 -0.016693488 0.50968552
0.17979607 -0.016183108 0.51004469
0.18089522 -0.015537985 0.50936317
0.1818987 -0.01502873 0.50972152
0.18299121 -0.014386974 0.50903773
0.18399246 -0.013878845 0.5093953
0.18499371 -0.013370708 0.50975287
0.18607737 -0.012733471 0.50906587
0.18707642 -0.012226459 0.50942266
0.18807547 -0.011719454 0.50977945
0.18915026 -0.011086699 0.50908923
0.19014709 -0.010580819 0.50944531
0.19114392 -0.01007494 0.50980133
0.19214074 -0.0095690452 0.51015735
0.19320446 -0.0089419186 0.50946319
0.19419907 -0.0084371641 0.50981843
0.19519369 -0.0079324022 0.51017368
0.1961883 -0.0074276403 0.51052892
0.19718292 -0.0069228858 0.51088417
0.19817755 -0.0064181238 0.51123941
0.19917215 -0.0059133619 0.51159459
0.20021814 -0.0052952245 0.51089406
0.20121054 -0.0047915801 0.51124853
0.20220295 -0.0042879507 0.511603
0.20319535 -0.0037843138 0.51195741
0.20423025 -0.0031717867 0.511253
0.20522045 -0.0026692748 0.51160657
0.20621063 -0.0021667629 0.51196027
0.20723668 -0.0015587434 0.51125264
0.20822465 -0.0010573491 0.5116055
0.20924406 -0.0004527159 0.51089549
0.21022981 4.7553331e-05 0.51124758
0.21124257 0.00064882636 0.51053524
0.21222611 0.0011479706 0.51088655
0.21320966 0.0016471073 0.5112378
0.21419318 0.002146244 0.51158905
0.21519488 0.0027418993 0.51087272
0.2161762 0.003239911 0.5112232
0.21715753 0.0037379302 0.51157367
0.21815035 0.0043290854 0.51085424
0.21912947 0.0048259795 0.51120389
0.22010857 0.0053228661 0.51155365
0.22109254 0.0059095323 0.51083088
0.22206943 0.0064052939 0.5111798
0.22304633 0.006901063 0.51152873
0.22402321 0.0073968247 0.51187766
0.22500011 0.0078926012 0.51222658
0.22597079 0.0084725171 0.51149917
0.22694546 0.0089671537 0.51184726
0.22792016 0.0094618015 0.51219541
0.22888197 0.010037221 0.51146483
0.22985442 0.01053074 0.51181209
0.23082688 0.011024259 0.51215947
0.23179935 0.011517778 0.51250678
0.23277181 0.01201129 0.5128541
0.23372033 0.012579959 0.51211882
0.23469058 0.013072353 0.51246536
0.23566085 0.013564751 0.5128119
0.2366311 0.014057145 0.51315844
0.23756854 0.014620204 0.5124191
0.23853657 0.015111472 0.51276481
0.23950461 0.015602738 0.51311064
0.24047264 0.016094014 0.51345634
0.24139901 0.016651439 0.51271313
0.24236482 0.017141582 0.51305807
0.24333064 0.017631726 0.51340306
0.24429646 0.018121878 0.51374799
0.24526228 0.018612022 0.51409292
0.24617535 0.019162711 0.513345
0.24713895 0.01965173 0.51368916
0.24810255 0.020140748 0.51403332
0.24900678 0.020686936 0.51328218
0.24996817 0.021174837 0.5136255
0.25092956 0.021662738 0.51396888
0.25189096 0.022150632 0.51431227
0.25285232 0.022638533 0.51465559
0.25381371 0.023126427 0.51499903
0.25470245 0.023664758 0.51424229
0.25566161 0.024151526 0.5145849
0.2565437 0.024686478 0.51382577
0.25750065 0.025172122 0.51416761
0.2584576 0.02565778 0.51450944
0.25933078 0.026188226 0.51374722
0.26028553 0.026672745 0.51408815
0.26124027 0.027157279 0.51442921
0.26219502 0.027641797 0.51477015
0.26305717 0.028166631 0.51400399
0.26400968 0.028650025 0.51434422
0.2649622 0.029133426 0.51468444
0.26591474 0.029616827 0.5150246
0.26686728 0.030100228 0.51536477
0.26781979 0.030583629 0.51570499
0.26866642 0.03110059 0.51493329
0.26961672 0.031582866 0.51527274
0.27056706 0.032065142 0.51561213
0.27151734 0.032547418 0.51595151
0.27235287 0.033058755 0.51517594
0.27330098 0.033539906 0.51551449
0.2741299 0.034047872 0.51473641
0.27507576 0.034527905 0.51507425
0.27602166 0.035007939 0.51541209
0.27696756 0.035487965 0.51574993
0.27778536 0.035990305 0.51496798
0.27872902 0.036469214 0.51530504
0.27967268 0.036948115 0.51564205
0.2804817 0.03744597 0.51485687
0.28142309 0.037923746 0.5151931
0.28236455 0.038401529 0.51552939
0.283306 0.038879305 0.51586562
0.28424746 0.039357089 0.51620185
0.28518891 0.039834864 0.51653814
0.28598237 0.040324848 0.51574743
0.28692162 0.040801514 0.51608288
-0.17446262 -0.20302474 0.4897843
-0.1725207 -0.20195481 0.4894039
-0.17129791 -0.20133427 0.48984066
-0.16936255 -0.20026766 0.48945782
-0.16814202 -0.19964822 0.48989376
-0.16621336 -0.19858502 0.48950869
-0.16499501 -0.19796674 0.48994383
-0.163073 -0.19690689 0.48955634
-0.16115543 -0.1958493 0.48916724
-0.15994152 -0.19523323 0.48960081
-0.15803063 -0.19417903 0.48920932
-0.1568189 -0.19356409 0.48964211
-0.15491459 -0.19251324 0.48924828
-0.15301475 -0.19146462 0.48885283
-0.15180749 -0.19085197 0.48928401
-0.14991426 -0.18980673 0.48888624
-0.14870924 -0.18919519 0.48931664
-0.14682269 -0.18815333 0.48891646
-0.14561981 -0.18754289 0.48934606
-0.14373994 -0.18650439 0.48894361
-0.14253932 -0.18589509 0.4893724
-0.14066601 -0.18485995 0.48896745
-0.1394676 -0.18425177 0.48939547
-0.13826916 -0.18364359 0.48982349
-0.13640478 -0.182613 0.48941541
-0.13520858 -0.18200593 0.48984265
-0.1340124 -0.18139887 0.49026987
-0.13215685 -0.18037277 0.48985863
-0.13096285 -0.17976683 0.49028507
-0.12911397 -0.17874408 0.48987153
-0.12792218 -0.17813927 0.49029717
-0.12673044 -0.17753446 0.49072281
-0.12489033 -0.17651618 0.49030599
-0.1237008 -0.1759125 0.49073085
-0.12251124 -0.17530882 0.49115571
-0.12068006 -0.17429507 0.49073577
-0.11949274 -0.17369251 0.49115983
-0.11830541 -0.17308994 0.49158391
-0.11711806 -0.17248736 0.49200797
-0.11529797 -0.17147925 0.49158409
-0.11411285 -0.1708778 0.49200737
-0.11229938 -0.16987306 0.49158111
-0.1111165 -0.16927275 0.49200359
-0.10930967 -0.16827138 0.49157497
-0.10812896 -0.16767219 0.49199665
-0.10632879 -0.16667414 0.49156561
-0.10453308 -0.16567838 0.491133
-0.10335678 -0.16508144 0.4915531
-0.10156772 -0.16408904 0.49111816
-0.10039365 -0.16349323 0.49153748
-0.09921962 -0.16289741 0.4919568
-0.097439408 -0.16190954 0.49151865
-0.096267581 -0.16131485 0.49193719
-0.095095754 -0.16072014 0.49235573
-0.093923897 -0.16012545 0.49277425
-0.092154741 -0.15914315 0.49233213
-0.090985119 -0.15854958 0.49274987
-0.089815497 -0.157956 0.49316761
-0.088055193 -0.15697822 0.49272236
-0.086887836 -0.15638578 0.4931393
-0.08572042 -0.15579334 0.49355623
-0.084553003 -0.1552009 0.4939732
-0.082803786 -0.15422873 0.49352399
-0.081638634 -0.15363742 0.49394014
-0.079896033 -0.15266864 0.49348858
-0.078733087 -0.15207843 0.49390393
-0.077570081 -0.15148823 0.49431929
-0.076407135 -0.15089804 0.49473467
-0.075244188 -0.15030785 0.49515003
-0.074081182 -0.14971764 0.49556538
-0.072918236 -0.14912745 0.49598077
-0.071193397 -0.14816767 0.49552289
-0.070032626 -0.1475786 0.49593744
-0.068871856 -0.14698952 0.49635202
-0.067711115 -0.14640045 0.4967666
-0.065997303 -0.14544626 0.49630466
-0.064838767 -0.14485832 0.49671844
-0.06313163 -0.14390752 0.49625424
-0.06197533 -0.14332068 0.49666721
-0.060274839 -0.14237328 0.49620059
-0.059120744 -0.14178757 0.49661279
-0.0574269 -0.14084353 0.49614382
-0.055737495 -0.13990173 0.49567324
-0.054587811 -0.13931829 0.49608386
-0.052905023 -0.13837984 0.49561089
-0.051226735 -0.13744366 0.49513632
-0.050081462 -0.13686246 0.49554539
-0.04840976 -0.13592964 0.49506849
-0.047266722 -0.13534956 0.49547675
-0.045601726 -0.13442013 0.49499744
-0.043941081 -0.13349295 0.49451655
-0.042802483 -0.13291511 0.4949232
-0.041663885 -0.13233727 0.49532989
-0.040525258 -0.13175943 0.49573654
-0.038875759 -0.13083786 0.49525172
-0.037739366 -0.13026115 0.49565759
-0.036096483 -0.12934299 0.49517041
-0.034458011 -0.12842701 0.49468166
-0.03332606 -0.12785256 0.49508592
-0.032194078 -0.1272781 0.49549022
-0.030564517 -0.12636666 0.49499831
-0.028939337 -0.12545744 0.49450472
-0.027811795 -0.12488523 0.49490744
-0.026193276 -0.12397942 0.49441156
-0.024579197 -0.12307584 0.49391407
-0.022969514 -0.1221745 0.49341506
-0.021848634 -0.12160566 0.49381539
-0.020245612 -0.12070769 0.49331388
-0.019126937 -0.12013996 0.49371344
0.098660357 -0.057408422 0.49819347
0.099175826 -0.057315707 0.50052553
0.099700153 -0.057218499 0.50286078
0.10049175 -0.056901194 0.50421745
0.10154396 -0.056367211 0.50459325
0.10285015 -0.055619903 0.50398576
0.10390014 -0.055087037 0.5043608
0.10495014 -0.054554172 0.50473583
0.10600013 -0.054021306 0.50511086
0.10705013 -0.053488448 0.50548589
0.10834303 -0.052747868 0.50487363
0.10939081 -0.05221612 0.50524789
0.11043859 -0.05168438 0.50562215
0.11148637 -0.051152639 0.50599635
0.11253415 -0.050620899 0.50637054
0.11381374 -0.049887076 0.50575364
0.11485931 -0.049356461 0.50612706
0.11590488 -0.04882583 0.50650048
0.11695044 -0.048295215 0.50687391
0.11821897 -0.04756701 0.506253
0.11926232 -0.047037527 0.50662565
0.12030567 -0.046508029 0.5069983
0.12156533 -0.045784324 0.50637424
0.12260646 -0.045255952 0.50674605
0.12385949 -0.044535615 0.50611961
0.12489841 -0.044008374 0.50649071
0.12614477 -0.043291397 0.50586188
0.12718147 -0.042765282 0.50623214
0.1284212 -0.042051688 0.50560093
0.12945569 -0.04152669 0.50597048
0.13068879 -0.040816486 0.50533688
0.13172105 -0.040292606 0.5057056
0.13275334 -0.039768741 0.50607425
0.13397755 -0.039063007 0.50543755
0.1350076 -0.038540259 0.50580549
0.13603768 -0.038017511 0.50617337
0.13706774 -0.037494764 0.50654125
0.13809779 -0.036972016 0.50690913
0.13912785 -0.036449268 0.50727701
0.14033657 -0.035751417 0.50663471
0.14136441 -0.035229795 0.50700188
0.14239225 -0.034708172 0.50736892
0.1434201 -0.034186542 0.50773609
0.14461774 -0.033494316 0.50708985
0.14564335 -0.032973818 0.50745618
0.14666899 -0.032453321 0.50782251
0.14785776 -0.031765588 0.50717306
0.14888117 -0.031246215 0.50753862
0.14990458 -0.030726835 0.50790417
0.15108451 -0.030043602 0.50725162
0.15210572 -0.029525355 0.50761628
0.15327898 -0.028845482 0.50696141
0.15429796 -0.028328352 0.50732529
0.15531695 -0.027811229 0.50768924
0.15648136 -0.027135856 0.5070312
0.15749812 -0.026619852 0.50739431
0.15851489 -0.026103854 0.50775748
0.15953165 -0.025587849 0.50812066
0.160685 -0.024918109 0.50745863
0.16169956 -0.024403229 0.50782096
0.16271411 -0.023888357 0.50818336
0.16372865 -0.023373477 0.5085457
0.16487092 -0.022709347 0.50787961
0.16588324 -0.022195593 0.50824124
0.16689558 -0.021681838 0.5086028
0.16790792 -0.021168083 0.50896436
0.16903912 -0.020509571 0.50829446
0.17004924 -0.019996941 0.50865519
0.17105937 -0.019484311 0.50901598
0.17206949 -0.018971682 0.50937676
0.17307961 -0.018459052 0.50973749
0.17408973 -0.017946422 0.51009834
0.17520539 -0.017295793 0.50942278
0.17621331 -0.016784284 0.50978279
0.17722121 -0.01627278 0.51014274
0.17822912 -0.015761275 0.5105027
0.17933372 -0.015116259 0.50982332
0.18033941 -0.01460588 0.5101825
0.18143737 -0.013964236 0.50950062
0.18244085 -0.013454981 0.50985909
0.18344432 -0.012945719 0.51021743
0.18453342 -0.012308568 0.50953245
0.18553467 -0.011800431 0.50989008
0.18653594 -0.011292294 0.51024771
0.18761617 -0.010659654 0.50955957
0.18861522 -0.010152649 0.50991642
0.18961427 -0.0096456446 0.51027322
0.19068564 -0.0090174936 0.50958192
0.19168247 -0.0085115992 0.50993788
0.19267932 -0.0080057196 0.51029396
0.19367614 -0.0074998327 0.51064998
0.19473644 -0.0068772957 0.50995469
0.19573106 -0.0063725337 0.51030993
0.19672567 -0.0058677793 0.51066518
0.19772029 -0.0053630173 0.51102042
0.1987149 -0.0048582554 0.51137567
0.19970952 -0.0043534935 0.51173091
0.20070413 -0.0038487315 0.51208615
0.2017467 -0.0032351986 0.51138449
0.2027391 -0.0027315617 0.51173896
0.20377503 -0.0021213889 0.51103497
0.20476523 -0.0016188771 0.51138866
0.20575541 -0.0011163652 0.51174229
0.20678248 -0.00051070005 0.51103514
0.20777045 -9.3057752e-06 0.511388
0.20875843 0.0004920736 0.51174086
0.20977664 0.0010932498 0.51103055
0.21076238 0.0015935078 0.51138264
0.21177395 0.0021913201 0.51066995
0.2127575 0.0026904568 0.51102126
0.21374102 0.0031895936 0.51137257
0.21472459 0.0036887378 0.51172388
0.21572506 0.0042809136 0.51100719
0.2167064 0.0047789328 0.51135767
0.21768771 0.0052769445 0.51170814
0.21867934 0.0058646351 0.51098835
0.21965843 0.0063615218 0.51133811
0.22063756 0.0068584159 0.51168776
0.22162032 0.0074415952 0.51096475
0.22259723 0.0079373643 0.51131368
0.2235741 0.0084331259 0.5116626
0.22455101 0.0089289024 0.51201153
0.22552271 0.009506464 0.51128459
0.22649737 0.010001101 0.51163268
0.22747207 0.010495748 0.51198083
0.22844674 0.010990389 0.51232898
0.22942142 0.011485033 0.51267707
0.23037982 0.012055859 0.51194537
0.23135228 0.012549378 0.51229274
0.23232473 0.01304289 0.51264
0.23327428 0.013609212 0.51190519
0.23424453 0.014101606 0.51225173
0.2352148 0.014594004 0.51259828
0.23618504 0.015086398 0.51294482
0.23715529 0.015578791 0.51329136
0.23809154 0.016138371 0.51255178
0.23905957 0.016629636 0.51289749
0.24002761 0.017120913 0.5132432
0.24099563 0.017612174 0.51358902
0.24192081 0.018166142 0.51284552
0.24288662 0.018656285 0.51319039
0.24385245 0.019146437 0.51353538
0.24481826 0.019636581 0.51388037
0.24573237 0.020184916 0.51313281
0.24669597 0.020673934 0.51347697
0.24765956 0.021162953 0.51382113
0.24862316 0.021651972 0.51416528
0.24952619 0.022194695 0.51341391
0.25048757 0.022682596 0.51375723
0.25144896 0.02317049 0.51410061
0.25241035 0.023658391 0.51444399
0.25337172 0.024146285 0.51478732
0.25433314 0.024634186 0.51513076
0.25522065 0.025169022 0.51437378
0.25617981 0.025655799 0.51471627
0.25706071 0.026187263 0.5139569
0.25801766 0.026672922 0.51429874
0.25897461 0.027158566 0.51464057
0.25984663 0.02768554 0.51387799
0.26080137 0.028170073 0.51421899
0.26175609 0.028654592 0.51455998
0.26271084 0.029139118 0.51490098
0.2635718 0.029660473 0.51413453
0.26452431 0.030143874 0.51447475
0.26547682 0.030627275 0.51481491
0.26642936 0.031110676 0.51515508
0.26738191 0.031594075 0.5154953
0.26833442 0.032077476 0.51583552
0.26917982 0.032590959 0.51506352
0.27013016 0.033073235 0.51540291
0.27108046 0.033555511 0.5157423
0.27203077 0.034037795 0.51608175
0.27286512 0.03454566 0.51530576
0.27381322 0.035026811 0.51564443
0.27464092 0.035531305 0.51486605
0.27558681 0.036011338 0.51520383
0.27653271 0.036491364 0.51554167
0.27747858 0.03697139 0.51587951
0.27829522 0.037470266 0.51509726
0.27923888 0.037949167 0.51543427
0.28018254 0.038428068 0.51577139
0.2809903 0.038922444 0.51498592
0.28193176 0.039400227 0.51532209
0.28287321 0.039878003 0.51565838
0.28381467 0.040355787 0.51599467
0.28475612 0.040833563 0.51633084
0.28555059 0.041321192 0.51554066
0.28648984 0.041797858 0.51587611
-0.17502576 -0.2017253 0.48951465
-0.17380077 -0.20110363 0.48995215
-0.17186004 -0.20003715 0.48957148
-0.17063725 -0.19941661 0.49000821
-0.16870314 -0.19835345 0.48962507
-0.16677344 -0.19729261 0.4892405
-0.16555512 -0.1966743 0.48967561
-0.16363209 -0.19561681 0.4892886
-0.16241598 -0.19499964 0.48972297
-0.1604996 -0.19394553 0.48933357
-0.15858769 -0.19289365 0.48894259
-0.15737593 -0.19227871 0.48937535
-0.15547061 -0.19123019 0.48898202
-0.15426114 -0.19061641 0.48941401
-0.15236253 -0.18957128 0.48901826
-0.15115523 -0.18895857 0.48944947
-0.14926323 -0.18791685 0.48905137
-0.14737564 -0.18687734 0.48865166
-0.14617282 -0.1862669 0.48908129
-0.14429188 -0.18523079 0.48867929
-0.14309126 -0.18462148 0.48910812
-0.14121693 -0.1835887 0.48870364
-0.14001852 -0.18298052 0.48913166
-0.13882011 -0.18237232 0.48955968
-0.13695469 -0.18134408 0.48915207
-0.13575849 -0.180737 0.48957932
-0.13456231 -0.18012995 0.49000654
-0.13270575 -0.17910621 0.4895958
-0.13151175 -0.17850026 0.49002224
-0.12966183 -0.17747986 0.48960918
-0.12847006 -0.17687505 0.49003482
-0.12727833 -0.17627025 0.49046049
-0.1254372 -0.17525432 0.49004412
-0.12424767 -0.17465061 0.49046898
-0.12305811 -0.17404693 0.49089384
-0.12122592 -0.17303555 0.49047437
-0.12003857 -0.17243297 0.49089846
-0.11885124 -0.17183042 0.49132252
-0.11766392 -0.17122786 0.4917466
-0.11647657 -0.17062528 0.49217066
-0.11465767 -0.16962062 0.49174649
-0.11347252 -0.16901918 0.49216977
-0.1116603 -0.16801792 0.49174318
-0.10985249 -0.16701889 0.49131504
-0.10867178 -0.1664197 0.49173674
-0.10687056 -0.16542402 0.49130619
-0.10569209 -0.16482595 0.49172708
-0.10389757 -0.16383366 0.49129418
-0.10272127 -0.16323672 0.4917143
-0.1009334 -0.16224782 0.49127904
-0.09975937 -0.161652 0.49169835
-0.098585308 -0.16105618 0.49211767
-0.097411275 -0.16046037 0.49253699
-0.09563446 -0.15947706 0.49209777
-0.094462633 -0.15888236 0.49251631
-0.093290806 -0.15828767 0.49293482
-0.091522813 -0.15730885 0.49249241
-0.090353191 -0.15671527 0.49291012
-0.088591874 -0.15573984 0.49246535
-0.087424517 -0.1551474 0.49288231
-0.0862571 -0.15455496 0.49329928
-0.085089684 -0.15396252 0.49371621
-0.083339453 -0.15299274 0.49326751
-0.082174271 -0.1524014 0.49368367
-0.08100909 -0.15181009 0.49409983
-0.07926771 -0.15084477 0.4936479
-0.078104734 -0.15025456 0.49406329
-0.076941758 -0.14966436 0.49447867
-0.075778812 -0.14907417 0.49489403
-0.074615836 -0.14848396 0.49530938
-0.072887778 -0.14752543 0.49485278
-0.071727008 -0.14693636 0.49526736
-0.070566237 -0.14634728 0.49568191
-0.069405496 -0.14575821 0.49609649
-0.068244755 -0.14516914 0.49651107
-0.06652993 -0.14421728 0.49604961
-0.065371394 -0.14362934 0.49646342
-0.063663244 -0.14268088 0.49599966
-0.062506914 -0.14209405 0.49641266
-0.06080541 -0.141149 0.49594653
-0.059651315 -0.14056329 0.49635872
-0.05849719 -0.1399776 0.49677092
-0.056804538 -0.139037 0.49630165
-0.055116355 -0.13809872 0.49583077
-0.053966671 -0.13751525 0.49624139
-0.052285075 -0.13658026 0.4957681
-0.050607949 -0.13564757 0.49529326
-0.049462706 -0.13506636 0.4957023
-0.047792226 -0.13413702 0.4952251
-0.046649188 -0.13355695 0.49563336
-0.044985354 -0.13263099 0.49515375
-0.043844521 -0.13205205 0.49556121
-0.042187333 -0.13112944 0.49507922
-0.041048706 -0.13055161 0.4954859
-0.039910108 -0.12997377 0.49589255
-0.038261771 -0.12905568 0.49540743
-0.036617875 -0.12813985 0.49492076
-0.035483718 -0.12756427 0.49532583
-0.033846438 -0.12665179 0.49483675
-0.032714486 -0.12607734 0.49524105
-0.031083882 -0.12516823 0.49474961
-0.029457688 -0.12426138 0.49425653
-0.028330147 -0.12368916 0.49465922
-0.0267106 -0.12278569 0.49416384
-0.025095508 -0.12188447 0.49366686
-0.023484811 -0.12098548 0.49316829
-0.022363931 -0.12041664 0.49356863
-0.021243051 -0.1198478 0.49396896
-0.019641206 -0.11895332 0.49346718
-0.018043846 -0.11806107 0.49296388
0.098181725 -0.056303993 0.49796429
0.098959014 -0.055991098 0.49931574
0.099479094 -0.055890314 0.5016492
0.10000803 -0.055785015 0.50398582
0.10106024 -0.055251032 0.50436163
0.10211246 -0.054717042 0.50473744
0.10341743 -0.053973205 0.50412965
0.10446743 -0.05344034 0.50450468
0.10551742 -0.052907474 0.50487971
0.10656742 -0.052374616 0.50525475
0.10761742 -0.051841751 0.50562978
0.10866741 -0.051308885 0.50600475
0.10971741 -0.05077602 0.50637978
0.11100468 -0.050041161 0.50576568
0.11205246 -0.049509421 0.50613987
0.11310025 -0.048977681 0.50651413
0.11414802 -0.04844594 0.50688839
0.1151958 -0.0479142 0.50726259
0.11646977 -0.047186092 0.50664377
0.11751533 -0.046655476 0.5070172
0.11878267 -0.045930743 0.50639594
0.11982602 -0.045401245 0.50676858
0.12086937 -0.044871747 0.50714123
0.12212784 -0.044151522 0.50651693
0.12316898 -0.043623157 0.50688875
0.12442079 -0.042906284 0.506262
0.12545972 -0.042379037 0.50663304
0.12670489 -0.041665554 0.50600398
0.12794563 -0.040954314 0.50537324
0.12898012 -0.040429316 0.50574267
