# .PCD v0.7 - Point Cloud Data file format
VERSION 0.7
FIELDS x y z
SIZE 4 4 4
TYPE F F F
COUNT 1 1 1
WIDTH 1328
HEIGHT 1
VIEWPOINT 0 0 0 1 0 0 0
POINTS 1328
DATA ascii
0.066311359 -0.026465334 0.41930291
0.06721738 -0.026005536 0.4196265
0.068502635 -0.025372043 0.41901603
0.06940642 -0.024913386 0.41933882
0.07031022 -0.024454713 0.41966161
0.071214005 -0.02399604 0.41998443
0.072488174 -0.023368165 0.41937
0.073389754 -0.022910617 0.41969201
0.074291334 -0.022453077 0.42001399
0.075192913 -0.02199553 0.42033601
0.076094493 -0.021537989 0.42065802
0.076996073 -0.021080442 0.42098004
0.07825473 -0.020460449 0.42036006
0.079154104 -0.020004027 0.4206813
0.080053464 -0.019547604 0.42100251
0.080952823 -0.019091181 0.42132372
0.081852198 -0.018634766 0.42164493
0.083097577 -0.018021502 0.42102024
0.083994716 -0.017566212 0.42134067
0.084891871 -0.017110914 0.42166111
0.085789025 -0.016655616 0.42198154
0.087023318 -0.016047977 0.42135283
0.087918252 -0.015593804 0.42167246
0.088813186 -0.015139632 0.42199209
0.089377612 -0.014834434 0.42326322
0.090274766 -0.014379136 0.42358366
0.091171905 -0.013923839 0.42390409
0.09206906 -0.013468541 0.42422453
0.092966214 -0.013013244 0.42454493
0.093543917 -0.012701303 0.42582077
0.094126076 -0.012387097 0.42709818
0.09502764 -0.011929557 0.4274202
0.095616445 -0.011611987 0.4287
0.09620966 -0.011292167 0.42998138
0.096807331 -0.010970101 0.43126437
0.097103268 -0.010782391 0.43350908
0.097408071 -0.010590177 0.43575698
0.097721756 -0.010393478 0.43800798
0.098044276 -0.010192275 0.4402622
0.09807837 -0.010118686 0.44348297
0.098420851 -0.0099073574 0.44574428
0.098186478 -0.0099512562 0.44993857
0.097969815 -0.0099861622 0.45413923
0.097770885 -0.010012072 0.45834622
0.097589687 -0.010028988 0.46255952
0.097426206 -0.010036916 0.46677917
0.097280428 -0.010035843 0.47100517
0.096872836 -0.01014889 0.47620714
0.096764743 -0.010128703 0.48044658
0.096674338 -0.01009953 0.48469231
0.096601695 -0.010061361 0.48894438
0.096817434 -0.0098955855 0.49222997
0.096778005 -0.0098405518 0.49649394
0.097288817 -0.0095437989 0.49881539
0.027713448 -0.044578217 0.42043796
0.029110476 -0.043890864 0.41986755
0.030045286 -0.043416463 0.42020142
0.030980095 -0.042942055 0.4205353
0.031914905 -0.042467646 0.42086917
0.033300847 -0.041785926 0.42029482
0.034233436 -0.041312642 0.42062789
0.035166025 -0.040839352 0.42096099
0.036098614 -0.040366076 0.42129406
0.0374735 -0.039689958 0.42071569
0.038403884 -0.0392178 0.42104799
0.039334252 -0.038745642 0.42138028
0.040700257 -0.038074017 0.42079881
0.04162842 -0.037602991 0.42113033
0.042987794 -0.036934748 0.42054641
0.043913752 -0.03646484 0.42087713
0.045266464 -0.035799965 0.42029092
0.046614766 -0.035137348 0.41970304
0.047536284 -0.03466969 0.42003217
0.048877925 -0.03401044 0.419442
0.049797222 -0.0335439 0.41977033
0.051132217 -0.032888025 0.41917777
0.052049294 -0.032422617 0.4195053
0.052966386 -0.031957194 0.41983286
0.05429253 -0.03130582 0.41923711
0.055207402 -0.030841529 0.41956386
0.056526899 -0.030193523 0.41896576
0.057439551 -0.029730357 0.4192917
0.058352202 -0.029267192 0.41961768
0.059662849 -0.028623685 0.41901639
0.06057328 -0.028161645 0.41934156
0.061483726 -0.027699597 0.41966674
0.062785491 -0.027060591 0.41906229
0.063693717 -0.026599675 0.41938668
0.064601943 -0.02613876 0.41971105
0.065510169 -0.025677845 0.42003545
0.066800863 -0.025044441 0.41942704
0.067706868 -0.024584651 0.41975063
0.068612874 -0.024124861 0.42007422
0.069894716 -0.023495972 0.41946265
0.070798516 -0.0230373 0.41978547
0.071702316 -0.022578627 0.42010826
0.072606102 -0.022119954 0.42043105
0.073876858 -0.021496676 0.41981554
0.074778438 -0.021039128 0.42013755
0.075680017 -0.020581588 0.42045954
0.076581597 -0.020124041 0.42078155
0.077483177 -0.019666493 0.42110357
0.078384757 -0.019208953 0.42142558
0.079286337 -0.018751405 0.4217476
0.080539361 -0.018137135 0.42112574
0.081438735 -0.017680719 0.42144695
0.082338095 -0.017224297 0.42176816
0.083582282 -0.016614519 0.42114317
0.084479436 -0.016159222 0.42146361
0.085376576 -0.015703924 0.42178404
0.08627373 -0.015248626 0.42210445
0.087170869 -0.014793329 0.42242488
0.088068023 -0.014338039 0.42274532
0.088965178 -0.013882741 0.42306575
0.089862317 -0.013427444 0.42338616
0.090759471 -0.012972146 0.42370659
0.091656625 -0.012516849 0.42402703
0.092553765 -0.012061551 0.42434743
0.093130454 -0.011747256 0.42562276
0.094029814 -0.011290833 0.425944
0.094613165 -0.010973155 0.42722172
0.095514745 -0.010515608 0.42754373
0.096104741 -0.010194574 0.42882383
0.0963898 -0.010006666 0.43106443
0.096990868 -0.0096799955 0.43234849
0.09729141 -0.0094842054 0.4345946
0.097600833 -0.0092839226 0.4368439
0.097919106 -0.0090791434 0.43909636
0.09794794 -0.0089996308 0.44231477
0.097990081 -0.0089133605 0.44553798
0.097751632 -0.0089478567 0.44973034
0.097530901 -0.0089733675 0.45392907
0.097327888 -0.0089898817 0.45813411
0.097429842 -0.0088732541 0.46137866
0.097260058 -0.0088729113 0.4655956
0.096825212 -0.0089854524 0.4707872
0.096693099 -0.0089659877 0.47501755
0.096578717 -0.0089375265 0.47925422
0.096758187 -0.0087815598 0.48252651
0.096403092 -0.0088536292 0.4877466
0.096613586 -0.0086819343 0.49102989
0.096837357 -0.0085034817 0.49431798
0.096807137 -0.0084323063 0.49858475
0.028680727 -0.042899221 0.41966176
0.029615521 -0.04242482 0.41999564
0.030550331 -0.041950412 0.42032951
0.03148514 -0.041476004 0.42066339
0.03241995 -0.041001596 0.42099726
0.033354759 -0.040527187 0.42133114
0.034737289 -0.039850064 0.42075568
0.035669893 -0.039376773 0.42108878
0.037045777 -0.038703009 0.42051089
0.037976161 -0.038230851 0.42084318
0.038906544 -0.037758693 0.42117548
0.040273562 -0.037089422 0.42059448
0.041201726 -0.036618397 0.420926
0.042562127 -0.035952501 0.42034259
0.043488055 -0.035482593 0.42067328
0.044841796 -0.034820072 0.42008755
0.045765519 -0.034351289 0.42041749
0.047112644 -0.033692136 0.41982931
0.048455298 -0.033035249 0.41923964
0.049374595 -0.032568708 0.41956797
0.050293893 -0.032102168 0.4198963
0.051627696 -0.03144978 0.41930342
0.052544788 -0.030984357 0.41963097
0.053871945 -0.030335322 0.4190357
0.054786816 -0.029871032 0.41936246
0.056107327 -0.029225372 0.41876483
0.057019979 -0.028762206 0.41909081
0.05793263 -0.028299041 0.41941676
0.05924429 -0.027657881 0.41881597
0.060154736 -0.027195841 0.41914114
0.061065167 -0.026733793 0.41946632
0.062367961 -0.026097141 0.41886237
0.063276187 -0.025636226 0.41918674
0.064184412 -0.025175311 0.41951114
0.065092638 -0.024714395 0.41983551
0.066384345 -0.024083346 0.4192276
0.067290351 -0.023623556 0.41955119
0.068196356 -0.023163766 0.41987479
0.069102377 -0.022703968 0.42019838
0.070383012 -0.022078544 0.41958651
0.071286812 -0.021619871 0.4199093
0.072190613 -0.021161214 0.42023209
0.073094398 -0.020702541 0.42055491
0.074363962 -0.020082735 0.41993907
0.075265542 -0.019625187 0.42026109
0.076167122 -0.019167647 0.4205831
0.077068686 -0.018710107 0.42090508
0.077970281 -0.018252559 0.4212271
0.078871846 -0.017795011 0.42154911
0.079773426 -0.017337471 0.42187113
0.081025273 -0.016726673 0.42124897
0.081924632 -0.01627025 0.42157018
0.082823992 -0.015813828 0.42189139
0.083723366 -0.015357412 0.42221263
0.084964141 -0.014752224 0.42158654
0.085861281 -0.014296927 0.42190698
0.086758435 -0.013841629 0.42222738
0.087655574 -0.013386339 0.42254782
0.088552728 -0.012931041 0.42286825
0.089449883 -0.012475744 0.42318866
0.090347022 -0.012020446 0.42350909
0.091244176 -0.011565149 0.42382953
0.09214133 -0.011109851 0.42414996
0.092716992 -0.010793209 0.42542478
0.093616366 -0.010336787 0.42574599
0.094515726 -0.0098803639 0.42606723
0.095100269 -0.0095592141 0.42734528
0.096001849 -0.0091016665 0.42766726
0.096282646 -0.0089101866 0.4299061
0.096880481 -0.008582294 0.43118888
0.09717679 -0.0083829314 0.43343323
0.097481936 -0.0081790872 0.43568075
0.097795978 -0.0079707205 0.43793139
0.097819537 -0.007885281 0.44114766
0.097856402 -0.0077930838 0.44436857
0.097611666 -0.0078193098 0.44855821
0.097384661 -0.007836543 0.45275414
0.09717536 -0.0078447722 0.45695645
0.09698379 -0.007844016 0.4611651
0.096809939 -0.0078342706 0.46538004
0.096653819 -0.0078155249 0.4696013
0.096515402 -0.0077877752 0.47382894
0.096394718 -0.0077510476 0.4780629
0.096568927 -0.0075891614 0.48133287
0.096684486 -0.0073590577 0.48885894
0.096900761 -0.0071758106 0.49214399
0.097130343 -0.0069858134 0.49543378
0.097373217 -0.0067890733 0.49872831
0.028250962 -0.041907579 0.41945598
0.029185772 -0.041433178 0.41978985
0.030120581 -0.04095877 0.42012373
0.031055391 -0.040484361 0.4204576
0.0319902 -0.040009953 0.42079148
0.033375964 -0.039334036 0.42021731
0.034308553 -0.038860761 0.42055038
0.035241157 -0.03838747 0.42088348
0.036173731 -0.037914194 0.42121655
0.037548453 -0.03724391 0.42063838
0.038478822 -0.036771752 0.42097068
0.03940919 -0.036299594 0.42130294
0.040775031 -0.035633802 0.42072168
0.041703194 -0.035162762 0.42105317
0.043062389 -0.034500346 0.42046946
0.043988332 -0.03403043 0.42080018
0.045340866 -0.033371389 0.42021412
0.046689004 -0.03271459 0.41962644
0.047610506 -0.032246925 0.41995558
0.048951969 -0.031593509 0.41936558
0.049871281 -0.031126969 0.41969395
0.051206082 -0.030476928 0.41910154
0.052123174 -0.030011505 0.41942909
0.053451359 -0.029364824 0.41883433
0.054366231 -0.028900534 0.41916108
0.055281103 -0.028436244 0.41948783
0.056600407 -0.027794063 0.41888991
0.057513058 -0.027330898 0.41921586
0.058425725 -0.026867732 0.41954184
0.059736177 -0.026230052 0.41894072
0.060646623 -0.025768004 0.4192659
0.061557069 -0.025305964 0.41959107
0.062858641 -0.024672776 0.41898683
0.063766867 -0.024211861 0.4193112
0.064675093 -0.023750946 0.41963556
0.065583318 -0.023290023 0.41995996
0.066491544 -0.022829108 0.42028433
0.067779854 -0.022202671 0.41967532
0.068685859 -0.021742873 0.41999891
0.069967523 -0.021119803 0.41938755
0.070871323 -0.020661131 0.41971034
0.071775109 -0.020202473 0.42003313
0.072678909 -0.0197438 0.42035595
0.073582694 -0.019285128 0.42067873
0.074486494 -0.01882647 0.42100152
0.075752631 -0.018211246 0.42038462
0.076654211 -0.017753705 0.42070663
0.077555791 -0.017296158 0.42102864
0.07845737 -0.01683861 0.42135063
0.07935895 -0.01638107 0.42167264
0.08026053 -0.015923522 0.42199466
0.08116211 -0.015465975 0.42231667
0.082410529 -0.014859781 0.42169341
0.083309904 -0.014403366 0.42201462
0.084209263 -0.013946943 0.42233586
0.085448846 -0.013345234 0.42170948
0.086346 -0.012889937 0.42202988
0.08724314 -0.012434646 0.42235032
0.088140294 -0.011979349 0.42267075
0.089037433 -0.011524051 0.42299119
0.089934587 -0.011068754 0.42331159
0.090831742 -0.010613456 0.42363203
0.091728881 -0.010158159 0.42395246
0.092626035 -0.0097028688 0.42427287
0.093523175 -0.0092475712 0.4245933
0.094102263 -0.0089263171 0.42586926
0.095001623 -0.008469902 0.42619047
0.095587373 -0.0081452653 0.42746881
0.096177548 -0.007818412 0.42874873
0.09646295 -0.0076188445 0.43098894
0.097064197 -0.0072863623 0.43227282
0.097365111 -0.007078927 0.43451858
0.097674876 -0.006866999 0.43676749
0.097693175 -0.0067756251 0.4399814
0.097724766 -0.0066775084 0.44320014
0.097473741 -0.0066954643 0.44738701
0.097240448 -0.0067044087 0.45158023
0.097024858 -0.0067043677 0.45577979
0.096827 -0.0066953376 0.45998564
0.09664686 -0.0066773072 0.46419787
0.096484452 -0.0066502877 0.46841642
0.096339747 -0.0066142753 0.47264129
0.096493185 -0.0064543337 0.47590351
0.096381724 -0.0064014532 0.48014027
0.096563935 -0.0062268972 0.48341271
0.096759453 -0.0060455948 0.48668998
0.096968263 -0.0058575347 0.48997197
0.096921042 -0.0057720542 0.49423164
0.097425744 -0.0054611973 0.49655017
0.027821213 -0.040915936 0.41925019
0.028756022 -0.040441528 0.41958407
0.029690832 -0.03996712 0.41991794
0.030625641 -0.039492711 0.42025182
0.032014638 -0.038818032 0.41967893
0.03249526 -0.038543895 0.42091957
0.033879817 -0.037871458 0.4203451
0.034812421 -0.037398182 0.42067817
0.035744995 -0.036924899 0.42101124
0.03712073 -0.036256962 0.42043355
0.038051099 -0.035784803 0.42076585
0.038981482 -0.035312645 0.42109814
0.040348321 -0.034649208 0.42051736
0.041276485 -0.034178168 0.42084885
0.042636707 -0.033518106 0.42026561
0.043562651 -0.03304819 0.42059633
0.044916198 -0.032391489 0.42001078
0.046265349 -0.031737044 0.41942361
0.047186866 -0.031269379 0.41975272
0.048529342 -0.03061831 0.41916323
0.049448639 -0.03015177 0.41949156
0.050784484 -0.029504076 0.41889966
0.051701576 -0.029038668 0.41922721
0.053030774 -0.028394341 0.41863292
0.053945646 -0.027930051 0.41895968
0.054860502 -0.027465761 0.41928643
0.056180835 -0.02682592 0.41868898
0.057093501 -0.026362754 0.41901496
0.058006138 -0.025899589 0.41934091
0.058918804 -0.025436424 0.41966689
0.06022808 -0.0248022 0.41906548
0.061138511 -0.02434016 0.41939065
0.062048942 -0.02387812 0.41971582
0.062959388 -0.02341608 0.42004099
0.064257562 -0.022787496 0.41943565
0.065165788 -0.022326574 0.41976002
0.066074014 -0.021865658 0.42008442
0.066982239 -0.021404743 0.42040879
0.068269342 -0.020781778 0.41979948
0.069175348 -0.02032198 0.42012307
0.070455819 -0.01970239 0.41951138
0.071359619 -0.019243717 0.41983417
0.07226342 -0.018785045 0.42015699
0.073167205 -0.018326387 0.42047977
0.07407099 -0.017867714 0.42080259
0.07497479 -0.017409042 0.42112538
0.07587859 -0.01695038 0.42144817
0.076782376 -0.016491707 0.42177099
0.078042895 -0.015882216 0.42115217
0.078944474 -0.015424676 0.42147419
0.079846054 -0.014967129 0.42179617
0.080747634 -0.014509588 0.42211819
0.081649214 -0.014052041 0.4224402
0.082896441 -0.013449319 0.42181665
0.083795801 -0.012992896 0.42213786
0.08469516 -0.012536474 0.4224591
0.085594535 -0.012080051 0.42278031
0.086493894 -0.011623636 0.42310151
0.087727845 -0.011027642 0.42247325
0.088624999 -0.010572344 0.42279369
0.089522138 -0.010117047 0.42311409
0.090419292 -0.009661749 0.42343453
0.091316447 -0.0092064515 0.42375496
0.092213586 -0.0087511614 0.42407537
0.09311074 -0.0082958639 0.4243958
0.094007879 -0.0078405663 0.42471623
0.094588161 -0.0075158551 0.42599246
0.095172882 -0.0071888715 0.42727032
0.096074462 -0.0067313313 0.42759234
0.096355617 -0.0065281987 0.42983079
0.096953645 -0.0061944798 0.43111339
0.097250298 -0.0059834793 0.43335736
0.097555816 -0.005767975 0.43560451
0.097870201 -0.0055479631 0.4378548
0.097894296 -0.0054450519 0.4410705
0.097337857 -0.0055763088 0.44621679
0.097098261 -0.0055769831 0.4504073
0.096876398 -0.0055686682 0.45460409
0.096672252 -0.0055513605 0.45880723
0.096773893 -0.0054090917 0.46205056
0.096602961 -0.0053749233 0.46626556
0.096166134 -0.0054454729 0.47145462
0.096314281 -0.0052796043 0.47471458
0.09647572 -0.0051069856 0.4779793
0.096650466 -0.0049276203 0.48124871
0.096838504 -0.0047415197 0.48452294
0.096767277 -0.0046567544 0.48877352
0.096984088 -0.0044560358 0.49205801
0.097214207 -0.0042485669 0.49534723
0.097457618 -0.0040343553 0.49864122
0.028326273 -0.039449885 0.41937825
0.029261082 -0.038975477 0.41971216
0.030195892 -0.038501069 0.42004603
0.031130686 -0.038026661 0.42037991
0.032065496 -0.037552252 0.42071378
0.033000305 -0.037077844 0.42104766
0.034383684 -0.036408894 0.42047286
0.035316259 -0.035935611 0.42080596
0.036248863 -0.035462327 0.42113903
0.037623391 -0.034797855 0.42056105
0.038553759 -0.034325697 0.42089334
0.039484143 -0.033853531 0.42122564
0.04084979 -0.033193573 0.42064452
0.041777939 -0.032722533 0.42097604
0.043136969 -0.032065935 0.42039248
0.044062912 -0.031596027 0.4207232
0.045415282 -0.030942813 0.42013735
0.046763226 -0.030291833 0.41954985
0.047684744 -0.029824175 0.41987899
0.049026027 -0.029176578 0.4192892
0.05036287 -0.028531224 0.41869777
0.051279962 -0.028065816 0.4190253
0.052610174 -0.027423829 0.41843152
0.053525046 -0.026959538 0.41875827
0.054439917 -0.026495248 0.41908503
0.055354789 -0.026030958 0.41941178
0.056673914 -0.025394604 0.41881403
0.057586581 -0.024931438 0.41914001
0.058499232 -0.024468273 0.41946596
0.059809521 -0.023836412 0.41886505
0.060719967 -0.023374364 0.41919023
0.061630398 -0.022912331 0.4195154
0.062540829 -0.022450291 0.41984057
0.063451275 -0.021988243 0.42016575
0.064748257 -0.021363132 0.4195601
0.065656483 -0.020902216 0.41988447
0.066564709 -0.020441301 0.42020884
0.067852825 -0.019820683 0.41960004
0.06875883 -0.019360885 0.41992363
0.069664851 -0.018901087 0.4202472
0.070944116 -0.018284976 0.41963524
0.071847916 -0.017826304 0.41995803
0.072751701 -0.017367631 0.42028081
0.073655501 -0.01690897 0.42060363
0.074559286 -0.016450297 0.42092642
0.075463086 -0.015991632 0.42124921
0.076366886 -0.015532959 0.42157203
0.077270672 -0.015074294 0.42189482
0.078529999 -0.014468275 0.42127571
0.079431579 -0.014010735 0.42159772
0.080333158 -0.013553187 0.42191973
0.081234738 -0.013095647 0.42224172
0.082136318 -0.012638099 0.42256373
0.083037883 -0.012180552 0.42288575
0.084281713 -0.011582427 0.42226109
0.085181072 -0.011126004 0.42258233
0.086080432 -0.010669582 0.42290354
0.086979806 -0.010213166 0.42322475
0.08821255 -0.0096206516 0.42259619
0.089109704 -0.0091653541 0.42291659
0.090006858 -0.0087100565 0.42323703
0.090903997 -0.008254759 0.42355746
0.091801152 -0.0077994689 0.42387789
0.092698291 -0.0073441714 0.4241983
0.093595445 -0.0068888739 0.42451873
0.094492584 -0.0064335763 0.42483917
0.095074072 -0.0061053783 0.42611572
0.095660001 -0.0057749301 0.42739385
0.096250355 -0.0054422505 0.4286736
0.096536115 -0.0052310377 0.43091345
0.097137541 -0.0048927218 0.43219715
0.097438797 -0.0046736412 0.43444252
0.097748935 -0.0044500679 0.43669108
0.09776777 -0.0043412149 0.43990445
0.097501948 -0.0043437406 0.44408509
0.097253844 -0.0043372735 0.44827205
0.097023487 -0.0043218061 0.4524653
0.096810833 -0.0042973422 0.45666492
0.096615896 -0.0042638928 0.46087086
0.096438676 -0.0042214468 0.46508312
0.096563846 -0.0040586405 0.4683345
0.096419871 -0.0039993301 0.47255862
0.09657383 -0.0038219094 0.4758203
0.09674108 -0.0036377497 0.47908667
0.096921623 -0.0034468397 0.48235786
0.097115457 -0.003249187 0.48563373
0.097051233 -0.0031494051 0.48988637
0.097273856 -0.0029371455 0.49317253
0.097509786 -0.0027181245 0.49646345
0.097758994 -0.0024923682 0.49975914
0.028831318 -0.037983835 0.41950634
0.029766127 -0.037509426 0.41984025
0.030700937 -0.037035018 0.42017412
0.031635746 -0.03656061 0.420508
0.033022344 -0.035892881 0.41993448
0.03350535 -0.035611793 0.42117575
0.034887522 -0.034946315 0.42060065
0.035820127 -0.034473032 0.42093375
0.036752701 -0.033999749 0.42126682
0.037685305 -0.033526465 0.42159992
0.03905642 -0.032866597 0.42102081
0.039986789 -0.032394439 0.4213531
0.041351244 -0.031737939 0.42077172
0.042279407 -0.031266913 0.42110321
0.043637231 -0.03061378 0.42051938
0.044990614 -0.02996292 0.419934
0.046339571 -0.029314287 0.41934702
0.047261089 -0.028846629 0.41967613
0.048603401 -0.028201379 0.41908681
0.049522698 -0.027734846 0.41941515
0.050858349 -0.027092963 0.41882342
0.051775441 -0.026627555 0.41915098
0.05310446 -0.025989056 0.41855687
0.054019332 -0.025524765 0.41888365
0.054934204 -0.025060475 0.4192104
0.055849075 -0.024596184 0.41953716
0.057167009 -0.023963295 0.41893908
0.05807966 -0.02350013 0.41926506
0.058992326 -0.023036964 0.41959104
0.060301408 -0.022408575 0.41898981
0.061211854 -0.021946535 0.41931498
0.062122285 -0.021484494 0.41964015
0.063032731 -0.021022446 0.41996533
0.063943163 -0.020560406 0.4202905
0.065238953 -0.019938767 0.41968453
0.066147178 -0.019477859 0.42000893
0.067055404 -0.019016936 0.4203333
0.068342313 -0.018399782 0.41972417
0.069248334 -0.017939992 0.42004776
0.070528626 -0.017326221 0.41943628
0.071432412 -0.016867552 0.41975906
0.072336212 -0.016408887 0.42008185
0.073239997 -0.015950214 0.42040467
0.074143797 -0.015491549 0.42072746
0.075047582 -0.015032884 0.42105025
0.075951383 -0.014574211 0.42137307
0.076855183 -0.014115546 0.42169586
0.077758968 -0.013656873 0.42201865
0.079017103 -0.013054334 0.42139924
0.079918683 -0.012596786 0.42172125
0.080820248 -0.012139246 0.42204326
0.081721827 -0.011681698 0.42236528
0.082623407 -0.011224158 0.42268726
0.083524987 -0.010766611 0.42300928
0.08476761 -0.010171957 0.42238432
0.085666984 -0.0097155347 0.42270556
0.086566344 -0.0092591196 0.42302677
0.087465703 -0.0088026971 0.42334798
0.088697255 -0.0082136616 0.42271912
0.089594409 -0.0077583641 0.42303953
0.090491563 -0.0073030666 0.42335996
0.091388702 -0.006847769 0.42368039
0.092285857 -0.0063924715 0.4240008
0.093182996 -0.0059371814 0.42432123
0.09408015 -0.0054818839 0.42464167
0.09466061 -0.0051513314 0.42591771
0.09524551 -0.0048185363 0.4271954
0.095834851 -0.0044835024 0.42847463
0.096118569 -0.0042675957 0.4307135
0.096718982 -0.0039269254 0.43199673
0.097018212 -0.0037031509 0.43424115
0.097326308 -0.0034748688 0.43648872
0.097342089 -0.0033589676 0.43970063
0.097371146 -0.0032363459 0.44291735
0.097116768 -0.0032215938 0.44710153
0.096880108 -0.0031978451 0.45129204
0.096661165 -0.0031651184 0.45548892
0.096750051 -0.0030121282 0.45872697
0.096564323 -0.0029625259 0.46293569
0.096396342 -0.0029039383 0.46715078
0.096529514 -0.0027284622 0.47040462
0.096675992 -0.0025462471 0.47366324
0.096835762 -0.0023572743 0.47692657
0.097008824 -0.0021615662 0.48019472
0.097195163 -0.0019591153 0.48346755
0.097122431 -0.0018521845 0.48771665
0.097337589 -0.0016351156 0.49099976
0.097542018 -0.0012796372 0.49855414
0.028401569 -0.036992185 0.41930056
0.029336378 -0.036517777 0.41963443
0.030271173 -0.036043368 0.41996834
0.031205982 -0.03556896 0.42030221
0.032140791 -0.035094552 0.42063609
0.033075601 -0.034620151 0.42096996
0.03401041 -0.034145743 0.42130384
0.03494522 -0.033671334 0.42163771
0.036323965 -0.033010446 0.42106152
0.037256569 -0.032537162 0.42139462
0.038189158 -0.032063879 0.42172769
0.039559081 -0.03140749 0.4211483
0.040489465 -0.030935332 0.4214806
0.041852713 -0.030282319 0.42089888
0.042780876 -0.029811278 0.42123038
0.044137508 -0.029161625 0.42064625
0.045489684 -0.028514236 0.42006058
0.046837449 -0.027869083 0.41947326
0.047758967 -0.027401425 0.4198024
0.049100071 -0.026759647 0.41921279
0.05043675 -0.026120126 0.41862154
0.051353827 -0.025654718 0.4189491
0.052683875 -0.025018543 0.41835549
0.053598747 -0.024554253 0.41868225
0.054513618 -0.024089962 0.419009
0.055428475 -0.023625687 0.41933575
0.056343347 -0.023161396 0.41966251
0.057660088 -0.022531979 0.41906413
0.058572739 -0.022068813 0.41939011
0.059485406 -0.021605648 0.41971609
0.060793296 -0.020980738 0.41911456
0.061703727 -0.020518698 0.41943973
0.062614173 -0.02005665 0.41976491
0.063524619 -0.01959461 0.42009008
0.064821422 -0.018975317 0.41948462
0.065729633 -0.01851441 0.41980898
0.066637859 -0.018053487 0.42013335
0.067925811 -0.017438687 0.41952473
0.068831816 -0.016978897 0.41984832
0.070113122 -0.016367476 0.41923732
0.071016923 -0.015908804 0.4195601
0.071920708 -0.015450139 0.41988289
0.072824508 -0.014991473 0.42020571
0.073728293 -0.014532801 0.4205285
0.074632093 -0.014074136 0.42085129
0.075535893 -0.013615463 0.42117411
0.076439679 -0.013156798 0.4214969
0.077343479 -0.012698125 0.42181969
0.078602612 -0.01209794 0.42120078
0.079504192 -0.011640392 0.42152277
0.080405772 -0.011182845 0.42184478
0.081307352 -0.010725304 0.42216679
0.082208931 -0.010267757 0.42248881
0.083110511 -0.0098102167 0.42281082
0.084354147 -0.0092179105 0.42218634
0.085253522 -0.0087614879 0.42250755
0.086152881 -0.0083050728 0.42282879
0.087052241 -0.0078486502 0.42315
0.08828482 -0.0072619617 0.42252162
0.089181975 -0.0068066642 0.42284203
0.090079114 -0.0063513666 0.42316246
0.090976268 -0.0058960766 0.42348289
0.091873407 -0.005440779 0.42380333
0.092770562 -0.0049854815 0.42412373
0.093667716 -0.004530184 0.42444417
0.094247147 -0.0041972846 0.42571974
0.094831035 -0.0038621351 0.42699692
0.095419347 -0.0035247542 0.42827567
0.096012086 -0.0031851158 0.42955604
0.096609265 -0.0028432235 0.43083796
0.096904248 -0.002615869 0.43308061
0.097208083 -0.0023840182 0.43532643
0.097218588 -0.0022621974 0.43853611
0.0972424 -0.0021336377 0.4417505
0.096981719 -0.0021106191 0.44593197
0.09703432 -0.0019674376 0.44915667
0.096806869 -0.0019275546 0.45335001
0.09659715 -0.0018786751 0.45754966
0.096694052 -0.0017130077 0.46079022
0.096517548 -0.0016472787 0.46500176
0.096643254 -0.0014669932 0.46825254
0.096782237 -0.0012799725 0.47150812
0.096934512 -0.0010862015 0.47476843
0.097100079 -0.00088568777 0.47803351
0.097003356 -0.00077948719 0.48227355
0.09692432 -0.00066427886 0.48651984
0.097134203 -0.00044127554 0.48980075
0.097088411 -0.00030920655 0.49405894
0.097060323 -0.0001681447 0.49832347
0.027971804 -0.036000535 0.41909477
0.028906614 -0.035526127 0.41942865
0.029841423 -0.035051718 0.41976252
0.030776232 -0.03457731 0.42009643
0.031711042 -0.034102902 0.42043027
0.032645851 -0.033628501 0.42076418
0.033580661 -0.033154093 0.42109802
0.034515455 -0.032679684 0.42143193
0.035450265 -0.032205276 0.4217658
0.036385059 -0.031730875 0.42209968
0.037319869 -0.031256467 0.42243356
0.038693011 -0.0306013 0.42185548
0.040061742 -0.029948384 0.42127579
0.040992111 -0.029476225 0.42160809
0.042354167 -0.028826684 0.42102605
0.043711811 -0.028179377 0.4204424
0.044637769 -0.027709462 0.42077312
0.045988753 -0.027065545 0.42018715
0.047335327 -0.026423879 0.41959953
0.048677444 -0.025784448 0.4190104
0.049596742 -0.025317907 0.41933873
0.050932214 -0.024681866 0.41874722
0.051849306 -0.024216443 0.41907474
0.053178161 -0.02358377 0.41848084
0.054093033 -0.023119479 0.4188076
0.05500789 -0.022655189 0.41913435
0.055922762 -0.022190899 0.4194611
0.057240516 -0.021563835 0.41886324
0.058153182 -0.02110067 0.41918921
0.059065834 -0.020637505 0.41951516
0.059978485 -0.020174339 0.41984114
0.061285183 -0.019552894 0.41923931
0.062195629 -0.019090854 0.41956449
0.06310606 -0.018628813 0.41988966
0.064403877 -0.018011868 0.41928467
0.065312102 -0.01755096 0.41960904
0.066220328 -0.017090037 0.41993344
0.067509294 -0.016477592 0.41932529
0.068415299 -0.016017802 0.41964889
0.069697633 -0.015408728 0.41903836
0.070601419 -0.014950056 0.41936114
0.071505219 -0.01449139 0.41968393
0.072409004 -0.014032718 0.42000675
0.073312804 -0.013574053 0.42032954
0.074216604 -0.013115387 0.42065233
0.075120389 -0.012656715 0.42097515
0.07602419 -0.01219805 0.42129794
0.076927975 -0.011739377 0.42162073
0.077831775 -0.011280712 0.42194355
0.079089716 -0.010683998 0.42132431
0.079991296 -0.010226451 0.42164633
0.080892876 -0.0097689033 0.42196834
0.081794456 -0.0093113631 0.42229033
0.082696036 -0.0088538155 0.42261234
0.083597615 -0.0083962753 0.42293435
0.084840059 -0.0078074411 0.42230958
0.085739419 -0.0073510259 0.42263082
0.086638778 -0.0068946034 0.42295203
0.087872371 -0.0063102618 0.42232412
0.088769525 -0.0058549643 0.42264456
0.08966668 -0.0053996667 0.42296496
0.090563819 -0.0049443766 0.42328539
0.091460973 -0.0044890791 0.42360583
0.092358112 -0.0040337816 0.42392623
0.093255267 -0.0035784841 0.42424667
0.093833685 -0.0032432377 0.42552176
0.094416559 -0.0029057413 0.42679846
0.095003858 -0.002566006 0.42807671
0.095595568 -0.0022240207 0.42935658
0.095881879 -0.0019953325 0.43159589
0.096484676 -0.0016477257 0.43287969
0.096786469 -0.001411166 0.43512452
0.097097144 -0.0011701211 0.43737251
0.097115666 -0.0010356344 0.44058469
0.097147495 -0.0008943975 0.44380161
0.096896037 -0.00085523725 0.44798586
0.096956655 -0.00069938228 0.45121306
0.096738428 -0.00064335018 0.4554092
0.096827835 -0.00047288835 0.45864668
0.096642837 -0.0003999956 0.46285468
0.096761048 -0.00021491945 0.46610245
0.096892565 -2.310425e-05 0.46935496
0.097037345 0.00017546117 0.47261223
0.097195432 0.00038077682 0.47587427
0.09736681 0.00059283152 0.479141
0.097277075 0.00071406364 0.48338303
0.096932858 0.00074785203 0.48860267
0.097150743 0.00098351389 0.49188605
0.097114176 0.0011317246 0.49614707
0.097360849 0.0013820082 0.49944073
0.028476864 -0.034534484 0.41922286
0.029411674 -0.034060076 0.41955674
0.029889405 -0.033773057 0.42079577
0.030826434 -0.033297531 0.42113045
0.031763464 -0.032822005 0.4214651
0.032700479 -0.032346465 0.42179978
0.034085706 -0.031688035 0.42122614
0.035020515 -0.031213626 0.42156002
0.03595531 -0.030739225 0.42189389
0.036890119 -0.030264817 0.42222777
0.037824929 -0.029790409 0.42256165
0.039196864 -0.029138722 0.42198327
0.040564388 -0.028489277 0.42140326
0.041494757 -0.028017119 0.42173555
0.042855635 -0.027371049 0.42115325
0.044212088 -0.026727222 0.42056927
0.045564085 -0.026085652 0.4199838
0.046911672 -0.025446333 0.41939667
0.047833189 -0.02497866 0.41972581
0.049174115 -0.024342716 0.41913638
0.050510615 -0.023709014 0.41854534
0.051427692 -0.023243606 0.41887286
0.052757561 -0.022613272 0.41827944
0.053672433 -0.022148982 0.41860619
0.054587305 -0.021684691 0.41893294
0.055502176 -0.021220401 0.4192597
0.056417048 -0.020756111 0.41958645
0.05773361 -0.020132519 0.41898829
0.058646262 -0.019669354 0.41931427
0.059558913 -0.019206189 0.41964021
0.060866624 -0.018587105 0.41903889
0.06177707 -0.018125065 0.41936406
0.062687516 -0.017663024 0.41968924
0.063986346 -0.017048433 0.41908473
0.064894572 -0.016587511 0.41940913
0.065802798 -0.016126595 0.41973349
0.067092776 -0.015516497 0.41912583
0.067998782 -0.015056707 0.41944942
0.069282129 -0.01444998 0.4188394
0.07018593 -0.013991307 0.41916218
0.071089715 -0.013532642 0.41948497
0.071993515 -0.013073977 0.41980779
0.0728973 -0.012615304 0.42013058
0.0738011 -0.012156639 0.42045337
0.0747049 -0.011697967 0.42077619
0.075608686 -0.011239301 0.42109898
0.076512486 -0.010780629 0.42142177
0.077416271 -0.010321964 0.42174459
0.078320071 -0.0098632909 0.42206737
0.07957682 -0.0092700571 0.42144784
0.0804784 -0.0088125095 0.42176986
0.08137998 -0.0083549619 0.42209187
0.08228156 -0.0078974217 0.42241389
0.08318314 -0.0074398741 0.42273587
0.084426597 -0.0068533868 0.4221116
0.085325956 -0.0063969716 0.42243281
0.086225316 -0.0059405491 0.42275402
0.08712469 -0.0054841265 0.42307526
0.088357091 -0.0049032643 0.42244706
0.08925423 -0.0044479668 0.42276746
0.090151384 -0.0039926767 0.42308789
0.091048524 -0.0035373792 0.42340833
0.091945678 -0.0030820817 0.42372876
0.092520863 -0.002745606 0.42500255
0.093420222 -0.0022891834 0.42532378
0.094002083 -0.0019493401 0.42659998
0.094588369 -0.0016072579 0.42787775
0.095179051 -0.0012629181 0.42915714
0.095774204 -0.00091633201 0.4304381
0.096065104 -0.00067957491 0.43267879
0.096364871 -0.00043832138 0.43492264
0.096673504 -0.00019257143 0.43716964
0.096990988 5.7674944e-05 0.43941984
0.097017527 0.00020483136 0.44263452
0.097057372 0.00035873055 0.44585392
0.09711051 0.00051937997 0.44907805
0.096883774 0.0005825609 0.45327064
0.0969657 0.00075782835 0.45650509
0.096772194 0.00083787739 0.46070957
0.096882939 0.001027748 0.46395427
0.097006947 0.0012243688 0.4672038
0.097144246 0.0014277324 0.470458
0.097294852 0.0016378537 0.47371697
0.097181097 0.0017583743 0.47794992
0.097360492 0.0019830912 0.48121914
0.097006753 0.0020263866 0.48643479
0.09694618 0.0021738745 0.49068671
0.096903294 0.0023303628 0.49494499
0.097144723 0.0025865659 0.49823639
0.027584597 -0.033730142 0.41992018
0.028521627 -0.033254601 0.42025483
0.029458642 -0.032779075 0.42058951
0.030395657 -0.032303542 0.42092416
0.031332687 -0.031828009 0.42125884
0.032269716 -0.031352483 0.42159349
0.033206731 -0.030876942 0.42192817
0.034590751 -0.030221984 0.42135423
0.03552556 -0.029747583 0.42168811
0.03646037 -0.029273175 0.42202199
0.037395179 -0.028798766 0.42235586
0.038768128 -0.028149433 0.42177796
0.039700717 -0.02767615 0.42211106
0.041067049 -0.027030177 0.42153075
0.042428941 -0.026386455 0.42094892
0.043786407 -0.025744975 0.42036545
0.045139432 -0.02510576 0.41978046
0.046488032 -0.02446878 0.4191938
0.047409549 -0.024001114 0.41952294
0.048751488 -0.023367517 0.41893399
0.050089002 -0.022736162 0.41834342
0.051006094 -0.022270754 0.41867098
0.052336976 -0.021642774 0.41807804
0.053251848 -0.021178484 0.41840479
0.054166719 -0.020714194 0.41873157
0.055081591 -0.020249903 0.41905832
0.055996463 -0.019785613 0.41938508
0.057314038 -0.019164376 0.41878739
0.05822669 -0.018701211 0.41911334
0.059139341 -0.018238045 0.41943932
0.060051993 -0.01777488 0.41976526
0.061358511 -0.017159261 0.41916364
0.062268957 -0.016697221 0.41948882
0.063179404 -0.01623518 0.41981399
0.064477041 -0.015624061 0.41920918
0.065385267 -0.015163146 0.41953355
0.066676259 -0.014555402 0.41892639
0.067582265 -0.014095604 0.41924998
0.06886664 -0.013491232 0.41864043
0.069770426 -0.013032559 0.41896322
0.070674211 -0.012573894 0.41928601
0.071578011 -0.012115221 0.41960883
0.072481811 -0.011656556 0.41993162
0.073385596 -0.011197891 0.42025441
0.074289396 -0.010739218 0.42057723
0.075193197 -0.010280553 0.42090002
0.076096982 -0.0098218806 0.42122284
0.077000782 -0.0093632154 0.42154562
0.077904567 -0.0089045428 0.42186841
0.078808367 -0.0084458776 0.42219123
0.080063924 -0.0078561082 0.42157137
0.080965504 -0.0073985681 0.42189339
0.081867069 -0.0069410205 0.4222154
0.082768649 -0.0064834803 0.42253742
0.083670229 -0.0060259327 0.42285943
0.084912494 -0.0054429248 0.42223483
0.085811853 -0.0049865022 0.42255604
0.086711228 -0.0045300797 0.42287728
0.087944642 -0.0039515644 0.42224956
0.088841796 -0.0034962669 0.42256999
0.089738935 -0.0030409768 0.42289039
0.090636089 -0.0025856793 0.42321083
0.091208041 -0.0022479817 0.42448336
0.0921074 -0.0017915592 0.42480457
0.093006775 -0.0013351366 0.42512578
0.093587607 -0.00099294633 0.4264015
0.094172865 -0.00064850971 0.42767882
0.094762534 -0.00030182302 0.4289577
0.095356658 4.7117472e-05 0.43023816
0.095955223 0.00039830431 0.43152022
0.096250728 0.00064313039 0.43376231
0.096555099 0.00089246035 0.43600756
0.096565306 0.0010399222 0.43921599
0.096889615 0.0012993589 0.44146836
0.096924186 0.0014591888 0.44468552
0.096972048 0.0016257688 0.44790745
0.097033203 0.0017990805 0.45113406
0.097107649 0.0019791462 0.45436546
0.096905634 0.002066344 0.4585664
0.097008884 0.0022610202 0.46180806
0.096840099 0.0023650788 0.46602088
0.09725523 0.0026706122 0.46830568
0.097398356 0.0028855242 0.47156161
0.097276092 0.0030131862 0.47579104
0.09717156 0.0031498522 0.48002681
0.097084731 0.003295511 0.48426884
0.097015649 0.003450159 0.48851722
0.09696427 0.0036137998 0.49277195
0.097198218 0.0038748011 0.49606034
0.02809085 -0.032260604 0.42004856
0.029027864 -0.031785071 0.42038321
0.029964894 -0.031309538 0.4207179
0.030901909 -0.030834012 0.42105255
0.031838939 -0.030358478 0.42138723
0.032775953 -0.029882945 0.42172191
0.033712968 -0.029407419 0.42205656
0.035095811 -0.028755933 0.42148229
0.03603062 -0.028281525 0.42181617
0.03696543 -0.027807117 0.42215008
0.038339391 -0.027160138 0.42157269
0.039271981 -0.026686855 0.42190576
0.040639341 -0.026043236 0.42132595
0.042002231 -0.02540186 0.4207446
0.043360725 -0.024762727 0.4201616
0.044714764 -0.024125859 0.41957712
0.046064392 -0.023491234 0.41899097
0.046985909 -0.023023568 0.41932008
0.048328876 -0.022392325 0.41873163
0.049667403 -0.021763325 0.41814154
0.05058448 -0.021297902 0.4184691
0.051501572 -0.020832494 0.41879663
0.052831262 -0.020207986 0.41820341
0.053746134 -0.019743696 0.41853017
0.054660991 -0.019279405 0.41885692
0.055575863 -0.018815115 0.41918367
0.056490734 -0.018350825 0.41951042
0.057807118 -0.017733067 0.41891244
0.058719769 -0.017269902 0.41923839
0.059632421 -0.016806737 0.41956437
0.060939968 -0.016193457 0.41896322
0.061850399 -0.015731417 0.4192884
0.062760845 -0.015269376 0.41961357
0.064059496 -0.014660612 0.41900924
0.064967722 -0.014199696 0.41933364
0.066259742 -0.0135943 0.41872695
0.067165762 -0.013134502 0.41905054
0.068451136 -0.012532484 0.41844147
0.069354936 -0.012073811 0.41876426
0.070258722 -0.011615146 0.41908705
0.071162522 -0.011156481 0.41940987
0.072066307 -0.010697808 0.41973266
0.072970107 -0.010239143 0.42005545
0.073873907 -0.0097804703 0.42037827
0.074777693 -0.0093218051 0.42070106
0.075681493 -0.0088631324 0.42102388
0.076585278 -0.0084044673 0.42134666
0.077489078 -0.0079457946 0.42166945
0.078392863 -0.0074871294 0.42199227
0.079296663 -0.0070284568 0.42231506
0.080551028 -0.0064421669 0.4216949
0.081452593 -0.0059846267 0.42201692
0.082354173 -0.0055270791 0.42233893
0.083255753 -0.005069539 0.42266095
0.084499031 -0.004488878 0.42203686
0.085398406 -0.0040324554 0.42235807
0.086297765 -0.0035760328 0.42267928
0.087532207 -0.002999872 0.42205206
0.088429347 -0.0025445744 0.42237249
0.089326501 -0.0020892769 0.42269289
0.09022364 -0.0016339794 0.42301333
0.090794578 -0.0012939349 0.42428538
0.091693953 -0.00083751231 0.42460659
0.092271537 -0.0004940927 0.42588103
0.093173116 -3.6545098e-05 0.42620304
0.093757361 0.00031023845 0.42747986
0.094346017 0.00065927953 0.42875823
0.094939128 0.0010105669 0.43003821
0.095536664 0.0013641044 0.4313198
0.095830142 0.0016136281 0.43356091
0.096132472 0.0018676519 0.43580517
0.096443668 0.0021261722 0.43805262
0.09676373 0.0023891889 0.44030324
0.096793041 0.0025549456 0.44351813
0.096835628 0.0027274415 0.44673777
0.096891508 0.0029066876 0.44996217
0.096960679 0.0030926764 0.45319131
0.097043142 0.0032854117 0.45642519
0.09685035 0.0033887513 0.46062893
0.096961617 0.0035961047 0.46387309
0.097086161 0.0038101971 0.46712205
0.097224012 0.0040310323 0.47037569
0.09709546 0.0041669756 0.47460237
0.09698464 0.004311908 0.47883534
0.096891537 0.0044658482 0.48307469
0.096816152 0.0046287701 0.48732036
0.096758485 0.0048006848 0.49157232
0.096987158 0.0050676093 0.49485844
0.09696272 0.0052563921 0.49912232
0.027197719 -0.031448096 0.42074516
0.028597102 -0.030791081 0.42017695
0.029534116 -0.030315556 0.42051163
0.030471146 -0.029840022 0.42084628
0.031408161 -0.029364489 0.42118096
0.032345191 -0.028888956 0.42151561
0.033282205 -0.028413422 0.42185029
0.03421922 -0.027937897 0.42218494
0.035600871 -0.027289882 0.42161039
0.036535665 -0.026815474 0.42194426
0.037910655 -0.026170842 0.42136738
0.038843244 -0.025697559 0.42170045
0.040211618 -0.025056288 0.42112112
0.041575536 -0.024417266 0.42054027
0.042935044 -0.023780487 0.41995779
0.044290096 -0.023145966 0.41937375
0.045640737 -0.022513695 0.41878811
0.046562254 -0.022046022 0.41911724
0.04790625 -0.021417126 0.41852924
0.048825547 -0.020950593 0.4188576
0.050162882 -0.020325065 0.41826722
0.051079959 -0.019859642 0.41859475
0.052410677 -0.019237489 0.41800201
0.053325534 -0.018773198 0.41832876
0.054240406 -0.018308908 0.41865551
0.055155277 -0.017844617 0.41898227
0.056070149 -0.017380327 0.41930902
0.057387546 -0.016764909 0.41871154
0.058300197 -0.016301751 0.41903749
0.059212849 -0.015838586 0.41936347
0.060125515 -0.01537542 0.41968942
0.061431855 -0.014765628 0.41908798
0.062342286 -0.014303587 0.41941315
0.063641965 -0.013697177 0.41880932
0.064550191 -0.013236254 0.41913369
0.065458417 -0.012775339 0.41945806
0.066749245 -0.012173407 0.41885108
0.06765525 -0.011713617 0.41917467
0.068561256 -0.011253826 0.41949826
0.069843233 -0.010656398 0.41888809
0.070747018 -0.010197733 0.41921091
0.071650818 -0.0097390674 0.4195337
0.072554618 -0.0092803948 0.41985652
0.073458403 -0.0088217221 0.42017931
0.074362203 -0.0083630569 0.4205021
0.075265989 -0.0079043917 0.42082492
0.076169789 -0.0074457191 0.4211477
0.077073574 -0.0069870539 0.42147049
0.077977374 -0.0065283813 0.42179331
0.078881174 -0.0060697161 0.4221161
0.07978496 -0.0056110434 0.42243889
0.081038117 -0.0050282329 0.42181846
0.081939697 -0.0045706853 0.42214048
0.082841277 -0.0041131452 0.42246246
0.083742857 -0.0036555976 0.42278448
0.084984943 -0.0030784085 0.42216009
0.085884303 -0.002621986 0.4224813
0.086783662 -0.0021655634 0.42280251
0.087683037 -0.0017091483 0.42312375
0.088582397 -0.0012527257 0.42344496
0.089481756 -0.00079630315 0.42376617
0.090381116 -0.00033988804 0.42408738
0.09128049 0.00011653453 0.42440861
0.091857061 0.00046230108 0.42568254
0.092758641 0.00091984868 0.42600456
0.093341872 0.0012689829 0.4272809
0.093929514 0.0016203746 0.4285588
0.094521597 0.001974009 0.4298383
0.095118105 0.0023299009 0.43111935
0.095719039 0.0026880354 0.43240201
0.096017122 0.002945628 0.43464455
0.096324086 0.0032077283 0.43689018
0.096639901 0.0034743249 0.43913904
0.096964553 0.0037454143 0.44139102
0.096999675 0.0039227083 0.44460765
0.097048059 0.00410676 0.44782901
0.09710975 0.004297547 0.45105508
0.096892953 0.0044001676 0.45524976
0.096983433 0.0046055764 0.45848614
0.09679985 0.0047250651 0.46269268
0.096919149 0.0049450807 0.46593931
0.097051725 0.0051718429 0.46919075
0.096916884 0.0053160638 0.47341469
0.096799761 0.0054692775 0.47764495
0.096700385 0.0056314766 0.48188153
0.096618712 0.0058026761 0.48612443
0.096554756 0.0059828684 0.49037367
0.096508533 0.0061720461 0.49462926
0.096747428 0.0064527765 0.49791864
0.097264826 0.0068216696 0.50023949
0.027705163 -0.029975086 0.42087388
0.029103339 -0.029321544 0.42030534
0.030040368 -0.028846018 0.42064002
0.030977383 -0.028370485 0.42097467
0.031914413 -0.027894951 0.42130935
0.032851428 -0.027419426 0.421644
0.034236297 -0.026772641 0.42107072
0.035171106 -0.026298232 0.4214046
0.03654933 -0.025654815 0.420829
0.037481919 -0.025181532 0.42116207
0.038853526 -0.02454149 0.42058402
0.039783895 -0.024069332 0.42091632
0.041148841 -0.023432657 0.42033595
0.042509362 -0.022798233 0.41975394
0.043865442 -0.022166066 0.41917041
0.045217097 -0.021536134 0.41858524
0.046138614 -0.021068476 0.41891438
0.047483623 -0.02044192 0.41832688
0.048402905 -0.019975387 0.41865522
0.049741268 -0.019352213 0.41806534
0.050658345 -0.01888679 0.41839287
0.051575437 -0.018421382 0.41872042
0.052904949 -0.0178027 0.41812736
0.05381982 -0.01733841 0.41845411
0.054734692 -0.016874116 0.41878086
0.055649564 -0.016409826 0.41910762
0.05656442 -0.015945535 0.4194344
0.057479292 -0.015481245 0.41976115
0.058793277 -0.014870435 0.41916254
0.059705943 -0.014407262 0.41948852
0.061013296 -0.013799824 0.41888756
0.061923742 -0.013337784 0.41921273
0.062834173 -0.012875743 0.4195379
0.064132661 -0.012272805 0.41893375
0.065040886 -0.011811882 0.41925815
0.065949112 -0.011350967 0.41958252
0.067238733 -0.010752514 0.41897523
0.068144739 -0.010292724 0.41929883
0.069050759 -0.0098329261 0.41962242
0.06995675 -0.0093731359 0.41994599
0.07086277 -0.0089133456 0.42026958
0.071768776 -0.0084535554 0.42059317
0.072674781 -0.0079937577 0.42091677
0.073580801 -0.0075339675 0.42124036
0.074486807 -0.0070741773 0.42156395
0.075754285 -0.0064869635 0.42094874
0.076658085 -0.0060282983 0.42127153
0.07756187 -0.0055696256 0.42159435
0.07846567 -0.0051109605 0.42191714
0.07936947 -0.0046522878 0.42223993
0.080273256 -0.0041936226 0.42256275
0.081177056 -0.00373495 0.42288554
0.082426801 -0.0031567365 0.42226401
0.083328381 -0.0026991963 0.42258602
0.084229961 -0.0022416487 0.42290801
0.08547084 -0.0016679391 0.42228332
0.0863702 -0.0012115166 0.42260453
0.087269574 -0.00075509399 0.42292574
0.088168934 -0.00029867515 0.42324698
0.089068294 0.00015774369 0.42356819
0.089967668 0.00061416626 0.4238894
0.090867028 0.0010705851 0.42421061
0.091442585 0.0014187023 0.42548409
0.092344165 0.0018762499 0.42580611
0.092926368 0.0022277385 0.42708194
0.093512997 0.0025814772 0.42835936
0.094104066 0.0029374585 0.42963836
0.094699562 0.003295701 0.43091893
0.095299467 0.0036561862 0.43220112
0.095903829 0.004018914 0.43348485
0.096206516 0.0042845905 0.43572879
0.09651807 0.004554756 0.43797585
0.096838489 0.0048294216 0.44022608
0.096868336 0.0050126463 0.44344041
0.09691146 0.0052026212 0.44665954
0.096967876 0.0053993389 0.44988337
0.097037584 0.0056027994 0.45311195
0.096829996 0.0057215616 0.4573094
0.096928507 0.0059396438 0.46054828
0.096754149 0.006075263 0.46475762
0.096881449 0.0063079633 0.46800676
0.096740335 0.0064604506 0.47222796
0.096616924 0.0066219345 0.47645545
0.096511245 0.0067924187 0.48068932
0.096423298 0.0069718882 0.4849295
0.096353054 0.0071603581 0.48917601
0.096300542 0.0073578209 0.49342883
0.096534163 0.0076444745 0.49671596
0.09678109 0.0079378635 0.50000787
0.027273372 -0.028978735 0.42066711
0.028672576 -0.028327554 0.42009908
0.029609591 -0.027852021 0.42043373
0.030546606 -0.027376495 0.42076841
0.031483635 -0.026900955 0.42110306
0.032871738 -0.026255399 0.42053106
0.033806533 -0.025780991 0.42086494
0.034741342 -0.025306582 0.42119882
0.036120594 -0.024665527 0.42062369
0.037053183 -0.024192244 0.42095679
0.038425803 -0.023554541 0.42037922
0.039793968 -0.022919104 0.41980013
0.041157737 -0.022285901 0.4192194
0.042083681 -0.021815985 0.41955012
0.043440774 -0.021186166 0.41896707
0.044793457 -0.020558588 0.41838238
0.045714974 -0.020090923 0.41871151
0.047060996 -0.019466728 0.4181245
0.047980294 -0.019000195 0.41845283
0.049319655 -0.01837936 0.41786343
0.050236747 -0.017913952 0.41819099
0.051153824 -0.01744853 0.41851854
0.052070916 -0.016983125 0.41884607
0.053399235 -0.016367909 0.41825274
0.054314107 -0.015903618 0.41857949
0.055228978 -0.015439328 0.41890624
0.056143835 -0.014975037 0.41923299
0.057058707 -0.014510747 0.41955975
0.057973579 -0.014046464 0.4198865
0.059286371 -0.013439119 0.41928759
0.060199022 -0.012975954 0.41961357
0.061505184 -0.012371987 0.41901231
0.06241563 -0.011909947 0.41933748
0.063326061 -0.011447906 0.41966265
0.064623356 -0.010848433 0.4190582
0.065531582 -0.010387518 0.4193826
0.066439807 -0.0099266022 0.41970697
0.067348033 -0.0094656795 0.42003134
0.068634242 -0.008871831 0.41942295
0.069540247 -0.0084120408 0.41974655
0.070446253 -0.0079522505 0.42007014
0.071352258 -0.0074924529 0.42039374
0.072258264 -0.0070326626 0.42071733
0.073164284 -0.0065728649 0.42104092
0.07407029 -0.0061130747 0.42136452
0.074976295 -0.0056532845 0.42168808
0.076242581 -0.0050695501 0.42107257
0.077146381 -0.0046108849 0.42139539
0.078050166 -0.0041522123 0.42171818
0.078953966 -0.0036935471 0.42204097
0.079857767 -0.0032348745 0.42236379
0.080761552 -0.0027762093 0.42268658
0.082012326 -0.0022003427 0.42206553
0.082913905 -0.0017427951 0.42238754
0.083815485 -0.0012852475 0.42270955
0.08471705 -0.00082770735 0.42303157
0.085956752 -0.00025746599 0.42240655
0.086856112 0.00019895285 0.42272776
0.087755471 0.00065537542 0.42304897
0.088654846 0.0011117943 0.42337021
0.089554206 0.0015682131 0.42369142
0.090453565 0.0020246357 0.42401263
0.091028109 0.0023751035 0.42528561
0.091929689 0.0028326511 0.42560762
0.092831269 0.0032901913 0.42592964
0.093414664 0.0036451519 0.42720577
0.094002485 0.0040023699 0.42848349
0.094594747 0.0043618307 0.42976281
0.095191449 0.0047235377 0.43104368
0.095483243 0.0049894117 0.43328348
0.095783889 0.0052597821 0.4355264
0.096398309 0.0056304932 0.43681359
0.096714482 0.0059087276 0.43906206
0.097039491 0.0061914697 0.44131371
0.096776888 0.0062937774 0.44549102
0.096828043 0.006496422 0.44871259
0.096892476 0.0067058057 0.45193893
0.096678615 0.0068328455 0.45613366
0.096771851 0.0070568472 0.45937026
0.096878365 0.0072875954 0.46261165
0.09671323 0.0074393675 0.46682379
0.096565813 0.0076001398 0.47104222
0.096436128 0.0077698976 0.47526699
0.096324176 0.0079486519 0.47949812
0.096229911 0.0081364065 0.48373553
0.096153393 0.0083331466 0.48797926
0.096094579 0.0085388795 0.49222937
0.096322954 0.0088314526 0.49551424
0.096564591 0.0091307834 0.49880388
0.026841581 -0.027982399 0.42046034
0.027780816 -0.027505741 0.4207958
0.029178828 -0.026858024 0.42022747
0.030115843 -0.026382498 0.42056212
0.031052858 -0.025906958 0.4208968
0.032441989 -0.025263757 0.42032528
0.033376783 -0.024789348 0.42065915
0.034311593 -0.02431494 0.42099303
0.035691857 -0.023676239 0.42041838
0.037067711 -0.023039758 0.41984209
0.03799808 -0.0225676 0.42017439
0.039367273 -0.021934509 0.41959581
0.040732056 -0.021303646 0.41901556
0.042092383 -0.020675063 0.41843379
0.043448299 -0.020048708 0.41785038
0.044369817 -0.019581042 0.41817951
0.045291334 -0.019113384 0.41850865
0.04663837 -0.018491536 0.41792214
0.047557667 -0.018024996 0.41825047
0.048898056 -0.017406508 0.41766155
0.049815133 -0.016941104 0.4179891
0.050732225 -0.016475689 0.41831666
0.051649317 -0.016010273 0.41864419
0.052566394 -0.015544858 0.41897175
0.053893507 -0.01493312 0.41837808
0.054808378 -0.01446883 0.41870484
