# .PCD v0.7 - Point Cloud Data file format
VERSION 0.7
FIELDS x y z
SIZE 4 4 4
TYPE F F F
COUNT 1 1 1
WIDTH 1364
HEIGHT 1
VIEWPOINT 0 0 0 1 0 0 0
POINTS 1364
DATA ascii
0.089063704 -0.075753547 0.5057295
0.090128034 -0.075215198 0.50610811
0.091192365 -0.074676834 0.50648671
0.092529565 -0.07388977 0.50588763
0.09359169 -0.073352538 0.50626552
0.094922245 -0.072568834 0.50566399
0.095982134 -0.072032735 0.50604105
0.097306043 -0.071252391 0.50543725
0.09836372 -0.070717394 0.50581348
0.09968096 -0.069940418 0.5052073
0.10099377 -0.069165692 0.50459963
0.10204701 -0.068632945 0.50497425
0.10310026 -0.068100184 0.50534892
0.10440419 -0.067329951 0.50473809
0.10545522 -0.066798337 0.50511193
0.1067525 -0.066031434 0.50449866
0.10780132 -0.065500937 0.50487173
0.10909196 -0.064737417 0.50425613
0.11037817 -0.063976154 0.50363892
0.11165991 -0.063217118 0.50302017
0.11270208 -0.062689975 0.50339091
0.1139772 -0.061934322 0.50276971
0.11524787 -0.061180905 0.50214696
0.11651412 -0.060429715 0.50152266
0.11754962 -0.059905939 0.50189102
0.11880922 -0.059158117 0.50126433
0.11984251 -0.058635458 0.50163198
0.12087581 -0.058112808 0.5019995
0.12212652 -0.057369478 0.50136971
0.12315759 -0.056847952 0.50173646
0.12418866 -0.056326419 0.50210321
0.12543052 -0.055587575 0.50147021
0.19740386 -0.017300583 0.50880235
0.19839503 -0.016799234 0.50915492
0.19938618 -0.016297892 0.50950754
0.20037735 -0.01579655 0.50986004
0.20136851 -0.0152952 0.51021266
0.20240636 -0.014659554 0.50950706
0.20339531 -0.014159329 0.50985885
0.20438425 -0.013659112 0.51021063
0.2053732 -0.013158888 0.51056242
0.20636214 -0.012658663 0.51091421
0.20738669 -0.012029745 0.51020396
0.20837341 -0.011530638 0.51055503
0.20936015 -0.011031538 0.51090598
0.21037583 -0.010407101 0.51019257
0.21136035 -0.0099091195 0.51054275
0.21236937 -0.0092880428 0.50982696
0.21335165 -0.0087911859 0.51017642
0.21435404 -0.0081734732 0.50945824
0.2153341 -0.0076777413 0.50980687
0.21632983 -0.0070633851 0.50908631
0.2173077 -0.0065687634 0.50943416
0.21828555 -0.0060741566 0.50978202
0.21927242 -0.0054642931 0.50905836
0.22024804 -0.0049708039 0.50940537
0.2212237 -0.0044773072 0.50975245
0.22219932 -0.003983818 0.51009953
0.22317496 -0.0034903213 0.51044655
0.2241506 -0.0029968247 0.51079363
0.22512625 -0.0025033355 0.5111407
0.22610189 -0.0020098463 0.51148772
0.22707753 -0.0015163496 0.51183474
0.22805317 -0.001022853 0.51218188
0.22902881 -0.00052936375 0.5125289
0.23000444 -3.5859644e-05 0.51287591
0.23098008 0.00045762211 0.51322305
0.2319359 0.0010517798 0.51248825
0.23290932 0.0015441477 0.51283455
0.23388274 0.0020365193 0.51318085
0.23482969 0.0026261881 0.51244295
0.23580089 0.0031174347 0.51278841
0.23674117 0.0037037507 0.51204813
0.23771016 0.0041938797 0.51239288
0.23864378 0.0047768131 0.5116502
0.23961057 0.0052658245 0.51199412
0.24057733 0.0057548285 0.51233804
0.24150212 0.0063332841 0.51159227
0.24246667 0.0068211704 0.51193535
0.24343123 0.0073090494 0.5122785
0.24434711 0.0078830309 0.51152956
0.24530944 0.0083697923 0.51187187
0.24627179 0.008856561 0.51221418
0.24723412 0.0093433224 0.51255655
0.24819645 0.0098300911 0.51289886
0.24909905 0.010397315 0.51214516
0.25005919 0.010882966 0.5124867
0.2510193 0.011368603 0.51282823
0.25191301 0.01193136 0.51207149
0.25287092 0.012415871 0.51241219
0.25382882 0.012900397 0.51275289
0.25478673 0.013384923 0.51309371
0.25566936 0.013942063 0.51233292
0.25662506 0.01442547 0.5126729
0.2575807 0.014908863 0.51301289
0.2585364 0.015392264 0.51335281
0.2594921 0.015875658 0.51369274
0.26036143 0.016426081 0.51292729
0.26131487 0.016908357 0.51326644
0.26226836 0.01739064 0.51360559
0.26312882 0.017936565 0.51283693
0.26408008 0.018417716 0.51317537
0.26503131 0.018898875 0.51351368
0.26588291 0.019440314 0.51274192
0.26683193 0.019920347 0.51307952
0.26778096 0.020400381 0.51341712
0.26873001 0.020880414 0.51375473
0.26957053 0.021416258 0.51297891
0.27051732 0.021895174 0.5133158
0.27146411 0.022374082 0.51365256
0.27241096 0.022853006 0.51398933
0.27335775 0.023331914 0.51432616
0.27418497 0.023861015 0.51354569
0.27512956 0.024338806 0.51388168
0.27607417 0.024816597 0.51421773
0.27689248 0.025341218 0.51343405
0.27783489 0.025817892 0.51376927
0.27877724 0.026294565 0.51410449
0.27971965 0.026771231 0.5144397
0.28052691 0.027290251 0.51365221
0.28146708 0.027765792 0.51398659
0.28240722 0.028241348 0.51432109
0.28320563 0.02875586 0.51353031
0.28414357 0.029230291 0.51386392
0.28508151 0.029704714 0.51419759
0.28601944 0.030179145 0.51453125
0.28695738 0.030653568 0.51486492
0.28774244 0.03116136 0.51406944
0.28867817 0.031634666 0.51440227
0.2896139 0.032107972 0.51473516
0.29054964 0.032581277 0.51506805
-0.16816056 -0.21192643 0.48831695
-0.1662325 -0.21084335 0.48792818
-0.1650174 -0.21022874 0.48836043
-0.16309604 -0.20914903 0.48796931
-0.16188309 -0.20853552 0.48840079
-0.15996835 -0.20745921 0.48800725
-0.15875766 -0.20684683 0.48843792
-0.15684959 -0.20577386 0.48804206
-0.15564111 -0.20516261 0.48847193
-0.15373972 -0.20409301 0.48807371
-0.1525335 -0.20348287 0.4885028
-0.15132725 -0.20287275 0.48893189
-0.14943472 -0.20180762 0.48853052
-0.14823064 -0.20119861 0.48895881
-0.14634481 -0.2001369 0.48855507
-0.145143 -0.19952899 0.48898259
-0.14394113 -0.19892108 0.4894101
-0.14206412 -0.1978638 0.48900315
-0.14086452 -0.19725703 0.48942986
-0.1389941 -0.19620313 0.48902062
-0.13779673 -0.19559748 0.48944655
-0.13659939 -0.19499184 0.48987249
-0.13473788 -0.19394244 0.48946005
-0.13354275 -0.1933379 0.48988521
-0.13168785 -0.19229187 0.48947042
-0.13049492 -0.19168846 0.48989478
-0.129302 -0.19108506 0.49031913
-0.12745595 -0.19004349 0.48990116
-0.12626523 -0.18944119 0.49032471
-0.12507451 -0.18883891 0.49074829
-0.12388378 -0.18823661 0.49117187
-0.12269306 -0.18763433 0.49159542
-0.12086043 -0.18659951 0.49117273
-0.11967188 -0.18599834 0.49159554
-0.11848339 -0.18539719 0.49201831
-0.11729488 -0.18479602 0.49244109
-0.11610636 -0.18419485 0.49286386
-0.11491784 -0.18359371 0.49328664
-0.11372936 -0.18299253 0.49370942
-0.1119144 -0.18196666 0.49328044
-0.11072811 -0.18136662 0.49370241
-0.10891983 -0.18034416 0.49327108
-0.10711595 -0.1793239 0.49283811
-0.10593411 -0.17872611 0.49325854
-0.10413688 -0.17770919 0.49282321
-0.10234413 -0.17669456 0.49238637
-0.10055575 -0.17568216 0.49194792
-0.099380583 -0.17508774 0.49236596
-0.097598881 -0.1740787 0.49192515
-0.095821619 -0.17307189 0.4914827
-0.094048828 -0.17206736 0.49103874
-0.092280418 -0.17106505 0.49059319
-0.090516478 -0.170065 0.49014607
-0.089352399 -0.16947617 0.49056017
-0.087595075 -0.16847949 0.4901107
-0.086433202 -0.16789179 0.49052402
-0.084682524 -0.16689841 0.4900721
-0.083522826 -0.16631185 0.49048463
-0.081778854 -0.16532187 0.49003041
-0.080621392 -0.16473641 0.49044216
-0.078884065 -0.16374984 0.48998556
-0.077728808 -0.16316548 0.4903965
-0.076573581 -0.16258115 0.49080744
-0.075418323 -0.16199681 0.49121842
-0.074263096 -0.16141248 0.49162933
-0.073107839 -0.16082811 0.49204031
-0.071952581 -0.16024378 0.49245122
-0.070797354 -0.15965945 0.49286219
-0.069642097 -0.15907511 0.49327314
-0.068486869 -0.15849078 0.49368408
-0.067331612 -0.15790641 0.49409503
-0.066176355 -0.15732208 0.49450597
-0.065021127 -0.15673774 0.49491692
-0.06386587 -0.15615341 0.49532786
-0.062710613 -0.15556905 0.4957388
-0.061008751 -0.15460041 0.4952696
-0.059855729 -0.1540172 0.49567977
-0.058160543 -0.15305191 0.49520817
-0.056469738 -0.15208882 0.49473497
-0.055321127 -0.15150785 0.49514356
-0.053637028 -0.15054817 0.49466804
-0.052490622 -0.14996833 0.49507585
-0.050813168 -0.149012 0.49459797
-0.049140126 -0.14805794 0.49411851
-0.04799822 -0.14748031 0.49452472
-0.046331793 -0.1465296 0.49404284
-0.045192093 -0.14595312 0.49444824
-0.044052362 -0.14537662 0.49485368
-0.042912632 -0.14480014 0.49525911
-0.041257352 -0.14385505 0.49477333
-0.040119827 -0.14327967 0.49517798
-0.038982302 -0.14270431 0.49558261
-0.037844807 -0.14212893 0.49598724
-0.036200613 -0.14118944 0.49549752
-0.035065323 -0.14061521 0.49590138
-0.033427775 -0.13967906 0.49540931
-0.03229472 -0.13910593 0.49581236
-0.031161636 -0.13853282 0.49621543
-0.029532939 -0.13760117 0.49572018
-0.02840209 -0.13702916 0.49612245
-0.026780039 -0.13610087 0.49562481
-0.025651395 -0.13552998 0.49602628
-0.02403599 -0.13460506 0.49552631
-0.022909597 -0.13403533 0.49592701
-0.021300867 -0.13311377 0.49542466
-0.020176664 -0.13254514 0.49582458
-0.018574595 -0.13162696 0.49531987
-0.017452598 -0.13105944 0.49571899
-0.016330615 -0.13049193 0.4961181
-0.015208632 -0.12992442 0.49651721
-0.013617605 -0.12901182 0.49600852
-0.012031063 -0.1281015 0.4954983
-0.010913521 -0.12753622 0.49589583
-0.0097959638 -0.12697095 0.49629337
-0.0082182586 -0.12606509 0.49577999
-0.0071029365 -0.12550095 0.49617675
-0.0055319071 -0.12459844 0.49566099
-0.0044187903 -0.12403542 0.49605697
-0.0028544217 -0.12313631 0.49553886
-0.0017435253 -0.12257439 0.49593404
-0.0006326139 -0.1220125 0.49632919
0.00092291832 -0.12111786 0.49580789
0.0020316094 -0.12055707 0.49620226
0.0031402856 -0.11999628 0.49659663
0.0046869218 -0.11910614 0.49607223
0.0057933927 -0.11854647 0.49646583
0.0068998635 -0.11798681 0.4968594
0.0084376335 -0.11710115 0.49633184
0.0095418841 -0.11654259 0.49672464
0.010646135 -0.11598405 0.49711746
0.01175037 -0.11542551 0.49751025
0.012854621 -0.11486697 0.49790305
0.014379099 -0.11398803 0.49737072
0.015481129 -0.1134306 0.49776274
0.016583145 -0.11287318 0.49815476
0.017685175 -0.11231576 0.49854678
0.018787205 -0.11175834 0.4989388
0.019889235 -0.11120091 0.49933079
0.020991266 -0.11064349 0.49972281
0.022497997 -0.10977353 0.49918419
0.023597807 -0.10921724 0.49957544
0.024697632 -0.10866094 0.49996665
0.026195481 -0.10779546 0.49942487
0.027293071 -0.10724027 0.49981532
0.028390661 -0.1066851 0.50020576
0.029488266 -0.10612993 0.50059617
0.030585855 -0.10557474 0.50098664
0.032070413 -0.104716 0.50044012
0.033165798 -0.10416195 0.50082976
0.03464371 -0.10330658 0.50028086
0.035736874 -0.10275364 0.50066972
0.036830023 -0.1022007 0.50105858
0.037923202 -0.10164776 0.50144744
0.039390028 -0.10079801 0.50089467
0.040480971 -0.10024619 0.50128269
0.041941121 -0.099399775 0.50072753
0.043029845 -0.098849088 0.50111485
0.044118568 -0.098298386 0.5015021
0.045569882 -0.097456455 0.50094372
0.04701674 -0.09661679 0.50038385
0.048101023 -0.096068352 0.5007695
0.04954125 -0.09523204 0.50020725
0.050623327 -0.09468472 0.50059211
0.052056879 -0.093851775 0.50002748
0.053136736 -0.093305558 0.50041163
0.054563642 -0.092475981 0.49984461
0.055641279 -0.091930896 0.50022793
0.057061538 -0.091104671 0.49965852
0.05813697 -0.090560704 0.50004107
0.059212387 -0.090016738 0.50042367
0.060287803 -0.089472771 0.50080621
0.061696962 -0.088652179 0.50023288
0.062770158 -0.088109329 0.50061464
0.063843369 -0.087566495 0.50099635
0.064916566 -0.087023646 0.50137818
0.066314667 -0.086208642 0.50080085
0.067385644 -0.08566691 0.50118184
0.068456635 -0.085125193 0.50156283
0.069527626 -0.084583476 0.50194377
0.070914626 -0.083774075 0.50136256
0.071983397 -0.083233476 0.50174272
0.073052168 -0.082692876 0.50212294
0.074120939 -0.082152277 0.50250316
0.075496823 -0.081348494 0.50191796
0.076563388 -0.080809027 0.5022974
0.077629939 -0.080269545 0.50267673
0.078696489 -0.079730071 0.50305617
0.07976304 -0.079190589 0.50343555
0.080829591 -0.078651123 0.50381494
0.081896141 -0.078111641 0.50419438
0.082962692 -0.077572159 0.5045737
0.084029242 -0.077032678 0.50495315
0.085095793 -0.076493211 0.50533253
0.086162344 -0.075953729 0.50571191
0.087228894 -0.075414248 0.50609136
0.088295445 -0.074874781 0.50647068
0.089640319 -0.074086688 0.50587451
0.09070465 -0.073548324 0.50625312
0.09176898 -0.073009975 0.50663173
0.093104988 -0.072226383 0.50603235
0.094436556 -0.071445018 0.50543141
0.095496446 -0.070908919 0.50580841
0.096821368 -0.070130929 0.50520515
0.097879052 -0.069595933 0.50558138
0.099197313 -0.068821311 0.50497568
0.10051112 -0.068048939 0.50436842
0.10156437 -0.067516193 0.5047431
0.10287154 -0.066747166 0.50413346
0.10392257 -0.066215537 0.50450742
0.1049736 -0.065683924 0.50488126
0.1062719 -0.064919375 0.50426847
0.10732071 -0.064388879 0.50464153
0.10861237 -0.063627712 0.50402641
0.10989959 -0.062868789 0.50340968
0.11118236 -0.062112108 0.5027914
0.11222452 -0.061584964 0.50316215
0.11350065 -0.060831666 0.50254142
0.1145406 -0.06030564 0.50291139
0.11581007 -0.059555694 0.50228834
0.11707512 -0.058807991 0.50166374
0.11811063 -0.058284216 0.5020321
0.11936902 -0.057539865 0.50140512
0.19192399 -0.018899545 0.50787163
0.19291736 -0.018397078 0.50822496
0.19391075 -0.017894611 0.50857836
0.19490412 -0.017392159 0.50893176
0.1958975 -0.016889688 0.50928509
0.19689089 -0.01638722 0.50963843
0.19794084 -0.015748307 0.50893736
0.19893199 -0.015246965 0.50928998
0.19992316 -0.014745615 0.50964248
0.20091432 -0.014244281 0.5099951
0.20190549 -0.013742931 0.51034772
0.20294213 -0.013110764 0.50964183
0.20393108 -0.012610532 0.50999361
0.20492002 -0.012110315 0.5103454
0.20590897 -0.011610091 0.51069719
0.20689791 -0.011109866 0.51104897
0.20792125 -0.010484397 0.51033843
0.20890799 -0.0099852979 0.51068938
0.20989473 -0.009486191 0.51104045
0.2109092 -0.0088652335 0.51032668
0.21189371 -0.0083672591 0.51067686
0.21290153 -0.0077496618 0.50996077
0.21390493 -0.0071343035 0.50924313
0.214885 -0.0066385716 0.50959176
0.21586508 -0.0061428323 0.50994039
0.21685961 -0.0055319406 0.50921953
0.21783745 -0.0050373338 0.50956738
0.21881531 -0.0045427121 0.50991523
0.21979317 -0.0040481053 0.51026309
0.22077662 -0.0034428462 0.50953829
0.22175224 -0.002949357 0.50988537
0.22272673 -0.0025642551 0.51130664
0.22370352 -0.0019623712 0.51057947
0.22467917 -0.0014688745 0.51092654
0.22565481 -0.00097537786 0.51127362
0.22663045 -0.00048188865 0.51162064
0.22760609 1.1600554e-05 0.51196766
0.22858173 0.00050509721 0.5123148
0.22955738 0.00099860132 0.51266181
0.230533 0.0014920831 0.51300883
0.23150866 0.0019855797 0.51335597
0.23246326 0.0025762767 0.51262093
0.23343669 0.0030686483 0.51296711
0.23438464 0.0036559626 0.5122298
0.23535584 0.0041472092 0.51257527
0.23632704 0.0046384633 0.51292074
0.23726614 0.0052213073 0.51218015
0.2382351 0.0057114288 0.51252484
0.23916756 0.0062908977 0.51178193
0.24013431 0.0067799017 0.51212585
0.2411011 0.0072689131 0.51246977
0.24202468 0.0078438967 0.51172364
0.24298923 0.0083317757 0.51206684
0.24395378 0.0088196695 0.51240993
0.24491833 0.0093075559 0.51275301
0.24583082 0.0098769329 0.51200294
0.24679314 0.010363694 0.51234531
0.24775548 0.010850463 0.51268762
0.24865907 0.01141534 0.51193452
0.24961922 0.011900991 0.51227605
0.25057933 0.012386627 0.51261759
0.25153944 0.012872271 0.51295912
0.25243196 0.013431534 0.51220191
0.25338987 0.01391606 0.51254272
0.25434777 0.014400585 0.51288342
0.25523144 0.014955377 0.51212323
0.25618711 0.015438786 0.51246309
0.25714278 0.015922179 0.51280308
0.25809848 0.016405581 0.51314306
0.25897104 0.016954767 0.51237881
0.25992453 0.017437043 0.51271796
0.26087797 0.017919319 0.51305711
0.26183146 0.018401602 0.51339632
0.2627849 0.018883871 0.51373553
0.26364416 0.019426331 0.51296651
0.26459539 0.019907489 0.51330495
0.26554668 0.020388648 0.51364332
0.26639706 0.020926608 0.51287127
0.26734608 0.021406641 0.51320887
0.26829514 0.021886675 0.51354641
0.26924416 0.022366716 0.51388401
0.27019319 0.022846749 0.51422161
0.27103025 0.023377996 0.51344478
0.2719771 0.023856919 0.51378155
0.27292389 0.024335828 0.51411831
0.27387071 0.024814744 0.51445514
0.27469671 0.025340365 0.51367438
0.27564132 0.025818156 0.51401043
0.27658591 0.026295947 0.51434636
0.27740306 0.026817104 0.51356244
0.27834541 0.027293777 0.51389766
0.27928782 0.027770443 0.51423287
0.28023016 0.028247116 0.51456809
0.28117257 0.028723782 0.51490331
0.2819764 0.029238198 0.51411474
0.28291655 0.029713746 0.51444912
0.28385675 0.030189294 0.51478362
0.2846517 0.030699218 0.51399171
0.28558964 0.031173648 0.51432538
0.28652757 0.03164807 0.51465905
0.28746551 0.032122493 0.51499271
0.28840345 0.032596923 0.51532632
0.28934139 0.033071347 0.51565993
0.29012084 0.033573441 0.51486266
-0.16871837 -0.21063569 0.48804975
-0.167501 -0.21001995 0.4884828
-0.16557422 -0.20894036 0.48809373
-0.16435906 -0.20832574 0.48852599
-0.1624389 -0.20724952 0.48813456
-0.161226 -0.20663604 0.48856601
-0.15931246 -0.20556313 0.48817217
-0.15810177 -0.20495075 0.48860285
-0.1561949 -0.20388129 0.48820668
-0.15498647 -0.20327005 0.48863655
-0.15308625 -0.2022039 0.48823804
-0.15188 -0.20159376 0.48866713
-0.14998642 -0.20053101 0.48826626
-0.1487824 -0.199922 0.48869455
-0.1468955 -0.19886261 0.48829129
-0.14569369 -0.1982547 0.48871878
-0.14449185 -0.1976468 0.48914632
-0.1426138 -0.1965919 0.48873985
-0.1414142 -0.19598512 0.48916659
-0.13954279 -0.19493358 0.48875782
-0.13834539 -0.19432794 0.48918375
-0.13648069 -0.19327976 0.4887726
-0.13528556 -0.19267522 0.48919773
-0.13409039 -0.19207071 0.48962289
-0.13223451 -0.191027 0.48920861
-0.13104159 -0.19042362 0.48963293
-0.12984863 -0.18982019 0.49005732
-0.1280016 -0.18878095 0.48963979
-0.12681088 -0.18817867 0.49006337
-0.12562016 -0.1875764 0.49048692
-0.12442943 -0.18697409 0.4909105
-0.12323868 -0.18637182 0.49133405
-0.12204796 -0.18576954 0.49175763
-0.12021649 -0.18473817 0.49133465
-0.119028 -0.184137 0.49175742
-0.11783949 -0.18353583 0.4921802
-0.11665097 -0.18293469 0.49260297
-0.11546245 -0.18233351 0.49302575
-0.11427397 -0.18173234 0.49344856
-0.11308545 -0.18113118 0.49387133
-0.11127171 -0.18010882 0.49344203
-0.1100854 -0.17950876 0.49386403
-0.1082783 -0.17848974 0.4934324
-0.10647568 -0.17747301 0.49299914
-0.10529384 -0.1768752 0.49341956
-0.1034978 -0.17586178 0.49298394
-0.10170624 -0.17485058 0.49254677
-0.099919111 -0.17384167 0.49210802
-0.098136395 -0.17283499 0.49166769
-0.096358091 -0.17183053 0.49122575
-0.094584286 -0.17082836 0.49078226
-0.093415737 -0.17023729 0.49119794
-0.091648549 -0.16923846 0.4907521
-0.089885801 -0.16824187 0.49030468
-0.088721722 -0.16765304 0.49071878
-0.086965591 -0.16665982 0.49026901
-0.085803717 -0.16607212 0.4906823
-0.084641814 -0.16548441 0.4910956
-0.082894564 -0.16449566 0.49064261
-0.081734866 -0.16390909 0.49105513
-0.079994321 -0.16292371 0.49059984
-0.078836828 -0.16233824 0.49101156
-0.077679396 -0.16175278 0.49142328
-0.076521903 -0.16116732 0.49183503
-0.07536447 -0.16058187 0.49224678
-0.074207008 -0.15999641 0.4926585
-0.07248196 -0.1590189 0.49219766
-0.071326703 -0.15843457 0.49260864
-0.07073459 -0.15824001 0.49389371
-0.069577157 -0.15765454 0.49430543
-0.067860991 -0.15668154 0.49384147
-0.066705734 -0.1560972 0.49425241
-0.065550476 -0.15551287 0.49466336
-0.064395219 -0.15492851 0.4950743
-0.063239992 -0.15434417 0.49548525
-0.062084764 -0.15375984 0.49589619
-0.060384065 -0.15279464 0.49542668
-0.058687896 -0.15183172 0.4949556
-0.057537049 -0.15124962 0.49536496
-0.055847466 -0.15029001 0.49489146
-0.054162323 -0.14933269 0.49441645
-0.053015947 -0.14875284 0.49482423
-0.051337481 -0.14779887 0.49434683
-0.049663395 -0.14684716 0.49386784
-0.048521489 -0.14626953 0.49427408
-0.047379524 -0.14569193 0.49468029
-0.045714349 -0.14474468 0.49419808
-0.044574618 -0.14416818 0.49460351
-0.043434888 -0.1435917 0.49500895
-0.041778594 -0.14264895 0.49452367
-0.040641069 -0.14207357 0.4949283
-0.039503545 -0.14149821 0.49533293
-0.03836605 -0.14092283 0.49573758
-0.036720842 -0.1399857 0.49524835
-0.035585552 -0.13941146 0.4956522
-0.033946991 -0.13847767 0.49516061
-0.032813936 -0.13790454 0.49556366
-0.031680852 -0.13733143 0.49596673
-0.030051142 -0.13640215 0.49547198
-0.028920263 -0.13583015 0.49587426
-0.027297199 -0.13490419 0.49537706
-0.02616857 -0.1343333 0.49577856
-0.024552152 -0.13341074 0.49527907
-0.023425758 -0.13284098 0.49567977
-0.021816015 -0.1319218 0.49517792
-0.020691812 -0.13135317 0.49557781
-0.019567594 -0.13078451 0.49597773
-0.017966732 -0.1298698 0.49547273
-0.016844749 -0.12930229 0.49587184
-0.015722767 -0.12873477 0.49627095
-0.014130726 -0.12782454 0.49576274
-0.013010949 -0.12725814 0.49616107
-0.011425614 -0.12635128 0.49565056
-0.010308057 -0.12578601 0.49604809
-0.0091904998 -0.12522073 0.49644563
-0.0076140165 -0.12431836 0.49593195
-0.0064986944 -0.12375422 0.49632868
-0.0049288571 -0.1228552 0.49581265
-0.0038157552 -0.12229218 0.49620861
-0.0022525787 -0.12139651 0.4956902
-0.0011416674 -0.12083462 0.49608538
-3.0770898e-05 -0.1202727 0.49648055
0.0015235692 -0.11938155 0.49595892
0.0026322454 -0.11882076 0.4963533
0.0041799098 -0.11793296 0.49582937
0.0052863657 -0.1173733 0.49622297
0.0063928366 -0.11681363 0.49661657
0.0074992925 -0.11625396 0.49701014
0.0090358853 -0.11537178 0.49648228
0.010140121 -0.11481324 0.49687508
0.011244372 -0.1142547 0.49726787
0.012348622 -0.11369616 0.4976607
0.013452858 -0.11313762 0.49805349
0.014557108 -0.11257906 0.49844629
0.016078174 -0.11170471 0.49791288
0.017180204 -0.11114728 0.49830487
0.018282235 -0.11058986 0.49869689
0.019384265 -0.11003244 0.49908891
0.02048628 -0.10947502 0.49948093
0.021588326 -0.10891759 0.49987295
0.022690356 -0.10836017 0.500265
0.024193645 -0.10749482 0.49972525
0.025293469 -0.10693853 0.50011647
0.026790112 -0.10607651 0.49957442
0.027887702 -0.10552134 0.49996486
0.028985307 -0.10496615 0.5003553
0.030082896 -0.10441098 0.50074577
0.031180501 -0.1038558 0.50113618
0.032663867 -0.10300052 0.50058937
0.033759236 -0.10244647 0.50097895
0.034854621 -0.10189241 0.50136864
0.036329105 -0.10104164 0.50081867
0.03742227 -0.10048871 0.50120753
0.038515434 -0.09993577 0.50159639
0.039981067 -0.099089459 0.50104326
0.041071996 -0.098537639 0.50143135
0.042530969 -0.097694725 0.50087583
0.043619677 -0.097144023 0.50126314
0.045072004 -0.096304446 0.50070524
0.046519876 -0.09546712 0.50014579
0.047604173 -0.094918668 0.50053155
0.049045399 -0.09408471 0.49996975
0.050127476 -0.09353739 0.50035465
0.051209539 -0.092990056 0.50073957
0.052641898 -0.092160583 0.50017458
0.054069832 -0.091333374 0.49960807
0.055147469 -0.09078829 0.49999142
0.056225106 -0.090243205 0.50037473
0.057644159 -0.089420438 0.49980503
0.05871959 -0.088876471 0.50018758
0.059795007 -0.088332504 0.50057018
0.061205178 -0.087514266 0.49999732
0.06227839 -0.086971417 0.50037909
0.063351586 -0.086428583 0.50076079
0.064424783 -0.085885733 0.50114262
0.065823898 -0.085073084 0.50056577
0.066894889 -0.084531352 0.50094676
0.06796588 -0.083989635 0.50132775
0.069036856 -0.083447918 0.50170875
0.070107847 -0.082906201 0.50208968
0.071493641 -0.082100272 0.50150818
0.072562411 -0.081559673 0.50188833
0.073631182 -0.081019074 0.50226855
0.074699953 -0.080478474 0.50264871
0.07607466 -0.079678185 0.50206327
0.07714121 -0.079138704 0.50244266
0.078207761 -0.078599222 0.50282204
0.079274312 -0.07805974 0.50320148
0.080340862 -0.077520274 0.50358081
0.081407413 -0.076980792 0.50396025
0.082473963 -0.07644131 0.50433964
0.083540514 -0.075901829 0.50471902
0.084607065 -0.075362362 0.50509846
0.085673615 -0.07482288 0.50547779
0.086740166 -0.074283399 0.50585723
0.087806717 -0.073743932 0.50623661
0.089152604 -0.072958194 0.50564086
0.090216935 -0.07241983 0.50601947
0.09128128 -0.071881481 0.50639808
0.092618287 -0.071100228 0.50579923
0.093950868 -0.070321232 0.50519872
0.095010757 -0.069785118 0.50557578
0.096336693 -0.069009483 0.50497293
0.097394377 -0.068474501 0.50534922
0.098713659 -0.067702204 0.50474405
0.099769123 -0.067168325 0.50511944
0.10108174 -0.06639944 0.50451195
0.10213499 -0.065866679 0.50488663
0.10344095 -0.065101139 0.50427669
0.10449198 -0.064569525 0.50465059
0.1057913 -0.063807331 0.50403821
0.10684011 -0.063276835 0.50441134
0.10813279 -0.062518023 0.5037967
0.10942102 -0.061761439 0.50318044
0.1104654 -0.061233178 0.50355196
0.11174697 -0.060479984 0.50293338
0.11302412 -0.05972901 0.5023132
0.18567692 -0.020565964 0.50344431
0.18650189 -0.020358607 0.50588679
0.18749529 -0.01985614 0.50624013
0.1884111 -0.019497879 0.50764042
0.18940669 -0.018994294 0.50799453
0.1904023 -0.018490702 0.5083487
0.19146879 -0.017846286 0.50765359
0.19246218 -0.017343819 0.50800693
0.19345555 -0.016841356 0.50836033
0.19444892 -0.016338889 0.50871372
0.1954423 -0.015836421 0.50906706
0.19643569 -0.015333954 0.50942039
0.19748665 -0.014697395 0.5087198
0.19847782 -0.014196053 0.50907242
0.19946899 -0.013694711 0.50942498
0.20046014 -0.013193361 0.50977755
0.2014513 -0.012692027 0.51013017
0.20244245 -0.012190677 0.51048267
0.20343362 -0.011689335 0.51083529
0.20446685 -0.011061735 0.51012832
0.20545579 -0.010561511 0.51048017
0.20644474 -0.010061286 0.51083195
0.20743369 -0.0095610693 0.51118374
0.20845585 -0.0089390874 0.51047283
0.20944257 -0.0084399804 0.51082385
0.21045807 -0.0078213699 0.51011062
0.21144256 -0.0073233955 0.51046085
0.2124514 -0.0067081451 0.50974518
0.21343371 -0.0062112808 0.51009464
0.21443589 -0.0055994019 0.50937665
0.21541597 -0.0051036626 0.50972527
0.21641152 -0.0044951327 0.50900495
0.21738936 -0.0040005185 0.50935274
0.21836722 -0.0035059042 0.5097006
0.21934508 -0.00301129 0.51004845
0.22032294 -0.0025166757 0.51039624
0.22130078 -0.0020220615 0.51074409
0.22227864 -0.0015274473 0.51109195
0.2232565 -0.001032833 0.5114398
0.22423436 -0.00053821877 0.51178765
0.2252122 -4.3604523e-05 0.51213551
0.22619008 0.00045101717 0.51248336
0.22716792 0.00094562396 0.51283121
0.22814579 0.0014402457 0.51317906
0.2291103 0.0020330697 0.51244771
0.23008592 0.0025265515 0.51279473
0.23106158 0.0030200481 0.51314175
0.23203722 0.0035135448 0.51348889
0.23299062 0.0041007623 0.51275349
0.23396404 0.0045931339 0.51309979
0.2349108 0.0051769763 0.51236212
0.235882 0.0056682304 0.51270759
0.2368532 0.0061594769 0.51305306
0.23779109 0.0067388266 0.51231217
0.23876008 0.0072289631 0.51265681
0.2396913 0.00780496 0.51191366
0.24065809 0.0082939714 0.51225758
0.24162485 0.0087829754 0.51260144
0.24254723 0.0093544796 0.51185513
0.24351178 0.0098423734 0.51219821
0.24447633 0.01033026 0.51254129
0.24544089 0.010818139 0.51288438
0.24635218 0.011384036 0.51213408
0.2473145 0.011870805 0.51247644
0.24827684 0.012357567 0.51281869
0.24917924 0.012918994 0.51206529
0.25013936 0.01340463 0.51240683
0.25109947 0.013890274 0.51274836
0.25199303 0.014447188 0.51199168
0.25295094 0.014931714 0.51233244
0.25390884 0.01541624 0.51267314
0.25479352 0.015968679 0.51191342
0.25574917 0.016452087 0.5122534
0.25670487 0.016935481 0.51259333
0.25766057 0.017418882 0.51293325
0.25853413 0.017965721 0.51216954
0.2594876 0.018447997 0.51250875
0.26044106 0.018930273 0.5128479
0.26139453 0.019412557 0.51318705
0.262348 0.019894825 0.5135262
0.26320827 0.020434923 0.51275778
0.2641595 0.020916082 0.51309615
0.26511079 0.02139724 0.51343453
0.26606202 0.021878399 0.5137729
0.26691121 0.022412887 0.51300049
0.26786023 0.02289292 0.51333809
0.26880926 0.023372961 0.51367569
0.26975831 0.023852995 0.51401329
0.27070734 0.024333028 0.51435089
0.27154323 0.02486081 0.51357377
0.27249002 0.025339719 0.51391053
0.27343684 0.025818635 0.5142473
0.27438366 0.026297536 0.51458412
0.27533048 0.026776452 0.51492095
0.27615306 0.027297491 0.51413906
0.27709764 0.027775282 0.51447511
0.27804226 0.028253073 0.51481116
0.27885598 0.028769633 0.51402605
0.27979836 0.029246306 0.51436126
0.28074074 0.029722972 0.51469648
0.28168312 0.030199645 0.5150317
0.28248575 0.030710589 0.51424277
0.28342593 0.031186137 0.51457727
0.28436607 0.031661678 0.51491165
0.28530622 0.032137226 0.51524609
0.28609776 0.032642566 0.51445317
0.2870357 0.033116989 0.51478684
0.28797364 0.033591419 0.51512045
0.28891158 0.034065843 0.51545405
0.28984958 0.034540273 0.51578772
-0.16999117 -0.20980871 0.48860258
-0.16805884 -0.20872918 0.4882156
-0.16684154 -0.20811346 0.48864862
-0.16491589 -0.20703733 0.48825926
-0.16370079 -0.20642272 0.48869151
-0.16178182 -0.20534998 0.48829979
-0.16056889 -0.20473647 0.48873124
-0.15865657 -0.2036671 0.4883371
-0.15744588 -0.2030547 0.48876777
-0.1555402 -0.2019887 0.48837131
-0.15433174 -0.20137742 0.48880118
-0.15243277 -0.20031479 0.48840237
-0.15053818 -0.19925436 0.48800197
-0.14933413 -0.19864535 0.48843026
-0.14813015 -0.19803634 0.48885855
-0.14624444 -0.19698042 0.488455
-0.14504257 -0.19637251 0.48888251
-0.14316353 -0.19531997 0.48847654
-0.14196393 -0.19471322 0.48890328
-0.14009145 -0.193664 0.48849499
-0.13889408 -0.19305836 0.48892093
-0.13702837 -0.19201253 0.48851028
-0.13583323 -0.19140802 0.48893541
-0.13463804 -0.19080348 0.48936054
-0.13278118 -0.18976213 0.48894677
-0.13158825 -0.18915872 0.48937109
-0.12973794 -0.18812071 0.48895487
-0.12854722 -0.18751843 0.48937845
-0.1273565 -0.18691616 0.489802
-0.12616578 -0.18631385 0.49022558
-0.12497506 -0.18571158 0.49064913
-0.12378433 -0.1851093 0.49107271
-0.12259361 -0.184507 0.49149626
-0.12076113 -0.18347801 0.49107379
-0.11957261 -0.18287684 0.49149656
-0.11838409 -0.18227568 0.49191934
-0.11719558 -0.18167453 0.49234211
-0.11600709 -0.18107335 0.49276489
-0.1148186 -0.18047218 0.4931877
-0.11363009 -0.17987102 0.49361047
-0.11244157 -0.17926987 0.49403325
-0.11062902 -0.17825095 0.49360365
-0.10944274 -0.17765091 0.49402565
-0.10763687 -0.17663535 0.49359369
-0.10583541 -0.17562208 0.49316013
-0.10403836 -0.174611 0.49272501
-0.10224578 -0.17360216 0.49228832
-0.10045764 -0.17259562 0.49185008
-0.099282414 -0.17200118 0.49226812
-0.09750092 -0.17099795 0.49182749
-0.095723838 -0.16999698 0.49138522
-0.093951195 -0.16899827 0.49094144
-0.092183024 -0.16800179 0.4904961
-0.09101671 -0.16741185 0.49091098
-0.089255124 -0.16641875 0.49046326
-0.088091046 -0.16582991 0.49087736
-0.086926907 -0.16524109 0.49129146
-0.085174233 -0.16425245 0.49084058
-0.084012359 -0.16366474 0.49125388
-0.082850456 -0.16307704 0.49166721
-0.081106633 -0.16209288 0.49121311
-0.079946935 -0.16150631 0.49162564
-0.078787267 -0.16091971 0.49203816
-0.077627569 -0.16033314 0.49245068
-0.076467901 -0.15974656 0.49286321
-0.075308204 -0.15915996 0.49327573
-0.073579937 -0.15818368 0.49281618
-0.072422475 -0.15759821 0.49322793
-0.071265012 -0.15701275 0.49363965
-0.070107549 -0.15642728 0.4940514
-0.068950087 -0.15584183 0.49446312
-0.067792624 -0.15525638 0.49487486
-0.066635162 -0.15467089 0.49528658
-0.064924628 -0.1537036 0.49482074
-0.06376937 -0.15311924 0.49523169
-0.062614113 -0.1525349 0.49564263
-0.06091246 -0.15157208 0.4951736
-0.059759408 -0.15098888 0.49558374
-0.058064431 -0.15002939 0.49511236
-0.056373805 -0.14907217 0.49463934
-0.054687649 -0.14811718 0.49416482
-0.053541273 -0.14753732 0.49457261
-0.051861763 -0.1465857 0.49409571
-0.050717622 -0.14600697 0.49450269
-0.049044758 -0.14505872 0.49402341
-0.047902822 -0.14448112 0.49442965
-0.046236604 -0.14353622 0.49394795
-0.045096874 -0.14295973 0.49435335
-0.043957174 -0.14238325 0.49475878
-0.042817414 -0.14180674 0.49516422
-0.041162312 -0.14086749 0.49467865
-0.040024787 -0.14029212 0.49508327
-0.038887292 -0.13971676 0.4954879
-0.037241071 -0.13878195 0.49499917
-0.036105782 -0.13820772 0.49540302
-0.034466207 -0.13727628 0.49491191
-0.033333153 -0.13670315 0.49531496
-0.032200068 -0.13613002 0.49571803
-0.030569345 -0.13520309 0.49522376
-0.029438466 -0.13463108 0.49562603
-0.027814388 -0.13370748 0.49512935
-0.026685759 -0.13313662 0.49553084
-0.025557116 -0.13256572 0.49593231
-0.023941934 -0.13164665 0.49543253
-0.022815496 -0.13107687 0.49583322
-0.021206975 -0.13016117 0.49533108
-0.020082742 -0.12959254 0.49573097
-0.018958554 -0.12902388 0.49613088
-0.017358884 -0.12811264 0.49562559
-0.016236901 -0.12754512 0.4960247
-0.015114918 -0.12697761 0.49642381
-0.01352407 -0.12607084 0.49591529
-0.012404323 -0.12550446 0.4963136
-0.010820165 -0.12460107 0.49580279
-0.009702608 -0.12403579 0.49620032
-0.0085850507 -0.12347052 0.49659786
-0.0070097744 -0.12257162 0.49608389
-0.0054389238 -0.12167497 0.49556834
-0.004325822 -0.12111194 0.49596429
-0.0027616322 -0.12021863 0.49544635
-0.0016507208 -0.11965671 0.49584153
-0.00053982437 -0.11909482 0.49623671
0.0005710721 -0.1185329 0.49663189
0.0021242052 -0.11764522 0.49610996
0.0032328963 -0.11708443 0.49650434
0.0047793388 -0.1162001 0.49598011
0.0058858097 -0.11564045 0.49637371
0.0069922656 -0.11508077 0.49676728
0.0080987364 -0.11452112 0.49716088
0.0092051923 -0.11396144 0.49755448
0.010738358 -0.11308385 0.49702552
0.011842608 -0.11252531 0.49741831
0.012946844 -0.11196677 0.49781111
0.01405111 -0.11140822 0.49820393
0.015155345 -0.11084968 0.49859673
0.016259581 -0.11029114 0.49898952
0.017777234 -0.10942139 0.49845502
0.018879265 -0.10886396 0.49884704
0.019981295 -0.10830654 0.49923906
0.021083325 -0.10774912 0.49963108
0.022185355 -0.1071917 0.50002313
0.023287386 -0.10663427 0.50041509
0.024789482 -0.10577239 0.4998751
0.025889307 -0.10521607 0.50026631
0.027384758 -0.10435757 0.49972394
0.028482348 -0.1038024 0.50011438
0.029579937 -0.10324721 0.50050485
0.030677527 -0.10269202 0.50089526
0.031775117 -0.10213685 0.50128567
0.033257291 -0.10128504 0.50073856
0.034352675 -0.10073099 0.5011282
0.035448045 -0.10017693 0.50151789
0.036921352 -0.099329621 0.50096762
0.038014501 -0.098776683 0.50135648
0.039107665 -0.098223746 0.50174534
0.040572092 -0.097380921 0.50119185
0.041663036 -0.096829116 0.50157994
0.043120787 -0.095989645 0.50102413
0.04420951 -0.095438957 0.50141144
0.04566063 -0.094602853 0.5008533
0.047107309 -0.093769014 0.50029349
0.048191592 -0.093220562 0.50067925
0.049631625 -0.09239006 0.50011718
0.050713703 -0.091842741 0.50050205
0.052147076 -0.091015637 0.49993756
0.053226948 -0.09046942 0.50032175
0.054653659 -0.089645669 0.49975488
0.055731297 -0.089100584 0.50013822
0.056808934 -0.0885555 0.50052154
0.058226794 -0.087736219 0.49995154
0.059302211 -0.087192252 0.50033408
0.060377628 -0.0866483 0.50071669
0.061786607 -0.085833505 0.50014353
0.062859803 -0.08529067 0.50052524
0.063933015 -0.084747821 0.50090706
0.065333128 -0.083937511 0.50033069
0.066404119 -0.083395779 0.50071168
0.06747511 -0.082854062 0.50109267
0.068546087 -0.082312346 0.50147367
0.069617078 -0.081770629 0.5018546
0.071003899 -0.080967069 0.50127357
0.07207267 -0.080426469 0.50165379
0.073141441 -0.07988587 0.50203395
0.074210197 -0.079345271 0.50241411
0.075585917 -0.078547306 0.50182915
0.076652467 -0.078007825 0.50220859
0.077719018 -0.077468343 0.50258791
0.078785568 -0.076928861 0.50296736
0.079852119 -0.076389395 0.50334674
0.08091867 -0.075849913 0.50372612
0.08198522 -0.075310431 0.50410557
0.083051771 -0.07477095 0.50448489
0.084118322 -0.074231483 0.50486434
0.085184872 -0.073692001 0.50524372
0.086251438 -0.07315252 0.5056231
0.087317973 -0.072613053 0.50600255
0.088664889 -0.071829669 0.50540727
0.08972922 -0.071291305 0.50578588
0.09079355 -0.070752956 0.50616449
0.092131585 -0.069974072 0.50556612
0.093193695 -0.069436841 0.50594389
0.094525069 -0.068661302 0.50534314
0.095852017 -0.067888021 0.50474083
0.096909702 -0.06735304 0.50511706
0.098230004 -0.066583097 0.50451231
0.099285468 -0.066049218 0.50488782
0.1005991 -0.065282673 0.50428075
0.10165235 -0.064749911 0.50465542
0.10295932 -0.063986726 0.50404596
0.10426188 -0.063225783 0.50343496
0.10531069 -0.062695272 0.50380802
0.10635951 -0.062164776 0.50418115
0.18530898 -0.019372188 0.50218326
0.18612969 -0.019161262 0.50462389
0.18695928 -0.018945828 0.50706774
0.18795489 -0.018442243 0.50742185
0.18895048 -0.017938659 0.50777602
0.18994607 -0.017435066 0.50813019
0.19094168 -0.016931482 0.50848436
0.19193727 -0.016427897 0.50883853
0.19300035 -0.015788067 0.50814229
0.19399372 -0.015285607 0.50849569
0.1949871 -0.01478314 0.50884902
0.19598049 -0.014280673 0.50920236
0.19697386 -0.013778213 0.50955576
0.19802363 -0.013145126 0.50885487
0.1990148 -0.012643777 0.50920743
0.20000595 -0.012142442 0.50955999
0.20099711 -0.011641093 0.50991261
0.20198826 -0.011139758 0.51026517
0.20297943 -0.010638408 0.51061773
0.2039706 -0.010137059 0.51097035
0.20500262 -0.0095129386 0.51026309
0.20599158 -0.009012714 0.51061487
0.20698051 -0.0085124969 0.51096666
0.20800368 -0.007892862 0.51025629
0.20899042 -0.007393755 0.51060724
0.21000692 -0.0067774989 0.50989449
0.21099143 -0.0062795244 0.51024473
0.21197593 -0.0057815425 0.51059496
0.21298358 -0.0051697567 0.50987899
0.21398678 -0.0045602322 0.50916147
0.21496686 -0.0040644929 0.50951016
0.21594694 -0.0035687536 0.50985879
0.21694127 -0.0029637031 0.50913811
0.21791913 -0.0024690814 0.50948596
0.21889699 -0.0019744746 0.50983381
0.21987484 -0.0014798529 0.51018167
0.22085269 -0.00098524615 0.51052952
0.22183056 -0.00049062446 0.51087737
0.22280841 3.9823353e-06 0.51122522
0.22378628 0.00049860403 0.51157308
0.22476412 0.00099321082 0.51192087
0.225742 0.0014878325 0.51226872
0.22671984 0.0019824393 0.51261657
0.2276977 0.002477061 0.51296437
0.22867556 0.0029716752 0.51331222
0.22963886 0.0035610199 0.51258057
0.2306145 0.0040545166 0.51292765
0.23159014 0.0045480132 0.51327467
0.23256578 0.0050415024 0.51362175
0.23351799 0.005625248 0.51288611
0.23446575 0.006206736 0.51214886
0.23543696 0.00669799 0.51249439
0.23640816 0.0071892366 0.51283985
0.23734707 0.0077662468 0.5120995
0.23831606 0.0082563832 0.51244414
0.23928505 0.0087465048 0.51278889
0.24021508 0.0093190372 0.51204538
0.24118185 0.0098080412 0.51238924
0.24214861 0.010297049 0.5127331
0.2431154 0.010786057 0.51307702
0.24403435 0.011352971 0.51232958
0.2449989 0.01184085 0.51267266
0.2459112 0.012404408 0.51192284
0.24687353 0.012891177 0.51226521
0.24783586 0.013377938 0.51260746
0.24873929 0.013936996 0.51185453
0.2496994 0.014422635 0.51219606
0.25065953 0.014908278 0.5125376
0.25155407 0.015462851 0.51178145
0.25251198 0.015947377 0.51212215
0.25346988 0.016431903 0.51246297
0.25435555 0.016981995 0.51170361
0.25531125 0.017465403 0.5120436
0.25626692 0.017948797 0.51238358
0.25722259 0.018432198 0.51272357
0.2580972 0.018976683 0.51196027
0.25905067 0.019458959 0.51229942
0.26000413 0.019941235 0.51263857
0.2609576 0.020423518 0.51297772
0.26191106 0.020905787 0.51331693
0.26286453 0.021388071 0.51365614
0.26372361 0.021924697 0.51288736
0.2646749 0.022405855 0.51322573
0.26562613 0.022887014 0.51356411
0.26647633 0.023419147 0.51279223
0.26742536 0.023899181 0.51312983
0.26837438 0.024379222 0.51346743
0.26932344 0.024859255 0.51380503
0.27027246 0.025339289 0.51414257
0.27122152 0.025819322 0.51448017
0.27205616 0.026343625 0.51370275
0.27300298 0.026822541 0.51403952
0.2739498 0.027301442 0.51437628
0.27489662 0.027780358 0.51471311
0.27584344 0.028259266 0.51504993
0.27666479 0.028776849 0.5142678
0.27760941 0.02925464 0.51460373
0.27855402 0.029732438 0.51493979
0.27936652 0.030245511 0.51415443
0.2803089 0.030722177 0.51448965
0.28125128 0.03119885 0.51482487
0.28205493 0.031707447 0.51403642
0.2829951 0.032182995 0.51437086
0.28393525 0.032658536 0.5147053
0.28487539 0.033134084 0.51503974
0.28566796 0.033637069 0.5142473
0.28660589 0.034111492 0.51458097
0.28754386 0.034585923 0.51491463
0.2884818 0.035060346 0.51524824
0.28941977 0.035534777 0.51558185
-0.17126596 -0.20897698 0.48915443
-0.16933042 -0.20789874 0.48876873
-0.16739935 -0.20682272 0.48838142
-0.16618201 -0.20620701 0.48881444
-0.16425756 -0.20513433 0.48842481
-0.16233763 -0.20406398 0.48803356
-0.16112468 -0.20345047 0.48846504
-0.15991184 -0.20283696 0.48889646
-0.15800068 -0.20177102 0.48850206
-0.15609398 -0.20070738 0.48810607
-0.1548855 -0.2000961 0.48853594
-0.15298548 -0.19903582 0.4881376
-0.15177923 -0.19842568 0.4885667
-0.14988586 -0.19736871 0.488166
-0.14868185 -0.19675973 0.48859429
-0.14679512 -0.19570619 0.48819122
-0.14559326 -0.19509825 0.48861876
-0.14371321 -0.19404806 0.48821324
-0.1425136 -0.19344129 0.48863998
-0.141314 -0.19283448 0.48906669
-0.13944277 -0.19178878 0.4886581
-0.13757601 -0.19074531 0.48824796
-0.13638088 -0.19014077 0.48867309
-0.13518572 -0.18953626 0.48909822
-0.13332781 -0.18849726 0.48868492
-0.13213488 -0.18789385 0.48910925
-0.13028356 -0.18685822 0.48869354
-0.12909284 -0.18625592 0.48911709
-0.12790212 -0.18565364 0.48954067
-0.1267114 -0.18505137 0.48996422
-0.12552068 -0.18444906 0.4903878
-0.12432995 -0.18384679 0.49081138
-0.12313923 -0.18324451 0.49123493
-0.12194851 -0.18264221 0.49165848
-0.12075779 -0.18203993 0.49208206
-0.11956707 -0.18143764 0.49250564
-0.11837634 -0.18083535 0.49292919
-0.11655173 -0.17981318 0.49250403
-0.11536321 -0.17921202 0.49292681
-0.11417469 -0.17861085 0.49334958
-0.11298618 -0.17800967 0.49377236
-0.11179769 -0.17740852 0.49419513
-0.10998634 -0.17639308 0.49376526
-0.10880002 -0.17579304 0.49418727
-0.10699537 -0.17478096 0.49375501
-0.10519513 -0.17377116 0.49332115
-0.10339928 -0.17276356 0.49288571
-0.10160789 -0.1717582 0.49244872
-0.099820942 -0.17075512 0.49201018
-0.098038405 -0.16975427 0.49157003
-0.096260309 -0.16875562 0.49112827
-0.094486684 -0.16775927 0.49068496
-0.093318135 -0.1671682 0.49110064
-0.091551155 -0.1661752 0.49065498
-0.090384811 -0.16558525 0.49106988
-0.088624448 -0.16459562 0.49062186
-0.087460369 -0.16400678 0.49103597
-0.086296231 -0.16341795 0.49145004
-0.085132122 -0.16282913 0.49186417
-0.083968014 -0.16224031 0.49227825
-0.082221001 -0.16125737 0.49182549
-0.081059068 -0.16066967 0.49223882
-0.079897195 -0.16008197 0.49265212
-0.078735292 -0.15949427 0.49306545
-0.076999307 -0.15851696 0.49260867
-0.075839609 -0.15793036 0.49302122
-0.074679941 -0.15734379 0.49343371
-0.073520243 -0.15675719 0.49384627
-0.072360545 -0.15617061 0.49425879
-0.070637941 -0.15520005 0.49379733
-0.069480449 -0.15461458 0.49420908
-0.068323016 -0.15402912 0.4946208
-0.067165524 -0.15344365 0.49503255
-0.066008061 -0.15285818 0.49544427
-0.064298749 -0.15189436 0.4949781
-0.063143522 -0.15131003 0.49538907
-0.061440796 -0.15034953 0.49492052
-0.060287774 -0.14976633 0.49533069
-0.058591753 -0.14880919 0.49485978
-0.056900114 -0.14785433 0.49438724
-0.055212945 -0.14690168 0.4939132
-0.054066569 -0.14632183 0.49432099
-0.052386075 -0.14537257 0.49384457
-0.051241904 -0.14479384 0.49425158
-0.049568027 -0.14384794 0.49377277
-0.048426092 -0.14327031 0.49417898
-0.04675886 -0.1423278 0.49369779
-0.04561916 -0.1417513 0.49410322
-0.04447943 -0.14117482 0.49450862
-0.042821079 -0.14023675 0.49402431
-0.041683584 -0.13966139 0.49442896
-0.04054606 -0.13908602 0.49483359
-0.03889659 -0.13815247 0.49434614
-0.037761301 -0.1375782 0.49474999
-0.036626011 -0.13700397 0.49515381
-0.034985423 -0.13607489 0.49466321
-0.033852369 -0.13550176 0.49506626
-0.032719284 -0.13492864 0.49546933
-0.031087548 -0.13400406 0.49497554
-0.029956669 -0.13343205 0.49537781
-0.028331578 -0.1325108 0.49488163
-0.027202934 -0.13193993 0.4952831
-0.02607429 -0.13136904 0.49568459
-0.024458095 -0.13045232 0.49518529
-0.023331657 -0.12988254 0.49558598
-0.022205263 -0.1293128 0.49598667
-0.020597905 -0.12840053 0.49548423
-0.019473702 -0.12783191 0.49588412
-0.018349499 -0.12726328 0.49628404
-0.016751021 -0.1263555 0.49577844
-0.015629053 -0.12578799 0.49617755
-0.014507055 -0.12522048 0.49657667
-0.012917444 -0.12431717 0.49606782
-0.011797667 -0.12375078 0.49646616
-0.010214716 -0.12285087 0.49595505
-0.0090971589 -0.12228559 0.49635258
-0.0079796165 -0.12172031 0.49675012
-0.0064055175 -0.12082489 0.49623582
-0.0052901953 -0.12026075 0.49663258
-0.0037227571 -0.11936867 0.49611592
-0.0026096404 -0.11880565 0.49651191
-0.0010488778 -0.11791694 0.49599287
6.2018633e-05 -0.11735502 0.49638805
0.0011729151 -0.11679311 0.49678323
0.0027248561 -0.11590891 0.496261
0.0038335323 -0.11534813 0.49665537
0.0053787977 -0.11446728 0.49613085
0.0064852536 -0.11390761 0.49652442
0.0075917095 -0.11334795 0.49691802
0.0086981803 -0.11278827 0.49731162
0.0098046362 -0.11222862 0.49770522
0.010911107 -0.11166894 0.49809882
0.012017563 -0.11110929 0.49849239
0.013124034 -0.11054961 0.49888599
0.014649346 -0.10967886 0.49835435
0.015753582 -0.10912032 0.49874717
0.016857833 -0.10856177 0.49913996
0.017962083 -0.10800323 0.49953276
0.019066334 -0.10744469 0.49992558
0.02057834 -0.10658064 0.49938917
0.02168037 -0.10602322 0.49978119
0.0227824 -0.1054658 0.50017321
0.023884416 -0.10490838 0.50056523
0.025385335 -0.10404997 0.50002491
0.026485145 -0.10349366 0.50041616
0.027979389 -0.10263862 0.49987346
0.029076979 -0.10208343 0.50026393
0.030174583 -0.10152824 0.50065434
0.031272173 -0.10097307 0.50104475
0.032755345 -0.10012361 0.50049818
0.033850729 -0.099569559 0.50088775
0.034946099 -0.099015504 0.50127745
0.03642042 -0.098170549 0.50072765
0.037513584 -0.097617611 0.50111651
0.038606733 -0.097064674 0.50150537
0.039699882 -0.096511737 0.50189424
0.041163117 -0.095672369 0.50134051
0.042621896 -0.094835266 0.50078523
0.043710619 -0.094284579 0.50117248
0.045162752 -0.093450829 0.50061476
0.046249256 -0.09290126 0.50100124
0.047694728 -0.092070892 0.50044125
0.049135789 -0.09124276 0.49987963
0.050217852 -0.090695426 0.50026453
0.05129993 -0.090148091 0.50064945
0.05273211 -0.089324445 0.5000847
0.05415985 -0.088503048 0.49951833
0.055237472 -0.087957963 0.49990168
0.056315124 -0.087412879 0.50028503
0.057392746 -0.086867794 0.50066841
0.058809415 -0.086051986 0.50009805
0.059884831 -0.085508034 0.50048059
0.061294824 -0.084695593 0.49990794
0.062368035 -0.084152758 0.50028968
0.063441232 -0.083609909 0.50067151
0.064842373 -0.082801953 0.50009561
0.065913349 -0.082260221 0.5004766
0.066984341 -0.081718504 0.50085759
0.068055332 -0.081176788 0.50123858
0.069126308 -0.080635071 0.50161958
0.070514143 -0.07983385 0.50103903
0.071582913 -0.079293251 0.50141919
0.072651684 -0.078752652 0.50179935
0.073720455 -0.078212053 0.50217956
0.074789226 -0.077671453 0.50255972
0.076163739 -0.07687699 0.50197446
0.07723029 -0.076337509 0.50235385
0.07829684 -0.075798027 0.50273323
0.079363391 -0.07525856 0.50311267
0.080429941 -0.074719079 0.50349206
0.081496507 -0.074179597 0.50387144
0.082563058 -0.073640116 0.50425088
0.083629608 -0.073100649 0.50463021
0.084696159 -0.072561167 0.50500965
0.085762709 -0.072021686 0.50538903
0.08682926 -0.071482204 0.50576842
0.088177174 -0.070701174 0.50517368
0.089241505 -0.07016281 0.50555229
0.090305835 -0.069624461 0.5059309
0.091644883 -0.068847917 0.50533295
0.092706993 -0.068310685 0.50571084
0.094039395 -0.067537501 0.5051105
0.095367357 -0.066766575 0.50450867
0.096425042 -0.066231579 0.50488496
0.097746357 -0.06546399 0.50428069
0.098801821 -0.064930126 0.50465614
0.10011646 -0.064165935 0.50404954
0.18575951 -0.017968588 0.503362
0.18658489 -0.017749593 0.50580406
0.18749866 -0.017386615 0.50720334
0.18849427 -0.016883031 0.50755751
0.18948986 -0.016379438 0.50791168
0.19048545 -0.015875854 0.50826585
0.19148105 -0.015372269 0.50862002
0.19247665 -0.014868677 0.50897413
0.19353852 -0.014232341 0.50827765
0.1945319 -0.013729874 0.50863099
0.19552529 -0.013227407 0.50898433
0.19651866 -0.01272494 0.50933772
0.19756944 -0.0120942 0.50863731
0.19850542 -0.011720013 0.51004446
0.1994988 -0.011217546 0.51039779
0.20054293 -0.010590173 0.50969505
0.20153408 -0.010088824 0.51004761
0.20252524 -0.0095874816 0.51040018
0.20351641 -0.0090861395 0.5107528
0.20454945 -0.0084643587 0.51004601
0.20553841 -0.0079641342 0.51039779
0.20652734 -0.0074639171 0.51074958
0.20751628 -0.0069636926 0.51110137
0.20853826 -0.006347537 0.51039064
0.20952497 -0.005848445 0.51074171
0.21054029 -0.0052356534 0.5100286
0.21152478 -0.0047376715 0.51037884
0.21253346 -0.0041282326 0.5096634
0.21351574 -0.0036313832 0.51001281
0.21451776 -0.0030253232 0.50929505
0.21549784 -0.0025295839 0.50964367
0.21649317 -0.0019268803 0.50892353
0.21747105 -0.0014322586 0.50927138
0.21844889 -0.00093765184 0.50961918
0.21942675 -0.00044303015 0.50996703
0.22040461 5.1576644e-05 0.51031482
0.22138247 0.00054619834 0.51066267
0.22236031 0.0010408051 0.51101053
0.22333819 0.0015354231 0.51135838
0.22431603 0.0020300336 0.51170623
0.2252939 0.0025246553 0.51205409
0.22627175 0.0030192621 0.51240194
0.22724961 0.0035138838 0.51274979
0.22822747 0.004008498 0.51309764
0.22919178 0.0045954809 0.51236641
0.23016743 0.0050889775 0.51271349
0.23114307 0.0055824742 0.51306057
0.2320985 0.0061649904 0.51232618
0.23307192 0.006657362 0.51267242
0.23404534 0.0071497336 0.51301873
0.23499192 0.0077277571 0.51228118
