# .PCD v0.7 - Point Cloud Data file format
VERSION 0.7
FIELDS x y z
SIZE 4 4 4
TYPE F F F
COUNT 1 1 1
WIDTH 1357
HEIGHT 1
VIEWPOINT 0 0 0 1 0 0 0
POINTS 1357
DATA ascii
0.10485038 -0.085175835 0.45478633
0.11452002 -0.084746949 0.45223299
0.12245846 -0.082971528 0.45035544
0.096301503 -0.076905891 0.45870292
0.10514203 -0.075495899 0.4570666
0.11494827 -0.075111166 0.45587113
0.12492342 -0.074734107 0.45270267
0.1340719 -0.073474459 0.45022154
0.14007361 -0.071307465 0.45000234
0.10772569 -0.068117663 0.45880148
0.1153999 -0.065120257 0.45793542
0.12506966 -0.064906806 0.45548922
0.13463736 -0.065062091 0.45145959
0.14286934 -0.063375965 0.45012814
0.15063179 -0.060161836 0.4500038
0.11782267 -0.057765868 0.45891953
0.12523864 -0.055331647 0.45750338
0.13464467 -0.054856583 0.45362273
0.14515139 -0.05502886 0.45121247
0.15348063 -0.053987034 0.45005324
0.12726761 -0.045619294 0.45811552
0.13491189 -0.045189865 0.45514587
0.14496946 -0.045105848 0.45276755
0.15475449 -0.044837918 0.45087373
0.16141313 -0.043010633 0.45000595
0.12911206 -0.038181089 0.45900521
0.13542345 -0.035431881 0.45810282
0.14520144 -0.034729332 0.45613706
0.15482759 -0.0349801 0.45242542
0.16174513 -0.035143916 0.45013991
0.13755463 -0.028391548 0.45900646
0.14521115 -0.026874432 0.45855689
0.15537031 -0.025960656 0.45578068
0.16330206 -0.025437655 0.45138764
0.14838098 -0.014574272 0.45855361
0.15513152 -0.015559861 0.4563134
0.16313046 -0.015846074 0.45504701
0.14993082 -0.0098231658 0.45500869
0.15494977 -0.0092960177 0.45408037
0.16060674 -0.0098227281 0.45500907
-0.030551681 -0.17884028 0.46998575
-0.023784842 -0.17639226 0.46917048
-0.014862414 -0.17406355 0.46722871
-0.0049709259 -0.17358132 0.46466571
0.0047025378 -0.1735117 0.46286246
0.011748987 -0.17215551 0.46135625
-0.011836027 -0.16816279 0.46934465
-0.0051088617 -0.16501491 0.46747378
0.0047164438 -0.16496196 0.46428013
0.014743833 -0.16472967 0.46248236
0.022803497 -0.1630566 0.46134919
-0.004299345 -0.15576313 0.46918529
0.004742607 -0.15492922 0.46687821
0.015027616 -0.15492158 0.46503839
0.023878425 -0.15450157 0.46238235
-0.001436974 -0.14861451 0.46998975
0.0051636156 -0.14520863 0.46905378
0.015144133 -0.1448331 0.46723443
0.02528901 -0.14494088 0.46363395
0.03339019 -0.14271522 0.46167722
0.015940372 -0.13561341 0.46938044
0.025005272 -0.13499196 0.46649843
0.034752399 -0.13495758 0.4629308
0.042879004 -0.13370559 0.46145624
0.018459074 -0.12860014 0.4699924
0.025459139 -0.12548377 0.46824673
0.035113011 -0.12499813 0.46473622
0.04495189 -0.12455648 0.46281427
0.053590879 -0.12282142 0.46180195
0.028348107 -0.11580543 0.46958029
0.035210058 -0.11489227 0.46742481
0.044834983 -0.11492028 0.465473
0.054788131 -0.11489426 0.46296909
0.060871307 -0.11181375 0.46099555
0.029588245 -0.10848401 0.46999475
0.035736792 -0.10551292 0.46944171
0.045160279 -0.10517354 0.46848845
0.05504664 -0.10524538 0.46517166
0.064757682 -0.10486246 0.46233982
0.07388854 -0.10248193 0.46183029
0.039696775 -0.099600032 0.46999601
0.046453357 -0.096165165 0.46914291
0.055199079 -0.095029503 0.46593434
0.065089479 -0.095140256 0.46401232
0.075266674 -0.095039822 0.46271992
0.081001565 -0.091080889 0.4609983
0.049498938 -0.089797065 0.46999732
0.055595078 -0.085996151 0.46853787
0.064990744 -0.085171856 0.46588296
0.075151831 -0.085090674 0.46355709
0.083766095 -0.083082192 0.46195373
0.058688439 -0.079994127 0.4699986
0.066345878 -0.076467663 0.46922648
0.074620314 -0.074826889 0.46613851
0.085115217 -0.074850239 0.46293429
0.093995012 -0.072910324 0.46102437
0.10001306 -0.07109493 0.46000093
0.076139517 -0.065546669 0.46757698
0.085116409 -0.064820908 0.46554044
0.095099673 -0.064902693 0.46392789
0.10439795 -0.064565293 0.46141082
0.1116054 -0.061100706 0.4600023
0.079348862 -0.059036959 0.46900135
0.086322844 -0.055304401 0.46847138
0.094961636 -0.055039622 0.46519235
0.1052055 -0.05520894 0.46205902
0.11443246 -0.054292981 0.46048453
0.121199 -0.051506314 0.46000361
0.088926345 -0.048439715 0.46900275
0.095610596 -0.045211144 0.46686897
0.10492115 -0.04496165 0.46412373
0.11499253 -0.044939864 0.46238691
0.1227957 -0.0444053 0.46090436
0.096335083 -0.036053509 0.4680995
0.10489404 -0.034943774 0.46572679
0.11510926 -0.034937523 0.46400511
0.12505306 -0.034460787 0.46153322
0.13215128 -0.030798826 0.460006
0.099522412 -0.029079661 0.46900499
0.10562488 -0.027223634 0.4681336
0.11511286 -0.02530911 0.46722025
0.12505925 -0.025135575 0.4639785
0.13460767 -0.024462648 0.46089557
0.14456095 -0.022234786 0.46000728
0.15133892 -0.021923592 0.46000758
0.11718692 -0.015981361 0.46844175
0.12521701 -0.014851204 0.46533665
0.13522813 -0.015115126 0.46228388
0.14398901 -0.015960254 0.46022069
0.15037939 -0.018925508 0.46000782
0.119085 -0.0089040929 0.46900767
0.12567185 -0.0058656395 0.46772254
0.13451789 -0.0048002708 0.46553034
0.1423862 -0.0094077773 0.46045288
0.13514103 0.001243517 0.46830922
0.12886564 0.016773282 0.4690105
0.1324863 0.015952328 0.46884391
0.20792261 0.087343723 0.4683384
0.21383236 0.08808028 0.46628138
0.20849375 0.093646109 0.4688209
0.21414895 0.094894372 0.46640572
0.20956123 0.1023665 0.46902171
0.21306926 0.10251844 0.46713728
-0.071455069 -0.1818127 0.47998396
-0.065414272 -0.18166 0.47848415
-0.054801293 -0.18115501 0.47660962
-0.045160677 -0.18089119 0.47465169
-0.037080035 -0.18020241 0.47248539
-0.071246624 -0.17889279 0.47998428
-0.064474806 -0.17709158 0.47903132
-0.054775316 -0.17514575 0.47813225
-0.044766378 -0.17502372 0.47558296
-0.034754302 -0.17445773 0.47316661
-0.025792165 -0.17246947 0.47186536
-0.051329184 -0.16596095 0.47998628
-0.045085095 -0.16516244 0.47868225
-0.034861468 -0.16511536 0.47671017
-0.024927817 -0.16509733 0.47403064
-0.015679164 -0.16484085 0.47173312
-0.050808091 -0.15803546 0.47998706
-0.044434916 -0.15540348 0.47918409
-0.035080764 -0.15494214 0.47795981
-0.024752906 -0.15485349 0.47498822
-0.014756326 -0.15513474 0.47184372
-0.0078615574 -0.15206297 0.47105581
-0.041214466 -0.14885819 0.47998825
-0.034141798 -0.14664428 0.47978356
-0.025017608 -0.14512269 0.47846803
-0.015106109 -0.1452055 0.47544912
-0.0054600853 -0.14466476 0.47267249
0.0019901448 -0.14132324 0.47110164
-0.021526385 -0.13751145 0.47999009
-0.015010125 -0.13508001 0.47899044
-0.0049579032 -0.13529116 0.47561413
0.0046640248 -0.13483733 0.47251305
0.011474465 -0.13340738 0.47110283
-0.020775989 -0.12674944 0.47999117
-0.014470001 -0.12770143 0.47995284
-0.0045610717 -0.12598895 0.47873759
0.0048564728 -0.12512136 0.47590533
0.014326957 -0.12492039 0.47273108
0.021255471 -0.12227356 0.471084
-0.0027640453 -0.11450027 0.47999293
0.0049644839 -0.11498887 0.47853607
0.014791268 -0.11501961 0.47450083
0.022982083 -0.11462015 0.47172311
-0.0016930068 -0.10891636 0.47999361
0.0061791153 -0.10647937 0.47985125
0.014760345 -0.10499978 0.47753078
0.024921054 -0.10492606 0.47331449
0.032349788 -0.10113818 0.47145712
0.0092561645 -0.096714862 0.47999516
0.015011565 -0.094743744 0.47831863
0.024567068 -0.094999641 0.47499591
0.035088833 -0.094914168 0.47269353
0.043077309 -0.093125381 0.47156817
0.01722612 -0.085339099 0.47980899
0.024677617 -0.085113414 0.47730568
0.034931481 -0.085068725 0.47379729
0.045356125 -0.084783338 0.47249761
0.052879881 -0.082163423 0.47119817
0.017598037 -0.078777909 0.47999719
0.025771638 -0.075589396 0.47856385
0.034444634 -0.075110331 0.47558022
0.044941857 -0.075058788 0.4736653
0.055289134 -0.074857116 0.47238955
0.06292326 -0.073349126 0.47113273
0.02829716 -0.06777703 0.4798876
0.035550382 -0.065582208 0.47882968
0.044801302 -0.065080561 0.47639963
0.054975796 -0.064986907 0.47381422
0.064991958 -0.06485685 0.47131288
0.071806148 -0.063029334 0.47005075
0.036980141 -0.058734313 0.47983322
0.045886531 -0.055726219 0.4784191
0.054928731 -0.055118147 0.47618505
0.065082721 -0.055132683 0.4732134
0.074646421 -0.054878484 0.47063652
0.081745632 -0.053314626 0.470002
0.049196053 -0.049057949 0.47900125
0.055390991 -0.045193959 0.47802001
0.064821415 -0.04509202 0.47539458
0.075056396 -0.045335472 0.47279936
0.084815569 -0.044836417 0.47088179
0.091157891 -0.042620532 0.4700034
0.058218427 -0.038734723 0.47875258
0.066136032 -0.036399372 0.47757122
0.075090952 -0.034882724 0.47531515
0.085046321 -0.035146426 0.47282583
0.092535578 -0.033514027 0.4705599
0.069175772 -0.029076591 0.47900394
0.075323582 -0.024727268 0.47659275
0.085254982 -0.024617814 0.47405025
0.095039099 -0.024908314 0.4719924
0.10430855 -0.02283716 0.4702366
0.11076214 -0.021176623 0.4700062
0.076493613 -0.016614564 0.47771129
0.085153259 -0.014541632 0.47596186
0.095076665 -0.014637846 0.4738678
0.10503306 -0.015102554 0.47181687
0.11267661 -0.01383223 0.47033051
0.086845718 -0.0064418395 0.47819906
0.09488555 -0.0046943324 0.47645172
0.10501219 -0.0046759252 0.47449198
0.11491421 -0.0045917034 0.47227547
0.1231842 -0.0020385985 0.47043705
0.09685801 0.0036239119 0.47832054
0.10497779 0.0053482722 0.47652283
0.11493906 0.0051501254 0.47427043
0.12498235 0.0052608424 0.47257259
0.13292095 0.0058374731 0.4711971
0.099144951 0.010885716 0.47900888
0.10576624 0.014199878 0.47785851
0.11503655 0.015308847 0.47606975
0.12479297 0.015021297 0.4724046
0.13228901 0.012894971 0.4703103
0.11696147 0.023489475 0.4784922
0.12396172 0.024464546 0.47532141
0.13045795 0.021726647 0.47034439
0.11870836 0.032323975 0.47901168
0.1248371 0.035056278 0.47715071
0.13117944 0.035907671 0.47570473
0.1274323 0.041368511 0.47872713
0.13204853 0.042967621 0.47865602
0.1467033 0.06569659 0.47709289
0.15185189 0.067632094 0.47207519
0.14867821 0.072571293 0.4776834
0.1552556 0.074518569 0.47641712
0.16354875 0.076836206 0.47520283
0.17085525 0.07923954 0.47701812
0.19078848 0.079977773 0.47401893
0.15908372 0.080820061 0.47901785
0.16625711 0.083315857 0.47864324
0.17517544 0.085141182 0.4769474
0.18515421 0.085022449 0.47420654
0.19447441 0.086025335 0.47127956
0.20258018 0.086510666 0.47029999
0.16720016 0.096657246 0.47901967
0.17498797 0.094683349 0.47778443
0.18511333 0.095086671 0.47441146
0.19504209 0.095130824 0.47202045
0.20400265 0.095147252 0.47062469
0.16782439 0.10080096 0.47902012
0.17746198 0.10474789 0.47891372
0.1850974 0.10505933 0.47682941
0.19512355 0.10504966 0.47345445
0.20462748 0.10466803 0.47166803
0.21000786 0.10626074 0.47002217
0.17864676 0.11120794 0.47902155
0.18561274 0.11326268 0.47806743
0.19346385 0.11269864 0.47526214
0.20380296 0.11056016 0.472689
-0.11105501 -0.18240835 0.48998249
-0.10475481 -0.18358894 0.48983371
-0.095164925 -0.18328506 0.48826501
-0.085155085 -0.18277493 0.48512232
-0.076302767 -0.18208067 0.48208904
-0.10488075 -0.17921443 0.48998305
-0.093714356 -0.17593141 0.48917881
-0.084778391 -0.17531355 0.48664558
-0.075073436 -0.1744961 0.48361945
-0.065632015 -0.17232917 0.48201641
-0.058963872 -0.17097554 0.48118553
-0.090144366 -0.16826855 0.48973465
-0.084631741 -0.16535519 0.48846668
-0.074746028 -0.16479944 0.48604444
-0.06521377 -0.16501252 0.48423141
-0.056355793 -0.16491808 0.48181954
-0.082887247 -0.15684162 0.48915991
-0.075100154 -0.15474227 0.48736155
-0.064646892 -0.15516594 0.48520553
-0.054954801 -0.15476125 0.48264244
-0.048416551 -0.15212598 0.48108774
-0.072859764 -0.14683372 0.48940405
-0.064843394 -0.14507446 0.48714259
-0.055062141 -0.14475194 0.48541674
-0.04543354 -0.14509583 0.48288241
-0.036726665 -0.14265995 0.48128536
-0.029596718 -0.14080784 0.48098952
-0.064271711 -0.13585883 0.48901001
-0.054720227 -0.13492388 0.486911
-0.044999607 -0.13496615 0.48477516
-0.035368595 -0.13501045 0.48268995
-0.025521325 -0.13496484 0.48107481
-0.061129771 -0.12843356 0.48998955
-0.05455244 -0.12515566 0.48819649
-0.045055207 -0.12500176 0.48536536
-0.035428837 -0.12468601 0.48352209
-0.025315221 -0.12527378 0.4816578
-0.015646867 -0.12324499 0.48122844
-0.0077007539 -0.121997 0.48099211
-0.05170529 -0.1180156 0.48953637
-0.044506527 -0.11524586 0.48824516
-0.034868047 -0.11498407 0.4853954
-0.025443122 -0.11517939 0.48336345
-0.015210208 -0.11532865 0.48194566
-0.0076730149 -0.11548429 0.48099276
-0.04289721 -0.10552523 0.4896411
-0.035059117 -0.10500695 0.48800942
-0.025197517 -0.10510028 0.48560256
-0.01525811 -0.1049667 0.4834379
-0.0053846757 -0.10494553 0.4816938
0.0033085688 -0.10307858 0.48109782
-0.05059224 -0.091067381 0.48999357
-0.044359848 -0.09305919 0.48919958
-0.034446374 -0.095243938 0.4892197
-0.024957551 -0.095200896 0.48827982
-0.015341391 -0.094758183 0.48602578
-0.0053256634 -0.095226936 0.48367131
0.004519213 -0.0950552 0.48191044
0.010529166 -0.090646297 0.48099583
-0.034635205 -0.084975608 0.48709315
-0.025237303 -0.084948048 0.4887917
-0.015427466 -0.085102834 0.48877674
-0.0051613958 -0.084997036 0.48542005
0.004896584 -0.085268736 0.48249626
0.012566661 -0.084454603 0.48099658
-0.02531399 -0.074850634 0.48642933
-0.015416314 -0.075500071 0.48948753
-0.0050974605 -0.074752249 0.48664826
0.0048022494 -0.07493443 0.48392567
0.014663154 -0.074697196 0.48191133
0.022002887 -0.072404914 0.48121232
-0.016740493 -0.067007147 0.48999715
-0.0044220556 -0.065392822 0.48889962
0.0050548743 -0.064615682 0.48674062
0.015026459 -0.065429144 0.48465461
0.024441468 -0.064589918 0.48207158
0.031595167 -0.062179692 0.48099938
-0.019909207 -0.054587957 0.48937324
-0.0019332692 -0.057470325 0.48972589
0.0050281188 -0.054560818 0.48852301
0.015017802 -0.055449132 0.48655316
0.025120554 -0.0552909 0.48440605
0.034811854 -0.054571651 0.48170704
0.042666227 -0.05254855 0.48047689
0.0061985892 -0.048190467 0.48969206
0.016306113 -0.046530332 0.48852304
0.025241755 -0.045406796 0.48673517
0.035244472 -0.045214586 0.48468864
0.044997353 -0.044862296 0.48165232
0.051561475 -0.042035758 0.48010206
0.019200929 -0.038397182 0.48900118
0.0255809 -0.035577435 0.48795176
0.035320848 -0.035184897 0.48575208
0.045198243 -0.034986377 0.4830339
0.054886613 -0.034610942 0.481653
0.063411891 -0.032440826 0.48076341
0.027947195 -0.028396659 0.48877171
0.035824873 -0.02551649 0.48755467
0.045421038 -0.025031915 0.48540977
0.05542393 -0.024978617 0.48434764
0.065122887 -0.024785541 0.4819248
0.070571266 -0.022254586 0.48000464
0.03759234 -0.018589709 0.48890382
0.045166884 -0.01549566 0.48825884
0.054919709 -0.014979015 0.48614967
0.065210134 -0.014729963 0.48332337
0.073586412 -0.013036435 0.48064196
0.080581903 -0.010365964 0.48000616
0.047214661 -0.005852242 0.48885155
0.05446171 -0.0048039919 0.4870683
0.064917505 -0.0047793901 0.48456165
0.075263642 -0.0047518704 0.48203775
0.083518721 -0.0035507425 0.48042798
0.05605546 0.0045198612 0.48829246
0.064734474 0.0052229133 0.48600712
0.075170778 0.0054435432 0.48407993
0.085338831 0.0053047114 0.48216406
0.093289793 0.0066092834 0.48044944
0.058294412 0.011961163 0.48900756
0.065079443 0.014819328 0.48821175
0.074714258 0.015501741 0.4866491
0.084823504 0.015285418 0.48450878
0.094925858 0.015566116 0.48184493
0.10261119 0.018114157 0.48025978
0.067521527 0.021856841 0.48900875
0.075135499 0.024888935 0.48791501
0.084693156 0.02496643 0.48567051
0.094861135 0.024774512 0.48438296
0.1051349 0.0254976 0.48226053
0.11372772 0.026327204 0.48029304
0.077598549 0.03189636 0.48882264
0.085483856 0.03426129 0.48806232
0.095080748 0.034557875 0.48699543
0.10488858 0.03479518 0.48442814
0.11448079 0.035840381 0.48134512
0.12104151 0.039274193 0.48001242
0.088783495 0.040752873 0.48901141
0.095633432 0.044633955 0.48791042
0.10478919 0.044522636 0.48493424
0.11496288 0.04494312 0.48286766
0.12481587 0.045898795 0.48104769
0.13235584 0.047747612 0.4800137
0.09753859 0.051941939 0.48857534
0.10495248 0.05328865 0.48624048
0.11450963 0.052558742 0.48326334
0.12528092 0.0532763 0.48206395
0.13467798 0.055129472 0.48036227
0.14161678 0.0565941 0.48190376
0.1419557 0.06199234 0.4802154
0.14940484 0.077234201 0.48001716
0.15328407 0.078986309 0.48001748
0.1574477 0.084238604 0.48007691
0.16368753 0.087547973 0.48001859
0.15952604 0.092314504 0.48035231
0.16438174 0.093502901 0.4800193
0.17349319 0.099760227 0.4800202
0.1681747 0.10176224 0.4800202
0.17393099 0.10451554 0.48002067
0.17843565 0.11302517 0.48002166
0.18229695 0.11567114 0.4800221
-0.14598221 -0.19050395 0.49948046
-0.14252359 -0.18785982 0.49938077
-0.13495339 -0.18510912 0.49755028
-0.12484848 -0.18433343 0.4940533
-0.115424 -0.18425784 0.49127945
-0.1095748 -0.18598071 0.49098223
-0.13333972 -0.17553392 0.49925268
-0.12499329 -0.17487414 0.49679637
-0.1150976 -0.17488249 0.49372223
-0.10498897 -0.17446898 0.49183846
-0.097353131 -0.17269231 0.49125671
-0.1324876 -0.16832313 0.49971038
-0.12455498 -0.16622241 0.49913925
-0.11491444 -0.16500643 0.49754852
-0.10515323 -0.16466439 0.49532318
-0.095183551 -0.16494676 0.49260777
-0.088838667 -0.16191457 0.49098533
-0.11240306 -0.15588939 0.49954066
-0.1045061 -0.15524925 0.49718174
-0.094829321 -0.15488085 0.49416438
-0.086281538 -0.15360874 0.49164411
-0.07885462 -0.15013754 0.49098682
-0.1102817 -0.14702483 0.49998596
-0.10472317 -0.14523409 0.49832565
-0.09498518 -0.14475197 0.49566475
-0.085066199 -0.14513715 0.49358076
-0.07651034 -0.14389652 0.4919042
-0.10436914 -0.13539661 0.49904853
-0.095222071 -0.13460335 0.49693421
-0.085017569 -0.13527806 0.49459451
-0.074948616 -0.13467857 0.4928737
-0.067698248 -0.1326993 0.49130148
-0.10311687 -0.12840846 0.49971533
-0.094181053 -0.12633498 0.49884263
-0.085215189 -0.1251336 0.49745569
-0.075004645 -0.12493387 0.49511439
-0.065265328 -0.12493593 0.49229157
-0.058694728 -0.12101515 0.49099037
-0.090729862 -0.1189981 0.49998939
-0.084751382 -0.11537928 0.49873468
-0.075168319 -0.11485966 0.49619353
-0.065120146 -0.11503123 0.49407551
-0.055786699 -0.11459801 0.4917835
-0.049094602 -0.11141425 0.49099165
-0.083433874 -0.10900202 0.49824065
-0.074299499 -0.10663848 0.4952336
-0.064918563 -0.10481972 0.49318415
-0.055293608 -0.10491481 0.49202338
-0.047315575 -0.10342105 0.49102813
-0.07878425 -0.091592014 0.4969925
-0.062932193 -0.097852349 0.49199247
-0.055216569 -0.095560245 0.49252117
-0.045601953 -0.097766034 0.49126595
-0.053895738 -0.089973286 0.49099356
-0.015768744 -0.071319304 0.49099678
-0.066294283 -0.066718265 0.49867284
-0.015376923 -0.064855196 0.49151471
-0.0084574856 -0.062419899 0.49115175
-0.014919186 -0.055019356 0.49326631
-0.0059619336 -0.054308627 0.49220634
0.00050555455 -0.050288949 0.4909994
-0.021738902 -0.042573545 0.49394375
-0.015187577 -0.045125436 0.49618903
-0.005296201 -0.044811256 0.49417162
0.0046774219 -0.043627847 0.49178448
0.012735977 -0.042731691 0.4905223
-0.024431905 -0.038152926 0.49783298
-0.014339158 -0.035360083 0.49868932
-0.0053169257 -0.034660101 0.49634439
0.0048561292 -0.034735218 0.4942632
0.014977295 -0.034940932 0.49155697
0.021262553 -0.031981856 0.49000192
-0.012062944 -0.028125795 0.49900106
-0.0048901495 -0.025386214 0.49772167
0.0051888926 -0.025164284 0.49532411
0.015284839 -0.025429744 0.49303359
0.024804097 -0.024513941 0.49112046
0.032024693 -0.021662341 0.49016997
-0.0020890287 -0.017975846 0.4987717
0.0051880395 -0.015399103 0.49719641
0.015344618 -0.015204564 0.49497211
0.025172319 -0.015301133 0.49278343
0.034146298 -0.014293871 0.490908
0.041097876 -0.012002966 0.4900046
0.0071566128 -0.0056436737 0.49875396
0.015411563 -0.0049035125 0.49716055
0.024998641 -0.0048758248 0.49452254
0.034486484 -0.0048504127 0.49192685
0.042734724 -0.0041324827 0.49050531
0.0087505737 0.0033140781 0.49900487
0.015470306 0.0044728853 0.49859339
0.024939442 0.0049476526 0.49735859
0.034848493 0.0053029596 0.49532858
0.044816036 0.0054209372 0.49270967
0.052083112 0.0070226784 0.49073407
0.017260483 0.010848952 0.49900594
0.025137389 0.012005887 0.49887729
0.034818929 0.014945745 0.49751571
0.044956885 0.015096313 0.49427515
0.054466438 0.015355485 0.49100769
0.060968261 0.01837304 0.49000823
0.037148368 0.023694554 0.49849182
0.045125861 0.024860956 0.4961333
0.055153638 0.024717534 0.49327421
0.064300038 0.025451722 0.49104992
0.071187533 0.028593151 0.49000958
0.047043696 0.032784808 0.49871752
0.055483054 0.035058875 0.49689499
0.065264679 0.035094008 0.49382535
0.074448243 0.035856701 0.49113286
0.081860177 0.038400803 0.4901776
0.05674734 0.045050014 0.49868813
0.064613499 0.044964802 0.49679664
0.074767359 0.045150191 0.49379596
0.084900856 0.045458309 0.49110278
0.091200344 0.046904251 0.49001208
0.049619105 0.057195727 0.49901161
0.055303335 0.054116242 0.49874967
0.064557061 0.053644016 0.49755177
0.074645594 0.053436913 0.49465105
0.084415525 0.053993557 0.49159947
0.093841262 0.055399928 0.49092209
0.10127309 0.05834049 0.49068022
0.096328005 0.060330059 0.49301359
0.10129422 0.061267734 0.49251387
-0.18391782 -0.19231211 0.50934738
-0.17582992 -0.19233614 0.50807011
-0.16552763 -0.19175009 0.50620693
-0.15548073 -0.19122897 0.50281346
-0.14968467 -0.19107619 0.50098032
-0.18312334 -0.18558849 0.50952131
-0.17500338 -0.18519251 0.50834078
-0.1648045 -0.18504766 0.50723898
-0.15497503 -0.18533243 0.50513858
-0.14588657 -0.18430184 0.50226367
-0.13923597 -0.18127969 0.50098163
-0.18029611 -0.17988415 0.50998032
-0.17396873 -0.17583941 0.50937629
-0.165029 -0.17454553 0.5079993
-0.15511711 -0.17514466 0.50614518
-0.14518434 -0.17508508 0.50355619
-0.13830309 -0.17426927 0.50108761
-0.17165411 -0.16924696 0.50998163
-0.16379751 -0.16731718 0.50955904
-0.15485772 -0.16540821 0.50860089
-0.144924 -0.16494633 0.50532782
-0.13523111 -0.16412388 0.5019834
-0.12639107 -0.16163068 0.50126183
-0.15330531 -0.15511976 0.50995421
-0.14523193 -0.15493865 0.50823373
-0.1350617 -0.15504752 0.50489503
-0.12501195 -0.15479709 0.50368774
-0.11683311 -0.15438858 0.5016517
-0.15254192 -0.14847115 0.50998437
-0.14490005 -0.14553668 0.50887132
-0.13531579 -0.1447905 0.50584251
-0.12509935 -0.14507692 0.50453937
-0.11493921 -0.14476846 0.50222129
-0.14161144 -0.13792533 0.50952423
-0.13424614 -0.135308 0.50818628
-0.12499638 -0.13534597 0.50588644
-0.11494183 -0.13488701 0.50270927
-0.10882356 -0.1330446 0.50098741
-0.13220368 -0.12655887 0.5097872
-0.12512118 -0.12476338 0.50819093
-0.11497445 -0.12492535 0.5049541
-0.10558584 -0.12422488 0.50243938
-0.096405178 -0.12196032 0.50111395
-0.12143512 -0.11915769 0.50958836
-0.11391222 -0.11686909 0.50895852
-0.10488298 -0.11555985 0.50606471
-0.095264286 -0.11500978 0.50288057
-0.089232326 -0.11214558 0.50099015
-0.066926934 -0.061927188 0.50232917
-0.065781265 -0.054446977 0.50367743
-0.034160353 -0.032828096 0.50565368
-0.025026528 -0.033507124 0.50288641
-0.018223224 -0.032747801 0.50036407
-0.040732261 -0.025993505 0.50390023
-0.035061102 -0.024755191 0.5055005
-0.025150588 -0.024722515 0.50482905
-0.015635727 -0.024204988 0.501634
-0.0090491222 -0.022105955 0.50016838
-0.033847082 -0.016699253 0.50874048
-0.02525555 -0.014912295 0.50689477
-0.015163418 -0.01491804 0.50358224
-0.0061987825 -0.014712912 0.500983
0.00051298586 -0.011452977 0.50000316
-0.024189539 -0.0066962461 0.50871336
-0.014834436 -0.0048730359 0.506971
-0.0049196859 -0.0051000379 0.5033139
0.0023762097 -0.0040069385 0.50050396
-0.014180763 0.0047053038 0.5078243
-0.0047507505 0.0048884694 0.50473928
0.0040737479 0.0052720467 0.5013231
0.01224395 0.0087522492 0.50000554
-0.012005757 0.012368026 0.50872725
-0.0044897874 0.014437132 0.50741732
0.0051083905 0.014740878 0.50400591
0.014480088 0.015287913 0.50133961
0.024118703 0.017067999 0.50055218
0.030492973 0.019181252 0.50000721
-0.0020446209 0.023320535 0.50880641
0.0051347665 0.024718152 0.50656044
0.015055213 0.025195535 0.50455272
0.024768129 0.025199436 0.50296068
0.033027556 0.026291471 0.50073528
0.0070389584 0.032222435 0.50867432
0.015069482 0.035160922 0.50751847
0.024849635 0.035147347 0.50463372
0.03519937 0.034975886 0.50213397
0.044084858 0.036257785 0.50062233
0.050045155 0.038735036 0.50000983
0.017680747 0.043147609 0.50882161
0.025102442 0.044955891 0.50650138
0.035018317 0.044890177 0.5050776
0.044712733 0.045083798 0.50356758
0.051735248 0.045006674 0.50049198
0.017770056 0.05933588 0.50901067
0.025655679 0.053101595 0.50845861
0.034614399 0.052049745 0.50669801
0.045189869 0.052724168 0.50314897
0.050803799 0.051784806 0.50015396
0.015357262 0.061145317 0.50901079
-0.22386283 -0.19385697 0.51861739
-0.21495071 -0.19263946 0.51597774
-0.20492509 -0.1934711 0.51400429
-0.1954567 -0.1930352 0.51262128
-0.18908647 -0.19281919 0.5109787
-0.22166505 -0.18707593 0.51943964
-0.21480431 -0.18471847 0.51805407
-0.20515056 -0.18524845 0.51587164
-0.19509807 -0.18484513 0.51332545
-0.18712525 -0.18414165 0.51112252
-0.21359979 -0.17661934 0.51934975
-0.20493865 -0.17520365 0.5185647
-0.19507693 -0.17517039 0.51619834
-0.18505216 -0.17504589 0.51251912
-0.17798552 -0.17285834 0.51098096
-0.2024352 -0.16435726 0.51998103
-0.19517837 -0.16505779 0.51769817
-0.18485804 -0.16478904 0.513794
-0.17535219 -0.16497266 0.51143479
-0.16596 -0.16298954 0.51098239
-0.15866899 -0.16025281 0.51098299
-0.2011852 -0.15792529 0.51998168
-0.1944346 -0.15691049 0.51889104
-0.18466419 -0.15527186 0.51643705
-0.17476574 -0.15478927 0.5130375
-0.1648037 -0.15503401 0.5110833
-0.15793644 -0.1553902 0.51098353
-0.18194975 -0.14641812 0.51925015
-0.17507415 -0.14485864 0.51592273
-0.16521071 -0.14498697 0.51253426
-0.15547927 -0.1444366 0.51178837
-0.14783855 -0.14120311 0.51115185
-0.17395914 -0.13647731 0.51883322
-0.16486081 -0.13503881 0.51732391
-0.15515758 -0.13539067 0.51511276
-0.14582868 -0.13435023 0.51217204
-0.13846497 -0.13183151 0.51098651
-0.16312569 -0.12594165 0.51953793
-0.15495346 -0.1248478 0.51690316
-0.14507516 -0.12514728 0.51289254
-0.13626434 -0.12417225 0.51105869
-0.1607877 -0.11901582 0.51998693
-0.15427779 -0.11614303 0.51896107
-0.14494856 -0.11501611 0.51559901
-0.13477592 -0.11498834 0.51220244
-0.12493765 -0.1147528 0.51124936
-0.11760741 -0.11378402 0.51104456
-0.14490841 -0.10550602 0.51777136
-0.13542025 -0.10760043 0.51313168
-0.12828082 -0.10984211 0.511989
-0.14694864 -0.09916693 0.51898932
-0.05049222 -0.011798595 0.5150013
-0.043808922 -0.013441477 0.51237166
-0.036689188 -0.013485244 0.51046318
-0.062638134 -0.0022355395 0.5178439
-0.054429758 -0.0046615927 0.51635474
-0.045001123 -0.0050683846 0.51357359
-0.03495216 -0.0049152779 0.51127672
-0.026218381 -0.0022433954 0.51030314
-0.063326456 0.00362232 0.51856905
-0.054835904 0.0050156331 0.51796192
-0.04524732 0.005003198 0.51639092
-0.034994118 0.0049792202 0.51409274
-0.024815258 0.0049532014 0.51147324
-0.019200178 0.0067100339 0.51000428
-0.054944597 0.01043521 0.51900333
-0.044118904 0.013980133 0.51851827
-0.035106525 0.01507666 0.51567626
-0.024865067 0.014984397 0.51250488
-0.015867379 0.015921796 0.51089662
-0.0077252267 0.019039162 0.51020586
-0.041027874 0.023579853 0.51900512
-0.034661833 0.025014646 0.51710534
-0.024960294 0.025103204 0.51447517
-0.014860207 0.025035592 0.51307744
-0.0060264459 0.025610641 0.51124179
-0.032199092 0.033409115 0.51853275
-0.025099616 0.034682363 0.51733333
-0.014763872 0.034947507 0.5159238
-0.0048345216 0.035087869 0.51338243
0.0040490776 0.036441743 0.51080787
0.011157746 0.039508149 0.51000851
-0.024259178 0.04450151 0.51794094
-0.015123767 0.044982526 0.5159083
-0.004837838 0.045175537 0.51398814
0.0051926388 0.04501598 0.51213396
0.013915709 0.04565889 0.51073653
-0.022969419 0.053693969 0.51795864
-0.014786765 0.052828677 0.51500881
-0.0046223099 0.053492952 0.51361459
0.0051933988 0.055024289 0.51215053
0.015065898 0.054697473 0.51069516
0.021350734 0.055020601 0.51001042
0.0058447658 0.060866706 0.51072466
-0.26444593 -0.20053169 0.52937526
-0.25892714 -0.20000117 0.52797544
-0.26243562 -0.19618788 0.52980179
-0.25481948 -0.19514792 0.52816767
-0.24514467 -0.19469535 0.52579278
-0.23506367 -0.19440542 0.52307212
-0.22825339 -0.19251913 0.52097732
-0.26094478 -0.18866855 0.52997655
-0.25488505 -0.18503116 0.52911657
-0.24492644 -0.18490936 0.52643013
-0.23509841 -0.18475151 0.52455789
-0.22598895 -0.18433963 0.52172184
-0.2511546 -0.17856558 0.52972788
-0.24466632 -0.17541291 0.52895457
-0.23505101 -0.17495632 0.52607495
-0.22509682 -0.17479432 0.52334654
-0.21640503 -0.17309727 0.52127594
-0.20727642 -0.17018208 0.52098024
-0.24194661 -0.16897792 0.52997911
-0.23435529 -0.16590835 0.5288986
-0.22510412 -0.16521488 0.52568018
-0.21545859 -0.16485175 0.52287406
-0.20723279 -0.16536237 0.52098072
-0.2313538 -0.15539031 0.52998084
-0.2249485 -0.15492365 0.52751434
-0.21508178 -0.15524036 0.52407753
-0.20537452 -0.15442012 0.52208185
-0.1957837 -0.15194021 0.52167475
-0.18894041 -0.15116543 0.52098274
-0.22364457 -0.14774229 0.52953738
-0.21458983 -0.14552736 0.52765536
-0.20483802 -0.14517924 0.52601981
-0.19513552 -0.14479145 0.5246436
-0.18645561 -0.14474145 0.52189779
-0.21261717 -0.13870396 0.5299831
-0.20498432 -0.13502753 0.52927458
-0.19496377 -0.13483013 0.52651751
-0.18509182 -0.13492617 0.52315766
-0.17639637 -0.13256826 0.52115166
-0.20291407 -0.12657405 0.52998459
-0.19495891 -0.12495539 0.52827597
-0.18466882 -0.12511003 0.52462173
-0.17494576 -0.1248631 0.52177155
-0.16758023 -0.12381588 0.52103394
-0.19392367 -0.11508951 0.52890033
-0.184663 -0.11504984 0.5258382
-0.17489409 -0.11505227 0.52398682
-0.16529238 -0.11507803 0.52168518
-0.15721785 -0.11227831 0.52110529
-0.19257082 -0.10771423 0.52940351
-0.18423063 -0.10564847 0.52773738
-0.17484109 -0.10545497 0.5260064
-0.16485529 -0.1049595 0.52429163
-0.15499859 -0.10476217 0.52220839
-0.181383 -0.098967068 0.52998811
-0.17445579 -0.095340788 0.52924401
-0.16544005 -0.095040411 0.52726567
-0.15560371 -0.095909394 0.52411133
-0.14887334 -0.096832573 0.52098948
-0.17079005 -0.088833839 0.52998948
-0.16443387 -0.085068397 0.52896684
-0.15873145 -0.087357879 0.52665669
-0.16198877 -0.078215212 0.5298242
-0.081468187 0.0086700162 0.52133554
-0.074622087 0.0067284117 0.52223074
-0.06658452 0.0068449336 0.52033597
-0.094144031 0.016302843 0.52480239
-0.0844585 0.014624083 0.52661139
-0.074735284 0.014662496 0.5249213
-0.064716242 0.014563691 0.52139115
-0.054990131 0.015631242 0.52054739
-0.047787145 0.017181346 0.52033764
-0.081901155 0.022074152 0.52880347
-0.074628219 0.023976069 0.52725387
-0.06517864 0.024941135 0.52511138
-0.055516109 0.025223613 0.5233894
-0.045760762 0.02583595 0.5212605
-0.038783178 0.029435415 0.52000576
-0.063365608 0.034533802 0.52842468
-0.054518551 0.035117045 0.52584887
-0.0445031 0.03509346 0.52345496
-0.036329202 0.035792306 0.52107316
-0.061115719 0.044167541 0.52867299
-0.054403618 0.044931747 0.52682304
-0.04468336 0.044827651 0.52559876
-0.034827109 0.044695072 0.52276736
-0.028816553 0.04646875 0.52028042
-0.052992497 0.051526904 0.52875733
-0.044710457 0.054575007 0.52796537
-0.035000272 0.054799899 0.52538085
-0.027542157 0.055810399 0.52168876
-0.044425331 0.063346252 0.52760881
-0.036399163 0.063575111 0.52649403
-0.30119699 -0.20191976 0.53940237
-0.29448867 -0.20214395 0.53713191
-0.28509882 -0.20153674 0.5349744
-0.27497652 -0.20098038 0.53239149
-0.26939666 -0.20113792 0.53097498
-0.3007116 -0.19891682 0.53997409
-0.29437041 -0.19539084 0.5387997
-0.28487945 -0.19495003 0.53634238
-0.27520165 -0.19486752 0.53406054
-0.2670809 -0.19443175 0.53156829
-0.29310688 -0.18502769 0.53970909
-0.28484529 -0.18519753 0.53768051
-0.27482864 -0.1847752 0.53545469
-0.26539537 -0.18465501 0.53259581
-0.25859949 -0.18147968 0.53097731
-0.29142088 -0.17808077 0.53997648
-0.28461653 -0.17559014 0.5390721
-0.27499643 -0.17486179 0.53734088
-0.26506206 -0.1750541 0.53582382
-0.25529721 -0.17469339 0.53286451
-0.24770971 -0.17160417 0.53097862
-0.28100342 -0.16935191 0.53997767
-0.27348515 -0.16633597 0.5396983
-0.26497838 -0.16481355 0.53773427
-0.25494093 -0.16492628 0.5349586
-0.24513288 -0.16479903 0.53258353
-0.23801087 -0.16234404 0.53170717
-0.27220517 -0.15448152 0.53997946
-0.26525056 -0.15467443 0.53845686
-0.25521791 -0.1551761 0.5363133
-0.24526851 -0.15497525 0.53444552
-0.2364372 -0.15463571 0.53205973
-0.27185342 -0.14964212 0.53997993
-0.26457375 -0.14806689 0.53963035
-0.25467208 -0.14537208 0.53838521
-0.24487248 -0.14514397 0.53638518
-0.23512585 -0.1449348 0.53482795
-0.22577952 -0.1437221 0.53236926
-0.21910106 -0.14068584 0.53098267
-0.25173435 -0.13817045 0.53985673
-0.24462642 -0.13573006 0.53888488
-0.23503177 -0.13480322 0.53644782
-0.22555718 -0.13504414 0.53339201
-0.21592771 -0.13427712 0.53114605
-0.20987247 -0.13053356 0.53098398
-0.24386318 -0.12464214 0.53969306
-0.2348277 -0.12510419 0.53739178
-0.22452334 -0.12479807 0.53436184
-0.21517946 -0.12499758 0.53208637
-0.20667434 -0.12434954 0.53118473
-0.24318133 -0.11795127 0.53967631
-0.23459888 -0.11582831 0.53851944
-0.22504611 -0.11468899 0.53648514
-0.21472944 -0.11532184 0.53505808
-0.20483594 -0.11532023 0.53333861
-0.19865404 -0.11414856 0.53112882
-0.23079385 -0.10834455 0.53998542
-0.22431584 -0.1055392 0.53873599
-0.21501419 -0.10539205 0.53690457
-0.20507583 -0.10494136 0.53556436
-0.19585554 -0.10432512 0.53298706
-0.1878065 -0.10127988 0.53165436
-0.22175539 -0.097496226 0.5396868
-0.21455121 -0.095560506 0.53832054
-0.20522593 -0.095078945 0.53693193
-0.19489934 -0.095384143 0.53523803
-0.18501264 -0.09436208 0.53213841
-0.17803398 -0.091177128 0.53098899
-0.21181169 -0.086643659 0.53970253
-0.20467402 -0.084557801 0.53835833
-0.19488794 -0.085159004 0.53610218
-0.18493095 -0.084648348 0.53469855
-0.17519964 -0.08484564 0.5327453
-0.16889761 -0.082910202 0.53099012
-0.20214303 -0.076724112 0.53991812
-0.19484536 -0.074791737 0.5389483
-0.18490924 -0.074590735 0.53687668
-0.17515434 -0.075072259 0.5353424
-0.16612601 -0.074346967 0.5328629
-0.20076206 -0.069393784 0.53999031
-0.19432491 -0.065433055 0.53920025
-0.18452124 -0.064901277 0.5377872
-0.17528287 -0.064687029 0.53686655
-0.1674086 -0.065588757 0.53528595
-0.19231565 -0.058130927 0.53999168
-0.18491338 -0.055934254 0.53951597
-0.1752684 -0.055040825 0.53734976
-0.16647717 -0.054655045 0.53359902
-0.17307836 -0.046802137 0.53926629
-0.1661287 -0.044234566 0.53709394
-0.17119919 -0.039124563 0.5399943
-0.16497888 -0.035421081 0.53774494
-0.15808879 -0.033806607 0.53590441
-0.16343917 -0.028043263 0.53952509
-0.15557486 -0.024808584 0.53883338
-0.14966577 -0.021464922 0.53849685
-0.15189289 -0.018107112 0.53999704
-0.14507745 -0.013626406 0.5399977
-0.14234036 -0.0056291255 0.53999859
-0.13856371 -0.0064968155 0.53899866
-0.09359479 0.018520527 0.53100276
-0.088350378 0.018484985 0.53000289
-0.11082628 0.023695799 0.53850263
-0.10443883 0.025280396 0.537265
-0.095116906 0.024522375 0.53441238
-0.086083494 0.025129152 0.53108048
-0.077823207 0.028420812 0.5300042
-0.10307736 0.034428932 0.53850394
-0.094653636 0.034652881 0.53650415
-0.084725864 0.034488842 0.53435868
-0.074956037 0.035192758 0.53182852
-0.067246415 0.036847375 0.53010541
-0.10156185 0.041281752 0.53900462
-0.094316557 0.043682303 0.53836399
-0.084628753 0.044688337 0.53660178
-0.07472036 0.045593768 0.53459781
-0.065910138 0.045693379 0.53100634
-0.090788983 0.050884448 0.53900599
-0.084621973 0.054579046 0.53821582
-0.074846111 0.055440206 0.53549677
-0.064696349 0.055121928 0.53239501
-0.055313587 0.05597927 0.53057528
-0.049202539 0.05694513 0.53000808
-0.10093078 0.068416722 0.53875732
-0.094735421 0.067573376 0.5380432
-0.084882997 0.06519179 0.53835541
-0.075387783 0.064114958 0.53603554
-0.064781114 0.063172832 0.53310484
-0.055094905 0.062421042 0.53093141
-0.049202681 0.060399495 0.53000838
-0.087204777 0.071557142 0.53672236
-0.30231139 -0.19413669 0.5421412
-0.29891801 -0.19387847 0.54097468
-0.30202189 -0.18493564 0.54232538
-0.29774305 -0.1844756 0.54097557
-0.30251649 -0.17514102 0.54332417
-0.29581305 -0.17483354 0.54164326
-0.28857583 -0.17188218 0.54097712
-0.30365732 -0.16488774 0.54725498
-0.29481989 -0.16513957 0.54469466
-0.28513616 -0.16532308 0.54285794
-0.27725065 -0.16345574 0.54154986
-0.30184084 -0.15544726 0.54959732
-0.29472464 -0.15476851 0.54714996
-0.28519255 -0.15499449 0.54393137
-0.27693462 -0.15522468 0.54137915
-0.30100563 -0.14762558 0.54969329
-0.29442906 -0.14563929 0.54837334
-0.28532034 -0.14486405 0.54587573
-0.27506641 -0.14505102 0.5426324
-0.26552629 -0.14299825 0.54164755
-0.25790042 -0.14039829 0.54098129
-0.29051039 -0.13950883 0.54998022
-0.28364086 -0.13643937 0.54893917
-0.27504337 -0.13526097 0.54660612
-0.26543385 -0.13502465 0.54402804
-0.255638 -0.13417873 0.54193562
-0.24814542 -0.13111262 0.54098254
-0.27364886 -0.12750304 0.54923201
-0.26488557 -0.1254411 0.54698253
-0.25486585 -0.12494035 0.54276866
-0.24838071 -0.12558849 0.54098308
-0.26281539 -0.11564232 0.54919404
-0.25490865 -0.11463506 0.54538399
-0.2456024 -0.11374226 0.54234803
-0.23779231 -0.1113844 0.5413599
-0.26111701 -0.10796216 0.54998434
-0.2543588 -0.10620758 0.54882348
-0.24482119 -0.10513777 0.54682535
-0.23533267 -0.10485945 0.54332769
-0.2285956 -0.10198968 0.54112899
-0.24269791 -0.096413657 0.54955763
-0.23513222 -0.094743535 0.54659534
-0.22592972 -0.094486929 0.54274452
-0.21898541 -0.091841206 0.54118741
-0.24098843 -0.085350066 0.54998732
-0.23420168 -0.084617645 0.54739225
-0.22473194 -0.085160859 0.54409057
-0.21632032 -0.084586322 0.54148829
-0.23371777 -0.075937562 0.54877412
-0.22475353 -0.075090624 0.54561931
-0.21530491 -0.075128078 0.5426029
-0.20654848 -0.074498162 0.54113233
-0.23029009 -0.069245994 0.54998922
-0.22365503 -0.06639304 0.5486564
-0.21485026 -0.064939886 0.54583818
-0.20532523 -0.065232225 0.54239976
-0.19915955 -0.063034274 0.54099095
-0.21374479 -0.055459101 0.54885787
-0.20465083 -0.054996338 0.54490638
-0.19576742 -0.05445379 0.5416283
-0.1868289 -0.051387716 0.54099256
-0.21165054 -0.045984425 0.54999214
-0.20507513 -0.044682678 0.5477367
-0.19473062 -0.045204312 0.54395366
-0.18499844 -0.044829227 0.54284507
-0.17718677 -0.044123437 0.54161853
-0.20322065 -0.037347347 0.54935044
-0.19477111 -0.034976054 0.54786044
-0.18524601 -0.034502883 0.54645938
-0.17520635 -0.03454629 0.54262513
-0.16869578 -0.030029155 0.54099524
-0.1918637 -0.026897009 0.54999471
-0.18443377 -0.024814777 0.54819041
-0.17485225 -0.024554029 0.54478133
-0.16557583 -0.023102067 0.54196578
-0.15811801 -0.020155773 0.54099655
-0.18284509 -0.016177403 0.54960722
-0.17509869 -0.014652782 0.54747385
-0.16515744 -0.014792747 0.54450798
-0.15528451 -0.013932838 0.54199737
-0.14785363 -0.011849534 0.54099774
-0.18010654 -0.009020756 0.54999691
-0.17463535 -0.0047128424 0.54943341
-0.16511887 -0.0045400425 0.54723197
-0.15504922 -0.00482581 0.54427105
-0.14686032 -0.003682924 0.54139864
-0.18010713 0.0053180959 0.54999828
-0.17456643 0.004580705 0.54975522
-0.16506672 0.00468553 0.54929161
-0.15548465 0.0052880496 0.5465945
-0.14676711 0.0053396425 0.54302979
-0.16122793 0.012488297 0.54999965
-0.15427276 0.015101942 0.54722518
-0.14505306 0.015281769 0.54342556
-0.1386409 0.018546229 0.54260111
-0.15242036 0.022460822 0.548401
-0.14466751 0.024825493 0.54714441
-0.13540833 0.025529878 0.54650187
-0.12552497 0.026752425 0.54518753
-0.11502748 0.027556516 0.54123002
-0.10925815 0.029156981 0.54000318
-0.1418519 0.032504261 0.54900235
-0.13405909 0.034573879 0.54879075
-0.12508023 0.035385936 0.54639453
-0.11499024 0.034743838 0.54222584
-0.10820564 0.035293508 0.5401215
-0.1321587 0.043304302 0.54900366
-0.12487561 0.045142528 0.54710835
-0.11496069 0.044947397 0.54364741
-0.10571425 0.045197263 0.54112118
-0.097451672 0.047890447 0.54010546
-0.13111843 0.059698984 0.54900533
-0.12434655 0.055696987 0.54800534
-0.11468779 0.05512093 0.54529721
-0.1049841 0.05467996 0.54277325
-0.095521457 0.054739274 0.54089981
-0.089268312 0.057032533 0.54000664
-0.13308616 0.065928556 0.54793191
-0.12502255 0.064759225 0.54585052
-0.11447479 0.063949682 0.54438126
-0.10482925 0.063784093 0.54203534
-0.095326819 0.062319588 0.54025686
-0.089080818 0.062476084 0.54000717
-0.3067719 -0.15553148 0.55139917
-0.30490693 -0.14411449 0.55244988
-0.29737705 -0.14141896 0.55127972
-0.31036744 -0.1326507 0.5573135
-0.30498892 -0.13505498 0.5552659
-0.29496008 -0.13482772 0.55317628
-0.28691354 -0.13291867 0.55177045
-0.31102499 -0.1245124 0.55928099
-0.30518371 -0.12527689 0.55811161
-0.29483932 -0.12500302 0.55562437
-0.28481686 -0.12499624 0.55355632
-0.27598369 -0.12314496 0.55228245
-0.26877373 -0.12108718 0.55098283
-0.3033531 -0.11628249 0.55938202
-0.29495123 -0.1151488 0.5570063
-0.28481254 -0.11451977 0.55489397
-0.27511704 -0.11468844 0.55382419
-0.26760894 -0.11517179 0.5517056
-0.30066046 -0.10943984 0.55998278
-0.29409635 -0.10713282 0.55906659
-0.28497508 -0.10510762 0.55714655
-0.27480462 -0.10460735 0.5548479
-0.26565528 -0.10475503 0.55255949
-0.25669834 -0.102157 0.55127084
-0.28443864 -0.094911657 0.55877048
-0.27440536 -0.094804712 0.55633396
-0.26472336 -0.094910137 0.55466723
-0.25506037 -0.095403574 0.55311912
-0.24693707 -0.094844945 0.55142611
-0.29141515 -0.083646894 0.55998558
-0.28535956 -0.084825851 0.5581286
-0.27508262 -0.084572919 0.55647606
-0.26491621 -0.084432133 0.55535024
-0.25506091 -0.085176423 0.55383569
-0.24594584 -0.08512035 0.55160785
-0.29141536 -0.078537054 0.55998611
-0.28467014 -0.076743312 0.55894953
-0.2746748 -0.075039625 0.55832034
-0.2650345 -0.074745215 0.55752075
-0.25487176 -0.074448377 0.55630034
-0.24507092 -0.07510905 0.55378819
-0.23729242 -0.072952501 0.55182201
-0.26314139 -0.065714702 0.55946839
-0.25480598 -0.064940639 0.5575273
-0.24475494 -0.065264352 0.55552757
-0.2352602 -0.065098666 0.55359411
-0.2266784 -0.063003011 0.55146056
-0.26108167 -0.055257633 0.55998951
-0.25447419 -0.055302814 0.55752635
-0.24477425 -0.055311922 0.55571729
-0.23490699 -0.055513434 0.55454361
-0.22489688 -0.055163968 0.55258608
-0.2183262 -0.053346101 0.55115789
-0.26075751 -0.048606712 0.55999011
-0.25421104 -0.046939842 0.55929059
-0.24490874 -0.045827422 0.55845612
-0.23517184 -0.045393735 0.55644375
-0.22512926 -0.045008603 0.55371904
-0.21615447 -0.044659983 0.55158025
-0.24244682 -0.037124898 0.55984908
-0.23502581 -0.035342399 0.55806375
-0.22483966 -0.03535042 0.55517042
-0.21489906 -0.034880035 0.55340213
-0.20599517 -0.033662431 0.55192465
-0.19910757 -0.030585302 0.5509941
-0.2336164 -0.025936943 0.55917186
-0.22520065 -0.025104431 0.55689842
-0.21484354 -0.024998439 0.55452472
-0.20479852 -0.024918977 0.55278027
-0.19611816 -0.023930179 0.55149484
-0.18905254 -0.020529445 0.55099541
-0.23058629 -0.0179464 0.55999416
-0.22428307 -0.015421168 0.55867028
-0.21496733 -0.015026586 0.55641365
-0.20512004 -0.014735821 0.55510193
-0.19513679 -0.015006235 0.55333668
-0.18677641 -0.013526533 0.55161166
-0.22234161 -0.0064865863 0.55968797
-0.21513286 -0.004694365 0.55852944
-0.2051985 -0.0049716751 0.55686301
-0.19545139 -0.0047607794 0.55487776
-0.18519349 -0.0046472433 0.55205977
-0.17899771 -0.0047276178 0.55099732
-0.21273196 0.003013581 0.55956835
-0.20509176 0.005288383 0.55772913
-0.19500795 0.0055225086 0.55514669
-0.18487208 0.0051625366 0.5519982
-0.17500806 0.0093182474 0.55099881
-0.16678813 0.0096378047 0.55099916
-0.2027856 0.012699084 0.55930597
-0.19475923 0.015349689 0.55744874
-0.18498279 0.015652481 0.55454451
-0.17523329 0.015299742 0.5532974
-0.16550587 0.01592977 0.55207127
-0.15874362 0.018958759 0.55050039
-0.19387995 0.023243798 0.55945414
-0.18453124 0.023989514 0.55807406
-0.17480746 0.024831511 0.55662537
-0.16463707 0.025246652 0.55397511
-0.15593682 0.026467042 0.55148607
-0.14798908 0.029121906 0.55000174
-0.17294104 0.033545692 0.55838221
-0.16537771 0.034875289 0.55619687
-0.15469311 0.035312429 0.55264652
-0.14553836 0.0359294 0.55030799
-0.13834654 0.037044514 0.55000287
-0.17223088 0.044744208 0.55886912
-0.16490828 0.044575989 0.55675781
-0.15473174 0.044923145 0.55375993
-0.14467244 0.045219567 0.55181742
-0.1360888 0.046092 0.55047262
-0.12992297 0.049770597 0.55000442
-0.1713976 0.050583445 0.559003
-0.16454796 0.052045148 0.55825341
-0.15500771 0.054638013 0.55680889
-0.14520177 0.054466724 0.55369323
-0.13512652 0.055384882 0.55124855
-0.1292062 0.05371381 0.55000478
-0.15292226 0.064842746 0.55759126
-0.14449617 0.064531244 0.55362445
-0.13757725 0.064166278 0.55050552
-0.15272386 0.074913763 0.55828607
-0.14609417 0.072872482 0.55521667
-0.13852717 0.07127852 0.55000621
-0.1517354 0.08373604 0.55850697
-0.14884132 0.084278986 0.55775708
-0.31240991 -0.12036119 0.56098133
-0.31200689 -0.11445504 0.56261337
-0.30743709 -0.11344658 0.56151557
-0.31264472 -0.10460366 0.5645045
-0.30510098 -0.10453545 0.56317359
-0.29641819 -0.10250612 0.56213367
-0.3137309 -0.094916105 0.56798381
-0.30526724 -0.095079213 0.56588149
-0.29526857 -0.095040895 0.5628528
-0.31296194 -0.085808866 0.56948465
-0.30518472 -0.084862091 0.56631833
-0.29601908 -0.085434422 0.56248516
-0.31188402 -0.077440239 0.56981879
-0.30514121 -0.074593753 0.56747311
-0.29529151 -0.074891493 0.56331062
-0.28538993 -0.072222613 0.56198692
-0.27764091 -0.070716538 0.56165409
-0.30313373 -0.067659184 0.56953222
-0.2945047 -0.065894492 0.56803852
-0.28484479 -0.065377474 0.56620193
-0.27513188 -0.065300256 0.56393802
-0.26746163 -0.06327793 0.5621649
-0.29127055 -0.05868908 0.56998807
-0.28471735 -0.055554211 0.56903994
-0.27539867 -0.055103317 0.56632233
-0.26653445 -0.054439198 0.56273937
-0.28339913 -0.045262102 0.56948972
-0.27513617 -0.044634409 0.56664795
-0.26517835 -0.0443529 0.56301552
-0.25636214 -0.042335581 0.56155348
-0.24952295 -0.041380208 0.56099129
-0.28027478 -0.039073076 0.5699904
-0.27371237 -0.036863483 0.56904638
-0.26494732 -0.03448157 0.56731635
-0.25500685 -0.03540989 0.56418204
-0.24646936 -0.034679934 0.56217718
-0.26218274 -0.026765365 0.56971949
-0.25480646 -0.025376135 0.56786764
-0.24493298 -0.025353448 0.56415081
-0.23815745 -0.024215423 0.56149334
-0.25378248 -0.016826702 0.56945187
-0.2450773 -0.015254935 0.56736892
-0.23548181 -0.014958501 0.56374437
-0.22870824 -0.011848547 0.56159484
-0.24254657 -0.0063774553 0.56990403
-0.23513654 -0.0046762293 0.5663954
-0.22625765 -0.0040626326 0.56219572
-0.24130972 0.0063348892 0.56999618
-0.23504217 0.0054891002 0.56763911
-0.22499388 0.0054646223 0.56471097
-0.21624058 0.0065805702 0.56247866
-0.24015419 0.012196487 0.56999683
-0.23403805 0.014303363 0.56944168
-0.22506312 0.015216381 0.56788957
-0.21503767 0.015045187 0.56516457
-0.20620006 0.016105266 0.56249833
-0.22364387 0.024188988 0.56935155
-0.21434273 0.024678426 0.5665704
-0.20446715 0.024719516 0.56327426
-0.19592457 0.026772305 0.56123513
-0.18576072 0.028261822 0.56036389
-0.22257696 0.033280734 0.56952882
-0.21431044 0.03411774 0.56741172
-0.20464741 0.034813538 0.56602466
-0.19499803 0.034807377 0.56460065
-0.18522929 0.034703542 0.56302416
-0.17749293 0.035634384 0.56071556
-0.2019068 0.041103311 0.56900096
-0.19500844 0.045006458 0.56797302
-0.18565276 0.045207731 0.56466854
-0.17723681 0.044919901 0.56107622
-0.19492003 0.055006698 0.5680837
-0.18515152 0.054848008 0.56539184
-0.17525753 0.055193238 0.56285322
-0.16563684 0.057399698 0.56150383
-0.15856498 0.059434205 0.56000429
-0.1930391 0.062363274 0.56870925
-0.18486223 0.064770706 0.56777143
-0.17509028 0.064888954 0.56633765
-0.16459966 0.065085605 0.56349117
-0.15797853 0.065647654 0.56031263
-0.18168181 0.072242118 0.56889367
-0.17456855 0.07475169 0.56772321
-0.16493946 0.074670538 0.56400561
-0.15746792 0.075809643 0.56031841
-0.1730067 0.084738269 0.56838721
-0.16508749 0.084978238 0.56481618
-0.15657805 0.08532171 0.56112236
-0.17163017 0.093995303 0.56889606
-0.16563365 0.094023012 0.56607646
-0.15723184 0.091589086 0.56200749
-0.17001568 0.1004414 0.56900793
-0.16853227 0.10044146 0.56900793
-0.31719297 -0.084064394 0.57121545
-0.31599838 -0.074326344 0.57215232
-0.31516233 -0.064510413 0.57305491
-0.30554679 -0.06333103 0.57183087
-0.2983878 -0.061498098 0.57123756
-0.3208591 -0.053762734 0.57615417
-0.3152124 -0.054479372 0.57544219
-0.30524018 -0.055148892 0.57381648
-0.29561394 -0.055006247 0.57171047
-0.28969774 -0.052539688 0.57098871
-0.32182148 -0.046501994 0.57923818
-0.31510305 -0.045299709 0.57850271
-0.30467525 -0.045441099 0.57536983
-0.29480064 -0.045087535 0.57246137
-0.28839549 -0.044631269 0.57098949
-0.31293699 -0.036435802 0.57973945
-0.3050651 -0.035094105 0.57731485
-0.29485387 -0.034950387 0.57438046
-0.28516576 -0.034605771 0.57284766
-0.27615932 -0.032743271 0.5715366
-0.26885781 -0.030209329 0.57099169
