# .PCD v0.7 - Point Cloud Data file format
VERSION 0.7
FIELDS x y z
SIZE 4 4 4
TYPE F F F
COUNT 1 1 1
WIDTH 1340
HEIGHT 1
VIEWPOINT 0 0 0 1 0 0 0
POINTS 1340
DATA ascii
0.040141806 -0.097320855 0.4050245
0.040579587 -0.097223312 0.40625516
0.041473091 -0.096770555 0.40657222
0.041917562 -0.096669614 0.4078052
0.042366445 -0.096566409 0.40903983
0.042819783 -0.096460983 0.410276
0.043277532 -0.096353307 0.41151372
0.043739721 -0.096243367 0.41275302
0.044206366 -0.096131191 0.4139939
0.044241697 -0.096361831 0.41615704
0.045152932 -0.095900089 0.41648039
0.045632854 -0.095781192 0.41772598
0.046117231 -0.095660031 0.41897318
0.046606034 -0.095536605 0.42022192
0.047099262 -0.095410943 0.42147222
0.048019364 -0.094944715 0.42179874
0.048519254 -0.094815686 0.42305142
0.049441561 -0.094348326 0.42337871
0.050363883 -0.093880951 0.42370602
0.050872624 -0.093747422 0.42496186
0.051797166 -0.09327893 0.42528996
0.052721694 -0.092810452 0.42561805
0.053646237 -0.092341959 0.42594615
0.054570764 -0.091873482 0.42627421
0.055495292 -0.091404989 0.4266023
0.056419834 -0.090936497 0.4269304
0.057344377 -0.090468004 0.42725849
0.058268905 -0.089999527 0.42758656
0.059587061 -0.089207321 0.42697901
0.060509384 -0.088739946 0.42730632
0.061431691 -0.088272586 0.42763361
0.062354013 -0.087805226 0.42796093
0.063276321 -0.087337866 0.42828822
0.064198643 -0.086870492 0.42861551
0.065120965 -0.086403131 0.42894283
0.066043288 -0.085935771 0.42927012
0.066965595 -0.085468411 0.42959741
0.068261579 -0.084687412 0.42898202
0.069181681 -0.084221169 0.42930853
0.070101783 -0.083754927 0.42963505
0.071021885 -0.083288699 0.42996156
0.071941972 -0.082822457 0.43028808
0.073587224 -0.081740215 0.42872137
0.07522358 -0.080662444 0.42715147
0.028485417 -0.10243972 0.40406233
0.029862225 -0.10162064 0.40347573
0.030757934 -0.10116677 0.40379357
0.031653643 -0.1007129 0.40411144
0.032549366 -0.10025901 0.40442929
0.03344509 -0.099805117 0.40474716
0.034808576 -0.09899278 0.40415588
0.03570208 -0.098540023 0.40447295
0.036595553 -0.098087266 0.40479004
0.037489057 -0.097634494 0.40510711
0.03838256 -0.097181752 0.40542418
0.038819358 -0.097081825 0.4066543
0.039715052 -0.096627951 0.40697217
0.040158495 -0.096524641 0.4082047
0.041056424 -0.096069649 0.40852335
0.041058689 -0.096311316 0.41067448
0.04151541 -0.096201286 0.41191173
0.041976601 -0.096089005 0.41315052
0.042442217 -0.09597449 0.41439095
0.042912275 -0.09585771 0.4156329
0.042949989 -0.096081421 0.41779661
0.043431118 -0.095959023 0.41904253
0.043916687 -0.095834389 0.42028996
0.044836789 -0.095368147 0.42061648
0.045329005 -0.095240131 0.42186633
0.046251327 -0.094772771 0.42219362
0.046750188 -0.094641402 0.42344585
0.04767473 -0.09417291 0.42377391
0.048180237 -0.094038144 0.42502847
0.049107 -0.093568534 0.42535734
0.050033748 -0.093098924 0.42568621
0.050960496 -0.092629313 0.42601511
0.051887244 -0.092159703 0.42634398
0.052813992 -0.091690093 0.42667285
0.053740755 -0.091220483 0.42700171
0.054667503 -0.090750873 0.42733058
0.055192977 -0.090606004 0.42859223
0.056121945 -0.090135276 0.42892188
0.057050914 -0.089664549 0.42925155
0.057585269 -0.089515179 0.43051633
0.05890885 -0.088723063 0.42991087
0.059837818 -0.088252336 0.43024051
0.060766786 -0.087781608 0.43057019
0.061695755 -0.08731088 0.43089986
0.063008279 -0.086524367 0.43029046
0.063935027 -0.086054757 0.43061933
0.06524089 -0.085271642 0.43000758
0.066165417 -0.084803164 0.43033567
0.06746462 -0.084023401 0.4297215
0.068386942 -0.083556026 0.43004882
0.069309264 -0.083088666 0.43037611
0.070231587 -0.082621306 0.4307034
0.071519703 -0.081847161 0.43008536
0.072803378 -0.081075266 0.42946577
0.074082643 -0.080305636 0.42884457
0.076075763 -0.078931428 0.42632639
0.026277468 -0.10239796 0.40322721
0.027175397 -0.10194296 0.40354586
0.028073326 -0.10148795 0.4038645
0.028971255 -0.10103294 0.40418315
0.029869184 -0.10057794 0.4045018
0.030767113 -0.10012293 0.40482044
0.031665042 -0.099667922 0.40513909
0.032562971 -0.099212915 0.40545774
0.0334609 -0.098757908 0.40577638
0.034358829 -0.098302901 0.40609503
0.035256758 -0.097847894 0.40641367
0.036154687 -0.097392887 0.40673232
0.037052616 -0.09693788 0.40705094
0.037950546 -0.096482888 0.40736958
0.038392976 -0.096377239 0.40860164
0.038839832 -0.096269354 0.40983522
0.039291114 -0.096159205 0.41107041
0.039746851 -0.09604682 0.41230717
0.040206999 -0.095932215 0.41354552
0.040227175 -0.096159071 0.41570273
0.040698439 -0.096038833 0.41694501
0.041174114 -0.095916331 0.41818887
0.041654229 -0.095791578 0.41943425
0.04213877 -0.095664591 0.42068124
0.043061078 -0.095197231 0.42100853
0.043552279 -0.095066875 0.4222579
0.044476822 -0.094598398 0.42258599
0.044974685 -0.09446466 0.42383769
0.045901433 -0.09399505 0.42416656
0.046405911 -0.093857944 0.42542061
0.04733488 -0.093387216 0.42575029
0.048263863 -0.092916489 0.42607993
0.049192831 -0.092445761 0.4264096
0.049708426 -0.092303023 0.42766759
0.050639614 -0.091831163 0.42799804
0.051570788 -0.091359317 0.42832848
0.052095249 -0.091212109 0.42958966
0.053028643 -0.090739131 0.42992091
0.053559765 -0.09058854 0.43118438
0.054495394 -0.090114444 0.43151638
0.055033147 -0.089960486 0.43278226
0.055970997 -0.089485258 0.43311507
0.056908831 -0.08901003 0.43344787
0.058237866 -0.088218033 0.43284446
0.059173495 -0.087743908 0.43317649
0.060109109 -0.087269813 0.43350852
0.061429277 -0.086482301 0.43290201
0.062745035 -0.08569701 0.43229386
0.064056337 -0.084913999 0.43168417
0.065363213 -0.084133223 0.43107289
0.066665649 -0.083354697 0.43046007
0.068885982 -0.082111046 0.43017292
0.069808304 -0.081643671 0.43050021
0.070730612 -0.081176311 0.43082753
0.07201755 -0.080405638 0.43020919
0.024477676 -0.10226505 0.40361184
0.025377825 -0.10180891 0.40393126
0.026277959 -0.10135278 0.40425068
0.027178109 -0.10089666 0.40457013
0.028078258 -0.10044053 0.40488955
0.029457092 -0.099626139 0.40430397
0.029878542 -0.099528268 0.40552843
0.030778691 -0.099072143 0.40584785
0.031678841 -0.098616004 0.4061673
0.03257899 -0.098159879 0.40648672
0.033479139 -0.09770374 0.40680617
0.034379289 -0.097247615 0.40712559
0.035279438 -0.096791491 0.40744501
0.036179572 -0.096335366 0.40776443
0.036620975 -0.096227363 0.40899599
0.037523344 -0.095770121 0.40931621
0.037971392 -0.095658749 0.41055012
0.03797178 -0.095889926 0.41270009
0.038430944 -0.095772922 0.41393793
0.038894504 -0.095653698 0.41517735
0.03891708 -0.095873624 0.41733518
0.039391756 -0.095748782 0.41857851
0.039870843 -0.09562169 0.41982344
0.040354371 -0.095492348 0.42106995
0.040842354 -0.095360756 0.42231801
0.041769087 -0.094891146 0.42264688
0.04269585 -0.094421536 0.42297575
0.04319267 -0.094285458 0.42422697
0.044121638 -0.093814731 0.42455664
0.045050606 -0.093344003 0.42488629
0.045556322 -0.093203425 0.42614067
0.046908543 -0.092402518 0.4255456
0.047418699 -0.092259705 0.42680156
0.048349887 -0.091787845 0.42713201
0.048866659 -0.091641665 0.42839032
0.049387902 -0.091493219 0.42965016
0.050323516 -0.091019124 0.42998219
0.05085139 -0.090867296 0.4312444
0.050978154 -0.091034412 0.43343922
0.051517099 -0.090876997 0.43470538
0.052060515 -0.090717331 0.43597314
0.053007215 -0.090237603 0.43630907
0.053953916 -0.08975789 0.43664503
0.054900616 -0.089278162 0.43698099
0.055847332 -0.088798434 0.43731695
0.056794047 -0.08831872 0.43765289
0.058128536 -0.087526813 0.43705156
0.059458613 -0.086737156 0.43644866
0.061167598 -0.08563979 0.43490529
0.023164421 -0.10176703 0.40309408
0.024064556 -0.10131091 0.4034135
0.024964705 -0.10085477 0.40373296
0.025378481 -0.10075791 0.40495455
0.026765004 -0.09994252 0.4043718
0.027665138 -0.099486396 0.40469125
0.028085575 -0.099386156 0.40591523
0.029465437 -0.098574132 0.40533012
0.029890299 -0.098471656 0.40655565
0.030792668 -0.098014399 0.40687588
0.031695038 -0.097557142 0.4071961
0.032597393 -0.0970999 0.4075163
0.033499748 -0.096642643 0.40783653
0.033937931 -0.096533418 0.4090668
0.034842491 -0.096075043 0.4093878
0.035287336 -0.09596245 0.41062045
0.035736576 -0.095847636 0.41185468
0.036190271 -0.095730528 0.41309044
0.036648393 -0.095611215 0.4143278
0.037110969 -0.095489636 0.41556671
0.037129283 -0.095705986 0.41772276
0.037602931 -0.095578775 0.41896564
0.03808099 -0.095449343 0.42021009
0.03856352 -0.095317647 0.4214561
0.03905046 -0.09518373 0.42270368
0.039541841 -0.095047534 0.42395282
0.040473044 -0.094575673 0.42428327
0.041404217 -0.094103813 0.42461371
0.042335421 -0.093631953 0.42494416
0.043266594 -0.093160093 0.42527461
0.044197783 -0.092688248 0.42560506
0.044704676 -0.092544198 0.42685974
0.04563807 -0.09207122 0.42719099
0.046151638 -0.091923803 0.42844796
0.046669632 -0.091774121 0.42970654
0.047192052 -0.091622233 0.43096676
0.047718897 -0.091468066 0.43222851
0.048661172 -0.090990603 0.43256289
0.04878591 -0.091153011 0.4347567
0.048919529 -0.091310933 0.43695369
0.049466342 -0.091146663 0.43822247
0.021354914 -0.10163045 0.4034749
0.022257268 -0.10117321 0.40379512
0.023159623 -0.10071595 0.40411532
0.024062008 -0.10025869 0.40443555
0.024964362 -0.099801436 0.40475577
0.025866717 -0.099344179 0.40507597
0.026769087 -0.098886937 0.40539619
0.027671456 -0.09842968 0.40571642
0.028573811 -0.097972438 0.40603665
0.028999865 -0.097866476 0.40726247
0.029904455 -0.097408101 0.4075835
0.03080903 -0.096949726 0.40790451
0.03124398 -0.096839279 0.40913349
0.032150775 -0.096379787 0.40945527
0.032592356 -0.096265972 0.41068667
0.033501372 -0.095805347 0.41100925
0.033949628 -0.095688149 0.41224295
0.034402281 -0.095568731 0.41347826
0.034859404 -0.095447049 0.41471511
0.03486681 -0.09566319 0.41686702
0.035335004 -0.095535889 0.41810784
0.035807624 -0.095406339 0.41935024
0.0362847 -0.095274553 0.42059416
0.036766186 -0.095140517 0.42183968
0.037252128 -0.095004216 0.42308676
0.037742481 -0.09486571 0.42433548
0.038675889 -0.094392717 0.4246667
0.039172918 -0.094250828 0.42591769
0.040542692 -0.093446761 0.42532918
0.041044146 -0.093302608 0.42658174
0.041979775 -0.092828512 0.42691377
0.042915404 -0.092354387 0.42724577
0.043851018 -0.091880292 0.42757779
0.044363558 -0.09173052 0.42883432
0.044880524 -0.091578498 0.43009245
0.045401916 -0.091424227 0.43135214
0.045927733 -0.091267735 0.43261337
0.046458036 -0.091108978 0.43387622
0.046992719 -0.090947971 0.43514064
0.049895376 -0.090246767 0.44369328
0.050066888 -0.090379745 0.44590339
0.050641492 -0.090198547 0.44718197
0.050828487 -0.090323672 0.44939768
0.051414207 -0.090136841 0.45068014
0.019538924 -0.10149139 0.40385315
0.020940781 -0.10067396 0.40327609
0.02184315 -0.1002167 0.40359631
0.022745505 -0.099759459 0.40391654
0.023647875 -0.099302202 0.40423673
0.024550229 -0.09884496 0.40455696
0.024966404 -0.098741144 0.40577918
0.025870979 -0.098282769 0.40610018
0.026775569 -0.097824395 0.40642118
0.027680129 -0.09736602 0.40674219
0.028584719 -0.096907645 0.40706319
0.029014215 -0.096797079 0.40829012
0.029448122 -0.096684307 0.40951866
0.030357152 -0.096223682 0.40984124
0.031266168 -0.095763057 0.41016382
0.031708956 -0.095645756 0.41139546
0.032156169 -0.095526233 0.41262868
0.032607839 -0.095404431 0.41386348
0.033063918 -0.095280424 0.41509989
0.033524454 -0.095154136 0.41633782
0.033534244 -0.095363334 0.41849038
0.034005865 -0.095231429 0.41973224
0.034481913 -0.095097303 0.42097569
0.034962401 -0.094960898 0.42222074
0.035447299 -0.094822273 0.42346737
0.035936654 -0.094681382 0.42471549
0.036872268 -0.094207287 0.42504752
0.037368283 -0.094063029 0.42629805
0.038306117 -0.093587801 0.42663085
0.039243966 -0.093112573 0.42696369
0.040181801 -0.092637345 0.42729649
0.040688872 -0.092487469 0.42855099
0.041628927 -0.092011109 0.42888457
0.042142659 -0.09185788 0.43014139
0.043084919 -0.091380388 0.43047577
0.043183431 -0.091544658 0.43265978
0.043710455 -0.091384679 0.43392137
0.044241935 -0.09122245 0.43518448
0.045041353 -0.091352761 0.44084078
0.04559499 -0.091179311 0.44211179
0.046153069 -0.091003612 0.44338435
0.046311438 -0.091137528 0.4455896
0.046880618 -0.090956196 0.4468661
0.047454208 -0.090772614 0.4481442
0.047237247 -0.091203809 0.45129079
0.047824144 -0.091013506 0.45257357
0.048022419 -0.091127187 0.45479298
0.04822956 -0.091236383 0.45701551
0.048445553 -0.091341108 0.45924124
0.048284024 -0.091744214 0.46240747
0.046739951 -0.093811631 0.47475389
0.047015846 -0.093886018 0.4770008
0.047300577 -0.093955889 0.47925091
0.047967285 -0.09372513 0.48056203
0.048638433 -0.093492121 0.4818747
0.049627572 -0.093312159 0.48544931
0.050678477 -0.092779636 0.48582226
0.018219188 -0.10099095 0.40333283
0.019123778 -0.10053256 0.40365386
0.020028353 -0.1000742 0.40397486
0.020932943 -0.099615812 0.40429586
0.021837518 -0.099157453 0.40461686
0.022742093 -0.098699063 0.40493786
0.023646668 -0.098240688 0.40525886
0.024551257 -0.097782314 0.40557989
0.025455832 -0.097323939 0.4059009
0.025877669 -0.097214401 0.40712497
0.026784465 -0.096754909 0.40744677
0.027212918 -0.096642017 0.40867323
0.028121948 -0.096181408 0.40899581
0.028557062 -0.096065119 0.41022462
0.029468298 -0.095603377 0.41054797
0.029910058 -0.09548375 0.41177914
0.030356273 -0.095361859 0.41301188
0.030806899 -0.095237717 0.41424623
0.031261981 -0.09511134 0.41548207
0.031721488 -0.094982713 0.41671953
0.031727061 -0.095188335 0.41887033
0.032197639 -0.09505409 0.42011172
0.032672673 -0.094917595 0.42135468
0.033152118 -0.094778866 0.42259926
0.033636034 -0.094637871 0.42384532
0.034124374 -0.094494626 0.42509302
0.034617126 -0.094349161 0.42634231
0.035557181 -0.093872815 0.42667592
0.036056578 -0.093723953 0.42792752
0.036998853 -0.09324649 0.42826191
0.037941128 -0.092768997 0.42859629
0.038449407 -0.092615664 0.42985106
0.039393902 -0.092137069 0.43018621
0.039908826 -0.091980353 0.43144333
0.040855557 -0.09150064 0.4317793
0.041377127 -0.091340542 0.43303883
0.041480258 -0.091496721 0.43522418
0.04201293 -0.09133102 0.43648762
0.042131558 -0.091479346 0.4386785
0.043223485 -0.091134459 0.44121483
0.043364316 -0.091271535 0.44341356
0.043513998 -0.091404125 0.44561547
0.044079915 -0.091221586 0.44689074
0.044245124 -0.091346294 0.44909814
0.044419184 -0.091466546 0.4513087
0.045002848 -0.091275007 0.45259023
0.044793919 -0.091693521 0.45573926
0.044994593 -0.091800272 0.45795929
0.045204118 -0.091902524 0.46018243
0.045422524 -0.092000291 0.46240875
0.045260161 -0.092395216 0.46557432
0.045498535 -0.092482865 0.46780768
0.045360535 -0.092865437 0.4709819
0.045235857 -0.093241274 0.47416091
0.04588604 -0.093016028 0.47546598
0.046162084 -0.093084574 0.47771278
0.047489062 -0.092620611 0.48033246
0.048159182 -0.092385262 0.48164466
0.04846406 -0.092439204 0.48390162
0.049145281 -0.092198223 0.48521781
0.050196186 -0.0916657 0.48559073
0.05124709 -0.091133162 0.48596367
0.051937193 -0.090887696 0.48728293
0.052990317 -0.090354055 0.48765665
0.054043442 -0.0898204 0.48803037
0.054742396 -0.089570448 0.48935282
0.055797741 -0.089035675 0.48972732
0.056853086 -0.088500902 0.49010181
0.057908446 -0.087966129 0.49047634
0.058963776 -0.087431356 0.49085084
0.059676036 -0.087174654 0.49217799
0.060733587 -0.086638749 0.49255329
0.064963832 -0.084495172 0.49405447
0.066021398 -0.083959281 0.49442977
0.067078963 -0.083423376 0.49480504
0.068136528 -0.082887486 0.49518034
0.016393542 -0.10084823 0.40370727
0.017300323 -0.10038874 0.40402907
0.018207133 -0.099929228 0.40435085
0.019113928 -0.099469721 0.40467265
0.020517796 -0.098656982 0.40409657
0.021422371 -0.098198608 0.40441757
0.021834314 -0.09809123 0.40563801
0.022741109 -0.097631723 0.40595981
0.023647904 -0.09717223 0.40628159
0.024068683 -0.097060367 0.40750521
0.024977714 -0.096599728 0.40782779
0.025886714 -0.096139118 0.40815037
0.026316404 -0.096022725 0.40937713
0.026750505 -0.095904127 0.41060543
0.027189046 -0.095783249 0.41183534
0.028104708 -0.095319256 0.41216028
0.02854988 -0.095195025 0.41339254
0.028999507 -0.095068544 0.41462633
0.029453561 -0.094939813 0.41586173
0.029912055 -0.094808817 0.41709873
0.030374974 -0.094675615 0.41833729
0.030382946 -0.094874263 0.42048863
0.030856937 -0.094735444 0.42173114
0.031335399 -0.09459433 0.42297515
0.031818286 -0.094450995 0.4242208
0.032305583 -0.094305426 0.42546803
0.032797337 -0.094157577 0.42671677
0.033739597 -0.093680114 0.42705116
0.034237981 -0.093528926 0.42830229
0.034740835 -0.093375474 0.429555
0.035687536 -0.092895761 0.42989096
0.036634237 -0.092416033 0.43022692
0.037145942 -0.092258081 0.43148279
0.038094848 -0.09177725 0.43181953
0.03861323 -0.09161593 0.43307775
0.039136022 -0.091452375 0.4343375
0.039663225 -0.09128657 0.43559888
0.039770961 -0.091434687 0.43778566
0.04030925 -0.09126325 0.43905094
0.040851995 -0.091089606 0.44031784
0.040981919 -0.091226459 0.44251245
0.041120678 -0.091358855 0.44471025
0.041268319 -0.091486737 0.44691119
0.041424826 -0.091610134 0.44911528
0.041181818 -0.092037335 0.45225185
0.041764468 -0.091843456 0.4535329
0.041543618 -0.092259422 0.45667732
0.041737795 -0.092363715 0.45889479
0.041940868 -0.092463508 0.46111539
0.042152822 -0.092558831 0.46333915
0.042768717 -0.092348069 0.46463197
0.042996183 -0.092435539 0.46686122
0.043232501 -0.092518479 0.46909365
0.043477684 -0.092596933 0.47132918
0.044117987 -0.092373833 0.47263068
0.044762716 -0.092148483 0.47393376
0.045030087 -0.092215702 0.47617716
0.045685887 -0.091984749 0.47748417
0.045968786 -0.0920441 0.47973308
0.046635687 -0.091807514 0.48104402
0.047307 -0.091568694 0.48235655
0.047982782 -0.091327608 0.48367059
0.049031466 -0.090796202 0.48404273
0.04971388 -0.090551749 0.48535919
0.050764784 -0.090019211 0.48573214
0.051453859 -0.089771405 0.48705092
0.052506983 -0.089237764 0.48742464
0.053560108 -0.088704109 0.48779836
0.054613248 -0.088170469 0.48817208
0.055666372 -0.087636814 0.48854581
0.056719497 -0.087103173 0.48891953
0.057424098 -0.086847499 0.49024382
0.058133125 -0.08658956 0.4915697
0.059190676 -0.086053669 0.491945
0.060248241 -0.085517764 0.4923203
0.061305806 -0.084981874 0.49269557
0.062363356 -0.084445983 0.49307087
0.063420922 -0.083910078 0.49344617
0.064478487 -0.083374187 0.49382147
0.065536037 -0.082838297 0.49419674
0.066593602 -0.082302392 0.49457204
0.067651168 -0.081766501 0.49494734
0.01456137 -0.10070306 0.40407917
0.015470386 -0.10024244 0.40440175
0.016379386 -0.099781826 0.40472433
0.017288417 -0.099321187 0.40504691
0.018697768 -0.098508552 0.40447286
0.019604564 -0.098049045 0.40479466
0.020511359 -0.097589552 0.40511644
0.020924479 -0.097478703 0.40633723
0.021833479 -0.097018078 0.40665981
0.02274251 -0.096557453 0.40698239
0.02365151 -0.096096843 0.40730497
0.024075747 -0.095980346 0.40852964
0.024986967 -0.095518604 0.40885299
0.025417835 -0.095398754 0.41008005
0.025853142 -0.095276669 0.41130868
0.026292861 -0.095152318 0.41253889
0.026737064 -0.095025748 0.41377062
0.027185649 -0.094896913 0.41500396
0.028107971 -0.094429538 0.41533124
0.028096139 -0.094632491 0.41747534
0.028558061 -0.094496936 0.41871342
0.029024392 -0.0943591 0.41995305
0.02949518 -0.094219044 0.42119429
0.029970378 -0.094076723 0.42243701
0.029994056 -0.094261706 0.42459372
0.03048034 -0.094113767 0.42584044
0.031422615 -0.093636274 0.42617482
0.031915545 -0.093484998 0.42742386
0.032412946 -0.093331441 0.42867452
0.032914758 -0.09317565 0.42992678
0.033863664 -0.092694804 0.43026352
0.034372136 -0.09253563 0.43151808
0.035323292 -0.092053667 0.43185562
0.035838425 -0.091891125 0.43311253
0.036791772 -0.091408029 0.43345085
0.037313536 -0.09124212 0.43471017
0.037839741 -0.09107396 0.43597102
0.037943214 -0.091218501 0.43815604
0.03848049 -0.091044739 0.43942088
0.038599506 -0.091181383 0.44161135
0.038727373 -0.091313571 0.44380504
0.038864106 -0.091441259 0.44600183
0.039009705 -0.091564447 0.44820181
0.039164186 -0.091683149 0.45040491
0.039327532 -0.091797352 0.45261118
0.039090335 -0.09221302 0.45574942
0.039870784 -0.092113003 0.45924878
0.04006961 -0.09220922 0.46146762
0.040677816 -0.091999501 0.46275765
0.040892169 -0.092087865 0.464982
0.041741341 -0.091953024 0.46850577
0.041980058 -0.09202902 0.47073877
0.042617127 -0.091804683 0.47203898
0.043258607 -0.091578126 0.47334078
0.043904543 -0.091349289 0.47464412
0.044172093 -0.091410697 0.47688738
0.0448291 -0.091176242 0.47819465
0.045490563 -0.090939566 0.47950351
0.046156436 -0.090700626 0.48081395
0.046826735 -0.090459451 0.482126
0.047501504 -0.090216041 0.48343956
0.04818067 -0.08997035 0.48475474
0.049231574 -0.089437827 0.48512769
0.04991743 -0.089188784 0.48644519
0.050970554 -0.088655129 0.48681891
0.052023679 -0.088121489 0.48719263
0.053076804 -0.087587833 0.48756635
0.053773731 -0.087333173 0.48888782
0.054829061 -0.0867984 0.48926231
0.055884421 -0.086263627 0.48963681
0.056939766 -0.085728854 0.49001133
0.057647765 -0.085468575 0.4913367
0.05870533 -0.084932685 0.491712
0.059762895 -0.08439678 0.4920873
0.06082046 -0.083860889 0.49246261
0.061878011 -0.083324999 0.49283788
0.062935561 -0.082789093 0.49321318
0.063659102 -0.082520947 0.49454406
0.065050691 -0.081717312 0.49396378
0.067165822 -0.080645517 0.49471435
0.068223387 -0.080109611 0.49508965
0.013633996 -0.10009366 0.40477186
0.015053198 -0.099278897 0.40420148
0.015962213 -0.098818287 0.40452406
0.016871229 -0.098357648 0.40484664
0.017780244 -0.097897038 0.40516922
0.01868926 -0.097436413 0.4054918
0.019598275 -0.096975788 0.40581438
0.020507291 -0.096515164 0.40613696
0.021416306 -0.096054539 0.40645954
0.021835074 -0.095937952 0.40768215
0.02274631 -0.095476195 0.40800551
0.023171723 -0.095356271 0.4092305
0.024085164 -0.094893396 0.40955466
0.024517238 -0.094770074 0.41078198
0.024953738 -0.094644502 0.41201094
0.025394678 -0.094516695 0.41324139
0.025840044 -0.094386637 0.41447344
0.026289836 -0.09425433 0.41570711
0.026744083 -0.094119772 0.4169423
0.02720274 -0.093982965 0.41817909
0.027665854 -0.093843922 0.41941744
0.027669758 -0.094033211 0.42156684
0.028605372 -0.093559086 0.42189887
0.028622568 -0.093741611 0.42405301
0.029105633 -0.093592465 0.42529845
0.02959311 -0.093441054 0.42654547
0.030085042 -0.093287393 0.42779404
0.031031758 -0.09280768 0.42813
0.031530321 -0.092650652 0.42938095
0.032033354 -0.092491373 0.43063349
0.032540813 -0.09232986 0.43188754
0.03349416 -0.091846779 0.43222585
0.03400825 -0.091681883 0.43348232
0.034526795 -0.091514736 0.43474036
0.035484582 -0.091029406 0.43508023
0.035577148 -0.091173738 0.4372611
0.036108971 -0.090999871 0.43852389
0.036645263 -0.09082374 0.43978822
0.036760002 -0.090956837 0.44197696
0.036883622 -0.091085434 0.44416887
0.037016124 -0.091209561 0.44636393
0.037157476 -0.091329172 0.44856209
0.037307695 -0.091444269 0.45076343
0.037466794 -0.09155488 0.45296791
0.037222087 -0.09196575 0.45610315
0.03740114 -0.092066273 0.45831469
0.037589058 -0.092162281 0.46052942
0.03819184 -0.091952473 0.46181735
0.038395256 -0.092040628 0.4640376
0.038607568 -0.092124254 0.46626094
0.039228097 -0.091905475 0.46755517
0.039455906 -0.091981247 0.46978405
0.040087521 -0.091756836 0.47108221
0.040723562 -0.091530174 0.47238195
0.041364044 -0.091301233 0.47368321
0.042008951 -0.091070056 0.47498608
0.042658284 -0.090836644 0.47629055
0.043312073 -0.090600953 0.47759658
0.043970287 -0.09036307 0.47890416
0.044632912 -0.090122879 0.48021331
0.045299992 -0.089880481 0.48152408
0.045971513 -0.089635834 0.48283637
0.047020212 -0.089104429 0.48320851
0.047698364 -0.088856399 0.48452321
0.048749268 -0.088323876 0.48489615
0.049434111 -0.088072494 0.48621318
0.050487235 -0.087538838 0.4865869
0.05154036 -0.087005198 0.48696062
0.052593485 -0.086471543 0.48733434
0.053289384 -0.086214542 0.4886553
0.054344729 -0.08567977 0.48902979
0.055047289 -0.085419372 0.49035314
0.056104854 -0.084883481 0.49072844
0.057162404 -0.084347576 0.49110371
0.057873845 -0.084082693 0.49243018
0.058933616 -0.083545685 0.49280626
0.059993386 -0.083008662 0.49318236
0.061053172 -0.082471639 0.49355844
0.062112957 -0.081934631 0.49393451
0.063172728 -0.081397608 0.49431059
0.064232513 -0.080860585 0.49468666
0.065292284 -0.080323562 0.49506274
0.067738026 -0.078988634 0.49485666
0.013215795 -0.099127784 0.40457112
0.014127031 -0.098666042 0.40489447
0.015038252 -0.0982043 0.40521783
0.015949488 -0.097742543 0.40554121
0.016860723 -0.0972808 0.40586457
0.017771959 -0.096819058 0.40618792
0.01868318 -0.096357316 0.40651131
0.019594431 -0.095895559 0.40683466
0.020505652 -0.095433816 0.40715802
0.021416888 -0.094972074 0.4074814
0.021839052 -0.094850913 0.40870512
0.022265673 -0.094727486 0.40993038
0.022696704 -0.094601825 0.41115725
0.023132205 -0.094473898 0.41238564
0.023572132 -0.094343737 0.41361564
0.024494439 -0.093876377 0.41394293
0.024465263 -0.094076663 0.41608039
0.024918467 -0.093939781 0.4173151
0.025376141 -0.093800604 0.41855139
0.025838211 -0.093659222 0.41978928
0.026304752 -0.093515575 0.4210287
0.026775703 -0.093369678 0.4222697
0.027251095 -0.093221545 0.42351231
0.027730912 -0.093071163 0.42475647
0.02821517 -0.092918515 0.4260022
0.028703868 -0.092763647 0.42724952
0.029196993 -0.092606515 0.42849842
0.029694557 -0.092447147 0.42974889
0.030645698 -0.091965169 0.4300864
0.031149924 -0.091802433 0.4313392
0.03165856 -0.091637433 0.43259361
0.032171652 -0.091470197 0.43384957
0.032689154 -0.091300726 0.43510711
0.033211112 -0.091128975 0.4363662
0.033737481 -0.090955004 0.43762693
0.03426832 -0.090778783 0.43888918
0.034372151 -0.090911672 0.44107378
0.034914076 -0.090729833 0.44233999
0.035033435 -0.090854838 0.4445301
0.035161644 -0.090975374 0.4467234
0.035298765 -0.091091424 0.44891983
0.035444736 -0.091202974 0.45111942
0.035599574 -0.091310009 0.45332214
0.035347387 -0.091716051 0.45645431
0.035522178 -0.091812998 0.45866415
0.035705835 -0.091905445 0.46087709
0.035898387 -0.091993392 0.46309319
0.036099792 -0.092076838 0.46531242
0.036310047 -0.092155814 0.46753478
0.036931768 -0.091933519 0.46882933
0.03755793 -0.091708973 0.47012544
0.038188502 -0.091482192 0.47142312
0.03882353 -0.091253161 0.47272232
0.039462999 -0.091021895 0.47402313
0.040106878 -0.090788364 0.47532552
0.04114449 -0.090262592 0.47569373
0.041795045 -0.090025693 0.47699848
0.042450011 -0.089786574 0.4783048
0.043109417 -0.089545161 0.47961268
0.043773264 -0.089301527 0.48092219
0.044441551 -0.089055657 0.48223317
0.045490235 -0.088524252 0.48260534
0.046165168 -0.088275 0.48391876
0.047216073 -0.087742478 0.48429167
0.047897667 -0.087489843 0.48560745
0.048950791 -0.086956203 0.48598117
0.050003916 -0.086422548 0.48635489
0.050694376 -0.086165443 0.48767379
0.051749706 -0.08563067 0.48804829
0.052805066 -0.085095912 0.48842278
0.053504378 -0.084834293 0.48974484
0.054561943 -0.084298402 0.49012014
0.055619508 -0.083762497 0.49049544
0.056327701 -0.083496392 0.49182063
0.057387471 -0.082959369 0.49219671
0.058102295 -0.082689911 0.49352428
0.059164301 -0.082151771 0.49390116
0.060226291 -0.08161363 0.49427801
0.061626583 -0.080811292 0.49370104
0.062350273 -0.080537334 0.49503177
0.065865695 -0.078663215 0.49520534
0.010458454 -0.099437118 0.40461403
0.011371881 -0.098974258 0.40493816
0.012797594 -0.098161906 0.40437034
0.013198793 -0.098048508 0.40558648
0.014620051 -0.097238407 0.40501708
0.015531287 -0.096776664 0.40534043
0.016442522 -0.096314922 0.40566382
0.017353758 -0.095853165 0.40598717
0.018264979 -0.095391423 0.40631056
0.0186795 -0.095271289 0.40753141
0.019592941 -0.094808415 0.40785554
0.020014107 -0.094684884 0.40907878
0.020929769 -0.094220906 0.40940371
0.021357581 -0.094093993 0.4106293
0.021789834 -0.09396486 0.41185641
0.022226512 -0.093833461 0.41308513
0.022667632 -0.093699828 0.41431546
0.023113191 -0.093563944 0.41554734
0.023563161 -0.09342581 0.41678077
0.024017587 -0.093285426 0.41801581
0.024476439 -0.093142822 0.41925243
0.024939731 -0.092997938 0.42049053
0.024939567 -0.09317781 0.42263803
0.02541393 -0.093027323 0.42388013
0.026356205 -0.092549831 0.42421451
0.026837215 -0.092395991 0.42545897
0.02732268 -0.092239887 0.426705
0.02781257 -0.092081532 0.42795262
0.028306901 -0.091920927 0.42920181
0.029258043 -0.091438949 0.42953932
0.02930887 -0.091592982 0.43170488
0.029816508 -0.091425627 0.43295878
0.030774295 -0.090940297 0.43329868
0.031288564 -0.090769589 0.43455493
0.031365976 -0.090910152 0.43672994
0.031891361 -0.090733811 0.43799013
0.032421172 -0.090555221 0.43925187
0.032520756 -0.090684548 0.44143474
0.033061638 -0.090500355 0.44270048
0.03317675 -0.090621799 0.44488886
0.033300728 -0.090738758 0.44708037
0.033433586 -0.090851218 0.44927502
0.033575296 -0.090959162 0.45147282
0.033304542 -0.091366038 0.45459804
0.03346622 -0.091463909 0.45680293
0.033636764 -0.091557249 0.45901096
0.033816174 -0.09164612 0.46122217
0.03400445 -0.09173052 0.46343648
0.033791348 -0.09210816 0.46658215
0.034407601 -0.09188576 0.46787462
0.03462249 -0.091956645 0.47009844
0.035249859 -0.091728643 0.47139478
0.035881639 -0.091498375 0.47269273
0.036517859 -0.091265887 0.47399229
0.037158519 -0.091031119 0.4752934
0.038198352 -0.090504214 0.47566241
0.038845643 -0.090266109 0.47696587
0.039887697 -0.089738086 0.47733566
0.040541649 -0.089496583 0.47864148
0.041585907 -0.088967443 0.47901204
0.042246506 -0.088722587 0.48032027
0.042911559 -0.088475466 0.48163
0.043960258 -0.087944061 0.48200214
0.044631943 -0.087693587 0.48331428
0.045682862 -0.087161049 0.48368722
0.046361208 -0.086907208 0.48500171
0.047414333 -0.086373553 0.48537543
0.048099339 -0.086116344 0.48669225
0.049154684 -0.085581571 0.48706678
0.050210029 -0.085046813 0.48744127
0.050903887 -0.084785089 0.48876128
0.051961452 -0.084249198 0.48913655
0.053019017 -0.083713293 0.48951185
0.053721756 -0.083447084 0.49083498
0.054781541 -0.082910061 0.49121106
0.055490911 -0.082640499 0.49253657
0.056552917 -0.082102358 0.49291345
0.057614908 -0.081564218 0.49329033
0.058333158 -0.081290126 0.49461892
0.05939737 -0.080750868 0.49499658
0.01003924 -0.098468885 0.40441278
0.010952681 -0.098006025 0.40473694
0.011866122 -0.09754315 0.4050611
0.012779593 -0.097080275 0.40538526
0.013693035 -0.096617401 0.40570939
0.014606476 -0.096154541 0.40603355
0.015519917 -0.095691666 0.40635771
0.016433388 -0.095228791 0.40668184
0.017346829 -0.094765931 0.407006
0.017762557 -0.094642296 0.40822715
0.018678203 -0.094178304 0.40855208
0.01959388 -0.093714312 0.40887704
0.020018443 -0.093586192 0.41010135
0.020447478 -0.093455821 0.41132721
0.020880908 -0.093323201 0.41255465
0.021318793 -0.093188331 0.4137837
0.021761119 -0.09305121 0.4150143
0.022207856 -0.092911869 0.41624647
0.022659063 -0.092770264 0.4174802
0.022639111 -0.092954427 0.41962036
0.023101389 -0.092807189 0.42085806
0.023568079 -0.09265773 0.42209733
0.024039209 -0.092506021 0.42333815
0.024514765 -0.092352062 0.42458054
0.025459275 -0.091873452 0.4249157
0.025941491 -0.091716126 0.42616045
0.026428148 -0.091556534 0.42740682
0.026919246 -0.091394708 0.42865473
0.027870402 -0.090912744 0.42899227
0.028368145 -0.09074755 0.43024248
0.028419137 -0.090895742 0.43240789
0.028927967 -0.090724945 0.43366206
0.029441223 -0.090551868 0.43491784
0.029958904 -0.090376571 0.43617523
0.030038759 -0.09051016 0.43835077
0.030567527 -0.090329245 0.43961209
0.031100765 -0.090146065 0.44087493
0.031202763 -0.090268433 0.44305837
0.031313598 -0.090386301 0.44524503
0.031433329 -0.090499699 0.44743475
0.031561926 -0.090608567 0.44962767
0.031699404 -0.090712965 0.45182371
0.031845734 -0.090812847 0.45402291
0.031578586 -0.091209292 0.45714903
0.031744868 -0.091299087 0.45935529
0.031920016 -0.091384366 0.46156475
0.032104045 -0.091465145 0.46377727
0.032296956 -0.091541469 0.46599299
0.032498717 -0.091613278 0.46821189
0.032709345 -0.091680586 0.47043389
0.033335701 -0.091450229 0.47172979
0.033561841 -0.091509685 0.47395733
0.034601659 -0.090982765 0.47432631
0.035241306 -0.090745673 0.47562695
0.035885364 -0.090506345 0.47692913
0.036929637 -0.089977175 0.47729969
0.037580341 -0.08973445 0.47860429
0.0382355 -0.089489505 0.47991037
0.039284199 -0.088958099 0.48028252
0.040332898 -0.088426694 0.48065466
0.040996924 -0.088177234 0.48196396
0.042047828 -0.087644711 0.48233691
0.042718515 -0.087391868 0.48364854
0.043771639 -0.086858228 0.48402226
0.044448987 -0.086602032 0.48533624
0.045504332 -0.086067259 0.48571074
0.046188295 -0.085807696 0.48702711
0.04724586 -0.085271791 0.48740238
0.048303425 -0.0847359 0.48777768
0.04899627 -0.084471837 0.48909718
0.050056055 -0.083934814 0.48947325
0.051115841 -0.083397791 0.48984933
0.052175611 -0.082860783 0.49022543
0.052879542 -0.082591116 0.4915489
0.053941548 -0.082052961 0.49192575
0.054652125 -0.081779897 0.4932515
0.055716321 -0.081240639 0.49362916
0.056780532 -0.080701366 0.49400681
0.0087065697 -0.097963527 0.40388739
0.0096200258 -0.097500652 0.40421155
0.010533452 -0.097037792 0.40453568
0.011446923 -0.096574917 0.40485984
0.01184833 -0.096455678 0.40607578
0.012763977 -0.095991686 0.40640071
0.013679653 -0.095527694 0.40672567
0.014595315 -0.095063701 0.40705061
0.015510991 -0.094599709 0.40737554
0.016426653 -0.094135717 0.40770048
0.017342329 -0.093671724 0.40802541
0.017761439 -0.0935435 0.4092477
0.018679321 -0.093078375 0.40957341
0.019105107 -0.092946768 0.41079798
0.019535318 -0.092812926 0.41202414
0.01996994 -0.092676833 0.41325194
0.020409048 -0.092538491 0.41448125
0.020852551 -0.092397898 0.41571215
0.02130051 -0.092255086 0.41694459
0.021752879 -0.092110008 0.41817868
0.021733135 -0.09228833 0.42031863
0.022196606 -0.09213765 0.42155662
0.022664502 -0.091984689 0.42279616
0.023606777 -0.091507226 0.42313054
0.024081305 -0.091350913 0.42437246
0.024560317 -0.091192365 0.42561594
0.025043726 -0.091031551 0.42686102
0.025531605 -0.090868488 0.42810765
0.026023895 -0.090703204 0.42935583
0.026977256 -0.090220109 0.42969415
0.027021781 -0.090365857 0.43185699
0.027075171 -0.090507105 0.43402293
0.027587414 -0.090331703 0.43527824
0.028104097 -0.090154052 0.43653509
0.028179675 -0.090284064 0.4387089
0.028707445 -0.090100795 0.43996969
0.028798535 -0.09022294 0.44214904
0.029337376 -0.090034038 0.44341379
0.029443994 -0.09014836 0.44559863
0.029559478 -0.090258136 0.4477866
0.029683828 -0.090363443 0.44997773
0.029817045 -0.090464264 0.45217204
0.029959098 -0.09056057 0.45436946
0.030110061 -0.090652406 0.45657006
0.030269876 -0.090739757 0.45877379
0.030438572 -0.090822592 0.46098068
0.030616134 -0.090900928 0.46319067
0.030385822 -0.091270104 0.46632949
0.030583337 -0.091338307 0.4685466
0.031202018 -0.091108978 0.46983963
0.031415045 -0.091169357 0.47206226
0.032044813 -0.090934396 0.47335923
0.032678992 -0.090697214 0.47465777
0.033317596 -0.090457737 0.4759579
0.03396064 -0.090216056 0.47725964
0.034608141 -0.089972109 0.47856289
0.03565684 -0.089440718 0.47893503
0.036310971 -0.089193389 0.4802407
0.03736189 -0.088660866 0.48061365
0.038022682 -0.088410184 0.48192161
0.039075807 -0.087876529 0.48229533
0.03974326 -0.087622479 0.48360571
0.040415138 -0.087366179 0.48491764
0.041472703 -0.086830288 0.48529294
0.042530268 -0.086294383 0.48566821
0.043211013 -0.086033583 0.4869833
0.044270799 -0.08549656 0.48735937
0.045330569 -0.084959552 0.48773545
0.046390355 -0.084422529 0.48811153
0.047082171 -0.084156126 0.48943058
0.048144162 -0.083617985 0.48980746
0.049206167 -0.083079845 0.49018431
0.04990685 -0.082808927 0.49150643
0.050971061 -0.082269669 0.49188408
0.052035272 -0.081730396 0.49226174
0.053099498 -0.081191137 0.49263939
0.053811282 -0.080914617 0.49396554
0.054877698 -0.080374226 0.49434397
0.0082873553 -0.096995309 0.40368614
0.0092008114 -0.096532419 0.4040103
0.0095967501 -0.096413091 0.40522417
0.010512412 -0.095949098 0.40554911
0.011428088 -0.095485106 0.40587404
0.012343749 -0.095021114 0.40619898
0.013259426 -0.094557121 0.40652394
0.014175087 -0.094093129 0.40684888
0.015090764 -0.093629122 0.40717381
0.01550442 -0.093500793 0.40839401
0.016422302 -0.093035668 0.40871975
0.016842633 -0.092903972 0.40994224
0.01776275 -0.092437729 0.41026875
0.018189713 -0.092302665 0.41149366
0.018621117 -0.092165351 0.41272014
0.019056976 -0.092025787 0.41394818
0.019497246 -0.091883957 0.41517782
0.019941986 -0.091739908 0.41640902
0.020391107 -0.091593623 0.41764179
0.020844698 -0.091445059 0.41887611
0.020825118 -0.091617569 0.42101592
0.021765172 -0.091141224 0.42134953
0.022232056 -0.090985924 0.42258859
0.022703364 -0.090828389 0.42382923
0.023179144 -0.090668604 0.42507142
0.023659319 -0.090506569 0.42631522
0.024608225 -0.090025738 0.42665195
0.02463302 -0.090175763 0.42880747
0.025126487 -0.090006992 0.43005601
0.025624439 -0.089835972 0.43130606
0.025671348 -0.089974761 0.43346947
0.026180357 -0.089798138 0.43472353
0.026242822 -0.089929074 0.43689239
0.026314139 -0.090055525 0.43906447
0.026840881 -0.089869887 0.44032481
0.02692771 -0.08998847 0.44250238
0.02702342 -0.090102568 0.44468307
0.027567908 -0.089907944 0.44594967
0.02767913 -0.090014175 0.44813594
0.028234705 -0.089813948 0.44940645
0.028361455 -0.089912295 0.4515982
0.028497055 -0.090006158 0.45379305
0.028212726 -0.090394124 0.45691228
0.028368294 -0.090477884 0.45911428
0.028532729 -0.090557143 0.46131936
0.028706029 -0.090631917 0.46352765
0.028888196 -0.090702176 0.46573904
0.029079229 -0.09076795 0.46795362
0.029279158 -0.090829253 0.47017127
0.029487938 -0.090886012 0.47239214
0.030116677 -0.090648741 0.47368863
0.030749843 -0.09040916 0.4749867
0.031387433 -0.090167373 0.47628638
0.03202948 -0.089923337 0.47758755
0.033078179 -0.089391932 0.47795969
0.033726856 -0.089144513 0.47926331
0.034379989 -0.088894844 0.48056847
0.035433114 -0.088361204 0.48094219
0.036092907 -0.088108167 0.48224968
0.036757097 -0.087852895 0.48355877
0.037425756 -0.087595358 0.48486942
0.038485527 -0.087058336 0.4852455
0.039545313 -0.086521313 0.48562157
0.040222809 -0.086259305 0.48693541
0.041284814 -0.085721165 0.48731229
0.041968971 -0.08545576 0.48862842
0.043033183 -0.084916487 0.48900607
0.044097394 -0.084377229 0.48938373
0.045161605 -0.083837956 0.48976138
0.046225816 -0.083298698 0.49013901
0.047290027 -0.082759425 0.49051666
0.047989696 -0.082486182 0.49183837
0.049056143 -0.081945792 0.49221683
0.050122559 -0.081405401 0.49259526
0.05118899 -0.080865011 0.49297369
0.051899776 -0.080586135 0.49429929
0.052968413 -0.080044627 0.49467853
0.0069546998 -0.096489936 0.40316075
0.0073451847 -0.096370488 0.40437257
0.008260861 -0.095906496 0.40469751
0.0091765225 -0.095442504 0.40502244
0.010092184 -0.094978511 0.40534738
0.01100786 -0.094514504 0.40567231
0.011923522 -0.094050512 0.40599725
0.012329519 -0.093923211 0.40721461
0.013247401 -0.093458086 0.40754035
0.014165282 -0.092992976 0.40786606
0.01458016 -0.092861176 0.40908653
0.015500277 -0.092394933 0.40941304
0.016420364 -0.091928691 0.40973952
0.016844109 -0.09179239 0.41096315
0.017272279 -0.091653839 0.41218838
0.017704904 -0.091513053 0.41341513
0.018141925 -0.091370016 0.4146435
0.018583417 -0.09122473 0.41587341
0.019029349 -0.091077209 0.41710493
0.019479692 -0.090927422 0.41833794
0.01993449 -0.0907754 0.41957259
0.020393685 -0.090621129 0.42080882
0.020857349 -0.090464622 0.4220466
0.021325424 -0.09030585 0.42328596
0.021797955 -0.090144843 0.4245269
0.022274882 -0.089981571 0.42576942
0.022756293 -0.089816079 0.42701352
0.023242116 -0.089648321 0.42825913
0.023269281 -0.089791402 0.43041527
0.023766175 -0.089618042 0.43166485
0.024267524 -0.089442417 0.43291602
0.024316847 -0.089574277 0.43508005
0.024375051 -0.089701638 0.43724722
0.024442121 -0.089824513 0.43941751
0.024518043 -0.089942873 0.44159096
0.025050417 -0.089751542 0.44285312
0.02514188 -0.089862049 0.44503209
0.02568537 -0.089665085 0.44629818
0.025792331 -0.089767724 0.44848263
0.026346892 -0.089565143 0.44975272
0.026469365 -0.089659929 0.45194268
0.026600748 -0.089750215 0.45413581
0.026740968 -0.089836016 0.45633206
0.026890069 -0.089917317 0.4585315
0.027048036 -0.089994133 0.46073404
0.026789457 -0.090360433 0.46386203
0.026967376 -0.090427116 0.46607167
0.027575135 -0.090197563 0.46736065
0.027768582 -0.090256423 0.46957573
0.02797091 -0.090310737 0.47179407
0.028596401 -0.09007223 0.47308928
0.029226333 -0.089831442 0.47438607
0.02986069 -0.089588419 0.47568446
0.030499503 -0.089343131 0.47698438
0.031142741 -0.089095607 0.47828591
0.03179042 -0.088845849 0.47958899
0.03244254 -0.088593856 0.48089367
0.033099055 -0.088339582 0.48219988
0.034156621 -0.087803692 0.48257518
0.034819812 -0.087546051 0.48388377
0.035487443 -0.087286174 0.48519397
0.036159486 -0.087024048 0.48650569
0.037223712 -0.086484775 0.48688334
0.038287923 -0.085945502 0.487261
0.038968846 -0.085678905 0.48857591
0.040035278 -0.085138515 0.48895434
0.041101694 -0.084598124 0.4893328
0.042168126 -0.084057733 0.48971123
0.043234557 -0.083517343 0.49008965
0.044300988 -0.082976952 0.49046811
0.044997439 -0.082702473 0.49178851
0.04606609 -0.08216095 0.49216771
0.047134727 -0.081619442 0.49254695
0.048203379 -0.081077933 0.49292618
0.049272031 -0.08053641 0.49330541
0.049981788 -0.080255181 0.49463052
0.0050936192 -0.096327886 0.40352094
0.0060092807 -0.095863894 0.40384588
0.0069249421 -0.095399901 0.40417081
0.0078406185 -0.094935909 0.40449578
0.0087562799 -0.094471917 0.40482071
0.0096719414 -0.094007924 0.40514565
0.0100725 -0.093880504 0.40636092
0.010990381 -0.093415394 0.40668666
0.011908263 -0.09295027 0.4070124
0.012317702 -0.092818365 0.40823078
0.013237804 -0.092352122 0.4085573
0.014157891 -0.091885895 0.40888381
0.014576197 -0.091749489 0.41010535
0.015498489 -0.091282129 0.41043267
0.01592344 -0.091142341 0.41165662
0.016352817 -0.091000333 0.41288209
0.016786635 -0.090856075 0.41410917
0.017224878 -0.090709567 0.4153378
0.017667562 -0.090560809 0.41656804
0.018114686 -0.090409786 0.4177998
0.018566251 -0.090256527 0.41903317
0.019022226 -0.090101048 0.42026812
0.019482628 -0.08994329 0.42150462
0.019947469 -0.089783311 0.42274272
0.020416766 -0.089621067 0.42398235
0.020890474 -0.089456573 0.42522362
0.021368638 -0.089289859 0.42646644
0.021851242 -0.08912088 0.42771077
0.021871924 -0.089261502 0.42986438
0.021901473 -0.089397654 0.43202111
0.02240178 -0.089219704 0.4332718
0.022446871 -0.089347959 0.43543401
0.022500828 -0.089471757 0.43759942
0.022563636 -0.089591041 0.43976796
0.022635311 -0.08970584 0.44193965
0.022715867 -0.089816153 0.44411448
0.023253888 -0.08961907 0.44537854
0.023349941 -0.089721531 0.44755885
0.023899049 -0.089518845 0.44882688
0.024010643 -0.089613408 0.4510127
0.024570823 -0.089405105 0.45228463
0.02469793 -0.089491814 0.454476
0.024833918 -0.089574054 0.45667049
0.024978757 -0.089651778 0.45886818
0.025132477 -0.089724988 0.46106893
0.025295049 -0.089793742 0.46327287
0.025466517 -0.089857981 0.46547997
0.026071042 -0.089627206 0.46676764
0.026258022 -0.089683592 0.46898019
0.026453868 -0.089735463 0.47119597
0.027076125 -0.089495718 0.47248992
0.027702823 -0.089253694 0.47378543
0.028333962 -0.089009449 0.47508255
0.028969526 -0.088762939 0.47638118
0.029609516 -0.088514194 0.47768146
0.030253962 -0.088263214 0.47898325
0.030498579 -0.088290378 0.48121631
0.031556144 -0.087754488 0.48159161
0.032213897 -0.087496743 0.48289812
0.032876059 -0.087236777 0.48420626
0.033542663 -0.086974546 0.48551592
0.034213692 -0.086710066 0.48682719
0.035280123 -0.086169675 0.48720562
0.035957828 -0.085901842 0.48851925
0.036639959 -0.085631728 0.48983443
0.037710831 -0.085089087 0.49021444
0.038781688 -0.084546447 0.49059445
0.03985256 -0.084003806 0.49097446
0.040923417 -0.08346118 0.4913545
0.041994289 -0.08291854 0.4917345
0.043065146 -0.082375899 0.49211451
0.044136018 -0.081833273 0.49249452
0.045206875 -0.081290632 0.49287453
0.045911163 -0.081009313 0.49419758
0.047348604 -0.080205351 0.49363458
0.0046733916 -0.095357314 0.40331921
0.005589053 -0.094893321 0.40364414
0.0065047145 -0.094429329 0.40396911
0.0074203908 -0.093965337 0.40429404
0.0083360523 -0.093501344 0.40461898
0.008733362 -0.093372703 0.40583301
0.0096512437 -0.092907578 0.40615872
0.010055229 -0.092775568 0.40737504
0.010975331 -0.092309326 0.40770155
0.011895433 -0.091843084 0.40802807
0.012815535 -0.091376841 0.40835458
0.013230592 -0.091239229 0.40957487
0.014152914 -0.090771854 0.40990216
0.014574587 -0.090630874 0.41112483
0.015000761 -0.090487614 0.41234905
0.015431315 -0.090342134 0.41357484
0.015866339 -0.090194389 0.41480219
0.016305774 -0.090044424 0.41603118
0.016749665 -0.089892179 0.41726166
0.017197996 -0.089737684 0.41849375
0.017650723 -0.089580983 0.41972741
0.018107921 -0.089421988 0.42096266
0.018088877 -0.089577034 0.42310187
0.019035578 -0.089097321 0.42343783
0.019029841 -0.089245602 0.42558181
0.019506991 -0.089076534 0.42682409
0.019988552 -0.0889052 0.42806801
0.020004988 -0.089042261 0.43021983
0.02049765 -0.08886531 0.43146765
0.020529598 -0.088994518 0.43362501
0.020570427 -0.089119211 0.43578547
0.020620123 -0.089239433 0.43794912
0.020678684 -0.089355141 0.4401159
0.020746112 -0.089466378 0.44228581
0.020822406 -0.089573085 0.44445887
0.021359414 -0.089373678 0.44572246
0.02145122 -0.089472532 0.44790104
0.021999314 -0.089267507 0.4491685
0.022106647 -0.089358494 0.4513526
0.022665828 -0.089147851 0.45262402
0.022788674 -0.089230984 0.4548136
0.023358926 -0.089014724 0.45608899
0.023497313 -0.08908999 0.45828411
0.023644552 -0.089160755 0.46048233
0.023800671 -0.089227051 0.46268371
0.024395302 -0.088998422 0.46396774
0.024566948 -0.089056849 0.46617466
0.025172681 -0.088822588 0.46746257
0.025359839 -0.088873148 0.469675
0.025976658 -0.088633284 0.47096688
0.026597887 -0.0883912 0.47226036
0.026807204 -0.088430494 0.47448063
0.02743955 -0.088182777 0.47577801
0.028076306 -0.087932795 0.47707698
0.028717518 -0.087680578 0.47837752
0.028955668 -0.087705299 0.48060802
0.029607967 -0.08744745 0.48191249
0.030264676 -0.08718738 0.48321855
0.03092584 -0.086925045 0.48452616
0.031591415 -0.08666046 0.48583537
0.032261446 -0.086393639 0.48714614
0.032935917 -0.086124569 0.48845845
0.033614799 -0.085853249 0.48977238
0.034687877 -0.085309505 0.49015316
0.035760969 -0.084765732 0.49053398
0.036448747 -0.084489912 0.49185103
0.037524045 -0.083945036 0.49223262
0.038599342 -0.083400145 0.49261421
0.03967464 -0.082855254 0.4929958
0.040749937 -0.082310379 0.49337739
0.041825235 -0.081765488 0.49375898
0.042900532 -0.081220612 0.49414057
0.0033375025 -0.094850719 0.40279254
0.004253149 -0.094386727 0.40311748
0.0051688254 -0.093922734 0.40344241
0.0060844719 -0.093458742 0.40376735
0.0070001483 -0.092994735 0.40409231
0.0073942244 -0.092864886 0.40530503
0.008312121 -0.092399761 0.40563077
0.0087128729 -0.092266515 0.40684581
0.00963296 -0.091800272 0.40717232
0.010553062 -0.091334045 0.40749884
0.010962665 -0.091196299 0.40871707
0.011884987 -0.090728939 0.40904436
0.012301236 -0.090587854 0.41026497
0.013225764 -0.090119362 0.41059306
0.013648674 -0.089974895 0.411816
0.014076024 -0.089828163 0.41304052
0.0145078 -0.089679211 0.41426662
0.014944002 -0.089528009 0.41549429
0.015384659 -0.089374542 0.41672349
0.015339196 -0.089537233 0.41885313
0.015790924 -0.089378148 0.42008629
0.016733199 -0.088900685 0.42042068
0.016707689 -0.089053273 0.42255735
0.017172709 -0.088887453 0.42379528
0.0176422 -0.088719383 0.42503473
0.018116102 -0.088549092 0.42627576
0.018119425 -0.088687062 0.42842269
0.018131584 -0.088820532 0.43057275
0.018623218 -0.088641256 0.43182009
0.018650934 -0.088766858 0.43397564
0.019153669 -0.088581949 0.43522695
0.018732965 -0.089004636 0.43829623
0.01878725 -0.089116767 0.44046128
0.018850431 -0.089224428 0.4426294
0.019379765 -0.089026019 0.44389012
0.019458473 -0.089125782 0.44606379
0.019546032 -0.08922109 0.44824061
0.020093083 -0.089013711 0.44950762
0.020196185 -0.089101121 0.45168993
0.020754337 -0.088888109 0.45296088
0.020872936 -0.088967696 0.4551487
0.02144219 -0.088749066 0.45642358
0.02201584 -0.088528201 0.45770004
0.022156626 -0.088596508 0.4598957
0.022306263 -0.088660359 0.46209455
0.022897661 -0.088430494 0.4633773
0.02306284 -0.088486463 0.46558169
0.023665339 -0.088250995 0.46686831
0.02384603 -0.088299096 0.46907821
0.0244596 -0.088057995 0.4703688
0.025077626 -0.087814674 0.47166097
0.025700063 -0.087569088 0.47295472
0.025909573 -0.087602586 0.47517481
0.026543111 -0.087351382 0.47647253
0.027181074 -0.087097928 0.47777179
