# .PCD v0.7 - Point Cloud Data file format
VERSION 0.7
FIELDS x y z
SIZE 4 4 4
TYPE F F F
COUNT 1 1 1
WIDTH 1
HEIGHT 414
VIEWPOINT 0 0 0 1 0 0 0
POINTS 414
DATA ascii
-0.071427852 -0.090270817 0.31996739
-0.071944505 -0.083901234 0.31887037
-0.071991354 -0.074882954 0.31778055
-0.069965884 -0.070721358 0.31809181
-0.070685923 -0.069748536 0.31582719
-0.066540785 -0.067634068 0.31843653
-0.059264719 -0.055401891 0.31900176
-0.066942744 -0.10245417 0.328291
-0.070603967 -0.092148542 0.32367077
-0.069046721 -0.095912047 0.3264555
-0.071204215 -0.085057169 0.32474801
-0.06993714 -0.082183897 0.32919678
-0.071160667 -0.077009842 0.32298663
-0.067824811 -0.073441796 0.32612723
-0.063020468 -0.067656144 0.32434574
-0.056723576 -0.064039759 0.32709935
-0.05637648 -0.058443505 0.32381108
-0.064018533 -0.11076033 0.33750591
-0.065060511 -0.1049227 0.33551571
-0.067919753 -0.094833694 0.3350378
-0.070202067 -0.086898699 0.33072713
-0.068262853 -0.084715389 0.33537689
-0.065223709 -0.074675225 0.33477718
-0.059639692 -0.070162356 0.33827215
-0.061249126 -0.069061615 0.33253646
-0.055022631 -0.066124313 0.33472928
-0.048988778 -0.063158855 0.33770832
-0.063509889 -0.1120361 0.3462595
-0.064361714 -0.10527632 0.34519172
-0.066598117 -0.09484458 0.34503046
-0.065559469 -0.084889024 0.34522215
-0.06251622 -0.076586306 0.34468564
-0.057092819 -0.071936406 0.34625986
-0.052986879 -0.068718322 0.34310162
-0.045782954 -0.065511979 0.34639427
-0.040817216 -0.059133716 0.34865895
-0.061946139 -0.11283126 0.35508752
-0.063446164 -0.10536136 0.35415873
-0.064751826 -0.094554178 0.35493556
-0.063639283 -0.084888026 0.35512269
-0.061451212 -0.077534258 0.3545993
-0.055409331 -0.072521016 0.35515156
-0.04744501 -0.07041955 0.35682034
-0.042456549 -0.066372752 0.35438207
-0.039451599 -0.06274654 0.35821944
-0.040557582 -0.058688503 0.35272938
-0.038818162 -0.058151238 0.35752118
-0.057373345 -0.12139926 0.36666983
-0.058101241 -0.11523399 0.36512914
-0.060926914 -0.10388623 0.36326116
-0.05929732 -0.10669891 0.36684719
-0.062608808 -0.094609648 0.36499819
-0.063465975 -0.084365726 0.36475995
-0.061239626 -0.07832516 0.36453533
-0.056212053 -0.0729836 0.36482129
-0.048639495 -0.070234351 0.36126778
-0.0512987 -0.069604896 0.36671972
-0.044795197 -0.069068894 0.36515245
-0.037583474 -0.065399408 0.36538175
-0.037322503 -0.056347292 0.36504897
-0.055036556 -0.12301452 0.37517989
-0.055971161 -0.11514632 0.37460318
-0.06018281 -0.10108367 0.371355
-0.058151949 -0.10534429 0.37516186
-0.061202869 -0.094183125 0.374163
-0.059452035 -0.098515078 0.37691459
-0.06150756 -0.08422403 0.37506583
-0.059669018 -0.080018669 0.37965244
-0.060662627 -0.078707688 0.37152368
-0.056562912 -0.074059747 0.37507412
-0.05094704 -0.069199324 0.37533581
-0.044966582 -0.067606591 0.3754504
-0.035878245 -0.065193988 0.37548596
-0.034974042 -0.057674833 0.3744933
-0.052281458 -0.12474876 0.38530284
-0.053501617 -0.11491451 0.38458982
-0.055670764 -0.10484772 0.38522699
-0.058192499 -0.094953604 0.38467461
-0.060056865 -0.082697093 0.38015205
-0.058656611 -0.084615208 0.38490364
-0.055522762 -0.074606851 0.38489011
-0.051874291 -0.067753941 0.3858639
-0.045046214 -0.064423859 0.38491148
-0.038023531 -0.061856762 0.38357842
-0.036229972 -0.058319595 0.38456133
-0.051152669 -0.12589726 0.39479515
-0.04961941 -0.12202784 0.39702821
-0.050884757 -0.11473849 0.39336196
-0.049211472 -0.11679488 0.39786696
-0.053019386 -0.10461761 0.39458042
-0.055016991 -0.094804816 0.3949039
-0.056294329 -0.084965035 0.39482677
-0.056765117 -0.074604161 0.39449978
-0.053369366 -0.066927239 0.39442468
-0.045726538 -0.062280726 0.39460182
-0.039279476 -0.060285524 0.39156669
-0.042181812 -0.057573415 0.39710322
-0.038027555 -0.057504229 0.39308611
-0.050595552 -0.12640157 0.40136674
-0.047353301 -0.12413393 0.40579695
-0.046888057 -0.11548938 0.4051668
-0.050831217 -0.10252929 0.40425789
-0.049029015 -0.10667592 0.40660828
-0.052599609 -0.094967432 0.40513077
-0.054732773 -0.084935181 0.40473026
-0.055069569 -0.074727416 0.40520161
-0.052475102 -0.067008615 0.40462422
-0.047783904 -0.062344667 0.40519178
-0.043349799 -0.05671465 0.40476671
-0.039049447 -0.053008709 0.40821704
-0.045328602 -0.13096388 0.41595653
-0.044184685 -0.12462213 0.41509956
-0.045561019 -0.11503248 0.41535419
-0.048610575 -0.10502812 0.41526863
-0.051278047 -0.094720989 0.41516715
-0.049820453 -0.098898083 0.41933975
-0.052593984 -0.085020855 0.41475901
-0.052425586 -0.075015232 0.41502082
-0.05116497 -0.067058727 0.41433617
-0.048542064 -0.062084522 0.41441169
-0.043701146 -0.056381229 0.41477248
-0.03847893 -0.052281003 0.4144105
-0.042169593 -0.13252589 0.42451474
-0.038784374 -0.13537998 0.42954519
-0.043206278 -0.12509514 0.42435142
-0.045858283 -0.11462855 0.42467129
-0.04802845 -0.10489669 0.4248153
-0.050405443 -0.093147479 0.42109415
-0.048835374 -0.095274642 0.42580074
-0.050608557 -0.084206946 0.42234543
-0.049329698 -0.084562756 0.42741039
-0.050497718 -0.075674057 0.42238438
-0.049177177 -0.074067973 0.42690524
-0.050230145 -0.068602353 0.42051429
-0.047778394 -0.064244747 0.42503473
-0.043187656 -0.056370929 0.42478347
-0.038613498 -0.051813535 0.42530552
-0.032730639 -0.14308712 0.43742213
-0.04007569 -0.13103837 0.43505585
-0.037650157 -0.13515215 0.43594494
-0.0417055 -0.12487291 0.43492302
-0.039868385 -0.12990499 0.43654299
-0.044047523 -0.11508353 0.43482143
-0.045652471 -0.10486142 0.43471068
-0.046408083 -0.094780639 0.43505549
-0.047244772 -0.084589414 0.43534747
-0.047134686 -0.074811779 0.43535861
-0.045357019 -0.065205693 0.43516332
-0.042251017 -0.056674734 0.43427756
-0.038707454 -0.05137378 0.43402797
-0.032213259 -0.14264967 0.44454002
-0.029101273 -0.14704064 0.44763443
-0.036870304 -0.13403712 0.44526166
-0.040547341 -0.12308722 0.44313955
-0.039217018 -0.12573904 0.44665185
-0.041691799 -0.11511907 0.44493285
-0.039935172 -0.11958402 0.44868127
-0.043454673 -0.10483799 0.44528523
-0.044874344 -0.094711483 0.4451175
-0.0455232 -0.084856987 0.44517559
-0.044965327 -0.074846528 0.44508597
-0.042666975 -0.065188967 0.4444418
-0.039565235 -0.061263971 0.44832444
-0.041190945 -0.05752201 0.44186908
-0.038823642 -0.057730794 0.44525209
-0.016215483 -0.16357173 0.45809832
-0.023969924 -0.15465249 0.45709553
-0.019151598 -0.15973 0.45329487
-0.031729743 -0.14283484 0.45509344
-0.028569803 -0.14795169 0.45689568
-0.035573434 -0.13453996 0.4549664
-0.038080283 -0.1248226 0.45504251
-0.040801559 -0.11322547 0.4541451
-0.039361387 -0.11725289 0.45703581
-0.042592425 -0.10460863 0.4548263
-0.044094801 -0.094901048 0.45478186
-0.043640159 -0.085110568 0.45470828
-0.041960072 -0.074933641 0.45516491
-0.040784657 -0.067183308 0.45281887
-0.037297763 -0.063567609 0.45563444
-0.036130637 -0.05956766 0.45053786
-0.021014234 -0.16059123 0.46761253
-0.015457131 -0.16635941 0.46485224
-0.025009194 -0.15450731 0.46530706
-0.031420678 -0.14324234 0.46534088
-0.029150181 -0.14795616 0.46510839
-0.034311201 -0.13469304 0.46538579
-0.036464456 -0.1247865 0.46480718
-0.038135894 -0.11528165 0.46566042
-0.041040581 -0.10421484 0.4625937
-0.039440654 -0.10653228 0.46733147
-0.041335151 -0.09490779 0.46437508
-0.039637357 -0.09532696 0.46953079
-0.041044328 -0.085717544 0.46325341
-0.039693452 -0.084493771 0.46794078
-0.040431354 -0.077383257 0.46296489
-0.039179146 -0.07392595 0.46603525
-0.035731729 -0.066406041 0.46427953
-0.026091315 -0.063730069 0.46674073
-0.01759699 -0.06469699 0.46844947
-0.027159449 -0.15459241 0.47562975
-0.031229286 -0.14374745 0.47557136
-0.029512811 -0.14846797 0.47386342
-0.032915469 -0.13498868 0.47598428
-0.034958765 -0.12493613 0.47554415
-0.036792681 -0.11491498 0.47512418
-0.037912838 -0.10494622 0.47529757
-0.038448375 -0.094423696 0.47562873
-0.038580757 -0.084838562 0.47508389
-0.037314113 -0.074555039 0.47525039
-0.033538587 -0.067948222 0.47427517
-0.02598823 -0.065683983 0.4754324
-0.015332641 -0.06565886 0.47576755
-0.0076722503 -0.066321008 0.47774276
0.005042702 -0.051468089 0.47948778
-0.036421534 -0.11552064 0.48533657
-0.037169479 -0.10508074 0.48537013
-0.038019922 -0.094869122 0.48499441
-0.037297852 -0.084749222 0.48516133
-0.034878954 -0.074721277 0.48567459
-0.030907726 -0.06886287 0.48321837
-0.025810365 -0.067561612 0.48508465
-0.015270025 -0.066066407 0.48540708
-0.0045519536 -0.064979039 0.48650375
0.0026027616 -0.063418731 0.48610193
-0.00049056858 -0.053297587 0.48905843
0.0020940816 -0.05487968 0.48486704
-0.00051085651 -0.047649227 0.48893142
0.002452977 -0.045106065 0.48569921
0.0049987584 -0.038350768 0.48774791
0.0093778074 -0.025369748 0.48912498
0.010469894 -0.02262635 0.48904249
0.011664316 -0.019116141 0.48876506
-0.029703408 -0.07023634 0.49390116
0.00095848442 -0.042595759 0.49165851
0.0105655 -0.023292938 0.49198291
-0.042507958 -0.10539025 0.3031317
-0.037392426 -0.10274275 0.30596411
-0.035031576 -0.094823413 0.30590627
-0.03431236 -0.087435268 0.305098
-0.035044096 -0.074882582 0.30599019
-0.040680096 -0.062270273 0.30421796
-0.037249487 -0.06688229 0.30596685
-0.035682924 -0.11233805 0.31836301
-0.040174447 -0.10966513 0.3109642
-0.033428099 -0.10522822 0.31575826
-0.029655367 -0.10157845 0.31996256
-0.031621397 -0.095072567 0.31471786
-0.029654881 -0.098658539 0.3199628
-0.032412339 -0.084209338 0.31537628
-0.032880992 -0.075220957 0.31570122
-0.036581274 -0.06624715 0.31426087
-0.031091725 -0.11239849 0.32276204
-0.028176958 -0.11060452 0.32639012
-0.030586008 -0.10859071 0.32096222
-0.028099367 -0.10491852 0.32497895
-0.030423973 -0.091077484 0.32310638
-0.028575201 -0.095099248 0.32661664
-0.030741017 -0.085740924 0.3238731
-0.028606858 -0.084797733 0.32814318
-0.031376943 -0.073554642 0.32453647
-0.028910594 -0.077071443 0.32738096
-0.034621112 -0.06843245 0.32596624
-0.026457973 -0.11322065 0.33596098
-0.024933657 -0.10500787 0.33428687
-0.024469212 -0.094935663 0.33493879
-0.025944298 -0.086300246 0.3344146
-0.031166367 -0.070928521 0.3347986
-0.027214309 -0.074925981 0.33550251
-0.033960175 -0.068418749 0.33557713
-0.025190642 -0.1211381 0.34662679
-0.023702975 -0.11587887 0.34552428
-0.022479683 -0.10930723 0.34196043
-0.021517476 -0.092565246 0.3418282
-0.019433307 -0.094950922 0.34596089
-0.022901241 -0.08508455 0.34624016
-0.03070581 -0.070462488 0.34096521
-0.026007678 -0.073751777 0.34425813
-0.034013536 -0.067287922 0.34578437
-0.028654447 -0.068982035 0.3476572
-0.020927263 -0.12368251 0.35595897
-0.021580042 -0.11708748 0.35367391
-0.021462502 -0.082926929 0.35181943
-0.019574197 -0.084442303 0.35450718
-0.0235686 -0.073495835 0.35504034
-0.040294405 -0.065024823 0.35496768
-0.034776054 -0.065812051 0.35534146
-0.027341604 -0.068378709 0.35570151
-0.019761696 -0.095010474 0.36896098
-0.019493284 -0.089452565 0.36396134
-0.021577094 -0.071626551 0.36260599
-0.018823184 -0.070975058 0.36329594
-0.040810052 -0.065487757 0.36796778
-0.033341013 -0.065300703 0.36580828
-0.024839258 -0.067820296 0.36612698
-0.019098224 -0.069109164 0.36681995
-0.022335399 -0.11815177 0.37995973
-0.019067908 -0.094416231 0.37746087
-0.041352194 -0.06524393 0.37769517
-0.034611851 -0.063925169 0.37656179
-0.024774276 -0.064726159 0.3757349
-0.018992038 -0.067268804 0.37612963
-0.017663976 -0.13220623 0.38835764
-0.020610118 -0.12381363 0.38162562
-0.017441465 -0.12445255 0.38641536
-0.020703157 -0.11724126 0.38183448
-0.017199598 -0.11656774 0.38422707
-0.017835848 -0.10092704 0.38996008
-0.018284004 -0.097659484 0.38608545
-0.044993136 -0.063730463 0.38436168
-0.035212819 -0.061251048 0.38271686
-0.024462357 -0.061439622 0.38342172
-0.019236613 -0.064792857 0.38556319
-0.043287415 -0.059056707 0.38880214
-0.034803931 -0.058534604 0.38777256
-0.026029127 -0.058540754 0.38768393
-0.014225996 -0.13337611 0.39540127
-0.013615257 -0.12506489 0.39519259
-0.013686182 -0.11766869 0.3949579
-0.01681681 -0.1016162 0.39395985
-0.017102359 -0.096069761 0.39656034
-0.017115511 -0.070653774 0.39696229
-0.018110981 -0.062973529 0.39627886
-0.042349257 -0.05471826 0.39366588
-0.035078391 -0.053797349 0.3936387
-0.02428598 -0.054227635 0.39391449
-0.017655041 -0.055355612 0.39653933
-0.025844337 -0.049826376 0.39596575
-0.011070107 -0.13436216 0.40450153
-0.0091283936 -0.13539767 0.40965557
-0.010823146 -0.12500663 0.40499845
-0.0091338232 -0.12801729 0.40995616
-0.012889293 -0.11664429 0.40462446
-0.013847976 -0.10384505 0.40626672
-0.014776448 -0.094599746 0.40578601
-0.015368474 -0.084973291 0.40777659
-0.015553962 -0.076269001 0.40787059
-0.015584249 -0.064599141 0.40601
-0.015917206 -0.059267089 0.4016296
-0.0070552253 -0.14048117 0.4136214
-0.0070840968 -0.13511816 0.41538852
-0.010226246 -0.1202931 0.41095695
-0.007892428 -0.12504885 0.41622275
-0.0115788 -0.11422671 0.4143506
-0.0090063531 -0.11592309 0.4183856
-0.011097318 -0.10525725 0.41413221
-0.0093299067 -0.1051572 0.41895795
-0.011250879 -0.094344616 0.41427922
-0.0093443384 -0.096580848 0.41967291
-0.011623916 -0.084757388 0.41470999
-0.012571373 -0.075029068 0.41493824
-0.013039792 -0.066038936 0.41504174
-0.0039383015 -0.14078867 0.42595404
-0.0040724538 -0.13446184 0.42560676
-0.0049911821 -0.12431242 0.42495549
-0.0062503517 -0.11497869 0.42508814
-0.0068491129 -0.10521723 0.4250457
-0.0077124196 -0.095091298 0.42522761
-0.0083455518 -0.084861428 0.42492235
-0.01047458 -0.071690083 0.42129412
-0.0085972184 -0.07540419 0.42600179
-0.010802538 -0.066533625 0.42346126
-0.0092910407 -0.068073243 0.42756081
-0.0023247094 -0.14344506 0.43657851
-0.001409839 -0.13530812 0.43605393
-0.001702146 -0.12497003 0.43545479
-0.0022563164 -0.11490434 0.43547183
-0.0035101981 -0.10479411 0.43562335
-0.0048012645 -0.094967358 0.4353925
-0.005182669 -0.084997319 0.43506971
-0.0061734263 -0.074717224 0.4355787
-0.010787422 -0.062531859 0.43396157
-0.0080331769 -0.066713028 0.43616068
-0.0018099793 -0.15131731 0.44895276
-0.0010169775 -0.14630251 0.44378635
0.0014299637 -0.14317891 0.44687578
0.001697357 -0.13513952 0.44579327
0.0021369616 -0.12477125 0.44561023
-0.00062196195 -0.11183036 0.44095555
0.0018619272 -0.1152326 0.4458513
-0.0010558983 -0.10445084 0.44320622
0.0012986184 -0.10568191 0.44780558
-0.0017346261 -0.09479177 0.44464943
0.00054071186 -0.096358776 0.44924226
-0.0021206567 -0.085066043 0.445833
-0.0037163426 -0.074656837 0.44557816
-0.0062839924 -0.066147901 0.44531322
-0.0016482724 -0.15487145 0.45711914
0.0029339017 -0.15288091 0.45801416
0.0051427647 -0.14505833 0.4559795
0.0062229498 -0.13467653 0.45580953
0.0068997624 -0.12524061 0.45569581
0.0064921058 -0.11509992 0.45537871
0.0048674978 -0.1050226 0.45540228
0.0032121285 -0.095288947 0.45548546
-0.00063229323 -0.082835905 0.45215783
0.001496783 -0.085529923 0.45633221
-0.0012225127 -0.074849211 0.45379195
0.00055539084 -0.076802105 0.45835805
-0.0040522479 -0.066541314 0.45548931
0.0089614168 -0.13793659 0.46095151
0.0089755692 -0.11161605 0.46145353
0.008476574 -0.10477962 0.46282917
0.012562167 -0.10524181 0.46802646
0.0074245096 -0.094550401 0.46501768
0.011429888 -0.096873417 0.46945414
0.0052848789 -0.085467607 0.46610785
0.0022256463 -0.075554259 0.46573049
-0.0033897341 -0.065783851 0.46414155
0.00056928181 -0.069335721 0.46845859
0.008236764 -0.08343631 0.47316638
0.0059774094 -0.075365581 0.47617573
-0.0029203789 -0.064342961 0.4763234
0.0016687155 -0.068363793 0.47658342
