# .PCD v0.7 - Point Cloud Data file format
VERSION 0.7
FIELDS x y z
SIZE 4 4 4
TYPE F F F
COUNT 1 1 1
WIDTH 1381
HEIGHT 1
VIEWPOINT 0 0 0 1 0 0 0
POINTS 1381
DATA ascii
0.12644544 -0.020177357 0.47040781
0.1275298 -0.019645512 0.47077316
0.12861416 -0.019113667 0.47113851
0.12991953 -0.018465698 0.4705222
0.13100165 -0.017934948 0.4708868
0.13208377 -0.017404199 0.47125137
0.13338017 -0.016760632 0.47063211
0.13446006 -0.016230982 0.47099593
0.13574974 -0.015590709 0.47037441
0.13682739 -0.015062157 0.47073749
0.13811035 -0.014425181 0.47011364
0.13918576 -0.013897724 0.47047597
0.14026116 -0.013370275 0.47083831
0.14153515 -0.012737695 0.47021148
0.14260831 -0.012211341 0.47057304
0.14368147 -0.011684988 0.47093463
0.14494652 -0.011056807 0.47030476
0.14601743 -0.010531548 0.47066557
0.14708835 -0.010006294 0.47102639
0.14815928 -0.0094810389 0.47138721
0.14941312 -0.0088583454 0.47075358
0.15048181 -0.0083341897 0.47111365
0.15155047 -0.0078100339 0.47147372
0.15279534 -0.00719174 0.47083703
0.15386179 -0.0066686794 0.47119632
0.15509994 -0.0060536824 0.47055742
0.15616414 -0.0055317245 0.47091597
0.15722835 -0.0050097667 0.47127452
0.15829253 -0.0044878088 0.47163308
0.15951949 -0.0038783066 0.47099042
0.16058147 -0.0033574477 0.4713482
0.16164342 -0.002836585 0.471706
0.16270538 -0.0023157299 0.47206381
0.16376734 -0.0017948672 0.47242162
0.16498084 -0.0011919588 0.47177437
0.16604057 -0.00067219883 0.47213143
0.16710028 -0.00015243888 0.47248846
0.16830483 0.00044608489 0.47183824
0.16950488 0.0010424033 0.47118646
0.17056012 0.0015599653 0.471542
0.17161536 0.0020775273 0.47189754
0.17280647 0.0026694462 0.47124276
0.17385948 0.003185913 0.47159752
0.17504387 0.0037745424 0.4709405
0.17609462 0.0042899065 0.47129452
0.17714538 0.0048052706 0.47164854
0.17819613 0.0053206347 0.47200257
0.1793693 0.0059037693 0.47134176
0.18041784 0.0064180363 0.47169504
0.18146634 0.0069323014 0.47204831
0.18251486 0.0074465666 0.47240159
0.18356338 0.0079608355 0.47275487
0.18472311 0.0085373744 0.4720895
0.18576939 0.0090505406 0.472442
0.18681566 0.0095637105 0.47279453
0.18786195 0.010076877 0.47314706
0.18890822 0.010590047 0.47349957
0.19005454 0.011159988 0.47282973
0.19109857 0.011672055 0.47318149
0.19214261 0.012184123 0.47353324
0.19318664 0.01269619 0.473885
0.19432172 0.013260636 0.47321138
0.19536352 0.013771605 0.47356239
0.19640532 0.014282577 0.4739134
0.19744711 0.014793545 0.47426438
0.198571 0.015352506 0.47358695
0.19961056 0.015862379 0.47393721
0.20065011 0.016372249 0.47428748
0.20176506 0.016926816 0.473607
0.20280236 0.017435586 0.4739565
0.20383969 0.017944356 0.47430602
0.20487699 0.018453127 0.47465551
0.20598072 0.019002195 0.47397128
0.2070158 0.019509867 0.47432002
0.20805088 0.020017542 0.47466877
0.20914564 0.020562213 0.47398156
0.21017846 0.021068785 0.47432953
0.2112665 0.021610154 0.47364002
0.21229711 0.022115631 0.47398725
0.21332771 0.022621108 0.47433451
0.2143583 0.023126582 0.47468174
0.21538889 0.023632055 0.47502896
0.21641949 0.024137532 0.47537619
0.21745008 0.024643006 0.47572342
0.21852019 0.025175601 0.47502789
0.21954855 0.025679979 0.47537437
0.22061196 0.026209267 0.47467661
0.22163807 0.026712542 0.47502232
0.22266418 0.027215822 0.47536805
0.22369029 0.027719097 0.47571376
0.22474249 0.02824289 0.47501218
0.22576635 0.028745066 0.47535715
0.22681184 0.029265564 0.4746533
0.22783346 0.029766642 0.47499752
0.2288551 0.030267727 0.47534171
0.22987674 0.030768804 0.47568592
0.23089838 0.031269886 0.47603014
0.2319304 0.031783782 0.47532177
0.23294979 0.032283768 0.47566524
0.2339692 0.032783754 0.47600868
0.23498859 0.033283725 0.47635216
0.23600797 0.033783711 0.4766956
0.23702656 0.034291029 0.47598273
0.23804371 0.034789912 0.47632542
0.23905557 0.035293918 0.47561026
0.24007049 0.035791703 0.47595221
0.2410854 0.036289483 0.47629413
0.24208832 0.036789108 0.47557598
0.24310099 0.03728579 0.47591719
0.24409717 0.037782114 0.47519675
0.24510759 0.038277693 0.47553718
0.24611804 0.03877328 0.47587761
0.24710526 0.039265212 0.47515413
0.24811344 0.039759692 0.47549379
0.24909396 0.040248331 0.47476807
0.2500999 0.040741716 0.47510701
0.25107372 0.04122705 0.474379
0.2520774 0.041719332 0.47471717
0.25308111 0.042211622 0.47505537
0.25408483 0.042703904 0.47539353
0.25504738 0.043183744 0.4746618
0.25604886 0.043674931 0.47499919
0.25705034 0.044166125 0.47533661
0.25805178 0.044657312 0.47567403
0.25905326 0.045148507 0.47601146
0.2600024 0.04562176 0.47527516
0.26100165 0.046111852 0.47561181
0.26200086 0.046601944 0.47594848
0.26300007 0.047092028 0.47628513
0.26393804 0.04755979 0.47554508
0.26493502 0.048048779 0.47588101
0.26593202 0.048537768 0.47621691
0.266929 0.049026765 0.47655281
0.2678557 0.049489021 0.47580898
0.26885045 0.049976908 0.47614413
0.2697705 0.050435867 0.47539797
0.27076298 0.050922666 0.47573239
0.2716763 0.051378325 0.47498402
0.27266657 0.051864028 0.47531769
0.27365682 0.052349716 0.47565132
0.27456117 0.052800994 0.47489992
0.27554917 0.053285588 0.47523281
0.27653718 0.053770181 0.4755657
0.27752525 0.054254781 0.47589859
0.27841836 0.054700557 0.47514343
0.27940413 0.055184055 0.47547558
0.28038993 0.055667553 0.4758077
0.28137571 0.056151051 0.47613984
0.28236148 0.056634549 0.47647199
0.28324118 0.057073735 0.47571227
0.28422472 0.05755613 0.47604364
0.28520828 0.058038533 0.47637501
0.28619182 0.058520935 0.47670642
0.28706032 0.058954623 0.47594294
0.28804159 0.059435915 0.47627357
0.28902292 0.059917215 0.47660419
0.29000419 0.060398515 0.47693482
0.29098552 0.060879823 0.47726545
0.2919668 0.061361115 0.47759607
0.29294813 0.061842423 0.4779267
0.29392943 0.062323716 0.47825733
0.29491073 0.062805012 0.47858796
0.29575682 0.063227721 0.47781691
0.29673588 0.063707918 0.47814679
0.29771495 0.064188123 0.47847667
0.29869401 0.064668328 0.47880653
-0.18637407 -0.17264229 0.45793837
-0.18509257 -0.17201376 0.45837015
-0.18381104 -0.1713852 0.45880193
-0.18252951 -0.17075665 0.4592337
-0.18124798 -0.17012811 0.45966548
-0.17923817 -0.16913746 0.45928657
-0.17795888 -0.16851 0.4597176
-0.17667958 -0.16788255 0.46014863
-0.17540029 -0.16725512 0.46057963
-0.17340162 -0.16626997 0.46019703
-0.17212456 -0.16564362 0.46062729
-0.17013255 -0.16466177 0.4602423
-0.16885778 -0.16403651 0.46067181
-0.16758296 -0.16341126 0.46110132
-0.16559997 -0.16243382 0.46071342
-0.16432738 -0.16180965 0.46114218
-0.16235113 -0.1608355 0.46075195
-0.16108081 -0.16021246 0.46117994
-0.15911123 -0.15924157 0.46078748
-0.15784314 -0.15861963 0.46121472
-0.15588024 -0.15765204 0.46081996
-0.15461442 -0.15703119 0.46124646
-0.15265834 -0.15606692 0.46084943
-0.15139472 -0.15544719 0.46127516
-0.14944533 -0.15448621 0.46087596
-0.14818397 -0.15386754 0.46130094
-0.14624128 -0.15290987 0.46089938
-0.14498219 -0.15229231 0.46132362
-0.14304623 -0.15133794 0.46091986
-0.14111471 -0.15038574 0.46051449
-0.13986006 -0.14977036 0.4609372
-0.13793537 -0.14882149 0.4605296
-0.13668296 -0.14820723 0.4609516
-0.13476491 -0.14726165 0.46054178
-0.13351473 -0.1466485 0.46096301
-0.13160345 -0.14570621 0.46055087
-0.13035554 -0.14509413 0.46097133
-0.088882238 -0.1246897 0.46121579
-0.087663442 -0.12409191 0.46162644
-0.085850745 -0.12319797 0.4611811
-0.084634215 -0.12260129 0.46159098
-0.082828134 -0.12171064 0.46114346
-0.081613868 -0.12111507 0.46155259
-0.080399543 -0.12051947 0.46196172
-0.078602463 -0.11963321 0.46151105
-0.077390403 -0.11903873 0.46191943
-0.076178342 -0.11844425 0.46232781
-0.074390262 -0.11756241 0.46187416
-0.073180407 -0.11696902 0.46228179
-0.071399063 -0.11609046 0.46182594
-0.070191473 -0.11549819 0.46223283
-0.068416804 -0.11462294 0.46177465
-0.067211479 -0.11403175 0.46218076
-0.066006124 -0.11344056 0.46258688
-0.064800769 -0.11284937 0.462993
-0.063037306 -0.11197959 0.46253106
-0.061834186 -0.1113895 0.46293643
-0.060631126 -0.11079942 0.46334177
-0.059428006 -0.11020933 0.46374711
-0.058224887 -0.10961924 0.46415249
-0.057021767 -0.10902914 0.46455786
-0.05527401 -0.10816707 0.46409062
-0.054073155 -0.10757808 0.46449521
-0.0528723 -0.1069891 0.46489981
-0.051671416 -0.1064001 0.46530443
-0.049934894 -0.10554354 0.4648335
-0.048202783 -0.10468915 0.46436098
-0.047006398 -0.10410234 0.46476409
-0.045281053 -0.10325126 0.46428931
-0.044086903 -0.10266557 0.46469164
-0.042368263 -0.10181779 0.46421462
-0.040654093 -0.10097219 0.46373609
-0.038944423 -0.10012878 0.46325609
-0.037757009 -0.099546388 0.46365616
-0.036569566 -0.098964006 0.46405622
-0.034868866 -0.098125011 0.46357316
-0.033683687 -0.097543716 0.46397248
0.024131149 -0.069080591 0.46021813
0.025267035 -0.068523467 0.46060082
0.025988221 -0.068174601 0.46189988
0.027126342 -0.067616388 0.46228334
0.028264493 -0.067058161 0.46266681
0.029402614 -0.066499941 0.46305028
0.030540749 -0.065941721 0.46343374
0.032082394 -0.065180734 0.46289709
0.033218294 -0.064623617 0.46327981
0.03435418 -0.064066499 0.46366253
0.035490066 -0.063509375 0.46404523
0.036625966 -0.06295225 0.46442795
0.038154185 -0.062197872 0.46388677
0.039287835 -0.06164185 0.46426874
0.040421486 -0.061085828 0.46465069
0.041555136 -0.060529798 0.46503264
0.042688787 -0.059973784 0.46541461
0.043822438 -0.059417754 0.46579656
0.044956088 -0.058861732 0.46617851
0.046466395 -0.058116123 0.46563125
0.047972172 -0.057372734 0.46508253
0.049101353 -0.056818902 0.46546298
0.050230533 -0.056265086 0.46584344
0.051727355 -0.055526085 0.46529168
0.053219721 -0.054789282 0.46473843
0.054707587 -0.05405467 0.46418369
0.056190997 -0.053322248 0.46362737
0.057669908 -0.052592039 0.46306959
0.058787882 -0.052043706 0.46344626
0.060260072 -0.051316805 0.46288621
0.061727792 -0.050592072 0.46232465
0.062841281 -0.050045945 0.4626998
0.064302266 -0.04932452 0.46213597
0.06575878 -0.0486053 0.46157065
0.066867784 -0.048061363 0.46194431
0.067976788 -0.047517426 0.46231794
0.069424346 -0.046802588 0.46174958
0.070531115 -0.046259753 0.46212247
0.071637884 -0.045716919 0.46249539
0.073076457 -0.045006484 0.46192402
0.07418099 -0.044464752 0.46229616
0.099071264 -0.032227725 0.46434587
0.099601761 -0.031977236 0.46663675
0.10041928 -0.031581111 0.46796823
0.10124128 -0.031182803 0.46930131
0.10234132 -0.030643262 0.46967193
0.10317004 -0.030241653 0.4710072
0.10454142 -0.029564179 0.47041321
0.10564147 -0.029024638 0.47078383
0.10674152 -0.028485104 0.47115448
0.10784155 -0.027945563 0.4715251
0.10920173 -0.027273588 0.47092727
0.11029954 -0.026735142 0.47129714
0.11139736 -0.026196703 0.47166702
0.11274855 -0.025529131 0.47106624
0.11384411 -0.024991788 0.47143534
0.11518861 -0.024327505 0.47083229
0.11628194 -0.023791265 0.47120064
0.11737526 -0.023255024 0.47156903
0.11871079 -0.02259513 0.47096291
0.12004183 -0.021937452 0.47035533
0.12113068 -0.021403406 0.47072217
0.12221952 -0.020869359 0.47108904
0.12354161 -0.020216063 0.47047839
0.12485922 -0.019564971 0.46986628
0.12594359 -0.019033119 0.47023162
0.12702794 -0.018501274 0.47059697
0.12811232 -0.017969429 0.47096232
0.12919667 -0.017437577 0.47132766
0.13050084 -0.016793072 0.47071096
0.13158296 -0.016262323 0.47107556
0.13266508 -0.015731573 0.47144017
0.13396028 -0.01509146 0.47082049
0.13504016 -0.014561813 0.47118431
0.13632864 -0.013925005 0.4705624
0.13740629 -0.013396457 0.47092548
0.13848393 -0.012867901 0.47128856
0.13976344 -0.012235492 0.47066358
0.14083886 -0.011708036 0.47102591
0.14191425 -0.011180587 0.47138822
0.14298967 -0.010653134 0.47175056
0.14425796 -0.010026213 0.47112185
0.14533113 -0.0094998591 0.47148341
0.14659272 -0.0088762343 0.47085238
0.14766365 -0.0083509795 0.47121319
0.14873457 -0.0078257285 0.47157404
0.14998721 -0.0072064996 0.47094002
0.15105587 -0.0066823438 0.4713001
0.15212455 -0.006158188 0.47166014
0.15336823 -0.0055433512 0.47102305
0.15443468 -0.0050202906 0.47138235
0.15550113 -0.0044972375 0.47174168
0.15673582 -0.0038868077 0.47110161
0.15780002 -0.0033648498 0.47146019
0.15886422 -0.002842892 0.47181875
0.16008997 -0.0022368506 0.47117567
0.16115195 -0.0017159879 0.47153348
0.16221389 -0.0011951327 0.47189125
0.16327585 -0.00067427009 0.47224906
0.1644904 -7.3723495e-05 0.4716022
0.16555011 0.00044603646 0.47195923
0.16660984 0.00096579641 0.47231629
0.16766956 0.0014855564 0.47267333
0.16887289 0.0020806082 0.47202271
0.17007175 0.0026734695 0.47137055
0.17112699 0.0031910315 0.47172609
0.17231914 0.0037805885 0.47107166
0.17337215 0.0042970553 0.47142646
0.17442514 0.0048135184 0.47178122
0.17560832 0.0053986795 0.47112378
0.17665908 0.0059140436 0.47147781
0.17770983 0.0064294077 0.47183183
0.17876059 0.0069447756 0.47218588
0.17993256 0.0075244475 0.47152469
0.18098107 0.0080387127 0.47187796
0.1820296 0.0085529778 0.47223124
0.18307811 0.0090672467 0.47258449
0.18412663 0.0095815118 0.47293776
0.18528517 0.010154583 0.47227201
0.18633145 0.010667752 0.47262454
0.18737772 0.011180919 0.47297707
0.18842399 0.011694089 0.47332957
0.18947028 0.012207255 0.47368208
0.19051656 0.012720421 0.47403461
0.19165941 0.01328581 0.47336361
0.19270344 0.013797877 0.47371536
0.19374748 0.014309948 0.47406712
0.19479153 0.014822016 0.47441891
0.19592316 0.015381902 0.47374412
0.19696495 0.015892871 0.47409514
0.19800675 0.016403839 0.47444615
0.19912943 0.016959343 0.47376832
0.200169 0.017469212 0.47411856
0.20120856 0.017979085 0.4744688
0.20232229 0.018530173 0.47378796
0.2033596 0.019038944 0.47413746
0.2043969 0.019547714 0.47448698
0.20550168 0.020094421 0.4738031
0.20653675 0.020602092 0.47415185
0.20757183 0.021109767 0.4745006
0.20866762 0.021652076 0.47381374
0.20970045 0.022158649 0.47416171
0.21073329 0.022665221 0.47450972
0.21182013 0.02320314 0.47381982
0.21285072 0.023708617 0.47416705
0.21388133 0.024214091 0.47451428
0.21491192 0.024719564 0.4748615
0.21594252 0.025225041 0.47520873
0.21697311 0.025730515 0.47555599
0.21804427 0.026260734 0.47486082
0.21907263 0.026765112 0.4752073
0.22010098 0.02726949 0.47555378
0.22116317 0.027795313 0.4748556
0.22218929 0.028298592 0.47520134
0.2232154 0.028801868 0.47554705
0.22426863 0.029323291 0.47484583
0.22529249 0.029825468 0.47519079
0.22631638 0.030327652 0.47553575
0.22736065 0.030844681 0.47483152
0.22838229 0.031345766 0.47517574
0.22940391 0.031846844 0.47551996
0.23042555 0.032347925 0.47586417
0.23145862 0.03285946 0.47515613
0.23247801 0.033359446 0.4754996
0.23349741 0.033859428 0.47584304
0.2345168 0.034359403 0.47618651
0.23553619 0.034859389 0.47652999
0.23655581 0.035364345 0.47581747
0.23757297 0.035863228 0.47616017
0.23859012 0.036362108 0.47650287
0.23960078 0.036862653 0.47578731
0.2406157 0.037360433 0.47612923
0.24161965 0.037857696 0.47541144
0.24263231 0.038354378 0.47575262
0.24364498 0.038851064 0.47609383
0.24463995 0.03934392 0.475373
0.2456504 0.039839506 0.47571346
0.24663866 0.040329073 0.47499031
0.24764684 0.040823553 0.47533
0.24865504 0.041318048 0.47566968
0.24963434 0.041803207 0.47494358
0.25064027 0.0422966 0.47528252
0.25164622 0.042789977 0.47562143
0.25261658 0.043270759 0.47489229
0.25362027 0.043763041 0.47523046
0.25462401 0.044255339 0.47556862
0.25558537 0.044731706 0.4748365
0.25658685 0.045222901 0.47517392
0.2575883 0.045714088 0.47551131
0.25858977 0.046205282 0.47584873
0.25959122 0.046696469 0.47618616
0.26053917 0.047166258 0.47544947
0.26153842 0.04765635 0.47578612
0.26253763 0.048146434 0.4761228
0.26347661 0.048611831 0.4753831
0.26447362 0.04910082 0.475719
0.26547059 0.049589809 0.47605491
0.26640061 0.050050795 0.4753122
0.26739535 0.050538689 0.47564736
0.26839009 0.051026575 0.47598252
0.26931113 0.05148318 0.47523674
0.27030367 0.051969979 0.47557113
0.271218 0.052423276 0.47482315
0.27220827 0.052908979 0.47515678
0.27319849 0.053394668 0.47549042
0.27410388 0.053843576 0.47473937
0.27509189 0.05432817 0.47507226
0.27607992 0.054812763 0.47540516
0.27706796 0.055297364 0.47573805
0.27805597 0.055781957 0.47607094
0.279044 0.056266557 0.47640383
0.28003204 0.056751151 0.47673672
0.28091949 0.057191275 0.47597966
0.28190523 0.057674773 0.4763118
0.28289104 0.058158271 0.47664395
0.28376952 0.058593981 0.47588384
0.28475308 0.059076384 0.47621521
0.28573662 0.059558786 0.47654662
0.28672016 0.060041182 0.47687799
0.28770369 0.060523577 0.47720936
0.28856874 0.060952708 0.47644475
0.28955007 0.061434008 0.47677538
0.29053137 0.061915316 0.477106
0.29151267 0.062396608 0.47743663
0.29249397 0.062877916 0.47776726
0.29347527 0.063359208 0.47809789
0.29445657 0.063840508 0.47842851
0.29543787 0.064321809 0.47875914
0.29628277 0.064741038 0.47798771
0.29726183 0.065221243 0.47831759
0.2982409 0.065701447 0.47864747
-0.18770781 -0.17165521 0.45853665
-0.18642408 -0.17102557 0.45896915
-0.18514031 -0.17039594 0.4594017
-0.18312261 -0.16940436 0.45902547
-0.18184111 -0.16877581 0.45945725
-0.18055961 -0.16814727 0.45988902
-0.17927805 -0.16751872 0.4603208
-0.17799655 -0.16689017 0.46075258
-0.17599237 -0.16590519 0.46037179
-0.17471308 -0.16527773 0.46080282
-0.17271557 -0.16429605 0.4604198
-0.17143854 -0.16366971 0.46085006
-0.17016152 -0.16304335 0.46128035
-0.16817299 -0.16206607 0.4608942
-0.16689816 -0.16144082 0.46132371
-0.16491634 -0.16046681 0.46093541
-0.16364381 -0.15984267 0.46136418
-0.16166875 -0.15887199 0.46097356
-0.16039839 -0.15824892 0.46140155
-0.15843004 -0.15728153 0.4610087
-0.1564661 -0.1563163 0.46061429
-0.15520027 -0.15569545 0.46104077
-0.15324315 -0.15473357 0.46064413
-0.15197954 -0.1541138 0.46106985
-0.15002912 -0.15315518 0.46067101
-0.14876777 -0.15253654 0.46109599
-0.14750639 -0.15191787 0.46152097
-0.14556491 -0.15096366 0.46111903
-0.14362794 -0.15001164 0.46071565
-0.14169535 -0.14906181 0.46031064
-0.14044073 -0.14844646 0.46073335
-0.13851497 -0.14749993 0.46032614
-0.13726255 -0.14688568 0.46074811
-0.13534349 -0.14594245 0.46033868
-0.13409331 -0.1453293 0.46075988
-0.13218102 -0.14438938 0.4603481
-0.13093308 -0.14377731 0.46076858
-0.12968519 -0.14316525 0.46118903
-0.12778178 -0.14222971 0.4607743
-0.08519724 -0.12131757 0.46139333
-0.08398065 -0.12072088 0.46180323
-0.082764119 -0.12012421 0.4622131
-0.080961555 -0.11923812 0.46176443
-0.07974723 -0.11864252 0.46217355
-0.078532904 -0.11804695 0.46258268
-0.076739311 -0.11716525 0.46213087
-0.075527221 -0.11657076 0.46253926
-0.073740333 -0.11569238 0.46208522
-0.072530538 -0.115099 0.46249285
-0.071320683 -0.11450562 0.46290046
-0.069542766 -0.11363162 0.46244347
-0.068335205 -0.11303934 0.46285033
-0.066563964 -0.11216864 0.46239105
-0.065358639 -0.11157745 0.46279714
-0.064153284 -0.11098626 0.46320325
-0.062947929 -0.11039509 0.46360937
-0.061187923 -0.10952987 0.4631463
-0.059984803 -0.10893978 0.46355164
-0.058781713 -0.1083497 0.46395701
-0.057578593 -0.10775959 0.46436235
-0.055829793 -0.10689989 0.4638955
-0.054628938 -0.10631089 0.46430013
-0.053428084 -0.10572191 0.46470472
-0.052227199 -0.10513292 0.46510932
-0.050489634 -0.10427871 0.46463874
-0.04875648 -0.10342669 0.46416661
-0.047560096 -0.1028399 0.46456969
-0.045833737 -0.10199118 0.46409529
-0.044639558 -0.10140547 0.46449763
-0.042919874 -0.10056005 0.46402097
-0.04172796 -0.099975452 0.46442255
-0.040015012 -0.099133328 0.4639436
-0.038306564 -0.098293394 0.46346322
-0.03711912 -0.097711012 0.46386328
-0.035931677 -0.0971286 0.46426338
-0.034744292 -0.096546218 0.46466345
0.023605436 -0.067881972 0.46003357
0.024741322 -0.067324847 0.46041629
0.02546148 -0.066973627 0.46171495
0.026599616 -0.066415399 0.46209842
0.027737737 -0.065857179 0.46248189
0.028875887 -0.06529896 0.46286535
0.030014008 -0.064740747 0.46324882
0.031152144 -0.06418252 0.46363229
0.032692581 -0.063424997 0.46309525
0.033828467 -0.06286788 0.46347797
0.034964368 -0.062310755 0.46386069
0.036100268 -0.061753631 0.46424338
0.037236154 -0.061196506 0.4646261
0.03837204 -0.060639389 0.46500883
0.03950794 -0.060082272 0.46539152
0.041030467 -0.05933354 0.46484846
0.042164117 -0.058777519 0.46523041
0.042915612 -0.058410905 0.46653965
0.044431418 -0.057665475 0.46599433
0.045565069 -0.057109453 0.46637627
0.047074169 -0.056367315 0.46582863
0.048205584 -0.055812389 0.46620983
0.049707934 -0.055073559 0.46565998
0.0508371 -0.054519728 0.4660404
0.052332729 -0.053784184 0.46548826
0.053823888 -0.053050846 0.46493462
0.055310547 -0.052319705 0.46437949
0.056792766 -0.051590748 0.46382278
0.058270469 -0.050864004 0.46326461
0.059743702 -0.05013945 0.46270493
0.06121245 -0.049417086 0.46214372
0.06232594 -0.048870958 0.4625189
0.063787967 -0.048151903 0.4619554
0.064899206 -0.047606871 0.4623298
0.066354513 -0.046891116 0.4617641
0.067463532 -0.046347179 0.46213776
0.068572536 -0.045803241 0.46251142
0.070018888 -0.045091867 0.46194264
0.071125656 -0.044549033 0.46231556
0.072565272 -0.043840975 0.46174455
0.073669791 -0.043299235 0.46211669
0.074774325 -0.042757496 0.46248883
0.098282725 -0.031217456 0.46512911
0.099094719 -0.030821167 0.46645874
0.099632114 -0.030561537 0.46875194
0.10073216 -0.030022003 0.46912256
0.1015576 -0.029619135 0.47045672
0.10265988 -0.029078498 0.47082812
0.10376218 -0.028537855 0.47119951
0.10486446 -0.027997218 0.47157088
0.10623239 -0.027324304 0.47097573
0.10733244 -0.026784763 0.47134638
0.10843249 -0.026245221 0.471717
0.10953254 -0.02570568 0.47208765
0.11088927 -0.025038272 0.47148865
0.11198707 -0.024499834 0.47185853
0.11333707 -0.023835719 0.47125736
0.11443264 -0.023298375 0.47162646
0.11577593 -0.022637565 0.47102302
0.11686926 -0.02210132 0.47139138
0.11796258 -0.021565076 0.47175977
0.11929691 -0.020908646 0.47115326
0.12062674 -0.020254422 0.47054526
0.12171559 -0.019720376 0.47091213
0.12303871 -0.019069448 0.47030184
0.12412532 -0.018536501 0.47066796
0.12544173 -0.017888866 0.47005543
0.12652609 -0.017357022 0.47042078
0.12761045 -0.016825177 0.47078612
0.12869482 -0.016293325 0.4711515
0.13000003 -0.015651189 0.47053513
0.13108215 -0.015120439 0.47089973
0.13216427 -0.01458969 0.47126433
0.13346049 -0.013951946 0.47064504
0.13454038 -0.013422299 0.47100887
0.1358299 -0.01278786 0.47038731
0.13690755 -0.012259312 0.47075039
0.13798518 -0.011730757 0.47111347
0.13926575 -0.011100702 0.47048885
0.14034115 -0.010573246 0.47085118
0.14141655 -0.010045797 0.47121349
0.14249195 -0.009518344 0.47157583
0.14356735 -0.0089908913 0.47193816
0.14483446 -0.0083674304 0.47130904
0.14590761 -0.0078410767 0.47167063
0.14716801 -0.0072209202 0.47103921
0.14823893 -0.0066956691 0.47140002
0.14930984 -0.0061704107 0.47176084
0.15056127 -0.0055546463 0.47112644
0.15162995 -0.0050304905 0.47148651
0.15269865 -0.0045063347 0.47184658
0.15376732 -0.0039821789 0.47220665
0.15500756 -0.0033719093 0.47156841
0.15607399 -0.0028488524 0.4719277
0.15730749 -0.002241876 0.47128728
0.15837169 -0.0017199181 0.47164583
0.1594359 -0.0011979602 0.47200438
0.16066045 -0.0005953759 0.47136092
0.16172241 -7.4520707e-05 0.47171873
0.16278437 0.00044634193 0.47207654
0.16384631 0.00096719712 0.47243431
0.16505967 0.0015642792 0.47178707
0.1661194 0.0020840392 0.4721441
0.16717911 0.0026037991 0.47250116
0.16838348 0.0031964891 0.4718509
0.16944095 0.0037151538 0.47220719
0.17063862 0.0043045506 0.47155464
0.17169386 0.0048221201 0.47191018
0.17288479 0.0054082051 0.47125536
0.1739378 0.0059246682 0.47161016
0.17512202 0.0065074675 0.47095308
0.17617278 0.0070228316 0.4713071
0.17722353 0.0075381957 0.47166112
0.17827429 0.0080535635 0.47201514
0.17932504 0.0085689239 0.47236916
0.18049581 0.0091451313 0.47170758
0.18154433 0.0096593965 0.47206086
0.18259284 0.010173665 0.47241414
0.18364137 0.010687931 0.47276741
0.18468988 0.011202196 0.47312069
0.18584721 0.011771809 0.47245455
0.18689349 0.012284975 0.47280705
0.18793976 0.012798145 0.47315958
0.18898605 0.013311312 0.47351208
0.19003232 0.013824478 0.47386461
0.19107859 0.014337644 0.47421712
0.19222024 0.014899572 0.47354573
0.19326428 0.015411643 0.47389749
0.19430833 0.015923711 0.47424927
0.19535236 0.016435778 0.47460103
0.19648279 0.016992196 0.47392586
0.19752459 0.017503165 0.47427687
0.19856639 0.018014137 0.47462788
0.19968787 0.018566176 0.47394964
0.20072743 0.019076049 0.47429991
0.201767 0.019585919 0.47465017
0.20287952 0.020133546 0.47396892
0.20391683 0.020642316 0.47431841
0.20495415 0.02115109 0.47466794
0.2060577 0.021694325 0.47398368
0.20709279 0.022202 0.47433242
0.20812786 0.022709675 0.47468117
0.20922245 0.02324852 0.47399393
0.21025528 0.023755092 0.4743419
0.21134317 0.024290645 0.47365236
0.21237376 0.024796123 0.47399959
0.21340436 0.025301596 0.47434682
0.21443495 0.02580707 0.47469404
0.21546555 0.026312547 0.4750413
0.21649614 0.02681802 0.47538853
0.21752672 0.027323494 0.47573575
0.2185967 0.027850255 0.47504023
0.21962506 0.028354634 0.47538668
0.22068827 0.028878091 0.47468889
0.22171439 0.02938137 0.47503462
0.2227405 0.029884646 0.47538033
0.22379477 0.030403711 0.47467947
0.22481863 0.030905887 0.47502443
0.22584252 0.031408072 0.47536939
0.22688782 0.031922735 0.47466552
0.22790946 0.03242382 0.47500974
0.2289311 0.032924898 0.47535396
0.22995274 0.033425979 0.47569817
0.23097436 0.033927057 0.47604239
0.23200622 0.034435131 0.47533396
0.23302563 0.034935117 0.47567743
0.23404501 0.035435092 0.4760209
0.2350644 0.035935078 0.47636434
0.23608507 0.03643766 0.47565219
0.23710223 0.036936544 0.47599491
0.23811936 0.037435424 0.47633761
0.23913106 0.037933614 0.47562239
0.24014598 0.038431395 0.47596434
0.2411609 0.038929179 0.47630629
0.24216363 0.039422974 0.47558811
0.24317631 0.039919659 0.47592929
0.24417232 0.04041015 0.47520885
0.24518277 0.040905736 0.47554928
0.24619319 0.041401323 0.47588971
0.24718024 0.041887417 0.47516617
0.24818844 0.042381912 0.47550586
0.24919662 0.042876393 0.47584555
0.2501747 0.043358099 0.47511905
0.25118065 0.043851476 0.475458
0.25215206 0.044329893 0.47472921
0.25315577 0.044822175 0.47506738
0.25415948 0.045314472 0.47540554
0.25516319 0.045806754 0.47574371
0.25612336 0.046279676 0.4750112
0.25712478 0.046770863 0.47534862
0.25812626 0.047262058 0.47568604
0.25912774 0.047753245 0.47602347
0.26012921 0.048244439 0.47636086
0.26107597 0.048710756 0.47562379
0.26207519 0.04920084 0.47596043
0.26301521 0.049663879 0.47522113
0.26401216 0.050152868 0.47555703
0.26500916 0.050641857 0.47589293
0.26594022 0.051100481 0.47515059
0.26693496 0.051588375 0.47548574
0.2679297 0.052076261 0.4758209
0.26885179 0.052530497 0.47507545
0.26984429 0.053017296 0.47540987
0.27075967 0.053468227 0.47466224
0.27174997 0.053953931 0.47499588
0.27274019 0.054439619 0.47532952
0.27373049 0.054925323 0.47566319
0.27463463 0.055370759 0.47491175
0.27562267 0.055855352 0.47524464
0.27661067 0.056339953 0.4755775
0.27759871 0.056824546 0.4759104
0.27858675 0.057309147 0.47624329
0.27957475 0.05779374 0.47657618
0.28056276 0.058278341 0.47690907
0.28144902 0.058714997 0.47615165
0.28243482 0.059198495 0.47648379
0.28342059 0.059681993 0.47681591
0.28429788 0.06011425 0.47605541
0.28528142 0.060596652 0.47638682
0.28626496 0.061079048 0.47671819
0.28724849 0.061561443 0.47704956
0.28823203 0.062043846 0.47738093
0.28909588 0.062469505 0.47661594
0.29007721 0.062950812 0.47694656
0.29105848 0.063432105 0.47727719
0.29203981 0.063913412 0.47760782
0.29302111 0.064394705 0.47793844
0.29400241 0.064876005 0.47826907
0.29498371 0.065357305 0.4785997
0.29596502 0.065838613 0.47893032
0.29680872 0.066254385 0.4781585
0.29778776 0.06673459 0.47848839
-0.18904361 -0.17066345 0.45913425
-0.18775758 -0.17003268 0.45956752
-0.18647161 -0.16940194 0.46000081
-0.18445066 -0.16841161 0.45962566
-0.18316692 -0.16778198 0.46005818
-0.1811527 -0.16679499 0.45968083
-0.17987117 -0.16616644 0.4601126
-0.17858964 -0.16553789 0.46054438
-0.17658445 -0.16455527 0.46016392
-0.17530516 -0.16392782 0.46059495
-0.17402586 -0.16330038 0.46102598
-0.17202955 -0.16232215 0.46064258
-0.17075253 -0.16169579 0.46107286
-0.16876295 -0.16072087 0.46068707
-0.16748819 -0.16009563 0.46111658
-0.16550529 -0.15912397 0.46072868
-0.16423276 -0.15849984 0.46115741
-0.16225663 -0.15753151 0.46076715
-0.1609863 -0.15690847 0.46119517
-0.15901694 -0.15594342 0.46080264
-0.15774885 -0.15532146 0.46122989
-0.15578613 -0.15435971 0.46083513
-0.1545203 -0.15373887 0.4612616
-0.15256435 -0.15278043 0.46086457
-0.15130076 -0.15216067 0.4612903
-0.14935154 -0.15120554 0.46089104
-0.14809015 -0.15058687 0.46131602
-0.14614764 -0.14963502 0.46091446
-0.14488855 -0.14901745 0.4613387
-0.14227602 -0.14773791 0.46010679
-0.1410214 -0.14712253 0.46052951
-0.13909459 -0.14617838 0.46012264
-0.13784218 -0.14556412 0.46054462
-0.13592207 -0.14462328 0.46013555
-0.13467193 -0.14401011 0.46055678
-0.13342178 -0.14339694 0.46097794
-0.13151065 -0.14246048 0.46056581
-0.13026276 -0.14184842 0.46098626
-0.1283583 -0.14091524 0.46057191
-0.12711263 -0.1403043 0.46099162
-0.12586695 -0.13969332 0.46141133
-0.12462124 -0.13908234 0.46183103
-0.083327144 -0.11884047 0.46201542
-0.082110584 -0.1182438 0.46242532
-0.080894053 -0.11764711 0.46283522
-0.079094917 -0.11676557 0.46238539
-0.077880621 -0.11617 0.46279451
-0.076666325 -0.11557443 0.46320364
-0.0748761 -0.11469729 0.46275067
-0.073664039 -0.1141028 0.46315905
-0.071880609 -0.11322898 0.46270388
-0.070670754 -0.11263558 0.46311152
-0.068894058 -0.11176506 0.46265414
-0.067686468 -0.11117277 0.463061
-0.065916479 -0.11030555 0.4626013
-0.064711124 -0.10971436 0.46300742
-0.063505799 -0.10912319 0.46341354
-0.06174472 -0.10826032 0.46295083
-0.0605416 -0.10767023 0.46335617
-0.058787316 -0.10681067 0.46289119
-0.057586432 -0.10622169 0.46329579
-0.056385547 -0.10563271 0.46370038
-0.055184692 -0.10504372 0.46410498
-0.053983837 -0.10445474 0.46450958
-0.052242965 -0.10360178 0.46404013
-0.051044375 -0.1030139 0.46444398
-0.049310178 -0.10216424 0.46397221
-0.048113793 -0.10157746 0.46437532
-0.046386391 -0.10073109 0.46390125
-0.045192242 -0.1001454 0.46430361
-0.043471485 -0.099302337 0.46382731
-0.042279571 -0.098717734 0.4642289
-0.04056564 -0.097877979 0.4637503
-0.039375931 -0.09729448 0.46415114
-0.038186282 -0.096710995 0.46455199
-0.036481231 -0.095875606 0.46407044
-0.035293847 -0.095293239 0.46447051
0.023796603 -0.066330865 0.46114656
0.024934739 -0.065772638 0.46153003
0.02607286 -0.065214425 0.4619135
0.02721101 -0.064656198 0.46229696
0.028349131 -0.064097978 0.46268043
0.029487267 -0.063539758 0.4630639
0.030625403 -0.062981538 0.46344736
0.031763554 -0.062423319 0.46383083
0.033302769 -0.06166926 0.4632934
0.03443867 -0.061112136 0.46367612
0.035574555 -0.060555011 0.46405885
0.036710441 -0.059997886 0.46444154
0.037846342 -0.059440769 0.46482426
0.038982242 -0.058883652 0.46520695
0.040118128 -0.058326527 0.46558967
0.041254014 -0.057769403 0.46597239
0.042389914 -0.057212286 0.46635509
0.043525815 -0.056655161 0.46673781
0.045040414 -0.055913202 0.4661921
0.046174064 -0.055357181 0.46657404
0.047307715 -0.054801159 0.46695599
0.048813373 -0.054063573 0.46640721
0.050314516 -0.053328201 0.46585694
0.051811174 -0.052595027 0.46530515
0.053303376 -0.051864058 0.4647519
0.054791063 -0.051135279 0.46419713
0.05627431 -0.050408684 0.46364078
0.057753056 -0.049684301 0.46308297
0.058871031 -0.049135976 0.46345964
0.060343057 -0.048414886 0.46289957
0.061810613 -0.047695987 0.46233797
0.062924102 -0.047149852 0.46271312
0.064384907 -0.046434268 0.46214926
0.065496162 -0.045889229 0.46252367
0.066950262 -0.045176931 0.46195757
0.068059281 -0.044632994 0.46233124
0.06950666 -0.043923989 0.46176282
0.070613429 -0.043381155 0.46213573
0.073158607 -0.042133711 0.46193725
0.074263141 -0.041591972 0.46230939
0.097776726 -0.030063763 0.46495149
0.098305315 -0.029802695 0.46724162
0.099123001 -0.029400744 0.46857321
0.10022305 -0.02886121 0.46894383
0.10104746 -0.028455973 0.47027764
0.10187633 -0.02804853 0.47161296
0.10325202 -0.027374692 0.4710204
0.10435431 -0.026834056 0.4713918
0.10545659 -0.026293419 0.47176319
0.10682333 -0.02562397 0.47116765
0.10792337 -0.025084428 0.47153828
0.10902342 -0.024544891 0.4719089
0.11012347 -0.02400535 0.47227955
0.11122352 -0.023465816 0.47265017
0.1125768 -0.022802956 0.47205004
0.1139256 -0.022142313 0.47144845
0.11502117 -0.021604974 0.47181758
0.11636326 -0.02094762 0.47121376
0.11745659 -0.020411376 0.47158211
0.11879195 -0.019757316 0.47097597
0.11988303 -0.01922217 0.47134358
0.12121166 -0.018571407 0.47073522
0.12230051 -0.018037364 0.47110206
0.12362242 -0.017389894 0.47049141
0.12470903 -0.016856946 0.4708575
0.12602423 -0.016212784 0.47024462
0.1271086 -0.015680939 0.47060996
0.12819296 -0.015149087 0.47097531
0.12927732 -0.014617242 0.47134066
0.13058132 -0.013978563 0.47072393
0.13166344 -0.013447814 0.4710885
0.13274556 -0.012917068 0.4714531
0.13404059 -0.012282785 0.47083342
0.13533115 -0.011650708 0.47021219
0.13640879 -0.01112216 0.4705753
0.13748644 -0.010593604 0.47093838
0.13856408 -0.010065053 0.47130147
0.13984343 -0.0094384626 0.47067645
0.14091884 -0.0089110136 0.47103879
0.14199424 -0.0083835609 0.4714011
0.14306964 -0.0078561082 0.47176343
0.14433779 -0.0072350167 0.47113469
0.14541095 -0.006708663 0.47149625
0.14648411 -0.0061823092 0.47185782
0.1477433 -0.0055656172 0.47122604
0.14881422 -0.0050403588 0.47158685
0.14988515 -0.0045151077 0.47194767
0.15113537 -0.0039028004 0.47131288
0.15220405 -0.0033786446 0.47167295
0.15327273 -0.0028544888 0.47203299
0.15434141 -0.002330333 0.47239307
0.15558043 -0.0017235242 0.47175443
0.15664688 -0.0012004673 0.47211376
0.15787917 -0.00059695914 0.47147292
0.15894337 -7.500127e-05 0.47183147
0.16000757 0.0004469566 0.47219002
0.16107178 0.00096891448 0.47254857
0.16229288 0.0015669391 0.47190398
0.16335484 0.0020877942 0.47226179
0.16441679 0.0026086569 0.47261959
0.16547875 0.0031295121 0.47297737
0.16668865 0.0037220344 0.47232896
0.16774838 0.0042417943 0.47268602
0.16895154 0.0048310198 0.47203538
0.17000902 0.0053496845 0.47239166
0.17120549 0.0059356168 0.47173873
0.17226072 0.0064531732 0.47209427
0.17345047 0.0070358142 0.47143906
0.17450346 0.0075522773 0.47179383
0.17568648 0.0081316158 0.47113636
0.17673722 0.0086469799 0.47149038
0.17778799 0.0091623478 0.4718444
0.17883873 0.0096777081 0.47219846
0.18001054 0.010251546 0.47153723
0.18105906 0.010765811 0.47189051
0.18210758 0.01128008 0.47224379
0.1831561 0.011794345 0.47259703
0.18420462 0.012308611 0.47295031
0.18525313 0.012822879 0.47330359
0.18630165 0.013337145 0.47365686
0.18735017 0.013851414 0.47401014
0.18850182 0.014415365 0.47334209
0.18954809 0.014928531 0.47369462
0.19059436 0.015441697 0.47404712
0.19164065 0.015954863 0.47439966
0.19268692 0.016468029 0.47475216
0.19382514 0.017025387 0.47407964
0.19486918 0.017537454 0.4744314
0.1959132 0.018049521 0.47478315
0.19704244 0.018602487 0.47410759
0.19808424 0.019113459 0.47445861
0.19912603 0.019624431 0.47480962
0.20024632 0.020173002 0.47413102
0.20128587 0.020682871 0.47448125
0.20232543 0.021192741 0.47483152
0.20343675 0.021736911 0.47414988
0.20447406 0.022245685 0.47449937
0.20551139 0.022754459 0.4748489
0.20661375 0.023294233 0.47416425
0.20764881 0.023801908 0.47451296
0.20868388 0.024309579 0.47486171
0.20977727 0.024844963 0.47417408
0.21081011 0.025351539 0.47452208
0.21189678 0.025883628 0.47383216
0.21292739 0.026389102 0.47417939
0.21395798 0.026894575 0.47452661
0.21498857 0.027400052 0.47487384
0.21601917 0.027905526 0.47522107
0.21704975 0.028410999 0.47556832
0.21812075 0.028935391 0.47487313
0.21914911 0.02943977 0.47521961
0.22021337 0.029960869 0.47452217
0.22123949 0.030464148 0.47486788
0.2222656 0.030967424 0.47521362
0.22329171 0.031470701 0.47555932
0.22434478 0.0319863 0.47485808
0.22536865 0.032488484 0.47520304
0.22639252 0.032990661 0.47554803
0.22743665 0.033501867 0.47484374
0.22845827 0.034002945 0.47518796
0.22947991 0.034504026 0.47553217
0.23050153 0.035005104 0.47587639
0.23152317 0.035506181 0.47622061
0.23255384 0.036010798 0.47551182
0.23357323 0.036510773 0.47585526
0.23459262 0.037010759 0.4761987
0.23561431 0.037510976 0.47548693
0.23663147 0.03800986 0.47582963
0.23764862 0.038508739 0.47617233
0.23866136 0.039004564 0.47545749
0.23967627 0.039502345 0.47579944
0.24069118 0.040000129 0.47614139
0.24169496 0.040491559 0.47542357
0.24270764 0.040988244 0.47576475
0.24372031 0.041484926 0.47610596
0.24471512 0.041971959 0.4753851
0.24572556 0.042467546 0.47572556
0.24673598 0.042963129 0.47606599
0.24772184 0.043445773 0.47534207
0.24873002 0.043940254 0.47568175
0.24973822 0.044434741 0.47602144
0.25071511 0.044912979 0.47529456
0.25172108 0.045406379 0.47563347
0.252727 0.045899764 0.47597241
0.25369495 0.046373609 0.47524247
0.25469863 0.046865892 0.47558063
0.25570238 0.047358181 0.4759188
0.2566613 0.047827631 0.4751859
0.25766277 0.048318826 0.47552332
0.25866425 0.048810013 0.47586074
0.25966573 0.049301207 0.47619817
0.2606135 0.049765162 0.47546142
0.26161271 0.050255246 0.4757981
0.26255378 0.05071592 0.47505912
0.26355076 0.051204909 0.47539502
0.26454777 0.051693898 0.47573093
0.26547983 0.052150156 0.47498897
0.26647457 0.05263805 0.47532412
0.26746932 0.053125937 0.47565928
0.26839244 0.053577811 0.47491422
0.26938495 0.054064609 0.47524861
0.27030137 0.054513171 0.47450134
0.27129167 0.054998875 0.47483501
0.27228189 0.055484563 0.47516865
0.27327219 0.055970266 0.47550228
0.27426243 0.056455955 0.47583592
0.27516538 0.056897935 0.4750841
0.27615345 0.057382535 0.47541699
0.27714145 0.057867128 0.47574988
0.27812946 0.058351729 0.47608277
0.27911749 0.058836322 0.47641566
0.28010553 0.059320923 0.47674856
0.28109357 0.059805524 0.47708145
0.28197858 0.060238712 0.4763236
0.28296435 0.06072221 0.47665575
0.28395015 0.061205715 0.47698787
0.28482622 0.061634503 0.47622699
0.28580976 0.062116899 0.47655836
0.28679332 0.062599294 0.47688976
0.28777686 0.063081697 0.47722113
0.28876042 0.063564092 0.4775525
0.28962305 0.063986301 0.47678712
0.29060435 0.064467594 0.47711775
0.29158565 0.064948902 0.47744837
0.29256696 0.065430194 0.477779
0.29354826 0.065911494 0.47810963
0.29452956 0.066392794 0.47844025
0.29551089 0.066874102 0.47877088
0.29635561 0.067287505 0.47799945
0.29733464 0.067767709 0.4783293
-0.18963876 -0.16930643 0.45892528
-0.18835273 -0.16867566 0.45935857
-0.18706676 -0.16804492 0.45979187
-0.18578073 -0.16741419 0.46022514
-0.18449473 -0.16678342 0.46065843
-0.1824773 -0.16579768 0.46028212
-0.18046427 -0.16481416 0.45990437
-0.17918274 -0.1641856 0.46033615
-0.17790121 -0.16355704 0.46076795
-0.17589721 -0.16257791 0.46038711
-0.17461792 -0.16195045 0.46081811
-0.17262056 -0.16097459 0.46043509
-0.17134354 -0.16034824 0.46086535
-0.16935295 -0.15937567 0.46047994
-0.16807815 -0.15875043 0.46090946
-0.16680333 -0.15812516 0.46133897
-0.16482171 -0.157157 0.46095064
-0.16354913 -0.15653285 0.46137941
-0.16157421 -0.15556799 0.46098876
-0.1596038 -0.15460533 0.46059662
-0.15833572 -0.15398337 0.46102387
-0.15706769 -0.15336142 0.46145108
-0.15510616 -0.15240313 0.46105593
-0.15314916 -0.15144706 0.46065924
-0.15188557 -0.1508273 0.46108499
-0.14993531 -0.14987452 0.46068612
-0.14867392 -0.14925586 0.4611111
-0.14673039 -0.14830637 0.4607099
-0.14547125 -0.14768881 0.46113411
-0.14353445 -0.14674264 0.4607307
-0.14160207 -0.14579862 0.46032566
-0.14034745 -0.14518328 0.46074837
-0.1384218 -0.14424257 0.46034113
-0.13716942 -0.14362831 0.46076307
-0.13525051 -0.14269093 0.46035364
-0.13400036 -0.14207777 0.46077484
-0.13208818 -0.14114365 0.46036306
-0.13084027 -0.1405316 0.46078351
-0.12959236 -0.13991952 0.46120396
-0.12768915 -0.13898984 0.46078923
-0.12644348 -0.13837886 0.46120891
-0.12519777 -0.13776788 0.46162862
-0.1233035 -0.13684258 0.46121076
-0.12206006 -0.13623272 0.46162969
-0.080240518 -0.1157667 0.46304744
-0.079023987 -0.11517003 0.46345732
-0.077228308 -0.11429307 0.46300635
-0.076014012 -0.11369748 0.46341547
-0.074225038 -0.1128238 0.46296212
-0.073012978 -0.11222933 0.4633705
-0.07123068 -0.11135897 0.46291494
-0.070020884 -0.11076558 0.46332255
-0.068245381 -0.10989851 0.46286479
-0.067037791 -0.10930622 0.46327168
-0.065268964 -0.10844247 0.46281159
-0.064063638 -0.10785128 0.46321771
-0.062301546 -0.10699078 0.46275535
-0.061098427 -0.10640068 0.46316069
-0.059895337 -0.1058106 0.46356604
-0.058142215 -0.10495453 0.46310067
-0.05694133 -0.10436554 0.4635053
-0.055740476 -0.10377656 0.46390989
-0.053996354 -0.10292488 0.46344155
-0.052797705 -0.10233697 0.4638454
-0.051599085 -0.10174909 0.46424925
-0.049863905 -0.1009018 0.46377784
-0.04866752 -0.100315 0.46418092
-0.046939045 -0.099471003 0.46370724
-0.045744896 -0.098885328 0.46410957
-0.044550747 -0.098299623 0.46451193
-0.042831212 -0.097460017 0.46403524
-0.041639328 -0.096875444 0.4644368
-0.039926529 -0.096039131 0.46395785
-0.03873688 -0.095455632 0.46435869
-0.037547201 -0.094872132 0.4647595
-0.036357552 -0.094288647 0.46516034
0.022131726 -0.065688103 0.46057817
0.023269862 -0.065129876 0.46096164
0.024407998 -0.064571664 0.46134511
0.02513054 -0.064213492 0.46264458
0.026270926 -0.063654177 0.46302879
0.027822405 -0.062896997 0.46249551
0.028960526 -0.062338784 0.46287897
0.030098662 -0.061780557 0.46326244
0.031236798 -0.06122233 0.46364591
0.032374933 -0.060664117 0.46402937
0.033513069 -0.06010589 0.46441284
0.034651205 -0.059547678 0.4647963
0.035789341 -0.05898945 0.46517977
0.036927462 -0.058431238 0.46556324
0.038065612 -0.057873011 0.4659467
0.039203733 -0.057314798 0.46633017
0.040341869 -0.056756571 0.46671364
0.041864216 -0.056013674 0.46617055
0.043000102 -0.055456549 0.46655324
0.044136003 -0.054899424 0.46693596
0.045649394 -0.054160923 0.46638986
0.04678306 -0.053604893 0.46677181
0.048289746 -0.052869692 0.46622336
0.049791917 -0.052136675 0.46567348
0.050921082 -0.051582858 0.46605393
0.052416548 -0.050853141 0.46550176
0.054271579 -0.049950846 0.46401474
0.055394039 -0.049400322 0.46439293
0.056876078 -0.048677184 0.46383619
0.058353618 -0.047956266 0.463278
0.059826687 -0.047237545 0.46271828
0.061295271 -0.046521001 0.46215704
0.06240876 -0.045974873 0.46253222
0.063522249 -0.045428738 0.46290737
0.064981863 -0.044716612 0.46234313
0.066437006 -0.044006683 0.46177739
0.097270727 -0.028910071 0.46477383
0.097797245 -0.028644279 0.46706325
0.098613888 -0.028239965 0.46839449
0.099435002 -0.027833454 0.46972716
0.1005373 -0.027292818 0.47009853
0.10136515 -0.026883021 0.47143349
0.10246967 -0.026341282 0.47180563
0.10384417 -0.025670901 0.47121269
0.10494645 -0.025130264 0.47158408
0.10604873 -0.024589628 0.47195548
0.10715102 -0.024048984 0.47232687
0.10851431 -0.023384113 0.47173017
0.10961436 -0.022844572 0.47210082
0.11071441 -0.022305034 0.47247145
0.11181445 -0.021765493 0.47284207
0.11316654 -0.021106102 0.47224155
0.11451413 -0.020448912 0.47163957
0.11560969 -0.019911569 0.47200871
0.11695058 -0.019257683 0.47140446
0.1180439 -0.018721443 0.47177285
0.11937807 -0.018070839 0.47116631
0.12070774 -0.017422438 0.47055832
0.12179658 -0.016888395 0.47092515
0.12311953 -0.016243294 0.47031486
0.12420614 -0.015710346 0.47068095
0.12529275 -0.015177403 0.47104707
0.12637934 -0.014644455 0.47141317
0.12769111 -0.014004841 0.47079912
0.12877548 -0.013472997 0.47116446
0.13008051 -0.01283668 0.47054809
0.13116263 -0.01230593 0.47091269
0.13224475 -0.011775184 0.4712773
0.13354081 -0.011143278 0.47065794
0.13483241 -0.010513555 0.4700371
0.13591005 -0.0099850073 0.47040018
0.13698769 -0.009456452 0.4707633
0.13806534 -0.0089279003 0.47112638
0.13934574 -0.0083036795 0.47050172
0.14042112 -0.0077762306 0.47086406
0.14149654 -0.0072487779 0.47122636
0.14257193 -0.0067213252 0.4715887
0.14364734 -0.0061938725 0.47195104
0.14491427 -0.0055762418 0.47132188
0.14598744 -0.005049888 0.47168347
0.1470606 -0.0045235343 0.47204503
0.14831859 -0.0039102994 0.47141284
0.14938951 -0.0033850484 0.47177365
0.15046042 -0.0028597899 0.4721345
0.15170945 -0.0022509471 0.47149929
0.15277813 -0.0017267913 0.47185937
0.15384682 -0.0012026355 0.47221944
0.1549155 -0.00067847967 0.47257951
0.15615332 -7.5139105e-05 0.47194049
0.15721977 0.00044791773 0.47229978
0.15845086 0.0010479651 0.47165856
0.15951505 0.001569923 0.47201714
0.16057925 0.0020918809 0.47237569
0.16164345 0.0026138388 0.47273424
0.16270766 0.0031357966 0.47309279
0.16392532 0.003729254 0.47244704
0.16498727 0.0042501166 0.47280484
0.16604923 0.0047709718 0.47316265
0.16725793 0.0053600296 0.47251382
0.16831765 0.0058797896 0.47287089
0.1695196 0.006465558 0.47221985
0.17071712 0.0070491266 0.47156727
0.17177235 0.0075666886 0.47192281
0.17296313 0.0081469528 0.47126797
0.17401612 0.0086634159 0.47162274
0.17520016 0.0092403889 0.47096565
0.17625093 0.009755753 0.47131968
0.17730169 0.010271121 0.4716737
0.17835245 0.010786481 0.47202772
0.1794032 0.011301849 0.47238174
0.18057379 0.011872226 0.47172013
0.18162231 0.012386495 0.47207341
0.18267083 0.01290076 0.47242668
0.18371935 0.013415026 0.47277996
0.18476787 0.013929294 0.47313324
0.18581638 0.01444356 0.47348651
0.18686491 0.014957828 0.47383979
0.18791342 0.01547209 0.47419304
0.18896192 0.015986359 0.47454631
0.19001046 0.016500624 0.47489959
0.19115642 0.017058916 0.47422966
0.19220269 0.017572083 0.47458217
0.19324897 0.018085252 0.47493467
0.19438598 0.018639142 0.47426176
0.19543001 0.019151209 0.47461352
0.19647405 0.019663276 0.47496527
0.19751808 0.020175347 0.47531703
0.19864388 0.020723753 0.47464034
0.19968566 0.021234721 0.47499135
0.20080476 0.021779831 0.47431237
0.2018443 0.022289701 0.4746626
0.20288387 0.02279957 0.47501287
0.20399398 0.023340276 0.47433084
0.20503131 0.02384905 0.47468033
0.20613471 0.024386466 0.47399607
0.20716977 0.024894141 0.47434482
0.20820484 0.025401812 0.47469354
0.20929927 0.025934827 0.47400627
0.21033211 0.026441403 0.47435427
0.21136494 0.026947979 0.47470227
0.21239777 0.027454551 0.47505024
0.21348101 0.027982073 0.47435915
0.2145116 0.02848755 0.47470638
0.2155422 0.028993024 0.47505364
0.21661647 0.029516153 0.47435957
0.21764483 0.030020531 0.47470605
0.21867318 0.030524909 0.47505254
0.21973848 0.031043636 0.47435543
0.22076459 0.031546917 0.47470117
0.2217907 0.032050192 0.4750469
0.22281682 0.032553468 0.47539261
0.22387092 0.033066705 0.47469172
0.22489479 0.033568889 0.47503668
0.22591867 0.034071065 0.47538167
0.22694254 0.034573246 0.47572663
0.22798546 0.035080992 0.47502196
0.22900708 0.035582073 0.47536618
0.2300287 0.036083151 0.47571039
0.23105034 0.036584228 0.47605461
0.23208205 0.037086479 0.47534618
0.23310144 0.037586454 0.47568962
0.23412083 0.03808644 0.47603309
0.23514022 0.038586419 0.47637656
0.23616073 0.039083179 0.47566438
0.23717786 0.039582059 0.47600707
0.23819165 0.040075518 0.47529259
0.23920655 0.040573299 0.47563455
0.24022147 0.041071083 0.4759765
0.24122629 0.041560147 0.47525904
0.24223897 0.042056832 0.47560021
0.24325164 0.042553514 0.47594142
0.2442643 0.0430502 0.47628263
0.24525791 0.043533769 0.47556138
0.24626833 0.044029351 0.47590181
0.24727876 0.044524942 0.47624227
0.24826342 0.045004115 0.47551793
0.24927162 0.045498602 0.47585762
0.25024956 0.045974471 0.47513109
0.25125551 0.04646787 0.47547004
0.25226146 0.046961255 0.47580895
0.25323042 0.047432736 0.47507939
0.25423414 0.047925018 0.47541755
0.25523782 0.048417307 0.47575572
0.25624153 0.048909597 0.47609392
0.25719929 0.049375594 0.4753606
0.25820076 0.049866781 0.47569802
0.25920224 0.050357975 0.47603545
0.26015106 0.050819568 0.47529906
0.26115027 0.051309653 0.47563574
0.26214951 0.051799752 0.47597241
0.26308936 0.052256942 0.47523305
0.26408634 0.052745931 0.47556895
0.26501948 0.053199831 0.47482735
0.26601422 0.053687729 0.47516251
0.26700896 0.054175615 0.47549763
0.26793313 0.054625124 0.47475293
0.26892561 0.055111922 0.47508734
0.26991814 0.055598713 0.47542176
0.27083334 0.056043826 0.47467411
0.27182359 0.056529514 0.47500774
0.27281386 0.057015218 0.47534138
0.27380413 0.057500906 0.47567502
0.2747944 0.05798661 0.47600868
0.27569616 0.058425117 0.47525647
0.27668417 0.05890971 0.47558936
0.2776722 0.059394311 0.47592223
0.27866024 0.059878904 0.47625512
0.27964824 0.060363505 0.47658801
0.28063631 0.060848106 0.4769209
0.28152233 0.061278932 0.47616345
0.28250813 0.06176243 0.47649559
0.28349394 0.062245935 0.47682771
0.28437102 0.062672362 0.47606719
0.28535455 0.063154757 0.47639856
0.28633812 0.063637152 0.47672996
0.28732166 0.064119555 0.47706133
