# .PCD v0.7 - Point Cloud Data file format
VERSION 0.7
FIELDS x y z
SIZE 4 4 4
TYPE F F F
COUNT 1 1 1
WIDTH 1
HEIGHT 938
VIEWPOINT 0 0 0 1 0 0 0
POINTS 938
DATA ascii
0.064446136 -0.02394627 0.43983057
0.070567891 -0.023055568 0.4396835
0.064886615 -0.013712179 0.43963757
0.072977632 -0.013152783 0.43969959
0.058155775 -0.0024406612 0.43979433
0.065488487 -0.0061502433 0.43956912
0.073471613 -0.0065498096 0.43961453
0.035105649 0.0038358183 0.43970796
0.04198581 0.0034636967 0.43983233
0.053112112 0.0019845851 0.43981767
0.063468501 0.00091256946 0.43978918
0.054070264 0.017385274 0.43959194
0.053916421 0.020816935 0.43971679
0.11915271 -0.13217279 0.44919181
0.12199114 -0.13158503 0.44831902
0.10615092 -0.12216461 0.44933334
0.1149815 -0.12463643 0.4485299
0.12428451 -0.12486522 0.44709256
0.13328423 -0.12319724 0.44684002
0.096315376 -0.113764 0.44841409
0.10512269 -0.11508411 0.44758138
0.11510912 -0.11476454 0.44690153
0.12495406 -0.11516185 0.44613221
0.13242865 -0.1158904 0.44620913
0.08949507 -0.10474405 0.44968399
0.094734199 -0.10512191 0.44711429
0.1049318 -0.10503054 0.4459323
0.11528004 -0.10470758 0.44632027
0.12447332 -0.10533129 0.44652498
0.13221334 -0.10844076 0.44899854
0.086985379 -0.094472975 0.44888365
0.094733812 -0.095378049 0.44734585
0.10509836 -0.094893962 0.44872367
0.11303615 -0.097422279 0.44928771
0.12171964 -0.099507183 0.44962373
0.076726824 -0.083985351 0.44796625
0.084820367 -0.08520285 0.44609955
0.094946779 -0.085074477 0.44640607
0.1045962 -0.085252069 0.44808075
0.11152304 -0.086220324 0.44897702
0.075118184 -0.07509499 0.44723493
0.08483097 -0.075129502 0.44408631
0.094855495 -0.074619748 0.44434163
0.10303961 -0.076460041 0.44537935
0.067049935 -0.063450836 0.44823521
0.075082362 -0.065497115 0.44584584
0.08474455 -0.065061301 0.44415477
0.095049269 -0.065416805 0.44467953
0.10108802 -0.066690937 0.44476229
0.056003623 -0.05359577 0.44771391
0.064856961 -0.055326886 0.44465664
0.075117886 -0.055338904 0.4433454
0.085298069 -0.054836944 0.44348508
0.095013902 -0.055117566 0.44584042
0.10206492 -0.054498833 0.44799748
0.049262751 -0.041779958 0.44955471
0.055275239 -0.044973686 0.44595462
0.064670108 -0.044994589 0.44218186
0.074991643 -0.045255028 0.44304302
0.084839821 -0.044865128 0.44453231
0.094839886 -0.04532484 0.44759586
0.10055804 -0.046766449 0.44919333
0.047755647 -0.034100648 0.44843587
0.054623775 -0.035102483 0.4446322
0.064839177 -0.035120435 0.44253957
0.075027309 -0.034958541 0.44300312
0.084718063 -0.035017133 0.4443213
0.093005918 -0.036090624 0.44717827
0.037224147 -0.020999881 0.44856426
0.045456257 -0.025149895 0.44611636
0.055087969 -0.024962453 0.44153017
0.065372966 -0.025378129 0.44046336
0.075362056 -0.025047839 0.44088969
0.08318042 -0.026079549 0.44178966
0.090828732 -0.029744349 0.44396558
0.029615052 -0.015392628 0.44962198
0.035445053 -0.014579096 0.44710559
0.045081567 -0.015346026 0.44315076
0.054809391 -0.014941859 0.44098195
0.064963728 -0.01614522 0.44021121
0.076443136 -0.01633241 0.44063213
0.026088411 -0.0031102891 0.44751194
0.03491528 -0.0052944426 0.44452184
0.045246232 -0.0050764275 0.44197211
0.054589342 -0.0052803638 0.44074371
0.063850343 -0.0030818069 0.44023737
0.073169388 -0.0027007964 0.44022804
0.01806522 0.0049797958 0.44879916
0.024608819 0.0049087163 0.44381407
0.034984741 0.0052121058 0.44078997
0.045289952 0.004842917 0.44075024
0.055490855 0.0053689736 0.44063762
0.065356024 0.0050508701 0.44149789
0.073008269 0.0050472156 0.44290811
0.017160205 0.016303666 0.44810218
0.024981648 0.015083565 0.44507533
0.034963652 0.015268243 0.44285864
0.044976939 0.015042664 0.44136673
0.055574782 0.013870722 0.44053945
0.065086052 0.01491864 0.44275954
0.072309963 0.014255643 0.44545457
0.01503857 0.025478575 0.44665328
0.024979921 0.024980707 0.44299033
0.034788821 0.02499002 0.44218042
0.045273993 0.024946561 0.4430033
0.054823183 0.025563085 0.44229701
0.063910194 0.025034742 0.4428311
0.07298924 0.020220872 0.44611502
0.016340392 0.032487992 0.44642678
0.024810044 0.034716215 0.44343224
0.034750368 0.034840275 0.44218904
0.04500192 0.035087358 0.44324231
0.05495939 0.034894004 0.44434839
0.062313575 0.032906774 0.44487903
0.029950574 0.040662989 0.44960165
0.036184922 0.041423839 0.44735485
0.045723133 0.042960096 0.44637537
0.053608201 0.043994758 0.44553801
0.10958098 -0.14068057 0.45995292
0.095812827 -0.13259766 0.45791659
0.10510228 -0.13440005 0.45588273
0.11361858 -0.13522381 0.45481575
0.12573527 -0.13361803 0.45108664
0.088444054 -0.12349096 0.45796955
0.094816461 -0.12483913 0.45378998
0.10405837 -0.12651795 0.45145729
0.11134726 -0.12873435 0.4505074
0.086052664 -0.11444958 0.45611349
0.09214329 -0.11609306 0.45123014
0.077469088 -0.10213375 0.45869386
0.0847902 -0.10503907 0.45428127
0.090148047 -0.10988942 0.45079908
0.12838094 -0.1013158 0.45485198
0.13313939 -0.10441741 0.45639658
0.069359049 -0.091342658 0.45921382
0.075091317 -0.094841793 0.45596194
0.082835168 -0.096353441 0.45201907
0.11579002 -0.094520181 0.45072669
0.12291141 -0.096881598 0.45196071
0.067229711 -0.08387427 0.45657104
0.072631933 -0.086498529 0.45256111
0.11523604 -0.089545451 0.45033863
0.065623567 -0.075162165 0.4546752
0.070408635 -0.074510626 0.45018142
0.048777655 -0.061370082 0.45957392
0.055943862 -0.062476877 0.45672527
0.063751146 -0.066169649 0.45381895
0.045889858 -0.054423872 0.45598903
0.052744407 -0.05669317 0.45207497
0.10543723 -0.051507141 0.45290539
0.029721836 -0.041376028 0.45937553
0.035959266 -0.044524763 0.45787233
0.045010827 -0.045564748 0.45358267
0.050017491 -0.044950485 0.45034108
0.099064931 -0.040446162 0.45001575
0.10405077 -0.043257542 0.45802459
0.028581535 -0.033738982 0.45911086
0.03505826 -0.034932639 0.4561376
0.043238148 -0.035763644 0.45216388
0.018727155 -0.022037026 0.45900038
0.025369674 -0.024315985 0.45628479
0.034593355 -0.02533347 0.452777
0.041192159 -0.027713209 0.45090011
0.017714541 -0.014565933 0.45766008
0.024657404 -0.015056728 0.45326039
0.03055061 -0.014355239 0.45044681
0.0095578488 -0.0030042292 0.45877057
0.014986169 -0.0047844839 0.45475492
0.024177052 -0.0074807005 0.45213813
0.030134782 -0.009560056 0.45063931
0.0088240849 0.0050172796 0.4585875
0.013348578 0.0048359097 0.45365095
0.0084323501 0.015613859 0.45749122
0.012644275 0.014409545 0.45256796
0.0072593321 0.025069645 0.45539287
0.010848925 0.021519367 0.45148242
0.0085524321 0.030558478 0.45719442
0.013950163 0.033847742 0.4543654
0.022836985 0.038809981 0.45472518
0.027778478 0.041024886 0.45565537
0.035196349 0.04360402 0.45481977
0.045172118 0.047321938 0.45479381
0.051673599 0.049311299 0.45254654
0.049405918 0.051307257 0.45955464
0.05307395 0.051667292 0.45617104
0.096164621 -0.14185987 0.46747103
0.10499764 -0.14323202 0.46444181
0.11438452 -0.14479586 0.46435627
0.12165205 -0.14490353 0.46521226
0.086697794 -0.13350658 0.46637908
0.093900338 -0.13657004 0.46295848
0.10143223 -0.13858792 0.46091318
0.078722008 -0.12236578 0.46779954
0.084268235 -0.12540863 0.46437496
0.076106034 -0.11418311 0.46605402
0.081474692 -0.11619684 0.46189097
0.14016588 -0.11071533 0.46042198
0.067291133 -0.10362797 0.46581712
0.074442707 -0.10573329 0.46250111
0.080531672 -0.10833952 0.46032652
0.1356443 -0.10242161 0.4655202
0.14186449 -0.10924637 0.46518621
0.066002168 -0.094972 0.46500048
0.070709445 -0.098277777 0.46081308
0.057376817 -0.08332172 0.46634728
0.063090898 -0.086099252 0.46343464
0.05703374 -0.075285248 0.46606022
0.061381515 -0.073449768 0.46153247
0.045732763 -0.063696757 0.46591261
0.054651726 -0.066970393 0.4637537
0.060752779 -0.069214001 0.46118659
0.036852393 -0.053171147 0.46434668
0.041818362 -0.057335604 0.4623442
0.029365806 -0.042323615 0.46311501
0.031973895 -0.047442496 0.46212095
0.026075644 -0.034415413 0.46392843
0.017753731 -0.023148952 0.46396151
0.021551011 -0.028185513 0.46425861
0.014350195 -0.014987792 0.46393949
0.0085321777 -0.0027640918 0.46381935
0.011166677 -0.0081855198 0.46394131
0.0057344832 0.005387004 0.46425858
-0.00092674198 0.018660132 0.46766195
0.0039308127 0.014957092 0.4640241
-0.00160828 0.024182539 0.46678463
0.0026129787 0.025327709 0.46340883
0.0066725034 0.031233562 0.46567813
0.014977237 0.035778828 0.46496373
0.021945734 0.039405562 0.46511656
0.026550127 0.041615963 0.46505859
0.035349969 0.045462005 0.46520069
0.042410161 0.04855597 0.46334451
0.046511896 0.051528648 0.46562099
0.053734813 0.053714931 0.46610785
0.096067265 -0.15023451 0.47945166
0.10561109 -0.15192348 0.47626722
0.11468607 -0.15241134 0.47444439
0.12552999 -0.15369909 0.47748312
0.08737047 -0.14203399 0.47531396
0.094573215 -0.14592493 0.47425887
0.10402969 -0.14828496 0.47193012
0.12156923 -0.14980252 0.47130707
0.079755068 -0.13074642 0.47704506
0.082897745 -0.13554464 0.47383544
0.07773076 -0.1248221 0.47462597
0.080618478 -0.12914418 0.47155657
0.068920493 -0.11051641 0.47411475
0.072762668 -0.11606059 0.47411704
0.065214261 -0.1045574 0.47434515
0.059176654 -0.091671325 0.47501022
0.061572723 -0.095199272 0.47375193
0.055285513 -0.085030057 0.47390977
0.04811734 -0.07157816 0.47650146
0.052680768 -0.075292654 0.47318533
0.039712057 -0.060230505 0.4746176
0.044067428 -0.06578511 0.47398287
0.03655275 -0.055778384 0.47399023
0.031531706 -0.043156333 0.4794755
0.025033137 -0.033722389 0.4740136
0.018537126 -0.0234388 0.47679448
0.021778544 -0.028685031 0.47523221
0.014183139 -0.014611243 0.47492158
0.0082990881 -0.0031595451 0.47468078
0.011296704 -0.0083081741 0.47485253
0.0043538054 0.0050224392 0.47418174
-0.00097745226 0.017819123 0.474915
0.0009923008 0.013216802 0.47431472
-0.0025877282 0.025222531 0.47393382
-0.0012910813 0.030535227 0.47572652
0.0045795785 0.032914557 0.4747259
0.014845002 0.037081458 0.47587526
0.020742327 0.039406985 0.47234568
0.025653042 0.042282712 0.47489113
0.034735974 0.046972677 0.4753665
0.040163413 0.048843607 0.47097135
0.038837004 0.050923299 0.4783217
0.044234052 0.05299063 0.47468591
0.054120634 0.055790327 0.47482142
0.06146881 0.055795632 0.47578275
0.12452082 -0.16119856 0.48889071
0.13143374 -0.16122757 0.48929441
0.09621267 -0.15234727 0.48451766
0.1039648 -0.15663335 0.48558727
0.11501919 -0.1579562 0.48417345
0.12425901 -0.15833299 0.48386717
0.1343945 -0.15581921 0.48354983
0.086008832 -0.14378937 0.48499283
0.091504656 -0.14855872 0.48263159
0.07995455 -0.1311788 0.4831591
0.081267305 -0.13531314 0.48468149
0.077071682 -0.1248883 0.48489591
0.069365107 -0.11153571 0.48411798
0.072398946 -0.11664119 0.48429257
0.065594979 -0.10496729 0.48533773
0.058364846 -0.090755552 0.48036385
0.061745927 -0.09722963 0.48405755
0.054975275 -0.08471819 0.48481712
0.04775862 -0.072611377 0.48574895
0.051468272 -0.077665977 0.48344186
0.043297652 -0.06520205 0.48487315
0.033586808 -0.044929553 0.48676533
0.02621275 -0.034014162 0.48435235
0.030376658 -0.03998588 0.48701167
0.018310582 -0.021287397 0.48443171
0.021407509 -0.026917739 0.48358211
0.015512601 -0.015390354 0.48590058
0.00849842 -0.0027016758 0.4844448
0.011494505 -0.0076322905 0.48581198
0.004994432 0.0050657378 0.48512712
-0.0003413409 0.017424569 0.48415741
0.0016420465 0.012493914 0.48461592
-0.0020273179 0.025451133 0.48574463
-0.0016832851 0.034680724 0.4868699
0.0044455226 0.037327114 0.48548734
0.013608872 0.038715538 0.48360908
-0.00092869997 0.041004028 0.48989737
0.0058415732 0.041405782 0.48942941
0.015398513 0.042048603 0.48767966
0.025064163 0.044747479 0.48545974
0.032252166 0.048277061 0.48339224
0.035444956 0.051923521 0.48518503
0.044719748 0.055779018 0.48550647
0.05509292 0.058095973 0.48447666
0.062312104 0.058015175 0.48374835
0.097719744 -0.16009963 0.49943227
0.10504638 -0.16243923 0.49640137
0.11444353 -0.16357398 0.49411827
0.12501973 -0.16475622 0.49425554
0.13457082 -0.16518049 0.49553767
0.14477779 -0.16277295 0.49687225
0.088475779 -0.15099412 0.49821955
0.094926789 -0.15537672 0.49485382
0.10283346 -0.15971446 0.49256134
0.085601084 -0.14528838 0.49527806
0.081555866 -0.13515919 0.4951205
0.076756395 -0.12485341 0.49561542
0.069497898 -0.11160169 0.49555114
0.072497971 -0.11630815 0.49443877
0.065602966 -0.10471082 0.49577123
0.058988601 -0.091973364 0.49578786
0.06218205 -0.097172827 0.4958947
0.054287892 -0.084533349 0.4950985
0.047865387 -0.073532894 0.49562746
0.05094251 -0.078476131 0.49420261
0.043448947 -0.065704376 0.4951793
0.038287506 -0.053943604 0.49461901
0.040516689 -0.059755519 0.49962926
0.033797693 -0.044371024 0.49545738
0.027974416 -0.035726048 0.49620399
0.030875564 -0.039734863 0.4951241
0.019172203 -0.022232655 0.49530509
0.022547768 -0.027305452 0.49706239
0.015242681 -0.014635486 0.49544072
0.0088162627 -0.0025972768 0.49546242
0.011206675 -0.007343512 0.49557012
0.005078516 0.0056669191 0.49510241
-0.0003414005 0.019201115 0.49190459
0.0013437122 0.014614432 0.49556571
-0.0014196356 0.026213972 0.4952808
-0.0048276796 0.036105804 0.49508977
-0.0029794783 0.043545246 0.49546456
0.0048442329 0.046053581 0.49398866
0.014865375 0.047035303 0.49333799
0.023741066 0.04813505 0.49204412
0.015557665 0.051198054 0.49895158
0.025842715 0.051781226 0.49645868
0.034978915 0.055059686 0.49487305
0.044074547 0.058231216 0.49503639
0.051801372 0.059165876 0.49204198
0.07447429 0.05921936 0.49484998
0.049258724 0.060890332 0.4998818
0.055901237 0.061085694 0.49658379
0.064834796 0.061450623 0.49578366
0.074102424 0.060817923 0.49874058
0.12431905 -0.16956791 0.50214517
0.13801128 -0.16889937 0.50094175
0.14602536 -0.16752899 0.50193202
0.05047822 -0.078883141 0.50099009
0.021258278 -0.027782885 0.50262564
0.010982338 -0.0091716805 0.50227255
0.0003977567 0.02138512 0.50325364
-0.0077878856 0.034348574 0.50319117
0.00032043457 0.049574304 0.50107712
0.025140684 0.056473542 0.50518435
0.033756658 0.058303356 0.50359446
0.041039512 0.059482701 0.50079095
0.045083627 0.062242594 0.50592691
0.054539066 0.063405916 0.50557315
0.066026047 0.064550966 0.50605685
0.075197317 0.063344777 0.50513434
0.08142636 0.062591597 0.50662225
0.096964195 -0.13651504 0.43886721
0.10455491 -0.13486128 0.43863264
0.1136144 -0.13415858 0.43960944
0.12324751 -0.13248405 0.43982419
0.10565446 -0.11115425 0.43981561
0.1103242 -0.11041296 0.4398194
0.10626283 -0.10754852 0.43981698
0.11032181 -0.10754517 0.43982008
0.074156962 -0.070294194 0.4398008
0.086877137 -0.07122831 0.43981048
0.094096772 -0.073994257 0.43981549
0.077125452 -0.06601616 0.43980417
0.083314054 -0.066222556 0.43980891
0.092827946 -0.068621755 0.43981573
0.077444136 -0.057338696 0.43980649
0.081783555 -0.057367794 0.43980986
0.067275129 -0.042181529 0.43892211
0.074929714 -0.043493036 0.43890396
0.081770636 -0.042381365 0.43962592
0.057362463 -0.03271861 0.43937734
0.065338634 -0.034554861 0.43818989
0.0749771 -0.034590438 0.43805993
0.08211609 -0.035159789 0.43950111
0.055715896 -0.024692411 0.43935296
0.06532304 -0.024919257 0.43851307
0.075129345 -0.024939647 0.43899992
0.081001952 -0.024977729 0.43981698
0.048791476 -0.0135334 0.43979463
0.0550141 -0.0152044 0.43847808
0.065153226 -0.015159363 0.43743655
0.074983932 -0.015175031 0.43818963
0.080420986 -0.016047154 0.43981865
0.038347945 -0.001115068 0.43978944
0.045479529 -0.0041858288 0.43890193
0.054887902 -0.0048992326 0.43752977
0.065183006 -0.0048909951 0.4376736
0.075042933 -0.0049602892 0.43891567
0.080413155 -0.006624484 0.43982092
0.035765257 0.0057484363 0.43862969
0.044854108 0.0052029351 0.4369671
0.054909825 0.005373945 0.4377422
0.064473309 0.0049234014 0.43899578
0.072441861 0.0020485665 0.43975013
0.03684989 0.014088147 0.43909493
0.044660699 0.01508608 0.43808982
0.055035159 0.015117243 0.43880624
0.062398486 0.014407065 0.43962669
0.046311259 0.021594958 0.43967068
0.054676861 0.022147503 0.4395577
0.060889922 0.020316346 0.43981212
0.026705477 0.036264747 0.43880972
0.034800388 0.035863541 0.43864799
0.025166383 0.041881826 0.43826562
0.035223491 0.041592341 0.43857497
0.088968188 -0.1325547 0.44829744
0.094378099 -0.1326052 0.4441478
0.10466178 -0.13095748 0.44107321
0.11586166 -0.13135438 0.44081867
0.12437867 -0.13200076 0.44094059
0.13203423 -0.13092603 0.44333142
0.084684163 -0.12350445 0.44979632
0.096442536 -0.12581675 0.44794339
0.10479976 -0.12492882 0.44279993
0.11511831 -0.12517051 0.44113395
0.12489784 -0.12489222 0.44241062
0.13462931 -0.12460255 0.44597119
0.14136097 -0.12282698 0.44727811
0.079591781 -0.11314561 0.4497948
0.08528544 -0.11470938 0.44915816
0.095113128 -0.115077 0.44612646
0.10490029 -0.11584356 0.44161379
0.11479054 -0.11530565 0.44131455
0.12488966 -0.11500237 0.44482964
0.13390133 -0.11595769 0.44797379
0.14102958 -0.11888527 0.4480913
0.077351645 -0.1049393 0.44966456
0.085507482 -0.10495698 0.44734809
0.095096096 -0.10507003 0.44324133
0.1040806 -0.10361651 0.44105259
0.11508846 -0.10502688 0.4424305
0.12346837 -0.10646588 0.44768775
0.13042639 -0.10938832 0.4498353
0.067645788 -0.09066961 0.44979087
0.076569259 -0.093890183 0.44888401
0.084862396 -0.094864219 0.4447616
0.094535835 -0.095165208 0.44179749
0.10499553 -0.094980739 0.44100565
0.11491665 -0.094868794 0.44421729
0.12082805 -0.095742762 0.44908109
0.066046499 -0.08426144 0.44749701
0.07492952 -0.084689923 0.44572949
0.084788904 -0.084916987 0.44264096
0.094928667 -0.085365355 0.44088191
0.10458803 -0.08541391 0.44159117
0.1144342 -0.085073635 0.44635406
0.064750575 -0.074992977 0.44649473
0.075136334 -0.074816309 0.44208619
0.084990278 -0.075907573 0.44121772
0.096645884 -0.077020168 0.4408167
0.1043836 -0.075116396 0.44172463
0.11372381 -0.075061142 0.44697037
0.049436182 -0.060182068 0.44978398
0.055535723 -0.06084213 0.44968328
0.06553442 -0.065164775 0.44614667
0.072878093 -0.064069316 0.44109678
0.086899877 -0.063652165 0.44081241
0.095431164 -0.064189076 0.44142199
0.1048678 -0.065411724 0.4450646
0.11197922 -0.067846149 0.44836932
0.047898553 -0.054478027 0.44967306
0.055030003 -0.054644413 0.44766462
0.064941064 -0.055136908 0.44392061
0.073878422 -0.054183621 0.44099671
0.085906178 -0.054476909 0.44096759
0.095052116 -0.054801594 0.44299218
0.10342109 -0.055388734 0.44780281
0.038310166 -0.040866502 0.44920853
0.046056647 -0.043527991 0.44938052
0.054826062 -0.045142386 0.44611126
0.063922755 -0.046143763 0.44195375
0.074836306 -0.048700929 0.44080654
0.085517965 -0.045967136 0.44135118
0.094565868 -0.045200542 0.44474807
0.1017953 -0.043881081 0.44926614
0.036619738 -0.034299146 0.44742015
0.045287237 -0.034550555 0.44468832
0.053906325 -0.036345787 0.44252899
0.061077997 -0.039422654 0.44079798
0.086899735 -0.034404103 0.44130582
0.094476402 -0.03502718 0.44378343
0.10274189 -0.034953292 0.44742128
0.028170487 -0.022236178 0.44917652
0.035202719 -0.024726842 0.4467687
0.045016184 -0.02501533 0.44238359
0.051231261 -0.027039457 0.44079331
0.086138375 -0.025006784 0.44231069
0.095124871 -0.024777837 0.44686964
0.10238344 -0.026255213 0.44745404
0.025751481 -0.014244637 0.44819167
0.034934562 -0.014871225 0.44496405
0.044331469 -0.015559088 0.44177535
0.085433967 -0.015170469 0.44301033
0.094882295 -0.014949785 0.44804075
0.017246196 -0.0032775162 0.44722962
0.024855439 -0.0051835026 0.44618592
0.034436259 -0.0052859974 0.44261205
0.042021148 -0.0079675801 0.4409157
0.079440951 -0.00031707762 0.44082162
0.085344911 -0.0047760601 0.44265857
0.092577972 -0.006283538 0.44593039
0.017140776 0.0038107478 0.44795829
0.025263282 0.0051341522 0.44365573
0.031267203 0.0030923665 0.44096673
0.068626747 0.007951891 0.44081521
0.075580455 0.005597543 0.44204235
0.084447213 0.004607094 0.44443783
0.090805449 0.00085070025 0.44583076
0.01781849 0.017001802 0.4491944
0.024765925 0.014609839 0.44612026
0.03265186 0.016088357 0.44214812
0.067108504 0.015344748 0.44181576
0.074538492 0.014245959 0.44649917
0.082892202 0.011088693 0.44866037
0.0086294916 0.026405428 0.44934434
0.015277187 0.025293669 0.44642782
0.025001859 0.025114225 0.44418809
0.034810621 0.025105206 0.44380528
0.044462997 0.026337203 0.44209388
0.055335715 0.027149547 0.44176069
0.06493292 0.025119593 0.4434593
0.074465886 0.025215529 0.44852757
0.008554833 0.031407129 0.44955179
0.015564016 0.034942433 0.44586858
0.023168197 0.033547621 0.44119215
0.036151815 0.031113682 0.44088632
0.045014612 0.035100736 0.44301665
0.055218432 0.035065621 0.44503
0.064797312 0.035117347 0.44661871
0.072408885 0.033127934 0.44888875
0.016610879 0.042002242 0.44511607
0.020770164 0.042173654 0.44078609
0.03916464 0.043338653 0.4408007
0.045874309 0.043906774 0.4433727
0.055334017 0.045131661 0.44703594
0.063829057 0.042920046 0.44950956
0.048795268 0.050700258 0.44480997
0.05544246 0.052517015 0.44895846
0.087229803 -0.13083169 0.45079654
0.086753242 -0.12479763 0.45102671
0.091742039 -0.12451583 0.45080155
0.077220909 -0.11312973 0.45079297
0.081102818 -0.11531641 0.45079547
0.13733217 -0.11269958 0.45208988
0.14212568 -0.1141744 0.45525506
0.073830456 -0.10100725 0.45079324
0.12707831 -0.10354701 0.45267782
0.13500822 -0.10476559 0.45415568
0.14278094 -0.10427941 0.45613191
0.068778716 -0.094201691 0.45079091
0.072865784 -0.096564941 0.45079353
0.1258239 -0.095062725 0.45389637
0.13444303 -0.095764004 0.45818791
0.14199007 -0.09796235 0.4581804
0.11893495 -0.081422336 0.45083305
0.12477822 -0.084995717 0.45464382
0.13121882 -0.085595533 0.45884159
0.057721466 -0.073032066 0.45084986
0.11874659 -0.074281923 0.45103461
0.12361372 -0.07556694 0.45381585
0.13004571 -0.078923441 0.45684227
0.055356037 -0.065773509 0.45078722
0.060573548 -0.065744676 0.45079133
0.109593 -0.061486349 0.45116386
0.11584505 -0.064668596 0.45356545
0.12152028 -0.065183029 0.45573893
0.044835337 -0.051207393 0.45078254
0.10835502 -0.054168571 0.45157042
0.11480844 -0.055071604 0.45453101
0.12049796 -0.059272803 0.45683956
0.038950302 -0.043863621 0.45077971
0.043854613 -0.046449784 0.45081612
0.10617373 -0.045580529 0.45244029
0.11255188 -0.045941547 0.45493647
0.1077572 -0.038920317 0.45143452
0.021619592 -0.014708537 0.45777318
0.101246 -0.018650055 0.45083427
0.009604129 0.0079201078 0.45510256
0.013407041 0.0072767255 0.45164707
0.0080692386 0.015802732 0.45266274
0.013804198 0.014159596 0.45160097
0.078478627 0.017761542 0.4510752
0.082307048 0.0157263 0.45182773
0.0057277814 0.024366647 0.4512853
0.01067773 0.020781128 0.45077315
0.078283578 0.022992892 0.45082632
0.081326537 0.02321993 0.45140013
0.0054977941 0.034673188 0.45411277
0.01115211 0.038722634 0.45157775
0.077101283 0.030830486 0.4508273
0.0088469414 0.041647751 0.45827672
0.011901549 0.042587593 0.45344597
0.065679215 0.046665978 0.45097029
0.057168778 0.056223288 0.45099965
0.062262058 0.052632086 0.45082092
0.083871253 -0.12883677 0.4647944
0.14724711 -0.11406168 0.4648473
0.15061004 -0.11888585 0.46884874
0.14874318 -0.10985737 0.46684942
0.13798255 -0.092924379 0.46397007
0.14142224 -0.09503746 0.46284729
0.063229181 -0.088848531 0.46478787
0.13455717 -0.086333208 0.46415168
0.12302133 -0.060522597 0.46184117
0.0086348262 0.0056886557 0.46676791
0.0015365381 0.037267469 0.46426988
0.0060806568 0.043459725 0.46560827
0.086184494 -0.13418202 0.47079489
0.15458408 -0.12041518 0.47735149
0.15306695 -0.114615 0.4765183
0.14077277 -0.091546848 0.47284761
0.1384491 -0.087323159 0.47334683
-0.0017787101 0.038696837 0.47601768
-0.0011606178 0.041331541 0.47776881
0.0026308408 0.044305675 0.47357246
0.15881997 -0.12208915 0.48652104
0.16053054 -0.1262437 0.48785472
0.15625413 -0.11857169 0.48251989
0.14778164 -0.094448105 0.48785239
-0.0037037828 0.03877224 0.48476622
-0.0026104175 0.042971592 0.48576808
0.0007097362 0.04816157 0.48377189
0.16266651 -0.1236167 0.49435702
0.16164403 -0.11909545 0.49519062
0.14929476 -0.094130591 0.49285364
0.15180427 -0.095758848 0.49685523
0.14690752 -0.087298654 0.49785343
-0.0064019556 0.036794338 0.49798584
-0.0050942525 0.044850491 0.49609992
-0.0025082361 0.050098155 0.49676985
0.059824362 -0.0065111592 0.42979431
0.060329974 -0.0050452501 0.4299219
0.088337161 -0.10462835 0.43940645
0.093695603 -0.10185637 0.43892452
0.086634174 -0.092469007 0.4385938
0.096111476 -0.094707571 0.439331
0.10422003 -0.093463257 0.43719971
0.11239571 -0.090831876 0.43566608
0.077566467 -0.083231397 0.43771377
0.085366629 -0.084649958 0.43724364
0.095071808 -0.084782168 0.4377901
0.10522778 -0.084914632 0.43806839
0.11428013 -0.085643686 0.43824092
0.06808161 -0.072752953 0.43901694
0.075610787 -0.074811764 0.43683016
0.085109077 -0.075052172 0.43644029
0.095096521 -0.074888244 0.43747753
0.10494883 -0.075045235 0.43838513
0.11126342 -0.075233065 0.43946332
0.068872176 -0.066704236 0.43762589
0.075006247 -0.064837024 0.43729696
0.085065976 -0.06495136 0.436865
0.095047191 -0.064902186 0.43657172
0.10401728 -0.065577172 0.43897113
0.11040524 -0.067663215 0.43983769
0.059342775 -0.051629324 0.43550143
0.065299205 -0.054344598 0.43614066
0.074904725 -0.055091944 0.4363696
0.084858783 -0.055078659 0.43781248
0.095250867 -0.055109613 0.43778265
0.10250594 -0.055806816 0.43911275
0.056683403 -0.04423438 0.43353018
0.065063655 -0.04488745 0.43377233
0.075017028 -0.044865981 0.43364048
0.085091367 -0.044898693 0.43443173
0.095104374 -0.04490868 0.43713379
0.10082427 -0.047161426 0.43959761
0.048634533 -0.034090638 0.43532035
0.054982249 -0.035193 0.43373436
0.065102965 -0.034860659 0.43279007
0.075087443 -0.034933534 0.43325743
0.085131355 -0.03504429 0.43437257
0.093369134 -0.035558119 0.43777433
0.047037028 -0.023844959 0.43442202
0.054941583 -0.024963619 0.43387985
0.065071739 -0.025000293 0.4317095
0.075021565 -0.02498614 0.43276483
0.085154109 -0.024911432 0.43598804
0.091629475 -0.025999554 0.43877387
0.036282115 -0.014003325 0.43697241
0.045146018 -0.015043696 0.43476701
0.055036578 -0.015032898 0.43286046
0.06494993 -0.01501621 0.43171623
0.075225383 -0.01495974 0.43274707
0.084827393 -0.01520732 0.43654576
0.090477645 -0.01759808 0.43974304
0.027358122 -0.0032300649 0.438591
0.034862135 -0.0050419164 0.43736765
0.044981457 -0.0049859951 0.43447629
0.054936931 -0.0049525057 0.43143219
0.065129094 -0.0048981868 0.43075496
0.074976802 -0.0049523022 0.43334654
0.083195217 -0.0052880556 0.43769515
0.019143408 0.0086567486 0.43905795
0.024058232 0.0049653151 0.43952543
0.035276443 0.0046667047 0.43828648
0.044989679 0.0048915762 0.43510142
0.055048745 0.004945186 0.43324837
0.065167509 0.0050894162 0.43243569
0.075142972 0.0050806399 0.4344542
0.082321785 0.0043117446 0.43808413
0.018624235 0.012363909 0.43920949
0.024264103 0.012207156 0.43959361
0.035794236 0.014412217 0.43832621
0.045217857 0.014957122 0.43496671
0.05499978 0.014946396 0.43354553
0.065191284 0.015162645 0.43326324
0.074116573 0.014468486 0.43676475
0.080380753 0.01013495 0.43899265
0.038546223 0.0219502 0.43935969
0.045565438 0.024607826 0.43745789
0.055068441 0.024877751 0.43554926
0.065308191 0.025076481 0.43618986
0.071244806 0.023035644 0.43871716
0.02810245 0.038560558 0.43963131
0.035058867 0.038154643 0.43960753
0.045545418 0.035183121 0.43806082
0.054886624 0.034859587 0.43790841
0.063989326 0.032382179 0.43875712
0.027092978 0.043787178 0.4392657
0.034299165 0.044296768 0.43941891
0.04598058 0.043595634 0.439118
0.053694759 0.043834731 0.43893027
0.08599174 -0.10224127 0.44168538
0.090793237 -0.10117947 0.44056067
0.086826317 -0.097144142 0.44100267
0.094182469 -0.095331267 0.44084114
0.11761215 -0.082109548 0.44091576
0.12436211 -0.083321773 0.44504622
0.11631238 -0.074835688 0.44199252
0.12390406 -0.075549327 0.44705409
0.10795349 -0.062986471 0.44062302
0.11527361 -0.064943984 0.44384697
0.12179757 -0.067313418 0.44817325
0.10695758 -0.05412434 0.44169748
0.11299843 -0.055634782 0.44583252
0.099772796 -0.043330047 0.44010273
0.10533874 -0.044983149 0.44445464
0.11082329 -0.048221581 0.44893336
0.097878076 -0.034098968 0.44168544
0.103174 -0.035664029 0.44601965
0.096413277 -0.02452747 0.44242239
0.10193336 -0.025358399 0.44728121
0.089047477 -0.011918965 0.44063583
0.095110454 -0.014720709 0.44427201
0.10084293 -0.016898857 0.44868222
0.088108532 -0.0044341134 0.44274357
0.092759065 -0.0065827002 0.44727764
0.02702067 0.0058470834 0.44033962
0.031384412 0.0069375737 0.44027176
0.087071888 0.0053975312 0.44419232
0.090632141 0.0032524921 0.44895276
0.017266704 0.017481582 0.44196793
0.025014913 0.016251666 0.44150761
0.031634983 0.016862351 0.44057637
0.078119695 0.016915176 0.44267422
0.082805827 0.013615961 0.44588646
0.016791346 0.025278507 0.44317415
0.02493483 0.025260963 0.44389716
0.034368105 0.02549213 0.44232604
0.040762678 0.027583946 0.44078285
0.07581412 0.025199866 0.44428506
0.080210239 0.020875413 0.44916183
0.0094057694 0.03505595 0.44501188
0.015149092 0.034746282 0.44393992
0.024883866 0.034576766 0.44157034
0.034924734 0.033857621 0.44110587
0.040925369 0.031614237 0.44050834
0.059231866 0.038848378 0.44043595
0.065752059 0.036928464 0.44163987
0.074238114 0.034297641 0.44503731
0.018573742 0.041212335 0.44286406
0.022969954 0.041520465 0.44063577
0.038241316 0.046170402 0.44030273
0.042838883 0.046990503 0.44039735
0.057233978 0.046522014 0.44120225
0.064549282 0.044622023 0.44544834
0.071455002 0.041615739 0.4486295
0.039877892 0.050493378 0.44009191
0.056803327 0.052477065 0.44439948
0.062353231 0.052053191 0.44838074
0.12978056 -0.084152937 0.45003232
0.13307209 -0.081603266 0.45281732
0.12815587 -0.073111989 0.45193952
0.13278833 -0.075859688 0.45467749
0.11942884 -0.061375964 0.45073903
0.12520187 -0.064905748 0.45454371
0.13034309 -0.069370411 0.45816267
0.11739333 -0.054069649 0.45351303
0.12228876 -0.056588259 0.45729703
0.10957444 -0.04178378 0.45052424
0.11381465 -0.045396701 0.45447555
0.1076399 -0.034532502 0.4536995
0.11113772 -0.037712242 0.45713681
0.10557847 -0.025293769 0.45405424
0.099696591 -0.010404631 0.45041135
0.1035898 -0.014643908 0.45351073
0.096188657 -0.0039427881 0.45332798
0.10247768 -0.0077104238 0.45446447
0.089456782 0.0092465058 0.45102906
0.093636811 0.0046800119 0.45438141
0.086232364 0.015552215 0.45385385
0.091266789 0.011659296 0.45654851
0.079577893 0.02546197 0.45086294
0.082272127 0.024778111 0.45508444
0.078044429 0.03653286 0.45390803
0.081167243 0.032791946 0.45628214
0.068508595 0.048188474 0.45196897
0.072992481 0.044328455 0.4554669
0.057567865 0.056953304 0.45292935
0.065620758 0.054378614 0.45325229
0.07055036 0.051152389 0.45809755
0.13365449 -0.072882108 0.46361223
0.12831688 -0.063439891 0.46302301
0.13118941 -0.068731666 0.46246839
0.12397284 -0.055040322 0.46166003
0.11724747 -0.046135917 0.46374997
0.12014561 -0.049286447 0.46305817
0.1093473 -0.031749737 0.46422541
0.11151869 -0.036819059 0.46479413
0.10763573 -0.025266603 0.46244773
0.105793 -0.016531525 0.46047771
0.098627649 -0.0031142558 0.46538481
0.095659547 0.006753827 0.46347433
0.087827086 0.01728013 0.46374488
0.091538504 0.011992255 0.46480718
0.084576719 0.024545105 0.46475354
0.078439869 0.038698692 0.46465936
0.082159236 0.032974008 0.46292815
0.074554078 0.045147222 0.46448496
0.059032053 0.058733344 0.46517801
0.067983091 0.05414189 0.46470052
0.070783213 0.051395893 0.46325839
0.13395771 -0.074846074 0.47261176
0.12829727 -0.064715624 0.47341612
0.13083418 -0.069189362 0.47260961
0.11950839 -0.051090796 0.47894803
0.12222602 -0.055029225 0.47490478
0.11543919 -0.044735748 0.47491878
0.10909555 -0.031966936 0.47524253
0.11059787 -0.035736479 0.47704574
0.10788178 -0.029373264 0.47431326
0.10290793 -0.01743874 0.47387213
0.09625572 -0.0026832893 0.47552636
0.094067983 0.0057743839 0.47390151
0.087493949 0.016667042 0.47409001
0.091069616 0.010989394 0.47457236
0.08350604 0.024204427 0.47585949
0.078342207 0.03680452 0.47636327
0.081012338 0.032178465 0.47412205
0.073941268 0.044810992 0.47584391
0.054703012 0.059700236 0.47954929
0.068989873 0.052426353 0.47189844
0.070931911 0.050506715 0.47111213
0.13579868 -0.083243445 0.48426929
0.12931114 -0.07020063 0.48242193
0.13275006 -0.075854808 0.48159218
0.12839544 -0.067337409 0.48088032
0.11887823 -0.05247483 0.48679596
0.11380383 -0.044666689 0.48518854
0.10814869 -0.03316744 0.48720211
0.11103885 -0.038497776 0.48107857
0.10376209 -0.025719753 0.48664913
0.1014632 -0.018860701 0.48408872
0.095638357 -0.0046771858 0.48429748
0.091436505 0.0085615888 0.48534036
0.08746627 0.014507501 0.48562923
0.090717897 0.010547385 0.48034438
0.081979819 0.025651943 0.48484194
0.079256661 0.033495363 0.4842799
0.080345176 0.03073643 0.48516899
0.072387859 0.046647552 0.48389518
0.058992893 0.059223749 0.48868546
0.069273017 0.051152986 0.48472476
0.070071176 0.05004219 0.48685899
0.054159775 0.060689576 0.48572153
0.13652828 -0.082841836 0.49526027
0.12922364 -0.070634775 0.49658743
0.13287838 -0.076110281 0.49519032
0.12549874 -0.066132888 0.4970184
0.11889833 -0.052482944 0.49622139
0.12055624 -0.057504505 0.49754941
0.11427993 -0.04467345 0.49591619
0.10867106 -0.032835364 0.49526393
0.11093246 -0.037816022 0.49710977
0.10421551 -0.027052125 0.4960658
0.093609631 -0.0032413718 0.49797356
0.08945936 0.0097409673 0.49809581
0.091709532 0.0048083146 0.4961662
0.086478345 0.014832151 0.49481902
0.079252578 0.029178515 0.49802187
0.081950285 0.023425581 0.49412152
0.077044845 0.035152778 0.49490437
0.072593577 0.045123436 0.49363092
0.058806244 0.059411589 0.49752465
0.066276424 0.053711958 0.49642262
0.070113152 0.050070282 0.49543497
0.056332227 0.061199248 0.4977586
