# .PCD v0.7 - Point Cloud Data file format
VERSION 0.7
FIELDS x y z
SIZE 4 4 4
TYPE F F F
COUNT 1 1 1
WIDTH 1359
HEIGHT 1
VIEWPOINT 0 0 0 1 0 0 0
POINTS 1359
DATA ascii
0.025176616 -0.15509675 0.46204266
0.03250948 -0.15351897 0.46026686
0.0061594397 -0.14537138 0.46827233
0.014994435 -0.14495613 0.46629339
0.025339166 -0.14511356 0.46354163
0.034038357 -0.14441399 0.46112603
0.042794462 -0.14137895 0.46018094
0.0084244441 -0.13963857 0.46904415
0.016187919 -0.13723341 0.46832457
0.025159121 -0.13497955 0.46613413
0.035028212 -0.13534009 0.46341571
0.044773679 -0.13489094 0.46130636
0.051708046 -0.13282576 0.46003571
0.02607925 -0.12549159 0.46773604
0.035018742 -0.12510826 0.46501023
0.045004472 -0.12489819 0.46224949
0.053684179 -0.12411839 0.46053448
0.060432743 -0.12018114 0.46003294
0.028441938 -0.11599466 0.46869224
0.035015404 -0.11482462 0.46670371
0.045265317 -0.11486664 0.46330112
0.055086661 -0.11492918 0.46160063
0.063895918 -0.11311915 0.46018961
0.071570702 -0.11110365 0.46003008
0.036767084 -0.10765792 0.4681899
0.045136698 -0.10522027 0.4667657
0.054999992 -0.10516457 0.46401972
0.064878635 -0.10499086 0.46179479
0.074305423 -0.10468378 0.46020046
0.080824226 -0.10159743 0.46002755
0.047607608 -0.095810458 0.46864015
0.055148322 -0.095019467 0.46604437
0.06507241 -0.095035449 0.46315476
0.0752526 -0.095088378 0.46169025
0.08282584 -0.09427426 0.46022096
0.049091294 -0.0885996 0.46903211
0.055525541 -0.086007766 0.46760768
0.064945213 -0.085124165 0.46567464
0.075070456 -0.085101739 0.46432438
0.084645212 -0.084624283 0.4621487
0.092611551 -0.082686417 0.4603419
0.066469699 -0.077568315 0.46840727
0.074946262 -0.075087078 0.46736908
0.085219204 -0.075162023 0.4645448
0.094751269 -0.074724883 0.46202257
0.10142159 -0.072971128 0.4602212
0.076235935 -0.065546699 0.46800813
0.08495111 -0.065281875 0.4661797
0.094842978 -0.064985827 0.46404946
0.10353074 -0.064357609 0.46113107
0.078863345 -0.055586863 0.46897364
0.085186057 -0.055100597 0.46745306
0.095090456 -0.055019584 0.46584353
0.10491709 -0.055058878 0.46357608
0.11428738 -0.05419264 0.46127576
0.12041108 -0.050638385 0.46001571
0.079973921 -0.048562802 0.46902284
0.085782744 -0.04628285 0.46872616
0.095303811 -0.045076843 0.46815315
0.10504144 -0.04500185 0.46571028
0.11524063 -0.044962011 0.46334946
0.12275041 -0.043896686 0.46072054
0.098437838 -0.036853466 0.4688184
0.10519107 -0.034964558 0.46698937
0.11534327 -0.03491826 0.46459484
0.12441732 -0.034494236 0.46153665
0.13135871 -0.031003181 0.46001193
0.10690074 -0.026778277 0.46858266
0.1149995 -0.025240671 0.46725047
0.1251083 -0.025074065 0.46409592
0.13308333 -0.024738351 0.46072841
0.10932586 -0.018613053 0.46901479
0.11562145 -0.016223926 0.46828005
0.12506008 -0.014921662 0.46548668
0.13270824 -0.016256034 0.46207097
0.125946 -0.0081216302 0.46824896
0.13152166 -0.0099806329 0.46534336
0.19740091 0.085423678 0.46950284
0.20507275 0.085635297 0.46681148
0.21244378 0.086916164 0.4661293
0.19802541 0.091218948 0.46971595
0.20558171 0.094664641 0.46912491
0.21200448 0.094165117 0.46781921
0.20699915 0.100181 0.46998626
-0.06343016 -0.18144384 0.47870383
-0.054835808 -0.18108349 0.47680938
-0.045453094 -0.18071577 0.47485766
-0.037754964 -0.18027957 0.4730562
-0.060990874 -0.17872103 0.47881025
-0.053983916 -0.17665383 0.47820154
-0.04483746 -0.17503621 0.47601417
-0.034572262 -0.17528878 0.47349012
-0.024891401 -0.17465627 0.47138667
-0.017639317 -0.17289804 0.4701075
-0.050717793 -0.1688271 0.47905752
-0.044572774 -0.16533437 0.47770125
-0.034856848 -0.16512662 0.47559595
-0.02491956 -0.16495538 0.47378781
-0.015514245 -0.16448839 0.47108412
-0.0084571792 -0.16186205 0.4701921
-0.04119033 -0.15895507 0.47865492
-0.03426471 -0.15713611 0.47825861
-0.024967056 -0.1551549 0.47660097
-0.01494733 -0.15506609 0.47324976
-0.005607164 -0.15452234 0.4710319
0.00047516412 -0.15218769 0.47004676
-0.02456429 -0.14526604 0.47798282
-0.014870193 -0.14495577 0.47517926
-0.0050694947 -0.14498021 0.47253183
0.0016498722 -0.14390197 0.47030663
-0.022550547 -0.13814449 0.47858289
-0.014431674 -0.13579449 0.47761151
-0.0050319568 -0.13516231 0.47507435
0.0046757269 -0.13493054 0.47184443
0.013746221 -0.1328914 0.47035021
-0.0043822909 -0.12579682 0.47788149
0.0049473979 -0.12501658 0.47471011
0.014494727 -0.12491497 0.47210136
0.021379735 -0.1237466 0.4703131
-0.0013790487 -0.11791909 0.47891897
0.0050730426 -0.1153282 0.47761393
0.014810439 -0.11482998 0.47350448
0.023363024 -0.11448199 0.47054937
0.0054729697 -0.10513435 0.47780073
0.014709148 -0.10475632 0.4744148
0.024850303 -0.10504863 0.47224575
0.034219261 -0.10321064 0.47109732
0.041902609 -0.10122387 0.4700346
0.0069350204 -0.097618014 0.47808218
0.014853179 -0.095220588 0.47676191
0.024695424 -0.09519203 0.47606841
0.035245802 -0.095072411 0.4739958
0.043202467 -0.094405033 0.47063899
0.017965904 -0.088162139 0.47857618
0.025224995 -0.085571975 0.47805196
0.035113815 -0.085057974 0.47530836
0.045225792 -0.084684685 0.4715476
0.052980725 -0.081737243 0.47055712
0.028089076 -0.077401444 0.47883493
0.034681179 -0.075087629 0.4770036
0.044954687 -0.074973904 0.47373995
0.055481859 -0.075075939 0.4728207
0.06398575 -0.073523149 0.4710058
0.070337132 -0.070107237 0.47002658
0.036624134 -0.065577149 0.47781274
0.044843588 -0.065360934 0.47482786
0.055291936 -0.065076604 0.4744617
0.065192282 -0.064960368 0.47273022
0.071789488 -0.063266076 0.47035903
0.038574949 -0.058299381 0.47878125
0.045496032 -0.056559164 0.47776449
0.055042781 -0.055038676 0.47647101
0.065323204 -0.055211544 0.47365111
0.073934428 -0.054553173 0.47102454
0.056282144 -0.045724295 0.47810197
0.064826876 -0.045087978 0.47580734
0.074959449 -0.045171063 0.47266969
0.083801225 -0.042318597 0.47017547
0.092093199 -0.04101086 0.47001994
0.058788624 -0.038562369 0.47902575
0.06557899 -0.035354074 0.47802427
0.07461378 -0.035182796 0.47485372
0.084844969 -0.035385624 0.47183615
0.094044015 -0.034692071 0.47069764
0.068169519 -0.028478885 0.47882313
0.075862326 -0.026740288 0.47740802
0.085017756 -0.024963934 0.47529241
0.095046848 -0.025152277 0.4728713
0.10328874 -0.024005245 0.47070062
0.086786829 -0.015039745 0.47769299
0.094843209 -0.014426796 0.47433588
0.10472462 -0.01486882 0.47118202
0.11368493 -0.011237282 0.47018003
0.08691892 -0.0052965363 0.47822973
0.094751291 -0.0046097282 0.47565502
0.10490851 -0.0045941593 0.47390497
0.11504804 -0.0045812642 0.47242913
0.12422407 -0.003704574 0.47080553
0.13039276 -0.0045663435 0.47000971
0.089184716 0.00097550068 0.47901666
0.095909365 0.0035620516 0.47791258
0.10498144 0.0054250089 0.47639906
0.11502025 0.0050263526 0.47399643
0.12286501 0.0039839144 0.47204876
0.10637992 0.013514218 0.47835526
0.11518717 0.015059192 0.47768256
0.12315881 0.015925491 0.47700921
0.11811966 0.021990081 0.47900948
0.12229109 0.023246987 0.47885478
0.15913098 0.077355258 0.47649702
0.16495422 0.077499926 0.47499585
0.17456201 0.077704206 0.47342274
0.18445083 0.079147846 0.47286725
0.15971382 0.081165507 0.47699654
0.16601124 0.084460966 0.47801507
0.1749105 0.084814832 0.47546026
0.18492748 0.085421458 0.47288385
0.19206108 0.085370012 0.4713726
0.16756479 0.096205771 0.47954923
0.17473036 0.094894916 0.47725651
0.18492669 0.095002301 0.47468299
0.19448504 0.095572881 0.47208413
0.20206706 0.098399974 0.47098729
0.16772977 0.10176634 0.47811821
0.175597 0.10429095 0.47834235
0.18505499 0.10498734 0.47724345
0.19514118 0.10500475 0.47400159
0.20319246 0.10551913 0.47152311
0.1786622 0.11191374 0.47999027
0.18528032 0.11388236 0.47902742
0.19468866 0.11270285 0.47644186
0.20209181 0.1115888 0.47331941
-0.10085981 -0.18381439 0.48906794
-0.094749883 -0.18308504 0.48712397
-0.085378028 -0.18245699 0.48358345
-0.075381123 -0.18205059 0.48102155
-0.068206757 -0.18141143 0.48006186
-0.10022135 -0.17935254 0.48906744
-0.094604313 -0.17565781 0.48822621
-0.084872521 -0.17491028 0.48535192
-0.075010642 -0.17497687 0.48303345
-0.065491185 -0.1749226 0.48109353
-0.056662671 -0.17288464 0.48039231
-0.09143652 -0.16837662 0.48906484
-0.084501691 -0.1658221 0.48816755
-0.074834526 -0.16479781 0.48562026
-0.064851254 -0.16492705 0.48276466
-0.055541694 -0.16485225 0.48116404
-0.048175402 -0.16124435 0.48018134
-0.073585093 -0.15693106 0.48823705
-0.06495665 -0.15493266 0.48620367
-0.054974224 -0.15523598 0.48373449
-0.04566196 -0.15471631 0.48196566
-0.036133092 -0.15279259 0.4803867
-0.07089258 -0.14812531 0.4890593
-0.064532086 -0.14517738 0.48800772
-0.055125702 -0.14482029 0.48545611
-0.045249827 -0.14482918 0.48342931
-0.035420161 -0.14493501 0.48141086
-0.029074522 -0.14243606 0.48005119
-0.061948691 -0.13843422 0.48891386
-0.054622788 -0.13504969 0.48766708
-0.045041565 -0.13495435 0.48523188
-0.035393622 -0.13500533 0.48286703
-0.025755567 -0.13420357 0.4807806
-0.017257394 -0.13193046 0.48028341
-0.062270988 -0.12186585 0.48897195
-0.054776076 -0.12534106 0.48770002
-0.044800669 -0.12532489 0.48590705
-0.035116799 -0.12494935 0.48418915
-0.025363171 -0.12533239 0.48258734
-0.015173048 -0.12494526 0.4807502
-0.0079527237 -0.12234043 0.48004553
-0.065386482 -0.11891724 0.48876986
-0.045083456 -0.11901063 0.48127413
-0.034325812 -0.11677234 0.48243442
-0.025144555 -0.11533467 0.48248351
-0.015195477 -0.11511231 0.48156187
-0.0055918857 -0.11446171 0.48043031
0.00091359479 -0.11225312 0.48004302
-0.02276825 -0.10773795 0.48085934
-0.015212087 -0.10523348 0.48229522
-0.0051479852 -0.10496973 0.48109043
0.00065485283 -0.10364975 0.48004225
-0.013655117 -0.095554374 0.4816255
-0.0051597855 -0.095238559 0.48262063
0.0039838525 -0.093812861 0.48110738
0.011451058 -0.090669043 0.48003909
-0.011691631 -0.087331958 0.48095205
-0.0050888439 -0.085354038 0.48323202
0.0049112174 -0.085258409 0.48308665
0.014335308 -0.084284149 0.48083434
0.021916205 -0.081320763 0.48003638
-0.0039472696 -0.07550858 0.48314467
0.0049203085 -0.07528121 0.48369503
0.014968286 -0.075086474 0.48244333
0.024333086 -0.074277125 0.48064634
0.030539403 -0.070338301 0.48003379
-0.0027295165 -0.06526871 0.48328173
0.0049349419 -0.065345652 0.48485047
0.015010846 -0.065193199 0.48369241
0.025008697 -0.064968653 0.48201865
0.032347016 -0.063553549 0.48041743
-0.0036869566 -0.055106953 0.4847309
0.0056983386 -0.057052452 0.48819986
0.015103168 -0.05544699 0.48669145
0.025133727 -0.05518705 0.48437709
0.034800902 -0.054650676 0.48186496
0.043313362 -0.052160595 0.48046455
0.0094456254 -0.049979899 0.48903573
0.015708558 -0.045904461 0.48785245
0.025197223 -0.045192592 0.48553243
0.035219338 -0.045060389 0.48409316
0.045160033 -0.04491064 0.48246628
0.052671541 -0.043004803 0.48050728
0.018366154 -0.037907545 0.48887917
0.025309509 -0.0352199 0.48765656
0.035351135 -0.03509637 0.48588914
0.045270998 -0.034935001 0.48360595
0.054893244 -0.034571584 0.48127201
0.062020689 -0.032093212 0.48009601
0.026987707 -0.02788434 0.48866692
0.035874531 -0.025510173 0.4876779
0.045435909 -0.024934901 0.48535496
0.055310592 -0.024827683 0.48318145
0.064838596 -0.02440081 0.48124373
0.073829949 -0.022090157 0.48040611
0.080606438 -0.020294124 0.48002014
0.038216334 -0.018655822 0.48888484
0.04549925 -0.015334178 0.48768175
0.055303972 -0.014679504 0.48463026
0.065256424 -0.014723049 0.48219419
0.075141765 -0.01469345 0.48108315
0.082099766 -0.014294493 0.4802593
0.046788551 -0.006749799 0.48876414
0.055053357 -0.0054303501 0.4871929
0.065103613 -0.0046616765 0.48518565
0.075255297 -0.0045573171 0.48291364
0.082708791 -0.0039493809 0.480728
0.059176568 0.0010029014 0.48902205
0.066345729 0.0047598742 0.48840141
0.074564941 0.0054219398 0.48548755
0.084677823 0.0054473383 0.48222828
0.093561448 0.0076567298 0.48034847
0.067066714 0.014644143 0.48866451
0.074737854 0.014951644 0.4865894
0.085071802 0.015169812 0.48436454
0.095134027 0.015575724 0.48196948
0.10346354 0.017169263 0.48020616
0.11190034 0.019743225 0.48001084
0.069061272 0.021079596 0.48901841
0.075877339 0.023932025 0.48868358
0.084852561 0.024874309 0.48730341
0.094759487 0.024928559 0.48466256
0.10490619 0.025393296 0.48147526
0.11469696 0.025722211 0.48006144
0.12178799 0.02699903 0.4800083
0.078306489 0.032183424 0.48901573
0.085309468 0.03467986 0.48856977
0.095058747 0.034616478 0.48668429
0.10483427 0.034782648 0.48424029
0.11518275 0.035167463 0.48167011
0.12287021 0.036335818 0.48086938
0.086864859 0.044601511 0.48861766
0.09526173 0.044857595 0.48769903
0.10508651 0.044709213 0.48610339
0.11502025 0.043771189 0.48350802
0.1250219 0.044174772 0.48231569
0.087780923 0.05066381 0.48851234
0.096912235 0.051684249 0.48838562
0.10344131 0.051760472 0.48772374
0.16406508 0.089745536 0.480995
0.16558984 0.092793375 0.48099443
-0.14325035 -0.19016623 0.49907619
-0.14144368 -0.18713866 0.49893275
-0.13550681 -0.18486932 0.49723232
-0.12483412 -0.18423089 0.49343595
-0.11513402 -0.18393908 0.49215752
-0.1062087 -0.18372701 0.49077162
-0.13351651 -0.17655261 0.4984898
-0.12510121 -0.17510717 0.49622157
-0.11462372 -0.17490879 0.49381581
-0.1048448 -0.17510523 0.49175212
-0.097909808 -0.17148614 0.49026623
-0.12368542 -0.16621141 0.49862033
-0.1152179 -0.16521171 0.49731889
-0.10511115 -0.1650794 0.49406695
-0.095228009 -0.16431941 0.49097887
-0.0871263 -0.16142321 0.49044803
-0.12047592 -0.15407079 0.49906877
-0.11509228 -0.15517825 0.49883261
-0.10508114 -0.15503931 0.49689424
-0.095080607 -0.15509224 0.4943611
-0.084884629 -0.15518081 0.49266845
-0.076460309 -0.15316708 0.49099615
-0.12047496 -0.14984278 0.49906838
-0.1140538 -0.1478719 0.49906707
-0.10440167 -0.14646198 0.49867499
-0.094855025 -0.14485277 0.49723789
-0.084726796 -0.14534812 0.49435467
-0.075341448 -0.14456959 0.49170119
-0.068930477 -0.14166351 0.49022496
-0.093474738 -0.13517021 0.49792585
-0.084685363 -0.13512662 0.49516773
-0.074657917 -0.1346325 0.49295098
-0.06548173 -0.13481909 0.49141553
-0.059536342 -0.13118514 0.49005565
-0.092924319 -0.12841612 0.4978306
-0.08444339 -0.12782975 0.49564317
-0.074442059 -0.12519763 0.49185327
-0.065821826 -0.12536518 0.49075192
-0.059535757 -0.12863022 0.49005541
-0.079401046 -0.086020544 0.49855509
-0.0010110254 -0.051654108 0.49043781
0.0037186188 -0.052228086 0.49050125
-0.0034662248 -0.043254014 0.49215174
0.0050119003 -0.044509877 0.4920516
0.011649822 -0.042331848 0.4905346
-0.01171889 -0.032868989 0.49170467
-0.0053389054 -0.034528472 0.49483702
0.0050326544 -0.035025608 0.49391007
0.014505956 -0.034704257 0.49115336
-0.014455445 -0.02468455 0.49558118
-0.0053007714 -0.02490391 0.49758977
0.0050487546 -0.025434263 0.49525297
0.015295728 -0.025300069 0.49261051
0.024640093 -0.023763785 0.49110204
0.032484498 -0.021447839 0.49031463
-0.015847046 -0.019379968 0.49893752
-0.0036130238 -0.01696277 0.4989706
0.0050739669 -0.015174073 0.49743956
0.015376442 -0.015105187 0.49509397
0.025078541 -0.015144408 0.49373141
0.034197938 -0.014546328 0.49176493
0.040951766 -0.011930852 0.49027652
0.0061498885 -0.0055462685 0.49878219
0.015433775 -0.0047963611 0.49688989
0.025056046 -0.0047812788 0.49502873
0.034559209 -0.0047623287 0.49255827
0.043365505 -0.0036069069 0.4906351
0.052936088 -0.00059058302 0.49027336
0.008784865 0.0019022416 0.49903107
0.015475255 0.004384588 0.49854076
0.024674287 0.0050354386 0.49693534
0.034683764 0.004889179 0.49429399
0.044891723 0.0048773773 0.49314922
0.055112768 0.0053496384 0.49183905
0.062183905 0.006815949 0.4903391
0.018240368 0.011180011 0.4990285
0.025161112 0.013964511 0.4979704
0.034815837 0.014605834 0.49613452
0.044951376 0.014530455 0.49382022
0.054827694 0.014839727 0.49147922
0.062345535 0.015523252 0.49026015
0.028736731 0.020977914 0.4990257
0.035143949 0.02486828 0.49761435
0.044996027 0.02486104 0.494288
0.055008061 0.024723034 0.49161437
0.064864926 0.02490866 0.49070215
0.07210055 0.027149763 0.49017116
0.036910105 0.033579551 0.49873739
0.045431085 0.034991439 0.49720788
0.055376217 0.035209976 0.49489459
0.0654056 0.035049044 0.49268976
0.074559219 0.035567518 0.49068275
0.081023291 0.039323803 0.49001458
0.047959823 0.043826092 0.49877021
0.055614684 0.045202378 0.49556097
0.065406747 0.045315593 0.49267313
0.075530678 0.045227583 0.491687
0.082243845 0.045808196 0.49039474
0.048980694 0.052042171 0.49757481
0.055108391 0.053241931 0.49371573
0.063459009 0.052176256 0.49072248
0.072329968 0.050995816 0.49168172
-0.18353055 -0.1925398 0.50908369
-0.17528194 -0.19208407 0.50776392
-0.16487619 -0.19160013 0.50616717
-0.15524708 -0.19116053 0.50326025
-0.14759657 -0.19073702 0.50057697
-0.18292302 -0.18772432 0.50908315
-0.17504373 -0.18521012 0.50851005
-0.16463223 -0.18519069 0.50683469
-0.15476722 -0.18514949 0.50449592
-0.14567246 -0.18478559 0.50118726
-0.17285842 -0.17645992 0.50877255
-0.16480051 -0.17492007 0.50694549
-0.15469253 -0.17472415 0.50442219
-0.1448321 -0.17502646 0.50230724
-0.13689424 -0.17272368 0.5007273
-0.1631061 -0.1657536 0.50854415
-0.15507019 -0.16488281 0.50620091
-0.14502864 -0.16523218 0.50476784
-0.13474789 -0.1649607 0.50192142
-0.12692653 -0.16311491 0.50007075
-0.16048762 -0.15902995 0.50907642
-0.15372701 -0.15717484 0.50845438
-0.14509557 -0.15538448 0.50728995
-0.13470545 -0.1550241 0.50410473
-0.12516594 -0.15500572 0.50067753
-0.14377862 -0.14661475 0.50880557
-0.13499495 -0.14496827 0.50677961
-0.12517467 -0.14491037 0.50253302
-0.11576418 -0.1430546 0.50073355
-0.10617191 -0.14213973 0.5003317
-0.13204202 -0.13661975 0.50888175
-0.12482318 -0.13509135 0.50613922
-0.11481872 -0.13518456 0.50326264
-0.10517448 -0.13506894 0.50195813
-0.098567873 -0.13482706 0.50013995
-0.13084424 -0.12763114 0.50906819
-0.12371136 -0.12879437 0.50652158
-0.11586611 -0.12857683 0.50424737
-0.10452687 -0.12886544 0.50264686
-0.098248072 -0.12859426 0.50072908
-0.082827866 -0.081642397 0.50161779
-0.078754209 -0.081780151 0.50334024
-0.085156351 -0.075136364 0.50602609
-0.077814855 -0.075157136 0.50773376
-0.087580599 -0.067151636 0.50877702
-0.077744439 -0.040061582 0.50905055
-0.024070023 -0.012611625 0.50268114
-0.014975922 -0.014382742 0.50153685
-0.0069301953 -0.013626213 0.50052011
-0.033843558 -0.0090794312 0.5074842
-0.024299359 -0.0060812952 0.50770444
-0.015277302 -0.0048727435 0.50587541
-0.0053500715 -0.0048417025 0.50217491
0.0019315687 -0.0026284289 0.50034523
-0.020863177 0.0039058381 0.50903624
-0.015337448 0.0050319685 0.50793302
-0.0053700134 0.0049964786 0.50439048
0.0046747359 0.0053294953 0.50125146
0.011849237 0.0079914322 0.50019664
-0.012776541 0.013752431 0.50863397
-0.0047324831 0.014943263 0.50715727
0.0051579396 0.014873236 0.50482738
0.014615557 0.015139214 0.50218558
0.021789221 0.018122045 0.50066358
-0.01005375 0.020964738 0.50903267
-0.0042625754 0.022465633 0.50889516
0.0056013833 0.024158191 0.50824702
0.015075743 0.024815768 0.5063951
0.024630049 0.025384633 0.50205928
0.030534172 0.02840621 0.50002468
0.0098543558 0.034893643 0.50902784
0.015105149 0.03477449 0.50731266
0.0247343 0.035050321 0.50311285
0.033226866 0.03622359 0.50059491
0.009856022 0.042192116 0.50902712
0.015728299 0.043544713 0.50840831
0.025074536 0.044559538 0.50655138
0.035366356 0.045051973 0.50388169
0.043710023 0.045671809 0.50120997
0.026948843 0.051823456 0.50880098
0.035481881 0.051121294 0.50552166
0.044293515 0.051124092 0.50187731
-0.22293106 -0.1943419 0.51896596
-0.21523775 -0.19322105 0.5173319
-0.20487317 -0.19330381 0.51405632
-0.1951894 -0.19280222 0.51154733
-0.18859196 -0.19265854 0.51018465
-0.22029349 -0.1872184 0.51908982
-0.21479434 -0.18492271 0.51823437
-0.20485172 -0.18507007 0.51532757
-0.19516771 -0.18503991 0.51226151
-0.18634619 -0.18382233 0.51056063
-0.21315469 -0.1781158 0.51866674
-0.20437232 -0.17633574 0.51813859
-0.19519541 -0.17516761 0.51555693
-0.1850608 -0.17480186 0.51239133
-0.1766248 -0.17364551 0.51058066
-0.1939857 -0.16599807 0.51792514
-0.18473965 -0.16482624 0.5151515
-0.17463315 -0.16506362 0.51222497
-0.16741826 -0.16373417 0.51055425
-0.19133154 -0.15935187 0.51908207
-0.18392901 -0.1560678 0.51793754
-0.1752077 -0.15522493 0.51527864
-0.16520043 -0.15467452 0.51256812
-0.15600836 -0.15291345 0.51075363
-0.14972079 -0.15048093 0.51007372
-0.18133797 -0.14444788 0.51907891
-0.17463306 -0.14493905 0.51736063
-0.16498527 -0.14452496 0.51468813
-0.15499893 -0.14498849 0.51186365
-0.14596942 -0.1426927 0.51058954
-0.13908187 -0.14117613 0.51007092
-0.18144934 -0.1382463 0.51907831
-0.17465471 -0.13789317 0.51844072
-0.16438757 -0.13601306 0.51756394
-0.15507723 -0.13526675 0.51550961
-0.1452615 -0.13482782 0.51310849
-0.13638386 -0.13468549 0.51079482
-0.16047278 -0.12066124 0.51907295
-0.15441458 -0.12547037 0.51769447
-0.14510842 -0.12510474 0.51455897
-0.13620006 -0.12715787 0.51122916
-0.16152701 -0.1145606 0.51840585
-0.15482967 -0.11489225 0.51511675
-0.1472764 -0.11688503 0.51349872
-0.1608182 -0.10931502 0.51873857
-0.15703838 -0.10851906 0.51667112
-0.084281094 -0.063706055 0.51020944
-0.077960484 -0.064709045 0.51005286
-0.0909824 -0.056276724 0.51072109
-0.084978275 -0.054775696 0.51138645
-0.078002393 -0.054834314 0.51071864
-0.083992809 -0.046148069 0.51125741
-0.077602431 -0.045845628 0.51147419
-0.053055104 -0.0021679467 0.51804262
-0.044867471 -0.0031597151 0.51455474
-0.035080697 -0.0038942201 0.51151007
-0.026805427 -0.0017837636 0.51025212
-0.051763751 0.002983297 0.51874197
-0.045255553 0.0051300786 0.51693857
-0.03488427 0.0050871796 0.51303864
-0.025364807 0.0052496428 0.51058459
-0.044144996 0.014344951 0.51811844
-0.034967396 0.015156711 0.51428789
-0.024775302 0.015073173 0.51153594
-0.017055787 0.016526395 0.51037931
-0.042510487 0.023711393 0.51863837
-0.034965191 0.025216235 0.51688868
-0.02484227 0.025227388 0.51349336
-0.014844667 0.025125636 0.51114225
-0.0051538744 0.027045114 0.51062387
0.0033578097 0.02845997 0.51022965
-0.031871211 0.031600136 0.51860708
-0.024645437 0.034451231 0.51714778
-0.014847259 0.034587119 0.51419294
-0.004780659 0.035164777 0.51288754
0.0045604664 0.035026893 0.5109396
-0.023823902 0.045553524 0.51854563
-0.014926539 0.044882763 0.51700026
-0.0047928328 0.045324378 0.51439685
0.0051486865 0.045125376 0.51160949
0.013873979 0.047801554 0.51035935
0.020513846 0.048920568 0.51002467
-0.023969071 0.053912185 0.51855218
-0.015219206 0.051958539 0.51761913
-0.0037587376 0.052645262 0.51507419
0.0050154976 0.054696728 0.51564956
0.015010044 0.054864943 0.51435196
0.022527872 0.054361664 0.51115412
0.004234754 0.060971212 0.51862651
0.015921814 0.061475158 0.51816714
-0.26632684 -0.20019451 0.52909935
-0.26268926 -0.19650589 0.52871734
-0.25512767 -0.19492818 0.52721447
-0.24501535 -0.19454411 0.52524716
-0.23511183 -0.19402227 0.52254552
-0.22689719 -0.19275808 0.52052009
-0.25339344 -0.18649456 0.52841574
-0.24510172 -0.18509209 0.52662235
-0.23478729 -0.18485266 0.52364784
-0.22505325 -0.18473075 0.52072096
-0.24315844 -0.17742974 0.52837086
-0.23502883 -0.17519066 0.52635664
-0.22519769 -0.17522405 0.52314317
-0.21524781 -0.17350997 0.52135605
-0.20670851 -0.17203584 0.52058589
-0.23239343 -0.16700277 0.5287776
-0.22521974 -0.16529177 0.52659935
-0.21522798 -0.16480783 0.52370501
-0.20458823 -0.16487209 0.52133977
-0.19769758 -0.16227533 0.52058345
-0.22411504 -0.15563902 0.52786261
-0.21480578 -0.15502216 0.52544016
-0.20513877 -0.15528566 0.52406603
-0.19539009 -0.1547845 0.52204245
-0.187069 -0.15262343 0.52069169
-0.22244863 -0.14578485 0.52885115
-0.21519011 -0.14545211 0.52752948
-0.20525187 -0.14513476 0.52593219
-0.19534829 -0.14511582 0.52389532
-0.18681361 -0.14533883 0.52110499
-0.21303718 -0.13716555 0.5284369
-0.20463836 -0.13524158 0.52677608
-0.195108 -0.13482744 0.52444053
-0.18545899 -0.13443026 0.5218671
-0.17521615 -0.13328975 0.52101791
-0.16632178 -0.13153711 0.52043211
-0.20113491 -0.12933184 0.52874774
-0.19450247 -0.12526397 0.52761286
-0.18432735 -0.1250976 0.52505839
-0.17484583 -0.12530085 0.52414989
-0.16530043 -0.1254164 0.52185684
-0.15915608 -0.12550339 0.52007312
-0.19376759 -0.11520734 0.5276261
-0.18429801 -0.11525285 0.52528071
-0.17504518 -0.11502253 0.5242179
-0.16667652 -0.11508259 0.5213021
-0.19241516 -0.10661017 0.52818274
-0.18463293 -0.10516892 0.52623659
-0.17476952 -0.10468417 0.52475327
-0.16555434 -0.1053117 0.52251148
-0.15962707 -0.10611666 0.52073807
-0.18293791 -0.096917354 0.52865362
-0.17494012 -0.095211178 0.52651763
-0.16788813 -0.098356158 0.5244056
-0.17421664 -0.088086389 0.52840573
-0.060550615 -0.00026228221 0.52104378
-0.058017127 -0.0008046882 0.52024341
-0.083418183 0.0093783205 0.52824706
-0.073518917 0.0085298652 0.5255453
-0.064143278 0.0061780275 0.52293277
-0.055889361 0.0057246322 0.5207603
-0.082513407 0.012538597 0.52876085
-0.074878775 0.014763794 0.5268783
-0.065020174 0.014772022 0.52422684
-0.055200018 0.014702474 0.52181697
-0.048578776 0.0162252 0.52042472
-0.073531158 0.023999717 0.52839875
-0.06510812 0.024749359 0.52623457
-0.055412591 0.025002003 0.52384412
-0.046547063 0.025664946 0.52081943
-0.07181602 0.03007688 0.52904308
-0.064556777 0.034221221 0.5285691
-0.055326696 0.035547249 0.5260396
-0.044776879 0.034991667 0.52243394
-0.035171311 0.035580926 0.52077395
-0.028703043 0.037960976 0.52003455
-0.061622754 0.043099731 0.52903998
-0.054501511 0.044848982 0.52695864
-0.044489071 0.04480667 0.52391434
-0.034614801 0.04491552 0.52157336
-0.028127519 0.043909855 0.5200339
-0.052268811 0.053848293 0.52816778
-0.0444686 0.054944996 0.5255264
-0.035007969 0.055200901 0.5228076
-0.028144108 0.055990804 0.5203858
-0.044810466 0.061764147 0.52546388
-0.036630381 0.063156441 0.52447814
0.0065183742 0.062946454 0.52015084
0.012666848 0.06321387 0.52020651
-0.30086923 -0.20256718 0.53910577
-0.2947607 -0.20212737 0.53773624
-0.28511217 -0.201345 0.53510284
-0.27490202 -0.20085935 0.53138667
-0.26890281 -0.20057249 0.53009981
-0.2937437 -0.19611026 0.53846109
-0.28487951 -0.19474933 0.53644913
-0.27503943 -0.1954058 0.53331792
-0.2667906 -0.19383851 0.53058028
-0.29067835 -0.18886873 0.53910273
-0.28455138 -0.18515514 0.53779179
-0.27472597 -0.18483046 0.53541934
-0.26486725 -0.18504699 0.5326075
-0.25679693 -0.18322623 0.53066128
-0.28278944 -0.17507002 0.5388
-0.27522609 -0.17531814 0.53722358
-0.26495516 -0.17495191 0.53574979
-0.25483268 -0.174908 0.53280073
-0.24607132 -0.17381293 0.53078073
-0.23941875 -0.17064147 0.53009176
-0.28296238 -0.16524909 0.53871822
-0.27520883 -0.16479883 0.53755391
-0.26516536 -0.16476393 0.53723866
-0.25513342 -0.16485031 0.5359568
-0.24507211 -0.16516215 0.53345227
-0.23640013 -0.16418374 0.5308094
-0.27377012 -0.15779643 0.53884673
-0.26435181 -0.15597586 0.53886634
-0.25457904 -0.15467486 0.53779888
-0.24509752 -0.15514305 0.53606921
-0.23489226 -0.15495521 0.53248531
-0.22801156 -0.15242913 0.53021306
-0.25359777 -0.14561725 0.53851616
-0.24468669 -0.14509094 0.53609037
-0.23506589 -0.14479576 0.53327906
-0.22667237 -0.14394376 0.53061819
-0.25120461 -0.13822563 0.53884095
-0.24437045 -0.13559061 0.53743821
-0.23487599 -0.13511834 0.53622806
-0.22498724 -0.13503003 0.53451455
-0.21601999 -0.13385014 0.53120911
-0.20716886 -0.13034795 0.53008229
-0.2415321 -0.12690027 0.53908813
-0.23486355 -0.12495031 0.537597
-0.22489029 -0.1246504 0.53573602
-0.21548754 -0.12502705 0.53412169
-0.20532247 -0.12488572 0.53134328
-0.19956768 -0.12344098 0.53008026
-0.23413736 -0.11596916 0.53811282
-0.22478223 -0.11487052 0.53675061
-0.21480148 -0.1149635 0.53557211
-0.20530054 -0.11500424 0.53248048
-0.19933537 -0.1144597 0.53007931
-0.22400105 -0.10847053 0.53884798
-0.21459134 -0.10559325 0.53772414
-0.2046781 -0.10490797 0.53412491
-0.19664072 -0.1037533 0.53081864
-0.21266441 -0.096582733 0.53855377
-0.20503214 -0.094856225 0.53640509
-0.19474766 -0.095274419 0.53332168
-0.18600208 -0.093496464 0.53101254
-0.20289411 -0.086880378 0.53852189
-0.19507901 -0.085137926 0.53699899
-0.18501712 -0.084986895 0.53360897
-0.17698295 -0.083824247 0.53073913
-0.19338603 -0.075017661 0.53854144
-0.18492076 -0.075197831 0.53595781
-0.17824112 -0.076189682 0.533822
-0.19099827 -0.068629183 0.53907365
-0.18541992 -0.066958748 0.53802478
-0.17968813 -0.068715267 0.5360716
-0.11200204 0.0095317345 0.53655219
-0.10910231 0.0095222238 0.53605163
-0.11378011 0.015070097 0.5380283
-0.10495868 0.015654411 0.5362041
-0.095249094 0.014946922 0.53327787
-0.086146802 0.015908696 0.53076118
-0.079553753 0.019081499 0.53004545
-0.11190042 0.022567481 0.53888428
-0.10469783 0.024761286 0.53713644
-0.095106281 0.024984742 0.53409219
-0.085348837 0.024686353 0.531699
-0.078247294 0.025529336 0.53004467
-0.10385774 0.034341805 0.53775585
-0.094587833 0.03481764 0.53541619
-0.085240461 0.034315553 0.53335625
-0.075555675 0.035041504 0.53108168
-0.068333119 0.037204165 0.53004175
-0.10133114 0.042665638 0.53893608
-0.094641626 0.044510785 0.53777498
-0.084429875 0.044890799 0.53519785
-0.074633725 0.045399815 0.53242218
-0.065360121 0.04593759 0.53047627
-0.058820669 0.049475122 0.53003889
-0.093043774 0.053746723 0.53838956
-0.084672064 0.055131227 0.53606308
-0.074652255 0.055090509 0.53388214
-0.064419948 0.05389243 0.53156728
-0.0573458 0.053896364 0.5300383
-0.091142982 0.060589895 0.53871042
-0.085037485 0.06335856 0.53797567
-0.078115769 0.062150884 0.5360412
-0.30166137 -0.20059662 0.54010576
-0.30210271 -0.19473925 0.54157197
-0.29777688 -0.19352049 0.54043764
-0.30265197 -0.18491326 0.54414147
-0.29536915 -0.18480889 0.54181051
-0.28910401 -0.18147667 0.54010171
-0.30324832 -0.17524849 0.54592508
-0.29539013 -0.17495567 0.54324514
-0.28796208 -0.17495118 0.5406009
-0.30359641 -0.1652493 0.54706961
-0.29506633 -0.16475953 0.5435884
-0.28780797 -0.16455106 0.54073632
-0.30137593 -0.15887584 0.54835188
-0.29461554 -0.15571177 0.54728448
-0.2847577 -0.15523295 0.54322904
-0.27518588 -0.15312606 0.54134661
-0.26653752 -0.15208162 0.54026163
-0.29140857 -0.14907792 0.54909915
-0.28438801 -0.14591147 0.54754496
-0.27512062 -0.14500611 0.54505038
-0.26498052 -0.14506115 0.54205322
-0.25808114 -0.14347172 0.54040033
-0.28138715 -0.13834563 0.54909635
-0.2746391 -0.13531618 0.5475949
-0.26526758 -0.13498281 0.54484314
-0.25529036 -0.13461995 0.54181862
-0.24767715 -0.13156947 0.54033965
-0.27299216 -0.12470656 0.54820478
-0.26475376 -0.12518515 0.54578263
-0.25508904 -0.12487127 0.54337603
-0.24624658 -0.12488304 0.54106319
-0.27227873 -0.11495227 0.54835576
-0.26483157 -0.11462696 0.54651982
-0.25531736 -0.11458572 0.54520702
-0.24488188 -0.11499669 0.54197901
-0.23687053 -0.11163676 0.54047048
-0.27136153 -0.10900672 0.54909188
-0.2651583 -0.10828641 0.548783
-0.25456738 -0.10759553 0.54836649
-0.24507141 -0.1051999 0.54693466
-0.23508669 -0.10493269 0.54330719
-0.22529694 -0.10372688 0.54099965
-0.2187655 -0.10188083 0.54008168
-0.24299712 -0.094967023 0.5486455
-0.23505257 -0.095003173 0.54608405
-0.2252007 -0.095072955 0.54303467
-0.21655585 -0.09346503 0.54077011
-0.24165724 -0.086113058 0.54908437
-0.23467799 -0.084611997 0.54718101
-0.2247538 -0.085427493 0.54492217
-0.21510974 -0.085040666 0.54287028
-0.20629765 -0.083551459 0.54076737
-0.23340146 -0.076484978 0.54846299
-0.22487076 -0.0749643 0.54741377
-0.21492462 -0.075386919 0.54510087
-0.20487469 -0.075076215 0.54169583
-0.19814551 -0.073640198 0.54020041
-0.22352883 -0.065239318 0.54844588
-0.21484777 -0.064644746 0.54658777
-0.20499282 -0.065276936 0.54388845
-0.19515412 -0.064898588 0.54153752
-0.18738961 -0.062704504 0.54048908
-0.22197099 -0.058923267 0.54907835
-0.21422969 -0.056543931 0.54842287
-0.2049032 -0.054679301 0.54666674
-0.19492505 -0.055556048 0.54382318
-0.18658634 -0.055102587 0.54287159
-0.20403987 -0.04499827 0.54843497
-0.19482872 -0.044794396 0.54650354
-0.18733206 -0.04580107 0.54492277
-0.2024993 -0.03620882 0.54893941
-0.19507492 -0.034522459 0.54790801
-0.18561478 -0.034182601 0.54696953
-0.1785146 -0.03081134 0.54531789
-0.19329642 -0.02706478 0.54869521
-0.18537056 -0.024587408 0.54692221
-0.1755392 -0.023844793 0.5431143
-0.16876291 -0.021417284 0.54139858
-0.18317524 -0.016435124 0.5479247
-0.17480463 -0.014282142 0.54586565
-0.16799092 -0.014148192 0.54439789
-0.17323153 -0.005794269 0.54822463
-0.1651749 -0.0041703265 0.54683578
-0.15775026 -0.0019937321 0.54617256
-0.16383329 0.0046421215 0.54824382
-0.15510365 0.0063060597 0.54640245
-0.14558232 0.0066830614 0.54289728
-0.13515398 0.0085292263 0.54046822
-0.12629209 0.0096110972 0.54085475
-0.16169791 0.0123406 0.54906094
-0.15460886 0.015095506 0.54774117
-0.14475511 0.015534378 0.54485303
-0.1349667 0.015151371 0.54243886
-0.12491134 0.015255786 0.54097235
-0.11878339 0.017760547 0.54005259
-0.15348499 0.024391148 0.54871219
-0.14504001 0.025448598 0.54777098
-0.1348639 0.025545053 0.54590261
-0.12505345 0.025045225 0.54323095
-0.11589057 0.025920179 0.5408622
-0.14334913 0.03242201 0.54905576
-0.13471572 0.035170756 0.5474453
-0.1251063 0.035252146 0.54490936
-0.11521114 0.035047859 0.54178506
-0.10850191 0.037221231 0.54004902
-0.13275844 0.045131188 0.54825258
-0.1250466 0.045419302 0.54564214
-0.115205 0.044855576 0.54262406
-0.10587402 0.045297373 0.54064775
-0.099348426 0.049009584 0.54004627
-0.13215688 0.05181846 0.54885191
-0.12436607 0.054144561 0.54793262
-0.11480499 0.055374149 0.54572934
-0.10491493 0.054699406 0.54218316
-0.097801052 0.055738229 0.54044545
-0.11585897 0.061056733 0.54704815
-0.10404729 0.06322246 0.54312587
-0.095704213 0.064584315 0.54168516
-0.08811485 0.067333519 0.54024255
-0.30723676 -0.16129503 0.55010313
-0.30496663 -0.15442595 0.55154943
-0.29787889 -0.15196061 0.5504756
-0.30492765 -0.14484298 0.5543105
-0.29525787 -0.14502898 0.55167449
-0.28785366 -0.14220943 0.55020899
-0.31017104 -0.13236938 0.55710107
-0.30499926 -0.13485122 0.55522227
-0.29484254 -0.13481754 0.55285853
-0.28556588 -0.13484691 0.55157417
-0.27855214 -0.13118999 0.55009526
-0.31091189 -0.12613299 0.55843395
-0.30480671 -0.12516187 0.55774528
-0.29461798 -0.12495997 0.55595118
-0.28527942 -0.12510589 0.55342025
-0.27837119 -0.12478019 0.55049455
-0.30376339 -0.11641807 0.55832428
-0.29471746 -0.11450941 0.55556875
-0.2852852 -0.11517384 0.55281281
-0.27756327 -0.11471806 0.55052823
-0.30107778 -0.10952947 0.55909729
-0.29407874 -0.10603857 0.55792338
-0.28474331 -0.10516161 0.55530226
-0.27508005 -0.1046855 0.55277401
-0.26496473 -0.10381015 0.55121142
-0.25554794 -0.10303402 0.55048138
-0.24891169 -0.10132416 0.55008709
-0.28335387 -0.097905554 0.55863148
-0.27479473 -0.094892174 0.55704242
-0.26534361 -0.09544383 0.5536505
-0.25504026 -0.095137917 0.55112928
-0.24784021 -0.094375551 0.55014509
-0.27419108 -0.085212275 0.55855685
-0.26534897 -0.084969632 0.55621624
-0.25508708 -0.085260943 0.55351853
-0.24622883 -0.084885225 0.55102068
-0.27137697 -0.07729242 0.55908895
-0.26445091 -0.074972562 0.55794114
-0.25522321 -0.075298168 0.55574495
-0.24502085 -0.075075619 0.55289799
-0.2367681 -0.073132716 0.55103236
-0.26142845 -0.068149827 0.55908632
-0.25402194 -0.065874808 0.55757117
-0.2446156 -0.065337159 0.55498779
-0.2347831 -0.065018594 0.5522716
-0.22794199 -0.063110583 0.55024648
-0.25313413 -0.055808961 0.55819905
-0.24505402 -0.055310283 0.555987
-0.23522511 -0.055047069 0.5533185
-0.22524026 -0.054478783 0.5511229
-0.21634968 -0.052286662 0.55035448
-0.25178772 -0.047836401 0.55897158
-0.24457908 -0.046171494 0.55794239
-0.23499562 -0.045258086 0.55591661
-0.22526109 -0.04497689 0.55364919
-0.21498293 -0.044794656 0.55134118
-0.20827146 -0.042066205 0.55007434
-0.2331657 -0.036292363 0.55855829
-0.22482765 -0.035034154 0.55614805
-0.21493612 -0.03484248 0.5530749
-0.20660649 -0.033785779 0.55059177
-0.23110609 -0.026476588 0.55907696
-0.22526078 -0.024847405 0.55751771
-0.2151015 -0.024735594 0.55487394
-0.20491323 -0.024911443 0.55236101
-0.19605176 -0.023011949 0.55095917
-0.22399095 -0.01579765 0.55836046
-0.21482025 -0.014751275 0.55652547
-0.20494522 -0.014625114 0.55507129
-0.19481531 -0.014760977 0.55292988
-0.18647356 -0.012689148 0.55063903
-0.22138631 -0.0085048443 0.55907363
-0.21465072 -0.0053571709 0.55785996
-0.20501225 -0.0045905537 0.55549884
-0.194786 -0.0045745433 0.55318749
-0.18485963 -0.0045612073 0.5515359
-0.17699063 -0.0026985852 0.55047673
-0.21147941 0.0021786534 0.5585708
-0.20466292 0.0052228947 0.55746412
-0.19492172 0.0056347935 0.55538005
-0.18511496 0.0054293121 0.55411232
-0.17504036 0.0055960412 0.55202228
-0.16764681 0.007779195 0.55026239
-0.2018304 0.012696149 0.55873477
-0.1948705 0.014915965 0.55786675
-0.18496366 0.014972112 0.55618387
-0.17459488 0.015168046 0.5536682
-0.16572101 0.015976096 0.55108827
-0.15940991 0.018671559 0.55005991
-0.19232984 0.020732645 0.5590657
-0.18415217 0.022548489 0.55831403
-0.1755048 0.024433184 0.55619389
-0.16504538 0.025451615 0.55225074
-0.15731029 0.026618417 0.55021662
-0.18008593 0.030348347 0.55906254
-0.17444526 0.034613494 0.55732316
-0.16486277 0.034730691 0.55385435
-0.15488923 0.035117455 0.55158257
-0.14580162 0.03609084 0.55066293
-0.13942638 0.039410532 0.55005437
-0.17395249 0.042913985 0.55849504
-0.1651845 0.044946209 0.55699342
-0.15521617 0.044394203 0.55490118
-0.14517778 0.044714686 0.55303323
-0.13743903 0.045662768 0.55052006
-0.16524459 0.055030525 0.55815977
-0.15528563 0.054852493 0.55636537
-0.14520714 0.054606546 0.55387032
-0.13556007 0.055319689 0.55125809
-0.12660401 0.058265354 0.55005032
-0.16442767 0.064164333 0.55814004
-0.1553365 0.065027833 0.55655485
-0.14576595 0.064480662 0.5549199
-0.13572073 0.062106002 0.55346078
-0.12591209 0.061494339 0.55094993
-0.16113105 0.071149781 0.55905539
-0.15506296 0.072811738 0.55743515
-0.14869243 0.071216926 0.55505311
-0.31183863 -0.12140273 0.56010032
-0.31186119 -0.1143297 0.56204414
-0.30713797 -0.11254955 0.56084865
-0.31277651 -0.10468507 0.56443226
-0.30527437 -0.10460235 0.56247854
-0.29698172 -0.10234343 0.5603686
-0.31335622 -0.0947823 0.56681246
-0.30492613 -0.094561867 0.56435299
-0.29526091 -0.095463768 0.56209499
-0.28607181 -0.094105452 0.56073838
-0.27971259 -0.090751015 0.56009167
-0.31327942 -0.084899284 0.5685063
-0.30512285 -0.085089684 0.56555736
-0.29499289 -0.085215762 0.56323034
-0.28518042 -0.085139833 0.561616
-0.27868909 -0.084035441 0.56009084
-0.31113952 -0.077705525 0.56884617
-0.30461678 -0.075675018 0.56753594
-0.29507005 -0.075546101 0.56529754
-0.28484324 -0.075079665 0.56301981
-0.27563539 -0.074151985 0.56088352
-0.26900169 -0.070800744 0.56008792
-0.3015787 -0.068047188 0.56909359
-0.29465419 -0.065513797 0.56744337
-0.2848314 -0.064970613 0.56445599
-0.27514148 -0.064843439 0.56334931
-0.26557118 -0.064392492 0.56181657
-0.25877994 -0.061800007 0.56008518
-0.29226938 -0.058054559 0.56875765
-0.28443027 -0.055986494 0.56784701
-0.27514142 -0.055063192 0.56674671
-0.26485074 -0.054369688 0.56359851
-0.25806409 -0.055081282 0.56035727
-0.27531421 -0.044623856 0.56758666
-0.26491767 -0.044565011 0.5640347
-0.25540131 -0.04463549 0.56111538
-0.24681158 -0.041547675 0.56022406
-0.27378443 -0.036997691 0.56861895
-0.26476774 -0.035381891 0.56676817
-0.25503561 -0.035542514 0.56434405
-0.2450873 -0.035575189 0.56219405
-0.23746404 -0.033687949 0.56072581
-0.2634587 -0.025982141 0.56871915
-0.25530428 -0.025154032 0.5666368
-0.24484831 -0.02527407 0.56410205
-0.23561804 -0.025110517 0.56114018
-0.26153386 -0.016560499 0.5690816
-0.25469247 -0.015251637 0.56772304
-0.24448068 -0.014963361 0.56472129
-0.23463349 -0.014705447 0.56185156
-0.22718149 -0.01176528 0.56018603
-0.25275469 -0.0076573929 0.56877917
-0.2445828 -0.0051989639 0.56750995
-0.23508878 -0.0046616565 0.56540912
-0.22543189 -0.0043338723 0.5626266
-0.21826081 -0.0019512679 0.56040573
-0.24166083 0.0017304629 0.5690763
-0.23531955 0.0047611026 0.56801605
-0.22552487 0.0050125998 0.56553257
-0.21586947 0.0053087021 0.56193346
-0.20934054 0.0088793067 0.56031984
-0.2327919 0.011610288 0.56868923
-0.22460563 0.014362842 0.56752205
-0.21494889 0.014468935 0.56449527
-0.20568106 0.015899792 0.56129074
-0.19939005 0.018727308 0.56006712
-0.22159508 0.021804534 0.56882083
-0.21413197 0.024321876 0.56743032
-0.20473267 0.024994828 0.56482935
-0.19510448 0.02524595 0.56222367
-0.18616259 0.026837111 0.56095874
-0.21074961 0.03089731 0.56906807
-0.20336412 0.032685872 0.5683018
-0.19509809 0.035109065 0.56694293
-0.18492249 0.035037078 0.56240451
-0.19470093 0.045323495 0.56729913
-0.18497571 0.045228623 0.56284773
-0.17644873 0.047415208 0.56042874
-0.19504635 0.054348867 0.5674631
-0.18535157 0.054877982 0.56400573
-0.17569187 0.055345979 0.56132138
-0.19277364 0.064274676 0.56830174
-0.18486491 0.06475056 0.56578535
-0.17517799 0.065008208 0.56242985
-0.16696964 0.068571709 0.56030661
-0.19071433 0.070945047 0.56906074
-0.18338203 0.074639753 0.56836939
-0.17493238 0.074988872 0.56598437
-0.16539279 0.075278118 0.56294465
-0.15823379 0.077295676 0.56134003
-0.18131672 0.082315788 0.569058
-0.17448616 0.084460951 0.56799412
-0.16488583 0.085073836 0.5667215
-0.15843053 0.083923571 0.56555378
-0.17216717 0.090225264 0.56905562
-0.16645391 0.091266736 0.56843913
-0.31709498 -0.083465889 0.5702228
-0.31505415 -0.074037135 0.57115716
-0.30782512 -0.071087301 0.57026172
-0.32073227 -0.06255053 0.57609653
-0.31498492 -0.064545736 0.57382739
-0.3056809 -0.064597227 0.57116067
-0.29906431 -0.061657291 0.5700925
-0.32115999 -0.055999402 0.57822096
-0.31499198 -0.054882769 0.57689482
-0.30468181 -0.055562269 0.57370836
-0.29547203 -0.054330178 0.57119119
-0.28706503 -0.051597983 0.57020062
-0.31425458 -0.045500197 0.57776046
-0.30444703 -0.045211121 0.57511586
-0.29436603 -0.044923149 0.57282186
-0.28509855 -0.044986594 0.57064408
-0.31404316 -0.035006024 0.57776922
-0.30463308 -0.034734227 0.575472
-0.29475278 -0.034540121 0.57399625
-0.28493637 -0.03455558 0.5724923
-0.2759932 -0.032676015 0.57104403
-0.26983222 -0.0314481 0.57008451
-0.31221601 -0.028293312 0.57869184
-0.30459225 -0.027527899 0.57809043
-0.29454362 -0.025946399 0.57764393
-0.28513587 -0.024991114 0.57547557
-0.27457628 -0.024852904 0.5722236
-0.26770782 -0.024973756 0.5700835
-0.29130366 -0.016394028 0.57837266
-0.28451586 -0.015247875 0.57574272
-0.27468994 -0.015163096 0.57246482
-0.2659044 -0.014418398 0.57048225
-0.25942531 -0.010646109 0.5700807
-0.28403828 -0.0063914033 0.57743257
-0.2750462 -0.0048469794 0.57561964
-0.26513222 -0.0046828655 0.5732519
-0.2558417 -0.0037776097 0.57120442
-0.24791937 -0.00084107305 0.57027775
-0.27264941 0.004279267 0.57839751
-0.26475921 0.0051249196 0.57716125
-0.25505391 0.0050707413 0.57504815
-0.24531689 0.0052782432 0.57127017
-0.26282182 0.010616669 0.57887936
-0.25426474 0.014796868 0.5771631
-0.24483423 0.014464163 0.57336515
-0.23593493 0.015968615 0.57090163
-0.22920275 0.018572172 0.57007259
-0.25277081 0.024634946 0.57777178
-0.24474405 0.02536843 0.57553822
-0.23484956 0.025054909 0.57328218
-0.22550635 0.025807686 0.57118881
-0.21836706 0.028485136 0.57023638
-0.24351968 0.034289375 0.57819861
-0.23473035 0.035055801 0.57634979
-0.2247151 0.034898799 0.57379246
-0.2149478 0.034863837 0.57149714
-0.20601307 0.036869057 0.57070297
-0.19997269 0.039865203 0.57006532
-0.24086621 0.041257836 0.57907259
-0.23480971 0.044789165 0.57738823
-0.22462074 0.0446468 0.57418835
-0.21491216 0.04449556 0.572258
-0.20583653 0.044773292 0.5714249
-0.19997185 0.043580268 0.57006496
-0.23386663 0.054892283 0.57729578
-0.22458926 0.055121772 0.57411605
-0.21500766 0.054967027 0.572519
-0.20573875 0.054879472 0.57163632
-0.19967148 0.057400245 0.57006365
-0.23295207 0.062594034 0.57816917
-0.22518677 0.065095574 0.57628983
-0.21483912 0.064782314 0.57435846
-0.20454542 0.065236822 0.57241517
-0.19760579 0.065909773 0.57039583
-0.2232046 0.073862709 0.57790637
-0.21482666 0.074825957 0.57604092
-0.20544879 0.074972436 0.57452458
-0.19546881 0.075123079 0.57180411
-0.18783891 0.077030137 0.57018471
-0.22123373 0.081254832 0.57906538
-0.21465208 0.083989866 0.57791007
-0.20540592 0.0852523 0.57549071
-0.19529258 0.084887646 0.57257193
-0.18583065 0.085455872 0.57085848
-0.17812122 0.088566557 0.5703069
-0.21048319 0.090986133 0.5785625
-0.20367953 0.093505427 0.57756108
-0.19474319 0.095150486 0.57624841
-0.18490385 0.094808139 0.57443595
-0.1760176 0.09441793 0.57227027
-0.19271104 0.10455346 0.57836241
-0.18510067 0.10502822 0.5770089
-0.17805049 0.10418452 0.57584494
-0.19154008 0.11194101 0.57905722
-0.18399478 0.11350513 0.57805562
-0.17894459 0.11225365 0.57705486
-0.32235166 -0.051343948 0.58009577
-0.32247713 -0.044879541 0.5805952
-0.31993067 -0.044086438 0.5800947
-0.32289749 -0.034802504 0.58162773
-0.31971258 -0.035013903 0.5800938
-0.32333782 -0.024418369 0.58455181
-0.31548846 -0.024203734 0.58180171
-0.30503049 -0.023152752 0.5805186
-0.2977483 -0.022418117 0.58008868
-0.32354805 -0.014799428 0.58805102
-0.31467938 -0.015077349 0.58488518
-0.3052668 -0.015429054 0.58282745
-0.29672724 -0.014990523 0.58093971
-0.32328311 -0.0051745554 0.58848304
-0.31488198 -0.0048241722 0.5861854
-0.30491796 -0.0048115165 0.58465981
-0.29505244 -0.0045611602 0.58265066
-0.28625217 -0.0018647499 0.58079898
-0.32187518 0.0037074697 0.58880502
-0.31483519 0.0050097555 0.58720356
-0.30499122 0.0051079239 0.58627176
-0.2948885 0.005094524 0.5849191
-0.28503197 0.0048807086 0.58236516
-0.27751586 0.0058946498 0.58031768
-0.31207806 0.011113675 0.58868819
-0.30450433 0.013127389 0.58816659
-0.29493186 0.014832812 0.58708471
-0.28493944 0.014918082 0.58451885
-0.27483398 0.014825592 0.5820114
-0.26539239 0.015476362 0.58113337
-0.25943279 0.017139666 0.58007812
-0.29212475 0.0216258 0.58883363
-0.28451657 0.0246091 0.58766276
-0.2749311 0.025043797 0.58548021
-0.26524737 0.024685474 0.58256221
-0.25805834 0.025659226 0.58038962
-0.28332403 0.034257133 0.58830822
-0.27539089 0.034927536 0.58669841
-0.2649737 0.034763779 0.58395851
-0.25502139 0.035186864 0.58148116
-0.24736725 0.037051793 0.58015746
-0.28165868 0.044501275 0.58907968
-0.27545264 0.044733871 0.58731389
-0.26509285 0.044982802 0.58457655
-0.25499186 0.045265488 0.58202714
-0.24550605 0.045346998 0.58067304
-0.23976812 0.04964526 0.58007163
-0.27358162 0.052056223 0.58813626
-0.26469979 0.054735221 0.58689386
-0.25488454 0.055304334 0.5849387
-0.24506968 0.055268295 0.58223331
-0.2395149 0.054937541 0.58007103
-0.26191187 0.061680421 0.58907455
-0.25444785 0.064599857 0.58784699
-0.24474993 0.064628311 0.58442396
-0.2363006 0.066277042 0.58115286
-0.25303206 0.074002802 0.58836341
-0.24522196 0.075191602 0.58677292
-0.23522462 0.07479655 0.58309966
-0.22751011 0.076593302 0.58049548
-0.24274264 0.084013812 0.58844399
-0.23483542 0.084711514 0.58574402
-0.22516187 0.085272118 0.5818435
-0.21770756 0.087997325 0.58039743
-0.24040729 0.0911071 0.58906794
-0.23441064 0.094867229 0.58755302
-0.22449565 0.09521202 0.584701
-0.21526636 0.094669633 0.58206308
-0.20614114 0.097717531 0.58072782
-0.23261254 0.10411639 0.58834308
-0.22466926 0.10488552 0.58652538
-0.21477656 0.1047985 0.58408582
-0.20484012 0.10514547 0.58181024
-0.19764115 0.10549453 0.58012557
-0.23118955 0.11029948 0.58906448
-0.22501791 0.11494939 0.58822513
-0.21519035 0.11485769 0.58582586
-0.2052097 0.11445507 0.582865
-0.19548072 0.1154567 0.5813396
-0.18648942 0.11751995 0.58034146
-0.22223258 0.12368364 0.58861721
-0.21418338 0.12474874 0.58708632
-0.20482649 0.12502934 0.58612984
-0.19523177 0.12585835 0.58568811
-0.18707691 0.12302145 0.58284104
-0.21394792 0.13231111 0.58837187
-0.20556018 0.13488461 0.58768255
-0.19628181 0.13269235 0.5870561
-0.20661357 0.14100508 0.58905721
-0.32697427 -0.0033158776 0.59009218
-0.32534933 0.0059999791 0.59066999
-0.31928065 0.0089877052 0.59008968
-0.33029348 0.019957429 0.59609067
-0.32498077 0.015308833 0.59329522
-0.31533229 0.015774978 0.59133834
-0.30577898 0.018324887 0.59035307
-0.29851297 0.019750133 0.59008497
-0.33130997 0.024408156 0.59849048
-0.32465985 0.025112227 0.59733915
-0.31498215 0.02548526 0.59536016
-0.30513769 0.025171151 0.5929386
-0.2952674 0.025598591 0.59080261
-0.28851295 0.02820777 0.59008241
-0.31360322 0.03227352 0.5988366
-0.30466959 0.034746278 0.59661806
-0.29435554 0.034777462 0.59228283
-0.28763971 0.036440995 0.59023535
-0.30390081 0.044749603 0.59739393
-0.29490271 0.045041963 0.59336311
-0.28620097 0.0455616 0.59052026
-0.30342731 0.05494225 0.59841591
-0.29508513 0.05486989 0.59533924
