# .PCD v0.7 - Point Cloud Data file format
VERSION 0.7
FIELDS x y z
SIZE 4 4 4
TYPE F F F
COUNT 1 1 1
WIDTH 1384
HEIGHT 1
VIEWPOINT 0 0 0 1 0 0 0
POINTS 1384
DATA ascii
-0.074757203 -0.064803578 0.50513661
-0.066082142 -0.065785423 0.50871664
-0.059491068 -0.068564616 0.50955629
-0.091144711 -0.056408495 0.50015849
-0.085104674 -0.055120997 0.50206
-0.075052015 -0.054858997 0.50628614
-0.067946225 -0.055748865 0.50930268
-0.09354756 -0.043173466 0.50108898
-0.085002646 -0.044958737 0.50267029
-0.074686021 -0.045201849 0.50595498
-0.067778096 -0.044865098 0.50917619
-0.10039868 -0.03490876 0.50031602
-0.095245197 -0.035033248 0.50225741
-0.085240461 -0.035083141 0.50485218
-0.075335965 -0.03511646 0.50698161
-0.065886132 -0.03442489 0.50904131
-0.058697313 -0.032188237 0.50982213
-0.094823763 -0.025165128 0.5013113
-0.084983371 -0.024945818 0.50376129
-0.074992053 -0.024965491 0.50622666
-0.065390989 -0.024900936 0.50850767
-0.059798837 -0.029534481 0.50939739
-0.10208625 -0.014316012 0.50071841
-0.094897814 -0.014854853 0.50241834
-0.085074462 -0.015032413 0.50503659
-0.074924745 -0.014803911 0.507402
-0.066126853 -0.016239619 0.50894135
-0.10322119 -0.0049343556 0.50107461
-0.094549917 -0.0051925676 0.50310314
-0.084735945 -0.0050717033 0.50550574
-0.075346261 -0.0045981575 0.5082826
-0.069100425 -0.0055901292 0.50979769
-0.10235069 0.0045510628 0.50086194
-0.095071614 0.0048044412 0.50276321
-0.084772259 0.0050012567 0.5049004
-0.074989602 0.0047918088 0.50797862
-0.068643972 0.0039511714 0.50983065
-0.10203391 0.014514998 0.5006181
-0.094899163 0.015192778 0.50260043
-0.085173294 0.015121603 0.50590301
-0.076768532 0.014407787 0.50876313
-0.10190501 0.023222087 0.50045264
-0.095114395 0.025003869 0.50184727
-0.085079513 0.025103142 0.50495976
-0.076177783 0.025656531 0.50834268
-0.10022342 0.031869859 0.50001001
-0.093588822 0.034012005 0.50075322
-0.084816866 0.034954727 0.50371921
-0.075637348 0.034742527 0.50784224
-0.069794357 0.03219495 0.50975478
-0.082080968 0.040961649 0.50572258
-0.077342175 0.041632574 0.50865662
-0.034503177 -0.26051629 0.510342
-0.033669613 -0.2541433 0.51160991
-0.026062947 -0.25302291 0.51502967
-0.01775977 -0.2504586 0.51746649
-0.040355906 -0.24598201 0.51032698
-0.034588799 -0.24522679 0.51248348
-0.025319899 -0.24526447 0.51603466
-0.015352644 -0.24474332 0.51780248
-0.0084191188 -0.24257317 0.51939523
-0.041558061 -0.23203997 0.51027781
-0.03486317 -0.23488963 0.51166743
-0.025618637 -0.23519839 0.51494074
-0.015101249 -0.23504664 0.51663524
-0.0057191337 -0.23445724 0.51855534
3.8713217e-05 -0.23228526 0.51997375
-0.041482627 -0.22658914 0.51053584
-0.034947351 -0.22487588 0.51227206
-0.025125965 -0.22494449 0.51481891
-0.014864968 -0.22478497 0.51668501
-0.0052977642 -0.22552085 0.51854098
0.00033874065 -0.225851 0.5197866
-0.041083477 -0.21377815 0.51029778
-0.035240225 -0.21492766 0.51204818
-0.02496493 -0.21501359 0.51568937
-0.015652277 -0.2152461 0.51878506
-0.0411787 -0.20621681 0.51022768
-0.035243042 -0.2050132 0.51228809
-0.024985597 -0.20504414 0.5156945
-0.015241103 -0.20508148 0.51868629
-0.0099144429 -0.20252305 0.51988101
-0.042746216 -0.19291788 0.51042336
-0.035005156 -0.19490106 0.51202065
-0.025020305 -0.19519988 0.51557535
-0.016640626 -0.19534138 0.51887918
-0.04442108 -0.18481888 0.51129425
-0.034966975 -0.18497543 0.5142532
-0.025029432 -0.18512355 0.51687813
-0.017644087 -0.18569517 0.51905775
-0.052321188 -0.17359665 0.5105558
-0.045172468 -0.17514001 0.51221424
-0.035034381 -0.17505024 0.51572907
-0.025459863 -0.17532663 0.51882768
-0.019431978 -0.17002738 0.51991791
-0.052893165 -0.16549064 0.51084512
-0.045006163 -0.1650874 0.51294309
-0.034962561 -0.16524346 0.51548535
-0.025048006 -0.16486205 0.51804727
-0.017816771 -0.16357514 0.51949877
-0.0522369 -0.15574427 0.51033562
-0.044992749 -0.15502 0.51180416
-0.035004403 -0.15490201 0.51431423
-0.025306044 -0.15478668 0.51662755
-0.016032917 -0.15451539 0.51877224
-0.0078300703 -0.15508236 0.51979792
0.0032245517 -0.15210833 0.51968759
-0.051607445 -0.14408724 0.51036304
-0.044804495 -0.14504823 0.51179737
-0.034970388 -0.14475401 0.51491988
-0.024917545 -0.14485909 0.51687562
-0.015921043 -0.14512818 0.51872849
-0.053556401 -0.13464923 0.51129812
-0.044930685 -0.13499169 0.51369613
-0.035266209 -0.135443 0.51680189
-0.025007688 -0.13509949 0.51844907
-0.016245957 -0.13477635 0.51921386
-0.009448518 -0.13306575 0.51960969
-0.053474482 -0.12504235 0.51158905
-0.044981614 -0.12494322 0.51508427
-0.035089005 -0.12504187 0.51739144
-0.02486036 -0.12496728 0.51769853
-0.015535693 -0.12520745 0.51746547
-0.0078589618 -0.12546898 0.51683891
-0.052019343 -0.11712793 0.51104259
-0.04477581 -0.11522169 0.51365012
-0.035593014 -0.11511948 0.5181756
-0.024188122 -0.11756298 0.51905578
-0.01648123 -0.11801097 0.51795524
-0.043120991 -0.10557113 0.5106039
-0.035015658 -0.10521618 0.51400906
-0.044085808 -0.094525702 0.51170731
-0.03511611 -0.095293991 0.51523507
-0.029101482 -0.097382903 0.51701015
-0.064216666 -0.08529707 0.51018822
-0.054898906 -0.08440917 0.51044905
-0.044652108 -0.085232861 0.51170278
-0.03617226 -0.084845781 0.51489413
-0.053581417 -0.075110629 0.51042801
-0.044909541 -0.074937113 0.5120427
-0.035975978 -0.07541611 0.51422566
-0.062246323 -0.062367465 0.51053661
-0.054978125 -0.064845107 0.51165587
-0.044772167 -0.065154091 0.51388204
-0.035780888 -0.064899035 0.51748008
-0.02961275 -0.062057108 0.5197618
-0.063267559 -0.05472878 0.51107645
-0.055095635 -0.055049442 0.51335144
-0.0450802 -0.055076163 0.51542038
-0.034853842 -0.055101346 0.51754427
-0.028797513 -0.053808905 0.51948428
-0.013263859 -0.051900178 0.51935148
-0.062989838 -0.04535982 0.51111686
-0.054751705 -0.045064617 0.51288104
-0.044936661 -0.044952359 0.51478565
-0.034888841 -0.044775777 0.51694602
-0.028642053 -0.044935856 0.51930028
-0.061849944 -0.037982035 0.51041967
-0.054691296 -0.035181232 0.51114297
-0.044814009 -0.035014149 0.51315212
-0.034790587 -0.034781028 0.51655102
-0.027987693 -0.03450954 0.51912081
-0.060993236 -0.023238475 0.51022106
-0.054964505 -0.024817687 0.51181501
-0.044990361 -0.025135482 0.51448256
-0.034982245 -0.024874955 0.51688421
-0.027186008 -0.025039924 0.51902664
-0.062658288 -0.013254521 0.51070321
-0.055091832 -0.015195198 0.51318389
-0.044893853 -0.014994632 0.51659811
-0.035584979 -0.015513904 0.51878536
-0.028614566 -0.017883493 0.51957196
-0.070701934 -0.0050325282 0.51018935
-0.064401649 -0.0050299573 0.51154399
-0.055118993 -0.005040091 0.51446372
-0.044960376 -0.0050690603 0.51719511
-0.037321117 -0.003951028 0.5193615
-0.070934102 0.0049117422 0.51003295
-0.064742163 0.0050876359 0.51142305
-0.055198945 0.00493593 0.51366442
-0.044810168 0.0048937509 0.51557946
-0.034916576 0.0052982038 0.51832831
-0.028638789 0.007811287 0.51981044
-0.07213714 0.015748361 0.51061541
-0.065164268 0.014897521 0.51208872
-0.054893415 0.015048845 0.51389229
-0.044893268 0.014952734 0.51607132
-0.035634976 0.014270686 0.51861787
-0.028906763 0.010756118 0.51944965
-0.071647391 0.023662204 0.5106653
-0.064984053 0.025039934 0.51215148
-0.054841377 0.024970805 0.51403153
-0.045012314 0.025096387 0.51642668
-0.036794569 0.025133204 0.51884341
-0.071063153 0.036170069 0.51055378
-0.065153651 0.034874089 0.51262969
-0.055028703 0.034855425 0.51502401
-0.045233533 0.035017472 0.51699805
-0.036461193 0.034566913 0.51900697
-0.073336825 0.0418684 0.51108462
-0.064343452 0.042301912 0.51405138
-0.05445493 0.043306153 0.51557416
-0.044760372 0.04502603 0.51622587
-0.036574192 0.045205574 0.5184235
-0.042309687 0.050816778 0.51548207
-0.03494437 0.053737458 0.51850927
-0.0049019605 -0.24193269 0.52053374
-0.0015417561 -0.23767468 0.52074093
0.0044611259 -0.23377231 0.52228814
0.013553663 -0.23122835 0.52501333
-0.0036196543 -0.22102094 0.52070564
0.0050333603 -0.22471242 0.52238268
0.014849443 -0.22490995 0.52641314
0.022023294 -0.22584386 0.52800161
-0.011024303 -0.21544152 0.52031547
-0.0050996342 -0.21519059 0.52174538
0.0050693187 -0.21538484 0.52372372
0.013627333 -0.21579248 0.52689064
-0.010576159 -0.20363435 0.52010441
-0.0048235371 -0.2048562 0.52113718
0.0049018161 -0.20498487 0.52327174
0.013589359 -0.20470962 0.52493894
-0.011963749 -0.19419916 0.5208081
-0.0048313295 -0.19508387 0.52265143
0.0043248762 -0.19550715 0.52553689
0.011890496 -0.197984 0.52633929
-0.013202163 -0.18420742 0.52093393
-0.004996981 -0.18518643 0.5228973
0.0040481668 -0.18459024 0.52487493
-0.021303296 -0.17453343 0.52033323
-0.014823541 -0.17509383 0.5215891
-0.0052660778 -0.17471892 0.52349317
0.0043743569 -0.17545611 0.52351224
-0.013536944 -0.16593422 0.52138895
-0.0064993147 -0.16522616 0.52375996
0.0052584633 -0.16663289 0.52346301
-0.011405941 -0.1553102 0.52043855
-0.0048674159 -0.15507348 0.52080101
0.0014624782 -0.15530087 0.52110565
-0.011281255 -0.14459454 0.52047759
-0.0078014415 -0.14543001 0.52115589
-0.012268777 -0.13748588 0.52058566
-0.0082471725 -0.13595298 0.5206005
-0.031552549 -0.11255512 0.52064735
-0.026890578 -0.11386894 0.52095282
-0.016141415 -0.11492527 0.52001554
-0.030923307 -0.062505163 0.52010953
-0.028382057 -0.061472546 0.5209651
-0.024771066 -0.054866277 0.5214749
-0.018633747 -0.052710872 0.522008
-0.023755942 -0.044927094 0.52141982
-0.015348296 -0.044481903 0.52333522
-0.0057410141 -0.041948911 0.52463686
0.003563273 -0.041634478 0.52167958
-0.02327673 -0.035239067 0.52150875
-0.014937116 -0.035236057 0.52422792
-0.0049210321 -0.034917321 0.5264588
0.0047233915 -0.034793396 0.5281024
0.014691885 -0.036361508 0.52675265
-0.02244262 -0.025467569 0.52109152
-0.015158303 -0.025033796 0.52346313
-0.004750879 -0.025005363 0.52543896
0.0051156618 -0.025046466 0.5278756
0.011214329 -0.024295989 0.5295853
-0.031998631 -0.011787089 0.52053511
-0.024460072 -0.014747487 0.52171463
-0.014995215 -0.015083118 0.52417469
-0.0049270708 -0.014939844 0.52634025
0.0043694391 -0.015872553 0.52830702
0.010404855 -0.01808143 0.52973408
-0.03280827 -0.0053296471 0.52060175
-0.024945013 -0.0051922584 0.52261233
-0.015080557 -0.0050224336 0.52601761
-0.0061393133 -0.0058068265 0.52872074
0.00041778386 -0.0087843388 0.52965105
-0.031352758 0.0022137966 0.52012324
-0.024840321 0.0045663314 0.52196741
-0.015073163 0.00463606 0.52555758
-0.0061311009 0.0053690132 0.5285815
-0.031718016 0.017184971 0.52047879
-0.024854286 0.01486925 0.52232885
-0.014957296 0.014937416 0.5256266
-0.0047925152 0.014798054 0.52825987
0.00084602833 0.014810652 0.52971894
-0.031900004 0.024729347 0.52050215
-0.025027649 0.024939911 0.52215666
-0.015255389 0.024972955 0.52518064
-0.0057290685 0.024822513 0.52843952
8.6814165e-05 0.023230219 0.52990246
-0.031768456 0.035756938 0.52042598
-0.024811935 0.03516075 0.52187854
-0.0149104 0.034977857 0.52505928
-0.0052790549 0.034845967 0.52848977
-0.032298181 0.04398695 0.52048868
-0.024992486 0.045259856 0.52216864
-0.015126622 0.045142766 0.52624494
-0.0073037175 0.04387622 0.52927911
-0.031265203 0.05577971 0.52040881
-0.025174107 0.055057213 0.52182859
-0.014809639 0.054879885 0.5249632
-0.0070102257 0.056076001 0.52831978
-0.030606583 0.061405055 0.52127069
-0.024185723 0.062765978 0.52358007
-0.015226271 0.063711628 0.52547377
-0.0039897668 0.06293954 0.52714396
0.0028303452 0.066187859 0.52885348
0.081503309 -0.19120808 0.53889465
0.081490688 -0.18705133 0.53935975
0.080309689 -0.15467717 0.53949642
0.074621722 -0.14530969 0.53798938
0.08070527 -0.14600559 0.53984332
0.074509665 -0.13507207 0.53816891
0.080475383 -0.1372298 0.53975946
0.07358478 -0.1148018 0.53877109
0.047114577 -0.093350671 0.53172469
0.045562439 -0.085122161 0.53252953
0.055129047 -0.08483617 0.53469259
0.015739448 -0.031978808 0.53099597
0.024236223 -0.03215155 0.53136414
0.032332655 -0.031138055 0.53109187
0.015970021 -0.025084686 0.53194714
0.025080275 -0.024961233 0.534563
0.034835309 -0.024680777 0.53663421
0.044521637 -0.025894325 0.53584677
0.0078394013 -0.012562471 0.53078371
0.015176935 -0.015002457 0.53244406
0.024775393 -0.015068394 0.53588933
0.035012234 -0.01503884 0.53862196
0.041628629 -0.013656648 0.53976929
0.058362812 -0.019996941 0.53941232
-0.0021606134 -0.0031885614 0.5307259
0.0050183344 -0.0049985186 0.53213155
0.014800917 -0.0049617384 0.5339759
0.025033981 -0.0049851369 0.53616971
0.03486789 -0.0051726229 0.53867346
0.041247789 -0.00530528 0.53975999
-0.0016259452 0.0034495934 0.53090918
0.0050150175 0.0050317459 0.53259045
0.015075485 0.0049643475 0.53475899
0.025054587 0.0050140652 0.53723878
0.033497404 0.0034725266 0.53935707
0.0057019712 0.014743965 0.53175545
0.014952417 0.014875297 0.53514171
0.024849141 0.014752504 0.537983
0.032136142 0.015908575 0.53939617
-0.00065568089 0.026625866 0.53040236
0.0050564837 0.024697073 0.53233266
0.015078354 0.024811691 0.53571033
0.02457027 0.024972862 0.5384748
0.032624893 0.024752975 0.53962308
-0.00034561753 0.034178115 0.53015417
0.004747733 0.034765013 0.53289396
0.015077404 0.034970146 0.53608453
0.024583412 0.034934081 0.53844696
0.031894684 0.033283774 0.53943384
-0.0034457084 0.046218533 0.53129482
0.005366093 0.044690531 0.53355914
0.014830611 0.044964705 0.53767127
0.021662131 0.043832202 0.53966665
-0.003142904 0.054204475 0.53149074
0.005001877 0.054851916 0.53418338
0.014927105 0.054934599 0.53705603
0.023842141 0.055768125 0.53885555
0.031033596 0.058916215 0.53986806
0.006413898 0.063908435 0.53224134
0.015059432 0.065211773 0.53544545
0.025139835 0.064957671 0.53829777
0.032163773 0.065684505 0.53955197
0.0090104043 0.070356429 0.53067774
0.016354449 0.073214263 0.53387588
0.024816837 0.074848622 0.53720784
0.03335325 0.075381853 0.53923255
0.019647002 0.081133693 0.53361309
0.025562536 0.082194641 0.53599107
0.033580337 0.081152633 0.53898585
0.08526706 -0.18395035 0.54146868
0.09367121 -0.18259706 0.54388851
0.10013843 -0.18048024 0.54726261
0.078206718 -0.17412174 0.5412491
0.085089453 -0.17507498 0.54380178
0.09512724 -0.17512265 0.54682022
0.1022371 -0.17598058 0.54914016
0.078388095 -0.16607484 0.54112297
0.084881574 -0.1650082 0.54501694
0.093756169 -0.16550523 0.54866374
0.079673618 -0.1550132 0.54029518
0.084965877 -0.15512474 0.54392868
0.094517149 -0.15455554 0.54859817
0.10093278 -0.1550605 0.54988861
0.078647763 -0.1436294 0.54011762
0.085234076 -0.14511991 0.54220206
0.094986327 -0.14496534 0.54669952
0.10323092 -0.14345483 0.54885602
0.079474516 -0.13505252 0.54015791
0.085092075 -0.13492528 0.5415433
0.094766453 -0.13491394 0.54442155
0.10436182 -0.13549577 0.54718822
0.078909695 -0.12210886 0.54044068
0.084799521 -0.1250874 0.54199708
0.094880648 -0.12493665 0.54423183
0.078624442 -0.11506057 0.5407871
0.085118413 -0.11504459 0.54283458
0.094654717 -0.11504606 0.54549611
0.078378074 -0.10484579 0.54093474
0.085036017 -0.10509192 0.54365903
0.093024038 -0.10523201 0.54710203
0.078331046 -0.095044903 0.54074764
0.084942788 -0.094912134 0.54385263
0.091306433 -0.09592469 0.5466001
0.090136893 -0.085305221 0.54558486
0.039653271 -0.020048669 0.54002678
0.044707067 -0.021540759 0.54094148
0.052437946 -0.020561839 0.54087043
0.045299083 -0.015248421 0.54132771
0.054831307 -0.01456783 0.54324043
0.063885063 -0.013890366 0.54383892
0.039472699 -0.0019405298 0.54001468
0.04581828 -0.0046961829 0.54159999
0.055170484 -0.0049169715 0.54457235
0.06512399 -0.0050189006 0.54741102
0.073720336 -0.0062692072 0.54797971
0.036705207 0.0067654955 0.54099578
0.045192484 0.0049768845 0.54299325
0.055091944 0.0048549194 0.54593354
0.064741105 0.0046706172 0.54846418
0.070740342 0.0029071006 0.54975152
0.036559269 0.014394017 0.54087061
0.044664428 0.015178415 0.54366702
0.054829199 0.014966412 0.54622632
0.063315801 0.015114494 0.54835701
0.036957026 0.025548641 0.54064041
0.045149747 0.024933502 0.54317743
0.055213973 0.025164593 0.54675007
0.062419228 0.023239717 0.54895246
0.02754136 0.039327115 0.54030067
0.036199875 0.035497285 0.5411669
0.045156568 0.034909789 0.54304695
0.054814689 0.034861244 0.5469842
0.060596783 0.035826284 0.54964024
0.019203156 0.045612276 0.54030961
0.025549384 0.045430202 0.54122865
0.03537868 0.044756565 0.54258937
0.045054954 0.045279063 0.54489255
0.054507259 0.044816885 0.54825634
0.027598869 0.052706599 0.54073739
0.035071362 0.054916508 0.54216862
0.044819836 0.05511542 0.54539257
0.054687656 0.055079423 0.54838669
0.061186772 0.055491287 0.5496937
0.03694566 0.064506389 0.54115826
0.045054834 0.065032423 0.54470474
0.054733925 0.064979799 0.54829484
0.061858088 0.062898181 0.54976004
0.03817632 0.074526004 0.54076171
0.045213237 0.074922547 0.54338956
0.05476401 0.075071365 0.54772723
0.060548067 0.071652874 0.54985183
0.038904198 0.0823128 0.54056287
0.045519922 0.081345931 0.54315764
0.054494299 0.083415613 0.5478304
0.1056518 -0.17294399 0.55050433
0.11281531 -0.17164336 0.55076993
0.097805053 -0.16436668 0.55053735
0.10482636 -0.16522491 0.55133373
0.11534251 -0.16503251 0.55137885
0.1217195 -0.16524614 0.55315667
0.098888934 -0.15667187 0.55029327
0.10528265 -0.15492183 0.55092454
0.11516286 -0.15501112 0.55093724
0.12014176 -0.15470356 0.55080479
0.10676105 -0.14625061 0.55088961
0.11530607 -0.14641543 0.5521822
0.12787694 -0.14328244 0.55586624
0.13550979 -0.14314568 0.55709571
0.14214692 -0.13460706 0.55826366
0.14122827 -0.12884054 0.55870754
0.12916875 -0.091543838 0.55672735
0.1254701 -0.084811963 0.55553657
0.12295819 -0.074988492 0.55532908
0.11722454 -0.063974321 0.5546658
0.12055726 -0.068341374 0.55713695
0.11431573 -0.054737698 0.55549115
0.10602418 -0.044189449 0.55356532
0.11268289 -0.046305936 0.55788052
0.10615502 -0.035111342 0.55531919
0.11047709 -0.031576358 0.5597598
0.099353097 -0.021327808 0.55098116
0.1051208 -0.02490711 0.55541199
0.11060854 -0.026773021 0.55955732
0.097429208 -0.014239993 0.55368686
0.10321908 -0.015460216 0.55808967
0.076351933 -0.0026317704 0.5510878
0.085466787 -0.0031149643 0.55292851
0.094947658 -0.0051203584 0.55532366
0.10409454 -0.0046932823 0.55853647
0.068779178 0.0075076106 0.55025858
0.075432442 0.0048978627 0.55184084
0.084999979 0.0049524507 0.5543893
0.095035635 0.0048881005 0.5556531
0.1043423 0.004885206 0.55787265
0.068348154 0.014576103 0.55048752
0.075236939 0.014982112 0.55261505
0.084927119 0.015017617 0.55575842
0.094988942 0.014907592 0.55731452
0.10349659 0.014339671 0.55865598
0.06622266 0.025946332 0.55103379
0.075065278 0.024993107 0.55276912
0.08520253 0.024919527 0.55595273
0.094222382 0.024670646 0.55888098
0.10160221 0.020453928 0.55965173
0.064967707 0.034872871 0.55166113
0.074764341 0.035045959 0.5538711
0.085080929 0.035233617 0.55594307
0.092991717 0.034492265 0.55862886
0.058653463 0.04521231 0.55017143
0.065120421 0.045118429 0.5514586
0.075123578 0.044856764 0.55367851
0.085195385 0.045141112 0.55683452
0.091326028 0.045314271 0.55927438
0.059348255 0.055303134 0.55003029
0.065553002 0.054833636 0.55148447
0.074827991 0.054966401 0.55381972
0.08488261 0.054943487 0.55600095
0.091781959 0.055257868 0.55873793
0.058977425 0.068232149 0.5502035
0.06566757 0.065000847 0.55133587
0.075128697 0.064985603 0.55384254
0.085116513 0.065181769 0.55701542
0.092328586 0.064345017 0.55940425
0.059484035 0.074501552 0.55016667
0.065054432 0.075201899 0.55153263
0.075291112 0.074903592 0.55375391
0.085040309 0.075025305 0.55700213
0.09128084 0.07542903 0.55944186
0.059138112 0.085263245 0.55048841
0.064805105 0.084858991 0.5527299
0.074728042 0.085001715 0.55532676
0.085072652 0.084896363 0.5570547
0.092991151 0.085490495 0.55897081
0.068532944 0.092942022 0.55518937
0.07451655 0.094659418 0.55771178
0.085507959 0.094381787 0.55882263
0.093968049 0.094781078 0.55925876
0.072826155 0.10120374 0.55911469
0.094702266 0.10210834 0.55969042
0.14976996 -0.15044564 0.56158227
0.15037864 -0.15013584 0.56379193
0.14828755 -0.14361918 0.56168449
0.15328531 -0.14451167 0.56704354
0.14683183 -0.13495317 0.56345576
0.15301223 -0.13531961 0.56816214
0.13934168 -0.12295656 0.56125855
0.1447974 -0.12515068 0.56567311
0.15294434 -0.12524849 0.56877637
0.13900261 -0.11394002 0.56244344
0.14460881 -0.11511964 0.5673008
0.15236087 -0.11758237 0.56965137
0.1372779 -0.10473109 0.56411952
0.14346153 -0.10529617 0.56847489
0.12906365 -0.091090873 0.56122714
0.13505498 -0.094746493 0.56464481
0.14317514 -0.094895475 0.56871492
0.12751921 -0.08483617 0.56297982
0.13502783 -0.085117377 0.5668121
0.14298575 -0.085448556 0.56919885
0.12656628 -0.074840292 0.56277341
0.1349677 -0.075058445 0.56654537
0.14295644 -0.074899003 0.56914073
0.1193724 -0.062422525 0.56071293
0.12477692 -0.065152504 0.56371886
0.13492131 -0.065070413 0.56736743
0.14201324 -0.065920822 0.56924969
0.1188575 -0.055124175 0.56090355
0.12482677 -0.055014521 0.56411898
0.13460079 -0.054989431 0.56832999
0.14158735 -0.059442304 0.56986374
0.11698193 -0.044366214 0.56147689
0.1248996 -0.045151237 0.5647397
0.13498311 -0.044958044 0.56840992
0.14198115 -0.042806089 0.56972581
0.10979113 -0.035991352 0.56077242
0.11488642 -0.035091858 0.56232238
0.1249605 -0.035077762 0.56510466
0.13494502 -0.034922887 0.56779867
0.14203721 -0.034861114 0.56964439
0.10914522 -0.021422805 0.56065935
0.11525991 -0.024858844 0.56242865
0.12505092 -0.024959417 0.56528872
0.13461691 -0.024903499 0.56813157
0.1415078 -0.026999511 0.56950343
0.10803177 -0.014542748 0.56040776
0.11481032 -0.015158991 0.56319809
0.12508078 -0.014980825 0.56598562
0.13253064 -0.015257829 0.56869113
0.10867447 -0.0059602419 0.56049001
0.11497283 -0.0049450332 0.56262779
0.12531702 -0.0049849683 0.56562543
0.13378957 -0.0041311951 0.56880856
0.14020064 -0.0016975664 0.56965119
0.10896947 0.0058655068 0.56059724
0.11498293 0.0049487068 0.56298083
0.12496731 0.0050763893 0.5668236
0.13390088 0.0041260999 0.56946927
0.14059742 0.0013334876 0.56973648
0.10785613 0.015458626 0.56095499
0.11485026 0.015014343 0.5641346
0.12508382 0.014823807 0.56792855
0.13173635 0.01478126 0.56972557
0.098042786 0.02669975 0.56058758
0.10515151 0.02488425 0.56186897
0.11508705 0.024971474 0.56529456
0.12495444 0.024843937 0.5682683
0.13175867 0.023735097 0.56973016
0.097702816 0.035727091 0.56078631
0.10497855 0.034684014 0.5624842
0.11498171 0.035186965 0.56508714
0.12450908 0.035119485 0.56846166
0.13001233 0.038537167 0.56997299
0.096020676 0.045055319 0.56113994
0.10495144 0.04497806 0.56222641
0.11507428 0.045022987 0.56425917
0.12495402 0.045059636 0.56741703
0.13117778 0.04612802 0.56929469
0.096751325 0.05496005 0.56102288
0.10508431 0.054997899 0.56294316
0.1151216 0.055061702 0.5654723
0.12495386 0.054819439 0.56775451
0.13175178 0.054562289 0.56933343
0.096832596 0.065218508 0.56079143
0.10526799 0.064919904 0.56267732
0.11509816 0.064994581 0.56599534
0.12469024 0.064650781 0.56864202
0.13034736 0.064252615 0.56984884
0.096103095 0.074942663 0.56106615
0.10513619 0.07498797 0.56313139
0.11480463 0.074888229 0.56582677
0.12465567 0.075118035 0.56840384
0.13077942 0.078019492 0.56991112
0.097517878 0.084168881 0.56092435
0.10496028 0.08506646 0.56331176
0.11507587 0.085054673 0.56633806
0.12453965 0.08461149 0.56848085
0.13014865 0.082145706 0.56983745
0.078875318 0.09792807 0.56009203
0.083128698 0.098505341 0.56016082
0.09785296 0.094863042 0.56038266
0.10524741 0.094990775 0.56244022
0.11468284 0.095018357 0.56737125
0.12281963 0.092651367 0.5695188
0.077812918 0.10285539 0.56077677
0.083980955 0.1025499 0.56085676
0.098027825 0.10276216 0.56064284
0.10570703 0.10415592 0.56261659
0.11478353 0.10500891 0.56707555
0.12099198 0.10568593 0.56945306
0.10918686 0.1116766 0.56500876
0.11606691 0.11441106 0.56771094
0.12143143 0.115326 0.56963146
0.11766699 0.12167107 0.56864566
0.12203635 0.1236043 0.56961173
0.12645659 0.13065769 0.56922579
0.15876053 -0.14282639 0.57039928
0.16255939 -0.1417184 0.57185185
0.1578532 -0.13460195 0.57120162
0.16502337 -0.13503227 0.57356191
0.17425111 -0.13327411 0.5766353
0.18132479 -0.13105084 0.57879919
0.15775611 -0.1247322 0.57113677
0.16484962 -0.12484387 0.57458347
0.1747783 -0.12512054 0.57747
0.18196246 -0.12523168 0.57941639
0.14925602 -0.11138607 0.57035792
0.15573622 -0.11444352 0.57137454
0.16485412 -0.11498359 0.57483721
0.17525682 -0.11492895 0.57694644
0.18404597 -0.11484718 0.57905734
0.14823833 -0.10428494 0.57067651
0.15497051 -0.10528648 0.57241797
0.16485661 -0.10493167 0.57481241
0.17507717 -0.10497752 0.57633424
0.18329868 -0.10521184 0.57871813
0.14789359 -0.095089905 0.57095331
0.15486187 -0.095196426 0.57276404
0.16499749 -0.094994694 0.57416487
0.17513843 -0.094919316 0.5765028
0.18194786 -0.095249072 0.57900912
0.14764085 -0.08441221 0.57110715
0.15499252 -0.085161015 0.57354796
0.16487889 -0.085087523 0.57469225
0.17505974 -0.085112661 0.57631552
0.18201722 -0.083745524 0.57897455
0.14780138 -0.075072519 0.57099086
0.15479755 -0.075066909 0.57385039
0.16515234 -0.074955016 0.5747304
0.1749669 -0.074956 0.57613087
0.18315049 -0.074823342 0.57841384
0.14635612 -0.064489588 0.57130271
0.15493546 -0.065026842 0.57315266
0.16514079 -0.065073147 0.57549298
0.17492557 -0.065234259 0.57847553
0.18243879 -0.067394376 0.57932001
0.13928093 -0.05530566 0.57016468
0.14515251 -0.054761458 0.57149369
0.15494487 -0.055078473 0.57299078
0.16521215 -0.055078249 0.57402921
0.17478375 -0.054620802 0.57723904
0.18063828 -0.052048199 0.57958615
0.14593424 -0.045487542 0.57119256
0.15508032 -0.044806499 0.57389873
0.16492033 -0.045044508 0.57606876
0.1749084 -0.045215935 0.57766533
0.18083499 -0.046193905 0.57966667
0.1466164 -0.035124779 0.57093644
0.15499014 -0.034986537 0.5736205
0.16499045 -0.03503884 0.57703531
0.1736977 -0.034777969 0.57900858
0.13943657 -0.021018328 0.57030582
0.14605579 -0.024673257 0.57122117
0.15504469 -0.024881734 0.57364786
0.16492802 -0.025091942 0.57643658
0.17424403 -0.024948832 0.57848376
0.13739569 -0.01449642 0.57070267
0.14503303 -0.015047224 0.57169759
0.15487556 -0.014948492 0.57395089
0.16466005 -0.01514836 0.57740837
0.17320871 -0.017665427 0.57922071
0.13755703 -0.0071932427 0.570409
0.14507946 -0.0050341864 0.57127339
0.15506506 -0.0050549777 0.57368982
0.16422202 -0.0050327126 0.57758969
0.1367799 0.007079686 0.57029915
0.14544035 0.0049829269 0.57157254
0.15518335 0.0049157855 0.57457936
0.16490266 0.0048479801 0.57790464
0.17098193 0.0084708603 0.57976329
0.12990835 0.015422899 0.5700959
0.13588266 0.015020294 0.57054532
0.14487462 0.015072525 0.57184452
0.15485711 0.015082228 0.5749507
0.16472225 0.01485593 0.57820362
0.17101264 0.012940955 0.57975471
0.12951231 0.029007053 0.5702123
0.13592684 0.02542758 0.57085758
0.14504474 0.025136318 0.57279128
0.15493597 0.024886262 0.57540083
0.16464418 0.025289591 0.57821143
0.17107163 0.028572202 0.57939005
0.12893213 0.03529866 0.57024312
0.13508774 0.034904562 0.57181346
0.14500108 0.035055403 0.57451338
0.15484601 0.034973152 0.57721668
0.16511053 0.034630556 0.57869172
0.1720244 0.034663528 0.57948536
0.1285899 0.040909152 0.57007349
0.13566118 0.044718739 0.57174242
0.14474186 0.044962026 0.57479846
0.15492965 0.045185786 0.57779777
0.16196817 0.045376208 0.57955176
0.13645969 0.055138759 0.57145894
0.14483292 0.055043377 0.57498407
0.1550182 0.055001311 0.57705981
0.16250569 0.055256151 0.5791474
0.12866935 0.067461692 0.57020915
0.13534249 0.065147325 0.57183379
0.14519046 0.064981684 0.57528937
0.15520816 0.065083899 0.57744694
0.16352221 0.06467659 0.5789426
0.12898244 0.072638981 0.57022828
0.13514854 0.074986666 0.57186151
0.14485273 0.07513614 0.57476914
0.15437424 0.07464885 0.57796389
0.16138138 0.071347825 0.57959312
0.12863299 0.086582556 0.5703544
0.13519661 0.085065044 0.57237607
0.14523022 0.08508978 0.57618523
0.15326068 0.084681027 0.57889646
0.11957181 0.097856879 0.57017463
0.1259596 0.095914222 0.57102853
0.13530491 0.094954647 0.5728727
0.14495464 0.095020384 0.57607096
0.15472452 0.095019385 0.5785622
0.16129829 0.09615542 0.579759
0.11965227 0.1007971 0.57005072
0.12560186 0.10477611 0.57134682
0.13509399 0.10493767 0.57276118
0.14494625 0.10498926 0.57616937
0.15322147 0.10417187 0.57898116
0.12596826 0.11496037 0.57121557
0.13496648 0.11492243 0.57299995
0.1450571 0.11496497 0.5762226
0.15164731 0.11478903 0.57926428
0.12646139 0.12460121 0.57116681
0.13522725 0.12480951 0.57347733
0.14512788 0.12507449 0.5766927
0.15201315 0.12555054 0.57922
0.12889394 0.13124526 0.57084459
0.13788244 0.13104117 0.57357013
0.1459658 0.13174951 0.57601571
0.15319672 0.13402916 0.5783717
0.18651667 -0.12456335 0.58068925
0.19399197 -0.12219523 0.58215398
0.18847346 -0.11546061 0.58049828
0.19489928 -0.11501236 0.58246434
0.20442405 -0.11408494 0.58479649
0.21246663 -0.11183651 0.58788067
0.18793492 -0.10444842 0.58071995
0.19493601 -0.10500161 0.58328211
0.20498462 -0.10508036 0.58605462
0.21393627 -0.10490192 0.58853513
0.18680125 -0.09481585 0.58147699
0.19503562 -0.095063962 0.58422327
0.20516139 -0.095025703 0.58629841
0.21444342 -0.095220491 0.58878189
0.220415 -0.096216902 0.58990729
0.18654844 -0.085290246 0.58146441
0.19512939 -0.085058063 0.58379853
0.2050917 -0.085015051 0.58652776
0.21263948 -0.085099734 0.58894587
0.1881492 -0.075079612 0.5812428
0.19508678 -0.074947923 0.58378887
0.20488885 -0.074990146 0.58740968
0.21200903 -0.076275252 0.58934343
0.17879158 -0.06095662 0.58038628
0.18596806 -0.064373732 0.58129036
0.19506721 -0.065072097 0.58418548
0.20499507 -0.064863227 0.58767098
0.21153687 -0.064309873 0.5897333
0.17885409 -0.057303552 0.58030778
0.18518001 -0.055089723 0.58246195
0.19508688 -0.054992776 0.58533734
0.20502719 -0.055103164 0.58782315
0.2113142 -0.056993149 0.58957654
0.17846374 -0.041368261 0.58028513
0.18557295 -0.044787996 0.58224213
0.19509202 -0.044910692 0.58615738
0.20408975 -0.045340449 0.58893937
0.17827339 -0.035000138 0.580576
0.18513156 -0.035074409 0.58218342
0.19479175 -0.035048366 0.58560485
0.20404784 -0.03489935 0.58860666
0.17899381 -0.024433792 0.58051646
0.18503781 -0.025038263 0.58231306
0.19497047 -0.025019832 0.58562171
0.20419994 -0.025248051 0.58826691
0.16950534 -0.011727075 0.58047169
0.17586778 -0.013799428 0.58139604
0.18512636 -0.014976845 0.58342403
0.19505718 -0.014911049 0.58667731
0.20244506 -0.016080894 0.58905852
0.16886877 -0.0057658399 0.58033758
0.17474601 -0.0050460431 0.58253777
0.1850846 -0.0049865507 0.58451253
0.19469738 -0.0049586119 0.58774734
0.20092051 -0.0096979402 0.58957219
0.16875072 0.0029767891 0.58027661
0.17517021 0.0047411071 0.58156031
0.18497127 0.005009545 0.58424127
0.19484615 0.0051922477 0.58730793
0.2013993 0.0068635661 0.58954298
0.16915768 0.017829344 0.58025599
0.17535448 0.015140744 0.58156127
0.18510211 0.014971321 0.58433002
0.19507006 0.014987069 0.58732271
0.2026477 0.014932638 0.58928442
0.16864997 0.02186258 0.58047312
0.17523924 0.024940332 0.58161855
0.18506113 0.024899 0.58391041
0.19481815 0.024932938 0.58736628
0.20151657 0.023194751 0.58943141
0.16460699 0.039062828 0.58011287
0.17647411 0.035306841 0.58141893
0.18504402 0.034907635 0.58394307
0.19500811 0.034832519 0.58754379
0.20105873 0.036684334 0.58972335
0.15961134 0.042459156 0.58014601
0.16533916 0.045111548 0.58092469
0.17507891 0.04505581 0.5825724
0.18512577 0.045001782 0.58485597
0.1951966 0.044808436 0.587511
0.20198312 0.044472948 0.58948445
0.16725369 0.05475162 0.58099133
0.17489052 0.055040877 0.58348286
0.18495487 0.055064991 0.58618438
0.19449764 0.054736506 0.58859974
0.20052189 0.052463453 0.58976209
0.16777587 0.065390021 0.58050019
0.17504203 0.065042786 0.58294547
0.1848584 0.064835213 0.58651507
0.19458608 0.065178826 0.58886218
0.20064802 0.068650931 0.58946973
0.15882841 0.077622123 0.58080697
0.16530484 0.075133055 0.58185065
0.17516589 0.07492277 0.58404624
0.18506601 0.074847609 0.58693039
0.1949773 0.074850723 0.58871555
0.20129615 0.073759191 0.58959937
0.15782379 0.085044816 0.58062845
0.16492641 0.085159533 0.58267826
0.1750067 0.084938832 0.58475721
0.18518253 0.084985159 0.58692735
0.19318329 0.084204286 0.58921444
0.15909146 0.091591999 0.58043969
0.16544847 0.094961695 0.58161145
0.17504165 0.094830237 0.58450902
0.18483245 0.094960913 0.58797073
0.19126055 0.093288973 0.58972645
0.1568346 0.10638928 0.58088833
0.1651656 0.10496123 0.58301705
0.17501946 0.10502158 0.58636951
0.18382731 0.1044907 0.58867568
0.15650187 0.11517156 0.58166963
0.16504189 0.11513395 0.58483571
0.17507043 0.11510569 0.5879066
0.1822398 0.11540756 0.58943069
0.1566598 0.12469323 0.58114183
0.16490667 0.1249028 0.58389086
0.17489041 0.12490515 0.58666044
0.1841071 0.12516667 0.58848619
0.15808739 0.13429247 0.58094072
0.16500551 0.13497299 0.58420235
0.17496052 0.13501385 0.58702517
0.18480663 0.13481861 0.58860457
0.19065541 0.1306441 0.58981311
0.15946417 0.14161147 0.58128554
0.16523391 0.14452082 0.58418447
0.17492369 0.14464602 0.58695656
0.18389751 0.14543208 0.58889085
0.19142148 0.14934866 0.58980232
0.17147964 0.1502091 0.58589435
0.18688275 0.15095927 0.58865875
0.19300991 0.15300179 0.58897799
0.21619895 -0.11052198 0.59033442
0.21844995 -0.10577293 0.59057742
0.224096 -0.10330957 0.59188598
0.23142456 -0.10085744 0.59403211
0.21859328 -0.092866533 0.59040344
0.22516587 -0.095031127 0.59195453
0.2347848 -0.094508059 0.59556293
0.24358961 -0.092318483 0.59822166
0.21739048 -0.084757239 0.5912019
0.22499764 -0.08500395 0.59343863
0.23490468 -0.085077792 0.59615004
0.24470314 -0.084889136 0.59857643
0.25035441 -0.083131582 0.59975487
0.20879686 -0.070054613 0.5901131
0.21628751 -0.074350253 0.59130305
0.22489512 -0.075083926 0.59415078
0.23496932 -0.074996896 0.5962981
0.24515033 -0.074860476 0.59812444
0.25153288 -0.074520461 0.59957093
0.21601191 -0.065238267 0.59117144
0.22506344 -0.065042242 0.59381276
0.23518682 -0.064892843 0.59622508
0.24436121 -0.065368041 0.59869671
0.25150907 -0.068468936 0.59964824
0.20937507 -0.05104544 0.59056127
0.21550037 -0.05476651 0.59144717
0.22501239 -0.055061322 0.5938291
0.23509844 -0.05492479 0.59657073
0.24323496 -0.054802567 0.59905475
0.20868601 -0.044659734 0.59038651
0.2151005 -0.045052655 0.59224385
0.22504441 -0.045105096 0.59463733
0.23512019 -0.045027677 0.59644198
0.24353822 -0.045337424 0.5990178
0.20847569 -0.035708945 0.59033042
0.21500784 -0.034937747 0.59193498
0.22505781 -0.034978431 0.59450769
0.23514324 -0.035004623 0.5965963
0.24236086 -0.035591856 0.59890413
0.20887622 -0.023643801 0.59054673
0.21492215 -0.024949238 0.59249657
0.22512683 -0.025075696 0.59517968
0.23447399 -0.025176527 0.59829354
0.24067694 -0.029436272 0.59960598
0.20680444 -0.014408622 0.59140253
0.21494006 -0.015049679 0.59361875
0.22502087 -0.015017369 0.59538019
0.23388508 -0.014499237 0.59826541
0.19938494 -0.003002736 0.59054351
0.20501979 -0.0049858661 0.59213686
0.21509954 -0.005077078 0.59324503
0.22506055 -0.0049745445 0.59565932
0.23388314 -0.0051202038 0.59866619
0.19893856 0.0010684193 0.59029579
0.20587647 0.0047546919 0.59173059
0.21517904 0.005060453 0.59386998
0.2250078 0.004961465 0.59594047
0.23416801 0.004975108 0.59839958
0.2073915 0.014759775 0.59092349
0.21494409 0.015010287 0.59376168
0.22493629 0.014834901 0.59698546
0.23324522 0.01481464 0.59895456
0.19986999 0.029558439 0.59010547
0.20597589 0.02515625 0.59140587
0.21508986 0.024987286 0.5939343
0.22497258 0.024900354 0.59712619
0.23273294 0.025163975 0.59933406
0.20554312 0.034827504 0.59164959
0.21499021 0.035068922 0.59495193
0.22502612 0.035010874 0.59734511
0.23247494 0.034178179 0.59919626
0.20643036 0.045480814 0.59145623
0.21484423 0.044906713 0.59479564
0.22493744 0.04501646 0.59753668
0.23140372 0.045798704 0.59943187
0.19919603 0.056928735 0.59040612
0.2050437 0.055175271 0.59222186
0.21498853 0.054926045 0.59473455
0.22499225 0.055119831 0.59698218
0.23193118 0.054250911 0.59925425
0.1985994 0.062190332 0.59028673
0.20523582 0.064947784 0.59223944
0.21505459 0.065149963 0.59552014
0.22454226 0.0648885 0.59850341
0.23068233 0.063048355 0.59970987
0.19820237 0.079363912 0.59018439
0.20575744 0.0752436 0.5914917
0.21492967 0.074873365 0.59554863
0.22519934 0.074940875 0.59817708
0.23233491 0.076127701 0.59929514
0.19750699 0.085841358 0.59050667
0.20513383 0.085038751 0.59179449
0.21482898 0.08499556 0.59596598
0.2243744 0.084679574 0.59880614
0.23208073 0.081910387 0.59948266
0.18925002 0.097090244 0.59029174
0.19547269 0.095170446 0.59108829
0.20515643 0.095080063 0.59276801
0.21508209 0.095091611 0.5962618
0.22237647 0.094647743 0.59912366
0.18847895 0.10575799 0.59061128
0.19521037 0.10499485 0.59217691
0.20508933 0.10505114 0.59415424
0.21498674 0.10506186 0.59638691
0.22274978 0.10494576 0.59867018
0.18685336 0.11479034 0.59092551
0.19486859 0.1150416 0.59281391
0.20506491 0.11506954 0.59428489
0.21514529 0.11503431 0.5965662
0.22257246 0.11479899 0.59923053
0.18843506 0.12392461 0.59052926
0.19483602 0.12504905 0.59264767
0.2049796 0.12515074 0.5949322
0.21496439 0.12502553 0.59723765
0.22183271 0.12474155 0.59934384
0.18941742 0.13466641 0.59018075
0.194966 0.13508262 0.59243304
0.20489328 0.13497147 0.59527248
0.2150007 0.13502891 0.59770566
0.22136633 0.13434531 0.59963727
0.18824184 0.14398818 0.59054101
0.19517151 0.14509796 0.59298652
0.2047849 0.14520968 0.59661543
0.21523406 0.14476892 0.59778327
0.22167577 0.14495842 0.59932971
0.19762677 0.15359403 0.59135735
0.20461416 0.15496714 0.59598833
0.21476614 0.15475252 0.59876949
0.22180866 0.15272883 0.59959251
0.20572186 0.16314174 0.59621149
0.21470743 0.16505015 0.5986616
0.22154483 0.1678116 0.5995692
0.20936397 0.17155342 0.59639806
0.21510012 0.17473349 0.59830242
0.22179298 0.17313069 0.5996297
0.21633574 0.18200037 0.59886259
0.22058374 0.18166244 0.59976989
0.24864344 -0.090904839 0.60027564
0.24910676 -0.085818142 0.60028124
0.25460804 -0.083985284 0.60186106
0.26240104 -0.081668779 0.60412663
0.25618905 -0.075074807 0.60184056
0.26492521 -0.074823059 0.60489863
0.27420676 -0.073027864 0.60664654
0.28093719 -0.07102894 0.60888869
0.24841411 -0.062673584 0.60048008
0.2552948 -0.064745262 0.60199189
0.26505798 -0.064923756 0.60608345
0.27502757 -0.065402053 0.60873371
0.28095382 -0.065611683 0.6094355
0.24802113 -0.055500701 0.60060757
0.2550309 -0.054948092 0.60292709
0.2649613 -0.055011552 0.60551286
0.27308959 -0.054903489 0.60891044
0.28077441 -0.059534244 0.60989541
0.2481385 -0.043974835 0.60057378
0.25492379 -0.045085981 0.60270959
0.26500371 -0.045021426 0.60516113
0.27483457 -0.044778191 0.60805315
0.28252363 -0.043611132 0.60955101
0.24705891 -0.034493383 0.60123336
0.25494048 -0.035170145 0.60354108
0.26504648 -0.034980115 0.6058777
0.27458209 -0.035142828 0.60841471
0.28258291 -0.039204579 0.60976744
0.23879689 -0.023180276 0.60048014
0.24493375 -0.025071103 0.60221481
0.25514242 -0.024906412 0.60374409
0.26495069 -0.025063794 0.60613668
0.27485114 -0.024949828 0.6087569
0.28128201 -0.023567585 0.60987097
0.23854814 -0.016085543 0.60041112
0.24507606 -0.015045381 0.60210037
0.25501093 -0.014879905 0.60450757
0.26496434 -0.015021913 0.60702342
0.27438623 -0.015452878 0.60905743
0.23846121 -0.0046352041 0.60048103
0.24507092 -0.0051702159 0.60166508
0.25509 -0.0049427645 0.60491431
0.26501927 -0.004904266 0.60823286
0.27191404 -0.0066224583 0.60965729
0.238721 0.0046095531 0.60032523
0.24501647 0.0049977913 0.6017822
0.25520033 0.0050249957 0.60415554
0.26502272 0.0051290342 0.60748333
0.27191183 0.0054264721 0.60954285
0.23770179 0.015642311 0.60064924
0.2448407 0.015114428 0.60295409
0.25499249 0.015082364 0.60473233
0.26500234 0.014964439 0.60685718
0.27127802 0.015516988 0.60917759
0.23723207 0.024987414 0.60066736
0.24507564 0.024965718 0.6025489
0.25501758 0.025049571 0.60418385
0.26504797 0.025003018 0.60622507
0.27156326 0.025015756 0.60884279
0.23697743 0.035635822 0.60088235
0.24499094 0.034875631 0.60295987
0.25508499 0.03508297 0.60528839
0.2650575 0.034964759 0.60720271
0.27346128 0.035478268 0.60902041
0.23608187 0.044728782 0.60127509
0.24510399 0.045116492 0.60379583
0.25494996 0.044906355 0.60587418
0.26495653 0.044980507 0.60812169
0.27351734 0.042505533 0.60956293
0.23675032 0.0551292 0.60110784
0.2450701 0.054961774 0.60352939
0.25495145 0.055137683 0.60709196
0.26322848 0.054289587 0.60885018
0.22882031 0.065855242 0.6004436
0.23509885 0.065100119 0.60175371
0.24509822 0.064995989 0.60325176
0.25491479 0.064949587 0.60641503
0.26215464 0.065317832 0.60927463
0.23655622 0.074394196 0.6010856
0.24505252 0.075053029 0.6032207
0.25487909 0.074895099 0.60752469
0.2612913 0.074010007 0.60973758
0.22794148 0.087983258 0.60036892
0.23571023 0.085505575 0.60124958
0.24505144 0.085050024 0.60398108
0.25512871 0.084944144 0.60745376
0.26171252 0.084843203 0.60947084
0.22716002 0.095061637 0.6010524
0.23488188 0.095128164 0.60320729
0.24510458 0.094902173 0.60469085
0.25496611 0.094976738 0.60765576
0.26088488 0.094744213 0.60981607
0.22756404 0.1047353 0.60113394
0.23475932 0.10505801 0.60408276
0.24501358 0.10501701 0.60567927
0.25474313 0.10499005 0.60833937
0.26023364 0.10225835 0.6097244
0.22738083 0.11502405 0.6012035
0.23505124 0.11507047 0.60413104
0.24504702 0.11527438 0.60690862
0.25411624 0.11455463 0.60888767
0.22657941 0.12483964 0.60102957
0.23497309 0.12496455 0.60323054
0.2450145 0.12493996 0.60640508
0.25277358 0.12484165 0.60918844
0.22591554 0.1348875 0.60112989
0.23508032 0.13501196 0.60328317
0.24492893 0.13502203 0.6067524
0.25275275 0.13569759 0.60927135
0.22641118 0.14517087 0.60105067
0.2349003 0.14483249 0.60269392
0.244986 0.14470856 0.60583961
0.25350264 0.14515767 0.6088618
0.21941106 0.15842588 0.60038501
0.2259405 0.15562023 0.60131156
0.23505954 0.15492415 0.60418409
0.2448301 0.15508033 0.60801512
0.25317425 0.15428241 0.60909444
0.21915179 0.16216114 0.60028476
0.22561279 0.16470703 0.60147041
0.23511575 0.16475722 0.60464448
0.24440716 0.1649518 0.60844767
0.25146013 0.1631386 0.60975277
0.22560363 0.17537712 0.60160279
0.2349802 0.17490718 0.60569984
0.24466942 0.17519459 0.60867363
0.25163051 0.1761284 0.6098057
0.21954164 0.18230054 0.60023391
0.22562161 0.18298608 0.60265982
0.23578544 0.18289149 0.60625327
0.24492431 0.18395816 0.6083985
0.25121546 0.18199497 0.60965174
0.24635683 0.19249468 0.60934639
0.26602176 0.19989035 0.60953963
0.26598704 0.20086715 0.60933566
0.28275385 -0.070261665 0.61007535
0.27474868 -0.060608238 0.61010575
0.28544056 -0.064289942 0.61199242
0.29356316 -0.062239654 0.61527193
0.2769528 -0.055154912 0.61043298
0.28523576 -0.055001505 0.61186647
0.29511538 -0.054978698 0.61539006
0.30450267 -0.053877156 0.61756974
0.31164002 -0.051705461 0.61901015
0.27883205 -0.049118999 0.61016303
0.28644162 -0.045732781 0.61106801
0.2949512 -0.044904839 0.61457163
0.30506638 -0.045018032 0.6172483
0.31303188 -0.044264585 0.61873835
0.27912828 -0.033629362 0.61038148
0.28522122 -0.034778837 0.61135709
0.29502308 -0.03505953 0.61445779
0.30493605 -0.034982096 0.61718744
0.31495306 -0.035085693 0.6184212
0.320225 -0.032910429 0.61993146
0.27967137 -0.027933469 0.61025298
0.28518003 -0.02510383 0.61133903
0.29488838 -0.024973014 0.61456949
0.30493897 -0.025041256 0.61793381
0.31238636 -0.026093531 0.61950547
0.27851275 -0.012743853 0.6104601
0.28503662 -0.015062271 0.61207014
0.29499152 -0.014897584 0.61528164
0.3049238 -0.015126039 0.6180321
0.31104535 -0.017086037 0.61956
0.26960599 -0.0019622762 0.61031425
0.27568325 -0.0047133379 0.61085159
0.28493354 -0.0050260657 0.6128419
0.29498208 -0.0049655847 0.61490369
0.30485487 -0.0050001862 0.61749816
0.3103075 -0.0015290324 0.61976457
0.27639323 0.0050125862 0.61073542
0.28511494 0.004997083 0.61321414
0.29507288 0.0049374937 0.61580724
0.30497229 0.0049702907 0.61805868
0.310534 0.0041985828 0.61957055
0.27618346 0.014997318 0.6120398
0.28508246 0.014954841 0.6141504
0.2950429 0.014936056 0.61605215
0.30517849 0.015032289 0.6172753
0.31108826 0.015527571 0.6192587
0.27633291 0.024924889 0.61250615
0.28498191 0.024931889 0.61525822
0.29503238 0.025019843 0.61662996
0.30458459 0.024628371 0.61851054
0.31116563 0.021685343 0.61966342
0.27791032 0.03404963 0.61101401
0.28501156 0.035036188 0.61367011
0.29514292 0.035038527 0.61671513
0.3023546 0.034413312 0.61906385
0.26910666 0.049275942 0.61049408
0.27576366 0.046151113 0.61087763
0.28508049 0.045077898 0.61355352
0.2949588 0.04480882 0.61762947
0.30195332 0.043724064 0.61939561
0.26753423 0.05605942 0.61086571
0.27493909 0.055080149 0.61293733
0.28500581 0.055000722 0.61592996
0.29412746 0.055217657 0.6187892
0.30136257 0.058386091 0.61973524
0.26675123 0.064640284 0.6107589
0.27492633 0.065081261 0.61349946
0.28512242 0.064905182 0.61591983
0.29488698 0.06494581 0.61851025
0.30155793 0.064241275 0.61971396
0.25867528 0.077671163 0.61015975
0.26539147 0.075025469 0.61078626
0.27500907 0.075096801 0.61323529
0.28497437 0.075021833 0.6165005
0.29412377 0.074218489 0.61881959
0.30111679 0.072121046 0.61970246
0.26640916 0.084977061 0.61118144
0.2750307 0.085120663 0.6144067
0.28499722 0.084918678 0.61818564
0.29142079 0.0828842 0.61963981
0.2599411 0.091568761 0.61017501
0.2653265 0.095030874 0.61113089
0.27502841 0.094945617 0.61432117
0.28494278 0.095153511 0.61813325
0.29186094 0.096509933 0.61955643
0.25939703 0.10503046 0.61019832
0.26494569 0.10504784 0.61170709
0.27514642 0.10493407 0.61423129
0.28512692 0.1048459 0.61707902
0.2925438 0.10508186 0.61934972
0.25836658 0.11637422 0.61042345
0.26508248 0.11497437 0.61268783
0.27495721 0.11517049 0.61673743
0.28511488 0.11492715 0.61860019
0.29194942 0.11459931 0.61956626
0.25745863 0.125102 0.61072677
0.26497316 0.12491122 0.61249328
0.27493793 0.12499662 0.61573833
0.28497821 0.12498322 0.61803377
0.29198554 0.12581763 0.61937511
0.25734416 0.13430212 0.6107229
0.26492167 0.13509603 0.61285841
0.27489623 0.1350269 0.61557013
0.2849794 0.13488619 0.61774176
0.29240525 0.13450213 0.6191842
0.258176 0.14476642 0.61077297
0.26496667 0.14502349 0.61287498
0.2751461 0.14498885 0.61570084
0.28505099 0.14496157 0.61817205
0.29126373 0.14185145 0.61956692
0.24848014 0.15942182 0.61037594
0.25746334 0.15591721 0.61059558
0.26503462 0.15503934 0.612912
0.27485716 0.15515015 0.61596471
0.2838755 0.15451601 0.61717463
0.24893104 0.16556607 0.61030889
0.25532541 0.16531512 0.61109287
0.26500893 0.16489018 0.61312133
0.27478015 0.16498715 0.6158722
0.28183231 0.16387442 0.61725563
0.24964516 0.17444117 0.61025465
0.25565279 0.17482254 0.61142832
0.26500186 0.17504968 0.61413342
0.27471033 0.17472346 0.61675817
0.2805022 0.17034358 0.61813825
0.24868533 0.18683942 0.61051416
0.25572845 0.18486863 0.61254066
0.26524496 0.18498194 0.61503834
0.27274388 0.18428482 0.61636144
0.24860699 0.19346702 0.61172253
0.25498411 0.19496238 0.61460608
0.26516268 0.19511284 0.61359739
0.2710976 0.19248964 0.61565328
0.26626322 0.20139526 0.61062056
0.31458458 -0.050784361 0.62033451
0.31728575 -0.045839634 0.62095553
0.3241072 -0.0429914 0.62275904
0.33132863 -0.040643789 0.6247921
0.31921899 -0.033509482 0.62049514
0.32492131 -0.034962848 0.6230219
0.33472022 -0.034450181 0.62534875
0.34318104 -0.032167163 0.62779117
0.31642887 -0.024488673 0.62102747
0.32497758 -0.024980646 0.62341273
0.3350684 -0.025016248 0.62577015
0.34417892 -0.02496977 0.62844878
0.30976626 -0.013658138 0.62013376
0.31549662 -0.014792139 0.62139994
0.32500711 -0.014938806 0.62454522
0.3348614 -0.015000164 0.62702847
0.34336975 -0.015446722 0.62874597
0.30891567 -0.007254567 0.62037778
0.31501582 -0.0051167361 0.62246591
0.32508537 -0.0048616235 0.62494755
0.33478168 -0.0051990878 0.62833625
0.34240404 -0.0072619705 0.62939566
0.3099367 0.0070557855 0.62020171
0.3153668 0.0050861305 0.62265819
0.3250441 0.0050618928 0.6255607
0.33455792 0.005294479 0.62859315
0.34127665 0.0086714225 0.62962198
0.31598115 0.015134211 0.62232226
0.32492116 0.015094429 0.62593919
0.33497319 0.015104678 0.62840807
0.34123662 0.013838157 0.62940592
0.30837488 0.02798338 0.620511
0.31526679 0.025226772 0.62243253
0.32513213 0.025119888 0.6258418
0.33434451 0.024691282 0.62883645
0.30701572 0.035253253 0.6216374
0.31492212 0.034922902 0.6240291
0.32496372 0.03502772 0.62510014
0.33243722 0.034881491 0.62801808
0.29857975 0.048822939 0.62024224
0.3062886 0.045265168 0.62149239
0.31488317 0.044971276 0.62501544
0.32500243 0.045078963 0.6262629
0.33121404 0.042688634 0.6272006
0.29848808 0.053936776 0.62054574
0.30514124 0.054877527 0.6211347
0.31499714 0.054940686 0.62434578
