# .PCD v0.7 - Point Cloud Data file format
VERSION 0.7
FIELDS x y z
SIZE 4 4 4
TYPE F F F
COUNT 1 1 1
WIDTH 1434
HEIGHT 1
VIEWPOINT 0 0 0 1 0 0 0
POINTS 1434
DATA ascii
-0.29072738 0.18675038 0.64300001
-0.28905475 0.18675038 0.64300001
-0.28738213 0.18675038 0.64300001
-0.2857095 0.18675038 0.64300001
-0.28359511 0.18645996 0.64200002
-0.28192508 0.18645996 0.64200002
-0.28025505 0.18645996 0.64200002
-0.27815107 0.18616952 0.64100003
-0.27648365 0.18616952 0.64100003
-0.27481622 0.18616952 0.64100003
-0.27314878 0.18616952 0.64100003
-0.27105781 0.1858791 0.64000005
-0.26897207 0.18558866 0.63900006
-0.26730984 0.18558866 0.63900006
-0.26523188 0.1852982 0.63800001
-0.2631591 0.18500778 0.63700002
-0.26150209 0.18500778 0.63700002
-0.25902921 0.18442692 0.63500005
-0.25737739 0.18442692 0.63500005
-0.25532281 0.18413647 0.634
-0.25327349 0.18384603 0.63300002
-0.25162688 0.18384603 0.63300002
-0.24958535 0.1835556 0.63200003
-0.24754901 0.18326516 0.63100004
-0.24590757 0.18326516 0.63100004
-0.24387905 0.18297473 0.63000005
-0.24185571 0.18268429 0.62900001
-0.2402195 0.18268429 0.62900001
-0.23820399 0.18239385 0.62800002
-0.23657034 0.18239385 0.62800002
-0.23418854 0.18181299 0.62600005
-0.23256013 0.18181299 0.62600005
-0.23056281 0.18152253 0.625
-0.2285707 0.18123211 0.62400001
-0.22622009 0.18065125 0.62200004
-0.22424099 0.18036081 0.62100005
-0.22262558 0.18036081 0.62100005
-0.22029838 0.17977993 0.61900002
-0.21868816 0.17977993 0.61900002
-0.21672726 0.17948949 0.61800003
-0.21477158 0.17919905 0.61700004
-0.21316658 0.17919905 0.61700004
-0.21156158 0.17919905 0.61700004
-0.20995656 0.17919905 0.61700004
-0.20835157 0.17919905 0.61700004
-0.20674656 0.17919905 0.61700004
-0.20514156 0.17919905 0.61700004
-0.20353656 0.17919905 0.61700004
-0.20193155 0.17919905 0.61700004
-0.20032655 0.17919905 0.61700004
-0.19872154 0.17919905 0.61700004
-0.19679707 0.17890863 0.61600006
-0.19519468 0.17890863 0.61600006
-0.19327797 0.17861818 0.61500001
-0.19136651 0.17832775 0.61400002
-0.18976931 0.17832775 0.61400002
-0.18786564 0.17803732 0.61300004
-0.18627104 0.17803732 0.61300004
-0.18437518 0.17774688 0.61200005
-0.18248451 0.17745644 0.611
-0.18089512 0.17745644 0.611
-0.17901227 0.177166 0.61000001
-0.17742546 0.177166 0.61000001
-0.17583866 0.177166 0.61000001
-0.17396621 0.17687556 0.60900003
-0.17209898 0.17658514 0.60800004
-0.17051739 0.17658514 0.60800004
-0.16893579 0.17658514 0.60800004
-0.1673542 0.17658514 0.60800004
-0.16549996 0.1762947 0.60700005
-0.16392097 0.1762947 0.60700005
-0.16234198 0.1762947 0.60700005
-0.16076298 0.1762947 0.60700005
-0.15892173 0.17600426 0.60600001
-0.15734535 0.17600426 0.60600001
-0.15551193 0.17571382 0.60500002
-0.15393811 0.17571382 0.60500002
-0.1521125 0.17542338 0.60400003
-0.15054132 0.17542338 0.60400003
-0.1487235 0.17513296 0.60300004
-0.14691088 0.17484252 0.60200006
-0.14510344 0.17455207 0.60100001
-0.14330122 0.17426164 0.60000002
-0.14150421 0.17397121 0.59900004
-0.13971241 0.17368078 0.59800005
-0.13792579 0.17339033 0.597
-0.1363728 0.17339033 0.597
-0.13436818 0.17280947 0.59500003
-0.1328204 0.17280947 0.59500003
-0.13105202 0.17251903 0.59400004
-0.12928881 0.1722286 0.59300005
-0.12753081 0.17193815 0.59200001
-0.12599084 0.17193815 0.59200001
-0.12424064 0.17164771 0.59100002
-0.12270327 0.17164771 0.59100002
-0.12116591 0.17164771 0.59100002
-0.11942612 0.17135729 0.59000003
-0.11789135 0.17135729 0.59000003
-0.11635659 0.17135729 0.59000003
-0.1146272 0.17106685 0.58900005
-0.11309504 0.17106685 0.58900005
-0.11156287 0.17106685 0.58900005
-0.10984389 0.1707764 0.588
-0.10831433 0.1707764 0.588
-0.10660315 0.17048597 0.58700001
-0.10507619 0.17048597 0.58700001
-0.10337282 0.17019553 0.58600003
-0.10184846 0.17019553 0.58600003
-0.1001529 0.16990511 0.58500004
-0.098631136 0.16990511 0.58500004
-0.096943378 0.16961467 0.58400005
-0.095260806 0.16932422 0.583
-0.093744256 0.16932422 0.583
-0.092069492 0.1690338 0.58200002
-0.090399951 0.16874336 0.58100003
-0.088888593 0.16874336 0.58100003
-0.087226845 0.16845293 0.58000004
-0.085570306 0.16816249 0.57900006
-0.084064148 0.16816249 0.57900006
-0.082415402 0.16787204 0.57800001
-0.080771863 0.16758162 0.57700002
-0.079270914 0.16758162 0.57700002
-0.077635184 0.16729118 0.57600003
-0.076136827 0.16729118 0.57600003
-0.074638486 0.16729118 0.57600003
-0.073013149 0.16700074 0.57500005
-0.071517408 0.16700074 0.57500005
-0.069899872 0.1667103 0.574
-0.068406723 0.1667103 0.574
-0.066913575 0.1667103 0.574
-0.065306462 0.16641986 0.57300001
-0.063815914 0.16641986 0.57300001
-0.062216599 0.16612944 0.57200003
-0.060728654 0.16612944 0.57200003
-0.059137143 0.165839 0.57100004
-0.057550833 0.16554856 0.57000005
-0.056068093 0.16554856 0.57000005
-0.054489583 0.16525812 0.56900001
-0.052916281 0.16496769 0.56800002
-0.051438741 0.16496769 0.56800002
-0.04987324 0.16467725 0.56700003
-0.048398301 0.16467725 0.56700003
-0.046840608 0.16438682 0.56600004
-0.045368273 0.16438682 0.56600004
-0.043895938 0.16438682 0.56600004
-0.042423598 0.16438682 0.56600004
-0.040951259 0.16438682 0.56600004
-0.039409168 0.16409637 0.565
-0.037939433 0.16409637 0.565
-0.036469702 0.16409637 0.565
-0.034999963 0.16409637 0.565
-0.033530228 0.16409637 0.565
-0.032003749 0.16380595 0.56400001
-0.030536612 0.16380595 0.56400001
-0.029017938 0.16351551 0.56300002
-0.027553406 0.16351551 0.56300002
-0.026042532 0.16322507 0.56200004
-0.024536865 0.16293465 0.56100005
-0.023077535 0.16293465 0.56100005
-0.021579666 0.16264419 0.56
-0.020122938 0.16264419 0.56
-0.018632876 0.16235377 0.55900002
-0.01717875 0.16235377 0.55900002
-0.015696492 0.16206333 0.55800003
-0.014219437 0.16177289 0.55700004
-0.012770512 0.16177289 0.55700004
-0.01130126 0.16148247 0.55600005
-0.009854936 0.16148247 0.55600005
-0.0084086126 0.16148247 0.55600005
-0.0069622882 0.16148247 0.55600005
-0.0055060433 0.16119201 0.55500001
-0.0040623206 0.16119201 0.55500001
-0.0026185976 0.16119201 0.55500001
-0.0011727582 0.16090158 0.55400002
0.0002683631 0.16090158 0.55400002
0.0017094845 0.16090158 0.55400002
0.0031449187 0.16061115 0.55300003
0.0045834389 0.16061115 0.55300003
0.0060219588 0.16061115 0.55300003
0.0074469885 0.16032071 0.55200005
0.0088829072 0.16032071 0.55200005
0.010318826 0.16032071 0.55200005
0.011733448 0.16003028 0.551
0.013166767 0.16003028 0.551
0.014573586 0.15973984 0.55000001
0.016004303 0.15973984 0.55000001
0.017403319 0.1594494 0.54900002
0.018831436 0.1594494 0.54900002
0.020222645 0.15915897 0.54800004
0.021608656 0.15886854 0.54700005
0.022989463 0.15857808 0.546
0.024365066 0.15828766 0.54500002
0.025782777 0.15828766 0.54500002
0.027150579 0.15799722 0.54400003
0.028513175 0.1577068 0.54300004
0.029925684 0.1577068 0.54300004
0.03128048 0.15741636 0.54200006
0.032690383 0.15741636 0.54200006
0.034037374 0.15712591 0.54100001
0.035444673 0.15712591 0.54100001
0.036783863 0.15683548 0.54000002
0.038188566 0.15683548 0.54000002
0.039593268 0.15683548 0.54000002
0.040997975 0.15683548 0.54000002
0.042324156 0.15654504 0.53900003
0.043726254 0.15654504 0.53900003
0.045128357 0.15654504 0.53900003
0.046530459 0.15654504 0.53900003
0.047932561 0.15654504 0.53900003
0.049334664 0.15654504 0.53900003
0.050736766 0.15654504 0.53900003
0.052138865 0.15654504 0.53900003
0.053540967 0.15654504 0.53900003
0.05494307 0.15654504 0.53900003
0.056345172 0.15654504 0.53900003
0.057747275 0.15654504 0.53900003
0.059149377 0.15654504 0.53900003
0.060551479 0.15654504 0.53900003
0.061953578 0.15654504 0.53900003
0.063355677 0.15654504 0.53900003
0.064757779 0.15654504 0.53900003
0.066037141 0.15625462 0.53800005
0.067436635 0.15625462 0.53800005
0.068708189 0.15596417 0.537
0.069974534 0.15567373 0.53600001
0.071368836 0.15567373 0.53600001
0.07262738 0.1553833 0.53500003
0.073880725 0.15509287 0.53400004
0.075128876 0.15480244 0.53300005
0.076371796 0.15451199 0.53200001
0.077755697 0.15451199 0.53200001
0.078990832 0.15422155 0.53100002
0.080220766 0.15393113 0.53000003
0.081445493 0.15364069 0.52900004
0.082821578 0.15364069 0.52900004
0.084038503 0.15335023 0.528
0.085411988 0.15335023 0.528
0.086621113 0.15305981 0.52700001
0.087991998 0.15305981 0.52700001
0.08936289 0.15305981 0.52700001
0.090561606 0.15276937 0.52600002
0.091929883 0.15276937 0.52600002
0.093120806 0.15247895 0.52500004
0.094486482 0.15247895 0.52500004
0.095669597 0.15218851 0.52400005
0.097032681 0.15218851 0.52400005
0.098207973 0.15189806 0.523
0.099568456 0.15189806 0.523
0.10073595 0.15160763 0.52200001
0.10189826 0.15131719 0.52100003
0.10325354 0.15131719 0.52100003
0.10420725 0.15073633 0.51900005
0.10555732 0.15073633 0.51900005
0.1069074 0.15073633 0.51900005
0.10784029 0.15015545 0.51700002
0.10897398 0.14986502 0.51600003
0.11478855 0.14870326 0.51200002
0.11589362 0.14841284 0.51100004
0.11676408 0.14783196 0.509
0.2103385 0.15741636 0.54200006
0.21174842 0.15741636 0.54200006
0.21276504 0.15712591 0.54100001
0.21377645 0.15683548 0.54000002
0.21518116 0.15683548 0.54000002
0.21618478 0.15654504 0.53900003
0.21758689 0.15654504 0.53900003
0.21898898 0.15654504 0.53900003
0.21998221 0.15625462 0.53800005
0.22138169 0.15625462 0.53800005
0.22236709 0.15596417 0.537
0.223764 0.15596417 0.537
0.22432232 0.1553833 0.53500003
0.22571401 0.1553833 0.53500003
0.22668122 0.15509287 0.53400004
0.22764322 0.15480244 0.53300005
0.22902972 0.15480244 0.53300005
0.22998388 0.15451199 0.53200001
0.23093288 0.15422155 0.53100002
0.23187667 0.15393113 0.53000003
0.23281528 0.15364069 0.52900004
0.23374863 0.15335023 0.528
0.23467682 0.15305981 0.52700001
0.2360477 0.15305981 0.52700001
0.23696809 0.15276937 0.52600002
0.23788327 0.15247895 0.52500004
0.23924895 0.15247895 0.52500004
0.24015632 0.15218851 0.52400005
0.24105847 0.15189806 0.523
0.24241894 0.15189806 0.523
0.24331333 0.15160763 0.52200001
0.24420249 0.15131719 0.52100003
0.24555777 0.15131719 0.52100003
0.24643913 0.15102676 0.52000004
0.2473153 0.15073633 0.51900005
0.24866538 0.15073633 0.51900005
0.2495337 0.15044588 0.51800001
0.25039685 0.15015545 0.51700002
-0.36458707 0.19574897 0.66800004
-0.361763 0.19516288 0.66600001
-0.35948998 0.19486985 0.66500002
-0.35668415 0.19428378 0.66300005
-0.35495949 0.19428378 0.66300005
-0.35323483 0.19428378 0.66300005
-0.35151014 0.19428378 0.66300005
-0.34925792 0.19399075 0.66200006
-0.34753585 0.19399075 0.66200006
-0.34581381 0.19399075 0.66200006
-0.34357193 0.19369769 0.66100001
-0.34185246 0.19369769 0.66100001
-0.34013301 0.19369769 0.66100001
-0.33790159 0.19340466 0.66000003
-0.33567539 0.19311163 0.65900004
-0.33345434 0.1928186 0.65800005
-0.33174267 0.1928186 0.65800005
-0.32952943 0.19252555 0.65700001
-0.32732141 0.1922325 0.65600002
-0.32561496 0.1922325 0.65600002
-0.32341477 0.19193947 0.65500003
-0.32121974 0.19164644 0.65400004
-0.31951848 0.19164644 0.65400004
-0.31733128 0.19135341 0.65300006
-0.31514928 0.19106036 0.65200001
-0.31297246 0.19076732 0.65100002
-0.31080088 0.19047429 0.65000004
-0.30863446 0.19018126 0.64900005
-0.30647326 0.18988821 0.648
-0.30431727 0.18959518 0.64700001
-0.30263424 0.18959518 0.64700001
-0.30048603 0.18930215 0.64600003
-0.29834306 0.1890091 0.64500004
-0.29620528 0.18871607 0.64400005
-0.29453003 0.18871607 0.64400005
-0.29240003 0.18842302 0.64300001
-0.29072738 0.18842302 0.64300001
-0.28905475 0.18842302 0.64300001
-0.28738213 0.18842302 0.64300001
-0.2857095 0.18842302 0.64300001
-0.28359511 0.18812999 0.64200002
-0.28192508 0.18812999 0.64200002
-0.28025505 0.18812999 0.64200002
-0.27858502 0.18812999 0.64200002
-0.27648365 0.18783696 0.64100003
-0.27481622 0.18783696 0.64100003
-0.27314878 0.18783696 0.64100003
-0.27105781 0.18754391 0.64000005
-0.26897207 0.18725088 0.63900006
-0.26730984 0.18725088 0.63900006
-0.26523188 0.18695784 0.63800001
-0.2631591 0.1866648 0.63700002
-0.26150209 0.1866648 0.63700002
-0.25943714 0.18637177 0.63600004
-0.25737739 0.18607874 0.63500005
-0.25532281 0.18578568 0.634
-0.25327349 0.18549265 0.63300002
-0.25162688 0.18549265 0.63300002
-0.24919043 0.18490659 0.63100004
-0.24754901 0.18490659 0.63100004
-0.24551786 0.18461356 0.63000005
-0.24387905 0.18461356 0.63000005
-0.24185571 0.18432049 0.62900001
-0.2402195 0.18432049 0.62900001
-0.23820399 0.18402746 0.62800002
-0.23657034 0.18402746 0.62800002
-0.23418854 0.1834414 0.62600005
-0.23256013 0.1834414 0.62600005
-0.2301939 0.18285531 0.62400001
-0.2282044 0.18256228 0.62300003
-0.22622009 0.18226925 0.62200004
-0.22424099 0.18197621 0.62100005
-0.22262558 0.18197621 0.62100005
-0.22029838 0.18139012 0.61900002
-0.21868816 0.18139012 0.61900002
-0.21672726 0.18109709 0.61800003
-0.21511966 0.18109709 0.61800003
-0.21316658 0.18080406 0.61700004
-0.21156158 0.18080406 0.61700004
-0.20995656 0.18080406 0.61700004
-0.20835157 0.18080406 0.61700004
-0.20674656 0.18080406 0.61700004
-0.20514156 0.18080406 0.61700004
-0.20353656 0.18080406 0.61700004
-0.20193155 0.18080406 0.61700004
-0.20032655 0.18080406 0.61700004
-0.19872154 0.18080406 0.61700004
-0.19711654 0.18080406 0.61700004
-0.19519468 0.18051103 0.61600006
-0.19359227 0.18051103 0.61600006
-0.19167818 0.18021798 0.61500001
-0.18976931 0.17992494 0.61400002
-0.18786564 0.1796319 0.61300004
-0.18627104 0.1796319 0.61300004
-0.18437518 0.17933887 0.61200005
-0.18278319 0.17933887 0.61200005
-0.18089512 0.17904583 0.611
-0.17930572 0.17904583 0.611
-0.17742546 0.17875279 0.61000001
-0.17583866 0.17875279 0.61000001
-0.17425187 0.17875279 0.61000001
-0.17238203 0.17845976 0.60900003
-0.17051739 0.17816672 0.60800004
-0.16893579 0.17816672 0.60800004
-0.1673542 0.17816672 0.60800004
-0.1657726 0.17816672 0.60800004
-0.16392097 0.17787369 0.60700005
-0.16234198 0.17787369 0.60700005
-0.16076298 0.17787369 0.60700005
-0.15892173 0.17758064 0.60600001
-0.15734535 0.17758064 0.60600001
-0.15551193 0.17728761 0.60500002
-0.15393811 0.17728761 0.60500002
-0.15236434 0.17728761 0.60500002
-0.15054132 0.17699458 0.60400003
-0.1487235 0.17670153 0.60300004
-0.14691088 0.1764085 0.60200006
-0.1453449 0.1764085 0.60200006
-0.14354005 0.17611545 0.60100001
-0.14150421 0.17552939 0.59900004
-0.13994604 0.17552939 0.59900004
-0.13815683 0.17523636 0.59800005
-0.1363728 0.1749433 0.597
-0.13459401 0.17465027 0.59600002
-0.1328204 0.17435724 0.59500003
-0.13105202 0.1740642 0.59400004
-0.12950683 0.1740642 0.59400004
-0.12774624 0.17377117 0.59300005
-0.12599084 0.17347811 0.59200001
-0.12445086 0.17347811 0.59200001
-0.12270327 0.17318508 0.59100002
-0.12116591 0.17318508 0.59100002
-0.11962854 0.17318508 0.59100002
-0.11789135 0.17289205 0.59000003
-0.11635659 0.17289205 0.59000003
-0.11482181 0.17289205 0.59000003
-0.11309504 0.17259902 0.58900005
-0.11156287 0.17259902 0.58900005
-0.10984389 0.17230597 0.588
-0.10831433 0.17230597 0.588
-0.10660315 0.17201293 0.58700001
-0.10507619 0.17201293 0.58700001
-0.10337282 0.17171989 0.58600003
-0.10184846 0.17171989 0.58600003
-0.1003241 0.17171989 0.58600003
-0.098631136 0.17142686 0.58500004
-0.097109377 0.17142686 0.58500004
-0.095424213 0.17113383 0.58400005
-0.093744256 0.17084078 0.583
-0.092069492 0.17054774 0.58200002
-0.090555541 0.17054774 0.58200002
-0.088888593 0.17025471 0.58100003
-0.087377235 0.17025471 0.58100003
-0.085718095 0.16996168 0.58000004
-0.084064148 0.16966864 0.57900006
-0.082557999 0.16966864 0.57900006
-0.080911845 0.1693756 0.57800001
-0.079270914 0.16908257 0.57700002
-0.077769965 0.16908257 0.57700002
-0.076136827 0.16878952 0.57600003
-0.074638486 0.16878952 0.57600003
-0.073140129 0.16878952 0.57600003
-0.071517408 0.16849649 0.57500005
-0.070021659 0.16849649 0.57500005
-0.068406723 0.16820344 0.574
-0.066913575 0.16820344 0.574
-0.065420434 0.16820344 0.574
-0.063815914 0.16791041 0.57300001
-0.06232537 0.16791041 0.57300001
-0.060728654 0.16761738 0.57200003
-0.05924071 0.16761738 0.57200003
-0.057651799 0.16732433 0.57100004
-0.056068093 0.1670313 0.57000005
-0.054489583 0.16673826 0.56900001
-0.053009443 0.16673826 0.56900001
-0.051438741 0.16644523 0.56800002
-0.049961198 0.16644523 0.56800002
-0.048398301 0.16615219 0.56700003
-0.046923362 0.16615219 0.56700003
-0.045368273 0.16585916 0.56600004
-0.043895938 0.16585916 0.56600004
-0.042423598 0.16585916 0.56600004
-0.040951259 0.16585916 0.56600004
-0.039478924 0.16585916 0.56600004
-0.038006585 0.16585916 0.56600004
-0.03653425 0.16585916 0.56600004
-0.034999963 0.1655661 0.565
-0.033530228 0.1655661 0.565
-0.032060493 0.1655661 0.565
-0.030536612 0.16527307 0.56400001
-0.029017938 0.16498004 0.56300002
-0.027553406 0.16498004 0.56300002
-0.026042532 0.16468701 0.56200004
-0.024580603 0.16468701 0.56200004
-0.023077535 0.16439398 0.56100005
-0.021579666 0.16410092 0.56
-0.020122938 0.16410092 0.56
-0.018632876 0.16380788 0.55900002
-0.01717875 0.16380788 0.55900002
-0.015696492 0.16351485 0.55800003
-0.014244965 0.16351485 0.55800003
-0.012770512 0.16322182 0.55700004
-0.01130126 0.16292879 0.55600005
-0.009854936 0.16292879 0.55600005
-0.0084086126 0.16292879 0.55600005
-0.0069622882 0.16292879 0.55600005
-0.0055159642 0.16292879 0.55600005
-0.0040623206 0.16263573 0.55500001
-0.0026185976 0.16263573 0.55500001
-0.0011727582 0.1623427 0.55400002
0.0002683631 0.1623427 0.55400002
0.0017094845 0.1623427 0.55400002
0.0031506058 0.1623427 0.55400002
0.0045834389 0.16204967 0.55300003
0.0060219588 0.16204967 0.55300003
0.0074604792 0.16204967 0.55300003
0.0088829072 0.16175663 0.55200005
0.010318826 0.16175663 0.55200005
0.011733448 0.16146359 0.551
0.013166767 0.16146359 0.551
0.014600083 0.16146359 0.551
0.016004303 0.16117054 0.55000001
0.01743502 0.16117054 0.55000001
0.018831436 0.16087751 0.54900002
0.020222645 0.16058448 0.54800004
0.021608656 0.16029145 0.54700005
0.02303157 0.16029145 0.54700005
0.024409773 0.1599984 0.546
0.025782777 0.15970537 0.54500002
0.027150579 0.15941232 0.54400003
0.028565684 0.15941232 0.54400003
0.029925684 0.15911929 0.54300004
0.031338193 0.15911929 0.54300004
0.032690383 0.15882626 0.54200006
0.03410029 0.15882626 0.54200006
0.035444673 0.15853322 0.54100001
0.03685198 0.15853322 0.54100001
0.038188566 0.15824018 0.54000002
0.039593268 0.15824018 0.54000002
0.040997975 0.15824018 0.54000002
0.042402677 0.15824018 0.54000002
0.043726254 0.15794714 0.53900003
0.045128357 0.15794714 0.53900003
0.046530459 0.15794714 0.53900003
0.047932561 0.15794714 0.53900003
0.049334664 0.15794714 0.53900003
0.050736766 0.15794714 0.53900003
0.052138865 0.15794714 0.53900003
0.053540967 0.15794714 0.53900003
0.05494307 0.15794714 0.53900003
0.056345172 0.15794714 0.53900003
0.057747275 0.15794714 0.53900003
0.059149377 0.15794714 0.53900003
0.060551479 0.15794714 0.53900003
0.061953578 0.15794714 0.53900003
0.063355677 0.15794714 0.53900003
0.064757779 0.15794714 0.53900003
0.066159882 0.15794714 0.53900003
0.067436635 0.15765411 0.53800005
0.068836145 0.15765411 0.53800005
0.070105083 0.15736106 0.537
0.071368836 0.15706803 0.53600001
0.07276313 0.15706803 0.53600001
0.073880725 0.15648197 0.53400004
0.075269826 0.15648197 0.53400004
0.076371796 0.15589587 0.53200001
0.077755697 0.15589587 0.53200001
0.078990832 0.15560284 0.53100002
0.080220766 0.15530981 0.53000003
0.081445493 0.15501678 0.52900004
0.082821578 0.15501678 0.52900004
0.084038503 0.15472372 0.528
0.085411988 0.15472372 0.528
0.086621113 0.15443069 0.52700001
0.087991998 0.15443069 0.52700001
0.08936289 0.15443069 0.52700001
0.090561606 0.15413766 0.52600002
0.091929883 0.15413766 0.52600002
0.093120806 0.15384462 0.52500004
0.094486482 0.15384462 0.52500004
0.095669597 0.15355159 0.52400005
0.096847489 0.15325853 0.523
0.098207973 0.15325853 0.523
0.099378079 0.1529655 0.52200001
0.10054298 0.15267247 0.52100003
0.10189826 0.15267247 0.52100003
0.10305535 0.15237944 0.52000004
0.10420725 0.15208641 0.51900005
0.10535393 0.15179335 0.51800001
0.10649542 0.15150031 0.51700002
0.10763171 0.15120728 0.51600003
0.11234871 0.14856994 0.50700003
0.11366757 0.14856994 0.50700003
0.2089286 0.15882626 0.54200006
0.2103385 0.15882626 0.54200006
0.21135773 0.15853322 0.54100001
0.21237175 0.15824018 0.54000002
0.21377645 0.15824018 0.54000002
0.21478267 0.15794714 0.53900003
0.21618478 0.15794714 0.53900003
0.2171832 0.15765411 0.53800005
0.2185827 0.15765411 0.53800005
0.21957329 0.15736106 0.537
0.2205587 0.15706803 0.53600001
0.221953 0.15706803 0.53600001
0.22334731 0.15706803 0.53600001
0.22390303 0.15648197 0.53400004
0.22529212 0.15648197 0.53400004
0.22625673 0.15618892 0.53300005
0.22721611 0.15589587 0.53200001
0.2286 0.15589587 0.53200001
0.2295516 0.15560284 0.53100002
0.23049799 0.15530981 0.53000003
0.23187667 0.15530981 0.53000003
0.23281528 0.15501678 0.52900004
0.23374863 0.15472372 0.528
0.23467682 0.15443069 0.52700001
0.2360477 0.15443069 0.52700001
0.23696809 0.15413766 0.52600002
0.23788327 0.15384462 0.52500004
0.23879324 0.15355159 0.52400005
0.23969799 0.15325853 0.523
0.24105847 0.15325853 0.523
0.24195543 0.1529655 0.52200001
0.24284722 0.15267247 0.52100003
0.24373378 0.15237944 0.52000004
0.24461514 0.15208641 0.51900005
0.24596521 0.15208641 0.51900005
0.24683875 0.15179335 0.51800001
0.24770711 0.15150031 0.51700002
0.24857026 0.15120728 0.51600003
0.24991253 0.15120728 0.51600003
-0.36458707 0.19748665 0.66800004
-0.361763 0.19689536 0.66600001
-0.35948998 0.19659972 0.66500002
-0.35722211 0.1963041 0.66400003
-0.35495949 0.19600846 0.66300005
-0.35323483 0.19600846 0.66300005
-0.35151014 0.19600846 0.66300005
-0.34978551 0.19600846 0.66300005
-0.34753585 0.19571282 0.66200006
-0.34529141 0.19541717 0.66100001
-0.34357193 0.19541717 0.66100001
-0.34185246 0.19541717 0.66100001
-0.34013301 0.19541717 0.66100001
-0.33790159 0.19512154 0.66000003
-0.33567539 0.1948259 0.65900004
-0.33345434 0.19453026 0.65800005
-0.33174267 0.19453026 0.65800005
-0.32952943 0.19423461 0.65700001
-0.32732141 0.19393899 0.65600002
-0.32561496 0.19393899 0.65600002
-0.32341477 0.19364335 0.65500003
-0.32121974 0.19334771 0.65400004
-0.31951848 0.19334771 0.65400004
-0.31733128 0.19305207 0.65300006
-0.31514928 0.19275643 0.65200001
-0.31297246 0.19246079 0.65100002
-0.31080088 0.19216515 0.65000004
-0.30863446 0.19186951 0.64900005
-0.30694622 0.19186951 0.64900005
-0.30431727 0.19127823 0.64700001
-0.30263424 0.19127823 0.64700001
-0.30048603 0.1909826 0.64600003
-0.29834306 0.19068696 0.64500004
-0.29666522 0.19068696 0.64500004
-0.29453003 0.19039133 0.64400005
-0.29240003 0.19009568 0.64300001
-0.29072738 0.19009568 0.64300001
-0.28905475 0.19009568 0.64300001
-0.28738213 0.19009568 0.64300001
-0.2857095 0.19009568 0.64300001
-0.28403684 0.19009568 0.64300001
-0.28236419 0.19009568 0.64300001
-0.28025505 0.18980004 0.64200002
-0.27858502 0.18980004 0.64200002
-0.27648365 0.1895044 0.64100003
-0.27481622 0.1895044 0.64100003
-0.27314878 0.1895044 0.64100003
-0.27105781 0.18920878 0.64000005
-0.26897207 0.18891314 0.63900006
-0.26730984 0.18891314 0.63900006
-0.26523188 0.18861748 0.63800001
-0.2631591 0.18832184 0.63700002
-0.26150209 0.18832184 0.63700002
-0.25943714 0.1880262 0.63600004
-0.25737739 0.18773058 0.63500005
-0.25532281 0.18743493 0.634
-0.25327349 0.18713929 0.63300002
-0.25162688 0.18713929 0.63300002
-0.24958535 0.18684365 0.63200003
-0.24754901 0.18654802 0.63100004
-0.24551786 0.18625239 0.63000005
-0.24349193 0.18595673 0.62900001
-0.24185571 0.18595673 0.62900001
-0.2402195 0.18595673 0.62900001
-0.23820399 0.18566109 0.62800002
-0.23619366 0.18536547 0.62700003
-0.23418854 0.18506983 0.62600005
-0.23256013 0.18506983 0.62600005
-0.2301939 0.18447854 0.62400001
-0.2282044 0.18418291 0.62300003
-0.22622009 0.18388727 0.62200004
-0.22424099 0.18359163 0.62100005
-0.22262558 0.18359163 0.62100005
-0.22065426 0.18329598 0.62
-0.21868816 0.18300034 0.61900002
-0.21707796 0.18300034 0.61900002
-0.21546775 0.18300034 0.61900002
-0.21351206 0.18270472 0.61800003
-0.21190447 0.18270472 0.61800003
-0.21029684 0.18270472 0.61800003
-0.20868924 0.18270472 0.61800003
-0.20708165 0.18270472 0.61800003
-0.20547403 0.18270472 0.61800003
-0.20386644 0.18270472 0.61800003
-0.20225883 0.18270472 0.61800003
-0.20032655 0.18240908 0.61700004
-0.19872154 0.18240908 0.61700004
-0.19711654 0.18240908 0.61700004
-0.19551155 0.18240908 0.61700004
-0.19359227 0.18211344 0.61600006
-0.19198985 0.18211344 0.61600006
-0.18976931 0.18152216 0.61400002
-0.18817212 0.18152216 0.61400002
-0.18627104 0.18122652 0.61300004
-0.18467644 0.18122652 0.61300004
-0.18278319 0.18093088 0.61200005
-0.18089512 0.18063523 0.611
-0.17930572 0.18063523 0.611
-0.17771631 0.18063523 0.611
-0.17583866 0.1803396 0.61000001
-0.17425187 0.1803396 0.61000001
-0.17238203 0.18004397 0.60900003
-0.17079784 0.18004397 0.60900003
-0.16893579 0.17974833 0.60800004
-0.1673542 0.17974833 0.60800004
-0.1657726 0.17974833 0.60800004
-0.16392097 0.17945269 0.60700005
-0.16234198 0.17945269 0.60700005
-0.16076298 0.17945269 0.60700005
-0.15892173 0.17915705 0.60600001
-0.15734535 0.17915705 0.60600001
-0.15551193 0.17886141 0.60500002
-0.15393811 0.17886141 0.60500002
-0.15236434 0.17886141 0.60500002
-0.15054132 0.17856577 0.60400003
-0.14897013 0.17856577 0.60400003
-0.14715491 0.17827013 0.60300004
-0.1453449 0.17797451 0.60200006
-0.14354005 0.17767885 0.60100001
-0.14174044 0.17738321 0.60000002
-0.13994604 0.17708758 0.59900004
-0.13838786 0.17708758 0.59900004
-0.13660125 0.17679195 0.59800005
-0.13481982 0.1764963 0.597
-0.13304363 0.17620066 0.59600002
-0.13127263 0.17590502 0.59500003
-0.12950683 0.17560939 0.59400004
-0.12796167 0.17560939 0.59400004
-0.12620367 0.17531376 0.59300005
-0.12445086 0.1750181 0.59200001
-0.12291089 0.1750181 0.59200001
-0.12116591 0.17472246 0.59100002
-0.11962854 0.17472246 0.59100002
-0.11809117 0.17472246 0.59100002
-0.11635659 0.17442684 0.59000003
-0.11482181 0.17442684 0.59000003
-0.11328705 0.17442684 0.59000003
-0.11156287 0.1741312 0.58900005
-0.1100307 0.1741312 0.58900005
-0.10831433 0.17383555 0.588
-0.10660315 0.17353991 0.58700001
-0.10507619 0.17353991 0.58700001
-0.10354922 0.17353991 0.58700001
-0.10184846 0.17324427 0.58600003
-0.1003241 0.17324427 0.58600003
-0.098631136 0.17294864 0.58500004
-0.097109377 0.17294864 0.58500004
-0.095424213 0.172653 0.58400005
-0.093744256 0.17235735 0.583
-0.09222769 0.17235735 0.583
-0.090555541 0.17206171 0.58200002
-0.088888593 0.17176609 0.58100003
-0.087377235 0.17176609 0.58100003
-0.085718095 0.17147045 0.58000004
-0.08420933 0.17147045 0.58000004
-0.082557999 0.17117481 0.57900006
-0.081051841 0.17117481 0.57900006
-0.079408295 0.17087916 0.57800001
-0.077769965 0.17058353 0.57700002
-0.076269008 0.17058353 0.57700002
-0.074638486 0.17028789 0.57600003
-0.073140129 0.17028789 0.57600003
-0.071517408 0.16999225 0.57500005
-0.070021659 0.16999225 0.57500005
-0.068525903 0.16999225 0.57500005
-0.066913575 0.1696966 0.574
-0.065420434 0.1696966 0.574
-0.063927285 0.1696966 0.574
-0.06232537 0.16940098 0.57300001
-0.060834821 0.16940098 0.57300001
-0.05924071 0.16910534 0.57200003
-0.057752762 0.16910534 0.57200003
-0.056068093 0.16851406 0.57000005
-0.054585353 0.16851406 0.57000005
-0.053009443 0.1682184 0.56900001
-0.051529299 0.1682184 0.56900001
-0.049961198 0.16792278 0.56800002
-0.048483659 0.16792278 0.56800002
-0.046923362 0.16762714 0.56700003
-0.04544843 0.16762714 0.56700003
-0.043973491 0.16762714 0.56700003
-0.042498551 0.16762714 0.56700003
-0.040951259 0.1673315 0.56600004
-0.039478924 0.1673315 0.56600004
-0.038006585 0.1673315 0.56600004
-0.03653425 0.1673315 0.56600004
-0.035061914 0.1673315 0.56600004
-0.033530228 0.16703585 0.565
-0.032060493 0.16703585 0.565
-0.030590756 0.16703585 0.565
-0.02906948 0.16674022 0.56400001
-0.027553406 0.16644458 0.56300002
-0.026088871 0.16644458 0.56300002
-0.024580603 0.16614895 0.56200004
-0.023077535 0.16585332 0.56100005
-0.021618202 0.16585332 0.56100005
-0.020122938 0.16555767 0.56
-0.018632876 0.16526203 0.55900002
-0.01717875 0.16526203 0.55900002
-0.015696492 0.16496639 0.55800003
-0.014244965 0.16496639 0.55800003
-0.012770512 0.16467075 0.55700004
-0.011321586 0.16467075 0.55700004
-0.009854936 0.16437513 0.55600005
-0.0084086126 0.16437513 0.55600005
-0.0069622882 0.16437513 0.55600005
-0.0055159642 0.16437513 0.55600005
-0.0040696403 0.16437513 0.55600005
-0.0026185976 0.16407947 0.55500001
-0.0011748751 0.16407947 0.55500001
0.0002683631 0.16378383 0.55400002
0.0017094845 0.16378383 0.55400002
0.0031506058 0.16378383 0.55400002
0.0045917272 0.16378383 0.55400002
0.0060219588 0.16348819 0.55300003
0.0074604792 0.16348819 0.55300003
0.0088829072 0.16319257 0.55200005
0.010318826 0.16319257 0.55200005
0.011754745 0.16319257 0.55200005
0.013166767 0.16289692 0.551
0.014600083 0.16289692 0.551
0.016004303 0.16260128 0.55000001
0.01743502 0.16260128 0.55000001
0.018831436 0.16230564 0.54900002
0.020222645 0.16201001 0.54800004
0.021648161 0.16201001 0.54800004
0.02303157 0.16171438 0.54700005
0.024409773 0.16141872 0.546
0.025782777 0.16112308 0.54500002
0.027200487 0.16112308 0.54500002
0.028565684 0.16082746 0.54400003
0.029925684 0.16053182 0.54300004
0.031338193 0.16053182 0.54300004
0.032690383 0.16023618 0.54200006
0.03410029 0.16023618 0.54200006
0.035444673 0.15994053 0.54100001
0.03685198 0.15994053 0.54100001
0.038259283 0.15994053 0.54100001
0.039593268 0.15964489 0.54000002
0.040997975 0.15964489 0.54000002
0.042402677 0.15964489 0.54000002
0.043807376 0.15964489 0.54000002
0.045212079 0.15964489 0.54000002
0.046530459 0.15934926 0.53900003
0.047932561 0.15934926 0.53900003
0.049334664 0.15934926 0.53900003
0.050736766 0.15934926 0.53900003
0.052138865 0.15934926 0.53900003
0.053540967 0.15934926 0.53900003
0.05494307 0.15934926 0.53900003
0.056345172 0.15934926 0.53900003
0.057747275 0.15934926 0.53900003
0.059149377 0.15934926 0.53900003
0.060551479 0.15934926 0.53900003
0.061953578 0.15934926 0.53900003
0.063355677 0.15934926 0.53900003
0.064757779 0.15934926 0.53900003
0.066159882 0.15934926 0.53900003
0.067436635 0.15905362 0.53800005
0.068836145 0.15905362 0.53800005
0.070105083 0.15875797 0.537
0.071501985 0.15875797 0.537
0.07276313 0.15846233 0.53600001
0.074019074 0.15816671 0.53500003
0.075269826 0.15787107 0.53400004
0.076515362 0.15757543 0.53300005
0.077755697 0.15727977 0.53200001
0.078990832 0.15698415 0.53100002
0.080220766 0.15668851 0.53000003
0.081445493 0.15639287 0.52900004
0.082821578 0.15639287 0.52900004
0.084038503 0.15609722 0.528
0.085411988 0.15609722 0.528
0.086621113 0.15580159 0.52700001
0.087991998 0.15580159 0.52700001
0.08936289 0.15580159 0.52700001
0.090561606 0.15550596 0.52600002
0.091929883 0.15550596 0.52600002
0.093120806 0.15521032 0.52500004
0.094486482 0.15521032 0.52500004
0.095669597 0.15491468 0.52400005
0.096847489 0.15461902 0.523
0.098207973 0.15461902 0.523
0.099378079 0.1543234 0.52200001
0.10054298 0.15402776 0.52100003
0.10170268 0.15373212 0.52000004
0.10285717 0.1534365 0.51900005
0.10400646 0.15314084 0.51800001
0.10515055 0.1528452 0.51700002
0.11015387 0.14870626 0.50300002
0.20751871 0.16023618 0.54200006
0.2089286 0.16023618 0.54200006
0.20995042 0.15994053 0.54100001
0.21096705 0.15964489 0.54000002
0.21197848 0.15934926 0.53900003
0.21338058 0.15934926 0.53900003
0.2143842 0.15905362 0.53800005
0.2157837 0.15905362 0.53800005
0.2167795 0.15875797 0.537
0.21817639 0.15875797 0.537
0.21916442 0.15846233 0.53600001
0.2205587 0.15846233 0.53600001
0.22153892 0.15816671 0.53500003
0.22251393 0.15787107 0.53400004
0.22390303 0.15787107 0.53400004
0.22487023 0.15757543 0.53300005
0.22625673 0.15757543 0.53300005
0.22721611 0.15727977 0.53200001
0.2286 0.15727977 0.53200001
0.2295516 0.15698415 0.53100002
0.23049799 0.15668851 0.53000003
0.23143917 0.15639287 0.52900004
0.23237514 0.15609722 0.528
0.23374863 0.15609722 0.528
0.23467682 0.15580159 0.52700001
0.2355998 0.15550596 0.52600002
0.23651758 0.15521032 0.52500004
0.23743017 0.15491468 0.52400005
0.23879324 0.15491468 0.52400005
0.23969799 0.15461902 0.523
0.24059756 0.1543234 0.52200001
0.24149193 0.15402776 0.52100003
0.24238111 0.15373212 0.52000004
0.24326506 0.1534365 0.51900005
0.2441438 0.15314084 0.51800001
0.24501735 0.1528452 0.51700002
0.24636224 0.1528452 0.51700002
0.24722798 0.15254956 0.51600003
0.24808854 0.15225394 0.51500005
0.24894385 0.15195829 0.514
-0.36513287 0.19952255 0.66900003
-0.36230621 0.19892608 0.66700006
-0.36003056 0.19862783 0.66600001
-0.3577601 0.1983296 0.66500002
-0.35495949 0.19773312 0.66300005
-0.35323483 0.19773312 0.66300005
-0.35151014 0.19773312 0.66300005
-0.34978551 0.19773312 0.66300005
-0.34753585 0.19743489 0.66200006
-0.34581381 0.19743489 0.66200006
-0.34357193 0.19713663 0.66100001
-0.34185246 0.19713663 0.66100001
-0.34013301 0.19713663 0.66100001
-0.33790159 0.19683839 0.66000003
-0.33618474 0.19683839 0.66000003
-0.3339611 0.19654016 0.65900004
-0.33174267 0.19624192 0.65800005
-0.32952943 0.19594367 0.65700001
-0.32732141 0.19564544 0.65600002
-0.32561496 0.19564544 0.65600002
-0.32341477 0.19534719 0.65500003
-0.32121974 0.19504896 0.65400004
-0.31951848 0.19504896 0.65400004
-0.31733128 0.19475073 0.65300006
-0.31514928 0.19445246 0.65200001
-0.31297246 0.19415423 0.65100002
-0.31080088 0.193856 0.65000004
-0.30863446 0.19355775 0.64900005
-0.30694622 0.19355775 0.64900005
-0.30478761 0.19325951 0.648
-0.30263424 0.19296128 0.64700001
-0.30095118 0.19296128 0.64700001
-0.29834306 0.1923648 0.64500004
-0.29666522 0.1923648 0.64500004
-0.29453003 0.19206657 0.64400005
-0.29285482 0.19206657 0.64400005
-0.29117954 0.19206657 0.64400005
-0.28905475 0.1917683 0.64300001
-0.28738213 0.1917683 0.64300001
-0.2857095 0.1917683 0.64300001
-0.28403684 0.1917683 0.64300001
-0.28236419 0.1917683 0.64300001
-0.28069156 0.1917683 0.64300001
-0.27858502 0.19147007 0.64200002
-0.27691498 0.19147007 0.64200002
-0.27481622 0.19117184 0.64100003
-0.27314878 0.19117184 0.64100003
-0.27148134 0.19117184 0.64100003
-0.269393 0.19087359 0.64000005
-0.26730984 0.19057536 0.63900006
-0.26523188 0.19027711 0.63800001
-0.2631591 0.18997887 0.63700002
-0.26150209 0.18997887 0.63700002
-0.25902921 0.1893824 0.63500005
-0.25737739 0.1893824 0.63500005
-0.25532281 0.18908414 0.634
-0.25327349 0.18878591 0.63300002
-0.25162688 0.18878591 0.63300002
-0.24958535 0.18848768 0.63200003
-0.24754901 0.18818943 0.63100004
-0.24551786 0.1878912 0.63000005
-0.24349193 0.18759295 0.62900001
-0.24185571 0.18759295 0.62900001
-0.2398376 0.18729471 0.62800002
-0.23820399 0.18729471 0.62800002
-0.23619366 0.18699647 0.62700003
-0.23418854 0.18669824 0.62600005
-0.23256013 0.18669824 0.62600005
-0.2301939 0.18610175 0.62400001
-0.2282044 0.18580352 0.62300003
-0.22622009 0.18550527 0.62200004
-0.22460207 0.18550527 0.62200004
-0.22262558 0.18520704 0.62100005
-0.22065426 0.18490879 0.62
-0.21904144 0.18490879 0.62
-0.21707796 0.18461055 0.61900002
-0.21546775 0.18461055 0.61900002
-0.21385755 0.18461055 0.61900002
-0.21224734 0.18461055 0.61900002
-0.21063712 0.18461055 0.61900002
-0.20902692 0.18461055 0.61900002
-0.20741671 0.18461055 0.61900002
-0.20580652 0.18461055 0.61900002
-0.20419632 0.18461055 0.61900002
-0.2025861 0.18461055 0.61900002
-0.20065121 0.18431231 0.61800003
-0.19904362 0.18431231 0.61800003
-0.19711654 0.18401408 0.61700004
-0.19551155 0.18401408 0.61700004
-0.19359227 0.18371584 0.61600006
-0.19198985 0.18371584 0.61600006
-0.19007838 0.18341759 0.61500001
-0.18817212 0.18311936 0.61400002
-0.18657491 0.18311936 0.61400002
-0.18467644 0.18282111 0.61300004
-0.18308185 0.18282111 0.61300004
-0.18119119 0.18252288 0.61200005
-0.17930572 0.18222463 0.611
-0.17771631 0.18222463 0.611
-0.17583866 0.18192638 0.61000001
-0.17425187 0.18192638 0.61000001
-0.17266509 0.18192638 0.61000001
-0.17079784 0.18162815 0.60900003
-0.16893579 0.18132992 0.60800004
-0.1673542 0.18132992 0.60800004
-0.1657726 0.18132992 0.60800004
-0.16392097 0.18103167 0.60700005
-0.16234198 0.18103167 0.60700005
-0.16049813 0.18073343 0.60600001
-0.15892173 0.18073343 0.60600001
-0.1570857 0.1804352 0.60500002
-0.15551193 0.1804352 0.60500002
-0.15393811 0.1804352 0.60500002
-0.1521125 0.18013695 0.60400003
-0.15054132 0.18013695 0.60400003
-0.1487235 0.17983872 0.60300004
-0.14691088 0.17954049 0.60200006
-0.1453449 0.17954049 0.60200006
-0.14354005 0.17924222 0.60100001
-0.14197668 0.17924222 0.60100001
-0.13994604 0.17864576 0.59900004
-0.13838786 0.17864576 0.59900004
-0.13660125 0.17834753 0.59800005
-0.13481982 0.17804927 0.597
-0.13326685 0.17804927 0.597
-0.13149326 0.17775103 0.59600002
-0.12972486 0.17745279 0.59500003
-0.12796167 0.17715456 0.59400004
-0.12641649 0.17715456 0.59400004
-0.1246611 0.17685632 0.59300005
-0.12291089 0.17655806 0.59200001
-0.12137092 0.17655806 0.59200001
-0.11962854 0.17625983 0.59100002
-0.11809117 0.17625983 0.59100002
-0.11635659 0.1759616 0.59000003
-0.11482181 0.1759616 0.59000003
-0.11328705 0.1759616 0.59000003
-0.11156287 0.17566337 0.58900005
-0.1100307 0.17566337 0.58900005
-0.10849854 0.17566337 0.58900005
-0.10678475 0.17536511 0.588
-0.10507619 0.17506687 0.58700001
-0.10354922 0.17506687 0.58700001
-0.10184846 0.17476863 0.58600003
-0.1003241 0.17476863 0.58600003
-0.098631136 0.17447039 0.58500004
-0.097109377 0.17447039 0.58500004
-0.095587611 0.17447039 0.58500004
-0.093905054 0.17417216 0.58400005
-0.09222769 0.1738739 0.583
-0.090711132 0.1738739 0.583
-0.089041583 0.17357567 0.58200002
-0.087377235 0.17327744 0.58100003
-0.085865885 0.17327744 0.58100003
-0.08420933 0.17297921 0.58000004
-0.08270058 0.17297921 0.58000004
-0.081051841 0.17268096 0.57900006
-0.079408295 0.17238271 0.57800001
-0.077769965 0.17208447 0.57700002
-0.076269008 0.17208447 0.57700002
-0.074768059 0.17208447 0.57700002
-0.073140129 0.17178623 0.57600003
-0.07164178 0.17178623 0.57600003
-0.070021659 0.171488 0.57500005
-0.068525903 0.171488 0.57500005
-0.067030154 0.171488 0.57500005
-0.065420434 0.17118974 0.574
-0.063927285 0.17118974 0.574
-0.062434137 0.17118974 0.574
-0.060834821 0.17089151 0.57300001
-0.059344273 0.17089151 0.57300001
-0.057752762 0.17059328 0.57200003
-0.056166459 0.17029504 0.57100004
-0.054585353 0.1699968 0.57000005
-0.053102609 0.1699968 0.57000005
-0.051529299 0.16969855 0.56900001
-0.05004916 0.16969855 0.56900001
-0.048483659 0.16940032 0.56800002
-0.047006119 0.16940032 0.56800002
-0.04544843 0.16910207 0.56700003
-0.043973491 0.16910207 0.56700003
-0.042498551 0.16910207 0.56700003
-0.041023612 0.16910207 0.56700003
-0.039548673 0.16910207 0.56700003
-0.038006585 0.16880384 0.56600004
-0.03653425 0.16880384 0.56600004
-0.035061914 0.16880384 0.56600004
-0.033589575 0.16880384 0.56600004
-0.032060493 0.16850558 0.565
-0.030590756 0.16850558 0.565
-0.02906948 0.16820735 0.56400001
-0.027602345 0.16820735 0.56400001
-0.026088871 0.16790912 0.56300002
-0.024580603 0.16761088 0.56200004
-0.023118671 0.16761088 0.56200004
-0.021618202 0.16731264 0.56100005
-0.020122938 0.16701439 0.56
-0.01866621 0.16701439 0.56
-0.01717875 0.16671616 0.55900002
-0.015696492 0.16641791 0.55800003
-0.014244965 0.16641791 0.55800003
-0.012770512 0.16611968 0.55700004
-0.011321586 0.16611968 0.55700004
-0.009854936 0.16582145 0.55600005
-0.0084086126 0.16582145 0.55600005
-0.0069622882 0.16582145 0.55600005
-0.0055159642 0.16582145 0.55600005
-0.0040696403 0.16582145 0.55600005
-0.0026185976 0.16552319 0.55500001
-0.0011748751 0.16552319 0.55500001
0.00026884751 0.16552319 0.55500001
0.0017094845 0.16522495 0.55400002
0.0031506058 0.16522495 0.55400002
0.0045917272 0.16522495 0.55400002
0.0060219588 0.16492672 0.55300003
0.0074604792 0.16492672 0.55300003
0.0088829072 0.16462848 0.55200005
0.010318826 0.16462848 0.55200005
0.011754745 0.16462848 0.55200005
0.013166767 0.16433023 0.551
0.014600083 0.16433023 0.551
0.016033402 0.16433023 0.551
0.01743502 0.164032 0.55000001
0.018831436 0.16373375 0.54900002
0.020259548 0.16373375 0.54900002
0.021648161 0.16343552 0.54800004
0.02303157 0.16313729 0.54700005
0.024409773 0.16283903 0.546
0.025830084 0.16283903 0.546
0.027200487 0.16254079 0.54500002
0.028565684 0.16224256 0.54400003
0.029980794 0.16224256 0.54400003
0.031338193 0.16194431 0.54300004
0.032750696 0.16194431 0.54300004
0.03410029 0.16164608 0.54200006
0.035510194 0.16164608 0.54200006
0.03685198 0.16134784 0.54100001
0.038259283 0.16134784 0.54100001
0.039666589 0.16134784 0.54100001
0.040997975 0.16104959 0.54000002
0.042402677 0.16104959 0.54000002
0.043807376 0.16104959 0.54000002
0.045212079 0.16104959 0.54000002
0.046616785 0.16104959 0.54000002
0.047932561 0.16075136 0.53900003
0.049334664 0.16075136 0.53900003
0.050736766 0.16075136 0.53900003
0.052138865 0.16075136 0.53900003
0.053540967 0.16075136 0.53900003
0.05494307 0.16075136 0.53900003
0.056345172 0.16075136 0.53900003
0.057747275 0.16075136 0.53900003
0.059149377 0.16075136 0.53900003
0.060551479 0.16075136 0.53900003
0.061953578 0.16075136 0.53900003
0.063355677 0.16075136 0.53900003
0.064757779 0.16075136 0.53900003
0.066159882 0.16075136 0.53900003
0.067561984 0.16075136 0.53900003
0.068836145 0.16045313 0.53800005
0.07023564 0.16045313 0.53800005
0.071501985 0.16015486 0.537
0.07276313 0.15985663 0.53600001
0.074019074 0.1595584 0.53500003
0.075269826 0.15926015 0.53400004
0.076515362 0.15896192 0.53300005
0.077755697 0.15866368 0.53200001
0.078990832 0.15836543 0.53100002
0.080220766 0.1580672 0.53000003
0.081445493 0.15776896 0.52900004
0.082821578 0.15776896 0.52900004
0.084038503 0.1574707 0.528
0.085411988 0.1574707 0.528
0.086621113 0.15717247 0.52700001
0.087991998 0.15717247 0.52700001
0.08936289 0.15717247 0.52700001
0.090733774 0.15717247 0.52700001
0.091929883 0.15687424 0.52600002
0.093298174 0.15687424 0.52600002
0.094486482 0.15657599 0.52500004
0.095669597 0.15627776 0.52400005
0.096847489 0.15597951 0.523
0.098207973 0.15597951 0.523
0.099187702 0.15538304 0.52100003
0.10035 0.1550848 0.52000004
0.1015071 0.15478656 0.51900005
0.10285717 0.15478656 0.51900005
0.10380568 0.15419008 0.51700002
0.10494716 0.15389183 0.51600003
0.10608345 0.1535936 0.51500005
0.10679735 0.15269887 0.51200002
0.10770684 0.1521024 0.51000005
0.19877391 0.16373375 0.54900002
0.20336895 0.16283903 0.546
0.20507658 0.16194431 0.54300004
0.20648907 0.16194431 0.54300004
0.20751871 0.16164608 0.54200006
0.20854311 0.16134784 0.54100001
0.20956235 0.16104959 0.54000002
0.21057639 0.16075136 0.53900003
0.21197848 0.16075136 0.53900003
0.2129847 0.16045313 0.53800005
0.2139857 0.16015486 0.537
0.21538259 0.16015486 0.537
0.21637583 0.15985663 0.53600001
0.21777011 0.15985663 0.53600001
0.21875553 0.1595584 0.53500003
0.21973574 0.15926015 0.53400004
0.22112483 0.15926015 0.53400004
0.22209725 0.15896192 0.53300005
0.22348374 0.15896192 0.53300005
0.22444831 0.15866368 0.53200001
0.22583221 0.15866368 0.53200001
0.22721611 0.15866368 0.53200001
0.22817031 0.15836543 0.53100002
0.2291193 0.1580672 0.53000003
0.23049799 0.1580672 0.53000003
0.23143917 0.15776896 0.52900004
0.23237514 0.1574707 0.528
0.23330593 0.15717247 0.52700001
0.23467682 0.15717247 0.52700001
0.2355998 0.15687424 0.52600002
0.23651758 0.15657599 0.52500004
0.23697704 0.15597951 0.523
0.23833752 0.15597951 0.523
0.23923968 0.15568127 0.52200001
0.23967575 0.1550848 0.52000004
0.2405649 0.15478656 0.51900005
0.24144885 0.15448831 0.51800001
0.24232762 0.15419008 0.51700002
0.24320117 0.15389183 0.51600003
0.24454343 0.15389183 0.51600003
0.24540921 0.1535936 0.51500005
0.24626972 0.15329535 0.514
0.24712507 0.15299711 0.51300001
0.24797522 0.15269887 0.51200002
-0.36622444 0.2018645 0.671
-0.36284938 0.20096198 0.66800004
-0.36057118 0.20066114 0.66700006
-0.35829806 0.20036028 0.66600001
-0.35603026 0.20005946 0.66500002
-0.3537676 0.19975862 0.66400003
-0.35151014 0.19945778 0.66300005
-0.34978551 0.19945778 0.66300005
-0.34806082 0.19945778 0.66300005
-0.34581381 0.19915694 0.66200006
-0.34357193 0.19885609 0.66100001
-0.34185246 0.19885609 0.66100001
-0.34013301 0.19885609 0.66100001
-0.33790159 0.19855525 0.66000003
-0.33618474 0.19855525 0.66000003
-0.3339611 0.19825441 0.65900004
-0.33174267 0.19795357 0.65800005
-0.33003104 0.19795357 0.65800005
-0.32732141 0.19735187 0.65600002
-0.32561496 0.19735187 0.65600002
-0.32341477 0.19705105 0.65500003
-0.32121974 0.19675021 0.65400004
-0.31951848 0.19675021 0.65400004
-0.31733128 0.19644937 0.65300006
-0.31514928 0.19614851 0.65200001
-0.31297246 0.19584768 0.65100002
-0.31127903 0.19584768 0.65100002
-0.30911002 0.19554684 0.65000004
-0.30694622 0.195246 0.64900005
-0.30478761 0.19494514 0.648
-0.30263424 0.1946443 0.64700001
-0.30095118 0.1946443 0.64700001
-0.29880559 0.19434346 0.64600003
-0.29666522 0.19404264 0.64500004
-0.29498738 0.19404264 0.64500004
-0.29330954 0.19404264 0.64500004
-0.29117954 0.1937418 0.64400005
-0.28950432 0.1937418 0.64400005
-0.28782907 0.1937418 0.64400005
-0.2857095 0.19344094 0.64300001
-0.28403684 0.19344094 0.64300001
-0.28236419 0.19344094 0.64300001
-0.28069156 0.19344094 0.64300001
-0.27901894 0.19344094 0.64300001
-0.27691498 0.1931401 0.64200002
-0.27524495 0.1931401 0.64200002
-0.27314878 0.19283926 0.64100003
-0.27148134 0.19283926 0.64100003
-0.269393 0.19253843 0.64000005
-0.26730984 0.19223759 0.63900006
-0.26523188 0.19193673 0.63800001
-0.2631591 0.19163589 0.63700002
-0.26109156 0.19133507 0.63600004
-0.25902921 0.19103423 0.63500005
-0.25737739 0.19103423 0.63500005
-0.25532281 0.19073337 0.634
-0.25327349 0.19043253 0.63300002
-0.25122935 0.19013169 0.63200003
-0.24919043 0.18983085 0.63100004
-0.24754901 0.18983085 0.63100004
-0.24551786 0.18953001 0.63000005
-0.24349193 0.18922916 0.62900001
-0.24185571 0.18922916 0.62900001
-0.2398376 0.18892832 0.62800002
-0.23820399 0.18892832 0.62800002
-0.23619366 0.18862748 0.62700003
-0.23418854 0.18832666 0.62600005
-0.23256013 0.18832666 0.62600005
-0.23056281 0.1880258 0.625
-0.2285707 0.18772496 0.62400001
-0.22622009 0.18712328 0.62200004
-0.22460207 0.18712328 0.62200004
-0.22262558 0.18682244 0.62100005
-0.22101018 0.18682244 0.62100005
-0.21939474 0.18682244 0.62100005
-0.21777934 0.18682244 0.62100005
-0.21581583 0.18652159 0.62
-0.21420303 0.18652159 0.62
-0.21259023 0.18652159 0.62
-0.21097741 0.18652159 0.62
-0.20936461 0.18652159 0.62
-0.2077518 0.18652159 0.62
-0.20580652 0.18622075 0.61900002
-0.20419632 0.18622075 0.61900002
-0.2025861 0.18622075 0.61900002
-0.20097589 0.18622075 0.61900002
-0.19904362 0.18591991 0.61800003
-0.19711654 0.18561907 0.61700004
-0.19551155 0.18561907 0.61700004
-0.19390653 0.18561907 0.61700004
-0.19198985 0.18531825 0.61600006
-0.19038746 0.18531825 0.61600006
-0.18817212 0.18471655 0.61400002
-0.18657491 0.18471655 0.61400002
-0.18467644 0.18441571 0.61300004
-0.18308185 0.18441571 0.61300004
-0.18119119 0.18411487 0.61200005
-0.17930572 0.18381402 0.611
-0.17771631 0.18381402 0.611
-0.17612693 0.18381402 0.611
-0.17425187 0.18351318 0.61000001
-0.17266509 0.18351318 0.61000001
-0.17079784 0.18321234 0.60900003
-0.16893579 0.1829115 0.60800004
-0.1673542 0.1829115 0.60800004
-0.16549996 0.18261066 0.60700005
-0.16392097 0.18261066 0.60700005
-0.16234198 0.18261066 0.60700005
-0.16049813 0.18230981 0.60600001
-0.15865949 0.18200898 0.60500002
-0.1570857 0.18200898 0.60500002
-0.15551193 0.18200898 0.60500002
-0.15393811 0.18200898 0.60500002
-0.1521125 0.18170814 0.60400003
-0.15054132 0.18170814 0.60400003
-0.1487235 0.1814073 0.60300004
-0.14691088 0.18110646 0.60200006
-0.1453449 0.18110646 0.60200006
-0.14354005 0.18080561 0.60100001
-0.14197668 0.18080561 0.60100001
-0.14017966 0.18050477 0.60000002
-0.13838786 0.18020393 0.59900004
-0.13660125 0.17990309 0.59800005
-0.13504566 0.17990309 0.59800005
-0.13326685 0.17960224 0.597
-0.13149326 0.1793014 0.59600002
-0.12972486 0.17900057 0.59500003
-0.12817708 0.17900057 0.59500003
-0.12641649 0.17869973 0.59400004
-0.1246611 0.17839889 0.59300005
-0.12291089 0.17809804 0.59200001
-0.12137092 0.17809804 0.59200001
-0.11983095 0.17809804 0.59200001
-0.11809117 0.1777972 0.59100002
-0.1165538 0.1777972 0.59100002
-0.11482181 0.17749636 0.59000003
-0.11328705 0.17749636 0.59000003
-0.11175228 0.17749636 0.59000003
-0.1100307 0.17719552 0.58900005
