# .PCD v0.7 - Point Cloud Data file format
VERSION 0.7
FIELDS x y z rgb
SIZE 4 4 4 4
TYPE F F F F
COUNT 1 1 1 1
WIDTH 1505
HEIGHT 1
VIEWPOINT 0 0 0 1 0 0 0
POINTS 1505
DATA ascii
-0 0 0 0
-0 0 0 0
-0 0 0 0
-0 0 0 0
-0 0 0 0
-0 0 0 0
-0.050752837 0.13305974 0.57700002 0
-0.04916653 0.13282913 0.57600003 0
-0.047585424 0.13259853 0.57500005 0
-0.046009518 0.13236791 0.574 0
-0.044361264 0.1319067 0.57200003 0
-0.042723414 0.1314455 0.57000005 0
-0.041168313 0.13121489 0.56900001 0
-0.039618421 0.13098428 0.56800002 0
-0.038073733 0.13075368 0.56700003 0
-0.036469702 0.13029246 0.565 0
-0.034938019 0.13006185 0.56400001 0
-0.033411536 0.12983125 0.56300002 0
-0.031890262 0.12960064 0.56200004 0
-0.030374186 0.12937005 0.56100005 0
-0.028863313 0.12913942 0.56 0
-0.027357643 0.12890883 0.55900002 0
-0.025857177 0.12867822 0.55800003 0
-0.024361914 0.12844762 0.55700004 0
-0.022912988 0.12844762 0.55700004 0
-0.021425528 0.12821701 0.55600005 0
-0.019943269 0.1279864 0.55500001 0
-0.018466214 0.12775579 0.55400002 0
-0.016994363 0.1275252 0.55300003 0
-0.015527712 0.12729459 0.55200005 0
-0.014091793 0.12729459 0.55200005 0
-0.012632946 0.12706397 0.551 0
-0.011179303 0.12683336 0.55000001 0
-0.0097308634 0.12660277 0.54900002 0
-0.0082876245 0.12637216 0.54800004 0
-0.0068495893 0.12614156 0.54700005 0
-0.0054266769 0.12614156 0.54700005 0
-0.0039964449 0.12591094 0.546 0
-0.0025761339 0.12591094 0.546 0
-0.001155823 0.12591094 0.546 0
0 0 0 0
0 0 0 0
0 0 0 0
0 0 0 0
0 0 0 0
0 0 0 0
0 0 0 0
0 0 0 0
0 0 0 0
0 0 0 0
0 0 0 0
0 0 0 0
0.016262118 0.11830094 0.51300001 0
0.017562285 0.11807034 0.51200002 0
0.018894151 0.11807034 0.51200002 0
0.020226019 0.11807034 0.51200002 0
0.021557886 0.11807034 0.51200002 0
0.02288975 0.11807034 0.51200002 0
0.02417431 0.11783974 0.51100004 0
0.025453668 0.11760914 0.51000005 0
0.026780332 0.11760914 0.51000005 0
0.028106995 0.11760914 0.51000005 0
0.029375944 0.11737852 0.509 0
0.030639693 0.11714792 0.50800002 0
0.031898241 0.11691731 0.50700003 0
0.033217099 0.11691731 0.50700003 0
0.034467842 0.11668671 0.50600004 0
0.035713378 0.11645609 0.505 0
0.036953717 0.11622549 0.50400001 0
0.038188852 0.11599489 0.50300002 0
0.039418787 0.11576428 0.50200003 0
0.040643513 0.11553368 0.50100005 0
0.041863035 0.11530306 0.5 0
0.043163687 0.11530306 0.5 0
0.044375412 0.11507246 0.49900001 0
0.045581933 0.11484186 0.49800003 0
0.04687738 0.11484186 0.49800003 0
0.048076093 0.11461125 0.49700001 0
0.049269609 0.11438064 0.49600002 0
0.050457921 0.11415004 0.49500003 0
0.051641028 0.11391943 0.49400002 0
0.052926071 0.11391943 0.49400002 0
0.053991634 0.11345822 0.49200001 0
0.055271477 0.11345822 0.49200001 0
0.056436375 0.11322761 0.49100003 0
0.057596069 0.112997 0.49000001 0
0.058750566 0.1127664 0.48900002 0
0.059899859 0.1125358 0.48800004 0
0.061169293 0.1125358 0.48800004 0
0.062310781 0.11230519 0.48700002 0
0.063447066 0.11207458 0.48600003 0
0.064578146 0.11184397 0.48500001 0
0.065839775 0.11184397 0.48500001 0
0.066824697 0.11138276 0.48300001 0
0.068081133 0.11138276 0.48300001 0
0.069194004 0.11115216 0.48200002 0
0.070301682 0.11092155 0.48100004 0
0.071404144 0.11069094 0.48000002 0
0.072501414 0.11046034 0.47900003 0
0.073439509 0.10999913 0.47700003 0
0.074680328 0.10999913 0.47700003 0
0.075761989 0.10976852 0.47600001 0
0.076838441 0.10953791 0.47500002 0
0.077745326 0.1090767 0.47300002 0
0.078808777 0.1088461 0.47200003 0
0.07986702 0.10861549 0.47100002 0
0.081092231 0.10861549 0.47100002 0
0.081967898 0.10815427 0.46900001 0
0.083010547 0.10792367 0.46800002 0
0.084047973 0.10769306 0.46700001 0
0.085262783 0.10769306 0.46700001 0
0.086292416 0.10746246 0.46600002 0
0.087316841 0.10723186 0.46500003 0
0.08852645 0.10723186 0.46500003 0
0.089543074 0.10700125 0.46400002 0
0.090750083 0.10700125 0.46400002 0
0.091758899 0.10677064 0.46300003 0
0.092762522 0.10654003 0.46200001 0
0.093964316 0.10654003 0.46200001 0
0.094960131 0.10630943 0.46100003 0
0.095950745 0.10607882 0.46000001 0
0.096936151 0.10584822 0.45900002 0
0.097916365 0.10561761 0.45800003 0
0.098891363 0.105387 0.45700002 0
0.099861167 0.1051564 0.45600003 0
0.10082576 0.10492579 0.45500001 0
0.10200936 0.10492579 0.45500001 0
0.10296615 0.10469519 0.45400003 0
0.10391774 0.10446458 0.45300001 0
0.10509613 0.10446458 0.45300001 0
0.10603992 0.10423397 0.45200002 0
0.10721571 0.10423397 0.45200002 0
0.1081517 0.10400337 0.45100003 0
0.10908248 0.10377276 0.45000002 0
0.11000806 0.10354216 0.44900003 0
0.11117604 0.10354216 0.44900003 0
0.11209381 0.10331155 0.44800001 0
0.11300638 0.10308094 0.44700003 0
0.11391376 0.10285033 0.44600001 0
0.11481593 0.10261973 0.44500002 0
0.1157129 0.10238913 0.44400004 0
0.11660465 0.10215852 0.44300002 0
0.11749122 0.10192791 0.44200003 0
0.118641 0.10192791 0.44200003 0
0.11951974 0.1016973 0.44100001 0
0.12066691 0.1016973 0.44100001 0
0.12153786 0.1014667 0.44000003 0
0.12240362 0.10123609 0.43900001 0
0.12326417 0.10100549 0.43800002 0
0.12411951 0.10077488 0.43700001 0
0.12525627 0.10077488 0.43700001 0
0.12610382 0.10054427 0.43600002 0
0.12694617 0.10031367 0.43500003 0
0.12807773 0.10031367 0.43500003 0
0.12891226 0.10008306 0.43400002 0
0.12974158 0.099852458 0.43300003 0
0.13086794 0.099852458 0.43300003 0
0.13168947 0.099621847 0.43200001 0
0.1325058 0.099391244 0.43100002 0
0.13331692 0.099160634 0.43000001 0
0.13412283 0.098930031 0.42900002 0
0.13523881 0.098930031 0.42900002 0
0.13603693 0.098699428 0.42800003 0
0.13682982 0.098468818 0.42700002 0
0.13761754 0.098238215 0.42600003 0
0.1387257 0.098238215 0.42600003 0
0.13950561 0.098007604 0.42500001 0
0.14061116 0.098007604 0.42500001 0
0.14138326 0.097777002 0.42400002 0
0.14248621 0.097777002 0.42400002 0
0.14358915 0.097777002 0.42400002 0
0.14435086 0.097546391 0.42300001 0
0.1454512 0.097546391 0.42300001 0
0.1462051 0.097315788 0.42200002 0
0.14730285 0.097315788 0.42200002 0
0.14804894 0.097085185 0.42100003 0
0.14878984 0.096854575 0.42000002 0
0.14952552 0.096623972 0.41900003 0
0.15025599 0.096393362 0.41800001 0
0.15098128 0.096162759 0.41700003 0
0.15170135 0.095932148 0.41600001 0
0.15278348 0.095932148 0.41600001 0
0.15349576 0.095701545 0.41500002 0
0.15420283 0.095470943 0.41400003 0
0.15527977 0.095470943 0.41400003 0
0.15597904 0.095240332 0.41300002 0
0.1566731 0.095009729 0.41200003 0
0.15774484 0.095009729 0.41200003 0
0.1584311 0.094779119 0.41100001 0
0.15950023 0.094779119 0.41100001 0
0.16017869 0.094548516 0.41000003 0
0.16085194 0.094317906 0.40900001 0
0.16191587 0.094317906 0.40900001 0
0.16258132 0.094087303 0.40800002 0
0.16364264 0.094087303 0.40800002 0
0.16430029 0.093856692 0.40700001 0
0.16495274 0.093626089 0.40600002 0
0.16600886 0.093626089 0.40600002 0
0.16706499 0.093626089 0.40600002 0
0.16770703 0.093395486 0.40500003 0
0.16834387 0.093164876 0.40400001 0
0.16939479 0.093164876 0.40400001 0
0.17002383 0.092934273 0.40300003 0
0.17064765 0.092703663 0.40200001 0
0.17126629 0.09247306 0.40100002 0
0.1723094 0.09247306 0.40100002 0
0.17292021 0.09224245 0.40000001 0
0.17352584 0.092011847 0.39900002 0
0.17412625 0.091781244 0.39800003 0
0.17516159 0.091781244 0.39800003 0
0.17575419 0.091550633 0.39700001 0
0.1767869 0.091550633 0.39700001 0
0.17737171 0.09132003 0.39600003 0
0.17840183 0.09132003 0.39600003 0
0.17897883 0.09108942 0.39500001 0
0.18000634 0.09108942 0.39500001 0
0.18057555 0.090858817 0.39400002 0
0.18113954 0.090628207 0.39300001 0
0.18216185 0.090628207 0.39300001 0
0.18271805 0.090397604 0.39200002 0
0.18326905 0.090167001 0.39100003 0
0.18428616 0.090167001 0.39100003 0
0.18482934 0.089936391 0.39000002 0
-0 0 0 0
-0 0 0 0
-0 0 0 0
-0 0 0 0
-0 0 0 0
-0 0 0 0
-0 0 0 0
-0 0 0 0
-0 0 0 0
-0 0 0 0
-0 0 0 0
-0 0 0 0
-0 0 0 0
-0 0 0 0
-0 0 0 0
-0 0 0 0
-0 0 0 0
-0 0 0 0
-0 0 0 0
-0 0 0 0
-0 0 0 0
-0.36001563 0.19006406 0.81500006 0
-0.356139 0.18913123 0.81100005 0
-0.35402936 0.18913123 0.81100005 0
-0.35061789 0.18843161 0.80800003 0
-0.34808472 0.1881984 0.80700004 0
-0.34555674 0.1879652 0.80600005 0
-0.34218168 0.18726556 0.80300003 0
-0.3392458 0.18679915 0.80100006 0
-0.33589938 0.18609953 0.79800004 0
-0.33298689 0.18563312 0.79600006 0
-0.3300848 0.1851667 0.79400003 0
-0.32760623 0.1849335 0.79300004 0
-0.32431182 0.18423386 0.79000002 0
-0.3218489 0.18400066 0.78900003 0
-0.31898585 0.18353425 0.78700006 0
-0.31653586 0.18330103 0.78600001 0
-0.31409115 0.18306783 0.78500003 0
-0.31165162 0.18283463 0.78400004 0
-0.30882236 0.18236822 0.78200006 0
-0.30639583 0.182135 0.78100002 0
-0.30358478 0.18166859 0.77900004 0
-0.30078414 0.18120217 0.77700001 0
-0.29799393 0.18073575 0.77500004 0
-0.29521412 0.18026935 0.77300006 0
-0.29244471 0.17980292 0.77100003 0
-0.28930897 0.1791033 0.76800001 0
-0.28618887 0.17840369 0.76500005 0
-0.28308436 0.17770407 0.76200002 0
-0.28036439 0.17723764 0.76000005 0
-0.2776548 0.17677122 0.75800002 0
-0.2749556 0.17630482 0.75600004 0
-0.27190572 0.17560519 0.75300002 0
-0.26851296 0.17467237 0.74900001 0
-0.26585281 0.17420594 0.74700004 0
-0.26320305 0.17373954 0.74500006 0
-0.26021299 0.17303991 0.74200004 0
-0.25723857 0.17234029 0.73900002 0
-0.25462523 0.17187388 0.73700005 0
-0.2520223 0.17140746 0.73500001 0
-0.24942975 0.17094105 0.73300004 0
-0.24684761 0.17047462 0.73100001 0
-0.244611 0.17024142 0.73000002 0
-0.24204709 0.16977501 0.72800004 0
-0.23949358 0.16930859 0.72600001 0
-0.23727773 0.16907538 0.72500002 0
-0.23506713 0.16884218 0.72400004 0
-0.23221755 0.16814256 0.72100002 0
-0.2293836 0.16744293 0.71800005 0
-0.22688212 0.16697651 0.71600002 0
-0.22407675 0.1662769 0.71300006 0
-0.22159867 0.16581048 0.71100003 0
-0.21882193 0.16511086 0.708 0
-0.21606082 0.16441125 0.70500004 0
-0.21361914 0.16394481 0.70300001 0
-0.2111879 0.1634784 0.70100003 0
-0.20906574 0.1632452 0.70000005 0
-0.20665269 0.16277878 0.69800001 0
-0.20425007 0.16231237 0.69600004 0
-0.20214869 0.16207917 0.69500005 0
-0.19976425 0.16161275 0.69300002 0
-0.19739024 0.16114634 0.69100004 0
-0.19502662 0.16067992 0.68900001 0
-0.19267343 0.1602135 0.68700004 0
-0.19060847 0.1599803 0.68600005 0
-0.18827346 0.15951388 0.68400002 0
-0.18594888 0.15904747 0.68200004 0
-0.18363468 0.15858105 0.68000001 0
-0.1813309 0.15811464 0.67800003 0
-0.17930236 0.15788144 0.67700005 0
-0.17701678 0.15741502 0.67500001 0
-0.17500126 0.1571818 0.67400002 0
-0.17299095 0.1569486 0.67300004 0
-0.17073137 0.15648217 0.671 0
-0.16848221 0.15601577 0.66900003 0
-0.16649272 0.15578257 0.66800004 0
-0.16426176 0.15531614 0.66600001 0
-0.16204122 0.15484974 0.66400003 0
-0.15983109 0.15438333 0.66200006 0
-0.15763135 0.15391691 0.66000003 0
-0.15544203 0.15345049 0.65800005 0
-0.15326311 0.15298407 0.65600002 0
-0.15155664 0.15298407 0.65600002 0
-0.14939333 0.15251766 0.65400004 0
-0.14746626 0.15228446 0.65300006 0
-0.14532115 0.15181804 0.65100002 0
-0.14340708 0.15158483 0.65000004 0
-0.14128017 0.15111841 0.648 0
-0.13937911 0.15088521 0.64700001 0
-0.13727042 0.15041879 0.64500004 0
-0.13517214 0.14995237 0.64300001 0
-0.13308427 0.14948596 0.64100003 0
-0.13100679 0.14901955 0.63900006 0
-0.12893973 0.14855313 0.63700002 0
-0.12688307 0.14808673 0.63500005 0
-0.12483681 0.14762031 0.63300002 0
-0.12299557 0.1473871 0.63200003 0
-0.12115954 0.14715388 0.63100004 0
-0.11932871 0.14692068 0.63000005 0
-0.11750307 0.14668746 0.62900001 0
-0.11568265 0.14645426 0.62800002 0
-0.11368582 0.14598785 0.62600005 0
-0.11169939 0.14552143 0.62400001 0
-0.11007617 0.14552143 0.62400001 0
-0.10810536 0.14505503 0.62200004 0
-0.10631616 0.14482182 0.62100005 0
-0.10436354 0.1443554 0.61900002 0
-0.10242134 0.143889 0.61700004 0
-0.10065294 0.14365578 0.61600006 0
-0.098889738 0.14342256 0.61500001 0
-0.097131737 0.14318936 0.61400002 0
-0.09537895 0.14295615 0.61300004 0
-0.093784355 0.14295615 0.61300004 0
-0.092189752 0.14295615 0.61300004 0
-0.090595156 0.14295615 0.61300004 0
-0 0 0 0
-0 0 0 0
-0 0 0 0
-0 0 0 0
-0 0 0 0
-0 0 0 0
-0 0 0 0
-0 0 0 0
-0 0 0 0
-0 0 0 0
-0 0 0 0
-0 0 0 0
-0 0 0 0
-0 0 0 0
-0 0 0 0
-0 0 0 0
-0 0 0 0
-0 0 0 0
-0 0 0 0
-0.055255696 0.13456069 0.57700002 0
-0.053754743 0.13456069 0.57700002 0
-0.052163232 0.13432749 0.57600003 0
-0.050664879 0.13432749 0.57600003 0
-0.049081173 0.13409428 0.57500005 0
-0.047502663 0.13386106 0.574 0
-0.045929361 0.13362786 0.57300001 0
-0.044361264 0.13339464 0.57200003 0
-0.042723414 0.13292824 0.57000005 0
-0.041168313 0.13269502 0.56900001 0
-0.039548673 0.13222861 0.56700003 0
-0.038006585 0.13199541 0.56600004 0
-0.036469702 0.13176219 0.565 0
-0.034938019 0.13152899 0.56400001 0
-0.033411536 0.13129579 0.56300002 0
-0.031890262 0.13106258 0.56200004 0
-0.030374186 0.13082938 0.56100005 0
-0.028863313 0.13059616 0.56 0
-0.027357643 0.13036296 0.55900002 0
-0.025857177 0.13012974 0.55800003 0
-0.024361914 0.12989654 0.55700004 0
-0.022871852 0.12966333 0.55600005 0
-0.02138699 0.12943012 0.55500001 0
-0.019943269 0.12943012 0.55500001 0
-0.018466214 0.12919691 0.55400002 0
-0.016994363 0.12896371 0.55300003 0
-0.015527712 0.12873051 0.55200005 0
-0.014066264 0.12849729 0.551 0
-0.01261002 0.12826408 0.55000001 0
-0.011158978 0.12803088 0.54900002 0
-0.0097131385 0.12779768 0.54800004 0
-0.0082725016 0.12756447 0.54700005 0
-0.0068495893 0.12756447 0.54700005 0
-0.0054266769 0.12756447 0.54700005 0
-0.0039964449 0.12733126 0.546 0
-0.0025761339 0.12733126 0.546 0
-0.001155823 0.12733126 0.546 0
0 0 0 0
0 0 0 0
0 0 0 0
0 0 0 0
0 0 0 0
0 0 0 0
0 0 0 0
0 0 0 0
0 0 0 0
0 0 0 0
0 0 0 0
0 0 0 0
0.016293818 0.11986861 0.514 0
0.017596586 0.11963541 0.51300001 0
0.018931054 0.11963541 0.51300001 0
0.020226019 0.11940221 0.51200002 0
0.021557886 0.11940221 0.51200002 0
0.02288975 0.11940221 0.51200002 0
0.024221618 0.11940221 0.51200002 0
0.025503576 0.119169 0.51100004 0
0.026780332 0.11893579 0.51000005 0
0.028106995 0.11893579 0.51000005 0
0.029375944 0.11870258 0.509 0
0.030639693 0.11846937 0.50800002 0
0.031898241 0.11823617 0.50700003 0
0.033151582 0.11800297 0.50600004 0
0.034399722 0.11776975 0.505 0
0.035713378 0.11776975 0.505 0
0.036953717 0.11753654 0.50400001 0
0.038188852 0.11730333 0.50300002 0
0.039418787 0.11707013 0.50200003 0
0.040643513 0.11683693 0.50100005 0
0.041863035 0.11660371 0.5 0
0.043163687 0.11660371 0.5 0
0.044375412 0.11637051 0.49900001 0
0.045581933 0.1161373 0.49800003 0
0.04687738 0.1161373 0.49800003 0
0.048076093 0.11590409 0.49700001 0
0.049269609 0.11567088 0.49600002 0
0.050457921 0.11543768 0.49500003 0
0.051641028 0.11520447 0.49400002 0
0.052818935 0.11497127 0.49300003 0
0.053991634 0.11473805 0.49200001 0
0.055159137 0.11450485 0.49100003 0
0.056321431 0.11427164 0.49000001 0
0.057596069 0.11427164 0.49000001 0
0.058630422 0.11380523 0.48800004 0
0.059899859 0.11380523 0.48800004 0
0.06104394 0.11357202 0.48700002 0
0.062310781 0.11357202 0.48700002 0
0.063447066 0.11333881 0.48600003 0
0.064578146 0.1131056 0.48500001 0
0.065704025 0.1128724 0.48400003 0
0.066824697 0.11263919 0.48300001 0
0.067940176 0.11240598 0.48200002 0
0.069050446 0.11217277 0.48100004 0
0.070155516 0.11193956 0.48000002 0
0.071255386 0.11170636 0.47900003 0
0.072350048 0.11147315 0.47800002 0
0.073439509 0.11123995 0.47700003 0
0.074523762 0.11100674 0.47600001 0
0.075761989 0.11100674 0.47600001 0
0.076838441 0.11077353 0.47500002 0
0.077745326 0.11030711 0.47300002 0
0.078808777 0.11007391 0.47200003 0
0.07986702 0.1098407 0.47100002 0
0.081092231 0.1098407 0.47100002 0
0.081967898 0.10937428 0.46900001 0
0.083010547 0.10914108 0.46800002 0
0.084047973 0.10890786 0.46700001 0
0.085262783 0.10890786 0.46700001 0
0.086292416 0.10867466 0.46600002 0
0.087316841 0.10844146 0.46500003 0
0.08852645 0.10844146 0.46500003 0
0.089543074 0.10820825 0.46400002 0
0.090750083 0.10820825 0.46400002 0
0.091758899 0.10797504 0.46300003 0
0.092762522 0.10774183 0.46200001 0
0.093964316 0.10774183 0.46200001 0
0.094960131 0.10750863 0.46100003 0
0.095950745 0.10727541 0.46000001 0
0.096936151 0.10704221 0.45900002 0
0.097916365 0.10680901 0.45800003 0
0.098891363 0.10657579 0.45700002 0
0.099861167 0.10634259 0.45600003 0
0.10082576 0.10610938 0.45500001 0
0.10178516 0.10587618 0.45400003 0
0.10296615 0.10587618 0.45400003 0
0.10391774 0.10564296 0.45300001 0
0.10509613 0.10564296 0.45300001 0
0.10603992 0.10540976 0.45200002 0
0.10697851 0.10517655 0.45100003 0
0.1081517 0.10517655 0.45100003 0
0.10908248 0.10494334 0.45000002 0
0.11000806 0.10471014 0.44900003 0
0.11092843 0.10447693 0.44800001 0
0.1118436 0.10424373 0.44700003 0
0.11275357 0.10401051 0.44600001 0
0.11365835 0.1037773 0.44500002 0
0.11455791 0.1035441 0.44400004 0
0.1157129 0.1035441 0.44400004 0
0.11660465 0.10331089 0.44300002 0
0.11749122 0.10307769 0.44200003 0
0.118641 0.10307769 0.44200003 0
0.11951974 0.10284448 0.44100001 0
0.1203933 0.10261127 0.44000003 0
0.12153786 0.10261127 0.44000003 0
0.12240362 0.10237806 0.43900001 0
0.12326417 0.10214485 0.43800002 0
0.12411951 0.10191164 0.43700001 0
0.12496965 0.10167844 0.43600002 0
0.12610382 0.10167844 0.43600002 0
0.12694617 0.10144524 0.43500003 0
0.1277833 0.10121202 0.43400002 0
0.12891226 0.10121202 0.43400002 0
0.12974158 0.10097882 0.43300003 0
0.1305657 0.10074561 0.43200001 0
0.13168947 0.10074561 0.43200001 0
0.1325058 0.1005124 0.43100002 0
0.13331692 0.10027919 0.43000001 0
0.13412283 0.10004599 0.42900002 0
0.13492358 0.099812783 0.42800003 0
0.13571908 0.099579573 0.42700002 0
0.13650939 0.09934637 0.42600003 0
0.13761754 0.09934637 0.42600003 0
0.13840005 0.099113159 0.42500001 0
0.13950561 0.099113159 0.42500001 0
0.14028031 0.098879948 0.42400002 0
0.14138326 0.098879948 0.42400002 0
0.14248621 0.098879948 0.42400002 0
0.1432505 0.098646738 0.42300001 0
0.14435086 0.098646738 0.42300001 0
0.14510736 0.098413534 0.42200002 0
0.1462051 0.098413534 0.42200002 0
0.14695379 0.098180331 0.42100003 0
0.14804894 0.098180331 0.42100003 0
0.14878984 0.097947121 0.42000002 0
0.14952552 0.097713917 0.41900003 0
0.15025599 0.097480707 0.41800001 0
0.15098128 0.097247496 0.41700003 0
0.15170135 0.097014286 0.41600001 0
0.15278348 0.097014286 0.41600001 0
0.15349576 0.096781082 0.41500002 0
0.15420283 0.096547879 0.41400003 0
0.15490469 0.096314669 0.41300002 0
0.15597904 0.096314669 0.41300002 0
0.1566731 0.096081465 0.41200003 0
0.15774484 0.096081465 0.41200003 0
0.1584311 0.095848255 0.41100001 0
0.15950023 0.095848255 0.41100001 0
0.16017869 0.095615052 0.41000003 0
0.16085194 0.095381834 0.40900001 0
0.16191587 0.095381834 0.40900001 0
0.16258132 0.09514863 0.40800002 0
0.16324155 0.09491542 0.40700001 0
0.16430029 0.09491542 0.40700001 0
0.16495274 0.094682217 0.40600002 0
0.16600886 0.094682217 0.40600002 0
0.16665351 0.094449013 0.40500003 0
0.16770703 0.094449013 0.40500003 0
0.16834387 0.094215803 0.40400001 0
0.1689755 0.0939826 0.40300003 0
0.17002383 0.0939826 0.40300003 0
0.17064765 0.093749382 0.40200001 0
0.17126629 0.093516178 0.40100002 0
0.17187969 0.093282968 0.40000001 0
0.17248793 0.093049765 0.39900002 0
0.17352584 0.093049765 0.39900002 0
0.17412625 0.092816561 0.39800003 0
0.17516159 0.092816561 0.39800003 0
0.17575419 0.092583351 0.39700001 0
0.1767869 0.092583351 0.39700001 0
0.17737171 0.092350148 0.39600003 0
0.17795131 0.09211693 0.39500001 0
0.17897883 0.09211693 0.39500001 0
0.17955065 0.091883726 0.39400002 0
0.18011723 0.091650516 0.39300001 0
0.18113954 0.091650516 0.39300001 0
0.18169834 0.091417313 0.39200002 0
0.18271805 0.091417313 0.39200002 0
0.18326905 0.091184109 0.39100003 0
0.18381484 0.090950899 0.39000002 0
0.18482934 0.090950899 0.39000002 0
-0 0 0 0
-0 0 0 0
-0 0 0 0
-0 0 0 0
-0 0 0 0
-0 0 0 0
-0 0 0 0
-0 0 0 0
-0 0 0 0
-0 0 0 0
-0 0 0 0
-0 0 0 0
-0 0 0 0
-0 0 0 0
-0 0 0 0
-0 0 0 0
-0 0 0 0
-0 0 0 0
-0 0 0 0
-0 0 0 0
-0 0 0 0
-0 0 0 0
-0 0 0 0
-0 0 0 0
-0.35569987 0.19100508 0.81000006 0
-0.35271975 0.19053344 0.80800003 0
-0.35061789 0.19053344 0.80800003 0
-0.34722206 0.18982603 0.80500007 0
-0.34469926 0.18959022 0.80400002 0
-0.34132943 0.1888828 0.80100006 0
-0.33839872 0.18841118 0.79900002 0
-0.33547845 0.18793955 0.79700005 0
-0.33256856 0.18746793 0.79500002 0
-0.32966909 0.18699633 0.79300004 0
-0.32719311 0.18676051 0.79200006 0
-0.32390133 0.18605308 0.78900003 0
-0.32144099 0.18581727 0.78800005 0
-0.31898585 0.18558148 0.78700006 0
-0.31613314 0.18510985 0.78500003 0
-0.31369102 0.18487404 0.78400004 0
-0.31125411 0.18463823 0.78300005 0
-0.30842745 0.18416661 0.78100002 0
-0.30561122 0.183695 0.77900004 0
-0.30280536 0.18322337 0.77700001 0
-0.30039704 0.18298757 0.77600002 0
-0.29760942 0.18251596 0.77400005 0
-0.29445028 0.18180853 0.77100003 0
-0.29168609 0.18133691 0.76900005 0
-0.28855556 0.18062948 0.76600003 0
-0.28581476 0.18015787 0.76400006 0
-0.28271288 0.17945044 0.76100004 0
-0.27999547 0.17897883 0.75900006 0
-0.2769222 0.1782714 0.75600004 0
-0.27422819 0.17779978 0.75400001 0
-0.27154464 0.17732815 0.75200003 0
-0.26815447 0.17638493 0.74800003 0
-0.26549691 0.17591332 0.74600005 0
-0.26284975 0.17544168 0.74400002 0
-0.2598623 0.17473426 0.74100006 0
-0.25689048 0.17402685 0.73800004 0
-0.25427973 0.17355523 0.73600006 0
-0.25167942 0.1730836 0.73400003 0
-0.24908946 0.172612 0.73200005 0
-0.24650994 0.17214036 0.73000002 0
-0.24427591 0.17190456 0.72900003 0
-0.24171461 0.17143294 0.72700006 0
-0.2391637 0.17096132 0.72500002 0
-0.23695046 0.17072552 0.72400004 0
-0.23474245 0.17048971 0.72300005 0
-0.23189548 0.16978228 0.72000003 0
-0.2293836 0.16931067 0.71800005 0
-0.22656524 0.16860324 0.71500003 0
-0.22407675 0.16813163 0.71300006 0
-0.22128701 0.1674242 0.71000004 0
-0.21882193 0.16695257 0.708 0
-0.21606082 0.16624515 0.70500004 0
-0.21331528 0.16553773 0.70200002 0
-0.21088664 0.16506611 0.70000005 0
-0.20876707 0.16483031 0.69900006 0
-0.20635663 0.16435868 0.69700003 0
-0.20425007 0.16412288 0.69600004 0
-0.20185781 0.16365124 0.69400001 0
-0.199476 0.16317964 0.69200003 0
-0.19710459 0.16270803 0.69000006 0
-0.19474357 0.16223641 0.68800002 0
-0.19239298 0.16176479 0.68600005 0
-0.19005275 0.16129316 0.68400002 0
-0.18799821 0.16105735 0.68300003 0
-0.18567623 0.16058575 0.68100005 0
-0.18336463 0.16011412 0.67900002 0
-0.18106346 0.15964252 0.67700005 0
-0.17903753 0.15940671 0.67600006 0
-0.17675455 0.15893508 0.67400002 0
-0.17500126 0.15893508 0.67400002 0
-0.17273392 0.15846346 0.67200005 0
-0.17047693 0.15799184 0.67000002 0
-0.16823038 0.15752023 0.66800004 0
-0.16624348 0.15728442 0.66700006 0
-0.16401513 0.1568128 0.66500002 0
-0.16179718 0.1563412 0.66300005 0
-0.15958965 0.15586956 0.66100001 0
-0.15739252 0.15539795 0.65900004 0
-0.15544203 0.15516214 0.65800005 0
-0.15326311 0.15469052 0.65600002 0
-0.15132561 0.15445472 0.65500003 0
-0.14939333 0.15421891 0.65400004 0
-0.14724042 0.15374729 0.65200001 0
-0.14532115 0.15351148 0.65100002 0
-0.14318645 0.15303987 0.64900005 0
-0.14106216 0.15256824 0.64700001 0
-0.13916369 0.15233244 0.64600003 0
-0.1370576 0.15186082 0.64400005 0
-0.13496192 0.1513892 0.64200002 0
-0.13266903 0.15068178 0.63900006 0
-0.13059676 0.15021016 0.63700002 0
-0.12873732 0.14997435 0.63600004 0
-0.12668325 0.14950272 0.634 0
-0.12483681 0.14926691 0.63300002 0
-0.12280096 0.14879531 0.63100004 0
-0.12115954 0.14879531 0.63100004 0
-0.11913928 0.14832368 0.62900001 0
-0.11731626 0.14808787 0.62800002 0
-0.11549845 0.14785208 0.62700003 0
-0.11368582 0.14761627 0.62600005 0
-0.11169939 0.14714465 0.62400001 0
-0.10972337 0.14667302 0.62200004 0
-0.10793156 0.14643723 0.62100005 0
-0.10597375 0.14596561 0.61900002 0
-0.10402634 0.14549398 0.61700004 0
-0.10225534 0.14525819 0.61600006 0
-0.10048953 0.14502236 0.61500001 0
-0.09872894 0.14478655 0.61400002 0
-0.096973546 0.14455076 0.61300004 0
-0.09537895 0.14455076 0.61300004 0
-0.093631364 0.14431494 0.61200005 0
-0.091888964 0.14407912 0.611 0
-0.090299569 0.14407912 0.611 0
-0 0 0 0
-0 0 0 0
-0 0 0 0
-0 0 0 0
-0 0 0 0
-0 0 0 0
-0 0 0 0
-0 0 0 0
-0 0 0 0
-0 0 0 0
-0 0 0 0
-0 0 0 0
-0 0 0 0
-0 0 0 0
-0 0 0 0
-0 0 0 0
-0 0 0 0
-0 0 0 0
-0.056658283 0.13582583 0.57600003 0
-0.055159934 0.13582583 0.57600003 0
-0.053568419 0.13559002 0.57500005 0
-0.05207267 0.13559002 0.57500005 0
-0.050488956 0.13535421 0.574 0
-0.048995808 0.13535421 0.574 0
-0.047419906 0.1351184 0.57300001 0
-0.045849208 0.13488258 0.57200003 0
-0.04428371 0.13464679 0.57100004 0
-0.042648453 0.13417517 0.56900001 0
-0.041095961 0.13393936 0.56800002 0
-0.039548673 0.13370354 0.56700003 0
-0.037939433 0.13323192 0.565 0
-0.036405154 0.13299611 0.56400001 0
-0.034876071 0.13276032 0.56300002 0
-0.033352192 0.13252451 0.56200004 0
-0.031833518 0.13228869 0.56100005 0
-0.030320041 0.13205288 0.56 0
-0.028811771 0.13181707 0.55900002 0
-0.027308704 0.13158128 0.55800003 0
-0.025810838 0.13134547 0.55700004 0
-0.024318177 0.13110965 0.55600005 0
-0.022871852 0.13110965 0.55600005 0
-0.02138699 0.13087384 0.55500001 0
-0.019907337 0.13063803 0.55400002 0
-0.018432882 0.13040222 0.55300003 0
-0.016963631 0.13016643 0.55200005 0
-0.015499581 0.1299306 0.551 0
-0.014040736 0.12969479 0.55000001 0
-0.012587093 0.12945899 0.54900002 0
-0.011158978 0.12945899 0.54900002 0
-0.0097131385 0.12922318 0.54800004 0
-0.0082725016 0.12898737 0.54700005 0
-0.0068370663 0.12875156 0.546 0
-0.005416756 0.12875156 0.546 0
-0.0039964449 0.12875156 0.546 0
-0.0025761339 0.12875156 0.546 0
-0.001155823 0.12875156 0.546 0
0 0 0 0
0 0 0 0
0 0 0 0
0 0 0 0
0 0 0 0
0 0 0 0
0 0 0 0
0 0 0 0
0 0 0 0
0 0 0 0
0 0 0 0
0 0 0 0
0.016293818 0.12120568 0.514 0
0.017596586 0.12096988 0.51300001 0
0.018931054 0.12096988 0.51300001 0
0.020265521 0.12096988 0.51300001 0
0.021599989 0.12096988 0.51300001 0
0.02288975 0.12073407 0.51200002 0
0.024221618 0.12073407 0.51200002 0
0.025503576 0.12049826 0.51100004 0
0.026832841 0.12049826 0.51100004 0
0.028106995 0.12026246 0.51000005 0
0.029375944 0.12002663 0.509 0
0.030639693 0.11979083 0.50800002 0
0.031898241 0.11955503 0.50700003 0
0.033151582 0.11931922 0.50600004 0
0.034399722 0.1190834 0.505 0
0.035642661 0.11884759 0.50400001 0
0.036880396 0.11861179 0.50300002 0
0.038112931 0.11837598 0.50200003 0
0.039418787 0.11837598 0.50200003 0
0.040643513 0.11814018 0.50100005 0
0.041863035 0.11790436 0.5 0
0.043077361 0.11766855 0.49900001 0
0.044286482 0.11743274 0.49800003 0
0.045581933 0.11743274 0.49800003 0
0.04678325 0.11719693 0.49700001 0
0.047979362 0.11696113 0.49600002 0
0.049269609 0.11696113 0.49600002 0
0.050457921 0.11672533 0.49500003 0
0.051641028 0.11648951 0.49400002 0
0.052818935 0.1162537 0.49300003 0
0.053991634 0.11601789 0.49200001 0
0.055159137 0.11578208 0.49100003 0
0.056321431 0.11554627 0.49000001 0
0.057596069 0.11554627 0.49000001 0
0.058630422 0.11507466 0.48800004 0
0.059899859 0.11507466 0.48800004 0
0.06104394 0.11483885 0.48700002 0
0.062182833 0.11460304 0.48600003 0
0.063316509 0.11436723 0.48500001 0
0.064578146 0.11436723 0.48500001 0
0.065704025 0.11413143 0.48400003 0
0.066824697 0.11389561 0.48300001 0
0.067940176 0.11365981 0.48200002 0
0.069050446 0.113424 0.48100004 0
0.070155516 0.11318818 0.48000002 0
0.071255386 0.11295238 0.47900003 0
0.072198689 0.11248077 0.47700003 0
0.073439509 0.11248077 0.47700003 0
0.074523762 0.11224495 0.47600001 0
0.075602822 0.11200915 0.47500002 0
0.076676674 0.11177334 0.47400004 0
0.077745326 0.11153752 0.47300002 0
0.078808777 0.11130172 0.47200003 0
0.07986702 0.11106591 0.47100002 0
0.081092231 0.11106591 0.47100002 0
0.081967898 0.11059429 0.46900001 0
0.083010547 0.11035848 0.46800002 0
0.084047973 0.11012267 0.46700001 0
0.085262783 0.11012267 0.46700001 0
0.086292416 0.10988687 0.46600002 0
0.087316841 0.10965106 0.46500003 0
0.08852645 0.10965106 0.46500003 0
0.089543074 0.10941525 0.46400002 0
0.090750083 0.10941525 0.46400002 0
0.091758899 0.10917944 0.46300003 0
0.092762522 0.10894363 0.46200001 0
0.093760937 0.10870782 0.46100003 0
0.094960131 0.10870782 0.46100003 0
0.095950745 0.10847201 0.46000001 0
0.096936151 0.10823621 0.45900002 0
0.097916365 0.1080004 0.45800003 0
0.098891363 0.10776459 0.45700002 0
0.099861167 0.10752878 0.45600003 0
0.10082576 0.10729297 0.45500001 0
0.10178516 0.10705716 0.45400003 0
0.10296615 0.10705716 0.45400003 0
0.10391774 0.10682135 0.45300001 0
0.10486414 0.10658555 0.45200002 0
0.10603992 0.10658555 0.45200002 0
0.10697851 0.10634974 0.45100003 0
0.1081517 0.10634974 0.45100003 0
0.10908248 0.10611393 0.45000002 0
0.11000806 0.10587812 0.44900003 0
0.11092843 0.10564231 0.44800001 0
0.1118436 0.1054065 0.44700003 0
0.11275357 0.10517069 0.44600001 0
0.11365835 0.10493489 0.44500002 0
0.11455791 0.10469908 0.44400004 0
0.11545227 0.10446326 0.44300002 0
0.11660465 0.10446326 0.44300002 0
0.11749122 0.10422746 0.44200003 0
0.11837257 0.10399165 0.44100001 0
0.11951974 0.10399165 0.44100001 0
0.1203933 0.10375584 0.44000003 0
0.12126164 0.10352003 0.43900001 0
0.1221248 0.10328422 0.43800002 0
0.12326417 0.10328422 0.43800002 0
0.12411951 0.10304841 0.43700001 0
0.12496965 0.1028126 0.43600002 0
0.12610382 0.1028126 0.43600002 0
0.12694617 0.1025768 0.43500003 0
0.1277833 0.10234099 0.43400002 0
0.12861523 0.10210518 0.43300003 0
0.12974158 0.10210518 0.43300003 0
0.1305657 0.10186937 0.43200001 0
0.13138464 0.10163356 0.43100002 0
0.13219836 0.10139775 0.43000001 0
0.13300689 0.10116194 0.42900002 0
0.13381021 0.10092614 0.42800003 0
0.13492358 0.10092614 0.42800003 0
0.13571908 0.10069033 0.42700002 0
0.13650939 0.10045452 0.42600003 0
0.13729449 0.10021871 0.42500001 0
0.13840005 0.10021871 0.42500001 0
0.13917737 0.099982902 0.42400002 0
0.14028031 0.099982902 0.42400002 0
0.14138326 0.099982902 0.42400002 0
0.14215015 0.099747092 0.42300001 0
0.1432505 0.099747092 0.42300001 0
0.14435086 0.099747092 0.42300001 0
0.14510736 0.099511281 0.42200002 0
0.1462051 0.099511281 0.42200002 0
0.14695379 0.099275477 0.42100003 0
0.14769727 0.099039666 0.42000002 0
0.14878984 0.099039666 0.42000002 0
0.14952552 0.098803855 0.41900003 0
0.15025599 0.098568045 0.41800001 0
0.15098128 0.098332241 0.41700003 0
0.15170135 0.09809643 0.41600001 0
0.15241623 0.097860619 0.41500002 0
0.15349576 0.097860619 0.41500002 0
0.15420283 0.097624816 0.41400003 0
0.15490469 0.097389005 0.41300002 0
0.15560137 0.097153194 0.41200003 0
0.1566731 0.097153194 0.41200003 0
0.15774484 0.097153194 0.41200003 0
0.1584311 0.096917383 0.41100001 0
0.15911216 0.09668158 0.41000003 0
0.15978801 0.096445769 0.40900001 0
0.16085194 0.096445769 0.40900001 0
0.16151999 0.096209958 0.40800002 0
0.16258132 0.096209958 0.40800002 0
0.16324155 0.095974147 0.40700001 0
0.16389662 0.095738344 0.40600002 0
0.16495274 0.095738344 0.40600002 0
0.16559999 0.09550254 0.40500003 0
0.16665351 0.09550254 0.40500003 0
0.16729294 0.095266722 0.40400001 0
0.16834387 0.095266722 0.40400001 0
0.1689755 0.095030919 0.40300003 0
0.16960193 0.094795108 0.40200001 0
0.17022316 0.094559297 0.40100002 0
0.17126629 0.094559297 0.40100002 0
0.17187969 0.094323486 0.40000001 0
0.17248793 0.094087683 0.39900002 0
0.17352584 0.094087683 0.39900002 0
0.17412625 0.093851879 0.39800003 0
0.17472148 0.093616061 0.39700001 0
0.17575419 0.093616061 0.39700001 0
0.17634161 0.093380257 0.39600003 0
0.1769238 0.093144447 0.39500001 0
0.17795131 0.093144447 0.39500001 0
0.17852573 0.092908636 0.39400002 0
0.17955065 0.092908636 0.39400002 0
0.18011723 0.092672825 0.39300001 0
0.18113954 0.092672825 0.39300001 0
0.18169834 0.092437021 0.39200002 0
0.18225195 0.092201218 0.39100003 0
0.18326905 0.092201218 0.39100003 0
0.18381484 0.0919654 0.39000002 0
0.18435542 0.091729596 0.38900003 0
-0 0 0 0
-0 0 0 0
-0 0 0 0
-0 0 0 0
-0 0 0 0
-0 0 0 0
-0 0 0 0
-0 0 0 0
-0 0 0 0
-0 0 0 0
-0 0 0 0
-0 0 0 0
-0 0 0 0
-0 0 0 0
-0 0 0 0
-0 0 0 0
-0 0 0 0
-0 0 0 0
-0 0 0 0
-0 0 0 0
-0.35482159 0.19263531 0.80800003 0
-0.35184669 0.19215849 0.80600005 0
-0.34975004 0.19215849 0.80600005 0
-0.3463594 0.19144326 0.80300003 0
-0.34384182 0.19120485 0.80200005 0
-0.34090328 0.19072802 0.80000001 0
-0.3379752 0.19025122 0.79800004 0
-0.33505753 0.18977439 0.79600006 0
-0.33215022 0.18929757 0.79400003 0
-0.32925338 0.18882075 0.79200006 0
-0.32636687 0.18834393 0.79000002 0
-0.3234908 0.18786711 0.78800005 0
-0.32103306 0.1876287 0.78700006 0
-0.31858051 0.18739028 0.78600001 0
-0.31573045 0.18691348 0.78400004 0
-0.31329092 0.18667506 0.78300005 0
-0.31045905 0.18619823 0.78100002 0
-0.30803254 0.18595983 0.78000003 0
-0.30521891 0.18548301 0.77800006 0
-0.30241564 0.18500619 0.77600002 0
-0.29962283 0.18452938 0.77400005 0
-0.29645589 0.18381414 0.77100003 0
-0.29368648 0.18333732 0.76900005 0
-0.29054818 0.18262209 0.76600003 0
-0.28780216 0.18214527 0.76400006 0
-0.28506655 0.18166845 0.76200002 0
-0.28196988 0.18095322 0.75900006 0
-0.27925768 0.1804764 0.75700003 0
-0.2769222 0.18023799 0.75600004 0
-0.27386451 0.17952275 0.75300002 0
-0.27082244 0.17880753 0.75000006 0
-0.26779598 0.1780923 0.74700004 0
-0.26514104 0.17761548 0.74500006 0
-0.26249644 0.17713866 0.74300003 0
-0.25951159 0.17642342 0.74000001 0
-0.25654238 0.1757082 0.73700005 0
-0.25393423 0.17523137 0.73500001 0
-0.25133651 0.17475456 0.73300004 0
-0.24874917 0.17427774 0.73100001 0
-0.24650994 0.17403932 0.73000002 0
-0.24394083 0.17356251 0.72800004 0
-0.24138212 0.17308567 0.72600001 0
-0.23883381 0.17260887 0.72400004 0
-0.23695046 0.17260887 0.72400004 0
-0.23409308 0.17189363 0.72100002 0
-0.2315734 0.17141682 0.71900004 0
-0.22906411 0.17094 0.71700001 0
-0.22624837 0.17022477 0.71400005 0
-0.22376247 0.16974795 0.71200001 0
-0.22097534 0.16903272 0.70900005 0
-0.21851286 0.16855589 0.70700002 0
-0.21575436 0.16784067 0.70400006 0
-0.21301141 0.16712543 0.70100003 0
-0.21088664 0.16688703 0.70000005 0
-0.20846839 0.16641021 0.69800001 0
-0.20606057 0.16593339 0.69600004 0
-0.20366313 0.16545656 0.69400001 0
-0.20156695 0.16521816 0.69300002 0
-0.19889949 0.16450293 0.69000006 0
-0.19681892 0.16426452 0.68900001 0
-0.19417746 0.16354929 0.68600005 0
-0.19211252 0.16331089 0.68500006 0
-0.1897749 0.16283405 0.68300003 0
-0.18744771 0.16235724 0.68100005 0
-0.18540357 0.16211882 0.68000001 0
-0.18309459 0.161642 0.67800003 0
-0.18106346 0.1614036 0.67700005 0
-0.17877266 0.16092677 0.67500001 0
-0.17675455 0.16068837 0.67400002 0
-0.17448199 0.16021155 0.67200005 0
-0.17247686 0.15997313 0.671 0
-0.17022249 0.15949631 0.66900003 0
-0.16823038 0.1592579 0.66800004 0
-0.16599423 0.15878108 0.66600001 0
-0.16376849 0.15830426 0.66400003 0
-0.16155314 0.15782745 0.66200006 0
-0.15958965 0.15758903 0.66100001 0
-0.15715368 0.15687381 0.65800005 0
-0.15520579 0.15663539 0.65700001 0
-0.15302947 0.15615858 0.65500003 0
-0.15109459 0.15592016 0.65400004 0
-0.14916492 0.15568176 0.65300006 0
-0.14701459 0.15520494 0.65100002 0
-0.14509793 0.15496652 0.65000004 0
-0.14318645 0.15472811 0.64900005 0
-0.14106216 0.15425129 0.64700001 0
-0.13894826 0.15377447 0.64500004 0
-0.13684477 0.15329765 0.64300001 0
-0.13475171 0.15282084 0.64100003 0
-0.13266903 0.15234402 0.63900006 0
-0.13059676 0.1518672 0.63700002 0
-0.1285349 0.15139037 0.63500005 0
-0.12648343 0.15091355 0.63300002 0
-0.1246396 0.15067515 0.63200003 0
-0.12280096 0.15043673 0.63100004 0
-0.12096753 0.15019833 0.63000005 0
-0.11913928 0.14995991 0.62900001 0
-0.11712946 0.1494831 0.62700003 0
-0.11531424 0.14924468 0.62600005 0
-0.1133226 0.14876786 0.62400001 0
-0.11152039 0.14852946 0.62300003 0
-0.10954697 0.14805263 0.62100005 0
-0.10758395 0.14757581 0.61900002 0
-0.10580255 0.14733741 0.61800003 0
-0.10402634 0.147099 0.61700004 0
-0.10208934 0.14662217 0.61500001 0
-0.10032614 0.14638376 0.61400002 0
-0.098568149 0.14614536 0.61300004 0
-0.096973546 0.14614536 0.61300004 0
-0.095067754 0.14566852 0.611 0
-0.093478367 0.14566852 0.611 0
-0.091738574 0.14543012 0.61000001 0
-0 0 0 0
-0 0 0 0
-0 0 0 0
-0 0 0 0
-0 0 0 0
-0 0 0 0
-0 0 0 0
-0 0 0 0
-0 0 0 0
-0 0 0 0
-0 0 0 0
-0 0 0 0
-0 0 0 0
-0 0 0 0
-0 0 0 0
-0 0 0 0
-0 0 0 0
-0 0 0 0
-0.058156628 0.13732418 0.57600003 0
-0.05655992 0.13708578 0.57500005 0
-0.055064168 0.13708578 0.57500005 0
-0.053568419 0.13708578 0.57500005 0
-0.051982105 0.13684736 0.574 0
-0.050488956 0.13684736 0.574 0
-0.04891045 0.13660894 0.57300001 0
-0.047337148 0.13637054 0.57200003 0
-0.045688897 0.13589373 0.57000005 0
-0.044206154 0.13589373 0.57000005 0
-0.042648453 0.1356553 0.56900001 0
-0.041023612 0.13517849 0.56700003 0
-0.039478924 0.13494009 0.56600004 0
-0.037939433 0.13470167 0.565 0
-0.036340605 0.13422485 0.56300002 0
-0.034814127 0.13398644 0.56200004 0
-0.033292849 0.13374804 0.56100005 0
-0.031776771 0.13350962 0.56 0
-0.030265899 0.1332712 0.55900002 0
-0.02876023 0.1330328 0.55800003 0
-0.027259763 0.1327944 0.55700004 0
-0.025810838 0.1327944 0.55700004 0
-0.024318177 0.13255599 0.55600005 0
-0.022830714 0.13231757 0.55500001 0
-0.021348456 0.13207915 0.55400002 0
-0.019871403 0.13184075 0.55300003 0
-0.01839955 0.13160235 0.55200005 0
-0.016932899 0.13136393 0.551 0
-0.015471451 0.13112551 0.55000001 0
-0.014015207 0.13088711 0.54900002 0
-0.012587093 0.13088711 0.54900002 0
-0.011138652 0.1306487 0.54800004 0
-0.0096954135 0.1304103 0.54700005 0
-0.0082725016 0.1304103 0.54700005 0
-0.0068370663 0.13017188 0.546 0
-0.005416756 0.13017188 0.546 0
-0.0039964449 0.13017188 0.546 0
-0.0025714156 0.12993346 0.54500002 0
-0 0 0 0
0 0 0 0
0 0 0 0
0 0 0 0
0 0 0 0
0 0 0 0
0 0 0 0
0 0 0 0
0 0 0 0
0 0 0 0
0 0 0 0
0 0 0 0
0.014985848 0.12278117 0.51500005 0
0.016325518 0.12278117 0.51500005 0
0.017630886 0.12254275 0.514 0
0.018967954 0.12254275 0.514 0
0.020305024 0.12254275 0.514 0
0.021599989 0.12230434 0.51300001 0
0.022934457 0.12230434 0.51300001 0
0.024221618 0.12206594 0.51200002 0
0.025553485 0.12206594 0.51200002 0
0.026832841 0.12182754 0.51100004 0
0.028106995 0.12158912 0.51000005 0
0.029375944 0.12135071 0.509 0
0.030639693 0.12111229 0.50800002 0
0.031898241 0.12087389 0.50700003 0
0.033151582 0.12063548 0.50600004 0
0.034399722 0.12039706 0.505 0
0.035642661 0.12015866 0.50400001 0
0.036880396 0.11992025 0.50300002 0
0.038112931 0.11968184 0.50200003 0
0.039340261 0.11944343 0.50100005 0
0.040562384 0.11920501 0.5 0
0.041863035 0.11920501 0.5 0
0.043077361 0.11896661 0.49900001 0
0.044286482 0.1187282 0.49800003 0
0.045581933 0.1187282 0.49800003 0
0.04678325 0.11848979 0.49700001 0
0.047979362 0.11825138 0.49600002 0
0.049269609 0.11825138 0.49600002 0
0.050457921 0.11801297 0.49500003 0
0.051641028 0.11777455 0.49400002 0
0.052818935 0.11753615 0.49300003 0
0.053991634 0.11729774 0.49200001 0
0.055159137 0.11705933 0.49100003 0
0.056321431 0.11682092 0.49000001 0
0.057478528 0.11658251 0.48900002 0
0.058630422 0.1163441 0.48800004 0
0.059899859 0.1163441 0.48800004 0
0.06104394 0.11610569 0.48700002 0
0.062182833 0.11586728 0.48600003 0
0.063316509 0.11562887 0.48500001 0
0.064444996 0.11539046 0.48400003 0
0.065568268 0.11515205 0.48300001 0
0.066824697 0.11515205 0.48300001 0
0.067940176 0.11491363 0.48200002 0
0.068906888 0.11443682 0.48000002 0
0.070009366 0.11419841 0.47900003 0
0.07110662 0.11396 0.47800002 0
0.072198689 0.11372159 0.47700003 0
0.073285542 0.11348318 0.47600001 0
0.074523762 0.11348318 0.47600001 0
0.075602822 0.11324476 0.47500002 0
0.076676674 0.11300636 0.47400004 0
0.077745326 0.11276795 0.47300002 0
0.078808777 0.11252954 0.47200003 0
0.07986702 0.11229113 0.47100002 0
0.080920063 0.11205272 0.47000003 0
0.081967898 0.11181431 0.46900001 0
0.083010547 0.1115759 0.46800002 0
0.084047973 0.11133748 0.46700001 0
0.085080214 0.11109908 0.46600002 0
0.086292416 0.11109908 0.46600002 0
0.087316841 0.11086067 0.46500003 0
0.08852645 0.11086067 0.46500003 0
0.089543074 0.11062226 0.46400002 0
0.090554498 0.11038385 0.46300003 0
0.091758899 0.11038385 0.46300003 0
0.092762522 0.11014543 0.46200001 0
0.093760937 0.10990703 0.46100003 0
0.094754145 0.10966861 0.46000001 0
0.095950745 0.10966861 0.46000001 0
0.096936151 0.10943021 0.45900002 0
0.09770257 0.10895339 0.45700002 0
0.098674975 0.10871498 0.45600003 0
0.099642165 0.10847656 0.45500001 0
0.10060417 0.10823816 0.45400003 0
0.10178516 0.10823816 0.45400003 0
0.10273936 0.10799974 0.45300001 0
0.10391774 0.10799974 0.45300001 0
0.10486414 0.10776134 0.45200002 0
0.10603992 0.10776134 0.45200002 0
0.10697851 0.10752293 0.45100003 0
0.10791189 0.10728452 0.45000002 0
0.10908248 0.10728452 0.45000002 0
0.11000806 0.10704611 0.44900003 0
0.11092843 0.10680769 0.44800001 0
0.1118436 0.10656929 0.44700003 0
0.11275357 0.10633087 0.44600001 0
0.11365835 0.10609247 0.44500002 0
0.11455791 0.10585406 0.44400004 0
0.11545227 0.10561565 0.44300002 0
0.11634143 0.10537724 0.44200003 0
0.11749122 0.10537724 0.44200003 0
0.11837257 0.10513882 0.44100001 0
0.11951974 0.10513882 0.44100001 0
0.1203933 0.10490042 0.44000003 0
0.12126164 0.104662 0.43900001 0
0.1221248 0.1044236 0.43800002 0
0.12298274 0.10418519 0.43700001 0
0.12411951 0.10418519 0.43700001 0
0.12496965 0.10394678 0.43600002 0
0.12581459 0.10370837 0.43500003 0
0.12665433 0.10346995 0.43400002 0
0.1277833 0.10346995 0.43400002 0
0.12861523 0.10323155 0.43300003 0
0.12944195 0.10299313 0.43200001 0
0.13026348 0.10275473 0.43100002 0
0.13138464 0.10275473 0.43100002 0
0.13219836 0.10251632 0.43000001 0
0.13300689 0.1022779 0.42900002 0
0.13381021 0.1020395 0.42800003 0
0.13460833 0.10180108 0.42700002 0
0.13540123 0.10156268 0.42600003 0
0.13650939 0.10156268 0.42600003 0
0.13729449 0.10132426 0.42500001 0
0.1380744 0.10108586 0.42400002 0
0.13917737 0.10108586 0.42400002 0
0.14028031 0.10108586 0.42400002 0
0.1410498 0.10084745 0.42300001 0
0.14215015 0.10084745 0.42300001 0
0.1432505 0.10084745 0.42300001 0
0.14400961 0.10060903 0.42200002 0
0.14510736 0.10060903 0.42200002 0
0.14585865 0.10037063 0.42100003 0
0.14695379 0.10037063 0.42100003 0
0.14769727 0.10013221 0.42000002 0
0.14843558 0.099893808 0.41900003 0
0.14916866 0.099655397 0.41800001 0
0.15025599 0.099655397 0.41800001 0
0.15098128 0.099416986 0.41700003 0
0.15170135 0.099178575 0.41600001 0
0.15241623 0.098940164 0.41500002 0
0.1531259 0.09870176 0.41400003 0
0.15420283 0.09870176 0.41400003 0
0.15490469 0.098463342 0.41300002 0
0.15560137 0.098224938 0.41200003 0
0.1566731 0.098224938 0.41200003 0
0.15736195 0.097986527 0.41100001 0
0.1584311 0.097986527 0.41100001 0
0.15911216 0.097748116 0.41000003 0
0.15978801 0.097509705 0.40900001 0
0.16045867 0.097271293 0.40800002 0
0.16151999 0.097271293 0.40800002 0
0.16218282 0.097032882 0.40700001 0
0.16284047 0.096794471 0.40600002 0
0.16389662 0.096794471 0.40600002 0
0.16454646 0.096556067 0.40500003 0
0.16559999 0.096556067 0.40500003 0
0.16665351 0.096556067 0.40500003 0
0.16729294 0.096317656 0.40400001 0
0.16834387 0.096317656 0.40400001 0
0.1689755 0.096079245 0.40300003 0
0.16960193 0.095840834 0.40200001 0
0.17022316 0.095602423 0.40100002 0
0.17126629 0.095602423 0.40100002 0
0.17187969 0.095364012 0.40000001 0
0.17248793 0.095125608 0.39900002 0
0.17309095 0.094887197 0.39800003 0
0.17412625 0.094887197 0.39800003 0
0.17472148 0.094648786 0.39700001 0
0.17575419 0.094648786 0.39700001 0
0.17634161 0.094410375 0.39600003 0
0.1769238 0.094171964 0.39500001 0
0.17795131 0.094171964 0.39500001 0
0.17852573 0.093933553 0.39400002 0
0.17909493 0.093695141 0.39300001 0
0.18011723 0.093695141 0.39300001 0
0.18067864 0.093456738 0.39200002 0
0.18169834 0.093456738 0.39200002 0
0.18225195 0.093218327 0.39100003 0
0.18280032 0.092979915 0.39000002 0
0.18381484 0.092979915 0.39000002 0
0.18435542 0.092741504 0.38900003 0
-0 0 0 0
-0 0 0 0
-0 0 0 0
-0 0 0 0
-0 0 0 0
-0 0 0 0
-0 0 0 0
-0 0 0 0
-0 0 0 0
-0 0 0 0
-0 0 0 0
-0 0 0 0
-0 0 0 0
-0 0 0 0
-0 0 0 0
-0 0 0 0
-0 0 0 0
-0 0 0 0
-0 0 0 0
-0 0 0 0
-0 0 0 0
-0 0 0 0
-0.35097361 0.19377311 0.80400002 0
-0.34844822 0.19353209 0.80300003 0
-0.34592807 0.1932911 0.80200005 0
-0.34298435 0.19280906 0.80000001 0
-0.34005103 0.19232704 0.79800004 0
-0.33712816 0.19184503 0.79600006 0
-0.33421567 0.19136299 0.79400003 0
-0.33131358 0.19088098 0.79200006 0
-0.32842189 0.19039895 0.79000002 0
-0.32554063 0.18991694 0.78800005 0
-0.3230803 0.18967593 0.78700006 0
-0.32062513 0.1894349 0.78600001 0
-0.3181752 0.18919389 0.78500003 0
-0.31532773 0.18871188 0.78300005 0
-0.3128908 0.18847087 0.78200006 0
-0.31006154 0.18798883 0.78000003 0
-0.30724272 0.18750682 0.77800006 0
-0.30443427 0.18702479 0.77600002 0
-0.30163625 0.18654278 0.77400005 0
-0.2988486 0.18606074 0.77200001 0
-0.2956869 0.18533772 0.76900005 0
-0.29292268 0.18485568 0.76700002 0
-0.28978956 0.18413267 0.76400006 0
-0.28704873 0.18365063 0.76200002 0
-0.28431836 0.18316862 0.76000005 0
-0.28122684 0.18244557 0.75700003 0
-0.27888876 0.18220457 0.75600004 0
-0.2761896 0.18172254 0.75400001 0
-0.2735008 0.18124053 0.75200003 0
-0.27046132 0.18051748 0.74900001 0
-0.267079 0.17955345 0.74500006 0
-0.26478511 0.17931242 0.74400002 0
-0.26178986 0.1785894 0.74100006 0
-0.25881022 0.17786637 0.73800004 0
-0.25654238 0.17762536 0.73700005 0
-0.25358877 0.17690232 0.73400003 0
-0.25099364 0.1764203 0.73200005 0
-0.24840888 0.17593826 0.73000002 0
-0.24617226 0.17569727 0.72900003 0
-0.24394083 0.17545626 0.72800004 0
-0.24104963 0.17473321 0.72500002 0
-0.23883381 0.17449221 0.72400004 0
-0.23662318 0.1742512 0.72300005 0
-0.2337684 0.17352816 0.72000003 0
-0.23125133 0.17304614 0.71800005 0
-0.22874464 0.1725641 0.71600002 0
-0.2259315 0.17184108 0.71300006 0
-0.2234482 0.17135906 0.71100003 0
-0.22097534 0.17087704 0.70900005 0
-0.2182038 0.17015401 0.70600003 0
-0.21544787 0.16943096 0.70300001 0
-0.21301141 0.16894895 0.70100003 0
-0.21058539 0.16846693 0.69900006 0
-0.20787106 0.16774389 0.69600004 0
-0.2057645 0.16750288 0.69500005 0
-0.20336968 0.16702086 0.69300002 0
-0.20098524 0.16653883 0.69100004 0
-0.19861121 0.1660568 0.68900001 0
-0.19624761 0.16557479 0.68700004 0
-0.19417746 0.16533378 0.68600005 0
-0.1915516 0.16461074 0.68300003 0
-0.18921919 0.16412872 0.68100005 0
-0.18717244 0.16388769 0.68000001 0
-0.18485826 0.16340569 0.67800003 0
-0.18282454 0.16316468 0.67700005 0
-0.18052855 0.16268264 0.67500001 0
-0.17850782 0.16244164 0.67400002 0
-0.1764923 0.16220063 0.67300004 0
-0.17422232 0.16171859 0.671 0
-0.17221981 0.1614776 0.67000002 0
-0.16996805 0.16099557 0.66800004 0
-0.1677267 0.16051354 0.66600001 0
-0.16574499 0.16027254 0.66500002 0
-0.16352186 0.15979052 0.66300005 0
-0.16130911 0.15930849 0.66100001 0
-0.1593482 0.15906748 0.66000003 0
-0.15715368 0.15858546 0.65800005 0
-0.15496956 0.15810344 0.65600002 0
-0.15302947 0.15786242 0.65500003 0
-0.15109459 0.15762141 0.65400004 0
-0.14916492 0.1573804 0.65300006 0
-0.14701459 0.15689838 0.65100002 0
-0.14487469 0.15641636 0.64900005 0
-0.1427452 0.15593433 0.64700001 0
-0.14084412 0.15569332 0.64600003 0
-0.13873285 0.1552113 0.64400005 0
-0.13663195 0.15472928 0.64200002 0
-0.13454148 0.15424725 0.64000005 0
-0.1324614 0.15376523 0.63800001 0
-0.13039173 0.15328321 0.63600004 0
-0.12833248 0.15280119 0.634 0
-0.12648343 0.15256017 0.63300002 0
-0.12444238 0.15207815 0.63100004 0
-0.12280096 0.15207815 0.63100004 0
-0.12077551 0.15159613 0.62900001 0
-0.11894988 0.15135512 0.62800002 0
-0.11694265 0.15087309 0.62600005 0
-0.11513002 0.15063208 0.625 0
-0.1133226 0.15039107 0.62400001 0
-0.11134139 0.14990905 0.62200004 0
-0.10954697 0.14966804 0.62100005 0
-0.10758395 0.14918602 0.61900002 0
-0.10563135 0.14870399 0.61700004 0
-0.10385774 0.14846298 0.61600006 0
-0.10192334 0.14798096 0.61400002 0
-0.10016274 0.14773995 0.61300004 0
-0.09840735 0.14749894 0.61200005 0
-0.096657149 0.14725792 0.611 0
-0.094912164 0.14701691 0.61000001 0
-0.093325377 0.14701691 0.61000001 0
-0.091588184 0.1467759 0.60900003 0
-0.089856207 0.14653489 0.60800004 0
-0 0 0 0
-0 0 0 0
-0 0 0 0
-0 0 0 0
-0 0 0 0
-0 0 0 0
-0 0 0 0
-0 0 0 0
-0 0 0 0
-0 0 0 0
-0 0 0 0
-0 0 0 0
-0 0 0 0
-0 0 0 0
-0 0 0 0
-0 0 0 0
-0.059758548 0.13906354 0.57700002 0
-0.058156628 0.13882253 0.57600003 0
-0.05655992 0.13858151 0.57500005 0
-0.054968402 0.1383405 0.574 0
-0.053475253 0.1383405 0.574 0
-0.051982105 0.1383405 0.574 0
-0.050400998 0.13809949 0.57300001 0
-0.04891045 0.13809949 0.57300001 0
-0.047254391 0.13761747 0.57100004 0
-0.045688897 0.13737647 0.57000005 0
