# .PCD v0.7 - Point Cloud Data file format
VERSION 0.7
FIELDS x y z
SIZE 4 4 4
TYPE F F F
COUNT 1 1 1
WIDTH 92
HEIGHT 1
VIEWPOINT 0 0 0 1 0 0 0
POINTS 92
DATA ascii
0.046743091 -0.038408127 -0.049327642
0.026174998 -0.0036814052 -0.05512502
0.047100328 -0.0163236 -0.049308293
0.026146153 0.003775798 -0.055128224
0.047436554 0.015950834 -0.049239907
0.046863366 0.037559491 -0.049650207
-0.02043828 -0.034273736 -0.020000001
-0.04366361 -0.0075092255 -0.014271173
-0.01848218 -0.016549749 -0.01049735
0.0084728412 -0.0074165827 -0.015717877
-0.04385395 0.0069225701 -0.014296862
-0.018626409 0.016593879 -0.010474684
0.0086230002 0.0078332415 -0.0158481
-0.020438276 0.034273736 -0.020000001
-0.039300002 -0.043658406 0.01722263
-0.013648923 -0.037045926 0.0058762343
9.2089181e-10 -0.047244273 0.020017439
-0.044982824 -0.012793757 0.0015941889
-0.01831338 -0.015399884 0.00034763591
0.0064813318 -0.0096961791 0.00088349596
-0.041765414 0.016163792 0.008348763
-0.025119271 0.018621886 0.010630477
0.0060196766 0.01099838 0.0010363068
-0.035488524 0.062732607 0.028853811
-0.020310136 0.052554026 0.019849658
-0.033696938 0.07717669 0.023341335
-0.022094015 0.077089243 0.020041754
-0.033600047 0.12548716 0.024401525
-0.02511657 0.12435586 0.019370519
-0.033852972 0.1372209 0.02254555
-0.020615745 0.14652638 0.01981499
-0.033695593 0.17186566 0.022480544
-0.021549108 0.17758477 0.021759417
-0.03696651 -0.050646733 0.057886571
-0.012283974 -0.048200835 0.06031974
-0.034000002 -0.020545524 0.06456168
-0.021790236 -0.014616823 0.064826906
-0.035332616 0.01992091 0.051326703
-0.024245162 0.019516779 0.05233407
3.6209821e-10 0.0030225501 0.050243258
-0.036009919 0.046287604 0.051810313
-0.01368025 0.04456877 0.049230941
3.6209821e-10 0.044702724 0.048038717
-0.011171169 0.083560459 0.033228036
-0.01168174 0.11516678 0.033231445
-0.016100137 0.15287223 0.03359535
-0.022184141 0.17224029 0.033863116
-0.038160417 -0.047172509 0.087298721
-0.011511695 -0.044306669 0.091768309
1.2934208e-09 -0.055708867 0.090504549
-0.037472557 -0.01613925 0.080413021
-0.011351191 -0.009097755 0.092043765
3.6209821e-10 -0.017999999 0.094999999
-0.036440112 0.019370124 0.077775009
-0.011589218 0.0095312139 0.090444371
3.6209821e-10 0.017999999 0.094999999
-0.038160417 0.047167256 0.087299168
-0.011234432 0.044566482 0.091786161
-0.011393813 -0.050415594 0.10972035
-0.011043971 -0.013707286 0.11221273
-0.010690098 0.015649568 0.11212576
-0.011420755 0.041775767 0.1104994
-0.011587738 -0.054932531 0.15711479
-0.011683747 -0.011415698 0.15921094
-0.012294148 0.011327929 0.15486152
-0.011620492 0.044316161 0.15706907
-0.016441392 -0.066057332 0.19696812
-0.011499157 -0.057294492 0.18274574
-0.010968857 -0.01127637 0.17253819
-0.010459853 0.01122001 0.17870374
-0.011502003 0.045709759 0.18015313
-0.016441392 0.066057332 0.19696812
-0.010307155 -0.066760562 0.22389799
-0.01155802 -0.057148557 0.21168321
0.00046764573 -0.055352904 0.22683391
-0.011355232 -0.010838144 0.20564485
0.00035203656 -0.0026595017 0.2202
-0.01151505 0.0094286129 0.20886549
0.00054352579 0.0016043145 0.2202
-0.011540505 0.047966011 0.21158819
0.00046764591 0.054987639 0.22686583
-0.010265786 0.06675534 0.2242109
-0.0113 -0.066471949 0.23226789
-0.011367119 -0.055517465 0.23711625
0.00029005177 -0.055559888 0.23130322
-0.011917886 -0.0055224677 0.237689
0.00039426543 -0.002244768 0.23184051
-0.011401392 0.0055723125 0.2377346
0.00048357679 0.0013920522 0.23197562
-0.011367124 0.055517461 0.23711634
0.00029005299 0.055559888 0.23130322
-0.0113 0.066471949 0.23226789
