# .PCD v0.7 - Point Cloud Data file format
VERSION 0.7
FIELDS x y z
SIZE 4 4 4
TYPE F F F
COUNT 1 1 1
WIDTH 470
HEIGHT 1
VIEWPOINT 0 0 0 1 0 0 0
POINTS 470
DATA ascii
0.040880788 -0.04272601 -0.059917498
0.047903955 -0.0436146 -0.059574042
0.03708224 -0.036432821 -0.060594495
0.052121539 -0.038870584 -0.06235528
0.058062509 -0.034253065 -0.059705373
0.024300003 -0.015000002 -0.064999998
0.035609294 -0.021110365 -0.058017191
0.047559403 -0.022373317 -0.064305238
0.058298033 -0.021196397 -0.05794343
0.026152937 -0.0033168322 -0.059067115
0.035551216 -0.0074524283 -0.058272529
0.047500048 -0.0023334019 -0.059838377
0.058653533 -0.0071944697 -0.059511822
0.02611818 0.0034173392 -0.059096422
0.035436288 0.0076303296 -0.057949174
0.045954742 0.0027409347 -0.058780946
0.058628537 0.0074903942 -0.059408691
0.024300007 0.015 -0.064999998
0.035582729 0.020975314 -0.058010213
0.047559392 0.022373237 -0.064305328
0.058322705 0.020991579 -0.058008526
0.037396915 0.035037968 -0.059905801
0.04988027 0.037266087 -0.059327878
0.05840119 0.032868184 -0.058931477
0.04042042 0.04303265 -0.057003707
0.048625726 0.044162247 -0.057016768
0.041329082 -0.042427655 -0.048150923
0.046862613 -0.042711377 -0.049379028
0.039404225 -0.033408102 -0.046735529
0.047389239 -0.033002954 -0.045285374
0.057763334 -0.031629685 -0.051465463
0.037226878 -0.021824682 -0.050193656
0.047649611 -0.020255478 -0.047098089
0.058064401 -0.021226928 -0.052200027
0.026233329 -0.003705336 -0.051927075
0.036576871 -0.0063161147 -0.051189762
0.044910725 -0.0062368498 -0.048919395
0.058109425 -0.0068145543 -0.052151244
0.026209088 0.0037895455 -0.051927697
0.037686005 0.0071351854 -0.050137579
0.046579897 0.0080260877 -0.046963204
0.058128707 0.0069058733 -0.052163456
0.035948902 0.021484584 -0.051401041
0.047218058 0.019081825 -0.046386633
0.058065552 0.021207605 -0.052213646
0.038831376 0.035590991 -0.051061265
0.047678288 0.034206819 -0.047891606
0.057688393 0.033853669 -0.052651204
0.040864091 0.042716064 -0.054717753
0.047414612 0.043260895 -0.052494906
0.046901722 -0.042140793 -0.040401611
0.039246097 -0.035996493 -0.040358648
0.048232459 -0.035354853 -0.040999528
0.056359198 -0.033955604 -0.040197875
0.024236679 -0.015000003 -0.029130654
0.041379027 -0.020071231 -0.041662585
0.047650777 -0.019129148 -0.041336238
0.041058768 -0.0049125841 -0.041836664
0.048077296 -0.011433782 -0.041477297
0.056474105 -1.0019319e-08 -0.040040877
0.040778402 0.0059776236 -0.040805012
0.048848327 0.0035287254 -0.040804956
0.024236679 0.015 -0.029130654
0.040997308 0.020270245 -0.041302375
0.048271205 0.023913143 -0.041285355
0.039847702 0.035311427 -0.040663742
0.048090719 0.03464609 -0.041028995
0.056358732 0.033958189 -0.040197868
0.046900313 0.042140964 -0.040401611
-0.034829959 -0.031597205 -0.020000001
-0.021013632 -0.032967746 -0.02
-0.0069114654 -0.031951535 -0.02
-0.047601227 -0.021391286 -0.02
-0.030143121 -0.015668213 -0.020000001
-0.020544482 -0.023099763 -0.019999994
-0.011189575 -0.015952926 -0.020000001
0.006561425 -0.021708606 -0.02
0.0199068 -0.015000002 -0.022693075
-0.0480658 -0.0036736818 -0.020000003
-0.036499042 -0.0079391664 -0.02
-0.0041294619 -0.0073720855 -0.02
0.004600001 -0.001905931 -0.020000003
-0.048366994 0.0031996618 -0.02
-0.036670536 0.0073720864 -0.02
-0.0043009585 0.0079391692 -0.02
0.0046000015 0.0021065546 -0.020000003
-0.047601227 0.021391286 -0.02
-0.030143119 0.015668213 -0.020000001
-0.020544482 0.023099758 -0.019999994
-0.011189574 0.015952926 -0.020000001
0.0065614269 0.021708606 -0.02
0.0199068 0.015000001 -0.022693077
-0.034829963 0.031597208 -0.020000001
-0.021013629 0.032967743 -0.02
-0.0069114631 0.031951532 -0.02
-0.020400001 -0.029683119 -0.0090000024
-0.030430948 -0.015135708 -0.009166671
-0.020462653 -0.02120029 -0.0082831858
-0.010790668 -0.015415146 -0.0092857182
-0.046469364 -0.0032738347 -0.0090000024
-0.032989275 -0.0083574848 -0.0072686546
-0.020806862 -0.01020246 -0.0082352944
-0.0080406098 -0.0081522455 -0.0073623173
0.0054988912 -0.0031009167 -0.0090000024
-0.046537463 0.0030342899 -0.0090000024
-0.033114016 0.0079993075 -0.0073714275
-0.020806862 0.010202459 -0.0082352953
-0.0082779694 0.0082721319 -0.0073382328
0.0054163085 0.0033334859 -0.0090000024
-0.030430945 0.01513571 -0.009166671
-0.020462653 0.021200296 -0.0082831867
-0.010790667 0.015415146 -0.0092857182
-0.020400001 0.029683121 -0.0090000024
-0.037182614 -0.032789797 0.0046450556
-0.020649998 -0.031367738 1.192093e-09
-0.004427087 -0.032482065 0.0039749937
3.6209821e-10 -0.04098738 0.012731173
-0.047601234 -0.021391284 1.1920928e-09
-0.039800003 -0.028000003 0.00018551071
-0.020400001 -0.019998074 1.1920924e-09
-0.001 -0.028000003 0.00018551073
0.0065614255 -0.021708606 1.1920928e-09
0.021300001 -0.015000002 1.1920929e-09
-0.049570832 -0.0053165229 1.192093e-09
-0.032402907 -0.0081273727 1.1920925e-09
-0.020894047 -0.0096692825 1.1920929e-09
-0.008867899 -0.0080035087 1.1920924e-09
0.0063569229 -0.0042415862 1.1920931e-09
-0.050020415 0.0047848746 1.1920929e-09
-0.032696001 0.00787789 0.0025577168
-0.024817593 0.012696199 0.0093291169
-0.0088309692 0.0077006444 0.00058226066
0.0056196661 0.0041342289 0.0011898356
-0.047601234 0.021391286 1.1920928e-09
-0.030300871 0.019296154 0.011629048
-0.023127619 0.0199205 0.01117958
0.0065614264 0.021708606 1.1920928e-09
0.021300001 0.015 1.1920929e-09
-0.034181636 0.032072451 0.0069560693
-0.021268317 0.031804267 0.0013380891
-0.006911464 0.031951535 1.1920928e-09
1.2934208e-09 0.029029086 0.0054885829
-0.029336967 0.048133001 0.013442011
-0.026833214 0.048133001 0.013380886
-0.032697655 0.062088173 0.012560866
-0.0090086889 0.061215889 0.013865192
-0.033385579 0.07780885 0.012447393
-0.0097526982 0.07596913 0.013878708
-0.033436697 0.087800726 0.012546304
-0.0094806878 0.089417972 0.013905779
-0.032429039 0.10350651 0.012311225
-0.01135472 0.10272002 0.013717246
-0.032091834 0.12240073 0.012663963
-0.010314403 0.12376046 0.013873779
-0.033642326 0.1354347 0.012601947
-0.0093810661 0.1343513 0.013914497
-0.032847617 0.14712001 0.011836863
-0.010433239 0.14712001 0.013797865
-0.031864852 0.15729849 0.012710982
-0.020684686 0.15963303 0.01140857
-0.0098056411 0.15748301 0.013795466
-0.029054612 0.17180496 0.012952671
-0.021139842 0.17358083 0.012020321
-0.039300002 -0.047914002 0.019574972
-0.0030000005 -0.047914002 0.019574972
9.8297992e-10 -0.047914002 0.019574972
-0.037799999 -0.028000001 0.01600858
-0.0029999991 -0.028000003 0.01600858
-0.039300002 -0.00097646122 0.01590292
-0.003 -0.00097646122 0.01590292
3.6209821e-10 -0.00097646122 0.01590292
-0.0016004662 0.012090506 0.019744998
-0.033372145 0.0333388 0.020091809
-0.015371956 0.035732999 0.014565988
-0.0070850397 0.037033908 0.016081795
-0.030701183 0.048133001 0.015868908
-0.015371953 0.048133001 0.014565988
-0.012492643 0.048133001 0.017139979
-0.029725136 0.059312321 0.022364432
-0.018629886 0.058450695 0.018802715
-0.010865974 0.065607905 0.016592691
-0.033270761 0.07673195 0.021592239
-0.010751003 0.076277435 0.022069465
-0.034219775 0.085055359 0.021496939
-0.009144675 0.086041488 0.016439412
-0.032581113 0.10393301 0.014814326
-0.011964519 0.10356399 0.015524088
-0.033164516 0.12370275 0.021606605
-0.011002261 0.12342006 0.020971095
-0.033243582 0.13081607 0.021528671
-0.010254356 0.13241559 0.020720173
-0.033361033 0.15915525 0.020813629
-0.022106042 0.15859301 0.022556754
-0.011366734 0.15823232 0.019018989
-0.031646781 0.17519498 0.021119751
-0.020867903 0.180677 0.020771364
-0.011747678 0.17374814 0.02129397
-0.022165813 0.18241701 0.022551525
-0.038550001 -0.050868511 0.031831019
-0.0030000012 -0.050660681 0.032897655
1.2934208e-09 -0.051491991 0.028631108
-0.030993011 0.012208445 0.030914009
-0.002789831 0.012086849 0.033381462
-0.035246231 0.016638538 0.030541901
-0.035919003 0.032020424 0.034916792
-0.0049704746 0.037390176 0.033190679
-0.035368282 0.064848296 0.030379185
-0.021654237 0.058549501 0.030328332
-0.011005463 0.06457375 0.032582026
-0.034576971 0.072077535 0.029923318
-0.010854861 0.073551208 0.030899066
-0.035002854 0.087800726 0.030447572
-0.01059657 0.086885601 0.031441074
-0.034010626 0.10356744 0.030498134
-0.013175927 0.10308173 0.032320932
-0.034532633 0.12229569 0.030809768
-0.011345896 0.12176762 0.032089069
-0.035079122 0.13430782 0.029713009
-0.010477271 0.13450356 0.030722897
-0.034545921 0.14712001 0.031248527
-0.012131539 0.14712001 0.033209532
-0.032884471 0.15734462 0.030536937
-0.020629136 0.15963303 0.033686951
-0.012572229 0.15701772 0.031353924
-0.030279666 0.1733305 0.030278621
-0.021107059 0.17556274 0.031844821
-0.012803332 0.17222372 0.029557817
-0.037799999 -0.051988147 0.054954823
-0.003000001 -0.05198814 0.054954823
-0.032449618 0.011502689 0.051989254
-0.026815822 0.01316569 0.052963454
-0.0036847193 0.010160775 0.049100835
3.6209821e-10 0.0030225501 0.050243258
-0.033240639 0.020514768 0.052276112
-0.024931872 0.020096706 0.052725956
-0.0024999999 0.026642811 0.054291822
-0.034775723 0.035074417 0.047800783
-0.015618118 0.038687538 0.04912585
-0.0044716387 0.033681348 0.052991614
-0.036085606 0.048388645 0.048840187
-0.015694685 0.048133004 0.049184598
-0.0018750001 0.049661625 0.050668441
3.6209821e-10 0.044702724 0.048038717
-0.034281734 0.056832995 0.048594654
-0.018741095 0.059499666 0.049954284
-0.036549762 -0.050411806 0.064333424
-0.021342468 -0.04889942 0.063737974
-0.0039449786 -0.049716901 0.064887762
-0.036549762 -0.032007586 0.065943584
-0.021342466 -0.033443399 0.065090209
-0.0039902357 -0.032844421 0.066383041
-0.036549762 -0.0092372596 0.067275003
-0.021286329 -0.0078136707 0.066549994
-0.0039449786 -0.0085050203 0.067766659
-0.036626779 0.0091823358 0.067311116
-0.021342468 0.0077575324 0.066550002
-0.0039902357 0.0084383357 0.067785718
-0.036549762 0.032007582 0.065943584
-0.021342468 0.033443399 0.065090202
-0.003113627 0.031935938 0.060650915
-0.037099808 0.05112458 0.062870733
-0.021342468 0.04889942 0.063737974
-0.0034368497 0.050616611 0.063158333
-0.033050001 -0.056128442 0.081625991
-0.0077500008 -0.056128442 0.081625991
-0.03631226 -0.051944189 0.081992067
-0.0048962343 -0.051537249 0.082027674
-0.035659809 -0.032777835 0.083668917
-0.0053574224 -0.033255056 0.083627157
-0.035462551 0.012636472 0.077144973
-0.017749999 0.012492159 0.079169795
-0.0045002745 0.012253641 0.07850951
-0.035970189 0.020418216 0.076228909
-0.021276711 0.019497132 0.078556947
-0.0024999999 0.015055569 0.077891521
-0.035669424 0.031205587 0.078679256
-0.018776709 0.030631311 0.077582829
-0.004891241 0.032361399 0.080757283
-0.03631226 0.051944185 0.081992067
-0.0048257387 0.051453892 0.082034968
-0.033050001 0.056028821 0.081634708
-0.0077499999 0.056028824 0.081634708
-0.0377375 -0.056516632 0.089238465
-0.0211 -0.056898817 0.092285752
-0.0031177814 -0.056995757 0.093638793
1.2934208e-09 -0.056465905 0.089717157
-0.036333337 -0.053356588 0.090945922
-0.017871462 -0.046978883 0.092274196
-0.0071754511 -0.048691824 0.092273884
1.2934208e-09 -0.054573305 0.091685638
-0.034915384 -0.033491261 0.091984525
-0.017701125 -0.038863238 0.092908777
-0.0081244381 -0.037621625 0.092822261
-0.039300002 -0.017999999 0.094999999
-0.003 -0.018000001 0.094999999
3.6209821e-10 -0.017999999 0.094999999
-0.035239045 -0.010030351 0.089717396
-0.017852154 -0.0043691373 0.094819419
-0.0076804054 -0.0059328438 0.093831465
-0.03532254 0.0099767102 0.089520842
-0.017833795 0.0036118205 0.09468136
-0.0075399177 0.005583941 0.093697771
-0.039300002 0.017999999 0.094999999
-0.003 0.017999997 0.094999999
3.6209821e-10 0.017999999 0.094999999
-0.034915388 0.033491258 0.091984525
-0.017896332 0.03873663 0.093065582
-0.0083056055 0.037551858 0.092789359
-0.036333334 0.05335658 0.090945937
-0.017986026 0.046733268 0.092325293
-0.0070159845 0.048845381 0.092345335
-0.0377375 0.056491718 0.089240655
-0.0211 0.056898817 0.092285752
-0.0025675842 0.056890536 0.092947759
-0.016623029 -0.056442544 0.10897801
-0.0076920344 -0.056615613 0.10807796
-0.0160977 -0.0556328 0.1064798
-0.0092758695 -0.055619258 0.10568962
-0.015825707 -0.033858031 0.10810968
-0.0063016065 -0.03304312 0.10584401
-0.016091486 -0.011139319 0.10929979
-0.008053476 -0.011414004 0.10761559
-0.016065711 0.010890001 0.10865946
-0.0062392564 0.011504355 0.10646381
-0.016087538 0.03364642 0.10867484
-0.0079719694 0.033241108 0.10700953
-0.015734334 0.055390414 0.10625312
-0.0087961694 0.055455722 0.10639789
-0.017051782 0.05670866 0.10994538
-0.0073974533 0.056958664 0.10893936
-0.017488508 -0.057328157 0.11432788
-0.0092530921 -0.056863088 0.11429873
-0.018627714 -0.03327094 0.11651867
-0.0091736969 -0.033745494 0.11506739
-0.017325217 -0.011777703 0.11641034
-0.0090112519 -0.011434074 0.11578254
-0.0182344 0.01206035 0.11726324
-0.0088334773 0.011576325 0.11584164
-0.017557345 0.033515386 0.11579181
-0.0093385084 0.033890206 0.11509024
-0.018745458 0.057721592 0.11508508
-0.0074606882 0.057734869 0.11579391
-0.020109113 -0.058390133 0.13572106
-0.0024908865 -0.058390126 0.13572106
-0.019985255 -0.037835833 0.1371429
-0.002614748 -0.037835833 0.1371429
-0.019858627 -0.011150001 0.13840687
-0.0027413738 -0.011150001 0.13840687
-0.019858627 0.0094499988 0.13840687
-0.0027413741 0.0094499988 0.13840687
-0.019985253 0.036142301 0.13729106
-0.0026147475 0.036142305 0.13729107
-0.020109113 0.056696594 0.13586922
-0.0024908865 0.056696594 0.13586923
-0.020284824 -0.060842156 0.15170044
-0.002315176 -0.060842156 0.15170044
-0.021002114 -0.03675919 0.150079
-0.0015978873 -0.03675919 0.150079
-0.021042909 -0.011675 0.14731298
-0.0015570904 -0.011674999 0.147313
-0.021042909 0.010825 0.14731298
-0.00155709 0.010825 0.147313
-0.021002114 0.036420483 0.15010865
-0.0015978867 0.036420487 0.15010864
-0.020284824 0.060842153 0.15170045
-0.002315176 0.060842149 0.15170044
-0.016342446 -0.060881283 0.16199395
-0.0087241195 -0.060729336 0.16162184
-0.0176994 -0.037384652 0.15985069
-0.0083185546 -0.037956942 0.16189188
-0.016865652 -0.011489545 0.16293208
-0.0086668292 -0.011277223 0.16254027
-0.017909793 0.011899998 0.16086291
-0.0078045921 0.011599998 0.16176872
-0.016712483 0.038045004 0.16229716
-0.0086284596 0.038197175 0.16188468
-0.0176604 0.06105699 0.15923093
-0.0085156569 0.060899422 0.16170968
-0.019515466 -0.061576489 0.17297588
-0.0081579965 -0.061440211 0.1697544
-0.019740416 -0.040244512 0.1742062
-0.0045551192 -0.039548192 0.17225692
-0.016681444 -0.011136835 0.17126842
-0.0082408106 -0.011202536 0.17113382
-0.019740414 0.010280768 0.1758572
-0.005771467 0.010890001 0.17253523
-0.016780674 0.039082468 0.17061193
-0.008382461 0.03895415 0.17027132
-0.019515464 0.060688745 0.17336382
-0.0028407606 0.06098431 0.17287467
-0.018900163 -0.064542092 0.19268717
-0.010065905 -0.063828021 0.19480155
-0.019147396 -0.039961543 0.19299255
-0.0034526035 -0.039961535 0.19299255
-0.020284824 -0.0122 0.19363227
-0.0023151764 -0.0122 0.19363227
-0.020284824 0.0122 0.19363227
-0.0023151764 0.0122 0.19363227
-0.019147398 0.039961539 0.19299257
-0.0034526035 0.039961539 0.19299257
-0.018900167 0.064496808 0.19269115
-0.0058554546 0.064487338 0.19211662
-0.016166385 -0.064112529 0.20108983
-0.0082357191 -0.06423609 0.20258926
-0.016764104 -0.042560093 0.20452745
-0.0089252098 -0.042445734 0.20432527
-0.018095676 -0.040627811 0.19900779
-0.0079473704 -0.040879063 0.20099388
-0.016313145 -0.011295739 0.20374432
-0.0089662066 -0.011178469 0.20401362
-0.017485157 0.011695159 0.20135532
-0.008593997 0.011380914 0.20341542
-0.016387068 0.041405804 0.20109372
-0.0087739378 0.041423216 0.20022796
-0.016198782 0.042376339 0.20500076
-0.0094108209 0.042456176 0.20635504
-0.017211612 0.064193398 0.20210746
-0.0076937801 0.064285688 0.20196037
-0.020182835 -0.06361784 0.21503727
-0.0053449469 -0.064843848 0.21530761
0.00011267829 -0.058044977 0.21716104
-0.019718282 -0.04671105 0.21612957
-0.009398655 -0.05121297 0.21550705
0.00055948278 -0.053820301 0.21753067
-0.0211 -0.040952064 0.2186565
-0.0015000008 -0.040603444 0.21467172
-0.019863255 -0.0092973588 0.21705599
-0.0080999983 -0.0083159935 0.21506803
0.00035203656 -0.0026595017 0.2202
-0.019599382 0.0088154161 0.21768856
-0.0077497405 0.0054587754 0.21722054
0.00054352579 0.0016043145 0.2202
-0.0211 0.040952064 0.2186565
-0.0015000008 0.040603444 0.21467172
-0.019999405 0.045956947 0.21547966
-0.0092510721 0.050544348 0.21545292
0.00046399736 0.052763402 0.21762311
-0.019797152 0.063062191 0.21624249
-0.0048224777 0.064306296 0.21618161
0.00039913447 0.057010975 0.21725151
-0.018966667 -0.061859284 0.23217691
-0.0064602499 -0.063438646 0.23242985
0.00039426523 -0.057601649 0.2288848
-0.01941899 -0.049692061 0.23265737
-0.0057913782 -0.047862671 0.23304184
0.00048357656 -0.053990439 0.22933637
-0.019950531 -0.0063445615 0.2333322
-0.0059880102 -0.0089006657 0.23343641
0.00039426543 -0.0022447677 0.23184051
-0.019673575 0.0068971515 0.23328094
-0.005718092 0.0086170845 0.23352367
0.00048357679 0.001392052 0.23197559
-0.019464066 0.049753856 0.23265198
-0.0058910395 0.047796555 0.23301606
0.00046988673 0.053973 0.22928227
-0.01892202 0.061910197 0.2321724
-0.0063772281 0.063385271 0.23246758
0.00040705956 0.057559006 0.2289689
-0.01572776 -0.058036432 0.23907213
-0.01013224 -0.058400102 0.23959604
-0.01565155 -0.053303022 0.23920307
-0.010113214 -0.053103086 0.23968926
-0.016967665 -0.0036214802 0.24041678
-0.0091157369 -0.003848539 0.2413913
-0.016846534 0.0040823957 0.24036928
-0.0088666109 0.0036892896 0.24134977
-0.01565155 0.053303011 0.23920311
-0.010113214 0.053103086 0.23968926
-0.015727764 0.058036435 0.23907214
-0.010132241 0.058400113 0.23959598
