# .PCD v0.7 - Point Cloud Data file format
VERSION 0.7
FIELDS x y z
SIZE 4 4 4
TYPE F F F
COUNT 1 1 1
WIDTH 94
HEIGHT 1
VIEWPOINT 0 0 0 1 0 0 0
POINTS 94
DATA ascii
-0.067444131 -0.03519161 -0.032508045
-0.06818603 -0.011334003 -0.032376766
-0.046574932 -0.0036815044 -0.035125002
-0.067535497 0.011880743 -0.031834416
-0.046546083 0.0037758981 -0.035128202
-0.067591429 0.035692982 -0.03440303
-0.0039037762 -0.091779716 -0.014404868
0.0037157633 -0.092103176 -0.014424677
-0.003566572 -0.067724407 -0.019587731
0.003616611 -0.06795875 -0.019462297
-0.067283653 -0.033708639 -0.023066698
-0.0039751609 -0.046576973 -0.018109899
0.0041539879 -0.046247903 -0.017811583
-0.067246236 -0.011968389 -0.023787752
-0.041131765 -0.014846389 -0.0038444761
-0.012989896 -0.011379106 -0.0019103575
0.011577363 -0.012632734 -0.0018833992
0.029014939 -0.0097318878 -1.4752e-07
-0.067418464 0.01727226 -0.02333267
-0.040920056 0.014695841 -0.0037758269
-0.011859198 0.013111832 -0.00232284
0.012909542 0.013093241 -0.0021664514
0.02963924 0.0076218839 -1.36824e-07
-0.067034423 0.033492904 -0.024082359
-0.027854223 0.037441079 -0.0053935884
-0.019423375 0.032274708 -0.0065617678
0.018512927 0.032264199 -0.0064965072
0.027854223 0.037441079 -0.0053935884
-0.024525601 0.075712889 -0.0063739014
0.021582529 0.075759947 -0.0065733935
-0.022957897 0.085247681 -0.0032741828
0.018706433 0.085406601 -0.0033969791
-0.0049036508 -0.097672813 0.011640267
0.0045123869 -0.097572036 0.01184402
-0.016634777 -0.069646642 0.018543936
0.016633568 -0.069652468 0.018543946
-0.0097843325 -0.031394012 0.0029951332
0.009229145 -0.031348545 0.0029434001
-0.029514074 -0.0094879614 0.0028105178
-0.014345076 -0.012939914 0.002763605
0.013818363 -0.013551351 0.002792198
0.03086167 -0.0087216925 0.0026588652
-0.029658921 0.010159841 0.002831328
-0.013795465 0.013775553 0.0028240008
0.014627647 0.01342545 0.0027904056
0.030914476 0.0080398107 0.0027375852
-0.027974209 0.039048489 0.00099467044
-0.011660209 0.031190505 0.0034435722
0.012365949 0.031129705 0.0035090621
0.027974209 0.039048489 0.00099467044
-0.018101633 0.070006579 0.015301051
0.018102547 0.070002295 0.015301038
-0.021976303 0.091625646 0.0099885184
0.019440575 0.091973796 0.0099353259
-0.016207723 -0.097837679 0.042887967
0.014243149 -0.098053187 0.042477507
-0.017816121 -0.076294601 0.032927569
0.017816121 -0.076294601 0.032927569
-0.01795372 0.07516598 0.02994334
0.01795372 0.07516598 0.02994334
-0.018898271 0.095347315 0.042612288
0.017444558 0.095700368 0.042631071
-0.014469617 -0.093331069 0.061121531
0.013154197 -0.093653806 0.061209641
-0.0085459063 -0.061572868 0.067113921
0.0080849044 -0.061682638 0.067204088
-0.0094130393 -0.045223504 0.063538261
0.0094510484 -0.045242101 0.063446946
-0.01611709 -0.013616741 0.064510576
0.01611709 -0.01361674 0.064510576
-0.015102236 0.011724975 0.065399021
0.015102236 0.011724975 0.065399021
-0.011008531 0.04570761 0.063491121
0.010978416 0.045692921 0.063563421
-0.0078037195 0.060504835 0.067567296
0.0077781272 0.060742345 0.067162134
-0.0148436 0.092926405 0.061251491
0.013439476 0.093290307 0.06134133
-0.0089157298 -0.05491402 0.094237179
0.0089154458 -0.05490911 0.094241574
-0.0034102986 -0.046760991 0.10187525
0.0034037665 -0.046990752 0.10202431
-0.0034037854 0.046990745 0.1020243
0.0034102807 0.046760991 0.10187528
-0.008915484 0.054909088 0.094241582
0.0089156926 0.054914042 0.094237179
-0.007411038 -0.054252733 0.11022906
0.0076835239 -0.054265879 0.10987346
-0.0053732814 -0.045565013 0.11077369
0.0060257907 -0.045801669 0.11039346
-0.0060258056 0.045801658 0.11039346
0.0053732675 0.045565031 0.11077369
-0.0076835593 0.054265857 0.10987346
0.0074110022 0.054252751 0.11022907
