# .PCD v0.7 - Point Cloud Data file format
VERSION 0.7
FIELDS x y z
SIZE 4 4 4
TYPE F F F
COUNT 1 1 1
WIDTH 1379
HEIGHT 1
VIEWPOINT 0 0 0 1 0 0 0
POINTS 1379
DATA ascii
0.018097699 -0.1250833 0.39900002
0.019137917 -0.1250833 0.39900002
0.020178135 -0.1250833 0.39900002
0.021218356 -0.1250833 0.39900002
0.022202788 -0.12476981 0.39800003
0.023240399 -0.12476981 0.39800003
0.024278011 -0.12476981 0.39800003
0.025252013 -0.12445632 0.39700001
0.026287019 -0.12445632 0.39700001
0.027253203 -0.12414283 0.39600003
0.0282856 -0.12414283 0.39600003
0.029317996 -0.12414283 0.39600003
0.030350393 -0.12414283 0.39600003
0.031382792 -0.12414283 0.39600003
0.032333333 -0.12382933 0.39500001
0.033363122 -0.12382933 0.39500001
0.034392912 -0.12382933 0.39500001
0.035422701 -0.12382933 0.39500001
0.036360208 -0.12351584 0.39400002
0.03738739 -0.12351584 0.39400002
0.038414571 -0.12351584 0.39400002
0.039341651 -0.12320235 0.39300001
0.040366225 -0.12320235 0.39300001
0.041390803 -0.12320235 0.39300001
0.042415377 -0.12320235 0.39300001
0.043329421 -0.12288886 0.39200002
0.044351388 -0.12288886 0.39200002
0.045257613 -0.12257537 0.39100003
0.047296334 -0.12257537 0.39100003
0.048192125 -0.12226187 0.39000002
0.049082704 -0.12194838 0.38900003
0.050096851 -0.12194838 0.38900003
0.051111002 -0.12194838 0.38900003
0.057910755 -0.1213214 0.38700002
0.058767438 -0.1210079 0.38600001
0.080851905 -0.11944044 0.38100001
0.081845194 -0.11944044 0.38100001
0.082838483 -0.11944044 0.38100001
0.08383178 -0.11944044 0.38100001
0.084825069 -0.11944044 0.38100001
0.085593119 -0.11912695 0.38000003
0.086583801 -0.11912695 0.38000003
0.087574482 -0.11912695 0.38000003
0.088565171 -0.11912695 0.38000003
0.089555852 -0.11912695 0.38000003
0.090308249 -0.11881346 0.37900001
0.09129633 -0.11881346 0.37900001
0.092284411 -0.11881346 0.37900001
0.093272485 -0.11881346 0.37900001
0.094011858 -0.11849997 0.37800002
0.094997324 -0.11849997 0.37800002
0.095982797 -0.11849997 0.37800002
0.096968263 -0.11849997 0.37800002
0.097953737 -0.11849997 0.37800002
0.098677464 -0.11818647 0.377
0.099660322 -0.11818647 0.377
0.10064319 -0.11818647 0.377
0.10135648 -0.11787298 0.37600002
0.10233674 -0.11787298 0.37600002
0.10331699 -0.11787298 0.37600002
0.10429726 -0.11787298 0.37600002
0.10499752 -0.1175595 0.37500003
0.10597517 -0.1175595 0.37500003
0.10695282 -0.1175595 0.37500003
0.10793047 -0.1175595 0.37500003
0.10890811 -0.1175595 0.37500003
0.10959273 -0.117246 0.37400001
0.11056778 -0.117246 0.37400001
0.11154281 -0.117246 0.37400001
0.11221702 -0.11693251 0.37300003
0.11318944 -0.11693251 0.37300003
0.11385582 -0.11661901 0.37200001
0.11482564 -0.11661901 0.37200001
0.11579547 -0.11661901 0.37200001
0.11676529 -0.11661901 0.37200001
0.11741863 -0.11630553 0.37100002
0.11838585 -0.11630553 0.37100002
0.11935308 -0.11630553 0.37100002
0.12032029 -0.11630553 0.37100002
0.12128752 -0.11630553 0.37100002
0.12225474 -0.11630553 0.37100002
0.12288982 -0.11599203 0.37
0.12385444 -0.11599203 0.37
0.12481904 -0.11599203 0.37
0.12544371 -0.11567854 0.36900002
0.12640572 -0.11567854 0.36900002
0.12736772 -0.11567854 0.36900002
0.12832972 -0.11567854 0.36900002
0.12929173 -0.11567854 0.36900002
0.13025373 -0.11567854 0.36900002
0.13086015 -0.11536506 0.36800003
0.13181955 -0.11536506 0.36800003
0.13277896 -0.11536506 0.36800003
0.13373835 -0.11536506 0.36800003
0.13469775 -0.11536506 0.36800003
0.13565715 -0.11536506 0.36800003
0.1362453 -0.11505156 0.36700001
0.1372021 -0.11505156 0.36700001
0.13815889 -0.11505156 0.36700001
0.13911568 -0.11505156 0.36700001
0.1396908 -0.11473807 0.36600003
0.140645 -0.11473807 0.36600003
0.14159918 -0.11473807 0.36600003
0.14216387 -0.11442457 0.36500001
0.14311545 -0.11442457 0.36500001
0.14406702 -0.11442457 0.36500001
0.14501861 -0.11442457 0.36500001
0.14557026 -0.11411108 0.36400002
0.14651924 -0.11411108 0.36400002
0.14746821 -0.11411108 0.36400002
0.14800943 -0.11379759 0.36300001
0.14895579 -0.11379759 0.36300001
0.14990216 -0.11379759 0.36300001
0.15084852 -0.11379759 0.36300001
0.15137672 -0.1134841 0.36200002
0.15232047 -0.1134841 0.36200002
0.15326424 -0.1134841 0.36200002
0.15420799 -0.1134841 0.36200002
0.15472317 -0.11317061 0.36100003
0.15566432 -0.11317061 0.36100003
0.15660547 -0.11317061 0.36100003
0.15754662 -0.11317061 0.36100003
0.15804873 -0.11285711 0.36000001
0.15898728 -0.11285711 0.36000001
0.15992582 -0.11285711 0.36000001
0.16086437 -0.11285711 0.36000001
0.1618029 -0.11285711 0.36000001
0.16274145 -0.11285711 0.36000001
0.16322532 -0.11254363 0.35900003
0.16416126 -0.11254363 0.35900003
0.16509719 -0.11254363 0.35900003
-0.26811609 -0.14829211 0.47700003
-0.26631302 -0.14798121 0.47600001
-0.26507205 -0.14798121 0.47600001
-0.26327685 -0.14767033 0.47500002
-0.2620385 -0.14767033 0.47500002
-0.26025108 -0.14735945 0.47400004
-0.25901532 -0.14735945 0.47400004
-0.25777957 -0.14735945 0.47400004
-0.25654384 -0.14735945 0.47400004
-0.25476944 -0.14704856 0.47300002
-0.25353631 -0.14704856 0.47300002
-0.25230318 -0.14704856 0.47300002
-0.25107005 -0.14704856 0.47300002
-0.24930869 -0.14673768 0.47200003
-0.24807817 -0.14673768 0.47200003
-0.24632464 -0.1464268 0.47100002
-0.24509673 -0.1464268 0.47100002
-0.24386878 -0.1464268 0.47100002
-0.2421257 -0.14611591 0.47000003
-0.2409004 -0.14611591 0.47000003
-0.23967505 -0.14611591 0.47000003
-0.23794238 -0.14580502 0.46900001
-0.23671968 -0.14580502 0.46900001
-0.23549698 -0.14580502 0.46900001
-0.23377475 -0.14549413 0.46800002
-0.23255463 -0.14549413 0.46800002
-0.23084022 -0.14518325 0.46700001
-0.22962272 -0.14518325 0.46700001
-0.22840522 -0.14518325 0.46700001
-0.22670124 -0.14487237 0.46600002
-0.22548635 -0.14487237 0.46600002
-0.22427146 -0.14487237 0.46600002
-0.22257791 -0.14456148 0.46500003
-0.22136563 -0.14456148 0.46500003
-0.21967988 -0.1442506 0.46400002
-0.21847022 -0.1442506 0.46400002
-0.21726052 -0.1442506 0.46400002
-0.21558523 -0.14393972 0.46300003
-0.21437816 -0.14393972 0.46300003
-0.21271068 -0.14362882 0.46200001
-0.2115062 -0.14362882 0.46200001
-0.21030176 -0.14362882 0.46200001
-0.2086447 -0.14331794 0.46100003
-0.20744283 -0.14331794 0.46100003
-0.2057936 -0.14300705 0.46000001
-0.20459434 -0.14300705 0.46000001
-0.2033951 -0.14300705 0.46000001
-0.20219585 -0.14300705 0.46000001
-0.20055966 -0.14269617 0.45900002
-0.19936301 -0.14269617 0.45900002
-0.19816639 -0.14269617 0.45900002
-0.19654061 -0.14238529 0.45800003
-0.19534658 -0.14238529 0.45800003
-0.19372861 -0.14207441 0.45700002
-0.1925372 -0.14207441 0.45700002
-0.19134577 -0.14207441 0.45700002
-0.18973824 -0.14176352 0.45600003
-0.18813594 -0.14145263 0.45500001
-0.18694972 -0.14145263 0.45500001
-0.18576351 -0.14145263 0.45500001
-0.18417163 -0.14114174 0.45400003
-0.18298803 -0.14114174 0.45400003
-0.18180442 -0.14114174 0.45400003
-0.18022296 -0.14083086 0.45300001
-0.17904195 -0.14083086 0.45300001
-0.17786096 -0.14083086 0.45300001
-0.17628995 -0.14051998 0.45200002
-0.17511156 -0.14051998 0.45200002
-0.17354836 -0.14020909 0.45100003
-0.17237256 -0.14020909 0.45100003
-0.17119679 -0.14020909 0.45100003
-0.169644 -0.13989821 0.45000002
-0.16847083 -0.13989821 0.45000002
-0.16729765 -0.13989821 0.45000002
-0.16575532 -0.13958733 0.44900003
-0.16458474 -0.13958733 0.44900003
-0.16341417 -0.13958733 0.44900003
-0.16188224 -0.13927643 0.44800001
-0.16071428 -0.13927643 0.44800001
-0.15954632 -0.13927643 0.44800001
-0.15802483 -0.13896556 0.44700003
-0.15685947 -0.13896556 0.44700003
-0.1553458 -0.13865466 0.44600001
-0.15418305 -0.13865466 0.44600001
-0.15302029 -0.13865466 0.44600001
-0.15151706 -0.13834378 0.44500002
-0.15035692 -0.13834378 0.44500002
-0.14919679 -0.13834378 0.44500002
-0.14770398 -0.1380329 0.44400004
-0.14654644 -0.1380329 0.44400004
-0.1453889 -0.1380329 0.44400004
-0.14423136 -0.1380329 0.44400004
-0.14307383 -0.1380329 0.44400004
-0.14159666 -0.13772202 0.44300002
-0.14044173 -0.13772202 0.44300002
-0.13897237 -0.13741113 0.44200003
-0.13782007 -0.13741113 0.44200003
-0.13635853 -0.13710025 0.44100001
-0.13520882 -0.13710025 0.44100001
-0.13375512 -0.13678937 0.44000003
-0.13260801 -0.13678937 0.44000003
-0.13146091 -0.13678937 0.44000003
-0.13001762 -0.13647847 0.43900001
-0.12887311 -0.13647847 0.43900001
-0.12743767 -0.13616759 0.43800002
-0.12629578 -0.13616759 0.43800002
-0.12515388 -0.13616759 0.43800002
-0.12401199 -0.13616759 0.43800002
-0.12287009 -0.13616759 0.43800002
-0.1217282 -0.13616759 0.43800002
-0.12031098 -0.1358567 0.43700001
-0.1191717 -0.1358567 0.43700001
-0.11803241 -0.1358567 0.43700001
-0.11662564 -0.13554582 0.43600002
-0.11548896 -0.13554582 0.43600002
-0.11435229 -0.13554582 0.43600002
-0.1132156 -0.13554582 0.43600002
-0.11182187 -0.13523494 0.43500003
-0.11068779 -0.13523494 0.43500003
-0.10955372 -0.13523494 0.43500003
-0.10817041 -0.13492405 0.43400002
-0.10703894 -0.13492405 0.43400002
-0.10590747 -0.13492405 0.43400002
-0.10453459 -0.13461317 0.43300003
-0.10340573 -0.13461317 0.43300003
-0.10204066 -0.13430227 0.43200001
-0.10091441 -0.13430227 0.43200001
-0.099557169 -0.13399139 0.43100002
-0.098433524 -0.13399139 0.43100002
-0.09730988 -0.13399139 0.43100002
-0.095963061 -0.13368051 0.43000001
-0.094842024 -0.13368051 0.43000001
-0.093720987 -0.13368051 0.43000001
-0.092384607 -0.13336962 0.42900002
-0.091266178 -0.13336962 0.42900002
-0.090147749 -0.13336962 0.42900002
-0.088821791 -0.13305874 0.42800003
-0.08770597 -0.13305874 0.42800003
-0.086387828 -0.13274786 0.42700002
-0.085274614 -0.13274786 0.42700002
-0.084161393 -0.13274786 0.42700002
-0.083048172 -0.13274786 0.42700002
-0.081743076 -0.13243698 0.42600003
-0.080632471 -0.13243698 0.42600003
-0.079335183 -0.13212608 0.42500001
-0.078227185 -0.13212608 0.42500001
-0.076937728 -0.1318152 0.42400002
-0.07583233 -0.1318152 0.42400002
-0.074726939 -0.1318152 0.42400002
-0.073447905 -0.13150431 0.42300001
-0.072345115 -0.13150431 0.42300001
-0.071242332 -0.13150431 0.42300001
-0.06997373 -0.13119343 0.42200002
-0.068873547 -0.13119343 0.42200002
-0.067773364 -0.13119343 0.42200002
-0.066673182 -0.13119343 0.42200002
-0.065417618 -0.13088255 0.42100003
-0.064320043 -0.13088255 0.42100003
-0.063222468 -0.13088255 0.42100003
-0.061977331 -0.13057166 0.42000002
-0.060882363 -0.13057166 0.42000002
-0.059787396 -0.13057166 0.42000002
-0.058692433 -0.13057166 0.42000002
-0.05746033 -0.13026078 0.41900003
-0.056367971 -0.13026078 0.41900003
-0.055143688 -0.12994988 0.41800001
-0.054053929 -0.12994988 0.41800001
-0.052964177 -0.12994988 0.41800001
-0.051874429 -0.12994988 0.41800001
-0.050784674 -0.12994988 0.41800001
-0.049694922 -0.12994988 0.41800001
-0.048488889 -0.12963901 0.41700003
-0.047401745 -0.12963901 0.41700003
-0.046314597 -0.12963901 0.41700003
-0.045227453 -0.12963901 0.41700003
-0.044140309 -0.12963901 0.41700003
-0.043053161 -0.12963901 0.41700003
-0.041865375 -0.12932812 0.41600001
-0.040780839 -0.12932812 0.41600001
-0.039696299 -0.12932812 0.41600001
-0.038611762 -0.12932812 0.41600001
-0.037437014 -0.12901723 0.41500002
-0.036355086 -0.12901723 0.41500002
-0.03527315 -0.12901723 0.41500002
-0.034108832 -0.12870635 0.41400003
-0.033029508 -0.12870635 0.41400003
-0.031873006 -0.12839547 0.41300002
-0.030796291 -0.12839547 0.41300002
-0.029647615 -0.12808459 0.41200003
-0.028573502 -0.12808459 0.41200003
-0.027499393 -0.12808459 0.41200003
-0.026361143 -0.1277737 0.41100001
-0.02528964 -0.1277737 0.41100001
-0.024218136 -0.1277737 0.41100001
-0.023146633 -0.1277737 0.41100001
-0.02207513 -0.1277737 0.41100001
-0.020952525 -0.12746282 0.41000003
-0.019883627 -0.12746282 0.41000003
-0.018814731 -0.12746282 0.41000003
-0.017745836 -0.12746282 0.41000003
-0.016636262 -0.12715192 0.40900001
-0.015569974 -0.12715192 0.40900001
-0.014468225 -0.12684104 0.40800002
-0.013404543 -0.12684104 0.40800002
-0.012310612 -0.12653016 0.40700001
-0.011249538 -0.12653016 0.40700001
-0.010188462 -0.12653016 0.40700001
-0.0091049625 -0.12621927 0.40600002
-0.0080464939 -0.12621927 0.40600002
-0.0069880262 -0.12621927 0.40600002
-0.0059149535 -0.12590839 0.40500003
-0.0048590931 -0.12590839 0.40500003
-0.0038032322 -0.12590839 0.40500003
-0.0027473713 -0.12590839 0.40500003
-0.0016915104 -0.12590839 0.40500003
-0.00063408009 -0.12559751 0.40400001
0.00041917365 -0.12559751 0.40400001
0.0014724274 -0.12559751 0.40400001
0.0025256812 -0.12559751 0.40400001
0.0035700763 -0.12528662 0.40300003
0.004620723 -0.12528662 0.40300003
0.0056713694 -0.12528662 0.40300003
0.0067220167 -0.12528662 0.40300003
0.0077533755 -0.12497573 0.40200001
0.0088014156 -0.12497573 0.40200001
0.009824954 -0.12466485 0.40100002
0.010870387 -0.12466485 0.40100002
0.01191582 -0.12466485 0.40100002
0.012961252 -0.12466485 0.40100002
0.013971753 -0.12435396 0.40000001
0.01501458 -0.12435396 0.40000001
0.016057406 -0.12435396 0.40000001
0.01710023 -0.12435396 0.40000001
0.018143056 -0.12435396 0.40000001
0.019137917 -0.12404308 0.39900002
0.020178135 -0.12404308 0.39900002
0.021218356 -0.12404308 0.39900002
0.022202788 -0.12373219 0.39800003
0.023240399 -0.12373219 0.39800003
0.024278011 -0.12373219 0.39800003
0.025252013 -0.1234213 0.39700001
0.026287019 -0.1234213 0.39700001
0.027322022 -0.1234213 0.39700001
0.0282856 -0.12311043 0.39600003
0.029317996 -0.12311043 0.39600003
0.030350393 -0.12311043 0.39600003
0.031382792 -0.12311043 0.39600003
0.032333333 -0.12279954 0.39500001
0.033363122 -0.12279954 0.39500001
0.034392912 -0.12279954 0.39500001
0.035422701 -0.12279954 0.39500001
0.036360208 -0.12248866 0.39400002
0.03738739 -0.12248866 0.39400002
0.038414571 -0.12248866 0.39400002
0.039341651 -0.12217776 0.39300001
0.040366225 -0.12217776 0.39300001
0.041390803 -0.12217776 0.39300001
0.042307451 -0.12186688 0.39200002
0.043329421 -0.12186688 0.39200002
0.044351388 -0.12186688 0.39200002
0.045373358 -0.12186688 0.39200002
0.047296334 -0.12155601 0.39100003
0.052982658 -0.10290291 0.33100003
0.053845596 -0.10290291 0.33100003
0.054708533 -0.10290291 0.33100003
0.05557147 -0.10290291 0.33100003
0.056434408 -0.10290291 0.33100003
0.057297345 -0.10290291 0.33100003
0.057984576 -0.10259202 0.33000001
0.058844905 -0.10259202 0.33000001
0.059886165 -0.10290291 0.33100003
0.060749102 -0.10290291 0.33100003
0.06161204 -0.10290291 0.33100003
0.062286228 -0.10259202 0.33000001
0.063146561 -0.10259202 0.33000001
0.064006887 -0.10259202 0.33000001
0.064867221 -0.10259202 0.33000001
0.065926731 -0.10290291 0.33100003
0.08383178 -0.11844715 0.38100001
0.084825069 -0.11844715 0.38100001
0.085593119 -0.11813626 0.38000003
0.086583801 -0.11813626 0.38000003
0.087574482 -0.11813626 0.38000003
0.088565171 -0.11813626 0.38000003
0.089555852 -0.11813626 0.38000003
0.090546533 -0.11813626 0.38000003
0.09129633 -0.11782537 0.37900001
0.092284411 -0.11782537 0.37900001
0.093272485 -0.11782537 0.37900001
0.094260566 -0.11782537 0.37900001
0.094997324 -0.1175145 0.37800002
0.095982797 -0.1175145 0.37800002
0.096968263 -0.1175145 0.37800002
0.097953737 -0.1175145 0.37800002
0.09893921 -0.1175145 0.37800002
0.099660322 -0.11720361 0.377
0.10064319 -0.11720361 0.377
0.10162605 -0.11720361 0.377
0.10233674 -0.11689273 0.37600002
0.10331699 -0.11689273 0.37600002
0.10429726 -0.11689273 0.37600002
0.10527751 -0.11689273 0.37600002
0.10597517 -0.11658184 0.37500003
0.10695282 -0.11658184 0.37500003
0.10793047 -0.11658184 0.37500003
0.10890811 -0.11658184 0.37500003
0.10959273 -0.11627095 0.37400001
0.11056778 -0.11627095 0.37400001
0.11154281 -0.11627095 0.37400001
0.11221702 -0.11596008 0.37300003
0.11318944 -0.11596008 0.37300003
0.11416189 -0.11596008 0.37300003
0.11513431 -0.11596008 0.37300003
0.11579547 -0.11564919 0.37200001
0.11676529 -0.11564919 0.37200001
0.11773513 -0.11564919 0.37200001
0.11838585 -0.1153383 0.37100002
0.11935308 -0.1153383 0.37100002
0.12032029 -0.1153383 0.37100002
0.12128752 -0.1153383 0.37100002
0.12225474 -0.1153383 0.37100002
0.12288982 -0.11502741 0.37
0.12385444 -0.11502741 0.37
0.12481904 -0.11502741 0.37
0.12578367 -0.11502741 0.37
0.12640572 -0.11471653 0.36900002
0.12736772 -0.11471653 0.36900002
0.12832972 -0.11471653 0.36900002
0.12929173 -0.11471653 0.36900002
0.13025373 -0.11471653 0.36900002
0.13121575 -0.11471653 0.36900002
0.13217774 -0.11471653 0.36900002
0.13277896 -0.11440565 0.36800003
0.13373835 -0.11440565 0.36800003
0.13469775 -0.11440565 0.36800003
0.13565715 -0.11440565 0.36800003
0.13661654 -0.11440565 0.36800003
0.1372021 -0.11409476 0.36700001
0.13815889 -0.11409476 0.36700001
0.13911568 -0.11409476 0.36700001
0.14007246 -0.11409476 0.36700001
0.140645 -0.11378388 0.36600003
0.14159918 -0.11378388 0.36600003
0.14255336 -0.11378388 0.36600003
0.14311545 -0.11347299 0.36500001
0.14406702 -0.11347299 0.36500001
0.14501861 -0.11347299 0.36500001
0.14557026 -0.11316211 0.36400002
0.14651924 -0.11316211 0.36400002
0.14746821 -0.11316211 0.36400002
0.14800943 -0.11285122 0.36300001
0.14895579 -0.11285122 0.36300001
0.14990216 -0.11285122 0.36300001
0.15084852 -0.11285122 0.36300001
0.1517949 -0.11285122 0.36300001
0.15232047 -0.11254033 0.36200002
0.15326424 -0.11254033 0.36200002
0.15420799 -0.11254033 0.36200002
0.15515175 -0.11254033 0.36200002
0.15566432 -0.11222946 0.36100003
0.15660547 -0.11222946 0.36100003
0.15754662 -0.11222946 0.36100003
0.15848777 -0.11222946 0.36100003
0.15898728 -0.11191857 0.36000001
0.15992582 -0.11191857 0.36000001
0.16086437 -0.11191857 0.36000001
0.1618029 -0.11191857 0.36000001
0.16274145 -0.11191857 0.36000001
0.16367999 -0.11191857 0.36000001
0.16416126 -0.11160769 0.35900003
0.16509719 -0.11160769 0.35900003
-0.26811609 -0.14704855 0.47700003
-0.26631302 -0.14674026 0.47600001
-0.26507205 -0.14674026 0.47600001
-0.26327685 -0.14643198 0.47500002
-0.2620385 -0.14643198 0.47500002
-0.26080012 -0.14643198 0.47500002
-0.25901532 -0.14612371 0.47400004
-0.25777957 -0.14612371 0.47400004
-0.25654384 -0.14612371 0.47400004
-0.25530806 -0.14612371 0.47400004
-0.25353631 -0.14581543 0.47300002
-0.25230318 -0.14581543 0.47300002
-0.25107005 -0.14581543 0.47300002
-0.24983688 -0.14581543 0.47300002
-0.24807817 -0.14550716 0.47200003
-0.24684763 -0.14550716 0.47200003
-0.24509673 -0.14519887 0.47100002
-0.24386878 -0.14519887 0.47100002
-0.24264085 -0.14519887 0.47100002
-0.2409004 -0.14489059 0.47000003
-0.23967505 -0.14489059 0.47000003
-0.23844974 -0.14489059 0.47000003
-0.23671968 -0.14458232 0.46900001
-0.23549698 -0.14458232 0.46900001
-0.23427425 -0.14458232 0.46900001
-0.23255463 -0.14427404 0.46800002
-0.23133454 -0.14427404 0.46800002
-0.22962272 -0.14396575 0.46700001
-0.22840522 -0.14396575 0.46700001
-0.22718772 -0.14396575 0.46700001
-0.22548635 -0.14365748 0.46600002
-0.22427146 -0.14365748 0.46600002
-0.22305657 -0.14365748 0.46600002
-0.22136563 -0.14334922 0.46500003
-0.22015335 -0.14334922 0.46500003
-0.21847022 -0.14304093 0.46400002
-0.21726052 -0.14304093 0.46400002
-0.21605086 -0.14304093 0.46400002
-0.21437816 -0.14273265 0.46300003
-0.21317109 -0.14273265 0.46300003
-0.2115062 -0.14242437 0.46200001
-0.21030176 -0.14242437 0.46200001
-0.20909728 -0.14242437 0.46200001
-0.20744283 -0.1421161 0.46100003
-0.20624098 -0.1421161 0.46100003
-0.20459434 -0.14180781 0.46000001
-0.2033951 -0.14180781 0.46000001
-0.20219585 -0.14180781 0.46000001
-0.20099661 -0.14180781 0.46000001
-0.19936301 -0.14149953 0.45900002
-0.19816639 -0.14149953 0.45900002
-0.19654061 -0.14119126 0.45800003
-0.19534658 -0.14119126 0.45800003
-0.19415253 -0.14119126 0.45800003
-0.1925372 -0.14088298 0.45700002
-0.19134577 -0.14088298 0.45700002
-0.18973824 -0.14057471 0.45600003
-0.18854943 -0.14057471 0.45600003
-0.18694972 -0.14026642 0.45500001
-0.18576351 -0.14026642 0.45500001
-0.18457729 -0.14026642 0.45500001
-0.18298803 -0.13995814 0.45400003
-0.18180442 -0.13995814 0.45400003
-0.18022296 -0.13964987 0.45300001
-0.17904195 -0.13964987 0.45300001
-0.17786096 -0.13964987 0.45300001
-0.17628995 -0.13934159 0.45200002
-0.17511156 -0.13934159 0.45200002
-0.17393316 -0.13934159 0.45200002
-0.17237256 -0.13903332 0.45100003
-0.17119679 -0.13903332 0.45100003
-0.170021 -0.13903332 0.45100003
-0.16847083 -0.13872504 0.45000002
-0.16729765 -0.13872504 0.45000002
-0.16612448 -0.13872504 0.45000002
-0.16458474 -0.13841677 0.44900003
-0.16341417 -0.13841677 0.44900003
-0.16224359 -0.13841677 0.44900003
-0.16071428 -0.13810848 0.44800001
-0.15954632 -0.13810848 0.44800001
-0.15837836 -0.13810848 0.44800001
-0.15685947 -0.1378002 0.44700003
-0.15569411 -0.1378002 0.44700003
-0.15418305 -0.13749193 0.44600001
-0.15302029 -0.13749193 0.44600001
-0.15185755 -0.13749193 0.44600001
-0.15035692 -0.13718365 0.44500002
-0.14919679 -0.13718365 0.44500002
-0.14803663 -0.13718365 0.44500002
-0.14654644 -0.13687538 0.44400004
-0.1453889 -0.13687538 0.44400004
-0.14423136 -0.13687538 0.44400004
-0.14307383 -0.13687538 0.44400004
-0.1419163 -0.13687538 0.44400004
-0.14044173 -0.13656709 0.44300002
-0.13928679 -0.13656709 0.44300002
-0.13782007 -0.13625881 0.44200003
-0.13666773 -0.13625881 0.44200003
-0.13520882 -0.13595054 0.44100001
-0.1340591 -0.13595054 0.44100001
-0.13260801 -0.13564226 0.44000003
-0.13146091 -0.13564226 0.44000003
-0.13001762 -0.13533397 0.43900001
-0.12887311 -0.13533397 0.43900001
-0.12772863 -0.13533397 0.43900001
-0.12658411 -0.13533397 0.43900001
-0.12515388 -0.13502571 0.43800002
-0.12401199 -0.13502571 0.43800002
-0.12287009 -0.13502571 0.43800002
-0.1217282 -0.13502571 0.43800002
-0.1205863 -0.13502571 0.43800002
-0.1191717 -0.13471742 0.43700001
-0.11803241 -0.13471742 0.43700001
-0.11689314 -0.13471742 0.43700001
-0.11548896 -0.13440914 0.43600002
-0.11435229 -0.13440914 0.43600002
-0.1132156 -0.13440914 0.43600002
-0.11207893 -0.13440914 0.43600002
-0.11068779 -0.13410087 0.43500003
-0.10955372 -0.13410087 0.43500003
-0.10841965 -0.13410087 0.43500003
-0.10703894 -0.13379259 0.43400002
-0.10590747 -0.13379259 0.43400002
-0.104776 -0.13379259 0.43400002
-0.10340573 -0.13348432 0.43300003
-0.10227688 -0.13348432 0.43300003
-0.10091441 -0.13317603 0.43200001
-0.099788159 -0.13317603 0.43200001
-0.098433524 -0.13286775 0.43100002
-0.09730988 -0.13286775 0.43100002
-0.095963061 -0.13255948 0.43000001
-0.094842024 -0.13255948 0.43000001
-0.093720987 -0.13255948 0.43000001
-0.092384607 -0.1322512 0.42900002
-0.091266178 -0.1322512 0.42900002
-0.090147749 -0.1322512 0.42900002
-0.08902932 -0.1322512 0.42900002
-0.08770597 -0.13194293 0.42800003
-0.086590149 -0.13194293 0.42800003
-0.085274614 -0.13163464 0.42700002
-0.084161393 -0.13163464 0.42700002
-0.083048172 -0.13163464 0.42700002
-0.081743076 -0.13132638 0.42600003
-0.080632471 -0.13132638 0.42600003
-0.079335183 -0.13101809 0.42500001
-0.078227185 -0.13101809 0.42500001
-0.077119179 -0.13101809 0.42500001
-0.07583233 -0.13070981 0.42400002
-0.074726939 -0.13070981 0.42400002
-0.073447905 -0.13040154 0.42300001
-0.072345115 -0.13040154 0.42300001
-0.071242332 -0.13040154 0.42300001
-0.070139542 -0.13040154 0.42300001
-0.068873547 -0.13009326 0.42200002
-0.067773364 -0.13009326 0.42200002
-0.066673182 -0.13009326 0.42200002
-0.065572999 -0.13009326 0.42200002
-0.064320043 -0.12978499 0.42100003
-0.063222468 -0.12978499 0.42100003
-0.062124897 -0.12978499 0.42100003
-0.060882363 -0.1294767 0.42000002
-0.059787396 -0.1294767 0.42000002
-0.058692433 -0.1294767 0.42000002
-0.05746033 -0.12916842 0.41900003
-0.056367971 -0.12916842 0.41900003
-0.055275612 -0.12916842 0.41900003
-0.054053929 -0.12886015 0.41800001
-0.052964177 -0.12886015 0.41800001
-0.051874429 -0.12886015 0.41800001
-0.050784674 -0.12886015 0.41800001
-0.049694922 -0.12886015 0.41800001
-0.048605166 -0.12886015 0.41800001
-0.047515415 -0.12886015 0.41800001
-0.046425663 -0.12886015 0.41800001
-0.045227453 -0.12855187 0.41700003
-0.044140309 -0.12855187 0.41700003
-0.043053161 -0.12855187 0.41700003
-0.041966014 -0.12855187 0.41700003
-0.040780839 -0.12824358 0.41600001
-0.039696299 -0.12824358 0.41600001
-0.038611762 -0.12824358 0.41600001
-0.037527222 -0.12824358 0.41600001
-0.036355086 -0.12793531 0.41500002
-0.03527315 -0.12793531 0.41500002
-0.034108832 -0.12762704 0.41400003
-0.033029508 -0.12762704 0.41400003
-0.031873006 -0.12731875 0.41300002
-0.030796291 -0.12731875 0.41300002
-0.029647615 -0.12701048 0.41200003
-0.028573502 -0.12701048 0.41200003
-0.027499393 -0.12701048 0.41200003
-0.026361143 -0.1267022 0.41100001
-0.02528964 -0.1267022 0.41100001
-0.024218136 -0.1267022 0.41100001
-0.023146633 -0.1267022 0.41100001
-0.02207513 -0.1267022 0.41100001
-0.021003628 -0.1267022 0.41100001
-0.019883627 -0.12639393 0.41000003
-0.018814731 -0.12639393 0.41000003
-0.017745836 -0.12639393 0.41000003
-0.016636262 -0.12608564 0.40900001
-0.015569974 -0.12608564 0.40900001
-0.014503686 -0.12608564 0.40900001
-0.013404543 -0.12577736 0.40800002
-0.01234086 -0.12577736 0.40800002
-0.011249538 -0.12546909 0.40700001
-0.010188462 -0.12546909 0.40700001
-0.0091273878 -0.12546909 0.40700001
-0.0080464939 -0.12516081 0.40600002
-0.0069880262 -0.12516081 0.40600002
-0.0059295581 -0.12516081 0.40600002
-0.0048590931 -0.12485254 0.40500003
-0.0038032322 -0.12485254 0.40500003
-0.0027473713 -0.12485254 0.40500003
-0.0016915104 -0.12485254 0.40500003
-0.0006356496 -0.12485254 0.40500003
0.00041917365 -0.12454426 0.40400001
0.0014724274 -0.12454426 0.40400001
0.0025256812 -0.12454426 0.40400001
0.0035789351 -0.12454426 0.40400001
0.004620723 -0.12423598 0.40300003
0.0056713694 -0.12423598 0.40300003
0.0067220167 -0.12423598 0.40300003
0.0077726627 -0.12423598 0.40300003
0.0088014156 -0.1239277 0.40200001
0.0098494552 -0.1239277 0.40200001
0.010870387 -0.12361942 0.40100002
0.01191582 -0.12361942 0.40100002
0.012961252 -0.12361942 0.40100002
0.014006684 -0.12361942 0.40100002
0.01501458 -0.12331114 0.40000001
0.016057406 -0.12331114 0.40000001
0.01710023 -0.12331114 0.40000001
0.018143056 -0.12331114 0.40000001
0.019185882 -0.12331114 0.40000001
0.020178135 -0.12300286 0.39900002
0.021218356 -0.12300286 0.39900002
0.022202788 -0.12269459 0.39800003
0.023240399 -0.12269459 0.39800003
0.024278011 -0.12269459 0.39800003
0.025252013 -0.12238631 0.39700001
0.026287019 -0.12238631 0.39700001
0.027322022 -0.12238631 0.39700001
0.0282856 -0.12207804 0.39600003
0.029317996 -0.12207804 0.39600003
0.030350393 -0.12207804 0.39600003
0.031382792 -0.12207804 0.39600003
0.032415189 -0.12207804 0.39600003
0.033363122 -0.12176975 0.39500001
0.034392912 -0.12176975 0.39500001
0.035422701 -0.12176975 0.39500001
0.036452491 -0.12176975 0.39500001
0.03738739 -0.12146148 0.39400002
0.038414571 -0.12146148 0.39400002
0.039341651 -0.1211532 0.39300001
0.040366225 -0.1211532 0.39300001
0.042415377 -0.1211532 0.39300001
0.043329421 -0.12084492 0.39200002
0.044351388 -0.12084492 0.39200002
0.052119721 -0.10203998 0.33100003
0.052982658 -0.10203998 0.33100003
0.053845596 -0.10203998 0.33100003
0.054543249 -0.1017317 0.33000001
0.055403579 -0.1017317 0.33000001
0.056263909 -0.1017317 0.33000001
0.057124238 -0.1017317 0.33000001
0.057984576 -0.1017317 0.33000001
0.058844905 -0.1017317 0.33000001
0.059705235 -0.1017317 0.33000001
0.060565569 -0.1017317 0.33000001
0.061425898 -0.1017317 0.33000001
0.062286228 -0.1017317 0.33000001
0.063146561 -0.1017317 0.33000001
0.064006887 -0.1017317 0.33000001
0.064867221 -0.1017317 0.33000001
0.065727554 -0.1017317 0.33000001
0.06658788 -0.1017317 0.33000001
0.067448214 -0.1017317 0.33000001
0.084825069 -0.11745387 0.38100001
0.085818358 -0.11745387 0.38100001
0.086583801 -0.11714559 0.38000003
0.087574482 -0.11714559 0.38000003
0.088565171 -0.11714559 0.38000003
0.089555852 -0.11714559 0.38000003
0.090546533 -0.11714559 0.38000003
0.091537222 -0.11714559 0.38000003
0.092284411 -0.11683731 0.37900001
0.093272485 -0.11683731 0.37900001
0.094260566 -0.11683731 0.37900001
0.095248632 -0.11683731 0.37900001
0.096236721 -0.11683731 0.37900001
0.096968263 -0.11652903 0.37800002
0.097953737 -0.11652903 0.37800002
0.09893921 -0.11652903 0.37800002
0.099660322 -0.11622075 0.377
0.10064319 -0.11622075 0.377
0.10162605 -0.11622075 0.377
0.10260891 -0.11622075 0.377
0.10331699 -0.11591247 0.37600002
0.10429726 -0.11591247 0.37600002
0.10527751 -0.11591247 0.37600002
0.10597517 -0.1156042 0.37500003
0.10695282 -0.1156042 0.37500003
0.10793047 -0.1156042 0.37500003
0.10890811 -0.1156042 0.37500003
0.10988577 -0.1156042 0.37500003
0.11056778 -0.11529592 0.37400001
0.11154281 -0.11529592 0.37400001
0.11251786 -0.11529592 0.37400001
0.11318944 -0.11498764 0.37300003
0.11416189 -0.11498764 0.37300003
0.11513431 -0.11498764 0.37300003
0.11579547 -0.11467936 0.37200001
0.11676529 -0.11467936 0.37200001
0.11773513 -0.11467936 0.37200001
0.11870494 -0.11467936 0.37200001
0.11935308 -0.11437108 0.37100002
0.12032029 -0.11437108 0.37100002
0.12128752 -0.11437108 0.37100002
0.12225474 -0.11437108 0.37100002
0.12322196 -0.11437108 0.37100002
0.12385444 -0.1140628 0.37
0.12481904 -0.1140628 0.37
0.12578367 -0.1140628 0.37
0.12674826 -0.1140628 0.37
0.12771289 -0.1140628 0.37
0.12832972 -0.11375453 0.36900002
0.12929173 -0.11375453 0.36900002
0.13025373 -0.11375453 0.36900002
0.13121575 -0.11375453 0.36900002
0.13217774 -0.11375453 0.36900002
0.13313976 -0.11375453 0.36900002
0.13410176 -0.11375453 0.36900002
0.13469775 -0.11344626 0.36800003
0.13565715 -0.11344626 0.36800003
0.13661654 -0.11344626 0.36800003
0.1372021 -0.11313798 0.36700001
0.13815889 -0.11313798 0.36700001
0.13911568 -0.11313798 0.36700001
0.14007246 -0.11313798 0.36700001
0.140645 -0.1128297 0.36600003
0.14159918 -0.1128297 0.36600003
0.14255336 -0.1128297 0.36600003
0.14311545 -0.11252142 0.36500001
0.14406702 -0.11252142 0.36500001
0.14501861 -0.11252142 0.36500001
0.14597018 -0.11252142 0.36500001
0.14651924 -0.11221314 0.36400002
0.14746821 -0.11221314 0.36400002
0.14841719 -0.11221314 0.36400002
0.14895579 -0.11190486 0.36300001
0.14990216 -0.11190486 0.36300001
0.15084852 -0.11190486 0.36300001
0.1517949 -0.11190486 0.36300001
0.15274125 -0.11190486 0.36300001
0.15326424 -0.11159658 0.36200002
0.15420799 -0.11159658 0.36200002
0.15515175 -0.11159658 0.36200002
0.15609552 -0.11159658 0.36200002
0.15660547 -0.11128831 0.36100003
0.15754662 -0.11128831 0.36100003
0.15848777 -0.11128831 0.36100003
0.15942892 -0.11128831 0.36100003
0.15992582 -0.11098003 0.36000001
0.16086437 -0.11098003 0.36000001
0.1618029 -0.11098003 0.36000001
0.16274145 -0.11098003 0.36000001
0.16367999 -0.11098003 0.36000001
0.16416126 -0.11067175 0.35900003
0.16509719 -0.11067175 0.35900003
-0.26811609 -0.14580497 0.47700003
-0.26687253 -0.14580497 0.47700003
-0.26507205 -0.14549929 0.47600001
-0.26383108 -0.14549929 0.47600001
-0.2620385 -0.14519362 0.47500002
-0.26080012 -0.14519362 0.47500002
-0.25956175 -0.14519362 0.47500002
-0.25777957 -0.14488795 0.47400004
-0.25654384 -0.14488795 0.47400004
-0.25530806 -0.14488795 0.47400004
-0.25407234 -0.14488795 0.47400004
-0.25283659 -0.14488795 0.47400004
-0.25107005 -0.14458229 0.47300002
-0.24983688 -0.14458229 0.47300002
-0.24860375 -0.14458229 0.47300002
-0.24684763 -0.14427662 0.47200003
-0.24561711 -0.14427662 0.47200003
-0.24386878 -0.14397094 0.47100002
-0.24264085 -0.14397094 0.47100002
-0.24141294 -0.14397094 0.47100002
-0.23967505 -0.14366527 0.47000003
-0.23844974 -0.14366527 0.47000003
-0.23722443 -0.14366527 0.47000003
-0.23549698 -0.14335959 0.46900001
-0.23427425 -0.14335959 0.46900001
-0.23305154 -0.14335959 0.46900001
-0.23133454 -0.14305393 0.46800002
-0.23011443 -0.14305393 0.46800002
-0.22840522 -0.14274825 0.46700001
-0.22718772 -0.14274825 0.46700001
-0.22597022 -0.14274825 0.46700001
-0.22427146 -0.14244258 0.46600002
-0.22305657 -0.14244258 0.46600002
-0.22184168 -0.14244258 0.46600002
-0.22015335 -0.14213692 0.46500003
-0.21894106 -0.14213692 0.46500003
-0.21726052 -0.14183123 0.46400002
-0.21605086 -0.14183123 0.46400002
-0.21437816 -0.14152558 0.46300003
-0.21317109 -0.14152558 0.46300003
-0.21196403 -0.14152558 0.46300003
-0.21030176 -0.1412199 0.46200001
-0.20909728 -0.1412199 0.46200001
-0.20789282 -0.1412199 0.46200001
-0.20624098 -0.14091423 0.46100003
-0.20503913 -0.14091423 0.46100003
-0.2033951 -0.14060855 0.46000001
-0.20219585 -0.14060855 0.46000001
-0.20099661 -0.14060855 0.46000001
-0.19979735 -0.14060855 0.46000001
-0.19816639 -0.14030288 0.45900002
-0.19696973 -0.14030288 0.45900002
-0.19534658 -0.13999723 0.45800003
-0.19415253 -0.13999723 0.45800003
-0.1929585 -0.13999723 0.45800003
-0.19134577 -0.13969155 0.45700002
-0.19015433 -0.13969155 0.45700002
-0.18854943 -0.13938588 0.45600003
-0.1873606 -0.13938588 0.45600003
-0.18576351 -0.1390802 0.45500001
-0.18457729 -0.1390802 0.45500001
-0.18339108 -0.1390802 0.45500001
-0.18180442 -0.13877454 0.45400003
-0.18062082 -0.13877454 0.45400003
-0.17904195 -0.13846886 0.45300001
-0.17786096 -0.13846886 0.45300001
-0.17667995 -0.13846886 0.45300001
-0.17511156 -0.13816319 0.45200002
-0.17393316 -0.13816319 0.45200002
-0.17275476 -0.13816319 0.45200002
-0.17119679 -0.13785753 0.45100003
-0.170021 -0.13785753 0.45100003
-0.16884522 -0.13785753 0.45100003
-0.16766943 -0.13785753 0.45100003
-0.16612448 -0.13755184 0.45000002
-0.16495129 -0.13755184 0.45000002
-0.16341417 -0.13724619 0.44900003
-0.16224359 -0.13724619 0.44900003
-0.16107303 -0.13724619 0.44900003
-0.15954632 -0.13694051 0.44800001
-0.15837836 -0.13694051 0.44800001
-0.15685947 -0.13663484 0.44700003
-0.15569411 -0.13663484 0.44700003
-0.15452877 -0.13663484 0.44700003
-0.15302029 -0.13632916 0.44600001
-0.15185755 -0.13632916 0.44600001
-0.1506948 -0.13632916 0.44600001
-0.14919679 -0.13602349 0.44500002
-0.14803663 -0.13602349 0.44500002
-0.1468765 -0.13602349 0.44500002
-0.1453889 -0.13571784 0.44400004
-0.14423136 -0.13571784 0.44400004
-0.14307383 -0.13571784 0.44400004
-0.1419163 -0.13571784 0.44400004
-0.14044173 -0.13541216 0.44300002
-0.13928679 -0.13541216 0.44300002
-0.13782007 -0.13510649 0.44200003
-0.13666773 -0.13510649 0.44200003
-0.13551542 -0.13510649 0.44200003
-0.1340591 -0.13480081 0.44100001
-0.13290939 -0.13480081 0.44100001
-0.13146091 -0.13449514 0.44000003
-0.1303138 -0.13449514 0.44000003
-0.12887311 -0.13418947 0.43900001
-0.12772863 -0.13418947 0.43900001
-0.12658411 -0.13418947 0.43900001
-0.12543963 -0.13418947 0.43900001
-0.12401199 -0.1338838 0.43800002
-0.12287009 -0.1338838 0.43800002
-0.1217282 -0.1338838 0.43800002
-0.1205863 -0.1338838 0.43800002
-0.11944441 -0.1338838 0.43800002
-0.11803241 -0.13357812 0.43700001
-0.11689314 -0.13357812 0.43700001
-0.11575384 -0.13357812 0.43700001
-0.11435229 -0.13327245 0.43600002
-0.1132156 -0.13327245 0.43600002
-0.11207893 -0.13327245 0.43600002
-0.11094224 -0.13327245 0.43600002
-0.10955372 -0.13296679 0.43500003
-0.10841965 -0.13296679 0.43500003
-0.10728557 -0.13296679 0.43500003
-0.10590747 -0.13266112 0.43400002
-0.104776 -0.13266112 0.43400002
-0.10364454 -0.13266112 0.43400002
-0.10227688 -0.13235545 0.43300003
-0.10114802 -0.13235545 0.43300003
-0.099788159 -0.13204977 0.43200001
-0.098661907 -0.13204977 0.43200001
-0.09730988 -0.1317441 0.43100002
-0.096186236 -0.1317441 0.43100002
-0.094842024 -0.13143843 0.43000001
-0.093720987 -0.13143843 0.43000001
-0.092599951 -0.13143843 0.43000001
-0.091478914 -0.13143843 0.43000001
-0.090147749 -0.13113277 0.42900002
-0.08902932 -0.13113277 0.42900002
-0.08770597 -0.1308271 0.42800003
-0.086590149 -0.1308271 0.42800003
-0.08547432 -0.1308271 0.42800003
-0.084161393 -0.13052142 0.42700002
-0.083048172 -0.13052142 0.42700002
-0.081934959 -0.13052142 0.42700002
-0.080632471 -0.13021575 0.42600003
-0.079521857 -0.13021575 0.42600003
-0.078227185 -0.12991008 0.42500001
-0.077119179 -0.12991008 0.42500001
-0.076011181 -0.12991008 0.42500001
-0.074726939 -0.12960441 0.42400002
-0.073621541 -0.12960441 0.42400002
-0.072516151 -0.12960441 0.42400002
-0.071242332 -0.12929873 0.42300001
-0.070139542 -0.12929873 0.42300001
-0.069036752 -0.12929873 0.42300001
-0.067773364 -0.12899306 0.42200002
-0.066673182 -0.12899306 0.42200002
-0.065572999 -0.12899306 0.42200002
-0.064472824 -0.12899306 0.42200002
-0.063222468 -0.1286874 0.42100003
-0.062124897 -0.1286874 0.42100003
-0.060882363 -0.12838173 0.42000002
-0.059787396 -0.12838173 0.42000002
-0.058692433 -0.12838173 0.42000002
-0.05746033 -0.12807606 0.41900003
-0.056367971 -0.12807606 0.41900003
-0.055275612 -0.12807606 0.41900003
-0.054183245 -0.12807606 0.41900003
-0.053090885 -0.12807606 0.41900003
-0.05199853 -0.12807606 0.41900003
-0.050784674 -0.12777038 0.41800001
-0.049694922 -0.12777038 0.41800001
-0.048605166 -0.12777038 0.41800001
-0.047515415 -0.12777038 0.41800001
-0.046425663 -0.12777038 0.41800001
-0.045335911 -0.12777038 0.41800001
-0.044246159 -0.12777038 0.41800001
-0.043053161 -0.12746471 0.41700003
-0.041966014 -0.12746471 0.41700003
-0.04087887 -0.12746471 0.41700003
-0.039696299 -0.12715904 0.41600001
-0.038611762 -0.12715904 0.41600001
-0.037527222 -0.12715904 0.41600001
-0.036355086 -0.12685338 0.41500002
-0.03527315 -0.12685338 0.41500002
-0.034108832 -0.12654771 0.41400003
-0.033029508 -0.12654771 0.41400003
-0.031873006 -0.12624203 0.41300002
-0.030796291 -0.12624203 0.41300002
-0.029719574 -0.12624203 0.41300002
-0.028573502 -0.12593636 0.41200003
-0.027499393 -0.12593636 0.41200003
-0.026361143 -0.12563069 0.41100001
-0.02528964 -0.12563069 0.41100001
-0.024218136 -0.12563069 0.41100001
-0.023146633 -0.12563069 0.41100001
-0.02207513 -0.12563069 0.41100001
-0.021003628 -0.12563069 0.41100001
-0.019883627 -0.12532502 0.41000003
-0.018814731 -0.12532502 0.41000003
-0.017745836 -0.12532502 0.41000003
-0.016676938 -0.12532502 0.41000003
-0.015569974 -0.12501934 0.40900001
-0.014503686 -0.12501934 0.40900001
-0.013404543 -0.12471368 0.40800002
-0.01234086 -0.12471368 0.40800002
-0.011249538 -0.12440801 0.40700001
-0.010188462 -0.12440801 0.40700001
-0.0091273878 -0.12440801 0.40700001
-0.0080663133 -0.12440801 0.40700001
-0.0069880262 -0.12410234 0.40600002
-0.0059295581 -0.12410234 0.40600002
-0.0048710904 -0.12410234 0.40600002
-0.0038126227 -0.12410234 0.40600002
-0.0027473713 -0.12379667 0.40500003
-0.0016915104 -0.12379667 0.40500003
-0.0006356496 -0.12379667 0.40500003
0.00042021123 -0.12379667 0.40500003
0.0014724274 -0.123491 0.40400001
0.0025256812 -0.123491 0.40400001
0.0035789351 -0.123491 0.40400001
0.0046321885 -0.123491 0.40400001
0.0056713694 -0.12318533 0.40300003
0.0067220167 -0.12318533 0.40300003
0.0077726627 -0.12318533 0.40300003
0.0088014156 -0.12287965 0.40200001
0.0098494552 -0.12287965 0.40200001
0.010897494 -0.12287965 0.40200001
0.01191582 -0.12257399 0.40100002
0.012961252 -0.12257399 0.40100002
0.014006684 -0.12257399 0.40100002
0.015052117 -0.12257399 0.40100002
0.016057406 -0.12226831 0.40000001
0.01710023 -0.12226831 0.40000001
0.018143056 -0.12226831 0.40000001
0.019185882 -0.12226831 0.40000001
0.020178135 -0.12196264 0.39900002
0.021218356 -0.12196264 0.39900002
0.022258572 -0.12196264 0.39900002
0.023240399 -0.12165698 0.39800003
0.024278011 -0.12165698 0.39800003
0.025252013 -0.1213513 0.39700001
0.026287019 -0.1213513 0.39700001
0.027322022 -0.1213513 0.39700001
0.028357027 -0.1213513 0.39700001
0.029317996 -0.12104563 0.39600003
0.030350393 -0.12104563 0.39600003
0.031382792 -0.12104563 0.39600003
0.032415189 -0.12104563 0.39600003
0.033363122 -0.12073996 0.39500001
0.034392912 -0.12073996 0.39500001
0.035422701 -0.12073996 0.39500001
0.036360208 -0.12043429 0.39400002
0.03738739 -0.12043429 0.39400002
0.038414571 -0.12043429 0.39400002
0.039441757 -0.12043429 0.39400002
0.050393846 -0.10117704 0.33100003
0.051256783 -0.10117704 0.33100003
0.052119721 -0.10117704 0.33100003
0.052822586 -0.10087135 0.33000001
0.053682916 -0.10087135 0.33000001
0.054543249 -0.10087135 0.33000001
0.055403579 -0.10087135 0.33000001
0.056263909 -0.10087135 0.33000001
0.057124238 -0.10087135 0.33000001
0.057984576 -0.10087135 0.33000001
0.058844905 -0.10087135 0.33000001
0.059705235 -0.10087135 0.33000001
0.060565569 -0.10087135 0.33000001
0.061425898 -0.10087135 0.33000001
0.062286228 -0.10087135 0.33000001
0.063146561 -0.10087135 0.33000001
0.064006887 -0.10087135 0.33000001
0.064670652 -0.10056569 0.32900003
0.065727554 -0.10087135 0.33000001
0.06658788 -0.10087135 0.33000001
0.067448214 -0.10087135 0.33000001
0.06830854 -0.10087135 0.33000001
0.069378488 -0.10117704 0.33100003
0.087574482 -0.1161549 0.38000003
0.088565171 -0.1161549 0.38000003
0.089555852 -0.1161549 0.38000003
0.090546533 -0.1161549 0.38000003
0.091537222 -0.1161549 0.38000003
0.092527911 -0.1161549 0.38000003
0.093272485 -0.11584923 0.37900001
0.094260566 -0.11584923 0.37900001
0.095248632 -0.11584923 0.37900001
0.096236721 -0.11584923 0.37900001
0.097224787 -0.11584923 0.37900001
0.097953737 -0.11554356 0.37800002
0.09893921 -0.11554356 0.37800002
0.099924676 -0.11554356 0.37800002
0.10091015 -0.11554356 0.37800002
0.10162605 -0.11523788 0.377
0.10260891 -0.11523788 0.377
0.10359177 -0.11523788 0.377
0.10429726 -0.11493222 0.37600002
0.10527751 -0.11493222 0.37600002
0.10625777 -0.11493222 0.37600002
0.10695282 -0.11462655 0.37500003
0.10793047 -0.11462655 0.37500003
0.10890811 -0.11462655 0.37500003
0.10988577 -0.11462655 0.37500003
0.11056778 -0.11432087 0.37400001
0.11154281 -0.11432087 0.37400001
0.11251786 -0.11432087 0.37400001
0.1134929 -0.11432087 0.37400001
0.11416189 -0.11401521 0.37300003
0.11513431 -0.11401521 0.37300003
0.11610675 -0.11401521 0.37300003
0.11676529 -0.11370953 0.37200001
0.11773513 -0.11370953 0.37200001
0.11870494 -0.11370953 0.37200001
0.11935308 -0.11340386 0.37100002
0.12032029 -0.11340386 0.37100002
0.12128752 -0.11340386 0.37100002
0.12225474 -0.11340386 0.37100002
0.12322196 -0.11340386 0.37100002
0.12385444 -0.11309819 0.37
0.12481904 -0.11309819 0.37
0.12578367 -0.11309819 0.37
0.12674826 -0.11309819 0.37
0.12771289 -0.11309819 0.37
0.1286775 -0.11309819 0.37
0.12929173 -0.11279252 0.36900002
0.13025373 -0.11279252 0.36900002
0.13121575 -0.11279252 0.36900002
0.13217774 -0.11279252 0.36900002
0.13313976 -0.11279252 0.36900002
0.13410176 -0.11279252 0.36900002
0.13506377 -0.11279252 0.36900002
0.13565715 -0.11248685 0.36800003
0.13661654 -0.11248685 0.36800003
0.13757595 -0.11248685 0.36800003
0.13815889 -0.11218118 0.36700001
0.13911568 -0.11218118 0.36700001
0.14007246 -0.11218118 0.36700001
0.14102927 -0.11218118 0.36700001
0.14159918 -0.11187551 0.36600003
0.14255336 -0.11187551 0.36600003
0.14350754 -0.11187551 0.36600003
0.14406702 -0.11156984 0.36500001
0.14501861 -0.11156984 0.36500001
0.14597018 -0.11156984 0.36500001
0.14692177 -0.11156984 0.36500001
0.14746821 -0.11126417 0.36400002
0.14841719 -0.11126417 0.36400002
0.14936616 -0.11126417 0.36400002
0.14990216 -0.11095849 0.36300001
0.15084852 -0.11095849 0.36300001
0.1517949 -0.11095849 0.36300001
0.15274125 -0.11095849 0.36300001
0.15326424 -0.11065283 0.36200002
0.15420799 -0.11065283 0.36200002
0.15515175 -0.11065283 0.36200002
0.15609552 -0.11065283 0.36200002
0.15660547 -0.11034716 0.36100003
0.15754662 -0.11034716 0.36100003
0.15848777 -0.11034716 0.36100003
0.15942892 -0.11034716 0.36100003
0.16037007 -0.11034716 0.36100003
0.16086437 -0.11004148 0.36000001
0.1618029 -0.11004148 0.36000001
0.16274145 -0.11004148 0.36000001
0.16367999 -0.11004148 0.36000001
0.16461854 -0.11004148 0.36000001
0.16509719 -0.10973582 0.35900003
-0.26867816 -0.14486445 0.47800002
-0.26687253 -0.1445614 0.47700003
-0.26562893 -0.1445614 0.47700003
-0.26438537 -0.1445614 0.47700003
-0.26259014 -0.14425832 0.47600001
-0.26134914 -0.14425832 0.47600001
-0.25956175 -0.14395526 0.47500002
-0.2583234 -0.14395526 0.47500002
-0.25708506 -0.14395526 0.47500002
-0.25530806 -0.1436522 0.47400004
-0.25407234 -0.1436522 0.47400004
-0.25283659 -0.1436522 0.47400004
-0.25160086 -0.1436522 0.47400004
-0.24983688 -0.14334913 0.47300002
-0.24860375 -0.14334913 0.47300002
-0.24737062 -0.14334913 0.47300002
-0.24561711 -0.14304607 0.47200003
-0.24438655 -0.14304607 0.47200003
-0.24264085 -0.14274301 0.47100002
-0.24141294 -0.14274301 0.47100002
-0.24018499 -0.14274301 0.47100002
-0.23844974 -0.14243995 0.47000003
-0.23722443 -0.14243995 0.47000003
-0.23599911 -0.14243995 0.47000003
-0.23427425 -0.14213687 0.46900001
-0.23305154 -0.14213687 0.46900001
-0.23182884 -0.14213687 0.46900001
-0.23011443 -0.14183381 0.46800002
-0.22889432 -0.14183381 0.46800002
-0.22718772 -0.14153075 0.46700001
-0.22597022 -0.14153075 0.46700001
-0.22475272 -0.14153075 0.46700001
-0.22305657 -0.14122769 0.46600002
-0.22184168 -0.14122769 0.46600002
-0.22062679 -0.14122769 0.46600002
-0.21894106 -0.14092463 0.46500003
-0.21772878 -0.14092463 0.46500003
-0.21605086 -0.14062156 0.46400002
-0.21484117 -0.14062156 0.46400002
-0.21317109 -0.1403185 0.46300003
-0.21196403 -0.1403185 0.46300003
-0.21075696 -0.1403185 0.46300003
-0.20909728 -0.14001542 0.46200001
-0.20789282 -0.14001542 0.46200001
-0.20624098 -0.13971236 0.46100003
-0.20503913 -0.13971236 0.46100003
-0.2033951 -0.1394093 0.46000001
-0.20219585 -0.1394093 0.46000001
-0.20099661 -0.1394093 0.46000001
-0.19979735 -0.1394093 0.46000001
-0.19816639 -0.13910624 0.45900002
-0.19696973 -0.13910624 0.45900002
-0.19577309 -0.13910624 0.45900002
-0.19415253 -0.13880318 0.45800003
-0.1929585 -0.13880318 0.45800003
-0.19134577 -0.13850011 0.45700002
-0.19015433 -0.13850011 0.45700002
-0.18854943 -0.13819705 0.45600003
-0.1873606 -0.13819705 0.45600003
-0.18617178 -0.13819705 0.45600003
-0.18457729 -0.13789399 0.45500001
-0.18339108 -0.13789399 0.45500001
-0.18180442 -0.13759093 0.45400003
-0.18062082 -0.13759093 0.45400003
-0.17943721 -0.13759093 0.45400003
-0.17786096 -0.13728786 0.45300001
-0.17667995 -0.13728786 0.45300001
-0.17549896 -0.13728786 0.45300001
-0.17393316 -0.1369848 0.45200002
-0.17275476 -0.1369848 0.45200002
-0.17157638 -0.1369848 0.45200002
-0.170021 -0.13668174 0.45100003
-0.16884522 -0.13668174 0.45100003
-0.16766943 -0.13668174 0.45100003
-0.16612448 -0.13637866 0.45000002
-0.16495129 -0.13637866 0.45000002
-0.16377811 -0.13637866 0.45000002
-0.16224359 -0.1360756 0.44900003
-0.16107303 -0.1360756 0.44900003
-0.15990245 -0.1360756 0.44900003
-0.15837836 -0.13577254 0.44800001
-0.15721038 -0.13577254 0.44800001
-0.15569411 -0.13546948 0.44700003
-0.15452877 -0.13546948 0.44700003
-0.15302029 -0.13516641 0.44600001
-0.15185755 -0.13516641 0.44600001
-0.1506948 -0.13516641 0.44600001
-0.14953205 -0.13516641 0.44600001
-0.14803663 -0.13486335 0.44500002
-0.1468765 -0.13486335 0.44500002
-0.14571635 -0.13486335 0.44500002
-0.14423136 -0.13456029 0.44400004
-0.14307383 -0.13456029 0.44400004
-0.1419163 -0.13456029 0.44400004
-0.14075875 -0.13456029 0.44400004
-0.13928679 -0.13425723 0.44300002
-0.13813187 -0.13425723 0.44300002
-0.13666773 -0.13395417 0.44200003
-0.13551542 -0.13395417 0.44200003
-0.1340591 -0.13365109 0.44100001
-0.13290939 -0.13365109 0.44100001
-0.13146091 -0.13334803 0.44000003
-0.1303138 -0.13334803 0.44000003
-0.12916668 -0.13334803 0.44000003
-0.12801959 -0.13334803 0.44000003
-0.12658411 -0.13304496 0.43900001
-0.12543963 -0.13304496 0.43900001
-0.12429512 -0.13304496 0.43900001
-0.12287009 -0.1327419 0.43800002
-0.1217282 -0.1327419 0.43800002
-0.1205863 -0.1327419 0.43800002
-0.11944441 -0.1327419 0.43800002
-0.11803241 -0.13243884 0.43700001
-0.11689314 -0.13243884 0.43700001
-0.11575384 -0.13243884 0.43700001
-0.11435229 -0.13213578 0.43600002
-0.1132156 -0.13213578 0.43600002
-0.11207893 -0.13213578 0.43600002
-0.11094224 -0.13213578 0.43600002
-0.10980557 -0.13213578 0.43600002
-0.10841965 -0.13183272 0.43500003
-0.10728557 -0.13183272 0.43500003
-0.10590747 -0.13152964 0.43400002
-0.104776 -0.13152964 0.43400002
-0.10364454 -0.13152964 0.43400002
-0.10251307 -0.13152964 0.43400002
-0.10114802 -0.13122658 0.43300003
-0.099788159 -0.13092352 0.43200001
-0.098661907 -0.13092352 0.43200001
-0.09730988 -0.13062046 0.43100002
-0.096186236 -0.13062046 0.43100002
-0.095062591 -0.13062046 0.43100002
-0.093720987 -0.13031739 0.43000001
-0.092599951 -0.13031739 0.43000001
-0.091478914 -0.13031739 0.43000001
-0.090147749 -0.13001433 0.42900002
-0.08902932 -0.13001433 0.42900002
-0.087910883 -0.13001433 0.42900002
-0.086590149 -0.12971127 0.42800003
-0.08547432 -0.12971127 0.42800003
