# .PCD v0.7 - Point Cloud Data file format
VERSION 0.7
FIELDS x y z
SIZE 4 4 4
TYPE F F F
COUNT 1 1 1
WIDTH 1349
HEIGHT 1
VIEWPOINT 0 0 0 1 0 0 0
POINTS 1349
DATA ascii
-0.0025302952 -0.028440945 0.37300003
-0.0015578603 -0.028440945 0.37300003
-0.00058542541 -0.028440945 0.37300003
0.00038700935 -0.028440945 0.37300003
0.0013594441 -0.028440945 0.37300003
0.0023381305 -0.028517192 0.37400001
0.0033131724 -0.028517192 0.37400001
0.0042996802 -0.028593443 0.37500003
0.0052773291 -0.028593443 0.37500003
0.006271658 -0.028669691 0.37600002
0.0072712004 -0.02874594 0.377
0.0082759578 -0.028822189 0.37800002
0.0092614284 -0.028822189 0.37800002
0.010246898 -0.028822189 0.37800002
0.011232369 -0.028822189 0.37800002
0.012217838 -0.028822189 0.37800002
0.013168378 -0.02874594 0.377
0.014151242 -0.02874594 0.377
0.015134105 -0.02874594 0.377
0.016074216 -0.028669691 0.37600002
0.017054474 -0.028669691 0.37600002
0.01803473 -0.028669691 0.37600002
0.018964414 -0.028593443 0.37500003
0.019942064 -0.028593443 0.37500003
0.020919712 -0.028593443 0.37500003
0.021955753 -0.028669691 0.37600002
0.022875011 -0.028593443 0.37500003
0.023852658 -0.028593443 0.37500003
0.02483031 -0.028593443 0.37500003
0.025807958 -0.028593443 0.37500003
0.026785607 -0.028593443 0.37500003
0.027763255 -0.028593443 0.37500003
0.028740903 -0.028593443 0.37500003
0.029718552 -0.028593443 0.37500003
0.030696202 -0.028593443 0.37500003
0.031673852 -0.028593443 0.37500003
0.032564428 -0.028517192 0.37400001
0.03353947 -0.028517192 0.37400001
0.034514509 -0.028517192 0.37400001
0.035489552 -0.028517192 0.37400001
0.036464594 -0.028517192 0.37400001
0.037539747 -0.028593443 0.37500003
0.038517393 -0.028593443 0.37500003
0.039705679 -0.02874594 0.377
0.040904395 -0.028898438 0.37900001
0.042113543 -0.029050937 0.38100001
0.043219976 -0.029127186 0.38200003
0.044215877 -0.029127186 0.38200003
0.04533013 -0.029203435 0.38300002
0.046449594 -0.029279683 0.384
0.055770066 -0.033702139 0.44200003
0.056922387 -0.033702139 0.44200003
0.0582061 -0.033778384 0.44300002
0.059361026 -0.033778384 0.44300002
0.060515955 -0.033778384 0.44300002
0.061670884 -0.033778384 0.44300002
0.062967643 -0.033854637 0.44400004
0.06412518 -0.033854637 0.44400004
0.06528271 -0.033854637 0.44400004
0.066440247 -0.033854637 0.44400004
0.067597784 -0.033854637 0.44400004
0.068755321 -0.033854637 0.44400004
0.069912858 -0.033854637 0.44400004
0.071070395 -0.033854637 0.44400004
0.072227925 -0.033854637 0.44400004
0.073385462 -0.033854637 0.44400004
0.074542999 -0.033854637 0.44400004
0.075700536 -0.033854637 0.44400004
0.076858073 -0.033854637 0.44400004
0.078015611 -0.033854637 0.44400004
0.079173148 -0.033854637 0.44400004
0.080330685 -0.033854637 0.44400004
0.081488222 -0.033854637 0.44400004
0.082645759 -0.033854637 0.44400004
0.083803296 -0.033854637 0.44400004
0.085152179 -0.033930883 0.44500002
0.086312324 -0.033930883 0.44500002
0.087472461 -0.033930883 0.44500002
0.088831782 -0.034007132 0.44600001
0.089994527 -0.034007132 0.44600001
0.09115728 -0.034007132 0.44600001
0.092320032 -0.034007132 0.44600001
0.093482785 -0.034007132 0.44600001
0.094645537 -0.034007132 0.44600001
0.095593475 -0.033930883 0.44500002
0.096753612 -0.033930883 0.44500002
0.097913757 -0.033930883 0.44500002
0.099073902 -0.033930883 0.44500002
0.10023405 -0.033930883 0.44500002
0.10139418 -0.033930883 0.44500002
0.10255433 -0.033930883 0.44500002
0.10371447 -0.033930883 0.44500002
0.10487461 -0.033930883 0.44500002
0.10603476 -0.033930883 0.44500002
0.1071949 -0.033930883 0.44500002
0.10835505 -0.033930883 0.44500002
0.10976129 -0.034007132 0.44600001
0.11092404 -0.034007132 0.44600001
0.11183547 -0.033930883 0.44500002
0.11324954 -0.034007132 0.44600001
0.11441229 -0.034007132 0.44600001
0.11557504 -0.034007132 0.44600001
0.1167378 -0.034007132 0.44600001
0.11790054 -0.034007132 0.44600001
0.1190633 -0.034007132 0.44600001
0.12022604 -0.034007132 0.44600001
0.12138879 -0.034007132 0.44600001
0.12255154 -0.034007132 0.44600001
0.1237143 -0.034007132 0.44600001
0.12487704 -0.034007132 0.44600001
0.1260398 -0.034007132 0.44600001
0.12720254 -0.034007132 0.44600001
0.12836529 -0.034007132 0.44600001
0.12923762 -0.033930883 0.44500002
0.13039777 -0.033930883 0.44500002
0.13155793 -0.033930883 0.44500002
0.13271806 -0.033930883 0.44500002
0.1338782 -0.033930883 0.44500002
0.13503835 -0.033930883 0.44500002
0.13619849 -0.033930883 0.44500002
0.13735862 -0.033930883 0.44500002
0.13883005 -0.034007132 0.44600001
0.13999279 -0.034007132 0.44600001
0.14115556 -0.034007132 0.44600001
0.14231829 -0.034007132 0.44600001
0.14348105 -0.034007132 0.44600001
0.1446438 -0.034007132 0.44600001
0.14580655 -0.034007132 0.44600001
0.1469693 -0.034007132 0.44600001
0.14813206 -0.034007132 0.44600001
0.14929481 -0.034007132 0.44600001
0.15045755 -0.034007132 0.44600001
0.15162031 -0.034007132 0.44600001
0.15278305 -0.034007132 0.44600001
0.1539458 -0.034007132 0.44600001
0.15545633 -0.034083385 0.44700003
0.15662169 -0.034083385 0.44700003
0.15778704 -0.034083385 0.44700003
0.15895241 -0.034083385 0.44700003
0.16011776 -0.034083385 0.44700003
0.16128312 -0.034083385 0.44700003
0.16244848 -0.034083385 0.44700003
0.16361384 -0.034083385 0.44700003
0.1647792 -0.034083385 0.44700003
0.16594455 -0.034083385 0.44700003
0.16673607 -0.034007132 0.44600001
0.1678988 -0.034007132 0.44600001
0.16906156 -0.034007132 0.44600001
0.17022431 -0.034007132 0.44600001
0.17138706 -0.034007132 0.44600001
0.1725498 -0.034007132 0.44600001
0.17371257 -0.034007132 0.44600001
0.1748753 -0.034007132 0.44600001
0.17603806 -0.034007132 0.44600001
0.17759813 -0.034083385 0.44700003
0.17836356 -0.034007132 0.44600001
0.17992885 -0.034083385 0.44700003
0.1810942 -0.034083385 0.44700003
0.18225956 -0.034083385 0.44700003
0.18342492 -0.034083385 0.44700003
0.18459028 -0.034083385 0.44700003
0.18575563 -0.034083385 0.44700003
0.18692099 -0.034083385 0.44700003
0.18808635 -0.034083385 0.44700003
0.18925171 -0.034083385 0.44700003
0.19084305 -0.034159631 0.44800001
0.19201101 -0.034159631 0.44800001
0.19317898 -0.034159631 0.44800001
0.19434693 -0.034159631 0.44800001
0.1955149 -0.034159631 0.44800001
0.19668287 -0.034159631 0.44800001
0.19785084 -0.034159631 0.44800001
0.19901879 -0.034159631 0.44800001
0.20018676 -0.034159631 0.44800001
0.20135473 -0.034159631 0.44800001
0.2025227 -0.034159631 0.44800001
0.20369065 -0.034159631 0.44800001
0.20485862 -0.034159631 0.44800001
0.20602658 -0.034159631 0.44800001
0.20719455 -0.034159631 0.44800001
0.20836252 -0.034159631 0.44800001
0.20953047 -0.034159631 0.44800001
-0.24225427 -0.031592466 0.42900002
-0.24113585 -0.031592466 0.42900002
-0.24001743 -0.031592466 0.42900002
-0.23889898 -0.031592466 0.42900002
-0.23778056 -0.031592466 0.42900002
-0.23666212 -0.031592466 0.42900002
-0.23554368 -0.031592466 0.42900002
-0.23387882 -0.031518824 0.42800003
-0.23330683 -0.031592466 0.42900002
-0.2321884 -0.031592466 0.42900002
-0.23106995 -0.031592466 0.42900002
-0.22995153 -0.031592466 0.42900002
-0.22883311 -0.031592466 0.42900002
-0.22771469 -0.031592466 0.42900002
-0.22659624 -0.031592466 0.42900002
-0.22547781 -0.031592466 0.42900002
-0.22435939 -0.031592466 0.42900002
-0.22324097 -0.031592466 0.42900002
-0.22212252 -0.031592466 0.42900002
-0.2210041 -0.031592466 0.42900002
-0.21988568 -0.031592466 0.42900002
-0.21876723 -0.031592466 0.42900002
-0.2176488 -0.031592466 0.42900002
-0.21653038 -0.031592466 0.42900002
-0.21541195 -0.031592466 0.42900002
-0.21429351 -0.031592466 0.42900002
-0.21317507 -0.031592466 0.42900002
-0.21205665 -0.031592466 0.42900002
-0.21093822 -0.031592466 0.42900002
-0.20981979 -0.031592466 0.42900002
-0.20870136 -0.031592466 0.42900002
-0.20758292 -0.031592466 0.42900002
-0.2064645 -0.031592466 0.42900002
-0.20534606 -0.031592466 0.42900002
-0.20470369 -0.031666107 0.43000001
-0.20358264 -0.031666107 0.43000001
-0.20246162 -0.031666107 0.43000001
-0.20134057 -0.031666107 0.43000001
-0.20021954 -0.031666107 0.43000001
-0.1990985 -0.031666107 0.43000001
-0.19797747 -0.031666107 0.43000001
-0.19685642 -0.031666107 0.43000001
-0.19573539 -0.031666107 0.43000001
-0.19461435 -0.031666107 0.43000001
-0.19349331 -0.031666107 0.43000001
-0.19237228 -0.031666107 0.43000001
-0.19125123 -0.031666107 0.43000001
-0.1901302 -0.031666107 0.43000001
-0.18944873 -0.031739749 0.43100002
-0.18832509 -0.031739749 0.43100002
-0.18720144 -0.031739749 0.43100002
-0.1860778 -0.031739749 0.43100002
-0.18495415 -0.031739749 0.43100002
-0.18425703 -0.031813391 0.43200001
-0.18313077 -0.031813391 0.43200001
-0.18200453 -0.031813391 0.43200001
-0.18087827 -0.031813391 0.43200001
-0.17975201 -0.031813391 0.43200001
-0.17862576 -0.031813391 0.43200001
-0.1774995 -0.031813391 0.43200001
-0.17637326 -0.031813391 0.43200001
-0.175247 -0.031813391 0.43200001
-0.17412075 -0.031813391 0.43200001
-0.17339496 -0.031887032 0.43300003
-0.17226611 -0.031887032 0.43300003
-0.17113724 -0.031887032 0.43300003
-0.17000839 -0.031887032 0.43300003
-0.16887952 -0.031887032 0.43300003
-0.16775067 -0.031887032 0.43300003
-0.16662182 -0.031887032 0.43300003
-0.16549295 -0.031887032 0.43300003
-0.1643641 -0.031887032 0.43300003
-0.16323523 -0.031887032 0.43300003
-0.16210638 -0.031887032 0.43300003
-0.16097751 -0.031887032 0.43300003
-0.15984866 -0.031887032 0.43300003
-0.15871979 -0.031887032 0.43300003
-0.15759094 -0.031887032 0.43300003
-0.15646209 -0.031887032 0.43300003
-0.15533324 -0.031887032 0.43300003
-0.15420437 -0.031887032 0.43300003
-0.15307552 -0.031887032 0.43300003
-0.15194665 -0.031887032 0.43300003
-0.15081778 -0.031887032 0.43300003
-0.14968893 -0.031887032 0.43300003
-0.14856006 -0.031887032 0.43300003
-0.14743122 -0.031887032 0.43300003
-0.14664023 -0.031960674 0.43400002
-0.14550877 -0.031960674 0.43400002
-0.14437731 -0.031960674 0.43400002
-0.14324585 -0.031960674 0.43400002
-0.14244182 -0.032034319 0.43500003
-0.14130776 -0.032034319 0.43500003
-0.14017369 -0.032034319 0.43500003
-0.13903962 -0.032034319 0.43500003
-0.13790554 -0.032034319 0.43500003
-0.13677146 -0.032034319 0.43500003
-0.13563739 -0.032034319 0.43500003
-0.13450332 -0.032034319 0.43500003
-0.13336925 -0.032034319 0.43500003
-0.13223517 -0.032034319 0.43500003
-0.1311011 -0.032034319 0.43500003
-0.12996702 -0.032034319 0.43500003
-0.12883297 -0.032034319 0.43500003
-0.12769888 -0.032034319 0.43500003
-0.12656482 -0.032034319 0.43500003
-0.12543073 -0.032034319 0.43500003
-0.12429667 -0.032034319 0.43500003
-0.12316259 -0.032034319 0.43500003
-0.12202851 -0.032034319 0.43500003
-0.12089445 -0.032034319 0.43500003
-0.11976037 -0.032034319 0.43500003
-0.1186263 -0.032034319 0.43500003
-0.11749222 -0.032034319 0.43500003
-0.11635816 -0.032034319 0.43500003
-0.11522408 -0.032034319 0.43500003
-0.11409001 -0.032034319 0.43500003
-0.1132156 -0.03210796 0.43600002
-0.11207893 -0.03210796 0.43600002
-0.11094224 -0.03210796 0.43600002
-0.10980557 -0.03210796 0.43600002
-0.10866889 -0.03210796 0.43600002
-0.1075322 -0.03210796 0.43600002
-0.10639553 -0.03210796 0.43600002
-0.10525884 -0.03210796 0.43600002
-0.10412217 -0.03210796 0.43600002
-0.10298549 -0.03210796 0.43600002
-0.10184881 -0.03210796 0.43600002
-0.10071212 -0.03210796 0.43600002
-0.099575445 -0.03210796 0.43600002
-0.098438762 -0.03210796 0.43600002
-0.097302087 -0.03210796 0.43600002
-0.096165404 -0.03210796 0.43600002
-0.095028728 -0.03210796 0.43600002
-0.093892045 -0.03210796 0.43600002
-0.09275537 -0.03210796 0.43600002
-0.091618687 -0.03210796 0.43600002
-0.090482011 -0.03210796 0.43600002
-0.089345329 -0.03210796 0.43600002
-0.088410959 -0.032181602 0.43700001
-0.087271675 -0.032181602 0.43700001
-0.086132385 -0.032181602 0.43700001
-0.084798604 -0.03210796 0.43600002
-0.083661929 -0.03210796 0.43600002
-0.082525246 -0.03210796 0.43600002
-0.08138857 -0.03210796 0.43600002
-0.080251887 -0.03210796 0.43600002
-0.079115212 -0.03210796 0.43600002
-0.077978529 -0.03210796 0.43600002
-0.076841854 -0.03210796 0.43600002
-0.075705171 -0.03210796 0.43600002
-0.074568495 -0.03210796 0.43600002
-0.073600233 -0.032181602 0.43700001
-0.072295137 -0.03210796 0.43600002
-0.071158446 -0.03210796 0.43600002
-0.070182368 -0.032181602 0.43700001
-0.069043078 -0.032181602 0.43700001
-0.067903794 -0.032181602 0.43700001
-0.06661173 -0.03210796 0.43600002
-0.065475054 -0.03210796 0.43600002
-0.064338371 -0.03210796 0.43600002
-0.063201696 -0.03210796 0.43600002
-0.062065013 -0.03210796 0.43600002
-0.060928334 -0.03210796 0.43600002
-0.059791654 -0.03210796 0.43600002
-0.058654975 -0.03210796 0.43600002
-0.057650216 -0.032181602 0.43700001
-0.056510925 -0.032181602 0.43700001
-0.055371638 -0.032181602 0.43700001
-0.054232355 -0.032181602 0.43700001
-0.053214565 -0.032255244 0.43800002
-0.05207267 -0.032255244 0.43800002
-0.050930776 -0.032255244 0.43800002
-0.049788881 -0.032255244 0.43800002
-0.048646986 -0.032255244 0.43800002
-0.047505096 -0.032255244 0.43800002
-0.046257347 -0.032181602 0.43700001
-0.045118056 -0.032181602 0.43700001
-0.043878134 -0.03210796 0.43600002
-0.042741455 -0.03210796 0.43600002
-0.041509353 -0.032034319 0.43500003
-0.040375281 -0.032034319 0.43500003
-0.039150998 -0.031960674 0.43400002
-0.038019534 -0.031960674 0.43400002
-0.026423553 -0.028057642 0.38100001
-0.025363518 -0.027984003 0.38000003
-0.024308693 -0.027910359 0.37900001
-0.023259085 -0.027836718 0.37800002
-0.022273615 -0.027836718 0.37800002
-0.021231826 -0.027763074 0.377
-0.020248963 -0.027763074 0.377
-0.019266101 -0.027763074 0.377
-0.018283237 -0.027763074 0.377
-0.017300375 -0.027763074 0.377
-0.016317511 -0.027763074 0.377
-0.015334648 -0.027763074 0.377
-0.014351785 -0.027763074 0.377
-0.013368922 -0.027763074 0.377
-0.01238606 -0.027763074 0.377
-0.011403196 -0.027763074 0.377
-0.010420334 -0.027763074 0.377
-0.0094124377 -0.027689433 0.37600002
-0.0084321816 -0.027689433 0.37600002
-0.0074321069 -0.027615791 0.37500003
-0.006454458 -0.027615791 0.37500003
-0.0054622041 -0.027542148 0.37400001
-0.004487162 -0.027542148 0.37400001
-0.0035027298 -0.027468506 0.37300003
-0.0025302952 -0.027468506 0.37300003
-0.0015578603 -0.027468506 0.37300003
-0.0005838559 -0.027394863 0.37200001
0.00038700935 -0.027468506 0.37300003
0.0013594441 -0.027468506 0.37300003
0.0023381305 -0.027542148 0.37400001
0.0033131724 -0.027542148 0.37400001
0.0042996802 -0.027615791 0.37500003
0.0052773291 -0.027615791 0.37500003
0.006271658 -0.027689433 0.37600002
0.0072712004 -0.027763074 0.377
0.0082759578 -0.027836718 0.37800002
0.0092614284 -0.027836718 0.37800002
0.010246898 -0.027836718 0.37800002
0.011232369 -0.027836718 0.37800002
0.012185515 -0.027763074 0.377
0.013168378 -0.027763074 0.377
0.014151242 -0.027763074 0.377
0.015093961 -0.027689433 0.37600002
0.016074216 -0.027689433 0.37600002
0.017054474 -0.027689433 0.37600002
0.017986765 -0.027615791 0.37500003
0.018964414 -0.027615791 0.37500003
0.019942064 -0.027615791 0.37500003
0.020919712 -0.027615791 0.37500003
0.021897361 -0.027615791 0.37500003
0.022875011 -0.027615791 0.37500003
0.023852658 -0.027615791 0.37500003
0.02483031 -0.027615791 0.37500003
0.025807958 -0.027615791 0.37500003
0.026785607 -0.027615791 0.37500003
0.027763255 -0.027615791 0.37500003
0.028740903 -0.027615791 0.37500003
0.0296393 -0.027542148 0.37400001
0.030614344 -0.027542148 0.37400001
0.031589385 -0.027542148 0.37400001
0.032564428 -0.027542148 0.37400001
0.03353947 -0.027542148 0.37400001
0.034514509 -0.027542148 0.37400001
0.035489552 -0.027542148 0.37400001
0.036464594 -0.027542148 0.37400001
0.037539747 -0.027615791 0.37500003
0.038620107 -0.027689433 0.37600002
0.039811 -0.027836718 0.37800002
0.041012324 -0.027984003 0.38000003
0.042224079 -0.028131286 0.38200003
0.043219976 -0.028131286 0.38200003
0.044331625 -0.028204927 0.38300002
0.045448482 -0.028278569 0.384
0.046570558 -0.028352212 0.38500002
0.055896241 -0.032623455 0.44300002
0.057051171 -0.032623455 0.44300002
0.0582061 -0.032623455 0.44300002
0.059361026 -0.032623455 0.44300002
0.060515955 -0.032623455 0.44300002
0.061810099 -0.032697096 0.44400004
0.062967643 -0.032697096 0.44400004
0.06412518 -0.032697096 0.44400004
0.06528271 -0.032697096 0.44400004
0.066440247 -0.032697096 0.44400004
0.067597784 -0.032697096 0.44400004
0.068755321 -0.032697096 0.44400004
0.069912858 -0.032697096 0.44400004
0.071070395 -0.032697096 0.44400004
0.072227925 -0.032697096 0.44400004
0.073385462 -0.032697096 0.44400004
0.074542999 -0.032697096 0.44400004
0.075700536 -0.032697096 0.44400004
0.076858073 -0.032697096 0.44400004
0.078015611 -0.032697096 0.44400004
0.079173148 -0.032697096 0.44400004
0.080330685 -0.032697096 0.44400004
0.081488222 -0.032697096 0.44400004
0.082831897 -0.032770738 0.44500002
0.083992034 -0.032770738 0.44500002
0.085152179 -0.032770738 0.44500002
0.086312324 -0.032770738 0.44500002
0.087472461 -0.032770738 0.44500002
0.088632606 -0.032770738 0.44500002
0.089994527 -0.03284438 0.44600001
0.09115728 -0.03284438 0.44600001
0.092320032 -0.03284438 0.44600001
0.093273185 -0.032770738 0.44500002
0.094645537 -0.03284438 0.44600001
0.095593475 -0.032770738 0.44500002
0.096753612 -0.032770738 0.44500002
0.097913757 -0.032770738 0.44500002
0.099073902 -0.032770738 0.44500002
0.10023405 -0.032770738 0.44500002
0.10139418 -0.032770738 0.44500002
0.10255433 -0.032770738 0.44500002
0.10348141 -0.032697096 0.44400004
0.10487461 -0.032770738 0.44500002
0.10603476 -0.032770738 0.44500002
0.1071949 -0.032770738 0.44500002
0.10835505 -0.032770738 0.44500002
0.10976129 -0.03284438 0.44600001
0.11092404 -0.03284438 0.44600001
0.11208678 -0.03284438 0.44600001
0.11324954 -0.03284438 0.44600001
0.11441229 -0.03284438 0.44600001
0.11557504 -0.03284438 0.44600001
0.1167378 -0.03284438 0.44600001
0.11790054 -0.03284438 0.44600001
0.1190633 -0.03284438 0.44600001
0.12022604 -0.03284438 0.44600001
0.12138879 -0.03284438 0.44600001
0.12255154 -0.03284438 0.44600001
0.1237143 -0.03284438 0.44600001
0.12487704 -0.03284438 0.44600001
0.1260398 -0.03284438 0.44600001
0.12720254 -0.03284438 0.44600001
0.12836529 -0.03284438 0.44600001
0.12923762 -0.032770738 0.44500002
0.13039777 -0.032770738 0.44500002
0.13155793 -0.032770738 0.44500002
0.13271806 -0.032770738 0.44500002
0.1338782 -0.032770738 0.44500002
0.13503835 -0.032770738 0.44500002
0.13619849 -0.032770738 0.44500002
0.13735862 -0.032770738 0.44500002
0.13883005 -0.03284438 0.44600001
0.13999279 -0.03284438 0.44600001
0.14115556 -0.03284438 0.44600001
0.14231829 -0.03284438 0.44600001
0.14348105 -0.03284438 0.44600001
0.1446438 -0.03284438 0.44600001
0.14580655 -0.03284438 0.44600001
0.1469693 -0.03284438 0.44600001
0.14813206 -0.03284438 0.44600001
0.14929481 -0.03284438 0.44600001
0.15045755 -0.03284438 0.44600001
0.15162031 -0.03284438 0.44600001
0.15278305 -0.03284438 0.44600001
0.15429099 -0.032918021 0.44700003
0.15545633 -0.032918021 0.44700003
0.15662169 -0.032918021 0.44700003
0.15778704 -0.032918021 0.44700003
0.15895241 -0.032918021 0.44700003
0.16011776 -0.032918021 0.44700003
0.16128312 -0.032918021 0.44700003
0.16244848 -0.032918021 0.44700003
0.16361384 -0.032918021 0.44700003
0.1647792 -0.032918021 0.44700003
0.16594455 -0.032918021 0.44700003
0.16673607 -0.03284438 0.44600001
0.1678988 -0.03284438 0.44600001
0.16906156 -0.03284438 0.44600001
0.17022431 -0.03284438 0.44600001
0.17138706 -0.03284438 0.44600001
0.1725498 -0.03284438 0.44600001
0.17371257 -0.03284438 0.44600001
0.1748753 -0.03284438 0.44600001
0.17603806 -0.03284438 0.44600001
0.17759813 -0.032918021 0.44700003
0.17836356 -0.03284438 0.44600001
0.17992885 -0.032918021 0.44700003
0.1810942 -0.032918021 0.44700003
0.18225956 -0.032918021 0.44700003
0.18342492 -0.032918021 0.44700003
0.18459028 -0.032918021 0.44700003
0.18575563 -0.032918021 0.44700003
0.18692099 -0.032918021 0.44700003
0.18808635 -0.032918021 0.44700003
0.18925171 -0.032918021 0.44700003
0.19084305 -0.032991663 0.44800001
0.19201101 -0.032991663 0.44800001
0.19317898 -0.032991663 0.44800001
0.19434693 -0.032991663 0.44800001
0.1955149 -0.032991663 0.44800001
0.19668287 -0.032991663 0.44800001
0.19785084 -0.032991663 0.44800001
0.19901879 -0.032991663 0.44800001
0.20018676 -0.032991663 0.44800001
0.20135473 -0.032991663 0.44800001
0.2025227 -0.032991663 0.44800001
0.20369065 -0.032991663 0.44800001
0.20485862 -0.032991663 0.44800001
0.20602658 -0.032991663 0.44800001
0.20719455 -0.032991663 0.44800001
0.20836252 -0.032991663 0.44800001
0.20953047 -0.032991663 0.44800001
-0.24225427 -0.030474035 0.42900002
-0.24113585 -0.030474035 0.42900002
-0.24001743 -0.030474035 0.42900002
-0.23889898 -0.030474035 0.42900002
-0.23778056 -0.030474035 0.42900002
-0.23666212 -0.030474035 0.42900002
-0.23554368 -0.030474035 0.42900002
-0.23442525 -0.030474035 0.42900002
-0.23330683 -0.030474035 0.42900002
-0.2321884 -0.030474035 0.42900002
-0.23106995 -0.030474035 0.42900002
-0.22995153 -0.030474035 0.42900002
-0.22883311 -0.030474035 0.42900002
-0.22771469 -0.030474035 0.42900002
-0.22659624 -0.030474035 0.42900002
-0.22547781 -0.030474035 0.42900002
-0.22435939 -0.030474035 0.42900002
-0.22324097 -0.030474035 0.42900002
-0.22212252 -0.030474035 0.42900002
-0.2210041 -0.030474035 0.42900002
-0.21988568 -0.030474035 0.42900002
-0.21876723 -0.030474035 0.42900002
-0.2176488 -0.030474035 0.42900002
-0.21653038 -0.030474035 0.42900002
-0.21541195 -0.030474035 0.42900002
-0.21429351 -0.030474035 0.42900002
-0.21317507 -0.030474035 0.42900002
-0.21205665 -0.030474035 0.42900002
-0.21093822 -0.030474035 0.42900002
-0.20981979 -0.030474035 0.42900002
-0.20870136 -0.030474035 0.42900002
-0.20758292 -0.030474035 0.42900002
-0.2064645 -0.030474035 0.42900002
-0.20534606 -0.030474035 0.42900002
-0.20422764 -0.030474035 0.42900002
-0.2031092 -0.030474035 0.42900002
-0.20246162 -0.030545069 0.43000001
-0.20134057 -0.030545069 0.43000001
-0.20021954 -0.030545069 0.43000001
-0.1990985 -0.030545069 0.43000001
-0.19797747 -0.030545069 0.43000001
-0.19685642 -0.030545069 0.43000001
-0.19573539 -0.030545069 0.43000001
-0.19461435 -0.030545069 0.43000001
-0.19349331 -0.030545069 0.43000001
-0.19237228 -0.030545069 0.43000001
-0.19169602 -0.030616105 0.43100002
-0.19057238 -0.030616105 0.43100002
-0.18944873 -0.030616105 0.43100002
-0.18832509 -0.030616105 0.43100002
-0.18720144 -0.030616105 0.43100002
-0.1860778 -0.030616105 0.43100002
-0.18538328 -0.030687138 0.43200001
-0.18425703 -0.030687138 0.43200001
-0.18313077 -0.030687138 0.43200001
-0.18200453 -0.030687138 0.43200001
-0.18087827 -0.030687138 0.43200001
-0.17975201 -0.030687138 0.43200001
-0.17862576 -0.030687138 0.43200001
-0.1774995 -0.030687138 0.43200001
-0.17678154 -0.030758176 0.43300003
-0.17565268 -0.030758176 0.43300003
-0.17452383 -0.030758176 0.43300003
-0.17339496 -0.030758176 0.43300003
-0.17226611 -0.030758176 0.43300003
-0.17113724 -0.030758176 0.43300003
-0.17000839 -0.030758176 0.43300003
-0.16887952 -0.030758176 0.43300003
-0.16775067 -0.030758176 0.43300003
-0.16662182 -0.030758176 0.43300003
-0.16549295 -0.030758176 0.43300003
-0.1643641 -0.030758176 0.43300003
-0.16323523 -0.030758176 0.43300003
-0.16210638 -0.030758176 0.43300003
-0.16097751 -0.030758176 0.43300003
-0.15984866 -0.030758176 0.43300003
-0.15871979 -0.030758176 0.43300003
-0.15759094 -0.030758176 0.43300003
-0.15646209 -0.030758176 0.43300003
-0.15533324 -0.030758176 0.43300003
-0.15420437 -0.030758176 0.43300003
-0.15307552 -0.030758176 0.43300003
-0.15194665 -0.030758176 0.43300003
-0.15081778 -0.030758176 0.43300003
-0.14968893 -0.030758176 0.43300003
-0.14856006 -0.030758176 0.43300003
-0.14743122 -0.030758176 0.43300003
-0.14664023 -0.03082921 0.43400002
-0.14550877 -0.03082921 0.43400002
-0.14437731 -0.03082921 0.43400002
-0.14357591 -0.030900246 0.43500003
-0.14244182 -0.030900246 0.43500003
-0.14130776 -0.030900246 0.43500003
-0.14017369 -0.030900246 0.43500003
-0.13903962 -0.030900246 0.43500003
-0.13790554 -0.030900246 0.43500003
-0.13677146 -0.030900246 0.43500003
-0.13563739 -0.030900246 0.43500003
-0.13450332 -0.030900246 0.43500003
-0.13336925 -0.030900246 0.43500003
-0.13223517 -0.030900246 0.43500003
-0.1311011 -0.030900246 0.43500003
-0.12996702 -0.030900246 0.43500003
-0.12883297 -0.030900246 0.43500003
-0.12769888 -0.030900246 0.43500003
-0.12656482 -0.030900246 0.43500003
-0.12543073 -0.030900246 0.43500003
-0.12429667 -0.030900246 0.43500003
-0.12316259 -0.030900246 0.43500003
-0.12202851 -0.030900246 0.43500003
-0.12089445 -0.030900246 0.43500003
-0.11976037 -0.030900246 0.43500003
-0.1186263 -0.030900246 0.43500003
-0.11749222 -0.030900246 0.43500003
-0.11635816 -0.030900246 0.43500003
-0.11522408 -0.030900246 0.43500003
-0.11409001 -0.030900246 0.43500003
-0.1132156 -0.030971279 0.43600002
-0.11207893 -0.030971279 0.43600002
-0.11094224 -0.030971279 0.43600002
-0.10980557 -0.030971279 0.43600002
-0.10866889 -0.030971279 0.43600002
-0.1075322 -0.030971279 0.43600002
-0.10639553 -0.030971279 0.43600002
-0.10525884 -0.030971279 0.43600002
-0.10412217 -0.030971279 0.43600002
-0.10298549 -0.030971279 0.43600002
-0.10184881 -0.030971279 0.43600002
-0.10071212 -0.030971279 0.43600002
-0.099575445 -0.030971279 0.43600002
-0.098438762 -0.030971279 0.43600002
-0.097302087 -0.030971279 0.43600002
-0.096165404 -0.030971279 0.43600002
-0.095028728 -0.030971279 0.43600002
-0.093892045 -0.030971279 0.43600002
-0.09275537 -0.030971279 0.43600002
-0.091618687 -0.030971279 0.43600002
-0.090482011 -0.030971279 0.43600002
-0.089345329 -0.030971279 0.43600002
-0.088208653 -0.030971279 0.43600002
-0.08707197 -0.030971279 0.43600002
-0.085935287 -0.030971279 0.43600002
-0.084798604 -0.030971279 0.43600002
-0.083661929 -0.030971279 0.43600002
-0.082525246 -0.030971279 0.43600002
-0.08138857 -0.030971279 0.43600002
-0.080251887 -0.030971279 0.43600002
-0.079115212 -0.030971279 0.43600002
-0.077978529 -0.030971279 0.43600002
-0.076841854 -0.030971279 0.43600002
-0.075705171 -0.030971279 0.43600002
-0.074739516 -0.031042313 0.43700001
-0.073600233 -0.031042313 0.43700001
-0.072295137 -0.030971279 0.43600002
-0.071158446 -0.030971279 0.43600002
-0.070182368 -0.031042313 0.43700001
-0.068885088 -0.030971279 0.43600002
-0.067748412 -0.030971279 0.43600002
-0.06661173 -0.030971279 0.43600002
-0.065475054 -0.030971279 0.43600002
-0.064485937 -0.031042313 0.43700001
-0.063201696 -0.030971279 0.43600002
-0.062065013 -0.030971279 0.43600002
-0.060928334 -0.030971279 0.43600002
-0.059791654 -0.030971279 0.43600002
-0.058789503 -0.031042313 0.43700001
-0.057650216 -0.031042313 0.43700001
-0.056510925 -0.031042313 0.43700001
-0.055371638 -0.031042313 0.43700001
-0.054232355 -0.031042313 0.43700001
-0.053214565 -0.031113351 0.43800002
-0.05207267 -0.031113351 0.43800002
-0.050930776 -0.031113351 0.43800002
-0.049788881 -0.031113351 0.43800002
-0.048646986 -0.031113351 0.43800002
-0.047396634 -0.031042313 0.43700001
-0.046257347 -0.031042313 0.43700001
-0.045118056 -0.031042313 0.43700001
-0.043878134 -0.030971279 0.43600002
-0.042643428 -0.030900246 0.43500003
-0.041509353 -0.030900246 0.43500003
-0.040282462 -0.03082921 0.43400002
-0.039150998 -0.03082921 0.43400002
-0.03793193 -0.030758176 0.43300003
-0.026423553 -0.027064351 0.38100001
-0.025363518 -0.026993318 0.38000003
-0.024308693 -0.026922282 0.37900001
-0.023320617 -0.026922282 0.37900001
-0.022273615 -0.026851248 0.37800002
-0.021288145 -0.026851248 0.37800002
-0.020248963 -0.02678021 0.377
-0.019266101 -0.02678021 0.377
-0.018283237 -0.02678021 0.377
-0.017300375 -0.02678021 0.377
-0.016317511 -0.02678021 0.377
-0.015334648 -0.02678021 0.377
-0.014351785 -0.02678021 0.377
-0.013404384 -0.026851248 0.37800002
-0.012418915 -0.026851248 0.37800002
-0.011403196 -0.02678021 0.377
-0.010420334 -0.02678021 0.377
-0.0094124377 -0.026709177 0.37600002
-0.0084321816 -0.026709177 0.37600002
-0.0074321069 -0.026638143 0.37500003
-0.006454458 -0.026638143 0.37500003
-0.0054622041 -0.026567107 0.37400001
-0.004487162 -0.026567107 0.37400001
-0.0035027298 -0.026496073 0.37300003
-0.0025302952 -0.026496073 0.37300003
-0.0015536835 -0.026425036 0.37200001
-0.0005838559 -0.026425036 0.37200001
0.00038700935 -0.026496073 0.37300003
0.0013594441 -0.026496073 0.37300003
0.0023381305 -0.026567107 0.37400001
0.0033131724 -0.026567107 0.37400001
0.0042996802 -0.026638143 0.37500003
0.0052773291 -0.026638143 0.37500003
0.006271658 -0.026709177 0.37600002
0.0072712004 -0.02678021 0.377
0.0082540633 -0.02678021 0.377
0.0092369271 -0.02678021 0.377
0.010219789 -0.02678021 0.377
0.011202653 -0.02678021 0.377
0.012185515 -0.02678021 0.377
0.013168378 -0.02678021 0.377
0.014113706 -0.026709177 0.37600002
0.015093961 -0.026709177 0.37600002
0.016074216 -0.026709177 0.37600002
0.017009117 -0.026638143 0.37500003
0.017986765 -0.026638143 0.37500003
0.018964414 -0.026638143 0.37500003
0.019942064 -0.026638143 0.37500003
0.020919712 -0.026638143 0.37500003
0.021897361 -0.026638143 0.37500003
0.022875011 -0.026638143 0.37500003
0.023852658 -0.026638143 0.37500003
0.02483031 -0.026638143 0.37500003
0.025807958 -0.026638143 0.37500003
0.026785607 -0.026638143 0.37500003
0.027763255 -0.026638143 0.37500003
0.028664259 -0.026567107 0.37400001
0.0296393 -0.026567107 0.37400001
0.030614344 -0.026567107 0.37400001
0.031589385 -0.026567107 0.37400001
0.032564428 -0.026567107 0.37400001
0.03353947 -0.026567107 0.37400001
0.034514509 -0.026567107 0.37400001
0.035489552 -0.026567107 0.37400001
0.036562093 -0.026638143 0.37500003
0.037639849 -0.026709177 0.37600002
0.038722817 -0.02678021 0.377
0.039811 -0.026851248 0.37800002
0.041012324 -0.026993318 0.38000003
0.042224079 -0.027135389 0.38200003
0.043333117 -0.027206423 0.38300002
0.044331625 -0.027206423 0.38300002
0.045448482 -0.027277457 0.384
0.046570558 -0.027348492 0.38500002
0.055896241 -0.031468526 0.44300002
0.057051171 -0.031468526 0.44300002
0.0582061 -0.031468526 0.44300002
0.059361026 -0.031468526 0.44300002
0.060515955 -0.031468526 0.44300002
0.061810099 -0.031539563 0.44400004
0.062967643 -0.031539563 0.44400004
0.06412518 -0.031539563 0.44400004
0.06528271 -0.031539563 0.44400004
0.066440247 -0.031539563 0.44400004
0.067597784 -0.031539563 0.44400004
0.068755321 -0.031539563 0.44400004
0.069912858 -0.031539563 0.44400004
0.071070395 -0.031539563 0.44400004
0.072227925 -0.031539563 0.44400004
0.073385462 -0.031539563 0.44400004
0.074542999 -0.031539563 0.44400004
0.075700536 -0.031539563 0.44400004
0.076858073 -0.031539563 0.44400004
0.078015611 -0.031539563 0.44400004
0.079173148 -0.031539563 0.44400004
0.080330685 -0.031539563 0.44400004
0.081488222 -0.031539563 0.44400004
0.082645759 -0.031539563 0.44400004
0.083803296 -0.031539563 0.44400004
0.085152179 -0.031610597 0.44500002
0.086312324 -0.031610597 0.44500002
0.087472461 -0.031610597 0.44500002
0.088831782 -0.031681631 0.44600001
0.089792751 -0.031610597 0.44500002
0.09115728 -0.031681631 0.44600001
0.092320032 -0.031681631 0.44600001
0.093482785 -0.031681631 0.44600001
0.094645537 -0.031681631 0.44600001
0.095593475 -0.031610597 0.44500002
0.096753612 -0.031610597 0.44500002
0.097913757 -0.031610597 0.44500002
0.099073902 -0.031610597 0.44500002
0.10023405 -0.031610597 0.44500002
0.10139418 -0.031610597 0.44500002
0.10255433 -0.031610597 0.44500002
0.10348141 -0.031539563 0.44400004
0.10487461 -0.031610597 0.44500002
0.10603476 -0.031610597 0.44500002
0.1071949 -0.031610597 0.44500002
0.10859854 -0.031681631 0.44600001
0.10976129 -0.031681631 0.44600001
0.11092404 -0.031681631 0.44600001
0.11208678 -0.031681631 0.44600001
0.11324954 -0.031681631 0.44600001
0.11441229 -0.031681631 0.44600001
0.11557504 -0.031681631 0.44600001
0.1167378 -0.031681631 0.44600001
0.11790054 -0.031681631 0.44600001
0.1190633 -0.031681631 0.44600001
0.12022604 -0.031681631 0.44600001
0.12138879 -0.031681631 0.44600001
0.12255154 -0.031681631 0.44600001
0.1237143 -0.031681631 0.44600001
0.12487704 -0.031681631 0.44600001
0.1260398 -0.031681631 0.44600001
0.12720254 -0.031681631 0.44600001
0.12836529 -0.031681631 0.44600001
0.12923762 -0.031610597 0.44500002
0.13039777 -0.031610597 0.44500002
0.13155793 -0.031610597 0.44500002
0.13271806 -0.031610597 0.44500002
0.1338782 -0.031610597 0.44500002
0.13503835 -0.031610597 0.44500002
0.13619849 -0.031610597 0.44500002
0.13735862 -0.031610597 0.44500002
0.13851878 -0.031610597 0.44500002
0.13999279 -0.031681631 0.44600001
0.14115556 -0.031681631 0.44600001
0.14231829 -0.031681631 0.44600001
0.14348105 -0.031681631 0.44600001
0.1446438 -0.031681631 0.44600001
0.14580655 -0.031681631 0.44600001
0.1469693 -0.031681631 0.44600001
0.14813206 -0.031681631 0.44600001
0.14929481 -0.031681631 0.44600001
0.15045755 -0.031681631 0.44600001
0.15196027 -0.031752665 0.44700003
0.15312561 -0.031752665 0.44700003
0.15429099 -0.031752665 0.44700003
0.15545633 -0.031752665 0.44700003
0.15662169 -0.031752665 0.44700003
0.15778704 -0.031752665 0.44700003
0.15895241 -0.031752665 0.44700003
0.16011776 -0.031752665 0.44700003
0.16128312 -0.031752665 0.44700003
0.16244848 -0.031752665 0.44700003
0.16361384 -0.031752665 0.44700003
0.1647792 -0.031752665 0.44700003
0.16594455 -0.031752665 0.44700003
0.16710992 -0.031752665 0.44700003
0.1678988 -0.031681631 0.44600001
0.16906156 -0.031681631 0.44600001
0.17022431 -0.031681631 0.44600001
0.17138706 -0.031681631 0.44600001
0.1725498 -0.031681631 0.44600001
0.17371257 -0.031681631 0.44600001
0.1748753 -0.031681631 0.44600001
0.17603806 -0.031681631 0.44600001
0.17759813 -0.031752665 0.44700003
0.17876348 -0.031752665 0.44700003
0.17992885 -0.031752665 0.44700003
0.1810942 -0.031752665 0.44700003
0.18225956 -0.031752665 0.44700003
0.18342492 -0.031752665 0.44700003
0.18459028 -0.031752665 0.44700003
0.18575563 -0.031752665 0.44700003
0.18692099 -0.031752665 0.44700003
0.18808635 -0.031752665 0.44700003
0.18925171 -0.031752665 0.44700003
0.19084305 -0.031823698 0.44800001
0.19201101 -0.031823698 0.44800001
0.19317898 -0.031823698 0.44800001
0.19434693 -0.031823698 0.44800001
0.1955149 -0.031823698 0.44800001
0.19668287 -0.031823698 0.44800001
0.19785084 -0.031823698 0.44800001
0.19901879 -0.031823698 0.44800001
0.20018676 -0.031823698 0.44800001
0.20135473 -0.031823698 0.44800001
0.2025227 -0.031823698 0.44800001
0.20369065 -0.031823698 0.44800001
0.20485862 -0.031823698 0.44800001
0.20602658 -0.031823698 0.44800001
0.20719455 -0.031823698 0.44800001
0.20836252 -0.031823698 0.44800001
0.20953047 -0.031823698 0.44800001
-0.24225427 -0.029355604 0.42900002
-0.24113585 -0.029355604 0.42900002
-0.24001743 -0.029355604 0.42900002
-0.23889898 -0.029355604 0.42900002
-0.23778056 -0.029355604 0.42900002
-0.23666212 -0.029355604 0.42900002
-0.23554368 -0.029355604 0.42900002
-0.23442525 -0.029355604 0.42900002
-0.23330683 -0.029355604 0.42900002
-0.2321884 -0.029355604 0.42900002
-0.23106995 -0.029355604 0.42900002
-0.22995153 -0.029355604 0.42900002
-0.22883311 -0.029355604 0.42900002
-0.22771469 -0.029355604 0.42900002
-0.22659624 -0.029355604 0.42900002
-0.22600339 -0.029424032 0.43000001
-0.22435939 -0.029355604 0.42900002
-0.22324097 -0.029355604 0.42900002
-0.22212252 -0.029355604 0.42900002
-0.2210041 -0.029355604 0.42900002
-0.21988568 -0.029355604 0.42900002
-0.21876723 -0.029355604 0.42900002
-0.2176488 -0.029355604 0.42900002
-0.21653038 -0.029355604 0.42900002
-0.21541195 -0.029355604 0.42900002
-0.21429351 -0.029355604 0.42900002
-0.21317507 -0.029355604 0.42900002
-0.21205665 -0.029355604 0.42900002
-0.21093822 -0.029355604 0.42900002
-0.20981979 -0.029355604 0.42900002
-0.20870136 -0.029355604 0.42900002
-0.20758292 -0.029355604 0.42900002
-0.2064645 -0.029355604 0.42900002
-0.20534606 -0.029355604 0.42900002
-0.20422764 -0.029355604 0.42900002
-0.2031092 -0.029355604 0.42900002
-0.20199078 -0.029355604 0.42900002
-0.20134057 -0.029424032 0.43000001
-0.20021954 -0.029424032 0.43000001
-0.1990985 -0.029424032 0.43000001
-0.19797747 -0.029424032 0.43000001
-0.19685642 -0.029424032 0.43000001
-0.19573539 -0.029424032 0.43000001
-0.19461435 -0.029424032 0.43000001
-0.19349331 -0.029424032 0.43000001
-0.19281967 -0.02949246 0.43100002
-0.19169602 -0.02949246 0.43100002
-0.19057238 -0.02949246 0.43100002
-0.18944873 -0.02949246 0.43100002
-0.18832509 -0.02949246 0.43100002
-0.18720144 -0.02949246 0.43100002
-0.18650953 -0.029560888 0.43200001
-0.18538328 -0.029560888 0.43200001
-0.18425703 -0.029560888 0.43200001
-0.18313077 -0.029560888 0.43200001
-0.18200453 -0.029560888 0.43200001
-0.18087827 -0.029560888 0.43200001
-0.17975201 -0.029560888 0.43200001
-0.17903925 -0.029629318 0.43300003
-0.17791039 -0.029629318 0.43300003
-0.17678154 -0.029629318 0.43300003
-0.17565268 -0.029629318 0.43300003
-0.17452383 -0.029629318 0.43300003
-0.17339496 -0.029629318 0.43300003
-0.17226611 -0.029629318 0.43300003
-0.17113724 -0.029629318 0.43300003
-0.17000839 -0.029629318 0.43300003
-0.16887952 -0.029629318 0.43300003
-0.16775067 -0.029629318 0.43300003
-0.16662182 -0.029629318 0.43300003
-0.16549295 -0.029629318 0.43300003
-0.1643641 -0.029629318 0.43300003
-0.16323523 -0.029629318 0.43300003
-0.16210638 -0.029629318 0.43300003
-0.16097751 -0.029629318 0.43300003
-0.15984866 -0.029629318 0.43300003
-0.15871979 -0.029629318 0.43300003
-0.15759094 -0.029629318 0.43300003
-0.15646209 -0.029629318 0.43300003
-0.15533324 -0.029629318 0.43300003
-0.15420437 -0.029629318 0.43300003
-0.15307552 -0.029629318 0.43300003
-0.15194665 -0.029629318 0.43300003
-0.15081778 -0.029629318 0.43300003
-0.14968893 -0.029629318 0.43300003
-0.14890316 -0.029697744 0.43400002
-0.1477717 -0.029697744 0.43400002
-0.14664023 -0.029697744 0.43400002
-0.14550877 -0.029697744 0.43400002
-0.14437731 -0.029697744 0.43400002
-0.14357591 -0.029766174 0.43500003
-0.14244182 -0.029766174 0.43500003
-0.14130776 -0.029766174 0.43500003
-0.14017369 -0.029766174 0.43500003
-0.13903962 -0.029766174 0.43500003
-0.13790554 -0.029766174 0.43500003
-0.13677146 -0.029766174 0.43500003
-0.13563739 -0.029766174 0.43500003
-0.13450332 -0.029766174 0.43500003
-0.13336925 -0.029766174 0.43500003
-0.13223517 -0.029766174 0.43500003
-0.1311011 -0.029766174 0.43500003
-0.12996702 -0.029766174 0.43500003
-0.12883297 -0.029766174 0.43500003
-0.12769888 -0.029766174 0.43500003
-0.12656482 -0.029766174 0.43500003
-0.12543073 -0.029766174 0.43500003
-0.12429667 -0.029766174 0.43500003
-0.12316259 -0.029766174 0.43500003
-0.12202851 -0.029766174 0.43500003
-0.12089445 -0.029766174 0.43500003
-0.11976037 -0.029766174 0.43500003
-0.1186263 -0.029766174 0.43500003
-0.11749222 -0.029766174 0.43500003
-0.11635816 -0.029766174 0.43500003
-0.11522408 -0.029766174 0.43500003
-0.11409001 -0.029766174 0.43500003
-0.11295594 -0.029766174 0.43500003
-0.11207893 -0.0298346 0.43600002
-0.11094224 -0.0298346 0.43600002
-0.10980557 -0.0298346 0.43600002
-0.10866889 -0.0298346 0.43600002
-0.1075322 -0.0298346 0.43600002
-0.10639553 -0.0298346 0.43600002
-0.10525884 -0.0298346 0.43600002
-0.10412217 -0.0298346 0.43600002
-0.10298549 -0.0298346 0.43600002
-0.10184881 -0.0298346 0.43600002
-0.10071212 -0.0298346 0.43600002
-0.099575445 -0.0298346 0.43600002
-0.098438762 -0.0298346 0.43600002
-0.097302087 -0.0298346 0.43600002
-0.096165404 -0.0298346 0.43600002
-0.095028728 -0.0298346 0.43600002
-0.093892045 -0.0298346 0.43600002
-0.09275537 -0.0298346 0.43600002
-0.091618687 -0.0298346 0.43600002
-0.090482011 -0.0298346 0.43600002
-0.089345329 -0.0298346 0.43600002
-0.088208653 -0.0298346 0.43600002
-0.08707197 -0.0298346 0.43600002
-0.085935287 -0.0298346 0.43600002
-0.084798604 -0.0298346 0.43600002
-0.083661929 -0.0298346 0.43600002
-0.082525246 -0.0298346 0.43600002
-0.08138857 -0.0298346 0.43600002
-0.080251887 -0.0298346 0.43600002
-0.079115212 -0.0298346 0.43600002
-0.077978529 -0.0298346 0.43600002
-0.076841854 -0.0298346 0.43600002
-0.075705171 -0.0298346 0.43600002
-0.074739516 -0.029903028 0.43700001
-0.073600233 -0.029903028 0.43700001
-0.072295137 -0.0298346 0.43600002
-0.071321651 -0.029903028 0.43700001
-0.070182368 -0.029903028 0.43700001
-0.069043078 -0.029903028 0.43700001
-0.067748412 -0.0298346 0.43600002
-0.06661173 -0.0298346 0.43600002
-0.065625221 -0.029903028 0.43700001
-0.064485937 -0.029903028 0.43700001
-0.063346647 -0.029903028 0.43700001
-0.062207364 -0.029903028 0.43700001
-0.061068077 -0.029903028 0.43700001
-0.05992879 -0.029903028 0.43700001
-0.058789503 -0.029903028 0.43700001
-0.057650216 -0.029903028 0.43700001
-0.056510925 -0.029903028 0.43700001
-0.05549835 -0.029971456 0.43800002
-0.05435646 -0.029971456 0.43800002
-0.053214565 -0.029971456 0.43800002
-0.05207267 -0.029971456 0.43800002
-0.050930776 -0.029971456 0.43800002
-0.049788881 -0.029971456 0.43800002
-0.048646986 -0.029971456 0.43800002
-0.047396634 -0.029903028 0.43700001
-0.046257347 -0.029903028 0.43700001
-0.045014814 -0.0298346 0.43600002
-0.043878134 -0.0298346 0.43600002
-0.042643428 -0.029766174 0.43500003
-0.041509353 -0.029766174 0.43500003
-0.040282462 -0.029697744 0.43400002
-0.039150998 -0.029697744 0.43400002
-0.03793193 -0.029629318 0.43300003
-0.03680307 -0.029629318 0.43300003
-0.024372833 -0.026002634 0.38000003
-0.023320617 -0.025934204 0.37900001
-0.022273615 -0.025865778 0.37800002
-0.021288145 -0.025865778 0.37800002
-0.020248963 -0.025797348 0.377
-0.019266101 -0.025797348 0.377
-0.018283237 -0.025797348 0.377
-0.017300375 -0.025797348 0.377
-0.016317511 -0.025797348 0.377
-0.015334648 -0.025797348 0.377
-0.014351785 -0.025797348 0.377
-0.013404384 -0.025865778 0.37800002
-0.012418915 -0.025865778 0.37800002
-0.011433444 -0.025865778 0.37800002
-0.010420334 -0.025797348 0.377
-0.0094124377 -0.025728922 0.37600002
-0.0084321816 -0.025728922 0.37600002
-0.0074321069 -0.025660494 0.37500003
-0.006454458 -0.025660494 0.37500003
-0.0054622041 -0.025592064 0.37400001
-0.004487162 -0.025592064 0.37400001
-0.0035121203 -0.025592064 0.37400001
-0.0025302952 -0.025523638 0.37300003
-0.0015578603 -0.025523638 0.37300003
-0.0005838559 -0.025455208 0.37200001
0.00038700935 -0.025523638 0.37300003
0.0013594441 -0.025523638 0.37300003
0.0023381305 -0.025592064 0.37400001
0.0033131724 -0.025592064 0.37400001
0.0042996802 -0.025660494 0.37500003
0.0052773291 -0.025660494 0.37500003
0.006271658 -0.025728922 0.37600002
0.0072712004 -0.025797348 0.377
0.0082540633 -0.025797348 0.377
0.0092369271 -0.025797348 0.377
0.010219789 -0.025797348 0.377
0.011202653 -0.025797348 0.377
0.012185515 -0.025797348 0.377
0.013133449 -0.025728922 0.37600002
0.014113706 -0.025728922 0.37600002
0.015093961 -0.025728922 0.37600002
0.016031466 -0.025660494 0.37500003
0.017009117 -0.025660494 0.37500003
0.017986765 -0.025660494 0.37500003
0.018964414 -0.025660494 0.37500003
0.019942064 -0.025660494 0.37500003
0.020919712 -0.025660494 0.37500003
0.021897361 -0.025660494 0.37500003
0.022875011 -0.025660494 0.37500003
0.023852658 -0.025660494 0.37500003
0.02483031 -0.025660494 0.37500003
0.025807958 -0.025660494 0.37500003
0.026785607 -0.025660494 0.37500003
0.027689219 -0.025592064 0.37400001
0.028664259 -0.025592064 0.37400001
0.0296393 -0.025592064 0.37400001
0.030614344 -0.025592064 0.37400001
0.031589385 -0.025592064 0.37400001
0.032564428 -0.025592064 0.37400001
0.03353947 -0.025592064 0.37400001
0.034514509 -0.025592064 0.37400001
0.035584446 -0.025660494 0.37500003
0.036562093 -0.025660494 0.37500003
0.037639849 -0.025728922 0.37600002
0.038722817 -0.025797348 0.377
0.039916322 -0.025934204 0.37900001
0.04112025 -0.02607106 0.38100001
0.042224079 -0.02613949 0.38200003
0.043333117 -0.026207918 0.38300002
0.04444737 -0.026276344 0.384
0.045448482 -0.026276344 0.384
0.046570558 -0.026344774 0.38500002
0.055896241 -0.030313596 0.44300002
0.057051171 -0.030313596 0.44300002
0.0582061 -0.030313596 0.44300002
0.059495028 -0.030382026 0.44400004
0.060515955 -0.030313596 0.44300002
0.061810099 -0.030382026 0.44400004
0.062967643 -0.030382026 0.44400004
0.06412518 -0.030382026 0.44400004
0.06528271 -0.030382026 0.44400004
0.066440247 -0.030382026 0.44400004
0.067597784 -0.030382026 0.44400004
0.068755321 -0.030382026 0.44400004
0.069912858 -0.030382026 0.44400004
0.071070395 -0.030382026 0.44400004
0.072227925 -0.030382026 0.44400004
0.073385462 -0.030382026 0.44400004
0.074542999 -0.030382026 0.44400004
0.075700536 -0.030382026 0.44400004
0.076858073 -0.030382026 0.44400004
0.078015611 -0.030382026 0.44400004
0.079173148 -0.030382026 0.44400004
0.080330685 -0.030382026 0.44400004
0.081488222 -0.030382026 0.44400004
0.082645759 -0.030382026 0.44400004
0.083992034 -0.030450452 0.44500002
0.085152179 -0.030450452 0.44500002
0.086312324 -0.030450452 0.44500002
0.087472461 -0.030450452 0.44500002
0.088831782 -0.03051888 0.44600001
0.089994527 -0.03051888 0.44600001
0.09115728 -0.03051888 0.44600001
0.092320032 -0.03051888 0.44600001
0.093482785 -0.03051888 0.44600001
0.09443333 -0.030450452 0.44500002
0.095593475 -0.030450452 0.44500002
0.096753612 -0.030450452 0.44500002
0.097913757 -0.030450452 0.44500002
0.098851264 -0.030382026 0.44400004
0.1000088 -0.030382026 0.44400004
0.10116634 -0.030382026 0.44400004
0.10255433 -0.030450452 0.44500002
0.10371447 -0.030450452 0.44500002
0.10487461 -0.030450452 0.44500002
0.10603476 -0.030450452 0.44500002
0.10743579 -0.03051888 0.44600001
0.10859854 -0.03051888 0.44600001
0.10976129 -0.03051888 0.44600001
0.11092404 -0.03051888 0.44600001
0.11208678 -0.03051888 0.44600001
0.11324954 -0.03051888 0.44600001
0.11441229 -0.03051888 0.44600001
0.11557504 -0.03051888 0.44600001
0.1167378 -0.03051888 0.44600001
0.11790054 -0.03051888 0.44600001
0.1190633 -0.03051888 0.44600001
0.12022604 -0.03051888 0.44600001
0.12138879 -0.03051888 0.44600001
0.12255154 -0.03051888 0.44600001
0.1237143 -0.03051888 0.44600001
0.12487704 -0.03051888 0.44600001
0.1260398 -0.03051888 0.44600001
0.12720254 -0.03051888 0.44600001
0.12836529 -0.03051888 0.44600001
0.12923762 -0.030450452 0.44500002
0.13039777 -0.030450452 0.44500002
0.13155793 -0.030450452 0.44500002
0.13271806 -0.030450452 0.44500002
0.1338782 -0.030450452 0.44500002
0.13503835 -0.030450452 0.44500002
0.13619849 -0.030450452 0.44500002
0.13735862 -0.030450452 0.44500002
0.13851878 -0.030450452 0.44500002
0.13999279 -0.03051888 0.44600001
0.14115556 -0.03051888 0.44600001
0.14231829 -0.03051888 0.44600001
0.14348105 -0.03051888 0.44600001
0.1446438 -0.03051888 0.44600001
0.14580655 -0.03051888 0.44600001
0.1469693 -0.03051888 0.44600001
0.14846419 -0.030587308 0.44700003
0.14962955 -0.030587308 0.44700003
0.15079491 -0.030587308 0.44700003
0.15196027 -0.030587308 0.44700003
0.15312561 -0.030587308 0.44700003
0.15429099 -0.030587308 0.44700003
0.15545633 -0.030587308 0.44700003
0.15662169 -0.030587308 0.44700003
0.15778704 -0.030587308 0.44700003
0.15895241 -0.030587308 0.44700003
0.16011776 -0.030587308 0.44700003
0.16128312 -0.030587308 0.44700003
0.16244848 -0.030587308 0.44700003
0.16361384 -0.030587308 0.44700003
0.1647792 -0.030587308 0.44700003
0.16594455 -0.030587308 0.44700003
0.16710992 -0.030587308 0.44700003
0.16827527 -0.030587308 0.44700003
0.16906156 -0.03051888 0.44600001
0.17022431 -0.03051888 0.44600001
0.17138706 -0.03051888 0.44600001
0.1725498 -0.03051888 0.44600001
0.17371257 -0.03051888 0.44600001
0.17526741 -0.030587308 0.44700003
0.17643277 -0.030587308 0.44700003
0.17759813 -0.030587308 0.44700003
0.17876348 -0.030587308 0.44700003
0.17992885 -0.030587308 0.44700003
0.1810942 -0.030587308 0.44700003
0.18225956 -0.030587308 0.44700003
0.18342492 -0.030587308 0.44700003
0.18459028 -0.030587308 0.44700003
0.18575563 -0.030587308 0.44700003
0.18692099 -0.030587308 0.44700003
0.18808635 -0.030587308 0.44700003
0.18967508 -0.030655736 0.44800001
0.19084305 -0.030655736 0.44800001
0.19201101 -0.030655736 0.44800001
0.19317898 -0.030655736 0.44800001
0.19434693 -0.030655736 0.44800001
0.1955149 -0.030655736 0.44800001
0.19668287 -0.030655736 0.44800001
0.19785084 -0.030655736 0.44800001
0.19901879 -0.030655736 0.44800001
0.20018676 -0.030655736 0.44800001
0.20135473 -0.030655736 0.44800001
0.2025227 -0.030655736 0.44800001
0.20369065 -0.030655736 0.44800001
0.20485862 -0.030655736 0.44800001
0.20602658 -0.030655736 0.44800001
0.20719455 -0.030655736 0.44800001
