# .PCD v0.7 - Point Cloud Data file format
VERSION 0.7
FIELDS x y z
SIZE 4 4 4
TYPE F F F
COUNT 1 1 1
WIDTH 1303
HEIGHT 1
VIEWPOINT 0 0 0 1 0 0 0
POINTS 1303
DATA ascii
0.16990757 -0.0015905098 0.45300001
0.17108597 -0.0015905098 0.45300001
0.17264463 -0.0015940209 0.45400003
0.17382562 -0.0015940209 0.45400003
0.17500661 -0.0015940209 0.45400003
0.17657568 -0.001597532 0.45500001
0.17775927 -0.001597532 0.45500001
0.17894286 -0.001597532 0.45500001
0.18012646 -0.001597532 0.45500001
0.18131004 -0.001597532 0.45500001
0.18249364 -0.001597532 0.45500001
0.18367724 -0.001597532 0.45500001
0.18486083 -0.001597532 0.45500001
0.18604441 -0.001597532 0.45500001
0.18722801 -0.001597532 0.45500001
0.18841159 -0.001597532 0.45500001
0.18959519 -0.001597532 0.45500001
0.19077879 -0.001597532 0.45500001
0.19196238 -0.001597532 0.45500001
0.19314598 -0.001597532 0.45500001
0.19432957 -0.001597532 0.45500001
0.19551316 -0.001597532 0.45500001
0.19669674 -0.001597532 0.45500001
0.19788034 -0.001597532 0.45500001
0.19906393 -0.001597532 0.45500001
0.20024753 -0.001597532 0.45500001
0.20143113 -0.001597532 0.45500001
0.20261471 -0.001597532 0.45500001
0.20424622 -0.001601043 0.45600003
0.20543242 -0.001601043 0.45600003
0.20661861 -0.001601043 0.45600003
0.2078048 -0.001601043 0.45600003
0.20899099 -0.001601043 0.45600003
0.21063809 -0.001604554 0.45700002
0.21182689 -0.001604554 0.45700002
0.21301569 -0.001604554 0.45700002
0.21420449 -0.001604554 0.45700002
0.21539328 -0.001604554 0.45700002
0.21658207 -0.001604554 0.45700002
0.21777087 -0.001604554 0.45700002
0.21895967 -0.001604554 0.45700002
-0.24642883 -0.00040120291 0.44100001
-0.24528165 -0.00040120291 0.44100001
-0.24413449 -0.00040120291 0.44100001
-0.2429873 -0.00040120291 0.44100001
-0.24184014 -0.00040120291 0.44100001
-0.24069296 -0.00040120291 0.44100001
-0.23954578 -0.00040120291 0.44100001
-0.23839861 -0.00040120291 0.44100001
-0.23778942 -0.00040211267 0.44200003
-0.23663966 -0.00040211267 0.44200003
-0.23548988 -0.00040211267 0.44200003
-0.23434009 -0.00040211267 0.44200003
-0.23319033 -0.00040211267 0.44200003
-0.23256552 -0.00040302242 0.44300002
-0.23141316 -0.00040302242 0.44300002
-0.23026077 -0.00040302242 0.44300002
-0.22910838 -0.00040302242 0.44300002
-0.22795603 -0.00040302242 0.44300002
-0.22680363 -0.00040302242 0.44300002
-0.22565128 -0.00040302242 0.44300002
-0.22449888 -0.00040302242 0.44300002
-0.22284234 -0.00040211267 0.44200003
-0.22169258 -0.00040211267 0.44200003
-0.22054279 -0.00040211267 0.44200003
-0.21939301 -0.00040211267 0.44200003
-0.21824324 -0.00040211267 0.44200003
-0.21709348 -0.00040211267 0.44200003
-0.21594369 -0.00040211267 0.44200003
-0.21479392 -0.00040211267 0.44200003
-0.21364415 -0.00040211267 0.44200003
-0.21249437 -0.00040211267 0.44200003
-0.21182275 -0.00040302242 0.44300002
-0.21067037 -0.00040302242 0.44300002
-0.20904504 -0.00040211267 0.44200003
-0.20789526 -0.00040211267 0.44200003
-0.20674549 -0.00040211267 0.44200003
-0.2055957 -0.00040211267 0.44200003
-0.20444593 -0.00040211267 0.44200003
-0.20329617 -0.00040211267 0.44200003
-0.2021464 -0.00040211267 0.44200003
-0.20054187 -0.00040120291 0.44100001
-0.19939469 -0.00040120291 0.44100001
-0.19824751 -0.00040120291 0.44100001
-0.19710034 -0.00040120291 0.44100001
-0.19595316 -0.00040120291 0.44100001
-0.19524774 -0.00040211267 0.44200003
-0.19409795 -0.00040211267 0.44200003
-0.19294818 -0.00040211267 0.44200003
-0.1917984 -0.00040211267 0.44200003
-0.19064863 -0.00040211267 0.44200003
-0.18949886 -0.00040211267 0.44200003
-0.18834908 -0.00040211267 0.44200003
-0.18719931 -0.00040211267 0.44200003
-0.18604954 -0.00040211267 0.44200003
-0.18489976 -0.00040211267 0.44200003
-0.18374999 -0.00040211267 0.44200003
-0.1826002 -0.00040211267 0.44200003
-0.18145043 -0.00040211267 0.44200003
-0.18070857 -0.00040302242 0.44300002
-0.17955619 -0.00040302242 0.44300002
-0.17840381 -0.00040302242 0.44300002
-0.17725143 -0.00040302242 0.44300002
-0.17649658 -0.00040393218 0.44400004
-0.17534161 -0.00040393218 0.44400004
-0.17418663 -0.00040393218 0.44400004
-0.17342135 -0.00040484194 0.44500002
-0.17226377 -0.00040484194 0.44500002
-0.17110619 -0.00040484194 0.44500002
-0.16994862 -0.00040484194 0.44500002
-0.16879104 -0.00040484194 0.44500002
-0.16763344 -0.00040484194 0.44500002
-0.16647588 -0.00040484194 0.44500002
-0.1653183 -0.00040484194 0.44500002
-0.16416073 -0.00040484194 0.44500002
-0.16300315 -0.00040484194 0.44500002
-0.16184555 -0.00040484194 0.44500002
-0.16068798 -0.00040484194 0.44500002
-0.1595304 -0.00040484194 0.44500002
-0.15837282 -0.00040484194 0.44500002
-0.15721524 -0.00040484194 0.44500002
-0.15605766 -0.00040484194 0.44500002
-0.15490007 -0.00040484194 0.44500002
-0.15374251 -0.00040484194 0.44500002
-0.15224205 -0.00040393218 0.44400004
-0.15108706 -0.00040393218 0.44400004
-0.14993209 -0.00040393218 0.44400004
-0.14877711 -0.00040393218 0.44400004
-0.14762212 -0.00040393218 0.44400004
-0.14679703 -0.00040484194 0.44500002
-0.14563943 -0.00040484194 0.44500002
-0.14448187 -0.00040484194 0.44500002
-0.14332429 -0.00040484194 0.44500002
-0.14216672 -0.00040484194 0.44500002
-0.14100914 -0.00040484194 0.44500002
-0.13985154 -0.00040484194 0.44500002
-0.13869397 -0.00040484194 0.44500002
-0.13784546 -0.00040575166 0.44600001
-0.13637881 -0.00040484194 0.44500002
-0.13522123 -0.00040484194 0.44500002
-0.13406365 -0.00040484194 0.44500002
-0.13290608 -0.00040484194 0.44500002
-0.1317485 -0.00040484194 0.44500002
-0.13088438 -0.00040575166 0.44600001
-0.12943333 -0.00040484194 0.44500002
-0.12856402 -0.00040575166 0.44600001
-0.12740383 -0.00040575166 0.44600001
-0.12624365 -0.00040575166 0.44600001
-0.12508348 -0.00040575166 0.44600001
-0.12392329 -0.00040575166 0.44600001
-0.1227631 -0.00040575166 0.44600001
-0.12160293 -0.00040575166 0.44600001
-0.12044275 -0.00040575166 0.44600001
-0.11928257 -0.00040575166 0.44600001
-0.11838724 -0.00040666145 0.44700003
-0.1169622 -0.00040575166 0.44600001
-0.11580203 -0.00040575166 0.44600001
-0.11464185 -0.00040575166 0.44600001
-0.1137361 -0.00040666145 0.44700003
-0.11257333 -0.00040666145 0.44700003
-0.11141054 -0.00040666145 0.44700003
-0.11024777 -0.00040666145 0.44700003
-0.10908498 -0.00040666145 0.44700003
-0.1079222 -0.00040666145 0.44700003
-0.10675941 -0.00040666145 0.44700003
-0.10559663 -0.00040666145 0.44700003
-0.10443386 -0.00040666145 0.44700003
-0.10327107 -0.00040666145 0.44700003
-0.10210829 -0.00040666145 0.44700003
-0.1009455 -0.00040666145 0.44700003
-0.099782728 -0.00040666145 0.44700003
-0.098619945 -0.00040666145 0.44700003
-0.097457163 -0.00040666145 0.44700003
-0.096294381 -0.00040666145 0.44700003
-0.095131598 -0.00040666145 0.44700003
-0.093968816 -0.00040666145 0.44700003
-0.092806026 -0.00040666145 0.44700003
-0.091438226 -0.00040575166 0.44600001
-0.090278052 -0.00040575166 0.44600001
-0.08911787 -0.00040575166 0.44600001
-0.087957688 -0.00040575166 0.44600001
-0.086797506 -0.00040575166 0.44600001
-0.085637324 -0.00040575166 0.44600001
-0.084477141 -0.00040575166 0.44600001
-0.083316967 -0.00040575166 0.44600001
-0.082156785 -0.00040575166 0.44600001
-0.081178211 -0.00040666145 0.44700003
-0.080015428 -0.00040666145 0.44700003
-0.078852646 -0.00040666145 0.44700003
-0.077689864 -0.00040666145 0.44700003
-0.076527089 -0.00040666145 0.44700003
-0.075364299 -0.00040666145 0.44700003
-0.074201524 -0.00040666145 0.44700003
-0.073038734 -0.00040666145 0.44700003
-0.07187596 -0.00040666145 0.44700003
-0.07071317 -0.00040666145 0.44700003
-0.069550395 -0.00040666145 0.44700003
-0.068387613 -0.00040666145 0.44700003
-0.067224823 -0.00040666145 0.44700003
-0.066062048 -0.00040666145 0.44700003
-0.064899258 -0.00040666145 0.44700003
-0.063736483 -0.00040666145 0.44700003
-0.062433708 -0.00040575166 0.44600001
-0.06127353 -0.00040575166 0.44600001
-0.060113352 -0.00040575166 0.44600001
-0.058953166 -0.00040575166 0.44600001
-0.057792991 -0.00040575166 0.44600001
-0.056505829 -0.00040484194 0.44500002
-0.055223875 -0.00040393218 0.44400004
-0.053947117 -0.00040302242 0.44300002
-0.045901056 -0.0003839175 0.42200002
-0.044590969 -0.00038209799 0.42000002
-0.043394856 -0.00038118826 0.41900003
-0.042304911 -0.00038118826 0.41900003
-0.041116599 -0.00038027848 0.41800001
-0.040029254 -0.00038027848 0.41800001
-0.03884875 -0.00037936872 0.41700003
-0.037673444 -0.00037845896 0.41600001
-0.036591303 -0.00037845896 0.41600001
-0.035509158 -0.00037845896 0.41600001
-0.034427017 -0.00037845896 0.41600001
-0.033344876 -0.00037845896 0.41600001
-0.032185182 -0.00037754921 0.41500002
-0.031105641 -0.00037754921 0.41500002
-0.029953748 -0.00037663948 0.41400003
-0.028876809 -0.00037663948 0.41400003
-0.027799869 -0.00037663948 0.41400003
-0.026722932 -0.00037663948 0.41400003
-0.025645994 -0.00037663948 0.41400003
-0.024509707 -0.00037572969 0.41300002
-0.023378626 -0.00037481997 0.41200003
-0.022361031 -0.00037572969 0.41300002
-0.021286694 -0.00037572969 0.41300002
-0.020261297 -0.00037663948 0.41400003
-0.019184357 -0.00037663948 0.41400003
-0.018151157 -0.00037754921 0.41500002
-0.017071616 -0.00037754921 0.41500002
-0.01603061 -0.00037845896 0.41600001
-0.014948469 -0.00037845896 0.41600001
-0.013966325 -0.00038118826 0.41900003
-0.012968573 -0.0003839175 0.42200002
-0.011983342 -0.00038755656 0.42600003
-0.0099504525 -0.00039483458 0.43400002
-0.008902791 -0.00039847364 0.43800002
-0.00783432 -0.00040211267 0.44200003
-0.0067299143 -0.00040484194 0.44500002
-0.0055848565 -0.00040575166 0.44600001
-0.0044345972 -0.00040666145 0.44700003
-0.0032718149 -0.00040666145 0.44700003
-0.0021137509 -0.00040757121 0.44800001
-0.00094836764 -0.00040757121 0.44800001
0.00021701565 -0.00040757121 0.44800001
0.0013854848 -0.00040848096 0.44900003
0.0025534693 -0.00040848096 0.44900003
0.0037214539 -0.00040848096 0.44900003
0.0048894389 -0.00040848096 0.44900003
0.0060709142 -0.00040939072 0.45000002
0.0072415001 -0.00040939072 0.45000002
0.0083933929 -0.00040848096 0.44900003
0.0095613766 -0.00040848096 0.44900003
0.010729362 -0.00040848096 0.44900003
0.011897347 -0.00040848096 0.44900003
0.013065332 -0.00040848096 0.44900003
0.014233316 -0.00040848096 0.44900003
0.015435603 -0.00040939072 0.45000002
0.016606187 -0.00040939072 0.45000002
0.017776774 -0.00040939072 0.45000002
0.018947359 -0.00040939072 0.45000002
0.020117944 -0.00040939072 0.45000002
0.021288531 -0.00040939072 0.45000002
0.022459118 -0.00040939072 0.45000002
0.023629703 -0.00040939072 0.45000002
0.024800289 -0.00040939072 0.45000002
0.025970876 -0.00040939072 0.45000002
0.027081147 -0.00040848096 0.44900003
0.028249133 -0.00040848096 0.44900003
0.029417116 -0.00040848096 0.44900003
0.030585101 -0.00040848096 0.44900003
0.031753086 -0.00040848096 0.44900003
0.032921072 -0.00040848096 0.44900003
0.034089055 -0.00040848096 0.44900003
0.035257041 -0.00040848096 0.44900003
0.036425024 -0.00040848096 0.44900003
0.037593007 -0.00040848096 0.44900003
0.038760994 -0.00040848096 0.44900003
0.03992898 -0.00040848096 0.44900003
0.041096963 -0.00040848096 0.44900003
0.04226495 -0.00040848096 0.44900003
0.043432932 -0.00040848096 0.44900003
0.044600915 -0.00040848096 0.44900003
0.045768902 -0.00040848096 0.44900003
0.046936888 -0.00040848096 0.44900003
0.048104871 -0.00040848096 0.44900003
0.049272858 -0.00040848096 0.44900003
0.05044084 -0.00040848096 0.44900003
0.051608823 -0.00040848096 0.44900003
0.05289435 -0.00040939072 0.45000002
0.053944796 -0.00040848096 0.44900003
0.055235524 -0.00040939072 0.45000002
0.056406107 -0.00040939072 0.45000002
0.057576697 -0.00040939072 0.45000002
0.05874728 -0.00040939072 0.45000002
0.059917871 -0.00040939072 0.45000002
0.061088454 -0.00040939072 0.45000002
0.062259037 -0.00040939072 0.45000002
0.063429624 -0.00040939072 0.45000002
0.064600207 -0.00040939072 0.45000002
0.065770797 -0.00040939072 0.45000002
0.066941381 -0.00040939072 0.45000002
0.068111971 -0.00040939072 0.45000002
0.069282554 -0.00040939072 0.45000002
0.070453137 -0.00040939072 0.45000002
0.071623728 -0.00040939072 0.45000002
0.072794311 -0.00040939072 0.45000002
0.073964901 -0.00040939072 0.45000002
0.075135484 -0.00040939072 0.45000002
0.076306075 -0.00040939072 0.45000002
0.077648833 -0.00041030048 0.45100003
0.078822017 -0.00041030048 0.45100003
0.079995207 -0.00041030048 0.45100003
0.081168391 -0.00041030048 0.45100003
0.082341582 -0.00041030048 0.45100003
0.083514765 -0.00041030048 0.45100003
0.084687948 -0.00041030048 0.45100003
0.085861139 -0.00041030048 0.45100003
0.087034322 -0.00041030048 0.45100003
0.088207513 -0.00041030048 0.45100003
0.089380704 -0.00041030048 0.45100003
0.090553895 -0.00041030048 0.45100003
0.091727078 -0.00041030048 0.45100003
0.092900261 -0.00041030048 0.45100003
0.094073452 -0.00041030048 0.45100003
0.095246635 -0.00041030048 0.45100003
0.096419826 -0.00041030048 0.45100003
0.097593009 -0.00041030048 0.45100003
0.0987662 -0.00041030048 0.45100003
0.099939391 -0.00041030048 0.45100003
0.10111257 -0.00041030048 0.45100003
0.10228577 -0.00041030048 0.45100003
0.10345895 -0.00041030048 0.45100003
0.10463214 -0.00041030048 0.45100003
0.10580532 -0.00041030048 0.45100003
0.10697851 -0.00041030048 0.45100003
0.1081517 -0.00041030048 0.45100003
0.10932489 -0.00041030048 0.45100003
0.11049808 -0.00041030048 0.45100003
0.11167126 -0.00041030048 0.45100003
0.11284444 -0.00041030048 0.45100003
0.11401763 -0.00041030048 0.45100003
0.11519083 -0.00041030048 0.45100003
0.11636401 -0.00041030048 0.45100003
0.11753719 -0.00041030048 0.45100003
0.11871038 -0.00041030048 0.45100003
0.11988357 -0.00041030048 0.45100003
0.12105677 -0.00041030048 0.45100003
0.12222995 -0.00041030048 0.45100003
0.12340313 -0.00041030048 0.45100003
0.12485254 -0.00041121023 0.45200002
0.12602833 -0.00041121023 0.45200002
0.12720412 -0.00041121023 0.45200002
0.12837991 -0.00041121023 0.45200002
0.12955569 -0.00041121023 0.45200002
0.13073148 -0.00041121023 0.45200002
0.13190727 -0.00041121023 0.45200002
0.13308306 -0.00041121023 0.45200002
0.13425885 -0.00041121023 0.45200002
0.13543463 -0.00041121023 0.45200002
0.13691264 -0.00041211999 0.45300001
0.13809106 -0.00041211999 0.45300001
0.13926944 -0.00041211999 0.45300001
0.14044783 -0.00041211999 0.45300001
0.14162621 -0.00041211999 0.45300001
0.14280461 -0.00041211999 0.45300001
0.14398299 -0.00041211999 0.45300001
0.14516139 -0.00041211999 0.45300001
0.14633977 -0.00041211999 0.45300001
0.14751816 -0.00041211999 0.45300001
0.14869656 -0.00041211999 0.45300001
0.14987494 -0.00041211999 0.45300001
0.15105334 -0.00041211999 0.45300001
0.15223172 -0.00041211999 0.45300001
0.15341011 -0.00041211999 0.45300001
0.15492977 -0.00041302975 0.45400003
0.15611076 -0.00041302975 0.45400003
0.15729174 -0.00041302975 0.45400003
0.15847273 -0.00041302975 0.45400003
0.15965372 -0.00041302975 0.45400003
0.16083473 -0.00041302975 0.45400003
0.16201571 -0.00041302975 0.45400003
0.16283724 -0.00041211999 0.45300001
0.16401562 -0.00041211999 0.45300001
0.16519402 -0.00041211999 0.45300001
0.1663724 -0.00041211999 0.45300001
0.16755079 -0.00041211999 0.45300001
0.16910166 -0.00041302975 0.45400003
0.17028265 -0.00041302975 0.45400003
0.17146365 -0.00041302975 0.45400003
0.17264463 -0.00041302975 0.45400003
0.17382562 -0.00041302975 0.45400003
0.17539208 -0.0004139395 0.45500001
0.17657568 -0.0004139395 0.45500001
0.17775927 -0.0004139395 0.45500001
0.17894286 -0.0004139395 0.45500001
0.18012646 -0.0004139395 0.45500001
0.18131004 -0.0004139395 0.45500001
0.18249364 -0.0004139395 0.45500001
0.18367724 -0.0004139395 0.45500001
0.18486083 -0.0004139395 0.45500001
0.18604441 -0.0004139395 0.45500001
0.18722801 -0.0004139395 0.45500001
0.18841159 -0.0004139395 0.45500001
0.18959519 -0.0004139395 0.45500001
0.19077879 -0.0004139395 0.45500001
0.19196238 -0.0004139395 0.45500001
0.19314598 -0.0004139395 0.45500001
0.19432957 -0.0004139395 0.45500001
0.19551316 -0.0004139395 0.45500001
0.19669674 -0.0004139395 0.45500001
0.19788034 -0.0004139395 0.45500001
0.19906393 -0.0004139395 0.45500001
0.20024753 -0.0004139395 0.45500001
0.20143113 -0.0004139395 0.45500001
0.20261471 -0.0004139395 0.45500001
0.20424622 -0.00041484926 0.45600003
0.20543242 -0.00041484926 0.45600003
0.20661861 -0.00041484926 0.45600003
0.2078048 -0.00041484926 0.45600003
0.20944931 -0.00041575902 0.45700002
0.21063809 -0.00041575902 0.45700002
0.21182689 -0.00041575902 0.45700002
0.21301569 -0.00041575902 0.45700002
0.21420449 -0.00041575902 0.45700002
0.21539328 -0.00041575902 0.45700002
0.21658207 -0.00041575902 0.45700002
0.21777087 -0.00041575902 0.45700002
0.21895967 -0.00041575902 0.45700002
-0.24642883 0.00074597134 0.44100001
-0.24528165 0.00074597134 0.44100001
-0.24413449 0.00074597134 0.44100001
-0.2429873 0.00074597134 0.44100001
-0.24184014 0.00074597134 0.44100001
-0.24069296 0.00074597134 0.44100001
-0.23954578 0.00074597134 0.44100001
-0.23839861 0.00074597134 0.44100001
-0.23778942 0.00074766291 0.44200003
-0.23663966 0.00074766291 0.44200003
-0.23548988 0.00074766291 0.44200003
-0.23487027 0.00074935443 0.44300002
-0.2337179 0.00074935443 0.44300002
-0.23256552 0.00074935443 0.44300002
-0.23141316 0.00074935443 0.44300002
-0.23026077 0.00074935443 0.44300002
-0.22910838 0.00074935443 0.44300002
-0.22795603 0.00074935443 0.44300002
-0.22680363 0.00074935443 0.44300002
-0.22565128 0.00074935443 0.44300002
-0.22449888 0.00074935443 0.44300002
-0.2233465 0.00074935443 0.44300002
-0.22169258 0.00074766291 0.44200003
-0.22054279 0.00074766291 0.44200003
-0.21939301 0.00074766291 0.44200003
-0.21824324 0.00074766291 0.44200003
-0.21709348 0.00074766291 0.44200003
-0.21594369 0.00074766291 0.44200003
-0.21479392 0.00074766291 0.44200003
-0.21364415 0.00074766291 0.44200003
-0.21297511 0.00074935443 0.44300002
-0.21182275 0.00074935443 0.44300002
-0.21067037 0.00074935443 0.44300002
-0.20951799 0.00074935443 0.44300002
-0.20789526 0.00074766291 0.44200003
-0.20674549 0.00074766291 0.44200003
-0.2055957 0.00074766291 0.44200003
-0.20444593 0.00074766291 0.44200003
-0.20329617 0.00074766291 0.44200003
-0.2021464 0.00074766291 0.44200003
-0.20054187 0.00074597134 0.44100001
-0.19939469 0.00074597134 0.44100001
-0.19824751 0.00074597134 0.44100001
-0.19710034 0.00074597134 0.44100001
-0.19639751 0.00074766291 0.44200003
-0.19524774 0.00074766291 0.44200003
-0.19409795 0.00074766291 0.44200003
-0.19294818 0.00074766291 0.44200003
-0.1917984 0.00074766291 0.44200003
-0.19064863 0.00074766291 0.44200003
-0.18949886 0.00074766291 0.44200003
-0.18834908 0.00074766291 0.44200003
-0.18719931 0.00074766291 0.44200003
-0.18604954 0.00074766291 0.44200003
-0.18489976 0.00074766291 0.44200003
-0.18374999 0.00074766291 0.44200003
-0.1826002 0.00074766291 0.44200003
-0.18186094 0.00074935443 0.44300002
-0.18070857 0.00074935443 0.44300002
-0.17955619 0.00074935443 0.44300002
-0.17840381 0.00074935443 0.44300002
-0.17765155 0.000751046 0.44400004
-0.17649658 0.000751046 0.44400004
-0.17534161 0.000751046 0.44400004
-0.17418663 0.000751046 0.44400004
-0.17342135 0.00075273751 0.44500002
-0.17226377 0.00075273751 0.44500002
-0.17110619 0.00075273751 0.44500002
-0.16994862 0.00075273751 0.44500002
-0.16879104 0.00075273751 0.44500002
-0.16763344 0.00075273751 0.44500002
-0.16647588 0.00075273751 0.44500002
-0.1653183 0.00075273751 0.44500002
-0.16416073 0.00075273751 0.44500002
-0.16300315 0.00075273751 0.44500002
-0.16184555 0.00075273751 0.44500002
-0.16068798 0.00075273751 0.44500002
-0.1595304 0.00075273751 0.44500002
-0.15837282 0.00075273751 0.44500002
-0.15721524 0.00075273751 0.44500002
-0.15605766 0.00075273751 0.44500002
-0.15490007 0.00075273751 0.44500002
-0.15374251 0.00075273751 0.44500002
-0.15258493 0.00075273751 0.44500002
-0.15108706 0.000751046 0.44400004
-0.14993209 0.000751046 0.44400004
-0.14877711 0.000751046 0.44400004
-0.14795461 0.00075273751 0.44500002
-0.14679703 0.00075273751 0.44500002
-0.14563943 0.00075273751 0.44500002
-0.14448187 0.00075273751 0.44500002
-0.14332429 0.00075273751 0.44500002
-0.14216672 0.00075273751 0.44500002
-0.14100914 0.00075273751 0.44500002
-0.13985154 0.00075273751 0.44500002
-0.13900563 0.00075442903 0.44600001
-0.13784546 0.00075442903 0.44600001
-0.13637881 0.00075273751 0.44500002
-0.13552509 0.00075442903 0.44600001
-0.13436492 0.00075442903 0.44600001
-0.13320473 0.00075442903 0.44600001
-0.1317485 0.00075273751 0.44500002
-0.13088438 0.00075442903 0.44600001
-0.12943333 0.00075273751 0.44500002
-0.12827575 0.00075273751 0.44500002
-0.12740383 0.00075442903 0.44600001
-0.12624365 0.00075442903 0.44600001
-0.12508348 0.00075442903 0.44600001
-0.12392329 0.00075442903 0.44600001
-0.1227631 0.00075442903 0.44600001
-0.12160293 0.00075442903 0.44600001
-0.12044275 0.00075442903 0.44600001
-0.11928257 0.00075442903 0.44600001
-0.11838724 0.0007561206 0.44700003
-0.11722445 0.0007561206 0.44700003
-0.11580203 0.00075442903 0.44600001
-0.11464185 0.00075442903 0.44600001
-0.1137361 0.0007561206 0.44700003
-0.11257333 0.0007561206 0.44700003
-0.11141054 0.0007561206 0.44700003
-0.11024777 0.0007561206 0.44700003
-0.10908498 0.0007561206 0.44700003
-0.1079222 0.0007561206 0.44700003
-0.10675941 0.0007561206 0.44700003
-0.10559663 0.0007561206 0.44700003
-0.10443386 0.0007561206 0.44700003
-0.10327107 0.0007561206 0.44700003
-0.10210829 0.0007561206 0.44700003
-0.1009455 0.0007561206 0.44700003
-0.099782728 0.0007561206 0.44700003
-0.098619945 0.0007561206 0.44700003
-0.097457163 0.0007561206 0.44700003
-0.096294381 0.0007561206 0.44700003
-0.095131598 0.0007561206 0.44700003
-0.093968816 0.0007561206 0.44700003
-0.092806026 0.0007561206 0.44700003
-0.091643251 0.0007561206 0.44700003
-0.090480469 0.0007561206 0.44700003
-0.089317687 0.0007561206 0.44700003
-0.087957688 0.00075442903 0.44600001
-0.086797506 0.00075442903 0.44600001
-0.085637324 0.00075442903 0.44600001
-0.084477141 0.00075442903 0.44600001
-0.083316967 0.00075442903 0.44600001
-0.082156785 0.00075442903 0.44600001
-0.080996603 0.00075442903 0.44600001
-0.080015428 0.0007561206 0.44700003
-0.078852646 0.0007561206 0.44700003
-0.077689864 0.0007561206 0.44700003
-0.076527089 0.0007561206 0.44700003
-0.075364299 0.0007561206 0.44700003
-0.074201524 0.0007561206 0.44700003
-0.073038734 0.0007561206 0.44700003
-0.07187596 0.0007561206 0.44700003
-0.07071317 0.0007561206 0.44700003
-0.069550395 0.0007561206 0.44700003
-0.068387613 0.0007561206 0.44700003
-0.067224823 0.0007561206 0.44700003
-0.066062048 0.0007561206 0.44700003
-0.064899258 0.0007561206 0.44700003
-0.063736483 0.0007561206 0.44700003
-0.062433708 0.00075442903 0.44600001
-0.06127353 0.00075442903 0.44600001
-0.060113352 0.00075442903 0.44600001
-0.058953166 0.00075442903 0.44600001
-0.057663411 0.00075273751 0.44500002
-0.056505829 0.00075273751 0.44500002
-0.055099495 0.00074935443 0.44300002
-0.053703561 0.00074597134 0.44100001
-0.045792289 0.00071214046 0.42100003
-0.044590969 0.00071044889 0.42000002
-0.043498423 0.00071044889 0.42000002
-0.042304911 0.00070875738 0.41900003
-0.041116599 0.0007070658 0.41800001
-0.040029254 0.0007070658 0.41800001
-0.03884875 0.00070537429 0.41700003
-0.037764005 0.00070537429 0.41700003
-0.036591303 0.00070368272 0.41600001
-0.035509158 0.00070368272 0.41600001
-0.034427017 0.00070368272 0.41600001
-0.033344876 0.00070368272 0.41600001
-0.032262735 0.00070368272 0.41600001
-0.031105641 0.00070199114 0.41500002
-0.030026101 0.00070199114 0.41500002
-0.02894656 0.00070199114 0.41500002
-0.027867017 0.00070199114 0.41500002
-0.026722932 0.00070029963 0.41400003
-0.025645994 0.00070029963 0.41400003
-0.024569053 0.00070029963 0.41400003
-0.023435369 0.00069860806 0.41300002
-0.022415174 0.00070029963 0.41400003
-0.021338237 0.00070029963 0.41400003
-0.020310236 0.00070199114 0.41500002
-0.019230695 0.00070199114 0.41500002
-0.018151157 0.00070199114 0.41500002
-0.017071616 0.00070199114 0.41500002
-0.01603061 0.00070368272 0.41600001
-0.014948469 0.00070368272 0.41600001
-0.013999657 0.00071044889 0.42000002
-0.012999304 0.00071552349 0.42300001
-0.0099963071 0.00073751359 0.43600002
-0.0089434432 0.00074427982 0.44000003
-0.0078697689 0.000751046 0.44400004
-0.0067450372 0.00075442903 0.44600001
-0.0055973791 0.0007561206 0.44700003
-0.0044345972 0.0007561206 0.44700003
-0.0032718149 0.0007561206 0.44700003
-0.0021137509 0.00075781211 0.44800001
-0.00094836764 0.00075781211 0.44800001
0.00021750007 0.00075950369 0.44900003
0.0013854848 0.00075950369 0.44900003
0.0025534693 0.00075950369 0.44900003
0.0037214539 0.00075950369 0.44900003
0.0048894389 0.00075950369 0.44900003
0.0060574235 0.00075950369 0.44900003
0.0072415001 0.00076119526 0.45000002
0.0084120855 0.00076119526 0.45000002
0.0095826713 0.00076119526 0.45000002
0.010753258 0.00076119526 0.45000002
0.011923844 0.00076119526 0.45000002
0.013065332 0.00075950369 0.44900003
0.014265016 0.00076119526 0.45000002
0.015435603 0.00076119526 0.45000002
0.016606187 0.00076119526 0.45000002
0.017776774 0.00076119526 0.45000002
0.018947359 0.00076119526 0.45000002
0.020117944 0.00076119526 0.45000002
0.021288531 0.00076119526 0.45000002
0.022459118 0.00076119526 0.45000002
0.023629703 0.00076119526 0.45000002
0.024800289 0.00076119526 0.45000002
0.025970876 0.00076119526 0.45000002
0.027081147 0.00075950369 0.44900003
0.028249133 0.00075950369 0.44900003
0.029417116 0.00075950369 0.44900003
0.030585101 0.00075950369 0.44900003
0.031753086 0.00075950369 0.44900003
0.032921072 0.00075950369 0.44900003
0.034089055 0.00075950369 0.44900003
0.035257041 0.00075950369 0.44900003
0.036425024 0.00075950369 0.44900003
0.037593007 0.00075950369 0.44900003
0.038760994 0.00075950369 0.44900003
0.03992898 0.00075950369 0.44900003
0.041096963 0.00075950369 0.44900003
0.04226495 0.00075950369 0.44900003
0.043432932 0.00075950369 0.44900003
0.044600915 0.00075950369 0.44900003
0.045768902 0.00075950369 0.44900003
0.046936888 0.00075950369 0.44900003
0.048104871 0.00075950369 0.44900003
0.049272858 0.00075950369 0.44900003
0.05044084 0.00075950369 0.44900003
0.051723763 0.00076119526 0.45000002
0.05289435 0.00076119526 0.45000002
0.054064937 0.00076119526 0.45000002
0.055235524 0.00076119526 0.45000002
0.056406107 0.00076119526 0.45000002
0.057576697 0.00076119526 0.45000002
0.05874728 0.00076119526 0.45000002
0.059917871 0.00076119526 0.45000002
0.061088454 0.00076119526 0.45000002
0.062259037 0.00076119526 0.45000002
0.063429624 0.00076119526 0.45000002
0.064600207 0.00076119526 0.45000002
0.065770797 0.00076119526 0.45000002
0.066941381 0.00076119526 0.45000002
0.068111971 0.00076119526 0.45000002
0.069282554 0.00076119526 0.45000002
0.070453137 0.00076119526 0.45000002
0.071623728 0.00076119526 0.45000002
0.072794311 0.00076119526 0.45000002
0.073964901 0.00076119526 0.45000002
0.075135484 0.00076119526 0.45000002
0.076306075 0.00076119526 0.45000002
0.077648833 0.00076288683 0.45100003
0.078822017 0.00076288683 0.45100003
0.079995207 0.00076288683 0.45100003
0.081168391 0.00076288683 0.45100003
0.082341582 0.00076288683 0.45100003
0.083514765 0.00076288683 0.45100003
0.084687948 0.00076288683 0.45100003
0.085861139 0.00076288683 0.45100003
0.087034322 0.00076288683 0.45100003
0.088207513 0.00076288683 0.45100003
0.089380704 0.00076288683 0.45100003
0.090754673 0.00076457835 0.45200002
0.091727078 0.00076288683 0.45100003
0.092900261 0.00076288683 0.45100003
0.094282039 0.00076457835 0.45200002
0.095457822 0.00076457835 0.45200002
0.096633613 0.00076457835 0.45200002
0.097809404 0.00076457835 0.45200002
0.098985188 0.00076457835 0.45200002
0.10016098 0.00076457835 0.45200002
0.10133677 0.00076457835 0.45200002
0.10251256 0.00076457835 0.45200002
0.10368834 0.00076457835 0.45200002
0.10463214 0.00076288683 0.45100003
0.10580532 0.00076288683 0.45100003
0.10697851 0.00076288683 0.45100003
0.1081517 0.00076288683 0.45100003
0.10932489 0.00076288683 0.45100003
0.11049808 0.00076288683 0.45100003
0.11167126 0.00076288683 0.45100003
0.11284444 0.00076288683 0.45100003
0.11401763 0.00076288683 0.45100003
0.11519083 0.00076288683 0.45100003
0.11636401 0.00076288683 0.45100003
0.11753719 0.00076288683 0.45100003
0.11871038 0.00076288683 0.45100003
0.11988357 0.00076288683 0.45100003
0.12132518 0.00076457835 0.45200002
0.12250096 0.00076457835 0.45200002
0.12367675 0.00076457835 0.45200002
0.12485254 0.00076457835 0.45200002
0.12602833 0.00076457835 0.45200002
0.12720412 0.00076457835 0.45200002
0.12837991 0.00076457835 0.45200002
0.12955569 0.00076457835 0.45200002
0.13073148 0.00076457835 0.45200002
0.13190727 0.00076457835 0.45200002
0.13308306 0.00076457835 0.45200002
0.13425885 0.00076457835 0.45200002
0.13573426 0.00076626986 0.45300001
0.13691264 0.00076626986 0.45300001
0.13809106 0.00076626986 0.45300001
0.13926944 0.00076626986 0.45300001
0.14044783 0.00076626986 0.45300001
0.14162621 0.00076626986 0.45300001
0.14280461 0.00076626986 0.45300001
0.14398299 0.00076626986 0.45300001
0.14516139 0.00076626986 0.45300001
0.14633977 0.00076626986 0.45300001
0.14751816 0.00076626986 0.45300001
0.14869656 0.00076626986 0.45300001
0.14987494 0.00076626986 0.45300001
0.15105334 0.00076626986 0.45300001
0.15223172 0.00076626986 0.45300001
0.15341011 0.00076626986 0.45300001
0.15492977 0.00076796144 0.45400003
0.15611076 0.00076796144 0.45400003
0.15729174 0.00076796144 0.45400003
0.15847273 0.00076796144 0.45400003
0.15965372 0.00076796144 0.45400003
0.16083473 0.00076796144 0.45400003
0.16165884 0.00076626986 0.45300001
0.16283724 0.00076626986 0.45300001
0.16401562 0.00076626986 0.45300001
0.16519402 0.00076626986 0.45300001
0.1663724 0.00076626986 0.45300001
0.16755079 0.00076626986 0.45300001
0.16910166 0.00076796144 0.45400003
0.17028265 0.00076796144 0.45400003
0.17146365 0.00076796144 0.45400003
0.17264463 0.00076796144 0.45400003
0.17420849 0.00076965295 0.45500001
0.17539208 0.00076965295 0.45500001
0.17657568 0.00076965295 0.45500001
0.17775927 0.00076965295 0.45500001
0.17894286 0.00076965295 0.45500001
0.18012646 0.00076965295 0.45500001
0.18131004 0.00076965295 0.45500001
0.18249364 0.00076965295 0.45500001
0.18367724 0.00076965295 0.45500001
0.18486083 0.00076965295 0.45500001
0.18604441 0.00076965295 0.45500001
0.18722801 0.00076965295 0.45500001
0.18841159 0.00076965295 0.45500001
0.18959519 0.00076965295 0.45500001
0.19077879 0.00076965295 0.45500001
0.19196238 0.00076965295 0.45500001
0.19314598 0.00076965295 0.45500001
0.19475667 0.00077134452 0.45600003
0.19594286 0.00077134452 0.45600003
0.19669674 0.00076965295 0.45500001
0.19788034 0.00076965295 0.45500001
0.19906393 0.00076965295 0.45500001
0.20024753 0.00076965295 0.45500001
0.20143113 0.00076965295 0.45500001
0.20306003 0.00077134452 0.45600003
0.20424622 0.00077134452 0.45600003
0.20543242 0.00077134452 0.45600003
0.20661861 0.00077134452 0.45600003
0.20826051 0.00077303604 0.45700002
0.20944931 0.00077303604 0.45700002
0.21063809 0.00077303604 0.45700002
0.21182689 0.00077303604 0.45700002
0.21301569 0.00077303604 0.45700002
0.21420449 0.00077303604 0.45700002
0.21539328 0.00077303604 0.45700002
0.21658207 0.00077303604 0.45700002
0.21777087 0.00077303604 0.45700002
0.21895967 0.00077303604 0.45700002
-0.24642883 0.0018931454 0.44100001
-0.24528165 0.0018931454 0.44100001
-0.24413449 0.0018931454 0.44100001
-0.2429873 0.0018931454 0.44100001
-0.24184014 0.0018931454 0.44100001
-0.24069296 0.0018931454 0.44100001
-0.23954578 0.0018931454 0.44100001
-0.23839861 0.0018931454 0.44100001
-0.23778942 0.0018974383 0.44200003
-0.23663966 0.0018974383 0.44200003
-0.23602265 0.0019017311 0.44300002
-0.23487027 0.0019017311 0.44300002
-0.2337179 0.0019017311 0.44300002
-0.23256552 0.0019017311 0.44300002
-0.23141316 0.0019017311 0.44300002
-0.23026077 0.0019017311 0.44300002
-0.22910838 0.0019017311 0.44300002
-0.22795603 0.0019017311 0.44300002
-0.22680363 0.0019017311 0.44300002
-0.22565128 0.0019017311 0.44300002
-0.22449888 0.0019017311 0.44300002
-0.2233465 0.0019017311 0.44300002
-0.22169258 0.0018974383 0.44200003
-0.22054279 0.0018974383 0.44200003
-0.21939301 0.0018974383 0.44200003
-0.21824324 0.0018974383 0.44200003
-0.21758462 0.0019017311 0.44300002
-0.21643224 0.0019017311 0.44300002
-0.21527986 0.0019017311 0.44300002
-0.2141275 0.0019017311 0.44300002
-0.21297511 0.0019017311 0.44300002
-0.21182275 0.0019017311 0.44300002
-0.21067037 0.0019017311 0.44300002
-0.20951799 0.0019017311 0.44300002
-0.20836562 0.0019017311 0.44300002
-0.20674549 0.0018974383 0.44200003
-0.2055957 0.0018974383 0.44200003
-0.20444593 0.0018974383 0.44200003
-0.20329617 0.0018974383 0.44200003
-0.2021464 0.0018974383 0.44200003
-0.20054187 0.0018931454 0.44100001
-0.19939469 0.0018931454 0.44100001
-0.19824751 0.0018931454 0.44100001
-0.19710034 0.0018931454 0.44100001
-0.19639751 0.0018974383 0.44200003
-0.19524774 0.0018974383 0.44200003
-0.19409795 0.0018974383 0.44200003
-0.19294818 0.0018974383 0.44200003
-0.1917984 0.0018974383 0.44200003
-0.19064863 0.0018974383 0.44200003
-0.18949886 0.0018974383 0.44200003
-0.18834908 0.0018974383 0.44200003
-0.18719931 0.0018974383 0.44200003
-0.18604954 0.0018974383 0.44200003
-0.18489976 0.0018974383 0.44200003
-0.18374999 0.0018974383 0.44200003
-0.18301332 0.0019017311 0.44300002
-0.18186094 0.0019017311 0.44300002
-0.18070857 0.0019017311 0.44300002
-0.17955619 0.0019017311 0.44300002
-0.17840381 0.0019017311 0.44300002
-0.17765155 0.0019060241 0.44400004
-0.17649658 0.0019060241 0.44400004
-0.17534161 0.0019060241 0.44400004
-0.17418663 0.0019060241 0.44400004
-0.17342135 0.0019103169 0.44500002
-0.17226377 0.0019103169 0.44500002
-0.17110619 0.0019103169 0.44500002
-0.16994862 0.0019103169 0.44500002
-0.16879104 0.0019103169 0.44500002
-0.16763344 0.0019103169 0.44500002
-0.16647588 0.0019103169 0.44500002
-0.1653183 0.0019103169 0.44500002
-0.16416073 0.0019103169 0.44500002
-0.16300315 0.0019103169 0.44500002
-0.16184555 0.0019103169 0.44500002
-0.16068798 0.0019103169 0.44500002
-0.1595304 0.0019103169 0.44500002
-0.15837282 0.0019103169 0.44500002
-0.15721524 0.0019103169 0.44500002
-0.15605766 0.0019103169 0.44500002
-0.15490007 0.0019103169 0.44500002
-0.15374251 0.0019103169 0.44500002
-0.15258493 0.0019103169 0.44500002
-0.15142734 0.0019103169 0.44500002
-0.14993209 0.0019060241 0.44400004
-0.14877711 0.0019060241 0.44400004
-0.14795461 0.0019103169 0.44500002
-0.14679703 0.0019103169 0.44500002
-0.14563943 0.0019103169 0.44500002
-0.14448187 0.0019103169 0.44500002
-0.14332429 0.0019103169 0.44500002
-0.14216672 0.0019103169 0.44500002
-0.14100914 0.0019103169 0.44500002
-0.13985154 0.0019103169 0.44500002
-0.13869397 0.0019103169 0.44500002
-0.13784546 0.0019146097 0.44600001
-0.13668528 0.0019146097 0.44600001
-0.13552509 0.0019146097 0.44600001
-0.13436492 0.0019146097 0.44600001
-0.13320473 0.0019146097 0.44600001
-0.1317485 0.0019103169 0.44500002
-0.13088438 0.0019146097 0.44600001
-0.12943333 0.0019103169 0.44500002
-0.12827575 0.0019103169 0.44500002
-0.12740383 0.0019146097 0.44600001
-0.12624365 0.0019146097 0.44600001
-0.12508348 0.0019146097 0.44600001
-0.12392329 0.0019146097 0.44600001
-0.1227631 0.0019146097 0.44600001
-0.12160293 0.0019146097 0.44600001
-0.12044275 0.0019146097 0.44600001
-0.11928257 0.0019146097 0.44600001
-0.11812238 0.0019146097 0.44600001
-0.11722445 0.0019189026 0.44700003
-0.11580203 0.0019146097 0.44600001
-0.11464185 0.0019146097 0.44600001
-0.1137361 0.0019189026 0.44700003
-0.11257333 0.0019189026 0.44700003
-0.11141054 0.0019189026 0.44700003
-0.11024777 0.0019189026 0.44700003
-0.10908498 0.0019189026 0.44700003
-0.1079222 0.0019189026 0.44700003
-0.10675941 0.0019189026 0.44700003
-0.10559663 0.0019189026 0.44700003
-0.10443386 0.0019189026 0.44700003
-0.10327107 0.0019189026 0.44700003
-0.10210829 0.0019189026 0.44700003
-0.1009455 0.0019189026 0.44700003
-0.099782728 0.0019189026 0.44700003
-0.098619945 0.0019189026 0.44700003
-0.097457163 0.0019189026 0.44700003
-0.096294381 0.0019189026 0.44700003
-0.095131598 0.0019189026 0.44700003
-0.093968816 0.0019189026 0.44700003
-0.092806026 0.0019189026 0.44700003
-0.091643251 0.0019189026 0.44700003
-0.090480469 0.0019189026 0.44700003
-0.089317687 0.0019189026 0.44700003
-0.088154905 0.0019189026 0.44700003
-0.086797506 0.0019146097 0.44600001
-0.085637324 0.0019146097 0.44600001
-0.084477141 0.0019146097 0.44600001
-0.083316967 0.0019146097 0.44600001
-0.082341 0.0019189026 0.44700003
-0.081178211 0.0019189026 0.44700003
-0.080015428 0.0019189026 0.44700003
-0.078852646 0.0019189026 0.44700003
-0.077689864 0.0019189026 0.44700003
-0.076527089 0.0019189026 0.44700003
-0.075364299 0.0019189026 0.44700003
-0.074201524 0.0019189026 0.44700003
-0.073038734 0.0019189026 0.44700003
-0.07187596 0.0019189026 0.44700003
-0.07071317 0.0019189026 0.44700003
-0.069550395 0.0019189026 0.44700003
-0.068387613 0.0019189026 0.44700003
-0.067224823 0.0019189026 0.44700003
-0.066062048 0.0019189026 0.44700003
-0.064899258 0.0019189026 0.44700003
-0.063736483 0.0019189026 0.44700003
-0.062433708 0.0019146097 0.44600001
-0.06127353 0.0019146097 0.44600001
-0.060113352 0.0019146097 0.44600001
-0.058953166 0.0019146097 0.44600001
-0.057663411 0.0019103169 0.44500002
-0.056378849 0.0019060241 0.44400004
-0.054975118 0.0018974383 0.44200003
-0.053581789 0.0018888527 0.44000003
-0.051960509 0.0018716812 0.43600002
-0.050476622 0.0018588027 0.43300003
-0.048894368 0.0018416313 0.42900002
-0.04733292 0.0018244599 0.42500001
-0.045901056 0.0018115814 0.42200002
-0.044590969 0.0018029957 0.42000002
-0.043498423 0.0018029957 0.42000002
-0.042304911 0.0017987029 0.41900003
-0.041116599 0.0017944099 0.41800001
-0.040029254 0.0017944099 0.41800001
-0.03884875 0.0017901171 0.41700003
-0.037764005 0.0017901171 0.41700003
-0.03667926 0.0017901171 0.41700003
-0.035509158 0.0017858242 0.41600001
-0.034427017 0.0017858242 0.41600001
-0.033344876 0.0017858242 0.41600001
-0.032262735 0.0017858242 0.41600001
-0.031180592 0.0017858242 0.41600001
-0.030026101 0.0017815315 0.41500002
-0.02894656 0.0017815315 0.41500002
-0.027867017 0.0017815315 0.41500002
-0.02678748 0.0017815315 0.41500002
-0.02570794 0.0017815315 0.41500002
-0.024628399 0.0017815315 0.41500002
-0.023492115 0.0017772387 0.41400003
-0.022469318 0.0017815315 0.41500002
-0.021389777 0.0017815315 0.41500002
-0.020310236 0.0017815315 0.41500002
-0.019230695 0.0017815315 0.41500002
-0.018194893 0.0017858242 0.41600001
-0.017112752 0.0017858242 0.41600001
-0.01603061 0.0017858242 0.41600001
-0.014984404 0.0017901171 0.41700003
-0.01403299 0.0018072886 0.42100003
-0.013060766 0.0018244599 0.42500001
-0.012095862 0.0018459241 0.43000001
-0.0089840954 0.0018974383 0.44200003
-0.0078874938 0.0019103169 0.44500002
-0.0067601609 0.0019189026 0.44700003
-0.0055973791 0.0019189026 0.44700003
-0.0044345972 0.0019189026 0.44700003
-0.0032791344 0.0019231953 0.44800001
-0.0021137509 0.0019231953 0.44800001
-0.00094836764 0.0019231953 0.44800001
0.00021750007 0.0019274883 0.44900003
0.0013854848 0.0019274883 0.44900003
0.0025534693 0.0019274883 0.44900003
0.003729742 0.0019317811 0.45000002
0.0049003283 0.0019317811 0.45000002
0.0060709142 0.0019317811 0.45000002
0.0072415001 0.0019317811 0.45000002
0.0084120855 0.0019317811 0.45000002
0.0095826713 0.0019317811 0.45000002
0.010753258 0.0019317811 0.45000002
0.011923844 0.0019317811 0.45000002
0.01309443 0.0019317811 0.45000002
0.014265016 0.0019317811 0.45000002
0.015401301 0.0019274883 0.44900003
0.016606187 0.0019317811 0.45000002
0.017776774 0.0019317811 0.45000002
0.018947359 0.0019317811 0.45000002
0.020117944 0.0019317811 0.45000002
0.021288531 0.0019317811 0.45000002
0.022459118 0.0019317811 0.45000002
0.023629703 0.0019317811 0.45000002
0.024800289 0.0019317811 0.45000002
0.025970876 0.0019317811 0.45000002
0.027141459 0.0019317811 0.45000002
0.028312048 0.0019317811 0.45000002
0.029417116 0.0019274883 0.44900003
0.030585101 0.0019274883 0.44900003
0.031753086 0.0019274883 0.44900003
0.032921072 0.0019274883 0.44900003
0.034089055 0.0019274883 0.44900003
0.035257041 0.0019274883 0.44900003
0.036425024 0.0019274883 0.44900003
0.037593007 0.0019274883 0.44900003
0.038760994 0.0019274883 0.44900003
0.03992898 0.0019274883 0.44900003
0.041096963 0.0019274883 0.44900003
0.04226495 0.0019274883 0.44900003
0.043432932 0.0019274883 0.44900003
0.044600915 0.0019274883 0.44900003
0.045768902 0.0019274883 0.44900003
0.046936888 0.0019274883 0.44900003
0.048104871 0.0019274883 0.44900003
0.049382593 0.0019317811 0.45000002
0.05055318 0.0019317811 0.45000002
0.051723763 0.0019317811 0.45000002
0.05289435 0.0019317811 0.45000002
0.054064937 0.0019317811 0.45000002
0.055235524 0.0019317811 0.45000002
0.056406107 0.0019317811 0.45000002
0.057576697 0.0019317811 0.45000002
0.05874728 0.0019317811 0.45000002
0.059917871 0.0019317811 0.45000002
0.061088454 0.0019317811 0.45000002
0.062259037 0.0019317811 0.45000002
0.063429624 0.0019317811 0.45000002
0.064600207 0.0019317811 0.45000002
0.065770797 0.0019317811 0.45000002
0.066941381 0.0019317811 0.45000002
0.068111971 0.0019317811 0.45000002
0.069282554 0.0019317811 0.45000002
0.070453137 0.0019317811 0.45000002
0.071623728 0.0019317811 0.45000002
0.072794311 0.0019317811 0.45000002
0.073964901 0.0019317811 0.45000002
0.075135484 0.0019317811 0.45000002
0.076306075 0.0019317811 0.45000002
0.077476658 0.0019317811 0.45000002
0.078822017 0.001936074 0.45100003
0.079995207 0.001936074 0.45100003
0.081168391 0.001936074 0.45100003
0.082341582 0.001936074 0.45100003
0.083514765 0.001936074 0.45100003
0.084687948 0.001936074 0.45100003
0.085861139 0.001936074 0.45100003
0.087034322 0.001936074 0.45100003
0.088207513 0.001936074 0.45100003
0.089380704 0.001936074 0.45100003
0.090553895 0.001936074 0.45100003
0.091727078 0.001936074 0.45100003
0.092900261 0.001936074 0.45100003
0.094282039 0.0019403668 0.45200002
0.095246635 0.001936074 0.45100003
0.096633613 0.0019403668 0.45200002
0.097809404 0.0019403668 0.45200002
0.098985188 0.0019403668 0.45200002
0.10016098 0.0019403668 0.45200002
0.10133677 0.0019403668 0.45200002
0.10251256 0.0019403668 0.45200002
0.10368834 0.0019403668 0.45200002
0.10486414 0.0019403668 0.45200002
0.10603992 0.0019403668 0.45200002
0.10697851 0.001936074 0.45100003
0.1081517 0.001936074 0.45100003
0.10932489 0.001936074 0.45100003
0.11049808 0.001936074 0.45100003
0.11167126 0.001936074 0.45100003
0.11284444 0.001936074 0.45100003
0.11401763 0.001936074 0.45100003
0.11519083 0.001936074 0.45100003
0.11636401 0.001936074 0.45100003
0.11753719 0.001936074 0.45100003
0.11871038 0.001936074 0.45100003
0.11988357 0.001936074 0.45100003
0.12132518 0.0019403668 0.45200002
0.12250096 0.0019403668 0.45200002
0.12367675 0.0019403668 0.45200002
0.12485254 0.0019403668 0.45200002
0.12602833 0.0019403668 0.45200002
0.12720412 0.0019403668 0.45200002
0.12837991 0.0019403668 0.45200002
0.12955569 0.0019403668 0.45200002
0.13073148 0.0019403668 0.45200002
0.13190727 0.0019403668 0.45200002
0.13308306 0.0019403668 0.45200002
0.13455588 0.0019446596 0.45300001
0.13573426 0.0019446596 0.45300001
0.13691264 0.0019446596 0.45300001
0.13809106 0.0019446596 0.45300001
0.13926944 0.0019446596 0.45300001
0.14044783 0.0019446596 0.45300001
0.14162621 0.0019446596 0.45300001
0.14280461 0.0019446596 0.45300001
0.14398299 0.0019446596 0.45300001
0.14516139 0.0019446596 0.45300001
0.14633977 0.0019446596 0.45300001
0.14751816 0.0019446596 0.45300001
0.14869656 0.0019446596 0.45300001
0.14987494 0.0019446596 0.45300001
0.15105334 0.0019446596 0.45300001
0.15256777 0.0019489524 0.45400003
0.15374877 0.0019489524 0.45400003
0.15492977 0.0019489524 0.45400003
0.15611076 0.0019489524 0.45400003
0.15729174 0.0019489524 0.45400003
0.15847273 0.0019489524 0.45400003
0.15965372 0.0019489524 0.45400003
0.16083473 0.0019489524 0.45400003
0.16201571 0.0019489524 0.45400003
0.16283724 0.0019446596 0.45300001
0.16401562 0.0019446596 0.45300001
0.16519402 0.0019446596 0.45300001
0.1663724 0.0019446596 0.45300001
0.16755079 0.0019446596 0.45300001
0.16910166 0.0019489524 0.45400003
0.17028265 0.0019489524 0.45400003
0.17146365 0.0019489524 0.45400003
0.17302491 0.0019532454 0.45500001
0.17420849 0.0019532454 0.45500001
0.17539208 0.0019532454 0.45500001
0.17657568 0.0019532454 0.45500001
0.17775927 0.0019532454 0.45500001
0.17933616 0.0019575383 0.45600003
0.18012646 0.0019532454 0.45500001
0.18131004 0.0019532454 0.45500001
0.18249364 0.0019532454 0.45500001
0.18367724 0.0019532454 0.45500001
0.18486083 0.0019532454 0.45500001
0.18604441 0.0019532454 0.45500001
0.18722801 0.0019532454 0.45500001
0.18841159 0.0019532454 0.45500001
0.18959519 0.0019532454 0.45500001
0.19077879 0.0019532454 0.45500001
0.19196238 0.0019532454 0.45500001
0.19314598 0.0019532454 0.45500001
0.19432957 0.0019532454 0.45500001
0.19551316 0.0019532454 0.45500001
0.19669674 0.0019532454 0.45500001
0.19788034 0.0019532454 0.45500001
0.19906393 0.0019532454 0.45500001
0.20024753 0.0019532454 0.45500001
0.20143113 0.0019532454 0.45500001
0.20306003 0.0019575383 0.45600003
0.20424622 0.0019575383 0.45600003
0.20543242 0.0019575383 0.45600003
0.20661861 0.0019575383 0.45600003
0.20826051 0.001961831 0.45700002
0.20944931 0.001961831 0.45700002
0.21063809 0.001961831 0.45700002
0.21182689 0.001961831 0.45700002
0.21301569 0.001961831 0.45700002
0.21420449 0.001961831 0.45700002
0.21539328 0.001961831 0.45700002
0.21658207 0.001961831 0.45700002
0.21777087 0.001961831 0.45700002
0.21895967 0.001961831 0.45700002
-0.24587004 0.0030334257 0.44000003
-0.24528165 0.0030403198 0.44100001
-0.24413449 0.0030403198 0.44100001
-0.2429873 0.0030403198 0.44100001
-0.24184014 0.0030403198 0.44100001
-0.24069296 0.0030403198 0.44100001
-0.23954578 0.0030403198 0.44100001
-0.23893921 0.0030472141 0.44200003
-0.23778942 0.0030472141 0.44200003
-0.23663966 0.0030472141 0.44200003
-0.23602265 0.003054108 0.44300002
-0.23487027 0.003054108 0.44300002
-0.2337179 0.003054108 0.44300002
-0.23256552 0.003054108 0.44300002
-0.23141316 0.003054108 0.44300002
-0.23026077 0.003054108 0.44300002
-0.22910838 0.003054108 0.44300002
-0.22795603 0.003054108 0.44300002
-0.22680363 0.003054108 0.44300002
-0.22565128 0.003054108 0.44300002
-0.22449888 0.003054108 0.44300002
-0.2233465 0.003054108 0.44300002
-0.22219414 0.003054108 0.44300002
-0.22054279 0.0030472141 0.44200003
-0.21988937 0.003054108 0.44300002
-0.21873701 0.003054108 0.44300002
-0.21758462 0.003054108 0.44300002
-0.21643224 0.003054108 0.44300002
-0.21527986 0.003054108 0.44300002
-0.2141275 0.003054108 0.44300002
-0.21297511 0.003054108 0.44300002
-0.21182275 0.003054108 0.44300002
-0.21067037 0.003054108 0.44300002
-0.20951799 0.003054108 0.44300002
-0.20836562 0.003054108 0.44300002
-0.20674549 0.0030472141 0.44200003
-0.2055957 0.0030472141 0.44200003
-0.20444593 0.0030472141 0.44200003
-0.20329617 0.0030472141 0.44200003
-0.2021464 0.0030472141 0.44200003
-0.20054187 0.0030403198 0.44100001
-0.19984683 0.0030472141 0.44200003
-0.19824751 0.0030403198 0.44100001
-0.19710034 0.0030403198 0.44100001
-0.19639751 0.0030472141 0.44200003
-0.19524774 0.0030472141 0.44200003
-0.19409795 0.0030472141 0.44200003
-0.19294818 0.0030472141 0.44200003
-0.1917984 0.0030472141 0.44200003
-0.19064863 0.0030472141 0.44200003
-0.18949886 0.0030472141 0.44200003
-0.18834908 0.0030472141 0.44200003
-0.18719931 0.0030472141 0.44200003
-0.18604954 0.0030472141 0.44200003
-0.18489976 0.0030472141 0.44200003
-0.18374999 0.0030472141 0.44200003
-0.18301332 0.003054108 0.44300002
-0.18186094 0.003054108 0.44300002
-0.18070857 0.003054108 0.44300002
-0.17955619 0.003054108 0.44300002
-0.17840381 0.003054108 0.44300002
-0.17765155 0.0030610024 0.44400004
-0.17649658 0.0030610024 0.44400004
-0.17534161 0.0030610024 0.44400004
-0.17418663 0.0030610024 0.44400004
-0.17342135 0.0030678965 0.44500002
-0.17226377 0.0030678965 0.44500002
-0.17110619 0.0030678965 0.44500002
-0.16994862 0.0030678965 0.44500002
-0.16879104 0.0030678965 0.44500002
-0.16763344 0.0030678965 0.44500002
-0.16647588 0.0030678965 0.44500002
-0.1653183 0.0030678965 0.44500002
-0.16416073 0.0030678965 0.44500002
-0.16300315 0.0030678965 0.44500002
