# .PCD v0.7 - Point Cloud Data file format
VERSION 0.7
FIELDS x y z
SIZE 4 4 4
TYPE F F F
COUNT 1 1 1
WIDTH 1377
HEIGHT 1
VIEWPOINT 0 0 0 1 0 0 0
POINTS 1377
DATA ascii
-0.15505421 -0.14694335 0.42300001
-0.15431538 -0.14729074 0.42400002
-0.15320998 -0.14729074 0.42400002
-0.1521046 -0.14729074 0.42400002
-0.15135533 -0.14763811 0.42500001
-0.15024732 -0.14763811 0.42500001
-0.14913931 -0.14763811 0.42500001
-0.14803131 -0.14763811 0.42500001
-0.14692332 -0.14763811 0.42500001
-0.1458153 -0.14763811 0.42500001
-0.14470731 -0.14763811 0.42500001
-0.1435993 -0.14763811 0.42500001
-0.14249131 -0.14763811 0.42500001
-0.14171597 -0.1479855 0.42600003
-0.14060538 -0.1479855 0.42600003
-0.13949475 -0.1479855 0.42600003
-0.13838415 -0.1479855 0.42600003
-0.13727354 -0.1479855 0.42600003
-0.13616294 -0.1479855 0.42600003
-0.13536935 -0.14833289 0.42700002
-0.13425611 -0.14833289 0.42700002
-0.1331429 -0.14833289 0.42700002
-0.13202968 -0.14833289 0.42700002
-0.13122308 -0.14868027 0.42800003
-0.13010725 -0.14868027 0.42800003
-0.12929282 -0.14902766 0.42900002
-0.12817438 -0.14902766 0.42900002
-0.12735212 -0.14937504 0.43000001
-0.12623107 -0.14937504 0.43000001
-0.12511005 -0.14937504 0.43000001
-0.12398899 -0.14937504 0.43000001
-0.12315371 -0.14972243 0.43100002
-0.12203006 -0.14972243 0.43100002
-0.12118693 -0.1500698 0.43200001
-0.12006069 -0.1500698 0.43200001
-0.11893443 -0.1500698 0.43200001
-0.11808089 -0.15041719 0.43300003
-0.11695203 -0.15041719 0.43300003
-0.11582318 -0.15041719 0.43300003
-0.1149592 -0.15076457 0.43400002
-0.11382774 -0.15076457 0.43400002
-0.11269626 -0.15076457 0.43400002
-0.11182187 -0.15111196 0.43500003
-0.11068779 -0.15111196 0.43500003
-0.10955372 -0.15111196 0.43500003
-0.10841965 -0.15111196 0.43500003
-0.1075322 -0.15145934 0.43600002
-0.10639553 -0.15145934 0.43600002
-0.10525884 -0.15145934 0.43600002
-0.10412217 -0.15145934 0.43600002
-0.10298549 -0.15145934 0.43600002
-0.10184881 -0.15145934 0.43600002
-0.10071212 -0.15145934 0.43600002
-0.09980382 -0.15180673 0.43700001
-0.098664537 -0.15180673 0.43700001
-0.097525254 -0.15180673 0.43700001
-0.09660653 -0.15215412 0.43800002
-0.095464639 -0.15215412 0.43800002
-0.094322741 -0.15215412 0.43800002
-0.09318085 -0.15215412 0.43800002
-0.092249088 -0.15250149 0.43900001
-0.091104589 -0.15250149 0.43900001
-0.089960091 -0.15250149 0.43900001
-0.088815585 -0.15250149 0.43900001
-0.087671086 -0.15250149 0.43900001
-0.086723685 -0.15284888 0.44000003
-0.085576579 -0.15284888 0.44000003
-0.084429465 -0.15284888 0.44000003
-0.083282359 -0.15284888 0.44000003
-0.08232192 -0.15319626 0.44100001
-0.081172206 -0.15319626 0.44100001
-0.080022492 -0.15319626 0.44100001
-0.079051629 -0.15354365 0.44200003
-0.077899307 -0.15354365 0.44200003
-0.076920621 -0.15389103 0.44300002
-0.075765692 -0.15389103 0.44300002
-0.07477919 -0.15423842 0.44400004
-0.073621653 -0.15423842 0.44400004
-0.072464108 -0.15423842 0.44400004
-0.071467169 -0.15458579 0.44500002
-0.070307031 -0.15458579 0.44500002
-0.069146886 -0.15458579 0.44500002
-0.067986742 -0.15458579 0.44500002
-0.066976771 -0.15493317 0.44600001
-0.065814018 -0.15493317 0.44600001
-0.064651273 -0.15493317 0.44600001
-0.063488521 -0.15493317 0.44600001
-0.062325772 -0.15493317 0.44600001
-0.061163023 -0.15493317 0.44600001
-0.060134802 -0.15528056 0.44700003
-0.058969446 -0.15528056 0.44700003
-0.057804082 -0.15528056 0.44700003
-0.056638725 -0.15528056 0.44700003
-0.055597473 -0.15562795 0.44800001
-0.054429509 -0.15562795 0.44800001
-0.053261541 -0.15562795 0.44800001
-0.052209858 -0.15597534 0.44900003
-0.05103929 -0.15597534 0.44900003
-0.049868718 -0.15597534 0.44900003
-0.048806604 -0.15632272 0.45000002
-0.047633424 -0.15632272 0.45000002
-0.046460245 -0.15632272 0.45000002
-0.045387704 -0.15667011 0.45100003
-0.04421192 -0.15667011 0.45100003
-0.043036137 -0.15667011 0.45100003
-0.041953165 -0.15701748 0.45200002
-0.040774774 -0.15701748 0.45200002
-0.039596383 -0.15701748 0.45200002
-0.03850298 -0.15736486 0.45300001
-0.037321981 -0.15736486 0.45300001
-0.036220763 -0.15771225 0.45400003
-0.035037156 -0.15771225 0.45400003
-0.03385355 -0.15771225 0.45400003
-0.032669943 -0.15771225 0.45400003
-0.031555686 -0.15805963 0.45500001
-0.030369474 -0.15805963 0.45500001
-0.029183259 -0.15805963 0.45500001
-0.028058579 -0.15840702 0.45600003
-0.026869759 -0.15840702 0.45600003
-0.025680937 -0.15840702 0.45600003
-0.024492117 -0.15840702 0.45600003
-0.023303296 -0.15840702 0.45600003
-0.02216297 -0.15875441 0.45700002
-0.020971542 -0.15875441 0.45700002
-0.019780114 -0.15875441 0.45700002
-0.018588684 -0.15875441 0.45700002
-0.017397257 -0.15875441 0.45700002
-0.016241292 -0.15910178 0.45800003
-0.015047257 -0.15910178 0.45800003
-0.01385322 -0.15910178 0.45800003
-0.012686825 -0.15944918 0.45900002
-0.011490183 -0.15944918 0.45900002
-0.010315967 -0.15979655 0.46000001
-0.0091167176 -0.15979655 0.46000001
-0.0079174675 -0.15979655 0.46000001
-0.0067182188 -0.15979655 0.46000001
-0.0055309674 -0.16014394 0.46100003
-0.004329111 -0.16014394 0.46100003
-0.0031340383 -0.16049132 0.46200001
-0.0019295748 -0.16049132 0.46200001
-0.00072511134 -0.16049132 0.46200001
0.00047935205 -0.16049132 0.46200001
0.0016874601 -0.16083871 0.46300003
0.0028945308 -0.16083871 0.46300003
0.0041104602 -0.16118608 0.46400002
0.0053201374 -0.16118608 0.46400002
0.0065438878 -0.16153347 0.46500003
0.0077561731 -0.16153347 0.46500003
0.0089877443 -0.16188085 0.46600002
0.010202636 -0.16188085 0.46600002
0.011442029 -0.16222824 0.46700001
0.012659527 -0.16222824 0.46700001
0.013877026 -0.16222824 0.46700001
0.015094524 -0.16222824 0.46700001
0.016346952 -0.16257563 0.46800002
0.017567059 -0.16257563 0.46800002
0.018787164 -0.16257563 0.46800002
0.020007269 -0.16257563 0.46800002
0.021272734 -0.16292301 0.46900001
0.022495447 -0.16292301 0.46900001
0.02371816 -0.16292301 0.46900001
0.024940873 -0.16292301 0.46900001
0.026163585 -0.16292301 0.46900001
0.027386297 -0.16292301 0.46900001
0.028670013 -0.1632704 0.47000003
0.02989533 -0.1632704 0.47000003
0.031120652 -0.1632704 0.47000003
0.032345973 -0.1632704 0.47000003
0.03364272 -0.16361777 0.47100002
0.034870647 -0.16361777 0.47100002
0.036098573 -0.16361777 0.47100002
0.037405748 -0.16396517 0.47200003
0.038636286 -0.16396517 0.47200003
0.039951283 -0.16431254 0.47300002
0.041184422 -0.16431254 0.47300002
0.042417563 -0.16431254 0.47300002
0.043742992 -0.16465993 0.47400004
0.044978738 -0.16465993 0.47400004
0.046214487 -0.16465993 0.47400004
0.047450237 -0.16465993 0.47400004
0.048788697 -0.16500731 0.47500002
0.05002705 -0.16500731 0.47500002
0.051265407 -0.16500731 0.47500002
0.052614294 -0.16535468 0.47600001
0.053855255 -0.16535468 0.47600001
0.055211972 -0.16570207 0.47700003
0.056455541 -0.16570207 0.47700003
0.05769911 -0.16570207 0.47700003
0.059066247 -0.16604947 0.47800002
0.06031242 -0.16604947 0.47800002
0.061558597 -0.16604947 0.47800002
0.062936164 -0.16639686 0.47900003
0.064184949 -0.16639686 0.47900003
0.065433733 -0.16639686 0.47900003
0.066821724 -0.16674423 0.48000002
0.068073124 -0.16674423 0.48000002
0.069324516 -0.16674423 0.48000002
0.0705759 -0.16674423 0.48000002
0.071976937 -0.16709162 0.48100004
0.07323093 -0.16709162 0.48100004
0.074484929 -0.16709162 0.48100004
0.075738929 -0.16709162 0.48100004
0.07715299 -0.167439 0.48200002
0.078409597 -0.167439 0.48200002
0.079831481 -0.16778637 0.48300001
0.081090689 -0.16778637 0.48300001
0.082349904 -0.16778637 0.48300001
0.083609112 -0.16778637 0.48300001
0.085044049 -0.16813377 0.48400003
0.086305864 -0.16813377 0.48400003
0.087748602 -0.16848114 0.48500001
0.089013033 -0.16848114 0.48500001
0.090463594 -0.16882853 0.48600003
0.091730632 -0.16882853 0.48600003
0.093189016 -0.16917592 0.48700002
0.094458655 -0.16917592 0.48700002
0.095924862 -0.1695233 0.48800004
0.097197108 -0.1695233 0.48800004
0.098469354 -0.1695233 0.48800004
0.099945985 -0.16987069 0.48900002
0.10122084 -0.16987069 0.48900002
0.1024957 -0.16987069 0.48900002
0.10398276 -0.17021807 0.49000001
0.10526022 -0.17021807 0.49000001
0.10675512 -0.17056546 0.49100003
0.10803518 -0.17056546 0.49100003
0.10931525 -0.17056546 0.49100003
0.11059532 -0.17056546 0.49100003
0.11187539 -0.17056546 0.49100003
0.11338591 -0.17091283 0.49200001
0.11466858 -0.17091283 0.49200001
0.11595125 -0.17091283 0.49200001
0.11747222 -0.17126022 0.49300003
0.11875749 -0.17126022 0.49300003
0.12004279 -0.17126022 0.49300003
0.12157416 -0.1716076 0.49400002
0.12286206 -0.1716076 0.49400002
0.12440126 -0.17195499 0.49500003
0.12569176 -0.17195499 0.49500003
0.12698224 -0.17195499 0.49500003
0.12853189 -0.17230237 0.49600002
0.129825 -0.17230237 0.49600002
0.13138244 -0.17264976 0.49700001
0.13267815 -0.17264976 0.49700001
0.13397387 -0.17264976 0.49700001
0.13526958 -0.17264976 0.49700001
0.13684006 -0.17299715 0.49800003
0.13813838 -0.17299715 0.49800003
0.13971668 -0.17334452 0.49900001
0.14101762 -0.17334452 0.49900001
0.14231853 -0.17334452 0.49900001
0.14361946 -0.17334452 0.49900001
0.1452108 -0.1736919 0.5
0.14651434 -0.1736919 0.5
0.14781788 -0.1736919 0.5
0.14941967 -0.1740393 0.50100005
0.15072581 -0.1740393 0.50100005
0.15203194 -0.1740393 0.50100005
0.15333809 -0.1740393 0.50100005
0.15495288 -0.17438668 0.50200003
0.15626164 -0.17438668 0.50200003
0.15788426 -0.17473406 0.50300002
0.15919562 -0.17473406 0.50300002
0.16050696 -0.17473406 0.50300002
0.16214003 -0.17508143 0.50400001
0.16345397 -0.17508143 0.50400001
0.16476794 -0.17508143 0.50400001
0.16608191 -0.17508143 0.50400001
0.16772799 -0.17542882 0.505
0.16904457 -0.17542882 0.505
0.17036112 -0.17542882 0.505
0.17201766 -0.17577621 0.50600004
0.17333683 -0.17577621 0.50600004
0.17465602 -0.17577621 0.50600004
0.17597517 -0.17577621 0.50600004
0.17764474 -0.17612359 0.50700003
0.17896652 -0.17612359 0.50700003
0.1806439 -0.17647098 0.50800002
0.18196827 -0.17647098 0.50800002
0.18365347 -0.17681836 0.509
0.18498048 -0.17681836 0.509
0.18667351 -0.17716575 0.51000005
0.18800312 -0.17716575 0.51000005
0.18970396 -0.17751314 0.51100004
0.19103616 -0.17751314 0.51100004
0.19236837 -0.17751314 0.51100004
0.19407964 -0.17786051 0.51200002
0.19541445 -0.17786051 0.51200002
0.19674927 -0.17786051 0.51200002
0.19847097 -0.17820789 0.51300001
0.19980839 -0.17820789 0.51300001
0.20114581 -0.17820789 0.51300001
0.20287794 -0.17855527 0.514
0.20421797 -0.17855527 0.514
0.205558 -0.17855527 0.514
0.20730059 -0.17890267 0.51500005
0.20864321 -0.17890267 0.51500005
0.21039359 -0.17925005 0.51600003
0.21173882 -0.17925005 0.51600003
0.21308407 -0.17925005 0.51600003
0.21484487 -0.17959742 0.51700002
0.21619274 -0.17959742 0.51700002
0.21796134 -0.17994481 0.51800001
0.2193118 -0.17994481 0.51800001
0.22066227 -0.17994481 0.51800001
0.22201273 -0.17994481 0.51800001
0.22379442 -0.1802922 0.51900005
0.22514747 -0.1802922 0.51900005
0.22650054 -0.1802922 0.51900005
0.22829263 -0.18063959 0.52000004
0.22964831 -0.18063959 0.52000004
0.2314482 -0.18098697 0.52100003
0.23280649 -0.18098697 0.52100003
0.23461421 -0.18133435 0.52200001
0.2359751 -0.18133435 0.52200001
0.23779064 -0.18168172 0.523
0.23915415 -0.18168172 0.523
0.24097753 -0.18202913 0.52400005
0.24280612 -0.1823765 0.52500004
0.24417484 -0.1823765 0.52500004
0.24554354 -0.1823765 0.52500004
0.24738255 -0.18272388 0.52600002
0.24875386 -0.18272388 0.52600002
-0.22805552 -0.13860025 0.40200001
-0.22700749 -0.13860025 0.40200001
-0.22595946 -0.13860025 0.40200001
-0.22547092 -0.13894503 0.40300003
-0.22442025 -0.13894503 0.40300003
-0.22336961 -0.13894503 0.40300003
-0.22231898 -0.13894503 0.40300003
-0.22181736 -0.1392898 0.40400001
-0.2207641 -0.1392898 0.40400001
-0.21971086 -0.1392898 0.40400001
-0.21919885 -0.13963458 0.40500003
-0.21814297 -0.13963458 0.40500003
-0.21762313 -0.13997935 0.40600002
-0.21656467 -0.13997935 0.40600002
-0.21550621 -0.13997935 0.40600002
-0.21497591 -0.14032413 0.40700001
-0.21391484 -0.14032413 0.40700001
-0.21337676 -0.14066891 0.40800002
-0.21231309 -0.14066891 0.40800002
-0.2112494 -0.14066891 0.40800002
-0.21018572 -0.14066891 0.40800002
-0.20963459 -0.14101368 0.40900001
-0.20856827 -0.14101368 0.40900001
-0.20750199 -0.14101368 0.40900001
-0.20643571 -0.14101368 0.40900001
-0.20587157 -0.14135846 0.41000003
-0.20480266 -0.14135846 0.41000003
-0.20373376 -0.14135846 0.41000003
-0.20266487 -0.14135846 0.41000003
-0.20159598 -0.14135846 0.41000003
-0.20101617 -0.14170323 0.41100001
-0.19994466 -0.14170323 0.41100001
-0.19887315 -0.14170323 0.41100001
-0.19780165 -0.14170323 0.41100001
-0.19673014 -0.14170323 0.41100001
-0.19613472 -0.14204802 0.41200003
-0.1950606 -0.14204802 0.41200003
-0.19398649 -0.14204802 0.41200003
-0.19338061 -0.14239278 0.41300002
-0.1923039 -0.14239278 0.41300002
-0.19122717 -0.14239278 0.41300002
-0.19015045 -0.14239278 0.41300002
-0.18953155 -0.14273757 0.41400003
-0.18845223 -0.14273757 0.41400003
-0.18737289 -0.14273757 0.41400003
-0.18674354 -0.14308235 0.41500002
-0.18566163 -0.14308235 0.41500002
-0.18457969 -0.14308235 0.41500002
-0.18349776 -0.14308235 0.41500002
-0.18285538 -0.14342712 0.41600001
-0.18177085 -0.14342712 0.41600001
-0.1806863 -0.14342712 0.41600001
-0.1800335 -0.1437719 0.41700003
-0.17894636 -0.1437719 0.41700003
-0.17785922 -0.1437719 0.41700003
-0.17719598 -0.14411667 0.41800001
-0.17610623 -0.14411667 0.41800001
-0.17501648 -0.14411667 0.41800001
-0.17392671 -0.14411667 0.41800001
-0.17283697 -0.14411667 0.41800001
-0.17174721 -0.14411667 0.41800001
-0.17106575 -0.14446145 0.41900003
-0.16997337 -0.14446145 0.41900003
-0.16888103 -0.14446145 0.41900003
-0.16818911 -0.14480622 0.42000002
-0.16709414 -0.14480622 0.42000002
-0.16599917 -0.14480622 0.42000002
-0.16490421 -0.14480622 0.42000002
-0.16380924 -0.14480622 0.42000002
-0.1631017 -0.145151 0.42100003
-0.16200411 -0.145151 0.42100003
-0.16090654 -0.145151 0.42100003
-0.16018856 -0.14549579 0.42200002
-0.15908837 -0.14549579 0.42200002
-0.15798821 -0.14549579 0.42200002
-0.15725978 -0.14584056 0.42300001
-0.156157 -0.14584056 0.42300001
-0.15505421 -0.14584056 0.42300001
-0.15431538 -0.14618534 0.42400002
-0.15320998 -0.14618534 0.42400002
-0.1521046 -0.14618534 0.42400002
-0.15135533 -0.14653011 0.42500001
-0.15024732 -0.14653011 0.42500001
-0.14913931 -0.14653011 0.42500001
-0.14803131 -0.14653011 0.42500001
-0.14692332 -0.14653011 0.42500001
-0.1458153 -0.14653011 0.42500001
-0.14470731 -0.14653011 0.42500001
-0.1435993 -0.14653011 0.42500001
-0.14249131 -0.14653011 0.42500001
-0.14171597 -0.14687489 0.42600003
-0.14060538 -0.14687489 0.42600003
-0.13949475 -0.14687489 0.42600003
-0.13838415 -0.14687489 0.42600003
-0.13727354 -0.14687489 0.42600003
-0.13616294 -0.14687489 0.42600003
-0.13536935 -0.14721966 0.42700002
-0.13425611 -0.14721966 0.42700002
-0.1331429 -0.14721966 0.42700002
-0.13202968 -0.14721966 0.42700002
-0.13122308 -0.14756444 0.42800003
-0.13010725 -0.14756444 0.42800003
-0.12929282 -0.14790922 0.42900002
-0.12817438 -0.14790922 0.42900002
-0.12735212 -0.14825399 0.43000001
-0.12623107 -0.14825399 0.43000001
-0.12511005 -0.14825399 0.43000001
-0.12398899 -0.14825399 0.43000001
-0.12315371 -0.14859878 0.43100002
-0.12203006 -0.14859878 0.43100002
-0.12118693 -0.14894354 0.43200001
-0.12006069 -0.14894354 0.43200001
-0.11893443 -0.14894354 0.43200001
-0.11808089 -0.14928833 0.43300003
-0.11695203 -0.14928833 0.43300003
-0.11582318 -0.14928833 0.43300003
-0.1149592 -0.14963309 0.43400002
-0.11382774 -0.14963309 0.43400002
-0.11269626 -0.14963309 0.43400002
-0.11182187 -0.14997788 0.43500003
-0.11068779 -0.14997788 0.43500003
-0.10955372 -0.14997788 0.43500003
-0.10841965 -0.14997788 0.43500003
-0.1075322 -0.15032266 0.43600002
-0.10639553 -0.15032266 0.43600002
-0.10525884 -0.15032266 0.43600002
-0.10412217 -0.15032266 0.43600002
-0.10298549 -0.15032266 0.43600002
-0.10184881 -0.15032266 0.43600002
-0.10071212 -0.15032266 0.43600002
-0.09980382 -0.15066743 0.43700001
-0.098664537 -0.15066743 0.43700001
-0.097525254 -0.15066743 0.43700001
-0.09660653 -0.15101221 0.43800002
-0.095464639 -0.15101221 0.43800002
-0.094322741 -0.15101221 0.43800002
-0.09318085 -0.15101221 0.43800002
-0.092249088 -0.15135698 0.43900001
-0.091104589 -0.15135698 0.43900001
-0.089960091 -0.15135698 0.43900001
-0.088815585 -0.15135698 0.43900001
-0.087870799 -0.15170176 0.44000003
-0.086723685 -0.15170176 0.44000003
-0.085576579 -0.15170176 0.44000003
-0.084429465 -0.15170176 0.44000003
-0.083282359 -0.15170176 0.44000003
-0.08232192 -0.15204653 0.44100001
-0.081172206 -0.15204653 0.44100001
-0.080022492 -0.15204653 0.44100001
-0.079051629 -0.15239131 0.44200003
-0.077899307 -0.15239131 0.44200003
-0.076920621 -0.1527361 0.44300002
-0.075765692 -0.1527361 0.44300002
-0.07477919 -0.15308088 0.44400004
-0.073621653 -0.15308088 0.44400004
-0.072464108 -0.15308088 0.44400004
-0.071467169 -0.15342565 0.44500002
-0.070307031 -0.15342565 0.44500002
-0.069146886 -0.15342565 0.44500002
-0.067986742 -0.15342565 0.44500002
-0.066826604 -0.15342565 0.44500002
-0.065814018 -0.15377042 0.44600001
-0.064651273 -0.15377042 0.44600001
-0.063488521 -0.15377042 0.44600001
-0.062325772 -0.15377042 0.44600001
-0.061300162 -0.1541152 0.44700003
-0.060134802 -0.1541152 0.44700003
-0.058969446 -0.1541152 0.44700003
-0.057804082 -0.1541152 0.44700003
-0.056638725 -0.1541152 0.44700003
-0.055597473 -0.15445997 0.44800001
-0.054429509 -0.15445997 0.44800001
-0.053261541 -0.15445997 0.44800001
-0.052209858 -0.15480475 0.44900003
-0.05103929 -0.15480475 0.44900003
-0.049868718 -0.15480475 0.44900003
-0.048698146 -0.15480475 0.44900003
-0.047633424 -0.15514953 0.45000002
-0.046460245 -0.15514953 0.45000002
-0.045387704 -0.15549432 0.45100003
-0.04421192 -0.15549432 0.45100003
-0.043036137 -0.15549432 0.45100003
-0.041860349 -0.15549432 0.45100003
-0.040774774 -0.15583909 0.45200002
-0.039596383 -0.15583909 0.45200002
-0.038417984 -0.15583909 0.45200002
-0.037321981 -0.15618385 0.45300001
-0.036140982 -0.15618385 0.45300001
-0.035037156 -0.15652864 0.45400003
-0.03385355 -0.15652864 0.45400003
-0.032669943 -0.15652864 0.45400003
-0.031555686 -0.1568734 0.45500001
-0.030369474 -0.1568734 0.45500001
-0.029183259 -0.1568734 0.45500001
-0.027997047 -0.1568734 0.45500001
-0.026869759 -0.15721819 0.45600003
-0.025680937 -0.15721819 0.45600003
-0.024492117 -0.15721819 0.45600003
-0.023303296 -0.15721819 0.45600003
-0.02216297 -0.15756297 0.45700002
-0.020971542 -0.15756297 0.45700002
-0.019780114 -0.15756297 0.45700002
-0.018588684 -0.15756297 0.45700002
-0.017435327 -0.15790775 0.45800003
-0.016241292 -0.15790775 0.45800003
-0.015047257 -0.15790775 0.45800003
-0.01385322 -0.15790775 0.45800003
-0.012686825 -0.15825252 0.45900002
-0.011490183 -0.15825252 0.45900002
-0.010315967 -0.15859729 0.46000001
-0.0091167176 -0.15859729 0.46000001
-0.0079174675 -0.15859729 0.46000001
-0.0067182188 -0.15859729 0.46000001
-0.0055309674 -0.15894207 0.46100003
-0.004329111 -0.15894207 0.46100003
-0.0031340383 -0.15928684 0.46200001
-0.0019295748 -0.15928684 0.46200001
-0.00072511134 -0.15928684 0.46200001
0.00047935205 -0.15928684 0.46200001
0.0016874601 -0.15963162 0.46300003
0.0028945308 -0.15963162 0.46300003
0.0041104602 -0.15997641 0.46400002
0.0053201374 -0.15997641 0.46400002
0.0065438878 -0.16032119 0.46500003
0.0077561731 -0.16032119 0.46500003
0.0089877443 -0.16066596 0.46600002
0.010202636 -0.16066596 0.46600002
0.011417528 -0.16066596 0.46600002
0.012659527 -0.16101073 0.46700001
0.013877026 -0.16101073 0.46700001
0.015094524 -0.16101073 0.46700001
0.016346952 -0.16135551 0.46800002
0.017567059 -0.16135551 0.46800002
0.018787164 -0.16135551 0.46800002
0.020007269 -0.16135551 0.46800002
0.021272734 -0.16170028 0.46900001
0.022495447 -0.16170028 0.46900001
0.02371816 -0.16170028 0.46900001
0.024940873 -0.16170028 0.46900001
0.026163585 -0.16170028 0.46900001
0.027386297 -0.16170028 0.46900001
0.028670013 -0.16204506 0.47000003
0.02989533 -0.16204506 0.47000003
0.031120652 -0.16204506 0.47000003
0.032414794 -0.16238984 0.47100002
0.03364272 -0.16238984 0.47100002
0.034870647 -0.16238984 0.47100002
0.036098573 -0.16238984 0.47100002
0.037405748 -0.16273463 0.47200003
0.038636286 -0.16273463 0.47200003
0.039951283 -0.1630794 0.47300002
0.041184422 -0.1630794 0.47300002
0.042417563 -0.1630794 0.47300002
0.043742992 -0.16342418 0.47400004
0.044978738 -0.16342418 0.47400004
0.046214487 -0.16342418 0.47400004
0.047450237 -0.16342418 0.47400004
0.048788697 -0.16376895 0.47500002
0.05002705 -0.16376895 0.47500002
0.051265407 -0.16376895 0.47500002
0.052614294 -0.16411372 0.47600001
0.053855255 -0.16411372 0.47600001
0.055211972 -0.1644585 0.47700003
0.056455541 -0.1644585 0.47700003
0.05769911 -0.1644585 0.47700003
0.059066247 -0.16480328 0.47800002
0.06031242 -0.16480328 0.47800002
0.061558597 -0.16480328 0.47800002
0.062936164 -0.16514806 0.47900003
0.064184949 -0.16514806 0.47900003
0.065570332 -0.16549283 0.48000002
0.066821724 -0.16549283 0.48000002
0.068073124 -0.16549283 0.48000002
0.069324516 -0.16549283 0.48000002
0.070722938 -0.16583762 0.48100004
0.071976937 -0.16583762 0.48100004
0.07323093 -0.16583762 0.48100004
0.074484929 -0.16583762 0.48100004
0.075738929 -0.16583762 0.48100004
0.07715299 -0.16618238 0.48200002
0.078409597 -0.16618238 0.48200002
0.079831481 -0.16652715 0.48300001
0.081090689 -0.16652715 0.48300001
0.082349904 -0.16652715 0.48300001
0.083782218 -0.16687194 0.48400003
0.085044049 -0.16687194 0.48400003
0.086305864 -0.16687194 0.48400003
0.087748602 -0.16721672 0.48500001
0.089013033 -0.16721672 0.48500001
0.090463594 -0.1675615 0.48600003
0.091730632 -0.1675615 0.48600003
0.092997663 -0.1675615 0.48600003
0.094458655 -0.16790627 0.48700002
0.095924862 -0.16825105 0.48800004
0.097197108 -0.16825105 0.48800004
0.098469354 -0.16825105 0.48800004
0.099945985 -0.16859582 0.48900002
0.10122084 -0.16859582 0.48900002
0.1024957 -0.16859582 0.48900002
0.10398276 -0.16894059 0.49000001
0.10526022 -0.16894059 0.49000001
0.10675512 -0.16928537 0.49100003
0.10803518 -0.16928537 0.49100003
0.10931525 -0.16928537 0.49100003
0.11059532 -0.16928537 0.49100003
0.11210323 -0.16963015 0.49200001
0.11338591 -0.16963015 0.49200001
0.11466858 -0.16963015 0.49200001
0.11595125 -0.16963015 0.49200001
0.11747222 -0.16997494 0.49300003
0.11875749 -0.16997494 0.49300003
0.12004279 -0.16997494 0.49300003
0.12157416 -0.17031971 0.49400002
0.12311077 -0.17066449 0.49500003
0.12440126 -0.17066449 0.49500003
0.12569176 -0.17066449 0.49500003
0.12698224 -0.17066449 0.49500003
0.12853189 -0.17100926 0.49600002
0.129825 -0.17100926 0.49600002
0.13138244 -0.17135403 0.49700001
0.13267815 -0.17135403 0.49700001
0.13397387 -0.17135403 0.49700001
0.13554175 -0.17169881 0.49800003
0.13684006 -0.17169881 0.49800003
0.13813838 -0.17169881 0.49800003
0.13971668 -0.17204359 0.49900001
0.14101762 -0.17204359 0.49900001
0.14231853 -0.17204359 0.49900001
0.14361946 -0.17204359 0.49900001
0.1452108 -0.17238836 0.5
0.14651434 -0.17238836 0.5
0.14811353 -0.17273316 0.50100005
0.14941967 -0.17273316 0.50100005
0.15072581 -0.17273316 0.50100005
0.15203194 -0.17273316 0.50100005
0.15364414 -0.17307793 0.50200003
0.15495288 -0.17307793 0.50200003
0.15626164 -0.17307793 0.50200003
0.15788426 -0.17342269 0.50300002
0.15919562 -0.17342269 0.50300002
0.16082606 -0.17376746 0.50400001
0.16214003 -0.17376746 0.50400001
0.16345397 -0.17376746 0.50400001
0.16476794 -0.17376746 0.50400001
0.16608191 -0.17376746 0.50400001
0.16772799 -0.17411225 0.505
0.16904457 -0.17411225 0.505
0.17036112 -0.17411225 0.505
0.17201766 -0.17445703 0.50600004
0.17333683 -0.17445703 0.50600004
0.17465602 -0.17445703 0.50600004
0.17597517 -0.17445703 0.50600004
0.17764474 -0.17480181 0.50700003
0.17896652 -0.17480181 0.50700003
0.1806439 -0.17514658 0.50800002
0.18232648 -0.17549135 0.509
0.18365347 -0.17549135 0.509
0.18498048 -0.17549135 0.509
0.18667351 -0.17583615 0.51000005
0.18800312 -0.17583615 0.51000005
0.18970396 -0.17618091 0.51100004
0.19103616 -0.17618091 0.51100004
0.19236837 -0.17618091 0.51100004
0.19407964 -0.17652568 0.51200002
0.19541445 -0.17652568 0.51200002
0.19674927 -0.17652568 0.51200002
0.19847097 -0.17687047 0.51300001
0.19980839 -0.17687047 0.51300001
0.20153791 -0.17721523 0.514
0.20287794 -0.17721523 0.514
0.20421797 -0.17721523 0.514
0.20595793 -0.17756003 0.51500005
0.20730059 -0.17756003 0.51500005
0.20864321 -0.17756003 0.51500005
0.21039359 -0.1779048 0.51600003
0.21173882 -0.1779048 0.51600003
0.21349703 -0.17824957 0.51700002
0.21484487 -0.17824957 0.51700002
0.21619274 -0.17824957 0.51700002
0.21754058 -0.17824957 0.51700002
0.2193118 -0.17859434 0.51800001
0.22066227 -0.17859434 0.51800001
0.22201273 -0.17859434 0.51800001
0.22379442 -0.17893913 0.51900005
0.22514747 -0.17893913 0.51900005
0.22650054 -0.17893913 0.51900005
0.22829263 -0.1792839 0.52000004
0.22964831 -0.1792839 0.52000004
0.2314482 -0.17962869 0.52100003
0.23280649 -0.17962869 0.52100003
0.23461421 -0.17997345 0.52200001
0.2359751 -0.17997345 0.52200001
0.23779064 -0.18031822 0.523
0.23915415 -0.18031822 0.523
0.24097753 -0.18066302 0.52400005
0.24234363 -0.18066302 0.52400005
0.24417484 -0.18100779 0.52500004
0.24554354 -0.18100779 0.52500004
0.24691226 -0.18100779 0.52500004
0.24875386 -0.18135256 0.52600002
-0.22805552 -0.13755222 0.40200001
-0.22700749 -0.13755222 0.40200001
-0.22595946 -0.13755222 0.40200001
-0.22547092 -0.13789439 0.40300003
-0.22442025 -0.13789439 0.40300003
-0.22336961 -0.13789439 0.40300003
-0.22231898 -0.13789439 0.40300003
-0.22181736 -0.13823655 0.40400001
-0.2207641 -0.13823655 0.40400001
-0.21971086 -0.13823655 0.40400001
-0.21919885 -0.13857873 0.40500003
-0.21814297 -0.13857873 0.40500003
-0.21762313 -0.13892089 0.40600002
-0.21656467 -0.13892089 0.40600002
-0.21550621 -0.13892089 0.40600002
-0.21497591 -0.13926306 0.40700001
-0.21391484 -0.13926306 0.40700001
-0.21337676 -0.13960524 0.40800002
-0.21231309 -0.13960524 0.40800002
-0.2112494 -0.13960524 0.40800002
-0.21018572 -0.13960524 0.40800002
-0.20963459 -0.1399474 0.40900001
-0.20856827 -0.1399474 0.40900001
-0.20750199 -0.1399474 0.40900001
-0.20643571 -0.1399474 0.40900001
-0.20536943 -0.1399474 0.40900001
-0.20480266 -0.14028957 0.41000003
-0.20373376 -0.14028957 0.41000003
-0.20266487 -0.14028957 0.41000003
-0.20159598 -0.14028957 0.41000003
-0.20052709 -0.14028957 0.41000003
-0.19994466 -0.14063174 0.41100001
-0.19887315 -0.14063174 0.41100001
-0.19780165 -0.14063174 0.41100001
-0.19720881 -0.14097391 0.41200003
-0.19613472 -0.14097391 0.41200003
-0.1950606 -0.14097391 0.41200003
-0.19445732 -0.14131609 0.41300002
-0.19338061 -0.14131609 0.41300002
-0.1923039 -0.14131609 0.41300002
-0.19122717 -0.14131609 0.41300002
-0.19015045 -0.14131609 0.41300002
-0.18953155 -0.14165826 0.41400003
-0.18845223 -0.14165826 0.41400003
-0.18737289 -0.14165826 0.41400003
-0.18674354 -0.14200042 0.41500002
-0.18566163 -0.14200042 0.41500002
-0.18457969 -0.14200042 0.41500002
-0.18393992 -0.14234258 0.41600001
-0.18285538 -0.14234258 0.41600001
-0.18177085 -0.14234258 0.41600001
-0.1806863 -0.14234258 0.41600001
-0.1800335 -0.14268476 0.41700003
-0.17894636 -0.14268476 0.41700003
-0.17785922 -0.14268476 0.41700003
-0.17719598 -0.14302693 0.41800001
-0.17610623 -0.14302693 0.41800001
-0.17501648 -0.14302693 0.41800001
-0.17392671 -0.14302693 0.41800001
-0.17283697 -0.14302693 0.41800001
-0.17174721 -0.14302693 0.41800001
-0.17106575 -0.14336911 0.41900003
-0.16997337 -0.14336911 0.41900003
-0.16888103 -0.14336911 0.41900003
-0.16818911 -0.14371127 0.42000002
-0.16709414 -0.14371127 0.42000002
-0.16599917 -0.14371127 0.42000002
-0.16490421 -0.14371127 0.42000002
-0.16380924 -0.14371127 0.42000002
-0.1631017 -0.14405344 0.42100003
-0.16200411 -0.14405344 0.42100003
-0.16090654 -0.14405344 0.42100003
-0.16018856 -0.1443956 0.42200002
-0.15908837 -0.1443956 0.42200002
-0.15798821 -0.1443956 0.42200002
-0.15725978 -0.14473778 0.42300001
-0.156157 -0.14473778 0.42300001
-0.15505421 -0.14473778 0.42300001
-0.15431538 -0.14507996 0.42400002
-0.15320998 -0.14507996 0.42400002
-0.1521046 -0.14507996 0.42400002
-0.15135533 -0.14542212 0.42500001
-0.15024732 -0.14542212 0.42500001
-0.14913931 -0.14542212 0.42500001
-0.14803131 -0.14542212 0.42500001
-0.14692332 -0.14542212 0.42500001
-0.1458153 -0.14542212 0.42500001
-0.14470731 -0.14542212 0.42500001
-0.1435993 -0.14542212 0.42500001
-0.14249131 -0.14542212 0.42500001
-0.14171597 -0.14576429 0.42600003
-0.14060538 -0.14576429 0.42600003
-0.13949475 -0.14576429 0.42600003
-0.13838415 -0.14576429 0.42600003
-0.13727354 -0.14576429 0.42600003
-0.13616294 -0.14576429 0.42600003
-0.13536935 -0.14610645 0.42700002
-0.13425611 -0.14610645 0.42700002
-0.1331429 -0.14610645 0.42700002
-0.13202968 -0.14610645 0.42700002
-0.13122308 -0.14644863 0.42800003
-0.13010725 -0.14644863 0.42800003
-0.12929282 -0.1467908 0.42900002
-0.12817438 -0.1467908 0.42900002
-0.12735212 -0.14713296 0.43000001
-0.12623107 -0.14713296 0.43000001
-0.12511005 -0.14713296 0.43000001
-0.12398899 -0.14713296 0.43000001
-0.12315371 -0.14747514 0.43100002
-0.12203006 -0.14747514 0.43100002
-0.12090641 -0.14747514 0.43100002
-0.12006069 -0.1478173 0.43200001
-0.11893443 -0.1478173 0.43200001
-0.11808089 -0.14815947 0.43300003
-0.11695203 -0.14815947 0.43300003
-0.11582318 -0.14815947 0.43300003
-0.1149592 -0.14850165 0.43400002
-0.11382774 -0.14850165 0.43400002
-0.11269626 -0.14850165 0.43400002
-0.11182187 -0.14884382 0.43500003
-0.11068779 -0.14884382 0.43500003
-0.10955372 -0.14884382 0.43500003
-0.10841965 -0.14884382 0.43500003
-0.10728557 -0.14884382 0.43500003
-0.10639553 -0.14918599 0.43600002
-0.10525884 -0.14918599 0.43600002
-0.10412217 -0.14918599 0.43600002
-0.10298549 -0.14918599 0.43600002
-0.10184881 -0.14918599 0.43600002
-0.10071212 -0.14918599 0.43600002
-0.099575445 -0.14918599 0.43600002
-0.098664537 -0.14952815 0.43700001
-0.097525254 -0.14952815 0.43700001
-0.096385963 -0.14952815 0.43700001
-0.095464639 -0.14987032 0.43800002
-0.094322741 -0.14987032 0.43800002
-0.09318085 -0.14987032 0.43800002
-0.092038959 -0.14987032 0.43800002
-0.091104589 -0.1502125 0.43900001
-0.089960091 -0.1502125 0.43900001
-0.088815585 -0.1502125 0.43900001
-0.087870799 -0.15055467 0.44000003
-0.086723685 -0.15055467 0.44000003
-0.085576579 -0.15055467 0.44000003
-0.084429465 -0.15055467 0.44000003
-0.083282359 -0.15055467 0.44000003
-0.08232192 -0.15089683 0.44100001
-0.081172206 -0.15089683 0.44100001
-0.08020395 -0.15123901 0.44200003
-0.079051629 -0.15123901 0.44200003
-0.077899307 -0.15123901 0.44200003
-0.076920621 -0.15158117 0.44300002
-0.075765692 -0.15158117 0.44300002
-0.07477919 -0.15192334 0.44400004
-0.073621653 -0.15192334 0.44400004
-0.072464108 -0.15192334 0.44400004
-0.071306571 -0.15192334 0.44400004
-0.070307031 -0.15226552 0.44500002
-0.069146886 -0.15226552 0.44500002
-0.067986742 -0.15226552 0.44500002
-0.066826604 -0.15226552 0.44500002
-0.065814018 -0.15260768 0.44600001
-0.064651273 -0.15260768 0.44600001
-0.063488521 -0.15260768 0.44600001
-0.062325772 -0.15260768 0.44600001
-0.061300162 -0.15294985 0.44700003
-0.060134802 -0.15294985 0.44700003
-0.058969446 -0.15294985 0.44700003
-0.057804082 -0.15294985 0.44700003
-0.056765433 -0.15329202 0.44800001
-0.055597473 -0.15329202 0.44800001
-0.054429509 -0.15329202 0.44800001
-0.053261541 -0.15329202 0.44800001
-0.052209858 -0.15363419 0.44900003
-0.05103929 -0.15363419 0.44900003
-0.049868718 -0.15363419 0.44900003
-0.048698146 -0.15363419 0.44900003
-0.047633424 -0.15397637 0.45000002
-0.046460245 -0.15397637 0.45000002
-0.045287065 -0.15397637 0.45000002
-0.044113889 -0.15397637 0.45000002
-0.043036137 -0.15431854 0.45100003
-0.041860349 -0.15431854 0.45100003
-0.040774774 -0.1546607 0.45200002
-0.039596383 -0.1546607 0.45200002
-0.038417984 -0.1546607 0.45200002
-0.037321981 -0.15500286 0.45300001
-0.036140982 -0.15500286 0.45300001
-0.035037156 -0.15534504 0.45400003
-0.03385355 -0.15534504 0.45400003
-0.032669943 -0.15534504 0.45400003
-0.031555686 -0.1556872 0.45500001
-0.030369474 -0.1556872 0.45500001
-0.029183259 -0.1556872 0.45500001
-0.027997047 -0.1556872 0.45500001
-0.026869759 -0.15602937 0.45600003
-0.025680937 -0.15602937 0.45600003
-0.024492117 -0.15602937 0.45600003
-0.023303296 -0.15602937 0.45600003
-0.02216297 -0.15637155 0.45700002
-0.020971542 -0.15637155 0.45700002
-0.019780114 -0.15637155 0.45700002
-0.018629361 -0.15671372 0.45800003
-0.017435327 -0.15671372 0.45800003
-0.016241292 -0.15671372 0.45800003
-0.015047257 -0.15671372 0.45800003
-0.013883467 -0.15705588 0.45900002
-0.012686825 -0.15705588 0.45900002
-0.011490183 -0.15705588 0.45900002
-0.010315967 -0.15739805 0.46000001
-0.0091167176 -0.15739805 0.46000001
-0.0079174675 -0.15739805 0.46000001
-0.0067328238 -0.15774022 0.46100003
-0.0055309674 -0.15774022 0.46100003
-0.004329111 -0.15774022 0.46100003
-0.0031340383 -0.1580824 0.46200001
-0.0019295748 -0.1580824 0.46200001
-0.00072511134 -0.1580824 0.46200001
0.00048038963 -0.15842457 0.46300003
0.0016874601 -0.15842457 0.46300003
0.0028945308 -0.15842457 0.46300003
0.0041104602 -0.15876673 0.46400002
0.0053201374 -0.15876673 0.46400002
0.0065438878 -0.15910891 0.46500003
0.0077561731 -0.15910891 0.46500003
0.0089877443 -0.15945107 0.46600002
0.010202636 -0.15945107 0.46600002
0.011417528 -0.15945107 0.46600002
0.012659527 -0.15979324 0.46700001
0.013877026 -0.15979324 0.46700001
0.015094524 -0.15979324 0.46700001
0.016346952 -0.16013542 0.46800002
0.017567059 -0.16013542 0.46800002
0.018787164 -0.16013542 0.46800002
0.020007269 -0.16013542 0.46800002
0.021272734 -0.16047758 0.46900001
0.022495447 -0.16047758 0.46900001
0.02371816 -0.16047758 0.46900001
0.024940873 -0.16047758 0.46900001
0.026163585 -0.16047758 0.46900001
0.02744469 -0.16081975 0.47000003
0.028670013 -0.16081975 0.47000003
0.02989533 -0.16081975 0.47000003
0.031120652 -0.16081975 0.47000003
0.032414794 -0.16116191 0.47100002
0.03364272 -0.16116191 0.47100002
0.034870647 -0.16116191 0.47100002
0.036175217 -0.16150409 0.47200003
0.037405748 -0.16150409 0.47200003
0.038636286 -0.16150409 0.47200003
0.039951283 -0.16184627 0.47300002
0.041184422 -0.16184627 0.47300002
0.042417563 -0.16184627 0.47300002
0.043742992 -0.16218844 0.47400004
0.044978738 -0.16218844 0.47400004
0.046214487 -0.16218844 0.47400004
0.047450237 -0.16218844 0.47400004
0.048788697 -0.1625306 0.47500002
0.05002705 -0.1625306 0.47500002
0.051265407 -0.1625306 0.47500002
0.052614294 -0.16287276 0.47600001
0.0539684 -0.16321494 0.47700003
0.055211972 -0.16321494 0.47700003
0.056455541 -0.16321494 0.47700003
0.05769911 -0.16321494 0.47700003
0.059066247 -0.16355711 0.47800002
0.06031242 -0.16355711 0.47800002
0.061558597 -0.16355711 0.47800002
0.062936164 -0.16389929 0.47900003
0.064184949 -0.16389929 0.47900003
0.065570332 -0.16424145 0.48000002
0.066821724 -0.16424145 0.48000002
0.068073124 -0.16424145 0.48000002
0.069324516 -0.16424145 0.48000002
0.070722938 -0.16458362 0.48100004
0.071976937 -0.16458362 0.48100004
0.07323093 -0.16458362 0.48100004
0.074484929 -0.16458362 0.48100004
0.07589639 -0.16492578 0.48200002
0.07715299 -0.16492578 0.48200002
0.078409597 -0.16492578 0.48200002
0.079831481 -0.16526796 0.48300001
0.081090689 -0.16526796 0.48300001
0.082349904 -0.16526796 0.48300001
0.083782218 -0.16561013 0.48400003
0.085044049 -0.16561013 0.48400003
0.086305864 -0.16561013 0.48400003
0.08756768 -0.16561013 0.48400003
0.089013033 -0.1659523 0.48500001
0.090463594 -0.16629447 0.48600003
0.091730632 -0.16629447 0.48600003
0.092997663 -0.16629447 0.48600003
0.094458655 -0.16663663 0.48700002
0.095924862 -0.16697881 0.48800004
0.097197108 -0.16697881 0.48800004
0.098671131 -0.16732098 0.48900002
0.099945985 -0.16732098 0.48900002
0.10122084 -0.16732098 0.48900002
0.1027053 -0.16766314 0.49000001
0.10398276 -0.16766314 0.49000001
0.10547505 -0.16800532 0.49100003
0.10675512 -0.16800532 0.49100003
0.10803518 -0.16800532 0.49100003
0.10931525 -0.16800532 0.49100003
0.11082055 -0.16834748 0.49200001
0.11210323 -0.16834748 0.49200001
0.11338591 -0.16834748 0.49200001
0.11466858 -0.16834748 0.49200001
0.11618693 -0.16868965 0.49300003
0.11747222 -0.16868965 0.49300003
0.11875749 -0.16868965 0.49300003
0.12028628 -0.16903183 0.49400002
0.12157416 -0.16903183 0.49400002
0.12311077 -0.169374 0.49500003
0.12440126 -0.169374 0.49500003
0.12569176 -0.169374 0.49500003
0.12723878 -0.16971616 0.49600002
0.12853189 -0.16971616 0.49600002
0.13008673 -0.17005832 0.49700001
0.13138244 -0.17005832 0.49700001
0.13267815 -0.17005832 0.49700001
0.13397387 -0.17005832 0.49700001
0.13554175 -0.1704005 0.49800003
0.13684006 -0.1704005 0.49800003
0.13841577 -0.17074268 0.49900001
0.13971668 -0.17074268 0.49900001
0.14101762 -0.17074268 0.49900001
0.14231853 -0.17074268 0.49900001
0.14390728 -0.17108484 0.5
0.1452108 -0.17108484 0.5
0.14651434 -0.17108484 0.5
0.14811353 -0.17142703 0.50100005
0.14941967 -0.17142703 0.50100005
0.15072581 -0.17142703 0.50100005
0.15203194 -0.17142703 0.50100005
0.15364414 -0.17176919 0.50200003
0.15495288 -0.17176919 0.50200003
0.15657291 -0.17211135 0.50300002
0.15788426 -0.17211135 0.50300002
0.15919562 -0.17211135 0.50300002
0.16082606 -0.17245352 0.50400001
0.16214003 -0.17245352 0.50400001
0.16345397 -0.17245352 0.50400001
0.16476794 -0.17245352 0.50400001
0.16608191 -0.17245352 0.50400001
0.16772799 -0.17279568 0.505
0.16904457 -0.17279568 0.505
0.17036112 -0.17279568 0.505
0.17201766 -0.17313787 0.50600004
0.17333683 -0.17313787 0.50600004
0.17465602 -0.17313787 0.50600004
0.17597517 -0.17313787 0.50600004
0.17764474 -0.17348003 0.50700003
0.17896652 -0.17348003 0.50700003
0.1806439 -0.17382219 0.50800002
0.18232648 -0.17416437 0.509
0.18365347 -0.17416437 0.509
0.18498048 -0.17416437 0.509
0.18667351 -0.17450655 0.51000005
0.18800312 -0.17450655 0.51000005
0.18970396 -0.17484872 0.51100004
0.19103616 -0.17484872 0.51100004
0.19236837 -0.17484872 0.51100004
0.19407964 -0.17519088 0.51200002
0.19541445 -0.17519088 0.51200002
0.19713354 -0.17553304 0.51300001
0.19847097 -0.17553304 0.51300001
0.19980839 -0.17553304 0.51300001
0.20153791 -0.17587522 0.514
0.20287794 -0.17587522 0.514
0.20461531 -0.17621739 0.51500005
0.20595793 -0.17621739 0.51500005
0.20730059 -0.17621739 0.51500005
0.20904833 -0.17655957 0.51600003
0.21039359 -0.17655957 0.51600003
0.21173882 -0.17655957 0.51600003
0.21349703 -0.17690173 0.51700002
0.21484487 -0.17690173 0.51700002
0.21619274 -0.17690173 0.51700002
0.21754058 -0.17690173 0.51700002
0.2193118 -0.17724389 0.51800001
0.22066227 -0.17724389 0.51800001
0.22201273 -0.17724389 0.51800001
0.22379442 -0.17758608 0.51900005
0.22514747 -0.17758608 0.51900005
0.22650054 -0.17758608 0.51900005
0.22829263 -0.17792824 0.52000004
0.22964831 -0.17792824 0.52000004
0.2314482 -0.17827041 0.52100003
0.23280649 -0.17827041 0.52100003
0.23416476 -0.17827041 0.52100003
0.2359751 -0.17861257 0.52200001
0.23779064 -0.17895474 0.523
0.23915415 -0.17895474 0.523
0.24097753 -0.17929693 0.52400005
0.24234363 -0.17929693 0.52400005
0.24417484 -0.17963909 0.52500004
0.24554354 -0.17963909 0.52500004
0.24691226 -0.17963909 0.52500004
0.24875386 -0.17998126 0.52600002
-0.22805552 -0.13650417 0.40200001
-0.22700749 -0.13650417 0.40200001
-0.22652155 -0.13684374 0.40300003
-0.22547092 -0.13684374 0.40300003
-0.22442025 -0.13684374 0.40300003
-0.22336961 -0.13684374 0.40300003
-0.22231898 -0.13684374 0.40300003
-0.22181736 -0.13718329 0.40400001
-0.2207641 -0.13718329 0.40400001
-0.21971086 -0.13718329 0.40400001
-0.21919885 -0.13752286 0.40500003
-0.21814297 -0.13752286 0.40500003
-0.21708712 -0.13752286 0.40500003
-0.21656467 -0.13786241 0.40600002
-0.21550621 -0.13786241 0.40600002
-0.21497591 -0.13820198 0.40700001
-0.21391484 -0.13820198 0.40700001
-0.21337676 -0.13854155 0.40800002
-0.21231309 -0.13854155 0.40800002
-0.2112494 -0.13854155 0.40800002
-0.21018572 -0.13854155 0.40800002
-0.20963459 -0.1388811 0.40900001
-0.20856827 -0.1388811 0.40900001
-0.20750199 -0.1388811 0.40900001
-0.20643571 -0.1388811 0.40900001
-0.20536943 -0.1388811 0.40900001
-0.20480266 -0.13922067 0.41000003
-0.20373376 -0.13922067 0.41000003
-0.20266487 -0.13922067 0.41000003
-0.20159598 -0.13922067 0.41000003
-0.20052709 -0.13922067 0.41000003
-0.19994466 -0.13956024 0.41100001
-0.19887315 -0.13956024 0.41100001
-0.19780165 -0.13956024 0.41100001
-0.19673014 -0.13956024 0.41100001
-0.19613472 -0.13989981 0.41200003
-0.1950606 -0.13989981 0.41200003
-0.19445732 -0.14023936 0.41300002
-0.19338061 -0.14023936 0.41300002
-0.1923039 -0.14023936 0.41300002
-0.19122717 -0.14023936 0.41300002
-0.19061087 -0.14057893 0.41400003
-0.18953155 -0.14057893 0.41400003
-0.18845223 -0.14057893 0.41400003
-0.18737289 -0.14057893 0.41400003
-0.18674354 -0.14091848 0.41500002
-0.18566163 -0.14091848 0.41500002
-0.18457969 -0.14091848 0.41500002
-0.18393992 -0.14125805 0.41600001
-0.18285538 -0.14125805 0.41600001
-0.18177085 -0.14125805 0.41600001
-0.1806863 -0.14125805 0.41600001
-0.1800335 -0.14159761 0.41700003
-0.17894636 -0.14159761 0.41700003
-0.17785922 -0.14159761 0.41700003
-0.17719598 -0.14193717 0.41800001
-0.17610623 -0.14193717 0.41800001
-0.17501648 -0.14193717 0.41800001
-0.17392671 -0.14193717 0.41800001
-0.17283697 -0.14193717 0.41800001
-0.17174721 -0.14193717 0.41800001
-0.17106575 -0.14227673 0.41900003
-0.16997337 -0.14227673 0.41900003
-0.16888103 -0.14227673 0.41900003
-0.16818911 -0.1426163 0.42000002
-0.16709414 -0.1426163 0.42000002
-0.16599917 -0.1426163 0.42000002
-0.16490421 -0.1426163 0.42000002
-0.16380924 -0.1426163 0.42000002
-0.1631017 -0.14295587 0.42100003
-0.16200411 -0.14295587 0.42100003
-0.16090654 -0.14295587 0.42100003
-0.16018856 -0.14329542 0.42200002
-0.15908837 -0.14329542 0.42200002
-0.15798821 -0.14329542 0.42200002
-0.15725978 -0.14363497 0.42300001
-0.156157 -0.14363497 0.42300001
-0.15505421 -0.14363497 0.42300001
-0.15431538 -0.14397454 0.42400002
-0.15320998 -0.14397454 0.42400002
-0.1521046 -0.14397454 0.42400002
-0.15135533 -0.14431411 0.42500001
-0.15024732 -0.14431411 0.42500001
-0.14913931 -0.14431411 0.42500001
-0.14803131 -0.14431411 0.42500001
-0.14692332 -0.14431411 0.42500001
-0.1458153 -0.14431411 0.42500001
-0.14470731 -0.14431411 0.42500001
-0.1435993 -0.14431411 0.42500001
-0.14249131 -0.14431411 0.42500001
-0.14171597 -0.14465368 0.42600003
-0.14060538 -0.14465368 0.42600003
-0.13949475 -0.14465368 0.42600003
-0.13838415 -0.14465368 0.42600003
-0.13727354 -0.14465368 0.42600003
-0.13648257 -0.14499323 0.42700002
-0.13536935 -0.14499323 0.42700002
-0.13425611 -0.14499323 0.42700002
-0.1331429 -0.14499323 0.42700002
-0.1323389 -0.1453328 0.42800003
-0.13122308 -0.1453328 0.42800003
-0.13010725 -0.1453328 0.42800003
-0.12929282 -0.14567237 0.42900002
-0.12847315 -0.14601192 0.43000001
-0.12735212 -0.14601192 0.43000001
-0.12623107 -0.14601192 0.43000001
-0.12511005 -0.14601192 0.43000001
-0.12398899 -0.14601192 0.43000001
-0.12315371 -0.14635149 0.43100002
-0.12203006 -0.14635149 0.43100002
-0.12118693 -0.14669104 0.43200001
-0.12006069 -0.14669104 0.43200001
-0.11893443 -0.14669104 0.43200001
-0.11780819 -0.14669104 0.43200001
-0.11695203 -0.14703061 0.43300003
-0.11582318 -0.14703061 0.43300003
-0.1149592 -0.14737017 0.43400002
-0.11382774 -0.14737017 0.43400002
-0.11269626 -0.14737017 0.43400002
-0.11182187 -0.14770974 0.43500003
-0.11068779 -0.14770974 0.43500003
-0.10955372 -0.14770974 0.43500003
-0.10841965 -0.14770974 0.43500003
-0.10728557 -0.14770974 0.43500003
-0.1061515 -0.14770974 0.43500003
-0.10525884 -0.14804929 0.43600002
-0.10412217 -0.14804929 0.43600002
-0.10298549 -0.14804929 0.43600002
-0.10184881 -0.14804929 0.43600002
-0.10071212 -0.14804929 0.43600002
-0.099575445 -0.14804929 0.43600002
-0.098664537 -0.14838886 0.43700001
-0.097525254 -0.14838886 0.43700001
-0.096385963 -0.14838886 0.43700001
-0.095464639 -0.14872843 0.43800002
-0.094322741 -0.14872843 0.43800002
-0.09318085 -0.14872843 0.43800002
-0.092038959 -0.14872843 0.43800002
-0.091104589 -0.14906798 0.43900001
-0.089960091 -0.14906798 0.43900001
-0.088815585 -0.14906798 0.43900001
-0.087870799 -0.14940755 0.44000003
-0.086723685 -0.14940755 0.44000003
-0.085576579 -0.14940755 0.44000003
-0.084429465 -0.14940755 0.44000003
-0.083471633 -0.1497471 0.44100001
-0.08232192 -0.1497471 0.44100001
-0.081172206 -0.1497471 0.44100001
-0.08020395 -0.15008667 0.44200003
-0.079051629 -0.15008667 0.44200003
-0.07807555 -0.15042624 0.44300002
-0.076920621 -0.15042624 0.44300002
-0.075765692 -0.15042624 0.44300002
-0.07477919 -0.15076581 0.44400004
-0.073621653 -0.15076581 0.44400004
-0.072464108 -0.15076581 0.44400004
-0.071306571 -0.15076581 0.44400004
-0.070307031 -0.15110536 0.44500002
-0.069146886 -0.15110536 0.44500002
-0.067986742 -0.15110536 0.44500002
-0.066826604 -0.15110536 0.44500002
-0.065814018 -0.15144493 0.44600001
-0.064651273 -0.15144493 0.44600001
-0.063488521 -0.15144493 0.44600001
-0.062465519 -0.15178449 0.44700003
-0.061300162 -0.15178449 0.44700003
-0.060134802 -0.15178449 0.44700003
-0.058969446 -0.15178449 0.44700003
-0.057804082 -0.15178449 0.44700003
-0.056765433 -0.15212405 0.44800001
-0.055597473 -0.15212405 0.44800001
-0.054429509 -0.15212405 0.44800001
-0.053261541 -0.15212405 0.44800001
-0.052209858 -0.15246361 0.44900003
-0.05103929 -0.15246361 0.44900003
-0.049868718 -0.15246361 0.44900003
-0.048698146 -0.15246361 0.44900003
-0.047527574 -0.15246361 0.44900003
-0.046460245 -0.15280317 0.45000002
-0.045287065 -0.15280317 0.45000002
-0.044113889 -0.15280317 0.45000002
-0.043036137 -0.15314274 0.45100003
-0.041860349 -0.15314274 0.45100003
-0.040774774 -0.1534823 0.45200002
-0.039596383 -0.1534823 0.45200002
-0.038417984 -0.1534823 0.45200002
-0.037321981 -0.15382186 0.45300001
-0.036140982 -0.15382186 0.45300001
-0.034959983 -0.15382186 0.45300001
-0.03385355 -0.15416142 0.45400003
-0.032669943 -0.15416142 0.45400003
-0.031486336 -0.15416142 0.45400003
-0.030369474 -0.15450099 0.45500001
-0.029183259 -0.15450099 0.45500001
-0.027997047 -0.15450099 0.45500001
-0.026869759 -0.15484056 0.45600003
-0.025680937 -0.15484056 0.45600003
-0.024492117 -0.15484056 0.45600003
-0.023303296 -0.15484056 0.45600003
-0.02216297 -0.15518011 0.45700002
-0.020971542 -0.15518011 0.45700002
-0.019780114 -0.15518011 0.45700002
-0.018629361 -0.15551968 0.45800003
-0.017435327 -0.15551968 0.45800003
-0.016241292 -0.15551968 0.45800003
-0.015047257 -0.15551968 0.45800003
-0.013883467 -0.15585923 0.45900002
-0.012686825 -0.15585923 0.45900002
-0.011515216 -0.1561988 0.46000001
-0.010315967 -0.1561988 0.46000001
-0.0091167176 -0.1561988 0.46000001
-0.0079174675 -0.1561988 0.46000001
-0.0067328238 -0.15653837 0.46100003
-0.0055309674 -0.15653837 0.46100003
-0.0043385015 -0.15687792 0.46200001
-0.0031340383 -0.15687792 0.46200001
-0.0019295748 -0.15687792 0.46200001
-0.00072511134 -0.15687792 0.46200001
0.00048038963 -0.15721749 0.46300003
0.0016874601 -0.15721749 0.46300003
0.0028945308 -0.15721749 0.46300003
0.0041104602 -0.15755706 0.46400002
0.0053201374 -0.15755706 0.46400002
0.0065438878 -0.15789662 0.46500003
0.0077561731 -0.15789662 0.46500003
0.0089877443 -0.15823618 0.46600002
0.010202636 -0.15823618 0.46600002
0.011417528 -0.15823618 0.46600002
0.012659527 -0.15857573 0.46700001
0.013877026 -0.15857573 0.46700001
0.015094524 -0.15857573 0.46700001
0.016346952 -0.1589153 0.46800002
0.017567059 -0.1589153 0.46800002
0.018787164 -0.1589153 0.46800002
0.020007269 -0.1589153 0.46800002
0.021272734 -0.15925486 0.46900001
0.022495447 -0.15925486 0.46900001
0.02371816 -0.15925486 0.46900001
0.024940873 -0.15925486 0.46900001
0.026163585 -0.15925486 0.46900001
0.02744469 -0.15959443 0.47000003
0.028670013 -0.15959443 0.47000003
0.02989533 -0.15959443 0.47000003
0.031120652 -0.15959443 0.47000003
0.032414794 -0.15993398 0.47100002
0.03364272 -0.15993398 0.47100002
0.034870647 -0.15993398 0.47100002
0.036175217 -0.16027355 0.47200003
0.037405748 -0.16027355 0.47200003
0.038636286 -0.16027355 0.47200003
0.039951283 -0.16061312 0.47300002
0.041184422 -0.16061312 0.47300002
0.042417563 -0.16061312 0.47300002
0.043742992 -0.16095269 0.47400004
