# .PCD v0.7 - Point Cloud Data file format
VERSION 0.7
FIELDS x y z
SIZE 4 4 4
TYPE F F F
COUNT 1 1 1
WIDTH 1332
HEIGHT 1
VIEWPOINT 0 0 0 1 0 0 0
POINTS 1332
DATA ascii
-0.23555881 -0.058162369 0.42700002
-0.23444557 -0.058162369 0.42700002
-0.23333237 -0.058162369 0.42700002
-0.23221914 -0.058162369 0.42700002
-0.23110594 -0.058162369 0.42700002
-0.2299927 -0.058162369 0.42700002
-0.22941552 -0.058298584 0.42800003
-0.22829971 -0.058298584 0.42800003
-0.22718389 -0.058298584 0.42800003
-0.22606805 -0.058298584 0.42800003
-0.22495224 -0.058298584 0.42800003
-0.22383642 -0.058298584 0.42800003
-0.22272059 -0.058298584 0.42800003
-0.22160476 -0.058298584 0.42800003
-0.22048894 -0.058298584 0.42800003
-0.21937312 -0.058298584 0.42800003
-0.21825728 -0.058298584 0.42800003
-0.21714146 -0.058298584 0.42800003
-0.21602565 -0.058298584 0.42800003
-0.21490984 -0.058298584 0.42800003
-0.21379401 -0.058298584 0.42800003
-0.21267818 -0.058298584 0.42800003
-0.21156237 -0.058298584 0.42800003
-0.21093822 -0.058434792 0.42900002
-0.20981979 -0.058434792 0.42900002
-0.20870136 -0.058434792 0.42900002
-0.20758292 -0.058434792 0.42900002
-0.2064645 -0.058434792 0.42900002
-0.20534606 -0.058434792 0.42900002
-0.20422764 -0.058434792 0.42900002
-0.2031092 -0.058434792 0.42900002
-0.20199078 -0.058434792 0.42900002
-0.20087235 -0.058434792 0.42900002
-0.19975393 -0.058434792 0.42900002
-0.19817246 -0.058298584 0.42800003
-0.19705665 -0.058298584 0.42800003
-0.19594082 -0.058298584 0.42800003
-0.19482501 -0.058298584 0.42800003
-0.19370918 -0.058298584 0.42800003
-0.19259335 -0.058298584 0.42800003
-0.19147754 -0.058298584 0.42800003
-0.19036171 -0.058298584 0.42800003
-0.18968804 -0.058434792 0.42900002
-0.18856961 -0.058434792 0.42900002
-0.18745118 -0.058434792 0.42900002
-0.18633275 -0.058434792 0.42900002
-0.18521433 -0.058434792 0.42900002
-0.18409589 -0.058434792 0.42900002
-0.18297747 -0.058434792 0.42900002
-0.18185903 -0.058434792 0.42900002
-0.18074061 -0.058434792 0.42900002
-0.17962217 -0.058434792 0.42900002
-0.17850374 -0.058434792 0.42900002
-0.17779879 -0.058571003 0.43000001
-0.17667775 -0.058571003 0.43000001
-0.17555672 -0.058571003 0.43000001
-0.17443568 -0.058571003 0.43000001
-0.17331465 -0.058571003 0.43000001
-0.1721936 -0.058571003 0.43000001
-0.17107257 -0.058571003 0.43000001
-0.16995153 -0.058571003 0.43000001
-0.1688305 -0.058571003 0.43000001
-0.16770945 -0.058571003 0.43000001
-0.16658843 -0.058571003 0.43000001
-0.16546738 -0.058571003 0.43000001
-0.16434634 -0.058571003 0.43000001
-0.16322531 -0.058571003 0.43000001
-0.16210426 -0.058571003 0.43000001
-0.16098323 -0.058571003 0.43000001
-0.15986219 -0.058571003 0.43000001
-0.15874116 -0.058571003 0.43000001
-0.15762012 -0.058571003 0.43000001
-0.15649909 -0.058571003 0.43000001
-0.15537804 -0.058571003 0.43000001
-0.15425701 -0.058571003 0.43000001
-0.15313597 -0.058571003 0.43000001
-0.15236847 -0.058707219 0.43100002
-0.15124482 -0.058707219 0.43100002
-0.15012117 -0.058707219 0.43100002
-0.14899753 -0.058707219 0.43100002
-0.14787388 -0.058707219 0.43100002
-0.14675024 -0.058707219 0.43100002
-0.14562659 -0.058707219 0.43100002
-0.14450295 -0.058707219 0.43100002
-0.1433793 -0.058707219 0.43100002
-0.14258572 -0.058843426 0.43200001
-0.14145947 -0.058843426 0.43200001
-0.14033322 -0.058843426 0.43200001
-0.13920696 -0.058843426 0.43200001
-0.13808072 -0.058843426 0.43200001
-0.13695446 -0.058843426 0.43200001
-0.1358282 -0.058843426 0.43200001
-0.13470195 -0.058843426 0.43200001
-0.13388491 -0.058979642 0.43300003
-0.13275605 -0.058979642 0.43300003
-0.13162719 -0.058979642 0.43300003
-0.13049833 -0.058979642 0.43300003
-0.12936947 -0.058979642 0.43300003
-0.12824063 -0.058979642 0.43300003
-0.12711176 -0.058979642 0.43300003
-0.12627386 -0.059115849 0.43400002
-0.12514238 -0.059115849 0.43400002
-0.12401093 -0.059115849 0.43400002
-0.12287945 -0.059115849 0.43400002
-0.12174799 -0.059115849 0.43400002
-0.12061653 -0.059115849 0.43400002
-0.11948505 -0.059115849 0.43400002
-0.1183536 -0.059115849 0.43400002
-0.11722212 -0.059115849 0.43400002
-0.11609066 -0.059115849 0.43400002
-0.1149592 -0.059115849 0.43400002
-0.11382774 -0.059115849 0.43400002
-0.11269626 -0.059115849 0.43400002
-0.1115648 -0.059115849 0.43400002
-0.11043333 -0.059115849 0.43400002
-0.10930187 -0.059115849 0.43400002
-0.10817041 -0.059115849 0.43400002
-0.10703894 -0.059115849 0.43400002
-0.10590747 -0.059115849 0.43400002
-0.10501743 -0.059252065 0.43500003
-0.10388336 -0.059252065 0.43500003
-0.10274929 -0.059252065 0.43500003
-0.10161521 -0.059252065 0.43500003
-0.10048113 -0.059252065 0.43500003
-0.099347062 -0.059252065 0.43500003
-0.098438762 -0.059388276 0.43600002
-0.097302087 -0.059388276 0.43600002
-0.096165404 -0.059388276 0.43600002
-0.094810769 -0.059252065 0.43500003
-0.093676701 -0.059252065 0.43500003
-0.092542626 -0.059252065 0.43500003
-0.091408558 -0.059252065 0.43500003
-0.090066954 -0.059115849 0.43400002
-0.088935487 -0.059115849 0.43400002
-0.087804019 -0.059115849 0.43400002
-0.086672559 -0.059115849 0.43400002
-0.085541084 -0.059115849 0.43400002
-0.084409617 -0.059115849 0.43400002
-0.083278157 -0.059115849 0.43400002
-0.082146689 -0.059115849 0.43400002
-0.081201896 -0.059252065 0.43500003
-0.080067828 -0.059252065 0.43500003
-0.078933753 -0.059252065 0.43500003
-0.077799685 -0.059252065 0.43500003
-0.07666561 -0.059252065 0.43500003
-0.075531535 -0.059252065 0.43500003
-0.074397467 -0.059252065 0.43500003
-0.073431812 -0.059388276 0.43600002
-0.072295137 -0.059388276 0.43600002
-0.071158446 -0.059388276 0.43600002
-0.070021771 -0.059388276 0.43600002
-0.068885088 -0.059388276 0.43600002
-0.067748412 -0.059388276 0.43600002
-0.06661173 -0.059388276 0.43600002
-0.065475054 -0.059388276 0.43600002
-0.064338371 -0.059388276 0.43600002
-0.063201696 -0.059388276 0.43600002
-0.062065013 -0.059388276 0.43600002
-0.060928334 -0.059388276 0.43600002
-0.059791654 -0.059388276 0.43600002
-0.058654975 -0.059388276 0.43600002
-0.057518296 -0.059388276 0.43600002
-0.056381609 -0.059388276 0.43600002
-0.05524493 -0.059388276 0.43600002
-0.054108255 -0.059388276 0.43600002
-0.052971575 -0.059388276 0.43600002
-0.051834892 -0.059388276 0.43600002
-0.050698213 -0.059388276 0.43600002
-0.049561534 -0.059388276 0.43600002
-0.048424855 -0.059388276 0.43600002
-0.047288176 -0.059388276 0.43600002
-0.046151496 -0.059388276 0.43600002
-0.045014814 -0.059388276 0.43600002
-0.043878134 -0.059388276 0.43600002
-0.042741455 -0.059388276 0.43600002
-0.041604776 -0.059388276 0.43600002
-0.040468097 -0.059388276 0.43600002
-0.039331418 -0.059388276 0.43600002
-0.038194738 -0.059388276 0.43600002
-0.037058055 -0.059388276 0.43600002
-0.036003765 -0.059524484 0.43700001
-0.034864478 -0.059524484 0.43700001
-0.033725191 -0.059524484 0.43700001
-0.032585904 -0.059524484 0.43700001
-0.031446621 -0.059524484 0.43700001
-0.03030733 -0.059524484 0.43700001
-0.029168043 -0.059524484 0.43700001
-0.028028756 -0.059524484 0.43700001
-0.026889471 -0.059524484 0.43700001
-0.025809111 -0.059660699 0.43800002
-0.024667215 -0.059660699 0.43800002
-0.023525322 -0.059660699 0.43800002
-0.022383429 -0.059660699 0.43800002
-0.021241533 -0.059660699 0.43800002
-0.02009964 -0.059660699 0.43800002
-0.018957747 -0.059660699 0.43800002
-0.017815851 -0.059660699 0.43800002
-0.016673958 -0.059660699 0.43800002
-0.015532064 -0.059660699 0.43800002
-0.014390172 -0.059660699 0.43800002
-0.013248276 -0.059660699 0.43800002
-0.012106382 -0.059660699 0.43800002
-0.010964489 -0.059660699 0.43800002
-0.0098225949 -0.059660699 0.43800002
-0.0086807003 -0.059660699 0.43800002
-0.0075388066 -0.059660699 0.43800002
-0.0063969125 -0.059660699 0.43800002
-0.0052550188 -0.059660699 0.43800002
-0.0041131251 -0.059660699 0.43800002
-0.0029712312 -0.059660699 0.43800002
-0.0018293372 -0.059660699 0.43800002
-0.00068744324 -0.059660699 0.43800002
0.00045445067 -0.059660699 0.43800002
0.0015963446 -0.059660699 0.43800002
0.0027382385 -0.059660699 0.43800002
0.0038801325 -0.059660699 0.43800002
0.0050220266 -0.059660699 0.43800002
0.0061639203 -0.059660699 0.43800002
0.0073058144 -0.059660699 0.43800002
0.0084477076 -0.059660699 0.43800002
0.0095896022 -0.059660699 0.43800002
0.010731496 -0.059660699 0.43800002
0.01187339 -0.059660699 0.43800002
0.013015284 -0.059660699 0.43800002
0.014157177 -0.059660699 0.43800002
0.015299071 -0.059660699 0.43800002
0.016403429 -0.059524484 0.43700001
0.017542714 -0.059524484 0.43700001
0.018682001 -0.059524484 0.43700001
0.01982129 -0.059524484 0.43700001
0.020960575 -0.059524484 0.43700001
0.04140532 -0.042089395 0.30900002
0.042210903 -0.042089395 0.30900002
0.043016486 -0.042089395 0.30900002
0.043680254 -0.041953187 0.30800003
0.044338804 -0.041816972 0.30700001
0.045139171 -0.041816972 0.30700001
0.045939539 -0.041816972 0.30700001
0.046587661 -0.041680764 0.30600002
0.047385424 -0.041680764 0.30600002
0.048660807 -0.041408338 0.30400002
0.050702669 -0.041135915 0.30200002
0.051319506 -0.040999707 0.30100003
0.052713249 -0.040863492 0.30000001
0.096318766 -0.060341757 0.44300002
0.097473696 -0.060341757 0.44300002
0.098628625 -0.060341757 0.44300002
0.099783555 -0.060341757 0.44300002
0.10093848 -0.060341757 0.44300002
0.10209341 -0.060341757 0.44300002
0.10348141 -0.060477972 0.44400004
0.10440326 -0.060341757 0.44300002
0.10579648 -0.060477972 0.44400004
0.10671312 -0.060341757 0.44300002
0.10786806 -0.060341757 0.44300002
0.10902299 -0.060341757 0.44300002
0.11017792 -0.060341757 0.44300002
0.11158416 -0.060477972 0.44400004
0.11248778 -0.060341757 0.44300002
0.11389923 -0.060477972 0.44400004
0.11505678 -0.060477972 0.44400004
0.11621431 -0.060477972 0.44400004
0.11737184 -0.060477972 0.44400004
0.11852939 -0.060477972 0.44400004
0.11995648 -0.06061418 0.44500002
0.12111663 -0.06061418 0.44500002
0.12227676 -0.06061418 0.44500002
0.12315953 -0.060477972 0.44400004
0.12459705 -0.06061418 0.44500002
0.1254746 -0.060477972 0.44400004
0.12663212 -0.060477972 0.44400004
0.12778968 -0.060477972 0.44400004
0.1289472 -0.060477972 0.44400004
0.13010475 -0.060477972 0.44400004
0.13126229 -0.060477972 0.44400004
0.13241981 -0.060477972 0.44400004
0.13357736 -0.060477972 0.44400004
0.13473488 -0.060477972 0.44400004
0.13589244 -0.060477972 0.44400004
0.13704996 -0.060477972 0.44400004
0.13820751 -0.060477972 0.44400004
0.13936503 -0.060477972 0.44400004
0.14052257 -0.060477972 0.44400004
0.14168011 -0.060477972 0.44400004
0.14315934 -0.06061418 0.44500002
0.14431949 -0.06061418 0.44500002
0.14547963 -0.06061418 0.44500002
0.14631025 -0.060477972 0.44400004
0.14746779 -0.060477972 0.44400004
0.14862533 -0.060477972 0.44400004
0.14978287 -0.060477972 0.44400004
0.1509404 -0.060477972 0.44400004
0.15209793 -0.060477972 0.44400004
0.15325548 -0.060477972 0.44400004
0.154413 -0.060477972 0.44400004
0.15557055 -0.060477972 0.44400004
0.15708107 -0.06061418 0.44500002
0.15824121 -0.06061418 0.44500002
0.15940134 -0.06061418 0.44500002
0.1605615 -0.06061418 0.44500002
0.16172165 -0.06061418 0.44500002
0.16288178 -0.06061418 0.44500002
0.16404194 -0.06061418 0.44500002
0.1655733 -0.060750391 0.44600001
0.16673607 -0.060750391 0.44600001
0.1678988 -0.060750391 0.44600001
0.16906156 -0.060750391 0.44600001
0.17022431 -0.060750391 0.44600001
0.17138706 -0.060750391 0.44600001
0.1725498 -0.060750391 0.44600001
0.17371257 -0.060750391 0.44600001
0.17448321 -0.06061418 0.44500002
0.17564335 -0.06061418 0.44500002
0.17680351 -0.06061418 0.44500002
0.17796364 -0.06061418 0.44500002
0.1791238 -0.06061418 0.44500002
0.18028393 -0.06061418 0.44500002
0.18144408 -0.06061418 0.44500002
0.18260422 -0.06061418 0.44500002
0.18376437 -0.06061418 0.44500002
0.1849245 -0.06061418 0.44500002
0.18608466 -0.06061418 0.44500002
0.18724479 -0.06061418 0.44500002
0.18840493 -0.06061418 0.44500002
0.18956508 -0.06061418 0.44500002
0.19115381 -0.060750391 0.44600001
0.19231658 -0.060750391 0.44600001
0.19347931 -0.060750391 0.44600001
0.19464207 -0.060750391 0.44600001
0.19580482 -0.060750391 0.44600001
0.19696757 -0.060750391 0.44600001
0.19813031 -0.060750391 0.44600001
0.19929308 -0.060750391 0.44600001
0.20045581 -0.060750391 0.44600001
0.20116651 -0.06061418 0.44500002
0.20232666 -0.06061418 0.44500002
0.20394407 -0.060750391 0.44600001
0.20464694 -0.06061418 0.44500002
0.20626958 -0.060750391 0.44600001
0.20743233 -0.060750391 0.44600001
0.20859507 -0.060750391 0.44600001
-0.24112488 -0.057049155 0.42700002
-0.24001166 -0.057049155 0.42700002
-0.23889846 -0.057049155 0.42700002
-0.23778522 -0.057049155 0.42700002
-0.23667201 -0.057049155 0.42700002
-0.23555881 -0.057049155 0.42700002
-0.23444557 -0.057049155 0.42700002
-0.23333237 -0.057049155 0.42700002
-0.23221914 -0.057049155 0.42700002
-0.23110594 -0.057049155 0.42700002
-0.2299927 -0.057049155 0.42700002
-0.22941552 -0.057182759 0.42800003
-0.22829971 -0.057182759 0.42800003
-0.22718389 -0.057182759 0.42800003
-0.22606805 -0.057182759 0.42800003
-0.22495224 -0.057182759 0.42800003
-0.22383642 -0.057182759 0.42800003
-0.22272059 -0.057182759 0.42800003
-0.22160476 -0.057182759 0.42800003
-0.22048894 -0.057182759 0.42800003
-0.21937312 -0.057182759 0.42800003
-0.21825728 -0.057182759 0.42800003
-0.21714146 -0.057182759 0.42800003
-0.21602565 -0.057182759 0.42800003
-0.21490984 -0.057182759 0.42800003
-0.21379401 -0.057182759 0.42800003
-0.21267818 -0.057182759 0.42800003
-0.21156237 -0.057182759 0.42800003
-0.21093822 -0.057316363 0.42900002
-0.20981979 -0.057316363 0.42900002
-0.20870136 -0.057316363 0.42900002
-0.20758292 -0.057316363 0.42900002
-0.2064645 -0.057316363 0.42900002
-0.20534606 -0.057316363 0.42900002
-0.20422764 -0.057316363 0.42900002
-0.2031092 -0.057316363 0.42900002
-0.20199078 -0.057316363 0.42900002
-0.20087235 -0.057316363 0.42900002
-0.19928829 -0.057182759 0.42800003
-0.19817246 -0.057182759 0.42800003
-0.19705665 -0.057182759 0.42800003
-0.19594082 -0.057182759 0.42800003
-0.19482501 -0.057182759 0.42800003
-0.19370918 -0.057182759 0.42800003
-0.19259335 -0.057182759 0.42800003
-0.19147754 -0.057182759 0.42800003
-0.19036171 -0.057182759 0.42800003
-0.18924589 -0.057182759 0.42800003
-0.18856961 -0.057316363 0.42900002
-0.18745118 -0.057316363 0.42900002
-0.18633275 -0.057316363 0.42900002
-0.18521433 -0.057316363 0.42900002
-0.18409589 -0.057316363 0.42900002
-0.18297747 -0.057316363 0.42900002
-0.18185903 -0.057316363 0.42900002
-0.18074061 -0.057316363 0.42900002
-0.18004087 -0.057449967 0.43000001
-0.17850374 -0.057316363 0.42900002
-0.17779879 -0.057449967 0.43000001
-0.17667775 -0.057449967 0.43000001
-0.17555672 -0.057449967 0.43000001
-0.17443568 -0.057449967 0.43000001
-0.17331465 -0.057449967 0.43000001
-0.1721936 -0.057449967 0.43000001
-0.17107257 -0.057449967 0.43000001
-0.16995153 -0.057449967 0.43000001
-0.1688305 -0.057449967 0.43000001
-0.16770945 -0.057449967 0.43000001
-0.16658843 -0.057449967 0.43000001
-0.16546738 -0.057449967 0.43000001
-0.16434634 -0.057449967 0.43000001
-0.16322531 -0.057449967 0.43000001
-0.16210426 -0.057449967 0.43000001
-0.16098323 -0.057449967 0.43000001
-0.15986219 -0.057449967 0.43000001
-0.15874116 -0.057449967 0.43000001
-0.15762012 -0.057449967 0.43000001
-0.15649909 -0.057449967 0.43000001
-0.15537804 -0.057449967 0.43000001
-0.15425701 -0.057449967 0.43000001
-0.15313597 -0.057449967 0.43000001
-0.15236847 -0.057583574 0.43100002
-0.15124482 -0.057583574 0.43100002
-0.15012117 -0.057583574 0.43100002
-0.14899753 -0.057583574 0.43100002
-0.14787388 -0.057583574 0.43100002
-0.14675024 -0.057583574 0.43100002
-0.14562659 -0.057583574 0.43100002
-0.14450295 -0.057583574 0.43100002
-0.14371197 -0.057717178 0.43200001
-0.14258572 -0.057717178 0.43200001
-0.14145947 -0.057717178 0.43200001
-0.14033322 -0.057717178 0.43200001
-0.13920696 -0.057717178 0.43200001
-0.13808072 -0.057717178 0.43200001
-0.13695446 -0.057717178 0.43200001
-0.1358282 -0.057717178 0.43200001
-0.13501377 -0.057850782 0.43300003
-0.13388491 -0.057850782 0.43300003
-0.13275605 -0.057850782 0.43300003
-0.13162719 -0.057850782 0.43300003
-0.13049833 -0.057850782 0.43300003
-0.12936947 -0.057850782 0.43300003
-0.12824063 -0.057850782 0.43300003
-0.12711176 -0.057850782 0.43300003
-0.12627386 -0.057984386 0.43400002
-0.12514238 -0.057984386 0.43400002
-0.12401093 -0.057984386 0.43400002
-0.12287945 -0.057984386 0.43400002
-0.12174799 -0.057984386 0.43400002
-0.12061653 -0.057984386 0.43400002
-0.11948505 -0.057984386 0.43400002
-0.1183536 -0.057984386 0.43400002
-0.11722212 -0.057984386 0.43400002
-0.11609066 -0.057984386 0.43400002
-0.1149592 -0.057984386 0.43400002
-0.11382774 -0.057984386 0.43400002
-0.11269626 -0.057984386 0.43400002
-0.1115648 -0.057984386 0.43400002
-0.11043333 -0.057984386 0.43400002
-0.10930187 -0.057984386 0.43400002
-0.10817041 -0.057984386 0.43400002
-0.10703894 -0.057984386 0.43400002
-0.10590747 -0.057984386 0.43400002
-0.10501743 -0.058117993 0.43500003
-0.10388336 -0.058117993 0.43500003
-0.10274929 -0.058117993 0.43500003
-0.10161521 -0.058117993 0.43500003
-0.10048113 -0.058117993 0.43500003
-0.099347062 -0.058117993 0.43500003
-0.098438762 -0.058251597 0.43600002
-0.097302087 -0.058251597 0.43600002
-0.095944844 -0.058117993 0.43500003
-0.094810769 -0.058117993 0.43500003
-0.093676701 -0.058117993 0.43500003
-0.092542626 -0.058117993 0.43500003
-0.091198415 -0.057984386 0.43400002
-0.090066954 -0.057984386 0.43400002
-0.088935487 -0.057984386 0.43400002
-0.087804019 -0.057984386 0.43400002
-0.086672559 -0.057984386 0.43400002
-0.085541084 -0.057984386 0.43400002
-0.084409617 -0.057984386 0.43400002
-0.083470047 -0.058117993 0.43500003
-0.082335971 -0.058117993 0.43500003
-0.081201896 -0.058117993 0.43500003
-0.080067828 -0.058117993 0.43500003
-0.078933753 -0.058117993 0.43500003
-0.077799685 -0.058117993 0.43500003
-0.07666561 -0.058117993 0.43500003
-0.075531535 -0.058117993 0.43500003
-0.074397467 -0.058117993 0.43500003
-0.073431812 -0.058251597 0.43600002
-0.072295137 -0.058251597 0.43600002
-0.071158446 -0.058251597 0.43600002
-0.070021771 -0.058251597 0.43600002
-0.068885088 -0.058251597 0.43600002
-0.067748412 -0.058251597 0.43600002
-0.06661173 -0.058251597 0.43600002
-0.065475054 -0.058251597 0.43600002
-0.064338371 -0.058251597 0.43600002
-0.063201696 -0.058251597 0.43600002
-0.062065013 -0.058251597 0.43600002
-0.060928334 -0.058251597 0.43600002
-0.059791654 -0.058251597 0.43600002
-0.058654975 -0.058251597 0.43600002
-0.057518296 -0.058251597 0.43600002
-0.056381609 -0.058251597 0.43600002
-0.05524493 -0.058251597 0.43600002
-0.054108255 -0.058251597 0.43600002
-0.052971575 -0.058251597 0.43600002
-0.051834892 -0.058251597 0.43600002
-0.050698213 -0.058251597 0.43600002
-0.049561534 -0.058251597 0.43600002
-0.048424855 -0.058251597 0.43600002
-0.047288176 -0.058251597 0.43600002
-0.046151496 -0.058251597 0.43600002
-0.045014814 -0.058251597 0.43600002
-0.043878134 -0.058251597 0.43600002
-0.042741455 -0.058251597 0.43600002
-0.041604776 -0.058251597 0.43600002
-0.040468097 -0.058251597 0.43600002
-0.039331418 -0.058251597 0.43600002
-0.038194738 -0.058251597 0.43600002
-0.037058055 -0.058251597 0.43600002
-0.036003765 -0.058385197 0.43700001
-0.034864478 -0.058385197 0.43700001
-0.033725191 -0.058385197 0.43700001
-0.032585904 -0.058385197 0.43700001
-0.031446621 -0.058385197 0.43700001
-0.03030733 -0.058385197 0.43700001
-0.029168043 -0.058385197 0.43700001
-0.028028756 -0.058385197 0.43700001
-0.026889471 -0.058385197 0.43700001
-0.025809111 -0.058518805 0.43800002
-0.024667215 -0.058518805 0.43800002
-0.023525322 -0.058518805 0.43800002
-0.022383429 -0.058518805 0.43800002
-0.021241533 -0.058518805 0.43800002
-0.02009964 -0.058518805 0.43800002
-0.018957747 -0.058518805 0.43800002
-0.017815851 -0.058518805 0.43800002
-0.016673958 -0.058518805 0.43800002
-0.015532064 -0.058518805 0.43800002
-0.014390172 -0.058518805 0.43800002
-0.013248276 -0.058518805 0.43800002
-0.012106382 -0.058518805 0.43800002
-0.010964489 -0.058518805 0.43800002
-0.0098225949 -0.058518805 0.43800002
-0.0086807003 -0.058518805 0.43800002
-0.0075388066 -0.058518805 0.43800002
-0.0063969125 -0.058518805 0.43800002
-0.0052550188 -0.058518805 0.43800002
-0.0041131251 -0.058518805 0.43800002
-0.0029712312 -0.058518805 0.43800002
-0.0018293372 -0.058518805 0.43800002
-0.00068744324 -0.058518805 0.43800002
0.00045445067 -0.058518805 0.43800002
0.0015963446 -0.058518805 0.43800002
0.0027382385 -0.058518805 0.43800002
0.0038801325 -0.058518805 0.43800002
0.0050220266 -0.058518805 0.43800002
0.0061639203 -0.058518805 0.43800002
0.0073058144 -0.058518805 0.43800002
0.0084477076 -0.058518805 0.43800002
0.0095896022 -0.058518805 0.43800002
0.010731496 -0.058518805 0.43800002
0.01187339 -0.058518805 0.43800002
0.013015284 -0.058518805 0.43800002
0.014157177 -0.058518805 0.43800002
0.01526414 -0.058385197 0.43700001
0.016403429 -0.058385197 0.43700001
0.017542714 -0.058385197 0.43700001
0.018682001 -0.058385197 0.43700001
0.020960575 -0.058385197 0.43700001
0.040731128 -0.041417416 0.31
0.041539319 -0.041417416 0.31
0.042210903 -0.041283816 0.30900002
0.043016486 -0.041283816 0.30900002
0.043822072 -0.041283816 0.30900002
0.04448323 -0.041150212 0.30800003
0.045139171 -0.041016605 0.30700001
0.045939539 -0.041016605 0.30700001
0.046739906 -0.041016605 0.30700001
0.049128003 -0.040348582 0.30200002
0.049915336 -0.040348582 0.30200002
0.050702669 -0.040348582 0.30200002
0.051319506 -0.040214978 0.30100003
0.052104235 -0.040214978 0.30100003
0.052713249 -0.040081374 0.30000001
0.096318766 -0.059186827 0.44300002
0.097473696 -0.059186827 0.44300002
0.098628625 -0.059186827 0.44300002
0.099783555 -0.059186827 0.44300002
0.10093848 -0.059186827 0.44300002
0.10209341 -0.059186827 0.44300002
0.10324834 -0.059186827 0.44300002
0.10463894 -0.059320435 0.44400004
0.10555819 -0.059186827 0.44300002
0.10671312 -0.059186827 0.44300002
0.10786806 -0.059186827 0.44300002
0.10902299 -0.059186827 0.44300002
0.11017792 -0.059186827 0.44300002
0.11133284 -0.059186827 0.44300002
0.11248778 -0.059186827 0.44300002
0.1136427 -0.059186827 0.44300002
0.11505678 -0.059320435 0.44400004
0.11621431 -0.059320435 0.44400004
0.11737184 -0.059320435 0.44400004
0.11852939 -0.059320435 0.44400004
0.11968692 -0.059320435 0.44400004
0.12111663 -0.059454039 0.44500002
0.12227676 -0.059454039 0.44500002
0.12343691 -0.059454039 0.44500002
0.12459705 -0.059454039 0.44500002
0.1257572 -0.059454039 0.44500002
0.12691733 -0.059454039 0.44500002
0.12778968 -0.059320435 0.44400004
0.1289472 -0.059320435 0.44400004
0.13010475 -0.059320435 0.44400004
0.13126229 -0.059320435 0.44400004
0.13241981 -0.059320435 0.44400004
0.13357736 -0.059320435 0.44400004
0.13473488 -0.059320435 0.44400004
0.13589244 -0.059320435 0.44400004
0.13704996 -0.059320435 0.44400004
0.13820751 -0.059320435 0.44400004
0.13936503 -0.059320435 0.44400004
0.14083907 -0.059454039 0.44500002
0.14168011 -0.059320435 0.44400004
0.14315934 -0.059454039 0.44500002
0.14431949 -0.059454039 0.44500002
0.14547963 -0.059454039 0.44500002
0.14663978 -0.059454039 0.44500002
0.14746779 -0.059320435 0.44400004
0.14896007 -0.059454039 0.44500002
0.14978287 -0.059320435 0.44400004
0.1509404 -0.059320435 0.44400004
0.15244049 -0.059454039 0.44500002
0.15360065 -0.059454039 0.44500002
0.154413 -0.059320435 0.44400004
0.15592092 -0.059454039 0.44500002
0.15708107 -0.059454039 0.44500002
0.15824121 -0.059454039 0.44500002
0.15940134 -0.059454039 0.44500002
0.1605615 -0.059454039 0.44500002
0.16172165 -0.059454039 0.44500002
0.16288178 -0.059454039 0.44500002
0.16404194 -0.059454039 0.44500002
0.16520207 -0.059454039 0.44500002
0.16673607 -0.059587639 0.44600001
0.1678988 -0.059587639 0.44600001
0.16906156 -0.059587639 0.44600001
0.17022431 -0.059587639 0.44600001
0.17138706 -0.059587639 0.44600001
0.1725498 -0.059587639 0.44600001
0.17371257 -0.059587639 0.44600001
0.1748753 -0.059587639 0.44600001
0.17564335 -0.059454039 0.44500002
0.17680351 -0.059454039 0.44500002
0.17796364 -0.059454039 0.44500002
0.1791238 -0.059454039 0.44500002
0.18028393 -0.059454039 0.44500002
0.18144408 -0.059454039 0.44500002
0.18260422 -0.059454039 0.44500002
0.18376437 -0.059454039 0.44500002
0.1849245 -0.059454039 0.44500002
0.18608466 -0.059454039 0.44500002
0.18724479 -0.059454039 0.44500002
0.18882832 -0.059587639 0.44600001
0.18999106 -0.059587639 0.44600001
0.19115381 -0.059587639 0.44600001
0.19231658 -0.059587639 0.44600001
0.19347931 -0.059587639 0.44600001
0.19464207 -0.059587639 0.44600001
0.19580482 -0.059587639 0.44600001
0.19696757 -0.059587639 0.44600001
0.19813031 -0.059587639 0.44600001
0.19929308 -0.059587639 0.44600001
0.20045581 -0.059587639 0.44600001
0.20161857 -0.059587639 0.44600001
0.20278132 -0.059587639 0.44600001
0.20394407 -0.059587639 0.44600001
0.20464694 -0.059454039 0.44500002
0.20626958 -0.059587639 0.44600001
0.20743233 -0.059587639 0.44600001
0.20859507 -0.059587639 0.44600001
-0.24112488 -0.055935938 0.42700002
-0.24001166 -0.055935938 0.42700002
-0.23889846 -0.055935938 0.42700002
-0.23778522 -0.055935938 0.42700002
-0.23667201 -0.055935938 0.42700002
-0.23555881 -0.055935938 0.42700002
-0.23444557 -0.055935938 0.42700002
-0.23333237 -0.055935938 0.42700002
-0.23221914 -0.055935938 0.42700002
-0.23110594 -0.055935938 0.42700002
-0.2299927 -0.055935938 0.42700002
-0.22941552 -0.056066938 0.42800003
-0.22829971 -0.056066938 0.42800003
-0.22718389 -0.056066938 0.42800003
-0.22606805 -0.056066938 0.42800003
-0.22495224 -0.056066938 0.42800003
-0.22383642 -0.056066938 0.42800003
-0.22272059 -0.056066938 0.42800003
-0.22160476 -0.056066938 0.42800003
-0.22048894 -0.056066938 0.42800003
-0.21937312 -0.056066938 0.42800003
-0.21825728 -0.056066938 0.42800003
-0.21714146 -0.056066938 0.42800003
-0.21602565 -0.056066938 0.42800003
-0.21490984 -0.056066938 0.42800003
-0.21379401 -0.056066938 0.42800003
-0.21317507 -0.056197934 0.42900002
-0.21205665 -0.056197934 0.42900002
-0.21093822 -0.056197934 0.42900002
-0.20981979 -0.056197934 0.42900002
-0.20870136 -0.056197934 0.42900002
-0.20758292 -0.056197934 0.42900002
-0.2064645 -0.056197934 0.42900002
-0.20534606 -0.056197934 0.42900002
-0.20422764 -0.056197934 0.42900002
-0.2031092 -0.056197934 0.42900002
-0.20199078 -0.056197934 0.42900002
-0.20087235 -0.056197934 0.42900002
-0.19928829 -0.056066938 0.42800003
-0.19817246 -0.056066938 0.42800003
-0.19705665 -0.056066938 0.42800003
-0.19594082 -0.056066938 0.42800003
-0.19482501 -0.056066938 0.42800003
-0.19370918 -0.056066938 0.42800003
-0.19259335 -0.056066938 0.42800003
-0.19147754 -0.056066938 0.42800003
-0.19036171 -0.056066938 0.42800003
-0.18924589 -0.056066938 0.42800003
-0.18813007 -0.056066938 0.42800003
-0.18745118 -0.056197934 0.42900002
-0.18633275 -0.056197934 0.42900002
-0.18521433 -0.056197934 0.42900002
-0.18409589 -0.056197934 0.42900002
-0.18297747 -0.056197934 0.42900002
-0.18185903 -0.056197934 0.42900002
-0.18074061 -0.056197934 0.42900002
-0.18004087 -0.05632893 0.43000001
-0.17850374 -0.056197934 0.42900002
-0.17779879 -0.05632893 0.43000001
-0.17667775 -0.05632893 0.43000001
-0.17555672 -0.05632893 0.43000001
-0.17443568 -0.05632893 0.43000001
-0.17331465 -0.05632893 0.43000001
-0.1721936 -0.05632893 0.43000001
-0.17107257 -0.05632893 0.43000001
-0.16995153 -0.05632893 0.43000001
-0.1688305 -0.05632893 0.43000001
-0.16770945 -0.05632893 0.43000001
-0.16658843 -0.05632893 0.43000001
-0.16546738 -0.05632893 0.43000001
-0.16434634 -0.05632893 0.43000001
-0.16322531 -0.05632893 0.43000001
-0.16210426 -0.05632893 0.43000001
-0.16098323 -0.05632893 0.43000001
-0.15986219 -0.05632893 0.43000001
-0.15874116 -0.05632893 0.43000001
-0.15762012 -0.05632893 0.43000001
-0.15649909 -0.05632893 0.43000001
-0.15537804 -0.05632893 0.43000001
-0.15425701 -0.05632893 0.43000001
-0.15313597 -0.05632893 0.43000001
-0.15236847 -0.05645993 0.43100002
-0.15124482 -0.05645993 0.43100002
-0.15012117 -0.05645993 0.43100002
-0.14899753 -0.05645993 0.43100002
-0.14787388 -0.05645993 0.43100002
-0.14675024 -0.05645993 0.43100002
-0.14562659 -0.05645993 0.43100002
-0.14483823 -0.056590926 0.43200001
-0.14371197 -0.056590926 0.43200001
-0.14258572 -0.056590926 0.43200001
-0.14145947 -0.056590926 0.43200001
-0.14033322 -0.056590926 0.43200001
-0.13920696 -0.056590926 0.43200001
-0.13808072 -0.056590926 0.43200001
-0.13695446 -0.056590926 0.43200001
-0.1358282 -0.056590926 0.43200001
-0.13501377 -0.056721926 0.43300003
-0.13388491 -0.056721926 0.43300003
-0.13275605 -0.056721926 0.43300003
-0.13162719 -0.056721926 0.43300003
-0.13049833 -0.056721926 0.43300003
-0.12936947 -0.056721926 0.43300003
-0.12824063 -0.056721926 0.43300003
-0.12740532 -0.056852922 0.43400002
-0.12627386 -0.056852922 0.43400002
-0.12514238 -0.056852922 0.43400002
-0.12401093 -0.056852922 0.43400002
-0.12287945 -0.056852922 0.43400002
-0.12174799 -0.056852922 0.43400002
-0.12061653 -0.056852922 0.43400002
-0.11948505 -0.056852922 0.43400002
-0.1183536 -0.056852922 0.43400002
-0.11722212 -0.056852922 0.43400002
-0.11609066 -0.056852922 0.43400002
-0.1149592 -0.056852922 0.43400002
-0.11382774 -0.056852922 0.43400002
-0.11269626 -0.056852922 0.43400002
-0.1115648 -0.056852922 0.43400002
-0.11043333 -0.056852922 0.43400002
-0.10930187 -0.056852922 0.43400002
-0.10817041 -0.056852922 0.43400002
-0.10703894 -0.056852922 0.43400002
-0.10590747 -0.056852922 0.43400002
-0.10501743 -0.056983922 0.43500003
-0.10388336 -0.056983922 0.43500003
-0.10274929 -0.056983922 0.43500003
-0.10161521 -0.056983922 0.43500003
-0.10048113 -0.056983922 0.43500003
-0.099347062 -0.056983922 0.43500003
-0.098212987 -0.056983922 0.43500003
-0.097078919 -0.056983922 0.43500003
-0.095944844 -0.056983922 0.43500003
-0.094810769 -0.056983922 0.43500003
-0.093676701 -0.056983922 0.43500003
-0.092329882 -0.056852922 0.43400002
-0.091198415 -0.056852922 0.43400002
-0.090066954 -0.056852922 0.43400002
-0.088935487 -0.056852922 0.43400002
-0.087804019 -0.056852922 0.43400002
-0.086672559 -0.056852922 0.43400002
-0.085541084 -0.056852922 0.43400002
-0.084604114 -0.056983922 0.43500003
-0.083470047 -0.056983922 0.43500003
-0.082335971 -0.056983922 0.43500003
-0.081201896 -0.056983922 0.43500003
-0.080067828 -0.056983922 0.43500003
-0.078933753 -0.056983922 0.43500003
-0.077799685 -0.056983922 0.43500003
-0.07666561 -0.056983922 0.43500003
-0.075531535 -0.056983922 0.43500003
-0.074568495 -0.057114918 0.43600002
-0.073431812 -0.057114918 0.43600002
-0.072295137 -0.057114918 0.43600002
-0.071158446 -0.057114918 0.43600002
-0.070021771 -0.057114918 0.43600002
-0.068885088 -0.057114918 0.43600002
-0.067748412 -0.057114918 0.43600002
-0.06661173 -0.057114918 0.43600002
-0.065475054 -0.057114918 0.43600002
-0.064338371 -0.057114918 0.43600002
-0.063201696 -0.057114918 0.43600002
-0.062065013 -0.057114918 0.43600002
-0.060928334 -0.057114918 0.43600002
-0.059791654 -0.057114918 0.43600002
-0.058654975 -0.057114918 0.43600002
-0.057518296 -0.057114918 0.43600002
-0.056381609 -0.057114918 0.43600002
-0.05524493 -0.057114918 0.43600002
-0.054108255 -0.057114918 0.43600002
-0.052971575 -0.057114918 0.43600002
-0.051834892 -0.057114918 0.43600002
-0.050698213 -0.057114918 0.43600002
-0.049561534 -0.057114918 0.43600002
-0.048424855 -0.057114918 0.43600002
-0.047288176 -0.057114918 0.43600002
-0.046151496 -0.057114918 0.43600002
-0.045014814 -0.057114918 0.43600002
-0.043878134 -0.057114918 0.43600002
-0.042741455 -0.057114918 0.43600002
-0.041604776 -0.057114918 0.43600002
-0.040468097 -0.057114918 0.43600002
-0.039331418 -0.057114918 0.43600002
-0.038194738 -0.057114918 0.43600002
-0.037143052 -0.057245914 0.43700001
-0.036003765 -0.057245914 0.43700001
-0.034864478 -0.057245914 0.43700001
-0.033725191 -0.057245914 0.43700001
-0.032585904 -0.057245914 0.43700001
-0.031446621 -0.057245914 0.43700001
-0.03030733 -0.057245914 0.43700001
-0.029168043 -0.057245914 0.43700001
-0.028028756 -0.057245914 0.43700001
-0.026889471 -0.057245914 0.43700001
-0.025750184 -0.057245914 0.43700001
-0.024610896 -0.057245914 0.43700001
-0.023525322 -0.057376914 0.43800002
-0.022383429 -0.057376914 0.43800002
-0.021241533 -0.057376914 0.43800002
-0.02009964 -0.057376914 0.43800002
-0.018957747 -0.057376914 0.43800002
-0.017815851 -0.057376914 0.43800002
-0.016673958 -0.057376914 0.43800002
-0.015532064 -0.057376914 0.43800002
-0.014390172 -0.057376914 0.43800002
-0.013278523 -0.057507906 0.43900001
-0.012134022 -0.057507906 0.43900001
-0.010964489 -0.057376914 0.43800002
-0.0098225949 -0.057376914 0.43800002
-0.0086807003 -0.057376914 0.43800002
-0.0075388066 -0.057376914 0.43800002
-0.0063969125 -0.057376914 0.43800002
-0.0052550188 -0.057376914 0.43800002
-0.0041131251 -0.057376914 0.43800002
-0.0029712312 -0.057376914 0.43800002
-0.0018293372 -0.057376914 0.43800002
-0.00068744324 -0.057376914 0.43800002
0.00045445067 -0.057376914 0.43800002
0.0015963446 -0.057376914 0.43800002
0.0027382385 -0.057376914 0.43800002
0.0038801325 -0.057376914 0.43800002
0.0050220266 -0.057376914 0.43800002
0.0061639203 -0.057376914 0.43800002
0.0073058144 -0.057376914 0.43800002
0.0084477076 -0.057376914 0.43800002
0.0095896022 -0.057376914 0.43800002
0.010731496 -0.057376914 0.43800002
0.01187339 -0.057376914 0.43800002
0.013015284 -0.057376914 0.43800002
0.014157177 -0.057376914 0.43800002
0.015299071 -0.057376914 0.43800002
0.016403429 -0.057245914 0.43700001
0.017542714 -0.057245914 0.43700001
0.020960575 -0.057245914 0.43700001
0.040051725 -0.040740229 0.31100002
0.040862523 -0.040740229 0.31100002
0.042210903 -0.040478233 0.30900002
0.04448323 -0.040347237 0.30800003
0.045939539 -0.040216237 0.30700001
0.048500735 -0.039692245 0.303
0.049128003 -0.039561249 0.30200002
0.049750056 -0.039430253 0.30100003
0.050534781 -0.039430253 0.30100003
0.051319506 -0.039430253 0.30100003
0.051931128 -0.039299253 0.30000001
0.052713249 -0.039299253 0.30000001
0.097473696 -0.058031898 0.44300002
0.098628625 -0.058031898 0.44300002
0.099783555 -0.058031898 0.44300002
0.10093848 -0.058031898 0.44300002
0.10209341 -0.058031898 0.44300002
0.10324834 -0.058031898 0.44300002
0.10440326 -0.058031898 0.44300002
0.10555819 -0.058031898 0.44300002
0.10671312 -0.058031898 0.44300002
0.10786806 -0.058031898 0.44300002
0.10902299 -0.058031898 0.44300002
0.11017792 -0.058031898 0.44300002
0.11133284 -0.058031898 0.44300002
0.11248778 -0.058031898 0.44300002
0.1136427 -0.058031898 0.44300002
0.11505678 -0.058162898 0.44400004
0.11621431 -0.058162898 0.44400004
0.11737184 -0.058162898 0.44400004
0.11852939 -0.058162898 0.44400004
0.11968692 -0.058162898 0.44400004
0.12111663 -0.058293894 0.44500002
0.12227676 -0.058293894 0.44500002
0.12343691 -0.058293894 0.44500002
0.12459705 -0.058293894 0.44500002
0.1257572 -0.058293894 0.44500002
0.12691733 -0.058293894 0.44500002
0.12807748 -0.058293894 0.44500002
0.1289472 -0.058162898 0.44400004
0.13010475 -0.058162898 0.44400004
0.13126229 -0.058162898 0.44400004
0.13241981 -0.058162898 0.44400004
0.13357736 -0.058162898 0.44400004
0.13473488 -0.058162898 0.44400004
0.13589244 -0.058162898 0.44400004
0.13704996 -0.058162898 0.44400004
0.13820751 -0.058162898 0.44400004
0.13936503 -0.058162898 0.44400004
0.14052257 -0.058162898 0.44400004
0.1419992 -0.058293894 0.44500002
0.14315934 -0.058293894 0.44500002
0.14431949 -0.058293894 0.44500002
0.14547963 -0.058293894 0.44500002
0.14663978 -0.058293894 0.44500002
0.14746779 -0.058162898 0.44400004
0.14896007 -0.058293894 0.44500002
0.14978287 -0.058162898 0.44400004
0.15128036 -0.058293894 0.44500002
0.15244049 -0.058293894 0.44500002
0.15360065 -0.058293894 0.44500002
0.15476078 -0.058293894 0.44500002
0.15592092 -0.058293894 0.44500002
0.15708107 -0.058293894 0.44500002
0.15824121 -0.058293894 0.44500002
0.15940134 -0.058293894 0.44500002
0.1605615 -0.058293894 0.44500002
0.16172165 -0.058293894 0.44500002
0.16288178 -0.058293894 0.44500002
0.16404194 -0.058293894 0.44500002
0.16520207 -0.058293894 0.44500002
0.16673607 -0.05842489 0.44600001
0.1678988 -0.05842489 0.44600001
0.16906156 -0.05842489 0.44600001
0.17022431 -0.05842489 0.44600001
0.17138706 -0.05842489 0.44600001
0.1725498 -0.05842489 0.44600001
0.17371257 -0.05842489 0.44600001
0.1748753 -0.05842489 0.44600001
0.17564335 -0.058293894 0.44500002
0.17680351 -0.058293894 0.44500002
0.17796364 -0.058293894 0.44500002
0.1791238 -0.058293894 0.44500002
0.18028393 -0.058293894 0.44500002
0.18144408 -0.058293894 0.44500002
0.18260422 -0.058293894 0.44500002
0.18376437 -0.058293894 0.44500002
0.1849245 -0.058293894 0.44500002
0.18650281 -0.05842489 0.44600001
0.18766557 -0.05842489 0.44600001
0.18882832 -0.05842489 0.44600001
0.18999106 -0.05842489 0.44600001
0.19115381 -0.05842489 0.44600001
0.19231658 -0.05842489 0.44600001
0.19347931 -0.05842489 0.44600001
0.19464207 -0.05842489 0.44600001
0.19580482 -0.05842489 0.44600001
0.19696757 -0.05842489 0.44600001
0.19813031 -0.05842489 0.44600001
0.19929308 -0.05842489 0.44600001
0.20045581 -0.05842489 0.44600001
0.20161857 -0.05842489 0.44600001
0.20278132 -0.05842489 0.44600001
0.20394407 -0.05842489 0.44600001
0.20510681 -0.05842489 0.44600001
0.20626958 -0.05842489 0.44600001
0.20743233 -0.05842489 0.44600001
0.20859507 -0.05842489 0.44600001
-0.24112488 -0.054822724 0.42700002
-0.24001166 -0.054822724 0.42700002
-0.23889846 -0.054822724 0.42700002
-0.23778522 -0.054822724 0.42700002
-0.23667201 -0.054822724 0.42700002
-0.23555881 -0.054822724 0.42700002
-0.23444557 -0.054822724 0.42700002
-0.23333237 -0.054822724 0.42700002
-0.23221914 -0.054822724 0.42700002
-0.23110594 -0.054822724 0.42700002
-0.23053133 -0.054951116 0.42800003
-0.22941552 -0.054951116 0.42800003
-0.22829971 -0.054951116 0.42800003
-0.22718389 -0.054951116 0.42800003
-0.22606805 -0.054951116 0.42800003
-0.22495224 -0.054951116 0.42800003
-0.22383642 -0.054951116 0.42800003
-0.22272059 -0.054951116 0.42800003
-0.22160476 -0.054951116 0.42800003
-0.22048894 -0.054951116 0.42800003
-0.21937312 -0.054951116 0.42800003
-0.21825728 -0.054951116 0.42800003
-0.21714146 -0.054951116 0.42800003
-0.21602565 -0.054951116 0.42800003
-0.21490984 -0.054951116 0.42800003
-0.21429351 -0.055079505 0.42900002
-0.21317507 -0.055079505 0.42900002
-0.21205665 -0.055079505 0.42900002
-0.21093822 -0.055079505 0.42900002
-0.20981979 -0.055079505 0.42900002
-0.20870136 -0.055079505 0.42900002
-0.20758292 -0.055079505 0.42900002
-0.2064645 -0.055079505 0.42900002
-0.20534606 -0.055079505 0.42900002
-0.20422764 -0.055079505 0.42900002
-0.2031092 -0.055079505 0.42900002
-0.20199078 -0.055079505 0.42900002
-0.20087235 -0.055079505 0.42900002
-0.19975393 -0.055079505 0.42900002
-0.19817246 -0.054951116 0.42800003
-0.19705665 -0.054951116 0.42800003
-0.19594082 -0.054951116 0.42800003
-0.19482501 -0.054951116 0.42800003
-0.19370918 -0.054951116 0.42800003
-0.19259335 -0.054951116 0.42800003
-0.19147754 -0.054951116 0.42800003
-0.19036171 -0.054951116 0.42800003
-0.18924589 -0.054951116 0.42800003
-0.18813007 -0.054951116 0.42800003
-0.18701424 -0.054951116 0.42800003
-0.18589841 -0.054951116 0.42800003
-0.18521433 -0.055079505 0.42900002
-0.18409589 -0.055079505 0.42900002
-0.18297747 -0.055079505 0.42900002
-0.18185903 -0.055079505 0.42900002
-0.18074061 -0.055079505 0.42900002
-0.18004087 -0.055207893 0.43000001
-0.17850374 -0.055079505 0.42900002
-0.17779879 -0.055207893 0.43000001
-0.17667775 -0.055207893 0.43000001
-0.17555672 -0.055207893 0.43000001
-0.17443568 -0.055207893 0.43000001
-0.17331465 -0.055207893 0.43000001
-0.1721936 -0.055207893 0.43000001
-0.17107257 -0.055207893 0.43000001
-0.16995153 -0.055207893 0.43000001
-0.1688305 -0.055207893 0.43000001
-0.16770945 -0.055207893 0.43000001
-0.16658843 -0.055207893 0.43000001
-0.16546738 -0.055207893 0.43000001
-0.16434634 -0.055207893 0.43000001
-0.16322531 -0.055207893 0.43000001
-0.16210426 -0.055207893 0.43000001
-0.16098323 -0.055207893 0.43000001
-0.15986219 -0.055207893 0.43000001
-0.15874116 -0.055207893 0.43000001
-0.15762012 -0.055207893 0.43000001
-0.15649909 -0.055207893 0.43000001
-0.15537804 -0.055207893 0.43000001
-0.15425701 -0.055207893 0.43000001
-0.15349211 -0.055336285 0.43100002
-0.15236847 -0.055336285 0.43100002
-0.15124482 -0.055336285 0.43100002
-0.15012117 -0.055336285 0.43100002
-0.14899753 -0.055336285 0.43100002
-0.14787388 -0.055336285 0.43100002
-0.14709072 -0.055464674 0.43200001
-0.14596447 -0.055464674 0.43200001
-0.14483823 -0.055464674 0.43200001
-0.14371197 -0.055464674 0.43200001
-0.14258572 -0.055464674 0.43200001
-0.14145947 -0.055464674 0.43200001
-0.14033322 -0.055464674 0.43200001
-0.13920696 -0.055464674 0.43200001
-0.13808072 -0.055464674 0.43200001
-0.13727149 -0.055593066 0.43300003
-0.13614263 -0.055593066 0.43300003
-0.13501377 -0.055593066 0.43300003
-0.13388491 -0.055593066 0.43300003
-0.13275605 -0.055593066 0.43300003
-0.13162719 -0.055593066 0.43300003
-0.13049833 -0.055593066 0.43300003
-0.12936947 -0.055593066 0.43300003
-0.12824063 -0.055593066 0.43300003
-0.12740532 -0.055721454 0.43400002
-0.12627386 -0.055721454 0.43400002
-0.12514238 -0.055721454 0.43400002
-0.12401093 -0.055721454 0.43400002
-0.12287945 -0.055721454 0.43400002
-0.12174799 -0.055721454 0.43400002
-0.12061653 -0.055721454 0.43400002
-0.11948505 -0.055721454 0.43400002
-0.1183536 -0.055721454 0.43400002
-0.11722212 -0.055721454 0.43400002
-0.11609066 -0.055721454 0.43400002
-0.1149592 -0.055721454 0.43400002
-0.11382774 -0.055721454 0.43400002
-0.11269626 -0.055721454 0.43400002
-0.1115648 -0.055721454 0.43400002
-0.11043333 -0.055721454 0.43400002
-0.10930187 -0.055721454 0.43400002
-0.10817041 -0.055721454 0.43400002
-0.10703894 -0.055721454 0.43400002
-0.10590747 -0.055721454 0.43400002
-0.10501743 -0.055849846 0.43500003
-0.10388336 -0.055849846 0.43500003
-0.10274929 -0.055849846 0.43500003
-0.10161521 -0.055849846 0.43500003
-0.10048113 -0.055849846 0.43500003
-0.099347062 -0.055849846 0.43500003
-0.098212987 -0.055849846 0.43500003
-0.097078919 -0.055849846 0.43500003
-0.095944844 -0.055849846 0.43500003
-0.094810769 -0.055849846 0.43500003
-0.093676701 -0.055849846 0.43500003
-0.092329882 -0.055721454 0.43400002
-0.091198415 -0.055721454 0.43400002
-0.090066954 -0.055721454 0.43400002
-0.088935487 -0.055721454 0.43400002
-0.087804019 -0.055721454 0.43400002
-0.086672559 -0.055721454 0.43400002
-0.085541084 -0.055721454 0.43400002
-0.084604114 -0.055849846 0.43500003
-0.083470047 -0.055849846 0.43500003
-0.082335971 -0.055849846 0.43500003
-0.081201896 -0.055849846 0.43500003
-0.080067828 -0.055849846 0.43500003
-0.078933753 -0.055849846 0.43500003
-0.077799685 -0.055849846 0.43500003
-0.07666561 -0.055849846 0.43500003
-0.075705171 -0.055978239 0.43600002
-0.074568495 -0.055978239 0.43600002
-0.073263392 -0.055849846 0.43500003
-0.072295137 -0.055978239 0.43600002
-0.071158446 -0.055978239 0.43600002
-0.070021771 -0.055978239 0.43600002
-0.068885088 -0.055978239 0.43600002
-0.067748412 -0.055978239 0.43600002
-0.06661173 -0.055978239 0.43600002
-0.065475054 -0.055978239 0.43600002
-0.064338371 -0.055978239 0.43600002
-0.063201696 -0.055978239 0.43600002
-0.062065013 -0.055978239 0.43600002
-0.060928334 -0.055978239 0.43600002
-0.059791654 -0.055978239 0.43600002
-0.058654975 -0.055978239 0.43600002
-0.057518296 -0.055978239 0.43600002
-0.056381609 -0.055978239 0.43600002
-0.05524493 -0.055978239 0.43600002
-0.054108255 -0.055978239 0.43600002
-0.052971575 -0.055978239 0.43600002
-0.051834892 -0.055978239 0.43600002
-0.050698213 -0.055978239 0.43600002
-0.049561534 -0.055978239 0.43600002
-0.048424855 -0.055978239 0.43600002
-0.047288176 -0.055978239 0.43600002
-0.046151496 -0.055978239 0.43600002
-0.045014814 -0.055978239 0.43600002
-0.043878134 -0.055978239 0.43600002
-0.042741455 -0.055978239 0.43600002
-0.041604776 -0.055978239 0.43600002
-0.040468097 -0.055978239 0.43600002
-0.039331418 -0.055978239 0.43600002
-0.038194738 -0.055978239 0.43600002
-0.037143052 -0.056106627 0.43700001
-0.036003765 -0.056106627 0.43700001
-0.034864478 -0.056106627 0.43700001
-0.033725191 -0.056106627 0.43700001
-0.032585904 -0.056106627 0.43700001
-0.031446621 -0.056106627 0.43700001
-0.03030733 -0.056106627 0.43700001
-0.029168043 -0.056106627 0.43700001
-0.028028756 -0.056106627 0.43700001
-0.026889471 -0.056106627 0.43700001
-0.025750184 -0.056106627 0.43700001
-0.024610896 -0.056106627 0.43700001
-0.023471611 -0.056106627 0.43700001
-0.022383429 -0.056235019 0.43800002
-0.021241533 -0.056235019 0.43800002
-0.02009964 -0.056235019 0.43800002
-0.018957747 -0.056235019 0.43800002
-0.017815851 -0.056235019 0.43800002
-0.016673958 -0.056235019 0.43800002
-0.015532064 -0.056235019 0.43800002
-0.014423025 -0.056363408 0.43900001
-0.013278523 -0.056363408 0.43900001
-0.012134022 -0.056363408 0.43900001
-0.010989521 -0.056363408 0.43900001
-0.0098450212 -0.056363408 0.43900001
-0.0086807003 -0.056235019 0.43800002
-0.0075388066 -0.056235019 0.43800002
-0.0063969125 -0.056235019 0.43800002
-0.0052550188 -0.056235019 0.43800002
-0.0041131251 -0.056235019 0.43800002
-0.0029712312 -0.056235019 0.43800002
-0.0018293372 -0.056235019 0.43800002
-0.00068744324 -0.056235019 0.43800002
0.00045445067 -0.056235019 0.43800002
0.0015963446 -0.056235019 0.43800002
0.0027382385 -0.056235019 0.43800002
0.0038801325 -0.056235019 0.43800002
0.0050220266 -0.056235019 0.43800002
0.0061639203 -0.056235019 0.43800002
0.0073058144 -0.056235019 0.43800002
0.0084477076 -0.056235019 0.43800002
0.0095896022 -0.056235019 0.43800002
0.010731496 -0.056235019 0.43800002
0.01187339 -0.056235019 0.43800002
0.013015284 -0.056235019 0.43800002
0.014157177 -0.056235019 0.43800002
0.01526414 -0.056106627 0.43700001
0.016403429 -0.056106627 0.43700001
0.017542714 -0.056106627 0.43700001
0.039922938 -0.039801039 0.31
0.040731128 -0.039801039 0.31
0.041539319 -0.039801039 0.31
0.043016486 -0.03967265 0.30900002
0.043822072 -0.03967265 0.30900002
0.044627655 -0.03967265 0.30900002
0.045286208 -0.039544262 0.30800003
0.046089184 -0.039544262 0.30800003
0.046739906 -0.03941587 0.30700001
0.047385424 -0.039287481 0.30600002
0.048500735 -0.038902305 0.303
0.049128003 -0.038773917 0.30200002
0.049750056 -0.038645528 0.30100003
0.050534781 -0.038645528 0.30100003
0.051931128 -0.038517136 0.30000001
0.052713249 -0.038517136 0.30000001
0.099783555 -0.056876969 0.44300002
0.10093848 -0.056876969 0.44300002
0.10209341 -0.056876969 0.44300002
0.10324834 -0.056876969 0.44300002
0.10440326 -0.056876969 0.44300002
0.10555819 -0.056876969 0.44300002
0.10671312 -0.056876969 0.44300002
0.10786806 -0.056876969 0.44300002
0.10902299 -0.056876969 0.44300002
0.11017792 -0.056876969 0.44300002
0.11158416 -0.057005364 0.44400004
0.11248778 -0.056876969 0.44300002
0.1136427 -0.056876969 0.44300002
0.11479763 -0.056876969 0.44300002
0.11621431 -0.057005364 0.44400004
0.11737184 -0.057005364 0.44400004
0.11852939 -0.057005364 0.44400004
0.11968692 -0.057005364 0.44400004
0.12111663 -0.057133753 0.44500002
0.12227676 -0.057133753 0.44500002
0.12343691 -0.057133753 0.44500002
0.12459705 -0.057133753 0.44500002
0.1257572 -0.057133753 0.44500002
0.12691733 -0.057133753 0.44500002
0.12807748 -0.057133753 0.44500002
0.12923762 -0.057133753 0.44500002
0.13010475 -0.057005364 0.44400004
0.13126229 -0.057005364 0.44400004
0.13241981 -0.057005364 0.44400004
0.13357736 -0.057005364 0.44400004
0.13473488 -0.057005364 0.44400004
0.13589244 -0.057005364 0.44400004
0.13704996 -0.057005364 0.44400004
0.13820751 -0.057005364 0.44400004
0.13936503 -0.057005364 0.44400004
0.14052257 -0.057005364 0.44400004
0.14168011 -0.057005364 0.44400004
0.14315934 -0.057133753 0.44500002
0.14431949 -0.057133753 0.44500002
0.14547963 -0.057133753 0.44500002
0.14663978 -0.057133753 0.44500002
0.14779992 -0.057133753 0.44500002
0.14896007 -0.057133753 0.44500002
0.14978287 -0.057005364 0.44400004
0.15128036 -0.057133753 0.44500002
0.15244049 -0.057133753 0.44500002
0.15360065 -0.057133753 0.44500002
0.15476078 -0.057133753 0.44500002
0.15592092 -0.057133753 0.44500002
0.15708107 -0.057133753 0.44500002
0.15824121 -0.057133753 0.44500002
0.15940134 -0.057133753 0.44500002
0.1605615 -0.057133753 0.44500002
