# .PCD v0.7 - Point Cloud Data file format
VERSION 0.7
FIELDS x y z
SIZE 4 4 4
TYPE F F F
COUNT 1 1 1
WIDTH 1349
HEIGHT 1
VIEWPOINT 0 0 0 1 0 0 0
POINTS 1349
DATA ascii
0.025858337 -0.086973861 0.41100001
0.026927469 -0.086973861 0.41100001
0.027928488 -0.086762242 0.41000003
0.028995022 -0.086762242 0.41000003
0.030061556 -0.086762242 0.41000003
0.031052168 -0.086550623 0.40900001
0.0321161 -0.086550623 0.40900001
0.033180032 -0.086550623 0.40900001
0.034243964 -0.086550623 0.40900001
0.035221569 -0.086339012 0.40800002
0.036282901 -0.086339012 0.40800002
0.037344232 -0.086339012 0.40800002
0.038311433 -0.086127393 0.40700001
0.039370161 -0.086127393 0.40700001
0.040428892 -0.086127393 0.40700001
0.041385688 -0.085915782 0.40600002
0.042441815 -0.085915782 0.40600002
0.04339081 -0.08570417 0.40500003
0.044444337 -0.08570417 0.40500003
0.045497864 -0.08570417 0.40500003
0.046551388 -0.08570417 0.40500003
0.047487371 -0.085492551 0.40400001
0.048538297 -0.085492551 0.40400001
0.049589224 -0.085492551 0.40400001
0.050640147 -0.085492551 0.40400001
0.051691078 -0.085492551 0.40400001
0.052611455 -0.08528094 0.40300003
0.053659782 -0.08528094 0.40300003
0.054572351 -0.085069321 0.40200001
0.05561807 -0.085069321 0.40200001
0.056663796 -0.085069321 0.40200001
0.057709519 -0.085069321 0.40200001
0.058755245 -0.085069321 0.40200001
0.059800968 -0.085069321 0.40200001
0.060695335 -0.08485771 0.40100002
0.061738454 -0.08485771 0.40100002
0.062781572 -0.08485771 0.40100002
0.063665532 -0.084646091 0.40000001
0.06470605 -0.084646091 0.40000001
0.065746576 -0.084646091 0.40000001
0.066620126 -0.084434479 0.39900002
0.067658052 -0.084434479 0.39900002
0.06869597 -0.084434479 0.39900002
0.06955912 -0.084222861 0.39800003
0.070594437 -0.084222861 0.39800003
0.071629755 -0.084222861 0.39800003
0.072665073 -0.084222861 0.39800003
0.073515214 -0.084011242 0.39700001
0.074547924 -0.084011242 0.39700001
0.075580649 -0.084011242 0.39700001
0.076613359 -0.084011242 0.39700001
0.077450499 -0.08379963 0.39600003
0.078480616 -0.08379963 0.39600003
0.079309948 -0.083588012 0.39500001
0.080337457 -0.083588012 0.39500001
0.081364967 -0.083588012 0.39500001
0.082392484 -0.083588012 0.39500001
0.083208814 -0.0833764 0.39400002
0.084233731 -0.0833764 0.39400002
0.08525864 -0.0833764 0.39400002
0.08628355 -0.0833764 0.39400002
0.087308466 -0.0833764 0.39400002
0.088333376 -0.0833764 0.39400002
0.089358293 -0.0833764 0.39400002
0.090383202 -0.0833764 0.39400002
0.091176115 -0.083164781 0.39300001
0.092198424 -0.083164781 0.39300001
0.093220733 -0.083164781 0.39300001
0.09424305 -0.083164781 0.39300001
0.095265359 -0.083164781 0.39300001
0.096287675 -0.083164781 0.39300001
0.097062379 -0.08295317 0.39200002
0.098082088 -0.08295317 0.39200002
0.099101797 -0.08295317 0.39200002
0.10012151 -0.08295317 0.39200002
0.10114122 -0.08295317 0.39200002
0.10190032 -0.082741559 0.39100003
0.10291743 -0.082741559 0.39100003
0.10393454 -0.082741559 0.39100003
0.10468323 -0.08252994 0.39000002
0.10569774 -0.08252994 0.39000002
0.10671224 -0.08252994 0.39000002
0.10745052 -0.082318328 0.38900003
0.10846244 -0.082318328 0.38900003
0.10919292 -0.082106709 0.38800001
0.11020222 -0.082106709 0.38800001
0.1109249 -0.081895098 0.38700002
0.1119316 -0.081895098 0.38700002
0.11293831 -0.081895098 0.38700002
0.11365058 -0.081683479 0.38600001
0.11465468 -0.081683479 0.38600001
0.11565877 -0.081683479 0.38600001
0.11666287 -0.081683479 0.38600001
0.11736216 -0.08147186 0.38500002
0.11836366 -0.08147186 0.38500002
0.11936516 -0.08147186 0.38500002
0.12036666 -0.08147186 0.38500002
0.12105291 -0.081260242 0.384
0.12205181 -0.081260242 0.384
0.12305071 -0.081260242 0.384
0.1240496 -0.081260242 0.384
0.12472286 -0.08104863 0.38300002
0.12571917 -0.08104863 0.38300002
0.12671547 -0.08104863 0.38300002
0.12771176 -0.08104863 0.38300002
0.12837201 -0.080837019 0.38200003
0.12936571 -0.080837019 0.38200003
0.13035941 -0.080837019 0.38200003
0.13135311 -0.080837019 0.38200003
0.13234681 -0.080837019 0.38200003
0.13334049 -0.080837019 0.38200003
0.13433419 -0.080837019 0.38200003
0.13497363 -0.0806254 0.38100001
0.13596472 -0.0806254 0.38100001
0.13695581 -0.0806254 0.38100001
0.13794692 -0.0806254 0.38100001
0.13857335 -0.080413789 0.38000003
0.13956185 -0.080413789 0.38000003
0.14055035 -0.080413789 0.38000003
0.14116636 -0.08020217 0.37900001
0.14215225 -0.08020217 0.37900001
0.14313816 -0.08020217 0.37900001
0.14374377 -0.079990558 0.37800002
0.14472707 -0.079990558 0.37800002
0.14571035 -0.079990558 0.37800002
0.14669365 -0.079990558 0.37800002
0.14728625 -0.079778939 0.377
0.14826694 -0.079778939 0.377
0.14924763 -0.079778939 0.377
0.15022832 -0.079778939 0.377
0.15120901 -0.079778939 0.377
0.1521897 -0.079778939 0.377
0.15317039 -0.079778939 0.377
0.15415108 -0.079778939 0.377
0.15513177 -0.079778939 0.377
0.15569837 -0.079567328 0.37600002
0.15667647 -0.079567328 0.37600002
0.15723528 -0.079355717 0.37500003
0.15821075 -0.079355717 0.37500003
0.15918624 -0.079355717 0.37500003
0.16016175 -0.079355717 0.37500003
0.16070752 -0.079144098 0.37400001
0.1616804 -0.079144098 0.37400001
0.1626533 -0.079144098 0.37400001
0.16362618 -0.079144098 0.37400001
0.16415897 -0.078932479 0.37300003
0.16512926 -0.078932479 0.37300003
0.16609953 -0.078932479 0.37300003
0.16706982 -0.078932479 0.37300003
0.16758959 -0.07872086 0.37200001
0.16855729 -0.07872086 0.37200001
0.16952497 -0.07872086 0.37200001
0.17049265 -0.07872086 0.37200001
0.17099942 -0.078509249 0.37100002
0.1719645 -0.078509249 0.37100002
0.17292958 -0.078509249 0.37100002
0.17389467 -0.078509249 0.37100002
0.17438842 -0.07829763 0.37
-0.27531615 -0.10346189 0.49500003
-0.2734749 -0.10325287 0.49400002
-0.27218986 -0.10325287 0.49400002
-0.27090484 -0.10325287 0.49400002
-0.26907399 -0.10304386 0.49300003
-0.26779154 -0.10304386 0.49300003
-0.26596853 -0.10283484 0.49200001
-0.26468867 -0.10283484 0.49200001
-0.26340884 -0.10283484 0.49200001
-0.26159623 -0.10262583 0.49100003
-0.25978878 -0.10241682 0.49000001
-0.25851417 -0.10241682 0.49000001
-0.25671452 -0.10220781 0.48900002
-0.25544253 -0.10220781 0.48900002
-0.2536507 -0.1019988 0.48800004
-0.25238127 -0.1019988 0.48800004
-0.25059724 -0.10178978 0.48700002
-0.2493304 -0.10178978 0.48700002
-0.24755423 -0.10158077 0.48600003
-0.24628998 -0.10158077 0.48600003
-0.24452156 -0.10137175 0.48500001
-0.24325995 -0.10137175 0.48500001
-0.24149935 -0.10116274 0.48400003
-0.23974395 -0.10095372 0.48300001
-0.23848753 -0.10095372 0.48300001
-0.23723109 -0.10095372 0.48300001
-0.23548611 -0.10074471 0.48200002
-0.23423228 -0.10074471 0.48200002
-0.2324951 -0.1005357 0.48100004
-0.23124388 -0.1005357 0.48100004
-0.22951449 -0.10032668 0.48000002
-0.22826585 -0.10032668 0.48000002
-0.22701722 -0.10032668 0.48000002
-0.22576861 -0.10032668 0.48000002
-0.22451998 -0.10032668 0.48000002
-0.2228062 -0.10011767 0.47900003
-0.22156018 -0.10011767 0.47900003
-0.21985421 -0.09990865 0.47800002
-0.21861079 -0.09990865 0.47800002
-0.21691264 -0.099699639 0.47700003
-0.21567181 -0.099699639 0.47700003
-0.21443099 -0.099699639 0.47700003
-0.21274322 -0.09949062 0.47600001
-0.21150501 -0.09949062 0.47600001
-0.21026678 -0.09949062 0.47600001
-0.20858942 -0.099281609 0.47500002
-0.20735382 -0.099281609 0.47500002
-0.2061182 -0.099281609 0.47500002
-0.20488258 -0.099281609 0.47500002
-0.20321824 -0.099072598 0.47400004
-0.20198521 -0.099072598 0.47400004
-0.20032866 -0.098863587 0.47300002
-0.19909824 -0.098863587 0.47300002
-0.19786784 -0.098863587 0.47300002
-0.19622171 -0.098654576 0.47200003
-0.19499388 -0.098654576 0.47200003
-0.19376607 -0.098654576 0.47200003
-0.19213033 -0.098445557 0.47100002
-0.19090512 -0.098445557 0.47100002
-0.18967989 -0.098445557 0.47100002
-0.18805458 -0.098236546 0.47000003
-0.18683197 -0.098236546 0.47000003
-0.18560936 -0.098236546 0.47000003
-0.18399443 -0.098027527 0.46900001
-0.18277441 -0.098027527 0.46900001
-0.18155439 -0.098027527 0.46900001
-0.17994988 -0.097818516 0.46800002
-0.17873248 -0.097818516 0.46800002
-0.17751507 -0.097818516 0.46800002
-0.17592095 -0.097609498 0.46700001
-0.17470613 -0.097609498 0.46700001
-0.17349133 -0.097609498 0.46700001
-0.17190763 -0.097400486 0.46600002
-0.17069542 -0.097400486 0.46600002
-0.16948321 -0.097400486 0.46600002
-0.16827101 -0.097400486 0.46600002
-0.1670588 -0.097400486 0.46600002
-0.1654907 -0.097191475 0.46500003
-0.16428109 -0.097191475 0.46500003
-0.16307148 -0.097191475 0.46500003
-0.16151379 -0.096982457 0.46400002
-0.1599613 -0.096773446 0.46300003
-0.15875691 -0.096773446 0.46300003
-0.1572122 -0.096564427 0.46200001
-0.15567271 -0.096355416 0.46100003
-0.15447353 -0.096355416 0.46100003
-0.15294184 -0.096146397 0.46000001
-0.15174524 -0.096146397 0.46000001
-0.15054864 -0.096146397 0.46000001
-0.14902736 -0.095937386 0.45900002
-0.11043189 -0.07796219 0.37300003
-0.10946161 -0.07796219 0.37300003
-0.10849131 -0.07796219 0.37300003
-0.10780928 -0.078171201 0.37400001
-0.1068364 -0.078171201 0.37400001
-0.10614657 -0.07838022 0.37500003
-0.10517109 -0.07838022 0.37500003
-0.10447344 -0.078589231 0.37600002
-0.10377061 -0.078798242 0.377
-0.10306258 -0.079007261 0.37800002
-0.10207929 -0.079007261 0.37800002
-0.101096 -0.079007261 0.37800002
-0.10011269 -0.079007261 0.37800002
-0.099129401 -0.079007261 0.37800002
-0.097886465 -0.078798242 0.377
-0.096905775 -0.078798242 0.377
-0.095670633 -0.078589231 0.37600002
-0.094692551 -0.078589231 0.37600002
-0.093714461 -0.078589231 0.37600002
-0.092736371 -0.078589231 0.37600002
-0.091745943 -0.07942529 0.38000003
-0.091235116 -0.07984332 0.38200003
-0.090950124 -0.080470361 0.38500002
-0.090649515 -0.081097402 0.38800001
-0.090333313 -0.081724443 0.39100003
-0.090229921 -0.082560495 0.39500001
-0.089879893 -0.083187543 0.39800003
-0.089291029 -0.083605565 0.40000001
-0.088691764 -0.084023595 0.40200001
-0.087864064 -0.084232613 0.40300003
-0.087031163 -0.084441625 0.40400001
-0.085980229 -0.084441625 0.40400001
-0.08492931 -0.084441625 0.40400001
-0.084086001 -0.084650643 0.40500003
-0.083032474 -0.084650643 0.40500003
-0.081978954 -0.084650643 0.40500003
-0.081125237 -0.084859654 0.40600002
-0.08006911 -0.084859654 0.40600002
-0.079207584 -0.085068665 0.40700001
-0.078148857 -0.085068665 0.40700001
-0.077279538 -0.085277677 0.40800002
-0.07621821 -0.085277677 0.40800002
-0.075156882 -0.085277677 0.40800002
-0.074277155 -0.085486688 0.40900001
-0.07321322 -0.085486688 0.40900001
-0.072149284 -0.085486688 0.40900001
-0.071259163 -0.085695706 0.41000003
-0.070192628 -0.085695706 0.41000003
-0.069294691 -0.085904717 0.41100001
-0.068225555 -0.085904717 0.41100001
-0.067319818 -0.086113736 0.41200003
-0.066248089 -0.086113736 0.41200003
-0.065176345 -0.086113736 0.41200003
-0.064260207 -0.086322747 0.41300002
-0.063338861 -0.086531766 0.41400003
-0.06226192 -0.086531766 0.41400003
-0.061332773 -0.086740777 0.41500002
-0.060398415 -0.086949788 0.41600001
-0.059458867 -0.087158807 0.41700003
-0.058514103 -0.087367818 0.41800001
-0.057426762 -0.087367818 0.41800001
-0.056608986 -0.087785847 0.42000002
-0.055648621 -0.087994866 0.42100003
-0.054812633 -0.088412888 0.42300001
-0.053966239 -0.088830911 0.42500001
-0.052985068 -0.089039929 0.42600003
-0.052120466 -0.089457959 0.42800003
-0.051126283 -0.08966697 0.42900002
-0.050126895 -0.089875981 0.43000001
-0.049122315 -0.090085 0.43100002
-0.048001152 -0.090085 0.43100002
-0.046879992 -0.090085 0.43100002
-0.045758829 -0.090085 0.43100002
-0.044637669 -0.090085 0.43100002
-0.043516506 -0.090085 0.43100002
-0.04229698 -0.089875981 0.43000001
-0.04117842 -0.089875981 0.43000001
-0.040059861 -0.089875981 0.43000001
-0.03885074 -0.08966697 0.42900002
-0.03773478 -0.08966697 0.42900002
-0.036618821 -0.08966697 0.42900002
-0.035502862 -0.08966697 0.42900002
-0.034386907 -0.08966697 0.42900002
-0.033193395 -0.089457959 0.42800003
-0.032080036 -0.089457959 0.42800003
-0.030894324 -0.08924894 0.42700002
-0.029783567 -0.08924894 0.42700002
-0.028605662 -0.089039929 0.42600003
-0.027497511 -0.089039929 0.42600003
-0.026389355 -0.089039929 0.42600003
-0.025221853 -0.088830911 0.42500001
-0.0241163 -0.088830911 0.42500001
-0.023010746 -0.088830911 0.42500001
-0.021853652 -0.088621899 0.42400002
-0.0207507 -0.088621899 0.42400002
-0.019647747 -0.088621899 0.42400002
-0.018544797 -0.088621899 0.42400002
-0.017441843 -0.088621899 0.42400002
-0.01633889 -0.088621899 0.42400002
-0.015200006 -0.088412888 0.42300001
-0.014099655 -0.088412888 0.42300001
-0.012968573 -0.088203877 0.42200002
-0.011870823 -0.088203877 0.42200002
-0.010773074 -0.088203877 0.42200002
-0.0096523976 -0.087994866 0.42100003
-0.0085572489 -0.087994866 0.42100003
-0.0074443761 -0.087785847 0.42000002
-0.006351829 -0.087785847 0.42000002
-0.005259282 -0.087785847 0.42000002
-0.0041568149 -0.087576836 0.41900003
-0.003066869 -0.087576836 0.41900003
-0.001972205 -0.087367818 0.41800001
-0.00088486087 -0.087367818 0.41800001
0.00020248335 -0.087367818 0.41800001
0.0012867419 -0.087158807 0.41700003
0.0023714849 -0.087158807 0.41700003
0.0034562277 -0.087158807 0.41700003
0.0045300811 -0.086949788 0.41600001
0.0056122229 -0.086949788 0.41600001
0.0066943644 -0.086949788 0.41600001
0.0077578127 -0.086740777 0.41500002
0.0088373525 -0.086740777 0.41500002
0.0099168932 -0.086740777 0.41500002
0.010996434 -0.086740777 0.41500002
0.012075975 -0.086740777 0.41500002
0.013155514 -0.086740777 0.41500002
0.014235055 -0.086740777 0.41500002
0.015277693 -0.086531766 0.41400003
0.016354632 -0.086531766 0.41400003
0.017431572 -0.086531766 0.41400003
0.018463803 -0.086322747 0.41300002
0.019538142 -0.086322747 0.41300002
0.020562571 -0.086113736 0.41200003
0.021634307 -0.086113736 0.41200003
0.022706043 -0.086113736 0.41200003
0.023720065 -0.085904717 0.41100001
0.024789199 -0.085904717 0.41100001
0.025858337 -0.085904717 0.41100001
0.026927469 -0.085904717 0.41100001
0.027996605 -0.085904717 0.41100001
0.028995022 -0.085695706 0.41000003
0.030061556 -0.085695706 0.41000003
0.031128092 -0.085695706 0.41000003
0.032194626 -0.085695706 0.41000003
0.033180032 -0.085486688 0.40900001
0.034243964 -0.085486688 0.40900001
0.035307895 -0.085486688 0.40900001
0.036282901 -0.085277677 0.40800002
0.037344232 -0.085277677 0.40800002
0.038405567 -0.085277677 0.40800002
0.039370161 -0.085068665 0.40700001
0.040428892 -0.085068665 0.40700001
0.041385688 -0.084859654 0.40600002
0.042441815 -0.084859654 0.40600002
0.043497946 -0.084859654 0.40600002
0.044444337 -0.084650643 0.40500003
0.045497864 -0.084650643 0.40500003
0.046551388 -0.084650643 0.40500003
0.047604918 -0.084650643 0.40500003
0.048538297 -0.084441625 0.40400001
0.049589224 -0.084441625 0.40400001
0.050640147 -0.084441625 0.40400001
0.051691078 -0.084441625 0.40400001
0.052611455 -0.084232613 0.40300003
0.053659782 -0.084232613 0.40300003
0.054708105 -0.084232613 0.40300003
0.05561807 -0.084023595 0.40200001
0.056663796 -0.084023595 0.40200001
0.057709519 -0.084023595 0.40200001
0.058755245 -0.084023595 0.40200001
0.059800968 -0.084023595 0.40200001
0.060846694 -0.084023595 0.40200001
0.061738454 -0.083814584 0.40100002
0.062781572 -0.083814584 0.40100002
0.063824698 -0.083814584 0.40100002
0.064867817 -0.083814584 0.40100002
0.065746576 -0.083605565 0.40000001
0.066787094 -0.083605565 0.40000001
0.067658052 -0.083396554 0.39900002
0.06869597 -0.083396554 0.39900002
0.069733888 -0.083396554 0.39900002
0.070594437 -0.083187543 0.39800003
0.071629755 -0.083187543 0.39800003
0.072665073 -0.083187543 0.39800003
0.073515214 -0.082978524 0.39700001
0.074547924 -0.082978524 0.39700001
0.075580649 -0.082978524 0.39700001
0.076613359 -0.082978524 0.39700001
0.077450499 -0.082769513 0.39600003
0.078480616 -0.082769513 0.39600003
0.079510733 -0.082769513 0.39600003
0.080337457 -0.082560495 0.39500001
0.081364967 -0.082560495 0.39500001
0.082392484 -0.082560495 0.39500001
0.083420001 -0.082560495 0.39500001
0.084233731 -0.082351483 0.39400002
0.08525864 -0.082351483 0.39400002
0.08628355 -0.082351483 0.39400002
0.087308466 -0.082351483 0.39400002
0.088333376 -0.082351483 0.39400002
0.089358293 -0.082351483 0.39400002
0.090383202 -0.082351483 0.39400002
0.091408119 -0.082351483 0.39400002
0.092198424 -0.082142465 0.39300001
0.093220733 -0.082142465 0.39300001
0.09424305 -0.082142465 0.39300001
0.095265359 -0.082142465 0.39300001
0.096287675 -0.082142465 0.39300001
0.097062379 -0.081933454 0.39200002
0.098082088 -0.081933454 0.39200002
0.099101797 -0.081933454 0.39200002
0.10012151 -0.081933454 0.39200002
0.10114122 -0.081933454 0.39200002
0.10190032 -0.081724443 0.39100003
0.10291743 -0.081724443 0.39100003
0.10393454 -0.081724443 0.39100003
0.10468323 -0.081515431 0.39000002
0.10569774 -0.081515431 0.39000002
0.10643862 -0.08130642 0.38900003
0.10745052 -0.08130642 0.38900003
0.10846244 -0.08130642 0.38900003
0.10919292 -0.081097402 0.38800001
0.11020222 -0.081097402 0.38800001
0.11121152 -0.081097402 0.38800001
0.1119316 -0.080888391 0.38700002
0.11293831 -0.080888391 0.38700002
0.11394501 -0.080888391 0.38700002
0.11465468 -0.080679372 0.38600001
0.11565877 -0.080679372 0.38600001
0.11666287 -0.080679372 0.38600001
0.11766699 -0.080679372 0.38600001
0.11836366 -0.080470361 0.38500002
0.11936516 -0.080470361 0.38500002
0.12036666 -0.080470361 0.38500002
0.12136816 -0.080470361 0.38500002
0.12205181 -0.080261342 0.384
0.12305071 -0.080261342 0.384
0.1240496 -0.080261342 0.384
0.1250485 -0.080261342 0.384
0.12571917 -0.080052331 0.38300002
0.12671547 -0.080052331 0.38300002
0.12771176 -0.080052331 0.38300002
0.12870806 -0.080052331 0.38300002
0.12970436 -0.080052331 0.38300002
0.13035941 -0.07984332 0.38200003
0.13135311 -0.07984332 0.38200003
0.13234681 -0.07984332 0.38200003
0.13334049 -0.07984332 0.38200003
0.13433419 -0.07984332 0.38200003
0.13532791 -0.07984332 0.38200003
0.13596472 -0.079634301 0.38100001
0.13695581 -0.079634301 0.38100001
0.13794692 -0.079634301 0.38100001
0.13857335 -0.07942529 0.38000003
0.13956185 -0.07942529 0.38000003
0.14055035 -0.07942529 0.38000003
0.14116636 -0.079216272 0.37900001
0.14215225 -0.079216272 0.37900001
0.14313816 -0.079216272 0.37900001
0.14374377 -0.079007261 0.37800002
0.14472707 -0.079007261 0.37800002
0.14571035 -0.079007261 0.37800002
0.14630556 -0.078798242 0.377
0.14728625 -0.078798242 0.377
0.14826694 -0.078798242 0.377
0.14924763 -0.078798242 0.377
0.15022832 -0.078798242 0.377
0.15120901 -0.078798242 0.377
0.1521897 -0.078798242 0.377
0.15317039 -0.078798242 0.377
0.15415108 -0.078798242 0.377
0.15513177 -0.078798242 0.377
0.15611246 -0.078798242 0.377
0.15667647 -0.078589231 0.37600002
0.15765457 -0.078589231 0.37600002
0.15821075 -0.07838022 0.37500003
0.15918624 -0.07838022 0.37500003
0.16016175 -0.07838022 0.37500003
0.16113722 -0.07838022 0.37500003
0.1616804 -0.078171201 0.37400001
0.1626533 -0.078171201 0.37400001
0.16362618 -0.078171201 0.37400001
0.16459908 -0.078171201 0.37400001
0.16512926 -0.07796219 0.37300003
0.16609953 -0.07796219 0.37300003
0.16706982 -0.07796219 0.37300003
0.16804011 -0.07796219 0.37300003
0.1690104 -0.07796219 0.37300003
0.16952497 -0.077753179 0.37200001
0.17049265 -0.077753179 0.37200001
0.17146033 -0.077753179 0.37200001
0.1719645 -0.077544168 0.37100002
0.17292958 -0.077544168 0.37100002
0.17389467 -0.077544168 0.37100002
0.17438842 -0.077335149 0.37
-0.27531615 -0.10217425 0.49500003
-0.2734749 -0.10196783 0.49400002
-0.27218986 -0.10196783 0.49400002
-0.27090484 -0.10196783 0.49400002
-0.26961976 -0.10196783 0.49400002
-0.26779154 -0.10176142 0.49300003
-0.26650912 -0.10176142 0.49300003
-0.26468867 -0.10155501 0.49200001
-0.26340884 -0.10155501 0.49200001
-0.26159623 -0.1013486 0.49100003
-0.26031896 -0.1013486 0.49100003
-0.25851417 -0.10114218 0.49000001
-0.25723952 -0.10114218 0.49000001
-0.25544253 -0.10093577 0.48900002
-0.2536507 -0.10072936 0.48800004
-0.25238127 -0.10072936 0.48800004
-0.25111184 -0.10072936 0.48800004
-0.2493304 -0.10052294 0.48700002
-0.24806359 -0.10052294 0.48700002
-0.24628998 -0.10031654 0.48600003
-0.24502574 -0.10031654 0.48600003
-0.24325995 -0.10011012 0.48500001
-0.2419983 -0.10011012 0.48500001
-0.24024032 -0.09990371 0.48400003
-0.23848753 -0.099697292 0.48300001
-0.23723109 -0.099697292 0.48300001
-0.23548611 -0.099490881 0.48200002
-0.23423228 -0.099490881 0.48200002
-0.23297845 -0.099490881 0.48200002
-0.23124388 -0.099284478 0.48100004
-0.22999266 -0.099284478 0.48100004
-0.22874141 -0.099284478 0.48100004
-0.22701722 -0.099078059 0.48000002
-0.22576861 -0.099078059 0.48000002
-0.22451998 -0.099078059 0.48000002
-0.22327136 -0.099078059 0.48000002
-0.22156018 -0.098871648 0.47900003
-0.22031416 -0.098871648 0.47900003
-0.21906814 -0.098871648 0.47900003
-0.21736738 -0.09866523 0.47800002
-0.21567181 -0.098458819 0.47700003
-0.21443099 -0.098458819 0.47700003
-0.21319017 -0.098458819 0.47700003
-0.21194935 -0.098458819 0.47700003
-0.21026678 -0.098252408 0.47600001
-0.20902856 -0.098252408 0.47600001
-0.20779034 -0.098252408 0.47600001
-0.2061182 -0.098045997 0.47500002
-0.20488258 -0.098045997 0.47500002
-0.20364696 -0.098045997 0.47500002
-0.20198521 -0.097839586 0.47400004
-0.2007522 -0.097839586 0.47400004
-0.19909824 -0.097633168 0.47300002
-0.19786784 -0.097633168 0.47300002
-0.19663742 -0.097633168 0.47300002
-0.19499388 -0.097426757 0.47200003
-0.19376607 -0.097426757 0.47200003
-0.19213033 -0.097220346 0.47100002
-0.19090512 -0.097220346 0.47100002
-0.18967989 -0.097220346 0.47100002
-0.18805458 -0.097013935 0.47000003
-0.18683197 -0.097013935 0.47000003
-0.18560936 -0.097013935 0.47000003
-0.18399443 -0.096807517 0.46900001
-0.18277441 -0.096807517 0.46900001
-0.18155439 -0.096807517 0.46900001
-0.18033439 -0.096807517 0.46900001
-0.17873248 -0.096601106 0.46800002
-0.17751507 -0.096601106 0.46800002
-0.17629765 -0.096601106 0.46800002
-0.17470613 -0.096394695 0.46700001
-0.17349133 -0.096394695 0.46700001
-0.17227653 -0.096394695 0.46700001
-0.17069542 -0.096188284 0.46600002
-0.16948321 -0.096188284 0.46600002
-0.16827101 -0.096188284 0.46600002
-0.1670588 -0.096188284 0.46600002
-0.1658466 -0.096188284 0.46600002
-0.16428109 -0.095981874 0.46500003
-0.16307148 -0.095981874 0.46500003
-0.16186188 -0.095981874 0.46500003
-0.16030678 -0.095775455 0.46400002
-0.15909979 -0.095775455 0.46400002
-0.1575525 -0.095569044 0.46300003
-0.1560104 -0.095362633 0.46200001
-0.15447353 -0.095156223 0.46100003
-0.15327433 -0.095156223 0.46100003
-0.15174524 -0.094949804 0.46000001
-0.15054864 -0.094949804 0.46000001
-0.11140217 -0.076991908 0.37300003
-0.11043189 -0.076991908 0.37300003
-0.10946161 -0.076991908 0.37300003
-0.10878216 -0.077198319 0.37400001
-0.10780928 -0.077198319 0.37400001
-0.1068364 -0.077198319 0.37400001
-0.10614657 -0.077404737 0.37500003
-0.10545154 -0.077611148 0.37600002
-0.1047513 -0.077817559 0.377
-0.10377061 -0.077817559 0.377
-0.10306258 -0.07802397 0.37800002
-0.10207929 -0.07802397 0.37800002
-0.101096 -0.07802397 0.37800002
-0.10011269 -0.07802397 0.37800002
-0.099129401 -0.07802397 0.37800002
-0.097886465 -0.077817559 0.377
-0.096905775 -0.077817559 0.377
-0.095670633 -0.077611148 0.37600002
-0.094692551 -0.077611148 0.37600002
-0.093465224 -0.077404737 0.37500003
-0.092736371 -0.077611148 0.37600002
-0.092002317 -0.077817559 0.377
-0.091504499 -0.078230381 0.37900001
-0.090757445 -0.078436799 0.38000003
-0.090415888 -0.079881683 0.38700002
-0.091257431 -0.081532985 0.39500001
-0.091143638 -0.082358636 0.39900002
-0.090557374 -0.082771465 0.40100002
-0.089737482 -0.082977876 0.40200001
-0.08891239 -0.083184287 0.40300003
-0.087864064 -0.083184287 0.40300003
-0.087031163 -0.083390698 0.40400001
-0.085980229 -0.083390698 0.40400001
-0.085139535 -0.083597116 0.40500003
-0.084086001 -0.083597116 0.40500003
-0.083032474 -0.083597116 0.40500003
-0.081978954 -0.083597116 0.40500003
-0.081125237 -0.083803527 0.40600002
-0.08006911 -0.083803527 0.40600002
-0.079012975 -0.083803527 0.40600002
-0.077956848 -0.083803527 0.40600002
-0.077090129 -0.084009938 0.40700001
-0.076031402 -0.084009938 0.40700001
-0.075156882 -0.084216349 0.40800002
-0.074095547 -0.084216349 0.40800002
-0.073034219 -0.084216349 0.40800002
-0.072149284 -0.08442276 0.40900001
-0.071085356 -0.08442276 0.40900001
-0.070021428 -0.08442276 0.40900001
-0.069126092 -0.084629178 0.41000003
-0.068059564 -0.084629178 0.41000003
-0.067156419 -0.084835589 0.41100001
-0.066087291 -0.084835589 0.41100001
-0.065018147 -0.084835589 0.41100001
-0.064104609 -0.085042 0.41200003
-0.06303288 -0.085042 0.41200003
-0.061961137 -0.085042 0.41200003
-0.061037194 -0.085248411 0.41300002
-0.060108043 -0.085454829 0.41400003
-0.059173692 -0.08566124 0.41500002
-0.058094148 -0.08566124 0.41500002
-0.057151992 -0.085867651 0.41600001
-0.05633942 -0.086280473 0.41800001
-0.055384256 -0.086486891 0.41900003
-0.054553475 -0.08689972 0.42100003
-0.053712279 -0.087312534 0.42300001
-0.052860688 -0.087725364 0.42500001
-0.051998686 -0.088138193 0.42700002
-0.051126283 -0.088551015 0.42900002
-0.050126895 -0.088757426 0.43000001
-0.049122315 -0.088963844 0.43100002
-0.048112523 -0.089170255 0.43200001
-0.046988759 -0.089170255 0.43200001
-0.045864996 -0.089170255 0.43200001
-0.044637669 -0.088963844 0.43100002
-0.043516506 -0.088963844 0.43100002
-0.042395346 -0.088963844 0.43100002
-0.04117842 -0.088757426 0.43000001
-0.040059861 -0.088757426 0.43000001
-0.038941298 -0.088757426 0.43000001
-0.03773478 -0.088551015 0.42900002
-0.036618821 -0.088551015 0.42900002
-0.035502862 -0.088551015 0.42900002
-0.034386907 -0.088551015 0.42900002
-0.033193395 -0.088344604 0.42800003
-0.032080036 -0.088344604 0.42800003
-0.030966677 -0.088344604 0.42800003
-0.029783567 -0.088138193 0.42700002
-0.028672811 -0.088138193 0.42700002
-0.027497511 -0.087931782 0.42600003
-0.026389355 -0.087931782 0.42600003
-0.0252812 -0.087931782 0.42600003
-0.0241163 -0.087725364 0.42500001
-0.023010746 -0.087725364 0.42500001
-0.021905193 -0.087725364 0.42500001
-0.020799639 -0.087725364 0.42500001
-0.019647747 -0.087518953 0.42400002
-0.018544797 -0.087518953 0.42400002
-0.017441843 -0.087518953 0.42400002
-0.01633889 -0.087518953 0.42400002
-0.015200006 -0.087312534 0.42300001
-0.014099655 -0.087312534 0.42300001
-0.012999304 -0.087312534 0.42300001
-0.011870823 -0.087106124 0.42200002
-0.010773074 -0.087106124 0.42200002
-0.0096753249 -0.087106124 0.42200002
-0.0085572489 -0.08689972 0.42100003
-0.0074621011 -0.08689972 0.42100003
-0.006351829 -0.086693302 0.42000002
-0.005259282 -0.086693302 0.42000002
-0.0041568149 -0.086486891 0.41900003
-0.003066869 -0.086486891 0.41900003
-0.0019769233 -0.086486891 0.41900003
-0.00088486087 -0.086280473 0.41800001
0.00020248335 -0.086280473 0.41800001
0.0012867419 -0.086074062 0.41700003
0.0023714849 -0.086074062 0.41700003
0.0034562277 -0.086074062 0.41700003
0.004540971 -0.086074062 0.41700003
0.0056122229 -0.085867651 0.41600001
0.0066943644 -0.085867651 0.41600001
0.0077765058 -0.085867651 0.41600001
0.0088586472 -0.085867651 0.41600001
0.0099407891 -0.085867651 0.41600001
0.011022931 -0.085867651 0.41600001
0.012075975 -0.08566124 0.41500002
0.013155514 -0.08566124 0.41500002
0.014235055 -0.08566124 0.41500002
0.015314595 -0.08566124 0.41500002
0.016354632 -0.085454829 0.41400003
0.017431572 -0.085454829 0.41400003
0.018508511 -0.085454829 0.41400003
0.019538142 -0.085248411 0.41300002
0.020562571 -0.085042 0.41200003
0.021634307 -0.085042 0.41200003
0.022706043 -0.085042 0.41200003
0.023720065 -0.084835589 0.41100001
0.024789199 -0.084835589 0.41100001
0.025858337 -0.084835589 0.41100001
0.026927469 -0.084835589 0.41100001
0.027996605 -0.084835589 0.41100001
0.029065741 -0.084835589 0.41100001
0.030061556 -0.084629178 0.41000003
0.031128092 -0.084629178 0.41000003
0.032194626 -0.084629178 0.41000003
0.033180032 -0.08442276 0.40900001
0.034243964 -0.08442276 0.40900001
0.035307895 -0.08442276 0.40900001
0.036282901 -0.084216349 0.40800002
0.037344232 -0.084216349 0.40800002
0.038405567 -0.084216349 0.40800002
0.039370161 -0.084009938 0.40700001
0.040428892 -0.084009938 0.40700001
0.041487619 -0.084009938 0.40700001
0.042441815 -0.083803527 0.40600002
0.043497946 -0.083803527 0.40600002
0.044554073 -0.083803527 0.40600002
0.045497864 -0.083597116 0.40500003
0.046551388 -0.083597116 0.40500003
0.047604918 -0.083597116 0.40500003
0.048658445 -0.083597116 0.40500003
0.049589224 -0.083390698 0.40400001
0.050640147 -0.083390698 0.40400001
0.051691078 -0.083390698 0.40400001
0.052742001 -0.083390698 0.40400001
0.053659782 -0.083184287 0.40300003
0.054708105 -0.083184287 0.40300003
0.055756427 -0.083184287 0.40300003
0.056804754 -0.083184287 0.40300003
0.057709519 -0.082977876 0.40200001
0.058755245 -0.082977876 0.40200001
0.059800968 -0.082977876 0.40200001
0.060846694 -0.082977876 0.40200001
0.061738454 -0.082771465 0.40100002
0.062781572 -0.082771465 0.40100002
0.063824698 -0.082771465 0.40100002
0.064867817 -0.082771465 0.40100002
0.065746576 -0.082565047 0.40000001
0.066787094 -0.082565047 0.40000001
0.06782762 -0.082565047 0.40000001
0.06869597 -0.082358636 0.39900002
0.069733888 -0.082358636 0.39900002
0.070771806 -0.082358636 0.39900002
0.071809724 -0.082358636 0.39900002
0.072665073 -0.082152225 0.39800003
0.073700391 -0.082152225 0.39800003
0.074547924 -0.081945814 0.39700001
0.075580649 -0.081945814 0.39700001
0.076613359 -0.081945814 0.39700001
0.077646084 -0.081945814 0.39700001
0.078480616 -0.081739403 0.39600003
0.079510733 -0.081739403 0.39600003
0.080337457 -0.081532985 0.39500001
0.081364967 -0.081532985 0.39500001
0.082392484 -0.081532985 0.39500001
0.083420001 -0.081532985 0.39500001
0.084447518 -0.081532985 0.39500001
0.08525864 -0.081326574 0.39400002
0.08628355 -0.081326574 0.39400002
0.087308466 -0.081326574 0.39400002
0.088333376 -0.081326574 0.39400002
0.089358293 -0.081326574 0.39400002
0.090383202 -0.081326574 0.39400002
0.091408119 -0.081326574 0.39400002
0.092198424 -0.081120156 0.39300001
0.093220733 -0.081120156 0.39300001
0.09424305 -0.081120156 0.39300001
0.095265359 -0.081120156 0.39300001
0.096287675 -0.081120156 0.39300001
0.097062379 -0.080913745 0.39200002
0.098082088 -0.080913745 0.39200002
0.099101797 -0.080913745 0.39200002
0.10012151 -0.080913745 0.39200002
0.10114122 -0.080913745 0.39200002
0.10190032 -0.080707341 0.39100003
0.10291743 -0.080707341 0.39100003
0.10393454 -0.080707341 0.39100003
0.10495165 -0.080707341 0.39100003
0.10569774 -0.080500923 0.39000002
0.10671224 -0.080500923 0.39000002
0.10745052 -0.080294512 0.38900003
0.10846244 -0.080294512 0.38900003
0.10947435 -0.080294512 0.38900003
0.11020222 -0.080088094 0.38800001
0.11121152 -0.080088094 0.38800001
0.1119316 -0.079881683 0.38700002
0.11293831 -0.079881683 0.38700002
0.11394501 -0.079881683 0.38700002
0.11465468 -0.079675272 0.38600001
0.11565877 -0.079675272 0.38600001
0.11666287 -0.079675272 0.38600001
0.11766699 -0.079675272 0.38600001
0.11867109 -0.079675272 0.38600001
0.11936516 -0.079468861 0.38500002
0.12036666 -0.079468861 0.38500002
0.12136816 -0.079468861 0.38500002
0.12236966 -0.079468861 0.38500002
0.12305071 -0.079262443 0.384
0.1240496 -0.079262443 0.384
0.1250485 -0.079262443 0.384
0.12604742 -0.079262443 0.384
0.12671547 -0.079056032 0.38300002
0.12771176 -0.079056032 0.38300002
0.12870806 -0.079056032 0.38300002
0.12970436 -0.079056032 0.38300002
0.13070066 -0.079056032 0.38300002
0.13135311 -0.078849621 0.38200003
0.13234681 -0.078849621 0.38200003
0.13334049 -0.078849621 0.38200003
0.13433419 -0.078849621 0.38200003
0.13532791 -0.078849621 0.38200003
0.13596472 -0.07864321 0.38100001
0.13695581 -0.07864321 0.38100001
0.13794692 -0.07864321 0.38100001
0.13857335 -0.078436799 0.38000003
0.13956185 -0.078436799 0.38000003
0.14055035 -0.078436799 0.38000003
0.14153883 -0.078436799 0.38000003
0.14215225 -0.078230381 0.37900001
0.14313816 -0.078230381 0.37900001
0.14374377 -0.07802397 0.37800002
0.14472707 -0.07802397 0.37800002
0.14571035 -0.07802397 0.37800002
0.14669365 -0.07802397 0.37800002
0.14767694 -0.07802397 0.37800002
0.14826694 -0.077817559 0.377
0.14924763 -0.077817559 0.377
0.15022832 -0.077817559 0.377
0.15120901 -0.077817559 0.377
0.1521897 -0.077817559 0.377
0.15317039 -0.077817559 0.377
0.15415108 -0.077817559 0.377
0.15513177 -0.077817559 0.377
0.15611246 -0.077817559 0.377
0.15709317 -0.077817559 0.377
0.15765457 -0.077611148 0.37600002
0.15863265 -0.077611148 0.37600002
0.15918624 -0.077404737 0.37500003
0.16016175 -0.077404737 0.37500003
0.16113722 -0.077404737 0.37500003
0.1616804 -0.077198319 0.37400001
0.1626533 -0.077198319 0.37400001
0.16362618 -0.077198319 0.37400001
0.16459908 -0.077198319 0.37400001
0.16557196 -0.077198319 0.37400001
0.16609953 -0.076991908 0.37300003
0.16706982 -0.076991908 0.37300003
0.16804011 -0.076991908 0.37300003
0.1690104 -0.076991908 0.37300003
0.16998069 -0.076991908 0.37300003
0.17049265 -0.076785497 0.37200001
0.17146033 -0.076785497 0.37200001
0.17242801 -0.076785497 0.37200001
0.17292958 -0.076579086 0.37100002
0.17389467 -0.076579086 0.37100002
0.17485975 -0.076579086 0.37100002
-0.27531615 -0.10088661 0.49500003
-0.27402851 -0.10088661 0.49500003
-0.27218986 -0.1006828 0.49400002
-0.27090484 -0.1006828 0.49400002
-0.26961976 -0.1006828 0.49400002
-0.26833472 -0.1006828 0.49400002
-0.26650912 -0.10047898 0.49300003
-0.26468867 -0.10027517 0.49200001
-0.26340884 -0.10027517 0.49200001
-0.26212901 -0.10027517 0.49200001
-0.26031896 -0.10007136 0.49100003
-0.25851417 -0.099867545 0.49000001
-0.25723952 -0.099867545 0.49000001
-0.25544253 -0.099663742 0.48900002
-0.25417048 -0.099663742 0.48900002
-0.25238127 -0.099459931 0.48800004
-0.25111184 -0.099459931 0.48800004
-0.2493304 -0.099256113 0.48700002
-0.24806359 -0.099256113 0.48700002
-0.24628998 -0.09905231 0.48600003
-0.24502574 -0.09905231 0.48600003
-0.24325995 -0.098848492 0.48500001
-0.2419983 -0.098848492 0.48500001
-0.24024032 -0.098644681 0.48400003
-0.23848753 -0.098440871 0.48300001
-0.23723109 -0.098440871 0.48300001
-0.23597465 -0.098440871 0.48300001
-0.23423228 -0.09823706 0.48200002
-0.23297845 -0.09823706 0.48200002
-0.23172462 -0.09823706 0.48200002
-0.23047081 -0.09823706 0.48200002
-0.22874141 -0.098033249 0.48100004
-0.22749019 -0.098033249 0.48100004
-0.22623897 -0.098033249 0.48100004
-0.22451998 -0.097829439 0.48000002
-0.22327136 -0.097829439 0.48000002
-0.22202273 -0.097829439 0.48000002
-0.22031416 -0.097625628 0.47900003
-0.21906814 -0.097625628 0.47900003
-0.21782212 -0.097625628 0.47900003
-0.21612394 -0.09742181 0.47800002
-0.21488053 -0.09742181 0.47800002
-0.21319017 -0.097218007 0.47700003
-0.21194935 -0.097218007 0.47700003
-0.21070853 -0.097218007 0.47700003
-0.20902856 -0.097014189 0.47600001
-0.20779034 -0.097014189 0.47600001
-0.20655212 -0.097014189 0.47600001
-0.20488258 -0.096810378 0.47500002
-0.20364696 -0.096810378 0.47500002
-0.20241134 -0.096810378 0.47500002
-0.2007522 -0.096606575 0.47400004
-0.19951919 -0.096606575 0.47400004
-0.19786784 -0.096402757 0.47300002
-0.19663742 -0.096402757 0.47300002
-0.19499388 -0.096198946 0.47200003
-0.19376607 -0.096198946 0.47200003
-0.19253826 -0.096198946 0.47200003
-0.19090512 -0.095995136 0.47100002
-0.18967989 -0.095995136 0.47100002
-0.18845469 -0.095995136 0.47100002
-0.18683197 -0.095791325 0.47000003
-0.18560936 -0.095791325 0.47000003
-0.18438675 -0.095791325 0.47000003
-0.18277441 -0.095587507 0.46900001
-0.18155439 -0.095587507 0.46900001
-0.18033439 -0.095587507 0.46900001
-0.17873248 -0.095383704 0.46800002
-0.17751507 -0.095383704 0.46800002
-0.17629765 -0.095383704 0.46800002
-0.17508024 -0.095383704 0.46800002
-0.17349133 -0.095179886 0.46700001
-0.17227653 -0.095179886 0.46700001
-0.17106172 -0.095179886 0.46700001
-0.16984691 -0.095179886 0.46700001
-0.16827101 -0.094976075 0.46600002
-0.1670588 -0.094976075 0.46600002
-0.1658466 -0.094976075 0.46600002
-0.16463438 -0.094976075 0.46600002
-0.16307148 -0.094772272 0.46500003
-0.16186188 -0.094772272 0.46500003
-0.16065228 -0.094772272 0.46500003
-0.15909979 -0.094568454 0.46400002
-0.1575525 -0.094364643 0.46300003
-0.15634809 -0.094364643 0.46300003
-0.1548086 -0.094160832 0.46200001
-0.1536068 -0.094160832 0.46200001
-0.15207513 -0.093957022 0.46100003
-0.15087591 -0.093957022 0.46100003
-0.11140217 -0.076021627 0.37300003
-0.11043189 -0.076021627 0.37300003
-0.10975506 -0.076225437 0.37400001
-0.10878216 -0.076225437 0.37400001
-0.10780928 -0.076225437 0.37400001
-0.10712206 -0.076429248 0.37500003
-0.10614657 -0.076429248 0.37500003
-0.10545154 -0.076633058 0.37600002
-0.1047513 -0.076836869 0.377
-0.10404587 -0.07704068 0.37800002
-0.10306258 -0.07704068 0.37800002
-0.10234933 -0.07724449 0.37900001
-0.10136344 -0.07724449 0.37900001
-0.10037754 -0.07724449 0.37900001
-0.099129401 -0.07704068 0.37800002
-0.098146111 -0.07704068 0.37800002
-0.096905775 -0.076836869 0.377
-0.095670633 -0.076633058 0.37600002
-0.094440714 -0.076429248 0.37500003
-0.093465224 -0.076429248 0.37500003
-0.092489734 -0.076429248 0.37500003
-0.091758281 -0.076633058 0.37600002
-0.091021627 -0.076836869 0.377
-0.090279773 -0.07704068 0.37800002
-0.089768954 -0.077448308 0.38000003
-0.089014091 -0.077652112 0.38100001
-0.089544632 -0.079894044 0.39200002
-0.09010572 -0.081320718 0.39900002
-0.089291029 -0.081524529 0.40000001
-0.088471137 -0.081728347 0.40100002
-0.087864064 -0.082135968 0.40300003
-0.087031163 -0.082339779 0.40400001
-0.085980229 -0.082339779 0.40400001
-0.085139535 -0.082543589 0.40500003
-0.084086001 -0.082543589 0.40500003
-0.083032474 -0.082543589 0.40500003
-0.081978954 -0.082543589 0.40500003
-0.081125237 -0.0827474 0.40600002
-0.08006911 -0.0827474 0.40600002
-0.079012975 -0.0827474 0.40600002
-0.077956848 -0.0827474 0.40600002
-0.076900721 -0.0827474 0.40600002
-0.076031402 -0.08295121 0.40700001
-0.075156882 -0.083155021 0.40800002
-0.074095547 -0.083155021 0.40800002
-0.073034219 -0.083155021 0.40800002
-0.071972884 -0.083155021 0.40800002
-0.070911556 -0.083155021 0.40800002
-0.070021428 -0.083358832 0.40900001
-0.068957493 -0.083358832 0.40900001
-0.067893557 -0.083358832 0.40900001
-0.066829622 -0.083358832 0.40900001
-0.065926492 -0.083562642 0.41000003
-0.064859957 -0.083562642 0.41000003
-0.063793421 -0.083562642 0.41000003
-0.062879883 -0.083766453 0.41100001
-0.061810743 -0.083766453 0.41100001
-0.060741611 -0.083766453 0.41100001
-0.059817664 -0.083970271 0.41200003
-0.058745932 -0.083970271 0.41200003
-0.057814173 -0.084174074 0.41300002
-0.056877226 -0.084377892 0.41400003
-0.05593507 -0.084581703 0.41500002
-0.055119891 -0.084989324 0.41700003
-0.054294314 -0.085396945 0.41900003
-0.053585302 -0.086008377 0.42200002
-0.052736312 -0.086416006 0.42400002
-0.051876914 -0.086823627 0.42600003
-0.051007111 -0.087231249 0.42800003
-0.050010324 -0.087435059 0.42900002
-0.049122315 -0.087842681 0.43100002
-0.048112523 -0.088046491 0.43200001
-0.046988759 -0.088046491 0.43200001
-0.045864996 -0.088046491 0.43200001
-0.044741232 -0.088046491 0.43200001
-0.043516506 -0.087842681 0.43100002
-0.042395346 -0.087842681 0.43100002
-0.041274186 -0.087842681 0.43100002
-0.040059861 -0.08763887 0.43000001
-0.038941298 -0.08763887 0.43000001
-0.037822738 -0.08763887 0.43000001
-0.036618821 -0.087435059 0.42900002
-0.035502862 -0.087435059 0.42900002
-0.034386907 -0.087435059 0.42900002
-0.033270948 -0.087435059 0.42900002
-0.032080036 -0.087231249 0.42800003
-0.030966677 -0.087231249 0.42800003
-0.029783567 -0.087027438 0.42700002
-0.028672811 -0.087027438 0.42700002
-0.027497511 -0.086823627 0.42600003
-0.026389355 -0.086823627 0.42600003
-0.0252812 -0.086823627 0.42600003
-0.0241163 -0.086619809 0.42500001
-0.023010746 -0.086619809 0.42500001
-0.021905193 -0.086619809 0.42500001
-0.020799639 -0.086619809 0.42500001
-0.019694086 -0.086619809 0.42500001
-0.018544797 -0.086416006 0.42400002
-0.017441843 -0.086416006 0.42400002
-0.01633889 -0.086416006 0.42400002
-0.01523594 -0.086416006 0.42400002
-0.014099655 -0.086212188 0.42300001
-0.012999304 -0.086212188 0.42300001
-0.011870823 -0.086008377 0.42200002
-0.010773074 -0.086008377 0.42200002
-0.0096753249 -0.086008377 0.42200002
-0.0085572489 -0.085804574 0.42100003
-0.0074621011 -0.085804574 0.42100003
-0.006351829 -0.085600756 0.42000002
-0.005259282 -0.085600756 0.42000002
-0.0041667353 -0.085600756 0.42000002
-0.003066869 -0.085396945 0.41900003
-0.0019769233 -0.085396945 0.41900003
-0.00088697782 -0.085396945 0.41900003
0.00020248335 -0.085193135 0.41800001
0.0012898276 -0.085193135 0.41800001
0.0023771718 -0.085193135 0.41800001
0.003464516 -0.085193135 0.41800001
0.004540971 -0.084989324 0.41700003
0.0056257141 -0.084989324 0.41700003
0.0066943644 -0.084785514 0.41600001
0.0077765058 -0.084785514 0.41600001
0.0088586472 -0.084785514 0.41600001
0.0099407891 -0.084785514 0.41600001
0.011022931 -0.084785514 0.41600001
0.012075975 -0.084581703 0.41500002
0.013155514 -0.084581703 0.41500002
0.014235055 -0.084581703 0.41500002
0.015314595 -0.084581703 0.41500002
0.016354632 -0.084377892 0.41400003
0.017431572 -0.084377892 0.41400003
0.018508511 -0.084377892 0.41400003
0.019538142 -0.084174074 0.41300002
0.020612478 -0.084174074 0.41300002
0.021634307 -0.083970271 0.41200003
0.022706043 -0.083970271 0.41200003
0.023777779 -0.083970271 0.41200003
0.024789199 -0.083766453 0.41100001
0.025858337 -0.083766453 0.41100001
0.026927469 -0.083766453 0.41100001
0.027996605 -0.083766453 0.41100001
0.029065741 -0.083766453 0.41100001
0.030061556 -0.083562642 0.41000003
0.031128092 -0.083562642 0.41000003
0.032194626 -0.083562642 0.41000003
0.033180032 -0.083358832 0.40900001
0.034243964 -0.083358832 0.40900001
0.035307895 -0.083358832 0.40900001
0.036371831 -0.083358832 0.40900001
0.037344232 -0.083155021 0.40800002
0.038405567 -0.083155021 0.40800002
0.039466895 -0.083155021 0.40800002
0.040428892 -0.08295121 0.40700001
0.041487619 -0.08295121 0.40700001
0.042441815 -0.0827474 0.40600002
0.043497946 -0.0827474 0.40600002
0.044554073 -0.0827474 0.40600002
0.045610204 -0.0827474 0.40600002
0.046551388 -0.082543589 0.40500003
0.047604918 -0.082543589 0.40500003
0.048658445 -0.082543589 0.40500003
0.049711972 -0.082543589 0.40500003
0.050640147 -0.082339779 0.40400001
0.051691078 -0.082339779 0.40400001
0.052742001 -0.082339779 0.40400001
0.053792931 -0.082339779 0.40400001
0.054708105 -0.082135968 0.40300003
0.055756427 -0.082135968 0.40300003
0.056804754 -0.082135968 0.40300003
0.057853077 -0.082135968 0.40300003
0.058901407 -0.082135968 0.40300003
0.059800968 -0.08193215 0.40200001
0.060846694 -0.08193215 0.40200001
0.061892416 -0.08193215 0.40200001
0.062938139 -0.08193215 0.40200001
0.063824698 -0.081728347 0.40100002
0.064867817 -0.081728347 0.40100002
0.065910943 -0.081728347 0.40100002
0.066787094 -0.081524529 0.40000001
0.06782762 -0.081524529 0.40000001
0.068868138 -0.081524529 0.40000001
0.069733888 -0.081320718 0.39900002
0.070771806 -0.081320718 0.39900002
0.071809724 -0.081320718 0.39900002
0.072665073 -0.081116907 0.39800003
0.073700391 -0.081116907 0.39800003
0.074735709 -0.081116907 0.39800003
0.075580649 -0.080913097 0.39700001
0.076613359 -0.080913097 0.39700001
0.077646084 -0.080913097 0.39700001
0.078678794 -0.080913097 0.39700001
0.079510733 -0.080709286 0.39600003
0.080540851 -0.080709286 0.39600003
0.081570961 -0.080709286 0.39600003
0.082392484 -0.080505475 0.39500001
0.083420001 -0.080505475 0.39500001
0.084447518 -0.080505475 0.39500001
0.085475028 -0.080505475 0.39500001
0.08628355 -0.080301665 0.39400002
0.087530062 -0.080505475 0.39500001
0.088333376 -0.080301665 0.39400002
0.089358293 -0.080301665 0.39400002
0.090383202 -0.080301665 0.39400002
0.091408119 -0.080301665 0.39400002
0.092198424 -0.080097847 0.39300001
0.093220733 -0.080097847 0.39300001
0.09424305 -0.080097847 0.39300001
0.095265359 -0.080097847 0.39300001
0.096287675 -0.080097847 0.39300001
0.097062379 -0.079894044 0.39200002
0.098082088 -0.079894044 0.39200002
0.099101797 -0.079894044 0.39200002
0.10012151 -0.079894044 0.39200002
0.10114122 -0.079894044 0.39200002
0.10190032 -0.079690233 0.39100003
0.10291743 -0.079690233 0.39100003
0.10393454 -0.079690233 0.39100003
0.10495165 -0.079690233 0.39100003
0.10569774 -0.079486415 0.39000002
0.10671224 -0.079486415 0.39000002
0.10745052 -0.079282612 0.38900003
0.10846244 -0.079282612 0.38900003
0.10947435 -0.079282612 0.38900003
0.11020222 -0.079078794 0.38800001
0.11121152 -0.079078794 0.38800001
0.11222082 -0.079078794 0.38800001
0.11293831 -0.078874983 0.38700002
0.11394501 -0.078874983 0.38700002
0.11495171 -0.078874983 0.38700002
0.11565877 -0.078671172 0.38600001
0.11666287 -0.078671172 0.38600001
0.11766699 -0.078671172 0.38600001
0.11867109 -0.078671172 0.38600001
0.11967519 -0.078671172 0.38600001
0.12036666 -0.078467362 0.38500002
0.12136816 -0.078467362 0.38500002
0.12236966 -0.078467362 0.38500002
0.12337116 -0.078467362 0.38500002
0.1240496 -0.078263544 0.384
0.1250485 -0.078263544 0.384
0.12604742 -0.078263544 0.384
0.12704632 -0.078263544 0.384
0.12804522 -0.078263544 0.384
0.12870806 -0.07805974 0.38300002
0.12970436 -0.07805974 0.38300002
0.13070066 -0.07805974 0.38300002
0.13169695 -0.07805974 0.38300002
0.13269326 -0.07805974 0.38300002
0.13368955 -0.07805974 0.38300002
0.13433419 -0.07785593 0.38200003
0.13532791 -0.07785593 0.38200003
0.13632159 -0.07785593 0.38200003
0.13731529 -0.07785593 0.38200003
0.13794692 -0.077652112 0.38100001
0.13893802 -0.077652112 0.38100001
0.13956185 -0.077448308 0.38000003
0.14055035 -0.077448308 0.38000003
0.14153883 -0.077448308 0.38000003
0.14215225 -0.07724449 0.37900001
0.14313816 -0.07724449 0.37900001
0.14412405 -0.07724449 0.37900001
0.14472707 -0.07704068 0.37800002
0.14571035 -0.07704068 0.37800002
0.14669365 -0.07704068 0.37800002
0.14767694 -0.07704068 0.37800002
0.14826694 -0.076836869 0.377
0.14924763 -0.076836869 0.377
0.15022832 -0.076836869 0.377
0.15120901 -0.076836869 0.377
0.1521897 -0.076836869 0.377
0.15357669 -0.07704068 0.37800002
0.15455998 -0.07704068 0.37800002
0.15554327 -0.07704068 0.37800002
0.15652657 -0.07704068 0.37800002
0.15709317 -0.076836869 0.377
0.15807386 -0.076836869 0.377
0.15863265 -0.076633058 0.37600002
0.15961073 -0.076633058 0.37600002
0.16016175 -0.076429248 0.37500003
0.16113722 -0.076429248 0.37500003
0.16211271 -0.076429248 0.37500003
0.1630882 -0.076429248 0.37500003
0.16362618 -0.076225437 0.37400001
0.16459908 -0.076225437 0.37400001
0.16557196 -0.076225437 0.37400001
0.16654484 -0.076225437 0.37400001
0.16706982 -0.076021627 0.37300003
0.16804011 -0.076021627 0.37300003
0.1690104 -0.076021627 0.37300003
0.16998069 -0.076021627 0.37300003
0.17049265 -0.075817809 0.37200001
0.17146033 -0.075817809 0.37200001
0.17242801 -0.075817809 0.37200001
0.17339571 -0.075817809 0.37200001
0.17389467 -0.075614005 0.37100002
0.17485975 -0.075614005 0.37100002
-0.27587232 -0.099800169 0.49600002
-0.27402851 -0.099598959 0.49500003
-0.27274087 -0.099598959 0.49500003
-0.27090484 -0.099397749 0.49400002
-0.26961976 -0.099397749 0.49400002
-0.26833472 -0.099397749 0.49400002
-0.26650912 -0.099196538 0.49300003
-0.26522666 -0.099196538 0.49300003
-0.26340884 -0.098995328 0.49200001
-0.26212901 -0.098995328 0.49200001
-0.26031896 -0.098794118 0.49100003
-0.25904176 -0.098794118 0.49100003
-0.25723952 -0.098592907 0.49000001
-0.25596488 -0.098592907 0.49000001
-0.25417048 -0.098391697 0.48900002
-0.25238127 -0.098190494 0.48800004
-0.25111184 -0.098190494 0.48800004
-0.2493304 -0.097989276 0.48700002
-0.24806359 -0.097989276 0.48700002
-0.24679674 -0.097989276 0.48700002
-0.24502574 -0.097788073 0.48600003
-0.24325995 -0.097586855 0.48500001
-0.2419983 -0.097586855 0.48500001
-0.24024032 -0.097385652 0.48400003
-0.23898129 -0.097385652 0.48400003
-0.23723109 -0.097184435 0.48300001
-0.23597465 -0.097184435 0.48300001
-0.23471823 -0.097184435 0.48300001
-0.23297845 -0.096983232 0.48200002
-0.23172462 -0.096983232 0.48200002
-0.23047081 -0.096983232 0.48200002
-0.22921696 -0.096983232 0.48200002
-0.22796313 -0.096983232 0.48200002
-0.22623897 -0.096782021 0.48100004
-0.22498775 -0.096782021 0.48100004
-0.22327136 -0.096580811 0.48000002
