# .PCD v0.7 - Point Cloud Data file format
VERSION 0.7
FIELDS x y z
SIZE 4 4 4
TYPE F F F
COUNT 1 1 1
WIDTH 1398
HEIGHT 1
VIEWPOINT 0 0 0 1 0 0 0
POINTS 1398
DATA ascii
0.035787035 -0.17792824 0.52000004
0.037142705 -0.17792824 0.52000004
0.038572412 -0.17827041 0.52100003
0.039930694 -0.17827041 0.52100003
0.041288972 -0.17827041 0.52100003
0.042729113 -0.17861257 0.52200001
0.044089999 -0.17861257 0.52200001
0.045450885 -0.17861257 0.52200001
0.046811771 -0.17861257 0.52200001
0.04817266 -0.17861257 0.52200001
0.049533546 -0.17861257 0.52200001
0.050894432 -0.17861257 0.52200001
0.052255321 -0.17861257 0.52200001
0.053616207 -0.17861257 0.52200001
0.054977097 -0.17861257 0.52200001
0.056337982 -0.17861257 0.52200001
0.057698868 -0.17861257 0.52200001
0.059172895 -0.17895474 0.523
0.060536392 -0.17895474 0.523
0.061899886 -0.17895474 0.523
0.063384347 -0.17929693 0.52400005
0.064750448 -0.17929693 0.52400005
0.066116549 -0.17929693 0.52400005
0.067611434 -0.17963909 0.52500004
0.068980142 -0.17963909 0.52500004
0.070348851 -0.17963909 0.52500004
0.071854159 -0.17998126 0.52600002
0.073225476 -0.17998126 0.52600002
0.0745968 -0.17998126 0.52600002
0.076112539 -0.18032342 0.52700001
0.077486455 -0.18032342 0.52700001
0.079010017 -0.18066558 0.528
0.080386549 -0.18066558 0.528
0.081763074 -0.18066558 0.528
0.083297074 -0.18100777 0.52900004
0.084836274 -0.18134993 0.53000003
0.086218022 -0.18134993 0.53000003
0.087599762 -0.18134993 0.53000003
0.088981509 -0.18134993 0.53000003
0.090533741 -0.18169211 0.53100002
0.091918096 -0.18169211 0.53100002
0.093478158 -0.18203427 0.53200001
0.094865121 -0.18203427 0.53200001
0.096433006 -0.18237646 0.53300005
0.097822577 -0.18237646 0.53300005
0.099398278 -0.18271862 0.53400004
0.10079045 -0.18271862 0.53400004
0.10237397 -0.18306078 0.53500003
0.10376874 -0.18306078 0.53500003
0.10536009 -0.18340296 0.53600001
0.10675748 -0.18340296 0.53600001
0.10815486 -0.18340296 0.53600001
0.10955225 -0.18340296 0.53600001
0.11115663 -0.18374512 0.537
0.11255663 -0.18374512 0.537
0.11416884 -0.18408731 0.53800005
0.11557144 -0.18408731 0.53800005
0.11697403 -0.18408731 0.53800005
0.11859667 -0.18442947 0.53900003
0.12000187 -0.18442947 0.53900003
0.12163232 -0.18477163 0.54000002
0.12304013 -0.18477163 0.54000002
0.1246784 -0.1851138 0.54100001
0.12608883 -0.1851138 0.54100001
0.12773493 -0.18545598 0.54200006
0.12914796 -0.18545598 0.54200006
0.13056098 -0.18545598 0.54200006
0.13221751 -0.18579815 0.54300004
0.13387924 -0.18614031 0.54400003
0.13529749 -0.18614031 0.54400003
0.13696703 -0.18648247 0.54500002
0.13838789 -0.18648247 0.54500002
0.14006525 -0.18682465 0.546
0.14148873 -0.18682465 0.546
0.14291219 -0.18682465 0.546
0.1446 -0.18716682 0.54700005
0.14602607 -0.18716682 0.54700005
0.14745213 -0.18716682 0.54700005
0.1488782 -0.18716682 0.54700005
0.15057904 -0.187509 0.54800004
0.15200771 -0.187509 0.54800004
0.15343636 -0.187509 0.54800004
0.15514764 -0.18785116 0.54900002
0.15657891 -0.18785116 0.54900002
0.15829802 -0.18819332 0.55000001
0.15973188 -0.18819332 0.55000001
0.16116577 -0.18819332 0.55000001
0.16289531 -0.18853548 0.551
0.16433179 -0.18853548 0.551
0.16576828 -0.18853548 0.551
0.16720477 -0.18853548 0.551
0.16894735 -0.18887767 0.55200005
0.17038643 -0.18887767 0.55200005
0.17182554 -0.18887767 0.55200005
0.17357852 -0.18921985 0.55300003
0.17502023 -0.18921985 0.55300003
0.17646192 -0.18921985 0.55300003
0.17822534 -0.18956201 0.55400002
0.17966965 -0.18956201 0.55400002
0.18144089 -0.18990417 0.55500001
0.18288781 -0.18990417 0.55500001
0.18433473 -0.18990417 0.55500001
0.18611641 -0.19024636 0.55600005
0.18756592 -0.19024636 0.55600005
0.18935542 -0.19058852 0.55700004
0.19080754 -0.19058852 0.55700004
0.19225968 -0.19058852 0.55700004
0.19405958 -0.19093068 0.55800003
0.19586471 -0.19127285 0.55900002
0.19732206 -0.19127285 0.55900002
0.19913501 -0.19161502 0.56
0.20059495 -0.19161502 0.56
0.20241573 -0.19195721 0.56100005
0.20424172 -0.19229937 0.56200004
0.20570688 -0.19229937 0.56200004
0.20754069 -0.19264153 0.56300002
0.20900846 -0.19264153 0.56300002
0.21047625 -0.19264153 0.56300002
0.21232046 -0.1929837 0.56400001
0.21379085 -0.1929837 0.56400001
0.21526122 -0.1929837 0.56400001
0.21711589 -0.19332586 0.565
0.21858887 -0.19332586 0.565
0.22006187 -0.19332586 0.565
0.22153485 -0.19332586 0.565
0.22340257 -0.19366805 0.56600004
0.22487818 -0.19366805 0.56600004
0.22635376 -0.19366805 0.56600004
0.22823189 -0.19401021 0.56700003
0.22971009 -0.19401021 0.56700003
0.23159604 -0.19435237 0.56800002
0.23307684 -0.19435237 0.56800002
0.23455766 -0.19435237 0.56800002
0.23645402 -0.19469455 0.56900001
0.23793745 -0.19469455 0.56900001
0.23984165 -0.19503672 0.57000005
0.24132769 -0.19503672 0.57000005
0.24323969 -0.1953789 0.57100004
0.24472833 -0.1953789 0.57100004
0.24664816 -0.19572106 0.57200003
0.2481394 -0.19572106 0.57200003
0.25006706 -0.19606322 0.57300001
0.2515609 -0.19606322 0.57300001
0.25349638 -0.1964054 0.574
0.25499281 -0.1964054 0.574
0.25648928 -0.1964054 0.574
0.25798574 -0.1964054 0.574
0.25993428 -0.19674757 0.57500005
0.26143333 -0.19674757 0.57500005
0.26293239 -0.19674757 0.57500005
0.26489133 -0.19708975 0.57600003
0.26639301 -0.19708975 0.57600003
0.26789469 -0.19708975 0.57600003
0.26986402 -0.19743191 0.57700002
0.27183861 -0.19777407 0.57800001
0.2733455 -0.19777407 0.57800001
0.27532792 -0.19811626 0.57900006
-0.25241879 -0.15178449 0.44700003
-0.25125343 -0.15178449 0.44700003
-0.2500881 -0.15178449 0.44700003
-0.24947958 -0.15212405 0.44800001
-0.24831162 -0.15212405 0.44800001
-0.24714366 -0.15212405 0.44800001
-0.24597567 -0.15212405 0.44800001
-0.24535418 -0.15246361 0.44900003
-0.24418361 -0.15246361 0.44900003
-0.24301304 -0.15246361 0.44900003
-0.24238107 -0.15280317 0.45000002
-0.2412079 -0.15280317 0.45000002
-0.24056815 -0.15314274 0.45100003
-0.23939237 -0.15314274 0.45100003
-0.23874475 -0.1534823 0.45200002
-0.23756637 -0.1534823 0.45200002
-0.23638798 -0.1534823 0.45200002
-0.2352096 -0.1534823 0.45200002
-0.23454894 -0.15382186 0.45300001
-0.23336795 -0.15382186 0.45300001
-0.23218696 -0.15382186 0.45300001
-0.2315159 -0.15416142 0.45400003
-0.2303323 -0.15416142 0.45400003
-0.2291487 -0.15416142 0.45400003
-0.22846721 -0.15450099 0.45500001
-0.227281 -0.15450099 0.45500001
-0.22609478 -0.15450099 0.45500001
-0.22540288 -0.15484056 0.45600003
-0.22421406 -0.15484056 0.45600003
-0.22302525 -0.15484056 0.45600003
-0.22183642 -0.15484056 0.45600003
-0.22113146 -0.15518011 0.45700002
-0.21994004 -0.15518011 0.45700002
-0.2187486 -0.15518011 0.45700002
-0.21755718 -0.15518011 0.45700002
-0.21636575 -0.15518011 0.45700002
-0.21517433 -0.15518011 0.45700002
-0.21445113 -0.15551968 0.45800003
-0.2132571 -0.15551968 0.45800003
-0.21206306 -0.15551968 0.45800003
-0.21086904 -0.15551968 0.45800003
-0.209675 -0.15551968 0.45800003
-0.20848097 -0.15551968 0.45800003
-0.20728692 -0.15551968 0.45800003
-0.20654286 -0.15585923 0.45900002
-0.20534623 -0.15585923 0.45900002
-0.20414957 -0.15585923 0.45900002
-0.20295295 -0.15585923 0.45900002
-0.2017563 -0.15585923 0.45900002
-0.20055966 -0.15585923 0.45900002
-0.19936301 -0.15585923 0.45900002
-0.19816639 -0.15585923 0.45900002
-0.19696973 -0.15585923 0.45900002
-0.19619961 -0.1561988 0.46000001
-0.19500035 -0.1561988 0.46000001
-0.19380112 -0.1561988 0.46000001
-0.19302057 -0.15653837 0.46100003
-0.1918187 -0.15653837 0.46100003
-0.19103034 -0.15687792 0.46200001
-0.18982586 -0.15687792 0.46200001
-0.1886214 -0.15687792 0.46200001
-0.18741694 -0.15687792 0.46200001
-0.18661554 -0.15721749 0.46300003
-0.18540847 -0.15721749 0.46300003
-0.1842014 -0.15721749 0.46300003
-0.18299432 -0.15721749 0.46300003
-0.18178727 -0.15721749 0.46300003
-0.18097021 -0.15755706 0.46400002
-0.17976053 -0.15755706 0.46400002
-0.17855085 -0.15755706 0.46400002
-0.17734116 -0.15755706 0.46400002
-0.1761315 -0.15755706 0.46400002
-0.17529881 -0.15789662 0.46500003
-0.17408653 -0.15789662 0.46500003
-0.17287424 -0.15789662 0.46500003
-0.17166196 -0.15789662 0.46500003
-0.17081623 -0.15823618 0.46600002
-0.16960134 -0.15823618 0.46600002
-0.16838644 -0.15823618 0.46600002
-0.16717155 -0.15823618 0.46600002
-0.16595666 -0.15823618 0.46600002
-0.1650953 -0.15857573 0.46700001
-0.16387779 -0.15857573 0.46700001
-0.16266029 -0.15857573 0.46700001
-0.16144279 -0.15857573 0.46700001
-0.16056839 -0.1589153 0.46800002
-0.15934829 -0.1589153 0.46800002
-0.15812817 -0.1589153 0.46800002
-0.15690808 -0.1589153 0.46800002
-0.15602063 -0.15925486 0.46900001
-0.15479793 -0.15925486 0.46900001
-0.1535752 -0.15925486 0.46900001
-0.15267734 -0.15959443 0.47000003
-0.15145202 -0.15959443 0.47000003
-0.15022671 -0.15959443 0.47000003
-0.14900139 -0.15959443 0.47000003
-0.14777605 -0.15959443 0.47000003
-0.14686255 -0.15993398 0.47100002
-0.14563462 -0.15993398 0.47100002
-0.14440669 -0.15993398 0.47100002
-0.14317876 -0.15993398 0.47100002
-0.14225224 -0.16027355 0.47200003
-0.1410217 -0.16027355 0.47200003
-0.14008732 -0.16061312 0.47300002
-0.13885418 -0.16061312 0.47300002
-0.13791201 -0.16095269 0.47400004
-0.13667625 -0.16095269 0.47400004
-0.13572624 -0.16129224 0.47500002
-0.13448788 -0.16129224 0.47500002
-0.13353005 -0.16163179 0.47600001
-0.1322891 -0.16163179 0.47600001
-0.13132344 -0.16197136 0.47700003
-0.13007988 -0.16197136 0.47700003
-0.12910639 -0.16231093 0.47800002
-0.12786022 -0.16231093 0.47800002
-0.12661403 -0.16231093 0.47800002
-0.12536786 -0.16231093 0.47800002
-0.12438136 -0.1626505 0.47900003
-0.12313259 -0.1626505 0.47900003
-0.12188379 -0.1626505 0.47900003
-0.12063502 -0.1626505 0.47900003
-0.11963547 -0.16299005 0.48000002
-0.11838408 -0.16299005 0.48000002
-0.11713269 -0.16299005 0.48000002
-0.11588129 -0.16299005 0.48000002
-0.11462991 -0.16299005 0.48000002
-0.11337852 -0.16299005 0.48000002
-0.11212713 -0.16299005 0.48000002
-0.11087573 -0.16299005 0.48000002
-0.10962434 -0.16299005 0.48000002
-0.10837295 -0.16299005 0.48000002
-0.10734473 -0.16332962 0.48100004
-0.10609074 -0.16332962 0.48100004
-0.10483674 -0.16332962 0.48100004
-0.10358274 -0.16332962 0.48100004
-0.10232875 -0.16332962 0.48100004
-0.10128488 -0.16366918 0.48200002
-0.10002828 -0.16366918 0.48200002
-0.09897659 -0.16400874 0.48300001
-0.097717375 -0.16400874 0.48300001
-0.09665788 -0.1643483 0.48400003
-0.095396049 -0.1643483 0.48400003
-0.094134234 -0.1643483 0.48400003
-0.093064301 -0.16468786 0.48500001
-0.09179987 -0.16468786 0.48500001
-0.090722121 -0.16502742 0.48600003
-0.08945509 -0.16502742 0.48600003
-0.08818806 -0.16502742 0.48600003
-0.086921021 -0.16502742 0.48600003
-0.085830234 -0.16536699 0.48700002
-0.084560595 -0.16536699 0.48700002
-0.083290949 -0.16536699 0.48700002
-0.082189739 -0.16570656 0.48800004
-0.080917493 -0.16570656 0.48800004
-0.079645239 -0.16570656 0.48800004
-0.07853359 -0.16604611 0.48900002
-0.077258736 -0.16604611 0.48900002
-0.075983882 -0.16604611 0.48900002
-0.074709028 -0.16604611 0.48900002
-0.073584348 -0.16638568 0.49000001
-0.072306886 -0.16638568 0.49000001
-0.071174383 -0.16672525 0.49100003
-0.069894314 -0.16672525 0.49100003
-0.068614252 -0.16672525 0.49100003
-0.067334183 -0.16672525 0.49100003
-0.066054113 -0.16672525 0.49100003
-0.064774044 -0.16672525 0.49100003
-0.063493967 -0.16672525 0.49100003
-0.06234061 -0.1670648 0.49200001
-0.06105794 -0.1670648 0.49200001
-0.059775263 -0.1670648 0.49200001
-0.058611475 -0.16740437 0.49300003
-0.057326194 -0.16740437 0.49300003
-0.056040909 -0.16740437 0.49300003
-0.054755628 -0.16740437 0.49300003
-0.053578805 -0.16774392 0.49400002
-0.052290916 -0.16774392 0.49400002
-0.05110627 -0.16808349 0.49500003
-0.049815774 -0.16808349 0.49500003
-0.048525278 -0.16808349 0.49500003
-0.047234781 -0.16808349 0.49500003
-0.0460371 -0.16842306 0.49600002
-0.044744 -0.16842306 0.49600002
-0.043538496 -0.16876261 0.49700001
-0.042242784 -0.16876261 0.49700001
-0.041029464 -0.16910218 0.49800003
-0.039731145 -0.16910218 0.49800003
-0.038510002 -0.16944174 0.49900001
-0.037209079 -0.16944174 0.49900001
-0.035980113 -0.1697813 0.5
-0.034676578 -0.1697813 0.5
-0.033439796 -0.17012088 0.50100005
-0.032133657 -0.17012088 0.50100005
-0.030827519 -0.17012088 0.50100005
-0.029521381 -0.17012088 0.50100005
-0.028271558 -0.17046043 0.50200003
-0.026962811 -0.17046043 0.50200003
-0.025654066 -0.17046043 0.50200003
-0.02434532 -0.17046043 0.50200003
-0.023082463 -0.17079999 0.50300002
-0.021771111 -0.17079999 0.50300002
-0.020500431 -0.17113955 0.50400001
-0.019186471 -0.17113955 0.50400001
-0.017872512 -0.17113955 0.50400001
-0.016558552 -0.17113955 0.50400001
-0.015244591 -0.17113955 0.50400001
-0.013958272 -0.17147911 0.505
-0.012641704 -0.17147911 0.505
-0.011325138 -0.17147911 0.505
-0.01002839 -0.17181869 0.50600004
-0.0087092156 -0.17181869 0.50600004
-0.0073900409 -0.17181869 0.50600004
-0.0060708667 -0.17181869 0.50600004
-0.0047610831 -0.17215824 0.50700003
-0.0034393019 -0.17215824 0.50700003
-0.0021216969 -0.17249781 0.50800002
-0.00079730863 -0.17249781 0.50800002
0.00052811729 -0.17283736 0.509
0.0018551127 -0.17283736 0.509
0.003182108 -0.17283736 0.509
0.0045179627 -0.17317694 0.51000005
0.0058590309 -0.1735165 0.51100004
0.0071912403 -0.1735165 0.51100004
0.0085234502 -0.1735165 0.51100004
0.0098749464 -0.17385605 0.51200002
0.011209763 -0.17385605 0.51200002
0.012569081 -0.17419562 0.51300001
0.013906504 -0.17419562 0.51300001
0.015273643 -0.17453517 0.514
0.016613673 -0.17453517 0.514
0.017988633 -0.17487475 0.51500005
0.019331273 -0.17487475 0.51500005
0.02067391 -0.17487475 0.51500005
0.022059297 -0.17521431 0.51600003
0.023404544 -0.17521431 0.51600003
0.024749788 -0.17521431 0.51600003
0.026145604 -0.17555387 0.51700002
0.027493456 -0.17555387 0.51700002
0.028841309 -0.17555387 0.51700002
0.030247552 -0.17589343 0.51800001
0.031598013 -0.17589343 0.51800001
0.032948468 -0.17589343 0.51800001
0.034365147 -0.17623301 0.51900005
0.035787035 -0.17657256 0.52000004
0.037142705 -0.17657256 0.52000004
0.038572412 -0.17691211 0.52100003
0.039930694 -0.17691211 0.52100003
0.041288972 -0.17691211 0.52100003
0.042729113 -0.17725168 0.52200001
0.044089999 -0.17725168 0.52200001
0.045450885 -0.17725168 0.52200001
0.046811771 -0.17725168 0.52200001
0.04817266 -0.17725168 0.52200001
0.049533546 -0.17725168 0.52200001
0.050894432 -0.17725168 0.52200001
0.052255321 -0.17725168 0.52200001
0.053616207 -0.17725168 0.52200001
0.054977097 -0.17725168 0.52200001
0.056337982 -0.17725168 0.52200001
0.057698868 -0.17725168 0.52200001
0.059172895 -0.17759123 0.523
0.060536392 -0.17759123 0.523
0.061899886 -0.17759123 0.523
0.063384347 -0.17793082 0.52400005
0.064750448 -0.17793082 0.52400005
0.066116549 -0.17793082 0.52400005
0.067611434 -0.17827037 0.52500004
0.068980142 -0.17827037 0.52500004
0.070348851 -0.17827037 0.52500004
0.071854159 -0.17860994 0.52600002
0.073225476 -0.17860994 0.52600002
0.0745968 -0.17860994 0.52600002
0.076112539 -0.17894949 0.52700001
0.077486455 -0.17894949 0.52700001
0.079010017 -0.17928904 0.528
0.080386549 -0.17928904 0.528
0.081763074 -0.17928904 0.528
0.083297074 -0.17962863 0.52900004
0.084836274 -0.17996819 0.53000003
0.086218022 -0.17996819 0.53000003
0.087599762 -0.17996819 0.53000003
0.088981509 -0.17996819 0.53000003
0.090533741 -0.18030775 0.53100002
0.091918096 -0.18030775 0.53100002
0.093478158 -0.1806473 0.53200001
0.094865121 -0.1806473 0.53200001
0.096433006 -0.18098688 0.53300005
0.097822577 -0.18098688 0.53300005
0.099398278 -0.18132643 0.53400004
0.10079045 -0.18132643 0.53400004
0.10237397 -0.181666 0.53500003
0.10376874 -0.181666 0.53500003
0.10536009 -0.18200555 0.53600001
0.10675748 -0.18200555 0.53600001
0.10815486 -0.18200555 0.53600001
0.10955225 -0.18200555 0.53600001
0.11115663 -0.18234511 0.537
0.11255663 -0.18234511 0.537
0.11416884 -0.18268469 0.53800005
0.11557144 -0.18268469 0.53800005
0.11697403 -0.18268469 0.53800005
0.11859667 -0.18302426 0.53900003
0.12000187 -0.18302426 0.53900003
0.12163232 -0.18336381 0.54000002
0.12304013 -0.18336381 0.54000002
0.1246784 -0.18370336 0.54100001
0.12608883 -0.18370336 0.54100001
0.12773493 -0.18404295 0.54200006
0.12914796 -0.18404295 0.54200006
0.13056098 -0.18404295 0.54200006
0.13221751 -0.1843825 0.54300004
0.13387924 -0.18472207 0.54400003
0.13529749 -0.18472207 0.54400003
0.13696703 -0.18506162 0.54500002
0.13838789 -0.18506162 0.54500002
0.14006525 -0.18540117 0.546
0.14148873 -0.18540117 0.546
0.14317395 -0.18574075 0.54700005
0.1446 -0.18574075 0.54700005
0.14602607 -0.18574075 0.54700005
0.14745213 -0.18574075 0.54700005
0.14915037 -0.18608032 0.54800004
0.15057904 -0.18608032 0.54800004
0.15200771 -0.18608032 0.54800004
0.15343636 -0.18608032 0.54800004
0.15514764 -0.18641987 0.54900002
0.15657891 -0.18641987 0.54900002
0.1580102 -0.18641987 0.54900002
0.15973188 -0.18675943 0.55000001
0.16116577 -0.18675943 0.55000001
0.16289531 -0.18709899 0.551
0.16433179 -0.18709899 0.551
0.16576828 -0.18709899 0.551
0.16720477 -0.18709899 0.551
0.16894735 -0.18743856 0.55200005
0.17038643 -0.18743856 0.55200005
0.17182554 -0.18743856 0.55200005
0.17357852 -0.18777813 0.55300003
0.17502023 -0.18777813 0.55300003
0.17646192 -0.18777813 0.55300003
0.17822534 -0.18811768 0.55400002
0.17966965 -0.18811768 0.55400002
0.18144089 -0.18845724 0.55500001
0.18288781 -0.18845724 0.55500001
0.18433473 -0.18845724 0.55500001
0.18611641 -0.18879682 0.55600005
0.18756592 -0.18879682 0.55600005
0.18901546 -0.18879682 0.55600005
0.19080754 -0.18913639 0.55700004
0.19225968 -0.18913639 0.55700004
0.19405958 -0.18947594 0.55800003
0.19551434 -0.18947594 0.55800003
0.19732206 -0.18981549 0.55900002
0.1987794 -0.18981549 0.55900002
0.20059495 -0.19015506 0.56
0.2020549 -0.19015506 0.56
0.20424172 -0.19083419 0.56200004
0.20570688 -0.19083419 0.56200004
0.20754069 -0.19117375 0.56300002
0.20900846 -0.19117375 0.56300002
0.21047625 -0.19117375 0.56300002
0.21232046 -0.1915133 0.56400001
0.21379085 -0.1915133 0.56400001
0.21526122 -0.1915133 0.56400001
0.21711589 -0.19185287 0.565
0.21858887 -0.19185287 0.565
0.22006187 -0.19185287 0.565
0.22153485 -0.19185287 0.565
0.22340257 -0.19219245 0.56600004
0.22487818 -0.19219245 0.56600004
0.22635376 -0.19219245 0.56600004
0.22823189 -0.192532 0.56700003
0.22971009 -0.192532 0.56700003
0.23159604 -0.19287156 0.56800002
0.23307684 -0.19287156 0.56800002
0.23455766 -0.19287156 0.56800002
0.23645402 -0.19321112 0.56900001
0.23835564 -0.19355069 0.57000005
0.23984165 -0.19355069 0.57000005
0.24132769 -0.19355069 0.57000005
0.24323969 -0.19389026 0.57100004
0.24472833 -0.19389026 0.57100004
0.24664816 -0.19422981 0.57200003
0.2481394 -0.19422981 0.57200003
0.25006706 -0.19456936 0.57300001
0.2515609 -0.19456936 0.57300001
0.25349638 -0.19490893 0.574
0.25499281 -0.19490893 0.574
0.25648928 -0.19490893 0.574
0.25798574 -0.19490893 0.574
0.25993428 -0.19524851 0.57500005
0.26143333 -0.19524851 0.57500005
0.26293239 -0.19524851 0.57500005
0.26489133 -0.19558807 0.57600003
0.26639301 -0.19558807 0.57600003
0.26789469 -0.19558807 0.57600003
0.26986402 -0.19592762 0.57700002
0.27183861 -0.19626719 0.57800001
0.2733455 -0.19626719 0.57800001
0.27532792 -0.19660676 0.57900006
-0.25241879 -0.15061912 0.44700003
-0.25125343 -0.15061912 0.44700003
-0.2500881 -0.15061912 0.44700003
-0.24947958 -0.15095608 0.44800001
-0.24831162 -0.15095608 0.44800001
-0.24714366 -0.15095608 0.44800001
-0.24597567 -0.15095608 0.44800001
-0.24535418 -0.15129304 0.44900003
-0.24418361 -0.15129304 0.44900003
-0.24301304 -0.15129304 0.44900003
-0.24238107 -0.15162998 0.45000002
-0.2412079 -0.15162998 0.45000002
-0.24056815 -0.15196694 0.45100003
-0.23939237 -0.15196694 0.45100003
-0.23821656 -0.15196694 0.45100003
-0.23756637 -0.1523039 0.45200002
-0.23638798 -0.1523039 0.45200002
-0.2352096 -0.1523039 0.45200002
-0.23454894 -0.15264085 0.45300001
-0.23336795 -0.15264085 0.45300001
-0.23269953 -0.15297781 0.45400003
-0.2315159 -0.15297781 0.45400003
-0.2303323 -0.15297781 0.45400003
-0.2291487 -0.15297781 0.45400003
-0.22846721 -0.15331477 0.45500001
-0.227281 -0.15331477 0.45500001
-0.22609478 -0.15331477 0.45500001
-0.22540288 -0.15365173 0.45600003
-0.22421406 -0.15365173 0.45600003
-0.22302525 -0.15365173 0.45600003
-0.22183642 -0.15365173 0.45600003
-0.22064759 -0.15365173 0.45600003
-0.21994004 -0.15398867 0.45700002
-0.2187486 -0.15398867 0.45700002
-0.21755718 -0.15398867 0.45700002
-0.21636575 -0.15398867 0.45700002
-0.21517433 -0.15398867 0.45700002
-0.21445113 -0.15432563 0.45800003
-0.2132571 -0.15432563 0.45800003
-0.21206306 -0.15432563 0.45800003
-0.21086904 -0.15432563 0.45800003
-0.209675 -0.15432563 0.45800003
-0.20848097 -0.15432563 0.45800003
-0.20728692 -0.15432563 0.45800003
-0.20654286 -0.15466259 0.45900002
-0.20534623 -0.15466259 0.45900002
-0.20414957 -0.15466259 0.45900002
-0.20295295 -0.15466259 0.45900002
-0.2017563 -0.15466259 0.45900002
-0.20055966 -0.15466259 0.45900002
-0.19936301 -0.15466259 0.45900002
-0.19816639 -0.15466259 0.45900002
-0.19739886 -0.15499954 0.46000001
-0.19619961 -0.15499954 0.46000001
-0.19500035 -0.15499954 0.46000001
-0.19422242 -0.1553365 0.46100003
-0.19302057 -0.1553365 0.46100003
-0.19223478 -0.15567346 0.46200001
-0.19103034 -0.15567346 0.46200001
-0.18982586 -0.15567346 0.46200001
-0.18902968 -0.15601042 0.46300003
-0.18782261 -0.15601042 0.46300003
-0.18661554 -0.15601042 0.46300003
-0.18540847 -0.15601042 0.46300003
-0.1842014 -0.15601042 0.46300003
-0.18299432 -0.15601042 0.46300003
-0.18178727 -0.15601042 0.46300003
-0.18097021 -0.15634736 0.46400002
-0.17976053 -0.15634736 0.46400002
-0.17855085 -0.15634736 0.46400002
-0.17734116 -0.15634736 0.46400002
-0.17651109 -0.15668432 0.46500003
-0.17529881 -0.15668432 0.46500003
-0.17408653 -0.15668432 0.46500003
-0.17287424 -0.15668432 0.46500003
-0.17203112 -0.15702128 0.46600002
-0.17081623 -0.15702128 0.46600002
-0.16960134 -0.15702128 0.46600002
-0.16838644 -0.15702128 0.46600002
-0.16717155 -0.15702128 0.46600002
-0.16595666 -0.15702128 0.46600002
-0.1650953 -0.15735823 0.46700001
-0.16387779 -0.15735823 0.46700001
-0.16266029 -0.15735823 0.46700001
-0.16144279 -0.15735823 0.46700001
-0.16056839 -0.15769519 0.46800002
-0.15934829 -0.15769519 0.46800002
-0.15812817 -0.15769519 0.46800002
-0.15690808 -0.15769519 0.46800002
-0.15602063 -0.15803215 0.46900001
-0.15479793 -0.15803215 0.46900001
-0.1535752 -0.15803215 0.46900001
-0.15267734 -0.15836911 0.47000003
-0.15145202 -0.15836911 0.47000003
-0.15022671 -0.15836911 0.47000003
-0.14900139 -0.15836911 0.47000003
-0.14777605 -0.15836911 0.47000003
-0.14686255 -0.15870605 0.47100002
-0.14563462 -0.15870605 0.47100002
-0.14440669 -0.15870605 0.47100002
-0.14317876 -0.15870605 0.47100002
-0.14225224 -0.15904301 0.47200003
-0.1410217 -0.15904301 0.47200003
-0.14008732 -0.15937996 0.47300002
-0.13885418 -0.15937996 0.47300002
-0.13791201 -0.15971693 0.47400004
-0.13667625 -0.15971693 0.47400004
-0.13572624 -0.16005388 0.47500002
-0.13448788 -0.16005388 0.47500002
-0.13353005 -0.16039082 0.47600001
-0.1322891 -0.16039082 0.47600001
-0.13132344 -0.16072778 0.47700003
-0.13007988 -0.16072778 0.47700003
-0.12910639 -0.16106474 0.47800002
-0.12786022 -0.16106474 0.47800002
-0.12661403 -0.16106474 0.47800002
-0.12536786 -0.16106474 0.47800002
-0.12438136 -0.1614017 0.47900003
-0.12313259 -0.1614017 0.47900003
-0.12188379 -0.1614017 0.47900003
-0.12063502 -0.1614017 0.47900003
-0.11938623 -0.1614017 0.47900003
-0.11813745 -0.1614017 0.47900003
-0.11688866 -0.1614017 0.47900003
-0.11588129 -0.16173865 0.48000002
-0.11462991 -0.16173865 0.48000002
-0.11337852 -0.16173865 0.48000002
-0.11212713 -0.16173865 0.48000002
-0.11087573 -0.16173865 0.48000002
-0.10962434 -0.16173865 0.48000002
-0.10837295 -0.16173865 0.48000002
-0.10734473 -0.16207561 0.48100004
-0.10609074 -0.16207561 0.48100004
-0.10483674 -0.16207561 0.48100004
-0.10358274 -0.16207561 0.48100004
-0.10232875 -0.16207561 0.48100004
-0.10128488 -0.16241257 0.48200002
-0.10002828 -0.16241257 0.48200002
-0.09897659 -0.16274951 0.48300001
-0.097717375 -0.16274951 0.48300001
-0.09665788 -0.16308647 0.48400003
-0.095396049 -0.16308647 0.48400003
-0.094134234 -0.16308647 0.48400003
-0.093064301 -0.16342343 0.48500001
-0.09179987 -0.16342343 0.48500001
-0.090722121 -0.16376039 0.48600003
-0.08945509 -0.16376039 0.48600003
-0.08818806 -0.16376039 0.48600003
-0.086921021 -0.16376039 0.48600003
-0.085830234 -0.16409734 0.48700002
-0.084560595 -0.16409734 0.48700002
-0.083461985 -0.1644343 0.48800004
-0.082189739 -0.1644343 0.48800004
-0.080917493 -0.1644343 0.48800004
-0.079808444 -0.16477126 0.48900002
-0.07853359 -0.16477126 0.48900002
-0.077258736 -0.16477126 0.48900002
-0.075983882 -0.16477126 0.48900002
-0.074861802 -0.1651082 0.49000001
-0.073584348 -0.1651082 0.49000001
-0.072306886 -0.1651082 0.49000001
-0.071174383 -0.16544516 0.49100003
-0.069894314 -0.16544516 0.49100003
-0.068614252 -0.16544516 0.49100003
-0.067334183 -0.16544516 0.49100003
-0.066054113 -0.16544516 0.49100003
-0.064774044 -0.16544516 0.49100003
-0.063623287 -0.16578212 0.49200001
-0.06234061 -0.16578212 0.49200001
-0.06105794 -0.16578212 0.49200001
-0.059775263 -0.16578212 0.49200001
-0.058611475 -0.16611908 0.49300003
-0.057326194 -0.16611908 0.49300003
-0.056040909 -0.16611908 0.49300003
-0.054755628 -0.16611908 0.49300003
-0.053578805 -0.16645603 0.49400002
-0.052290916 -0.16645603 0.49400002
-0.051003024 -0.16645603 0.49400002
-0.049815774 -0.16679299 0.49500003
-0.048525278 -0.16679299 0.49500003
-0.047234781 -0.16679299 0.49500003
-0.0460371 -0.16712995 0.49600002
-0.044744 -0.16712995 0.49600002
-0.043538496 -0.16746689 0.49700001
-0.042242784 -0.16746689 0.49700001
-0.041029464 -0.16780385 0.49800003
-0.039731145 -0.16780385 0.49800003
-0.038510002 -0.16814081 0.49900001
-0.037209079 -0.16814081 0.49900001
-0.035980113 -0.16847776 0.5
-0.034676578 -0.16847776 0.5
-0.033439796 -0.16881473 0.50100005
-0.032133657 -0.16881473 0.50100005
-0.030827519 -0.16881473 0.50100005
-0.029521381 -0.16881473 0.50100005
-0.028271558 -0.16915168 0.50200003
-0.026962811 -0.16915168 0.50200003
-0.025654066 -0.16915168 0.50200003
-0.024393816 -0.16948864 0.50300002
-0.023082463 -0.16948864 0.50300002
-0.021771111 -0.16948864 0.50300002
-0.020500431 -0.16982558 0.50400001
-0.019186471 -0.16982558 0.50400001
-0.017872512 -0.16982558 0.50400001
-0.016558552 -0.16982558 0.50400001
-0.015244591 -0.16982558 0.50400001
-0.013958272 -0.17016253 0.505
-0.012641704 -0.17016253 0.505
-0.011347565 -0.1704995 0.50600004
-0.01002839 -0.1704995 0.50600004
-0.0087092156 -0.1704995 0.50600004
-0.0073900409 -0.1704995 0.50600004
-0.0060708667 -0.1704995 0.50600004
-0.0047610831 -0.17083646 0.50700003
-0.0034393019 -0.17083646 0.50700003
-0.0021175204 -0.17083646 0.50700003
-0.00079730863 -0.17117341 0.50800002
0.00052707974 -0.17117341 0.50800002
0.0018551127 -0.17151035 0.509
0.003182108 -0.17151035 0.509
0.0045179627 -0.17184733 0.51000005
0.0058475654 -0.17184733 0.51000005
0.0071912403 -0.17218429 0.51100004
0.0085234502 -0.17218429 0.51100004
0.0098749464 -0.17252123 0.51200002
0.011209763 -0.17252123 0.51200002
0.01254458 -0.17252123 0.51200002
0.013906504 -0.17285818 0.51300001
0.015273643 -0.17319514 0.514
0.016613673 -0.17319514 0.514
0.017953703 -0.17319514 0.514
0.019293735 -0.17319514 0.514
0.02067391 -0.17353211 0.51500005
0.022016548 -0.17353211 0.51500005
0.023404544 -0.17386906 0.51600003
0.024749788 -0.17386906 0.51600003
0.026145604 -0.174206 0.51700002
0.027493456 -0.174206 0.51700002
0.028841309 -0.174206 0.51700002
0.030247552 -0.17454296 0.51800001
0.031598013 -0.17454296 0.51800001
0.032948468 -0.17454296 0.51800001
0.034365147 -0.17487994 0.51900005
0.035787035 -0.17521688 0.52000004
0.037142705 -0.17521688 0.52000004
0.038572412 -0.17555383 0.52100003
0.039930694 -0.17555383 0.52100003
0.041288972 -0.17555383 0.52100003
0.042729113 -0.17589079 0.52200001
0.044089999 -0.17589079 0.52200001
0.045450885 -0.17589079 0.52200001
0.046811771 -0.17589079 0.52200001
0.04817266 -0.17589079 0.52200001
0.049533546 -0.17589079 0.52200001
0.050894432 -0.17589079 0.52200001
0.052255321 -0.17589079 0.52200001
0.053616207 -0.17589079 0.52200001
0.054977097 -0.17589079 0.52200001
0.056337982 -0.17589079 0.52200001
0.057698868 -0.17589079 0.52200001
0.059172895 -0.17622773 0.523
0.060536392 -0.17622773 0.523
0.061899886 -0.17622773 0.523
0.063384347 -0.17656471 0.52400005
0.064750448 -0.17656471 0.52400005
0.066116549 -0.17656471 0.52400005
0.067611434 -0.17690165 0.52500004
0.068980142 -0.17690165 0.52500004
0.070348851 -0.17690165 0.52500004
0.071854159 -0.17723861 0.52600002
0.073225476 -0.17723861 0.52600002
0.0745968 -0.17723861 0.52600002
0.076112539 -0.17757556 0.52700001
0.077486455 -0.17757556 0.52700001
0.079010017 -0.17791252 0.528
0.080386549 -0.17791252 0.528
0.081763074 -0.17791252 0.528
0.083297074 -0.17824948 0.52900004
0.084676214 -0.17824948 0.52900004
0.086218022 -0.17858644 0.53000003
0.087599762 -0.17858644 0.53000003
0.088981509 -0.17858644 0.53000003
0.090533741 -0.17892338 0.53100002
0.091918096 -0.17892338 0.53100002
0.093478158 -0.17926034 0.53200001
0.094865121 -0.17926034 0.53200001
0.096433006 -0.1795973 0.53300005
0.097822577 -0.1795973 0.53300005
0.099398278 -0.17993426 0.53400004
0.10079045 -0.17993426 0.53400004
0.10237397 -0.18027121 0.53500003
0.10376874 -0.18027121 0.53500003
0.10536009 -0.18060817 0.53600001
0.10675748 -0.18060817 0.53600001
0.10815486 -0.18060817 0.53600001
0.10955225 -0.18060817 0.53600001
0.11115663 -0.18094511 0.537
0.11255663 -0.18094511 0.537
0.11416884 -0.18128209 0.53800005
0.11557144 -0.18128209 0.53800005
0.11697403 -0.18128209 0.53800005
0.11859667 -0.18161903 0.53900003
0.12000187 -0.18161903 0.53900003
0.12163232 -0.18195599 0.54000002
0.12304013 -0.18195599 0.54000002
0.1246784 -0.18229294 0.54100001
0.12608883 -0.18229294 0.54100001
0.12773493 -0.18262991 0.54200006
0.12914796 -0.18262991 0.54200006
0.13056098 -0.18262991 0.54200006
0.13221751 -0.18296686 0.54300004
0.13387924 -0.18330382 0.54400003
0.13529749 -0.18330382 0.54400003
0.13696703 -0.18364076 0.54500002
0.13838789 -0.18364076 0.54500002
0.14006525 -0.18397771 0.546
0.14148873 -0.18397771 0.546
0.14317395 -0.18431468 0.54700005
0.1446 -0.18431468 0.54700005
0.14602607 -0.18431468 0.54700005
0.14745213 -0.18431468 0.54700005
0.14915037 -0.18465164 0.54800004
0.15057904 -0.18465164 0.54800004
0.15200771 -0.18465164 0.54800004
0.15343636 -0.18465164 0.54800004
0.15514764 -0.18498859 0.54900002
0.15657891 -0.18498859 0.54900002
0.1580102 -0.18498859 0.54900002
0.15973188 -0.18532553 0.55000001
0.16116577 -0.18532553 0.55000001
0.16259967 -0.18532553 0.55000001
0.16433179 -0.18566249 0.551
0.16576828 -0.18566249 0.551
0.16720477 -0.18566249 0.551
0.16864127 -0.18566249 0.551
0.17038643 -0.18599947 0.55200005
0.17182554 -0.18599947 0.55200005
0.17326464 -0.18599947 0.55200005
0.17502023 -0.18633641 0.55300003
0.17646192 -0.18633641 0.55300003
0.17790364 -0.18633641 0.55300003
0.17966965 -0.18667336 0.55400002
0.18144089 -0.18701032 0.55500001
0.18288781 -0.18701032 0.55500001
0.18433473 -0.18701032 0.55500001
0.18578166 -0.18701032 0.55500001
0.18756592 -0.18734729 0.55600005
0.18901546 -0.18734729 0.55600005
0.19080754 -0.18768424 0.55700004
0.19225968 -0.18768424 0.55700004
0.19405958 -0.18802118 0.55800003
0.19551434 -0.18802118 0.55800003
0.19732206 -0.18835814 0.55900002
0.1987794 -0.18835814 0.55900002
0.20059495 -0.18869509 0.56
0.2020549 -0.18869509 0.56
0.20387831 -0.18903206 0.56100005
0.20570688 -0.18936901 0.56200004
0.20717207 -0.18936901 0.56200004
0.20900846 -0.18970597 0.56300002
0.21047625 -0.18970597 0.56300002
0.21232046 -0.19004291 0.56400001
0.21379085 -0.19004291 0.56400001
0.21526122 -0.19004291 0.56400001
0.21711589 -0.19037987 0.565
0.21858887 -0.19037987 0.565
0.22006187 -0.19037987 0.565
0.22153485 -0.19037987 0.565
0.22340257 -0.19071683 0.56600004
0.22487818 -0.19071683 0.56600004
0.22635376 -0.19071683 0.56600004
0.22823189 -0.19105379 0.56700003
0.22971009 -0.19105379 0.56700003
0.23159604 -0.19139074 0.56800002
0.23307684 -0.19139074 0.56800002
0.23455766 -0.19139074 0.56800002
0.23645402 -0.1917277 0.56900001
0.23835564 -0.19206466 0.57000005
0.23984165 -0.19206466 0.57000005
0.24132769 -0.19206466 0.57000005
0.24323969 -0.19240162 0.57100004
0.24472833 -0.19240162 0.57100004
0.24664816 -0.19273856 0.57200003
0.2481394 -0.19273856 0.57200003
0.25006706 -0.19307552 0.57300001
0.2515609 -0.19307552 0.57300001
0.25349638 -0.19341247 0.574
0.25499281 -0.19341247 0.574
0.25648928 -0.19341247 0.574
0.25798574 -0.19341247 0.574
0.25993428 -0.19374944 0.57500005
0.26143333 -0.19374944 0.57500005
0.26293239 -0.19374944 0.57500005
0.26443145 -0.19374944 0.57500005
0.26639301 -0.19408639 0.57600003
0.26789469 -0.19408639 0.57600003
0.26986402 -0.19442335 0.57700002
0.27136832 -0.19442335 0.57700002
0.2733455 -0.19476029 0.57800001
0.27532792 -0.19509727 0.57900006
-0.25241879 -0.14945377 0.44700003
-0.25125343 -0.14945377 0.44700003
-0.2500881 -0.14945377 0.44700003
-0.24947958 -0.14978813 0.44800001
-0.24831162 -0.14978813 0.44800001
-0.24714366 -0.14978813 0.44800001
-0.24597567 -0.14978813 0.44800001
-0.24535418 -0.15012248 0.44900003
-0.24418361 -0.15012248 0.44900003
-0.24301304 -0.15012248 0.44900003
-0.24238107 -0.15045682 0.45000002
-0.2412079 -0.15045682 0.45000002
-0.24056815 -0.15079117 0.45100003
-0.23939237 -0.15079117 0.45100003
-0.23821656 -0.15079117 0.45100003
-0.23756637 -0.15112552 0.45200002
-0.23638798 -0.15112552 0.45200002
-0.2352096 -0.15112552 0.45200002
-0.23454894 -0.15145986 0.45300001
-0.23336795 -0.15145986 0.45300001
-0.23269953 -0.15179421 0.45400003
-0.2315159 -0.15179421 0.45400003
-0.2303323 -0.15179421 0.45400003
-0.2291487 -0.15179421 0.45400003
-0.22846721 -0.15212856 0.45500001
-0.227281 -0.15212856 0.45500001
-0.22659169 -0.15246291 0.45600003
-0.22540288 -0.15246291 0.45600003
-0.22421406 -0.15246291 0.45600003
-0.22302525 -0.15246291 0.45600003
-0.22183642 -0.15246291 0.45600003
-0.22113146 -0.15279725 0.45700002
-0.21994004 -0.15279725 0.45700002
-0.2187486 -0.15279725 0.45700002
-0.21755718 -0.15279725 0.45700002
-0.21636575 -0.15279725 0.45700002
-0.21564518 -0.1531316 0.45800003
-0.21445113 -0.1531316 0.45800003
-0.2132571 -0.1531316 0.45800003
-0.21206306 -0.1531316 0.45800003
-0.21132945 -0.15346596 0.45900002
-0.21013279 -0.15346596 0.45900002
-0.20893615 -0.15346596 0.45900002
-0.20773952 -0.15346596 0.45900002
-0.20609288 -0.1531316 0.45800003
-0.20489886 -0.1531316 0.45800003
-0.20414957 -0.15346596 0.45900002
-0.20295295 -0.15346596 0.45900002
-0.2017563 -0.15346596 0.45900002
-0.20055966 -0.15346596 0.45900002
-0.19936301 -0.15346596 0.45900002
-0.19816639 -0.15346596 0.45900002
-0.19739886 -0.15380029 0.46000001
-0.19619961 -0.15380029 0.46000001
-0.19500035 -0.15380029 0.46000001
-0.19422242 -0.15413465 0.46100003
-0.19343926 -0.154469 0.46200001
-0.19223478 -0.154469 0.46200001
-0.19103034 -0.154469 0.46200001
-0.19023675 -0.15480335 0.46300003
-0.18902968 -0.15480335 0.46300003
-0.18782261 -0.15480335 0.46300003
-0.18661554 -0.15480335 0.46300003
-0.18540847 -0.15480335 0.46300003
-0.1842014 -0.15480335 0.46300003
-0.18299432 -0.15480335 0.46300003
-0.18178727 -0.15480335 0.46300003
-0.18097021 -0.1551377 0.46400002
-0.17976053 -0.1551377 0.46400002
-0.17855085 -0.1551377 0.46400002
-0.17734116 -0.1551377 0.46400002
-0.17651109 -0.15547206 0.46500003
-0.17529881 -0.15547206 0.46500003
-0.17408653 -0.15547206 0.46500003
-0.17287424 -0.15547206 0.46500003
-0.17203112 -0.15580639 0.46600002
-0.17081623 -0.15580639 0.46600002
-0.16960134 -0.15580639 0.46600002
-0.16838644 -0.15580639 0.46600002
-0.16717155 -0.15580639 0.46600002
-0.16595666 -0.15580639 0.46600002
-0.1650953 -0.15614074 0.46700001
-0.16387779 -0.15614074 0.46700001
-0.16266029 -0.15614074 0.46700001
-0.16144279 -0.15614074 0.46700001
-0.16056839 -0.1564751 0.46800002
-0.15934829 -0.1564751 0.46800002
-0.15812817 -0.1564751 0.46800002
-0.15690808 -0.1564751 0.46800002
-0.15602063 -0.15680943 0.46900001
-0.15479793 -0.15680943 0.46900001
-0.1535752 -0.15680943 0.46900001
-0.15267734 -0.15714379 0.47000003
-0.15145202 -0.15714379 0.47000003
-0.15022671 -0.15714379 0.47000003
-0.14900139 -0.15714379 0.47000003
-0.14777605 -0.15714379 0.47000003
-0.14686255 -0.15747814 0.47100002
-0.14563462 -0.15747814 0.47100002
-0.14440669 -0.15747814 0.47100002
-0.14317876 -0.15747814 0.47100002
-0.14225224 -0.15781249 0.47200003
-0.14132047 -0.15814683 0.47300002
-0.14008732 -0.15814683 0.47300002
-0.13885418 -0.15814683 0.47300002
-0.13791201 -0.15848118 0.47400004
-0.13667625 -0.15848118 0.47400004
-0.13572624 -0.15881553 0.47500002
-0.13448788 -0.15881553 0.47500002
-0.13353005 -0.15914987 0.47600001
-0.1322891 -0.15914987 0.47600001
-0.13132344 -0.15948422 0.47700003
-0.13007988 -0.15948422 0.47700003
-0.12910639 -0.15981857 0.47800002
-0.12786022 -0.15981857 0.47800002
-0.12661403 -0.15981857 0.47800002
-0.12536786 -0.15981857 0.47800002
-0.12438136 -0.16015293 0.47900003
-0.12313259 -0.16015293 0.47900003
-0.12188379 -0.16015293 0.47900003
-0.12063502 -0.16015293 0.47900003
-0.11938623 -0.16015293 0.47900003
-0.11813745 -0.16015293 0.47900003
-0.11713269 -0.16048728 0.48000002
-0.11588129 -0.16048728 0.48000002
-0.11462991 -0.16048728 0.48000002
-0.11337852 -0.16048728 0.48000002
-0.11212713 -0.16048728 0.48000002
-0.11087573 -0.16048728 0.48000002
-0.10962434 -0.16048728 0.48000002
-0.10837295 -0.16048728 0.48000002
-0.10734473 -0.16082163 0.48100004
-0.10609074 -0.16082163 0.48100004
-0.10483674 -0.16082163 0.48100004
-0.10358274 -0.16082163 0.48100004
-0.10254148 -0.16115597 0.48200002
-0.10128488 -0.16115597 0.48200002
-0.1002358 -0.16149032 0.48300001
-0.09897659 -0.16149032 0.48300001
-0.097717375 -0.16149032 0.48300001
-0.09665788 -0.16182467 0.48400003
-0.095396049 -0.16182467 0.48400003
-0.094134234 -0.16182467 0.48400003
-0.093064301 -0.16215901 0.48500001
-0.09179987 -0.16215901 0.48500001
-0.090722121 -0.16249336 0.48600003
-0.08945509 -0.16249336 0.48600003
-0.08818806 -0.16249336 0.48600003
-0.087099873 -0.16282772 0.48700002
-0.085830234 -0.16282772 0.48700002
-0.084560595 -0.16282772 0.48700002
-0.083461985 -0.16316207 0.48800004
-0.082189739 -0.16316207 0.48800004
-0.080917493 -0.16316207 0.48800004
-0.079808444 -0.1634964 0.48900002
-0.07853359 -0.1634964 0.48900002
-0.077258736 -0.1634964 0.48900002
-0.076139264 -0.16383076 0.49000001
-0.074861802 -0.16383076 0.49000001
-0.073584348 -0.16383076 0.49000001
-0.072306886 -0.16383076 0.49000001
-0.071174383 -0.16416511 0.49100003
-0.069894314 -0.16416511 0.49100003
-0.068614252 -0.16416511 0.49100003
-0.067334183 -0.16416511 0.49100003
-0.066054113 -0.16416511 0.49100003
-0.064774044 -0.16416511 0.49100003
-0.063623287 -0.16449945 0.49200001
-0.06234061 -0.16449945 0.49200001
-0.06105794 -0.16449945 0.49200001
-0.05989676 -0.1648338 0.49300003
-0.058611475 -0.1648338 0.49300003
-0.057326194 -0.1648338 0.49300003
-0.056040909 -0.1648338 0.49300003
-0.054755628 -0.1648338 0.49300003
-0.053578805 -0.16516815 0.49400002
-0.052290916 -0.16516815 0.49400002
-0.051003024 -0.16516815 0.49400002
-0.049815774 -0.1655025 0.49500003
-0.048525278 -0.1655025 0.49500003
-0.047234781 -0.1655025 0.49500003
-0.0460371 -0.16583686 0.49600002
-0.044744 -0.16583686 0.49600002
-0.043538496 -0.16617119 0.49700001
-0.042242784 -0.16617119 0.49700001
-0.041029464 -0.16650555 0.49800003
-0.039810926 -0.1668399 0.49900001
-0.038510002 -0.1668399 0.49900001
-0.037209079 -0.1668399 0.49900001
-0.035980113 -0.16717423 0.5
-0.034676578 -0.16717423 0.5
-0.033439796 -0.1675086 0.50100005
-0.032133657 -0.1675086 0.50100005
-0.030827519 -0.1675086 0.50100005
-0.029580304 -0.16784294 0.50200003
-0.028271558 -0.16784294 0.50200003
-0.026962811 -0.16784294 0.50200003
-0.025654066 -0.16784294 0.50200003
-0.024393816 -0.16817729 0.50300002
-0.023082463 -0.16817729 0.50300002
-0.021771111 -0.16817729 0.50300002
-0.020500431 -0.16851163 0.50400001
-0.019186471 -0.16851163 0.50400001
-0.017872512 -0.16851163 0.50400001
-0.016558552 -0.16851163 0.50400001
-0.015274838 -0.16884598 0.505
-0.013958272 -0.16884598 0.505
-0.012641704 -0.16884598 0.505
-0.011347565 -0.16918033 0.50600004
-0.01002839 -0.16918033 0.50600004
-0.0087092156 -0.16918033 0.50600004
-0.0073900409 -0.16918033 0.50600004
-0.0060708667 -0.16918033 0.50600004
-0.0047610831 -0.16951469 0.50700003
-0.0034393019 -0.16951469 0.50700003
-0.0021175204 -0.16951469 0.50700003
-0.00079730863 -0.16984902 0.50800002
0.00052707974 -0.16984902 0.50800002
0.0018551127 -0.17018338 0.509
0.003182108 -0.17018338 0.509
0.0045179627 -0.17051774 0.51000005
0.0058475654 -0.17051774 0.51000005
0.0071912403 -0.17085208 0.51100004
0.0085234502 -0.17085208 0.51100004
0.0098556597 -0.17085208 0.51100004
0.011209763 -0.17118642 0.51200002
0.01254458 -0.17118642 0.51200002
0.013906504 -0.17152077 0.51300001
0.015243928 -0.17152077 0.51300001
0.016613673 -0.17185511 0.514
0.017953703 -0.17185511 0.514
0.019293735 -0.17185511 0.514
0.02067391 -0.17218947 0.51500005
0.022016548 -0.17218947 0.51500005
0.023404544 -0.17252383 0.51600003
0.024749788 -0.17252383 0.51600003
0.026145604 -0.17285816 0.51700002
0.027493456 -0.17285816 0.51700002
0.028841309 -0.17285816 0.51700002
0.030247552 -0.17319252 0.51800001
0.031598013 -0.17319252 0.51800001
0.032948468 -0.17319252 0.51800001
0.034365147 -0.17352687 0.51900005
0.035787035 -0.17386122 0.52000004
0.037142705 -0.17386122 0.52000004
0.038572412 -0.17419556 0.52100003
0.039930694 -0.17419556 0.52100003
0.041288972 -0.17419556 0.52100003
0.042647257 -0.17419556 0.52100003
0.044089999 -0.17452991 0.52200001
0.045450885 -0.17452991 0.52200001
0.046811771 -0.17452991 0.52200001
0.04817266 -0.17452991 0.52200001
0.049533546 -0.17452991 0.52200001
0.050894432 -0.17452991 0.52200001
0.052255321 -0.17452991 0.52200001
0.053616207 -0.17452991 0.52200001
0.054977097 -0.17452991 0.52200001
0.056337982 -0.17452991 0.52200001
0.057698868 -0.17452991 0.52200001
0.059172895 -0.17486425 0.523
0.060536392 -0.17486425 0.523
0.061899886 -0.17486425 0.523
0.063384347 -0.17519861 0.52400005
0.064750448 -0.17519861 0.52400005
0.066242725 -0.17553295 0.52500004
0.067611434 -0.17553295 0.52500004
0.068980142 -0.17553295 0.52500004
0.070348851 -0.17553295 0.52500004
0.071854159 -0.1758673 0.52600002
0.073225476 -0.1758673 0.52600002
0.0745968 -0.1758673 0.52600002
0.076112539 -0.17620164 0.52700001
0.077486455 -0.17620164 0.52700001
0.07886038 -0.17620164 0.52700001
0.080386549 -0.17653599 0.528
0.081763074 -0.17653599 0.528
0.083297074 -0.17687036 0.52900004
0.084836274 -0.1772047 0.53000003
0.086218022 -0.1772047 0.53000003
0.087599762 -0.1772047 0.53000003
0.088981509 -0.1772047 0.53000003
0.090533741 -0.17753905 0.53100002
0.091918096 -0.17753905 0.53100002
0.093478158 -0.17787339 0.53200001
0.094865121 -0.17787339 0.53200001
0.096433006 -0.17820776 0.53300005
0.097822577 -0.17820776 0.53300005
0.099398278 -0.17854209 0.53400004
0.10079045 -0.17854209 0.53400004
0.10237397 -0.17887644 0.53500003
0.10376874 -0.17887644 0.53500003
0.10536009 -0.17921078 0.53600001
0.10675748 -0.17921078 0.53600001
0.10815486 -0.17921078 0.53600001
0.10955225 -0.17921078 0.53600001
0.11115663 -0.17954513 0.537
0.11255663 -0.17954513 0.537
0.11416884 -0.17987949 0.53800005
0.11557144 -0.17987949 0.53800005
0.11697403 -0.17987949 0.53800005
0.11859667 -0.18021384 0.53900003
0.12000187 -0.18021384 0.53900003
0.12163232 -0.18054818 0.54000002
0.12304013 -0.18054818 0.54000002
0.1246784 -0.18088253 0.54100001
0.12608883 -0.18088253 0.54100001
0.12749925 -0.18088253 0.54100001
0.12914796 -0.1812169 0.54200006
0.13056098 -0.1812169 0.54200006
0.13221751 -0.18155123 0.54300004
0.13387924 -0.18188557 0.54400003
0.13529749 -0.18188557 0.54400003
0.13696703 -0.18221992 0.54500002
0.13838789 -0.18221992 0.54500002
0.14006525 -0.18255426 0.546
0.14148873 -0.18255426 0.546
0.14317395 -0.18288863 0.54700005
0.1446 -0.18288863 0.54700005
0.14602607 -0.18288863 0.54700005
0.14745213 -0.18288863 0.54700005
0.14915037 -0.18322298 0.54800004
0.15057904 -0.18322298 0.54800004
0.15200771 -0.18322298 0.54800004
0.15343636 -0.18322298 0.54800004
0.15514764 -0.18355732 0.54900002
0.15657891 -0.18355732 0.54900002
0.1580102 -0.18355732 0.54900002
0.15973188 -0.18389167 0.55000001
0.16116577 -0.18389167 0.55000001
0.16259967 -0.18389167 0.55000001
0.16433179 -0.18422601 0.551
0.16576828 -0.18422601 0.551
0.16720477 -0.18422601 0.551
0.16864127 -0.18422601 0.551
0.17038643 -0.18456037 0.55200005
0.17182554 -0.18456037 0.55200005
0.17326464 -0.18456037 0.55200005
0.17502023 -0.18489471 0.55300003
0.17646192 -0.18489471 0.55300003
0.17790364 -0.18489471 0.55300003
0.17966965 -0.18522906 0.55400002
0.18111397 -0.18522906 0.55400002
0.18288781 -0.1855634 0.55500001
0.18433473 -0.1855634 0.55500001
0.18578166 -0.1855634 0.55500001
0.18756592 -0.18589777 0.55600005
0.18901546 -0.18589777 0.55600005
0.19080754 -0.1862321 0.55700004
0.19225968 -0.1862321 0.55700004
0.19405958 -0.18656646 0.55800003
0.19551434 -0.18656646 0.55800003
0.19732206 -0.18690079 0.55900002
0.1987794 -0.18690079 0.55900002
0.20059495 -0.18723515 0.56
0.2020549 -0.18723515 0.56
0.20387831 -0.18756951 0.56100005
0.20570688 -0.18790385 0.56200004
0.20717207 -0.18790385 0.56200004
0.20900846 -0.1882382 0.56300002
0.21047625 -0.1882382 0.56300002
0.21232046 -0.18857254 0.56400001
0.21379085 -0.18857254 0.56400001
0.21564288 -0.18890688 0.565
0.21711589 -0.18890688 0.565
0.21858887 -0.18890688 0.565
0.22006187 -0.18890688 0.565
0.22153485 -0.18890688 0.565
0.22340257 -0.18924125 0.56600004
0.22487818 -0.18924125 0.56600004
0.22635376 -0.18924125 0.56600004
0.22823189 -0.1895756 0.56700003
0.22971009 -0.1895756 0.56700003
0.23159604 -0.18990993 0.56800002
0.23307684 -0.18990993 0.56800002
0.23455766 -0.18990993 0.56800002
0.23645402 -0.19024429 0.56900001
0.23835564 -0.19057864 0.57000005
0.23984165 -0.19057864 0.57000005
0.24132769 -0.19057864 0.57000005
0.24323969 -0.19091299 0.57100004
0.24472833 -0.19091299 0.57100004
0.24664816 -0.19124733 0.57200003
0.2481394 -0.19124733 0.57200003
0.25006706 -0.19158168 0.57300001
0.2515609 -0.19158168 0.57300001
0.25349638 -0.19191602 0.574
0.25499281 -0.19191602 0.574
0.25648928 -0.19191602 0.574
0.25798574 -0.19191602 0.574
0.25993428 -0.19225039 0.57500005
0.26143333 -0.19225039 0.57500005
0.26293239 -0.19225039 0.57500005
0.26443145 -0.19225039 0.57500005
0.26639301 -0.19258472 0.57600003
0.26789469 -0.19258472 0.57600003
0.26986402 -0.19291908 0.57700002
0.27136832 -0.19291908 0.57700002
0.2733455 -0.19325341 0.57800001
0.2748524 -0.19325341 0.57800001
-0.25241879 -0.14828841 0.44700003
-0.25125343 -0.14828841 0.44700003
-0.2500881 -0.14828841 0.44700003
-0.24947958 -0.14862014 0.44800001
-0.24831162 -0.14862014 0.44800001
-0.24714366 -0.14862014 0.44800001
-0.24597567 -0.14862014 0.44800001
-0.24535418 -0.14895189 0.44900003
-0.24418361 -0.14895189 0.44900003
-0.24301304 -0.14895189 0.44900003
-0.24238107 -0.14928363 0.45000002
-0.2412079 -0.14928363 0.45000002
-0.24056815 -0.14961538 0.45100003
-0.23939237 -0.14961538 0.45100003
-0.23821656 -0.14961538 0.45100003
-0.23756637 -0.14994712 0.45200002
-0.23638798 -0.14994712 0.45200002
-0.2352096 -0.14994712 0.45200002
-0.23454894 -0.15027885 0.45300001
-0.23336795 -0.15027885 0.45300001
-0.23269953 -0.1506106 0.45400003
-0.2315159 -0.1506106 0.45400003
-0.2303323 -0.1506106 0.45400003
-0.2291487 -0.1506106 0.45400003
-0.22846721 -0.15094234 0.45500001
-0.227281 -0.15094234 0.45500001
-0.22609478 -0.15094234 0.45500001
-0.22540288 -0.15127409 0.45600003
-0.22421406 -0.15127409 0.45600003
-0.22302525 -0.15127409 0.45600003
-0.22183642 -0.15127409 0.45600003
-0.22064759 -0.15127409 0.45600003
-0.21994004 -0.15160581 0.45700002
-0.2187486 -0.15160581 0.45700002
-0.21755718 -0.15160581 0.45700002
-0.21636575 -0.15160581 0.45700002
-0.21564518 -0.15193757 0.45800003
-0.21445113 -0.15193757 0.45800003
-0.2132571 -0.15193757 0.45800003
-0.21206306 -0.15193757 0.45800003
-0.21132945 -0.1522693 0.45900002
