# .PCD v0.7 - Point Cloud Data file format
VERSION 0.7
FIELDS x y z
SIZE 4 4 4
TYPE F F F
COUNT 1 1 1
WIDTH 1377
HEIGHT 1
VIEWPOINT 0 0 0 1 0 0 0
POINTS 1377
DATA ascii
-0.12885228 0.050755747 0.44700003
-0.1276895 0.050755747 0.44700003
-0.12652671 0.050755747 0.44700003
-0.12536393 0.050755747 0.44700003
-0.12420114 0.050755747 0.44700003
-0.12303837 0.050755747 0.44700003
-0.12187558 0.050755747 0.44700003
-0.12098286 0.050869294 0.44800001
-0.11981747 0.050869294 0.44800001
-0.11865208 0.050869294 0.44800001
-0.1174867 0.050869294 0.44800001
-0.11632132 0.050869294 0.44800001
-0.11515594 0.050869294 0.44800001
-0.11399055 0.050869294 0.44800001
-0.11282516 0.050869294 0.44800001
-0.11165978 0.050869294 0.44800001
-0.11049441 0.050869294 0.44800001
-0.10932902 0.050869294 0.44800001
-0.1079222 0.050755747 0.44700003
-0.10675941 0.050755747 0.44700003
-0.10559663 0.050755747 0.44700003
-0.10443386 0.050755747 0.44700003
-0.10327107 0.050755747 0.44700003
-0.10210829 0.050755747 0.44700003
-0.1009455 0.050755747 0.44700003
-0.10000595 0.050869294 0.44800001
-0.098619945 0.050755747 0.44700003
-0.097457163 0.050755747 0.44700003
-0.096294381 0.050755747 0.44700003
-0.095131598 0.050755747 0.44700003
-0.093968816 0.050755747 0.44700003
-0.093013644 0.050869294 0.44800001
-0.091848269 0.050869294 0.44800001
-0.090682887 0.050869294 0.44800001
-0.089517497 0.050869294 0.44800001
-0.088352121 0.050869294 0.44800001
-0.087186731 0.050869294 0.44800001
-0.086021349 0.050869294 0.44800001
-0.084855966 0.050869294 0.44800001
-0.083690584 0.050869294 0.44800001
-0.082525201 0.050869294 0.44800001
-0.081359819 0.050869294 0.44800001
-0.080194436 0.050869294 0.44800001
-0.079029046 0.050869294 0.44800001
-0.077863663 0.050869294 0.44800001
-0.076698288 0.050869294 0.44800001
-0.075532898 0.050869294 0.44800001
-0.074367516 0.050869294 0.44800001
-0.073202133 0.050869294 0.44800001
-0.072036751 0.050869294 0.44800001
-0.070871361 0.050869294 0.44800001
-0.069705985 0.050869294 0.44800001
-0.068540603 0.050869294 0.44800001
-0.067375213 0.050869294 0.44800001
-0.066209838 0.050869294 0.44800001
-0.065044448 0.050869294 0.44800001
-0.063879065 0.050869294 0.44800001
-0.062713683 0.050869294 0.44800001
-0.0615483 0.050869294 0.44800001
-0.060382918 0.050869294 0.44800001
-0.059217531 0.050869294 0.44800001
-0.058052152 0.050869294 0.44800001
-0.056886766 0.050869294 0.44800001
-0.055721384 0.050869294 0.44800001
-0.054556001 0.050869294 0.44800001
-0.053509794 0.050982844 0.44900003
-0.052341808 0.050982844 0.44900003
-0.051173825 0.050982844 0.44900003
-0.050005842 0.050982844 0.44900003
-0.048837855 0.050982844 0.44900003
-0.047669873 0.050982844 0.44900003
-0.046501886 0.050982844 0.44900003
-0.045232933 0.050869294 0.44800001
-0.04416592 0.050982844 0.44900003
-0.042997934 0.050982844 0.44900003
-0.041829947 0.050982844 0.44900003
-0.040661965 0.050982844 0.44900003
-0.039493978 0.050982844 0.44900003
-0.038325991 0.050982844 0.44900003
-0.037158009 0.050982844 0.44900003
-0.035990026 0.050982844 0.44900003
-0.034822039 0.050982844 0.44900003
-0.033654056 0.050982844 0.44900003
-0.03248607 0.050982844 0.44900003
0.01176486 0.050415106 0.44400004
0.012919839 0.050415106 0.44400004
0.014106516 0.050528653 0.44500002
0.015264096 0.050528653 0.44500002
0.016421674 0.050528653 0.44500002
0.017618757 0.050642196 0.44600001
0.018778939 0.050642196 0.44600001
0.019939119 0.050642196 0.44600001
0.021099299 0.050642196 0.44600001
0.022309391 0.050755747 0.44700003
0.023472171 0.050755747 0.44700003
0.024634954 0.050755747 0.44700003
0.025797736 0.050755747 0.44700003
0.026960518 0.050755747 0.44700003
0.028123302 0.050755747 0.44700003
0.029286081 0.050755747 0.44700003
0.030448863 0.050755747 0.44700003
0.031611647 0.050755747 0.44700003
0.03277443 0.050755747 0.44700003
0.033937212 0.050755747 0.44700003
0.035178516 0.050869294 0.44800001
0.036343899 0.050869294 0.44800001
0.037509281 0.050869294 0.44800001
0.038674664 0.050869294 0.44800001
0.03984005 0.050869294 0.44800001
0.041005433 0.050869294 0.44800001
0.042170815 0.050869294 0.44800001
0.043336198 0.050869294 0.44800001
0.044402249 0.050755747 0.44700003
0.045565031 0.050755747 0.44700003
0.046727814 0.050755747 0.44700003
0.047890596 0.050755747 0.44700003
0.049053378 0.050755747 0.44700003
0.050216161 0.050755747 0.44700003
0.051378939 0.050755747 0.44700003
0.052541722 0.050755747 0.44700003
0.053704504 0.050755747 0.44700003
0.054867286 0.050755747 0.44700003
0.056030069 0.050755747 0.44700003
0.057192855 0.050755747 0.44700003
0.058355633 0.050755747 0.44700003
0.059518419 0.050755747 0.44700003
0.060816947 0.050869294 0.44800001
0.06198233 0.050869294 0.44800001
0.063147716 0.050869294 0.44800001
0.064313099 0.050869294 0.44800001
0.065478481 0.050869294 0.44800001
0.066643864 0.050869294 0.44800001
0.067809254 0.050869294 0.44800001
0.068974629 0.050869294 0.44800001
0.070140012 0.050869294 0.44800001
0.071305402 0.050869294 0.44800001
0.072632551 0.050982844 0.44900003
0.073800534 0.050982844 0.44900003
0.074968517 0.050982844 0.44900003
0.076136507 0.050982844 0.44900003
0.07730449 0.050982844 0.44900003
0.078472473 0.050982844 0.44900003
0.079640456 0.050982844 0.44900003
0.080628462 0.050869294 0.44800001
0.081793852 0.050869294 0.44800001
0.082959235 0.050869294 0.44800001
0.083936833 0.050755747 0.44700003
0.085099623 0.050755747 0.44700003
0.08606942 0.050642196 0.44600001
0.087229602 0.050642196 0.44600001
0.088191599 0.050528653 0.44500002
0.089148402 0.050415106 0.44400004
0.090303376 0.050415106 0.44400004
0.09145835 0.050415106 0.44400004
0.092404738 0.050301556 0.44300002
0.093345925 0.050188009 0.44200003
0.094495706 0.050188009 0.44200003
0.095429085 0.050074462 0.44100001
0.096576259 0.050074462 0.44100001
0.097058646 0.049733818 0.43800002
0.097525433 0.049393177 0.43500003
0.097828865 0.047349323 0.41700003
0.098202005 0.047008678 0.41400003
0.099039137 0.046895131 0.41300002
0.099871069 0.046781585 0.41200003
0.1006978 0.046668034 0.41100001
0.10151932 0.046554487 0.41000003
0.10233565 0.04644094 0.40900001
0.10289395 0.046213843 0.40700001
0.10369729 0.046100296 0.40600002
0.10423738 0.045873202 0.40400001
0.10476708 0.045646105 0.40200001
0.10528636 0.045419011 0.40000001
0.10602532 0.044851273 0.39500001
0.10651079 0.04462418 0.39300001
0.10698587 0.044397086 0.39100003
0.10745052 0.044169992 0.38900003
0.10818361 0.044056442 0.38800001
0.10863006 0.043829344 0.38600001
0.10935014 0.043715801 0.38500002
0.10977838 0.043488704 0.38300002
0.11048546 0.043375157 0.38200003
0.1108955 0.043148063 0.38000003
0.11158956 0.043034513 0.37900001
0.11198138 0.042807419 0.377
0.11266243 0.042693872 0.37600002
0.11303605 0.042466775 0.37400001
0.11378444 0.041671943 0.36700001
0.11411384 0.041444849 0.36500001
0.11443283 0.041217752 0.36300001
0.11505926 0.041104205 0.36200002
0.11536004 0.040877111 0.36000001
0.11597347 0.040763564 0.35900003
0.11658168 0.040650014 0.35800001
0.11751296 0.040650014 0.35800001
0.11778252 0.04042292 0.35600001
0.11837513 0.040309373 0.35500002
0.11896253 0.040195823 0.354
0.11954474 0.04008228 0.35300002
0.12012176 0.039968733 0.35200003
0.12069356 0.039855182 0.35100001
0.12160661 0.039855182 0.35100001
0.12217061 0.039741635 0.35000002
0.16189751 0.051891223 0.45700002
0.1630863 0.051891223 0.45700002
0.16427509 0.051891223 0.45700002
0.16546388 0.051891223 0.45700002
0.16628803 0.051777676 0.45600003
0.16784148 0.051891223 0.45700002
0.1686604 0.051777676 0.45600003
0.16984659 0.051777676 0.45600003
0.17140786 0.051891223 0.45700002
0.17221899 0.051777676 0.45600003
0.17340519 0.051777676 0.45600003
0.17497425 0.051891223 0.45700002
0.17616303 0.051891223 0.45700002
0.17696376 0.051777676 0.45600003
0.17814997 0.051777676 0.45600003
0.17933616 0.051777676 0.45600003
0.18052234 0.051777676 0.45600003
0.18170853 0.051777676 0.45600003
0.18289472 0.051777676 0.45600003
0.18408093 0.051777676 0.45600003
0.18526712 0.051777676 0.45600003
0.18645331 0.051777676 0.45600003
0.1876395 0.051777676 0.45600003
0.1888257 0.051777676 0.45600003
0.1900119 0.051777676 0.45600003
0.1911981 0.051777676 0.45600003
0.19280617 0.051891223 0.45700002
0.19399497 0.051891223 0.45700002
0.19518377 0.051891223 0.45700002
0.19637255 0.051891223 0.45700002
0.19756135 0.051891223 0.45700002
0.19831525 0.051777676 0.45600003
0.19950144 0.051777676 0.45600003
0.20068765 0.051777676 0.45600003
0.20231654 0.051891223 0.45700002
0.20350532 0.051891223 0.45700002
0.20469412 0.051891223 0.45700002
0.20588291 0.051891223 0.45700002
0.20707172 0.051891223 0.45700002
0.20826051 0.051891223 0.45700002
0.20944931 0.051891223 0.45700002
0.21063809 0.051891223 0.45700002
0.21182689 0.051891223 0.45700002
0.21301569 0.051891223 0.45700002
0.21420449 0.051891223 0.45700002
0.21539328 0.051891223 0.45700002
0.21658207 0.051891223 0.45700002
0.21729437 0.051777676 0.45600003
0.21848054 0.051777676 0.45600003
-0.24750642 0.051686231 0.44500002
-0.24634886 0.051686231 0.44500002
-0.24519128 0.051686231 0.44500002
-0.24403371 0.051686231 0.44500002
-0.24287611 0.051686231 0.44500002
-0.24171853 0.051686231 0.44500002
-0.24056096 0.051686231 0.44500002
-0.23940338 0.051686231 0.44500002
-0.23824582 0.051686231 0.44500002
-0.23708822 0.051686231 0.44500002
-0.23540045 0.051570084 0.44400004
-0.23424549 0.051570084 0.44400004
-0.23361547 0.051686231 0.44500002
-0.23245792 0.051686231 0.44500002
-0.23130032 0.051686231 0.44500002
-0.23014274 0.051686231 0.44500002
-0.22898518 0.051686231 0.44500002
-0.22731562 0.051570084 0.44400004
-0.22616066 0.051570084 0.44400004
-0.22551243 0.051686231 0.44500002
-0.22435483 0.051686231 0.44500002
-0.22269571 0.051570084 0.44400004
-0.22154073 0.051570084 0.44400004
-0.22038575 0.051570084 0.44400004
-0.21923077 0.051570084 0.44400004
-0.2180758 0.051570084 0.44400004
-0.21692081 0.051570084 0.44400004
-0.21576583 0.051570084 0.44400004
-0.21461086 0.051570084 0.44400004
-0.21345589 0.051570084 0.44400004
-0.21230091 0.051570084 0.44400004
-0.21114592 0.051570084 0.44400004
-0.20999095 0.051570084 0.44400004
-0.20883597 0.051570084 0.44400004
-0.207681 0.051570084 0.44400004
-0.20652601 0.051570084 0.44400004
-0.20583357 0.051686231 0.44500002
-0.204676 0.051686231 0.44500002
-0.20351842 0.051686231 0.44500002
-0.20236084 0.051686231 0.44500002
-0.20120326 0.051686231 0.44500002
-0.20004568 0.051686231 0.44500002
-0.19888809 0.051686231 0.44500002
-0.19773053 0.051686231 0.44500002
-0.19657294 0.051686231 0.44500002
-0.19541536 0.051686231 0.44500002
-0.19425778 0.051686231 0.44500002
-0.1931002 0.051686231 0.44500002
-0.19194263 0.051686231 0.44500002
-0.19078505 0.051686231 0.44500002
-0.19005358 0.051802378 0.44600001
-0.18889341 0.051802378 0.44600001
-0.18773323 0.051802378 0.44600001
-0.18657304 0.051802378 0.44600001
-0.18499716 0.051686231 0.44500002
-0.18383956 0.051686231 0.44500002
-0.18268199 0.051686231 0.44500002
-0.18152441 0.051686231 0.44500002
-0.18036683 0.051686231 0.44500002
-0.17920925 0.051686231 0.44500002
-0.17805167 0.051686231 0.44500002
-0.17689408 0.051686231 0.44500002
-0.17573652 0.051686231 0.44500002
-0.17457893 0.051686231 0.44500002
-0.17381105 0.051802378 0.44600001
-0.17265087 0.051802378 0.44600001
-0.1714907 0.051802378 0.44600001
-0.17033052 0.051802378 0.44600001
-0.16917033 0.051802378 0.44600001
-0.16763344 0.051686231 0.44500002
-0.16647588 0.051686231 0.44500002
-0.1653183 0.051686231 0.44500002
-0.16416073 0.051686231 0.44500002
-0.16300315 0.051686231 0.44500002
-0.16184555 0.051686231 0.44500002
-0.16068798 0.051686231 0.44500002
-0.1595304 0.051686231 0.44500002
-0.15837282 0.051686231 0.44500002
-0.15756853 0.051802378 0.44600001
-0.15640834 0.051802378 0.44600001
-0.15524817 0.051802378 0.44600001
-0.15408799 0.051802378 0.44600001
-0.15327071 0.051918529 0.44700003
-0.15210791 0.051918529 0.44700003
-0.15094513 0.051918529 0.44700003
-0.14944726 0.051802378 0.44600001
-0.14828709 0.051802378 0.44600001
-0.14712691 0.051802378 0.44600001
-0.14596672 0.051802378 0.44600001
-0.14480653 0.051802378 0.44600001
-0.14364636 0.051802378 0.44600001
-0.14248618 0.051802378 0.44600001
-0.14132601 0.051802378 0.44600001
-0.14016582 0.051802378 0.44600001
-0.13900563 0.051802378 0.44600001
-0.13784546 0.051802378 0.44600001
-0.13699175 0.051918529 0.44700003
-0.13582896 0.051918529 0.44700003
-0.13466619 0.051918529 0.44700003
-0.13350341 0.051918529 0.44700003
-0.13234062 0.051918529 0.44700003
-0.13117784 0.051918529 0.44700003
-0.13001505 0.051918529 0.44700003
-0.12885228 0.051918529 0.44700003
-0.1276895 0.051918529 0.44700003
-0.12652671 0.051918529 0.44700003
-0.12536393 0.051918529 0.44700003
-0.12420114 0.051918529 0.44700003
-0.12303837 0.051918529 0.44700003
-0.12187558 0.051918529 0.44700003
-0.12098286 0.052034676 0.44800001
-0.11981747 0.052034676 0.44800001
-0.11865208 0.052034676 0.44800001
-0.1174867 0.052034676 0.44800001
-0.11632132 0.052034676 0.44800001
-0.11515594 0.052034676 0.44800001
-0.11399055 0.052034676 0.44800001
-0.11282516 0.052034676 0.44800001
-0.11141054 0.051918529 0.44700003
-0.11024777 0.051918529 0.44700003
-0.10908498 0.051918529 0.44700003
-0.1079222 0.051918529 0.44700003
-0.10675941 0.051918529 0.44700003
-0.10559663 0.051918529 0.44700003
-0.10443386 0.051918529 0.44700003
-0.10327107 0.051918529 0.44700003
-0.10210829 0.051918529 0.44700003
-0.1009455 0.051918529 0.44700003
-0.099782728 0.051918529 0.44700003
-0.098619945 0.051918529 0.44700003
-0.097457163 0.051918529 0.44700003
-0.096294381 0.051918529 0.44700003
-0.095131598 0.051918529 0.44700003
-0.094179034 0.052034676 0.44800001
-0.093013644 0.052034676 0.44800001
-0.091848269 0.052034676 0.44800001
-0.090682887 0.052034676 0.44800001
-0.089517497 0.052034676 0.44800001
-0.088352121 0.052034676 0.44800001
-0.087186731 0.052034676 0.44800001
-0.086021349 0.052034676 0.44800001
-0.085045375 0.052150827 0.44900003
-0.083690584 0.052034676 0.44800001
-0.082525201 0.052034676 0.44800001
-0.081359819 0.052034676 0.44800001
-0.080194436 0.052034676 0.44800001
-0.079029046 0.052034676 0.44800001
-0.077863663 0.052034676 0.44800001
-0.076698288 0.052034676 0.44800001
-0.075532898 0.052034676 0.44800001
-0.074367516 0.052034676 0.44800001
-0.073202133 0.052034676 0.44800001
-0.072036751 0.052034676 0.44800001
-0.070871361 0.052034676 0.44800001
-0.069705985 0.052034676 0.44800001
-0.068540603 0.052034676 0.44800001
-0.067375213 0.052034676 0.44800001
-0.066209838 0.052034676 0.44800001
-0.065044448 0.052034676 0.44800001
-0.063879065 0.052034676 0.44800001
-0.062713683 0.052034676 0.44800001
-0.0615483 0.052034676 0.44800001
-0.060382918 0.052034676 0.44800001
-0.059217531 0.052034676 0.44800001
-0.058052152 0.052034676 0.44800001
-0.056886766 0.052034676 0.44800001
-0.055721384 0.052034676 0.44800001
-0.054677777 0.052150827 0.44900003
-0.053509794 0.052150827 0.44900003
-0.052341808 0.052150827 0.44900003
-0.051173825 0.052150827 0.44900003
-0.050005842 0.052150827 0.44900003
-0.048837855 0.052150827 0.44900003
-0.047669873 0.052150827 0.44900003
-0.046501886 0.052150827 0.44900003
-0.045232933 0.052034676 0.44800001
-0.04416592 0.052150827 0.44900003
-0.042997934 0.052150827 0.44900003
-0.041829947 0.052150827 0.44900003
-0.040661965 0.052150827 0.44900003
-0.039493978 0.052150827 0.44900003
-0.038325991 0.052150827 0.44900003
-0.037158009 0.052150827 0.44900003
-0.035990026 0.052150827 0.44900003
-0.034822039 0.052150827 0.44900003
-0.033654056 0.052150827 0.44900003
-0.032558423 0.052266974 0.45000002
0.010585985 0.051453933 0.44300002
0.01176486 0.051570084 0.44400004
0.012919839 0.051570084 0.44400004
0.014106516 0.051686231 0.44500002
0.015264096 0.051686231 0.44500002
0.016421674 0.051686231 0.44500002
0.017579254 0.051686231 0.44500002
0.018778939 0.051802378 0.44600001
0.019939119 0.051802378 0.44600001
0.021099299 0.051802378 0.44600001
0.022259481 0.051802378 0.44600001
0.02341966 0.051802378 0.44600001
0.024579842 0.051802378 0.44600001
0.025740022 0.051802378 0.44600001
0.026960518 0.051918529 0.44700003
0.028123302 0.051918529 0.44700003
0.029286081 0.051918529 0.44700003
0.030448863 0.051918529 0.44700003
0.031611647 0.051918529 0.44700003
0.03277443 0.051918529 0.44700003
0.034013133 0.052034676 0.44800001
0.035178516 0.052034676 0.44800001
0.036343899 0.052034676 0.44800001
0.037509281 0.052034676 0.44800001
0.038674664 0.052034676 0.44800001
0.03984005 0.052034676 0.44800001
0.041005433 0.052034676 0.44800001
0.042076685 0.051918529 0.44700003
0.043239467 0.051918529 0.44700003
0.044402249 0.051918529 0.44700003
0.045565031 0.051918529 0.44700003
0.046727814 0.051918529 0.44700003
0.047890596 0.051918529 0.44700003
0.049053378 0.051918529 0.44700003
0.050216161 0.051918529 0.44700003
0.051378939 0.051918529 0.44700003
0.052541722 0.051918529 0.44700003
0.053704504 0.051918529 0.44700003
0.054867286 0.051918529 0.44700003
0.056030069 0.051918529 0.44700003
0.057192855 0.051918529 0.44700003
0.058355633 0.051918529 0.44700003
0.059518419 0.051918529 0.44700003
0.060681198 0.051918529 0.44700003
0.06198233 0.052034676 0.44800001
0.063147716 0.052034676 0.44800001
0.064313099 0.052034676 0.44800001
0.065478481 0.052034676 0.44800001
0.066643864 0.052034676 0.44800001
0.067809254 0.052034676 0.44800001
0.068974629 0.052034676 0.44800001
0.070140012 0.052034676 0.44800001
0.071305402 0.052034676 0.44800001
0.072632551 0.052150827 0.44900003
0.073800534 0.052150827 0.44900003
0.074968517 0.052150827 0.44900003
0.076136507 0.052150827 0.44900003
0.07730449 0.052150827 0.44900003
0.078472473 0.052150827 0.44900003
0.079640456 0.052150827 0.44900003
0.080628462 0.052034676 0.44800001
0.081793852 0.052034676 0.44800001
0.082959235 0.052034676 0.44800001
0.083936833 0.051918529 0.44700003
0.085099623 0.051918529 0.44700003
0.08606942 0.051802378 0.44600001
0.087034024 0.051686231 0.44500002
0.088191599 0.051686231 0.44500002
0.089148402 0.051570084 0.44400004
0.090303376 0.051570084 0.44400004
0.091252357 0.051453933 0.44300002
0.092404738 0.051453933 0.44300002
0.093345925 0.051337786 0.44200003
0.094495706 0.051337786 0.44200003
0.095429085 0.051221635 0.44100001
0.096357264 0.051105488 0.44000003
0.097058646 0.05087319 0.43800002
0.097525433 0.050524745 0.43500003
0.097523004 0.049943998 0.43000001
0.097964793 0.047969468 0.41300002
0.098559529 0.04773717 0.41100001
0.099628657 0.04773717 0.41100001
0.1004528 0.047621023 0.41000003
0.10127171 0.047504872 0.40900001
0.10208543 0.047388725 0.40800002
0.10264114 0.047156427 0.40600002
0.10344187 0.04704028 0.40500003
0.10372135 0.046691831 0.40200001
0.10450646 0.046575684 0.40100002
0.10475994 0.046227239 0.39800003
0.1057569 0.045762643 0.39400002
0.10623977 0.045530342 0.39200002
0.10671224 0.045298044 0.39000002
0.1071743 0.045065746 0.38800001
0.10790479 0.044949599 0.38700002
0.10834865 0.044717301 0.38500002
0.10906611 0.04460115 0.384
0.10977838 0.044485003 0.38300002
0.11019622 0.044252705 0.38100001
0.11060366 0.044020407 0.37900001
0.11129513 0.04390426 0.37800002
0.11198138 0.043788109 0.377
0.11236281 0.043555815 0.37500003
0.11273382 0.043323517 0.37300003
0.11411384 0.042394325 0.36500001
0.11443283 0.042162027 0.36300001
0.11505926 0.04204588 0.36200002
0.11536004 0.041813578 0.36000001
0.11597347 0.041697431 0.35900003
0.11658168 0.041581281 0.35800001
0.11718471 0.041465133 0.35700002
0.11778252 0.041348983 0.35600001
0.11837513 0.041232836 0.35500002
0.11896253 0.041116685 0.354
0.11954474 0.041000538 0.35300002
0.12046301 0.041000538 0.35300002
0.12103742 0.04088439 0.35200003
0.12160661 0.04076824 0.35100001
0.16189751 0.053080019 0.45700002
0.1630863 0.053080019 0.45700002
0.16427509 0.053080019 0.45700002
0.16546388 0.053080019 0.45700002
0.16665269 0.053080019 0.45700002
0.16747421 0.052963872 0.45600003
0.16903028 0.053080019 0.45700002
0.17021906 0.053080019 0.45700002
0.17140786 0.053080019 0.45700002
0.17259666 0.053080019 0.45700002
0.17340519 0.052963872 0.45600003
0.17497425 0.053080019 0.45700002
0.17616303 0.053080019 0.45700002
0.17696376 0.052963872 0.45600003
0.17814997 0.052963872 0.45600003
0.17933616 0.052963872 0.45600003
0.18052234 0.052963872 0.45600003
0.18170853 0.052963872 0.45600003
0.18289472 0.052963872 0.45600003
0.18408093 0.052963872 0.45600003
0.18526712 0.052963872 0.45600003
0.18645331 0.052963872 0.45600003
0.1876395 0.052963872 0.45600003
0.1888257 0.052963872 0.45600003
0.1900119 0.052963872 0.45600003
0.1911981 0.052963872 0.45600003
0.19238429 0.052963872 0.45600003
0.19357046 0.052963872 0.45600003
0.19475667 0.052963872 0.45600003
0.19594286 0.052963872 0.45600003
0.19712906 0.052963872 0.45600003
0.19831525 0.052963872 0.45600003
0.19950144 0.052963872 0.45600003
0.20068765 0.052963872 0.45600003
0.20231654 0.053080019 0.45700002
0.20350532 0.053080019 0.45700002
0.20469412 0.053080019 0.45700002
0.20588291 0.053080019 0.45700002
0.20707172 0.053080019 0.45700002
0.20826051 0.053080019 0.45700002
0.20944931 0.053080019 0.45700002
0.21063809 0.053080019 0.45700002
0.21182689 0.053080019 0.45700002
0.21301569 0.053080019 0.45700002
0.21420449 0.053080019 0.45700002
0.21492197 0.052963872 0.45600003
0.21610816 0.052963872 0.45600003
0.21729437 0.052963872 0.45600003
0.21848054 0.052963872 0.45600003
-0.24750642 0.052843813 0.44500002
-0.24634886 0.052843813 0.44500002
-0.24574226 0.05296256 0.44600001
-0.24403371 0.052843813 0.44500002
-0.24287611 0.052843813 0.44500002
-0.24171853 0.052843813 0.44500002
-0.24056096 0.052843813 0.44500002
-0.23940338 0.052843813 0.44500002
-0.23824582 0.052843813 0.44500002
-0.23708822 0.052843813 0.44500002
-0.23593064 0.052843813 0.44500002
-0.23477307 0.052843813 0.44500002
-0.23361547 0.052843813 0.44500002
-0.23245792 0.052843813 0.44500002
-0.23130032 0.052843813 0.44500002
-0.23014274 0.052843813 0.44500002
-0.22898518 0.052843813 0.44500002
-0.22731562 0.052725062 0.44400004
-0.22616066 0.052725062 0.44400004
-0.22500567 0.052725062 0.44400004
-0.22385068 0.052725062 0.44400004
-0.22269571 0.052725062 0.44400004
-0.22154073 0.052725062 0.44400004
-0.22038575 0.052725062 0.44400004
-0.21923077 0.052725062 0.44400004
-0.2180758 0.052725062 0.44400004
-0.21692081 0.052725062 0.44400004
-0.21576583 0.052725062 0.44400004
-0.21461086 0.052725062 0.44400004
-0.21345589 0.052725062 0.44400004
-0.21230091 0.052725062 0.44400004
-0.21114592 0.052725062 0.44400004
-0.20999095 0.052725062 0.44400004
-0.20883597 0.052725062 0.44400004
-0.207681 0.052725062 0.44400004
-0.20652601 0.052725062 0.44400004
-0.20583357 0.052843813 0.44500002
-0.204676 0.052843813 0.44500002
-0.20351842 0.052843813 0.44500002
-0.20236084 0.052843813 0.44500002
-0.20120326 0.052843813 0.44500002
-0.20004568 0.052843813 0.44500002
-0.19888809 0.052843813 0.44500002
-0.19773053 0.052843813 0.44500002
-0.19657294 0.052843813 0.44500002
-0.19541536 0.052843813 0.44500002
-0.19425778 0.052843813 0.44500002
-0.1931002 0.052843813 0.44500002
-0.19237395 0.05296256 0.44600001
-0.19121377 0.05296256 0.44600001
-0.19005358 0.05296256 0.44600001
-0.18889341 0.05296256 0.44600001
-0.18773323 0.05296256 0.44600001
-0.18657304 0.05296256 0.44600001
-0.18499716 0.052843813 0.44500002
-0.18383956 0.052843813 0.44500002
-0.18268199 0.052843813 0.44500002
-0.18152441 0.052843813 0.44500002
-0.18036683 0.052843813 0.44500002
-0.17920925 0.052843813 0.44500002
-0.17805167 0.052843813 0.44500002
-0.17689408 0.052843813 0.44500002
-0.17573652 0.052843813 0.44500002
-0.17457893 0.052843813 0.44500002
-0.17381105 0.05296256 0.44600001
-0.17265087 0.05296256 0.44600001
-0.1714907 0.05296256 0.44600001
-0.17033052 0.05296256 0.44600001
-0.16917033 0.05296256 0.44600001
-0.16801015 0.05296256 0.44600001
-0.16684997 0.05296256 0.44600001
-0.1653183 0.052843813 0.44500002
-0.16416073 0.052843813 0.44500002
-0.16300315 0.052843813 0.44500002
-0.16184555 0.052843813 0.44500002
-0.16068798 0.052843813 0.44500002
-0.1595304 0.052843813 0.44500002
-0.15837282 0.052843813 0.44500002
-0.15721524 0.052843813 0.44500002
-0.15640834 0.05296256 0.44600001
-0.15524817 0.05296256 0.44600001
-0.15408799 0.05296256 0.44600001
-0.15327071 0.053081311 0.44700003
-0.15210791 0.053081311 0.44700003
-0.15094513 0.053081311 0.44700003
-0.14978236 0.053081311 0.44700003
-0.14828709 0.05296256 0.44600001
-0.14712691 0.05296256 0.44600001
-0.14596672 0.05296256 0.44600001
-0.14480653 0.05296256 0.44600001
-0.14364636 0.05296256 0.44600001
-0.14248618 0.05296256 0.44600001
-0.14132601 0.05296256 0.44600001
-0.14016582 0.05296256 0.44600001
-0.13900563 0.05296256 0.44600001
-0.13784546 0.05296256 0.44600001
-0.13699175 0.053081311 0.44700003
-0.13582896 0.053081311 0.44700003
-0.13466619 0.053081311 0.44700003
-0.13350341 0.053081311 0.44700003
-0.13234062 0.053081311 0.44700003
-0.13117784 0.053081311 0.44700003
-0.13001505 0.053081311 0.44700003
-0.12885228 0.053081311 0.44700003
-0.1276895 0.053081311 0.44700003
-0.12652671 0.053081311 0.44700003
-0.12536393 0.053081311 0.44700003
-0.12420114 0.053081311 0.44700003
-0.12303837 0.053081311 0.44700003
-0.12214823 0.053200062 0.44800001
-0.12098286 0.053200062 0.44800001
-0.11981747 0.053200062 0.44800001
-0.11865208 0.053200062 0.44800001
-0.1174867 0.053200062 0.44800001
-0.11632132 0.053200062 0.44800001
-0.11515594 0.053200062 0.44800001
-0.11399055 0.053200062 0.44800001
-0.11282516 0.053200062 0.44800001
-0.11141054 0.053081311 0.44700003
-0.11024777 0.053081311 0.44700003
-0.10908498 0.053081311 0.44700003
-0.1079222 0.053081311 0.44700003
-0.10675941 0.053081311 0.44700003
-0.10559663 0.053081311 0.44700003
-0.10443386 0.053081311 0.44700003
-0.10327107 0.053081311 0.44700003
-0.10210829 0.053081311 0.44700003
-0.1009455 0.053081311 0.44700003
-0.099782728 0.053081311 0.44700003
-0.098619945 0.053081311 0.44700003
-0.097457163 0.053081311 0.44700003
-0.096294381 0.053081311 0.44700003
-0.095131598 0.053081311 0.44700003
-0.093968816 0.053081311 0.44700003
-0.093013644 0.053200062 0.44800001
-0.091848269 0.053200062 0.44800001
-0.090682887 0.053200062 0.44800001
-0.089517497 0.053200062 0.44800001
-0.088352121 0.053200062 0.44800001
-0.087186731 0.053200062 0.44800001
-0.086021349 0.053200062 0.44800001
-0.085045375 0.053318813 0.44900003
-0.083690584 0.053200062 0.44800001
-0.082525201 0.053200062 0.44800001
-0.081359819 0.053200062 0.44800001
-0.080194436 0.053200062 0.44800001
-0.079029046 0.053200062 0.44800001
-0.077863663 0.053200062 0.44800001
-0.076698288 0.053200062 0.44800001
-0.075532898 0.053200062 0.44800001
-0.074367516 0.053200062 0.44800001
-0.073202133 0.053200062 0.44800001
-0.072036751 0.053200062 0.44800001
-0.070871361 0.053200062 0.44800001
-0.069705985 0.053200062 0.44800001
-0.068540603 0.053200062 0.44800001
-0.067375213 0.053200062 0.44800001
-0.066209838 0.053200062 0.44800001
-0.065044448 0.053200062 0.44800001
-0.063879065 0.053200062 0.44800001
-0.062713683 0.053200062 0.44800001
-0.0615483 0.053200062 0.44800001
-0.060382918 0.053200062 0.44800001
-0.059217531 0.053200062 0.44800001
-0.058052152 0.053200062 0.44800001
-0.056886766 0.053200062 0.44800001
-0.055721384 0.053200062 0.44800001
-0.054556001 0.053200062 0.44800001
-0.053509794 0.053318813 0.44900003
-0.052341808 0.053318813 0.44900003
-0.051173825 0.053318813 0.44900003
-0.050005842 0.053318813 0.44900003
-0.048837855 0.053318813 0.44900003
-0.047669873 0.053318813 0.44900003
-0.046501886 0.053318813 0.44900003
-0.0453339 0.053318813 0.44900003
-0.04416592 0.053318813 0.44900003
-0.042902168 0.053200062 0.44800001
-0.041829947 0.053318813 0.44900003
-0.040661965 0.053318813 0.44900003
-0.039493978 0.053318813 0.44900003
-0.038325991 0.053318813 0.44900003
-0.037158009 0.053318813 0.44900003
-0.035990026 0.053318813 0.44900003
-0.034899592 0.053437561 0.45000002
-0.033729009 0.053437561 0.45000002
-0.032558423 0.053437561 0.45000002
-0.031387836 0.053437561 0.45000002
0.011738362 0.052606311 0.44300002
0.012919839 0.052725062 0.44400004
0.014074816 0.052725062 0.44400004
0.015229795 0.052725062 0.44400004
0.016421674 0.052843813 0.44500002
0.017579254 0.052843813 0.44500002
0.018736834 0.052843813 0.44500002
0.019939119 0.05296256 0.44600001
0.021099299 0.05296256 0.44600001
0.022259481 0.05296256 0.44600001
0.02341966 0.05296256 0.44600001
0.024579842 0.05296256 0.44600001
0.025740022 0.05296256 0.44600001
0.026900202 0.05296256 0.44600001
0.028123302 0.053081311 0.44700003
0.029286081 0.053081311 0.44700003
0.030448863 0.053081311 0.44700003
0.031611647 0.053081311 0.44700003
0.03277443 0.053081311 0.44700003
0.034013133 0.053200062 0.44800001
0.035178516 0.053200062 0.44800001
0.036343899 0.053200062 0.44800001
0.037509281 0.053200062 0.44800001
0.038674664 0.053200062 0.44800001
0.03984005 0.053200062 0.44800001
0.041005433 0.053200062 0.44800001
0.042076685 0.053081311 0.44700003
0.043239467 0.053081311 0.44700003
0.044402249 0.053081311 0.44700003
0.045565031 0.053081311 0.44700003
0.046727814 0.053081311 0.44700003
0.047890596 0.053081311 0.44700003
0.049053378 0.053081311 0.44700003
0.050216161 0.053081311 0.44700003
0.051378939 0.053081311 0.44700003
0.052541722 0.053081311 0.44700003
0.053704504 0.053081311 0.44700003
0.054867286 0.053081311 0.44700003
0.056030069 0.053081311 0.44700003
0.057192855 0.053081311 0.44700003
0.058355633 0.053081311 0.44700003
0.059518419 0.053081311 0.44700003
0.060681198 0.053081311 0.44700003
0.061843976 0.053081311 0.44700003
0.063147716 0.053200062 0.44800001
0.064313099 0.053200062 0.44800001
0.065478481 0.053200062 0.44800001
0.066643864 0.053200062 0.44800001
0.067809254 0.053200062 0.44800001
0.068974629 0.053200062 0.44800001
0.070140012 0.053200062 0.44800001
0.071464568 0.053318813 0.44900003
0.072632551 0.053318813 0.44900003
0.073800534 0.053318813 0.44900003
0.074968517 0.053318813 0.44900003
0.076136507 0.053318813 0.44900003
0.07730449 0.053318813 0.44900003
0.078472473 0.053318813 0.44900003
0.079640456 0.053318813 0.44900003
0.080808438 0.053318813 0.44900003
0.081793852 0.053200062 0.44800001
0.082959235 0.053200062 0.44800001
0.083936833 0.053081311 0.44700003
0.085099623 0.053081311 0.44700003
0.08606942 0.05296256 0.44600001
0.087034024 0.052843813 0.44500002
0.088191599 0.052843813 0.44500002
0.089148402 0.052725062 0.44400004
0.090303376 0.052725062 0.44400004
0.091252357 0.052606311 0.44300002
0.092404738 0.052606311 0.44300002
0.093345925 0.052487563 0.44200003
0.094281912 0.052368809 0.44100001
0.095429085 0.052368809 0.44100001
0.096138269 0.05213131 0.43900001
0.096837051 0.051893808 0.43700001
0.09730123 0.051537558 0.43400002
0.097208127 0.049756311 0.41900003
0.097359665 0.049281307 0.41500002
0.097727597 0.048925057 0.41200003
0.098319724 0.048687559 0.41000003
0.09938626 0.048687559 0.41000003
0.10020778 0.048568804 0.40900001
0.10102411 0.048450056 0.40800002
0.10158502 0.048212554 0.40600002
0.10238834 0.048093807 0.40500003
0.10293104 0.047856305 0.40300003
0.10346334 0.047618806 0.40100002
0.10398524 0.047381304 0.39900002
0.10449672 0.047143806 0.39700001
0.10499781 0.046906304 0.39500001
0.10548848 0.046668801 0.39300001
0.10596876 0.046431307 0.39100003
0.10643862 0.046193805 0.38900003
0.10689808 0.045956302 0.38700002
0.10762596 0.045837551 0.38600001
0.10834865 0.045718804 0.38500002
0.10878209 0.045481302 0.38300002
0.10949176 0.045362554 0.38200003
0.10990699 0.045125052 0.38000003
0.11060366 0.045006301 0.37900001
0.11129513 0.044887554 0.37800002
0.11168435 0.044650052 0.37600002
0.11236281 0.044531304 0.37500003
0.11273382 0.044293802 0.37300003
0.11378444 0.043581299 0.36700001
0.11411384 0.043343801 0.36500001
0.11443283 0.043106299 0.36300001
0.11474143 0.0428688 0.36100003
0.11536004 0.042750049 0.36000001
0.11597347 0.042631302 0.35900003
0.11658168 0.042512547 0.35800001
0.11718471 0.0423938 0.35700002
0.11778252 0.042275049 0.35600001
0.11837513 0.042156298 0.35500002
0.11896253 0.042037547 0.354
0.11954474 0.041918799 0.35300002
0.12046301 0.041918799 0.35300002
0.12103742 0.041800048 0.35200003
0.16189751 0.054268811 0.45700002
0.1630863 0.054268811 0.45700002
0.16427509 0.054268811 0.45700002
0.16546388 0.054268811 0.45700002
0.16665269 0.054268811 0.45700002
0.16784148 0.054268811 0.45700002
0.16903028 0.054268811 0.45700002
0.17021906 0.054268811 0.45700002
0.17140786 0.054268811 0.45700002
0.17259666 0.054268811 0.45700002
0.17378545 0.054268811 0.45700002
0.17497425 0.054268811 0.45700002
0.17616303 0.054268811 0.45700002
0.17696376 0.054150064 0.45600003
0.17814997 0.054150064 0.45600003
0.17933616 0.054150064 0.45600003
0.18052234 0.054150064 0.45600003
0.18170853 0.054150064 0.45600003
0.18289472 0.054150064 0.45600003
0.18408093 0.054150064 0.45600003
0.18526712 0.054150064 0.45600003
0.18645331 0.054150064 0.45600003
0.1876395 0.054150064 0.45600003
0.1888257 0.054150064 0.45600003
0.1900119 0.054150064 0.45600003
0.1911981 0.054150064 0.45600003
0.19238429 0.054150064 0.45600003
0.19357046 0.054150064 0.45600003
0.19475667 0.054150064 0.45600003
0.19594286 0.054150064 0.45600003
0.19712906 0.054150064 0.45600003
0.19831525 0.054150064 0.45600003
0.19950144 0.054150064 0.45600003
0.20068765 0.054150064 0.45600003
0.20231654 0.054268811 0.45700002
0.20350532 0.054268811 0.45700002
0.20469412 0.054268811 0.45700002
0.20588291 0.054268811 0.45700002
0.20707172 0.054268811 0.45700002
0.20826051 0.054268811 0.45700002
0.20944931 0.054268811 0.45700002
0.21063809 0.054268811 0.45700002
0.21182689 0.054268811 0.45700002
0.21301569 0.054268811 0.45700002
0.21373577 0.054150064 0.45600003
0.21492197 0.054150064 0.45600003
0.21610816 0.054150064 0.45600003
0.21729437 0.054150064 0.45600003
0.21848054 0.054150064 0.45600003
-0.24750642 0.054001391 0.44500002
-0.24690245 0.054122742 0.44600001
-0.24574226 0.054122742 0.44600001
-0.24458209 0.054122742 0.44600001
-0.2434219 0.054122742 0.44600001
-0.24226171 0.054122742 0.44600001
-0.24056096 0.054001391 0.44500002
-0.23940338 0.054001391 0.44500002
-0.23824582 0.054001391 0.44500002
-0.23708822 0.054001391 0.44500002
-0.23593064 0.054001391 0.44500002
-0.23477307 0.054001391 0.44500002
-0.23361547 0.054001391 0.44500002
-0.23245792 0.054001391 0.44500002
-0.23130032 0.054001391 0.44500002
-0.23014274 0.054001391 0.44500002
-0.22898518 0.054001391 0.44500002
-0.22731562 0.053880043 0.44400004
-0.22616066 0.053880043 0.44400004
-0.22500567 0.053880043 0.44400004
-0.22385068 0.053880043 0.44400004
-0.22269571 0.053880043 0.44400004
-0.22154073 0.053880043 0.44400004
-0.22038575 0.053880043 0.44400004
-0.21923077 0.053880043 0.44400004
-0.2180758 0.053880043 0.44400004
-0.21692081 0.053880043 0.44400004
-0.21625179 0.054001391 0.44500002
-0.21461086 0.053880043 0.44400004
-0.21345589 0.053880043 0.44400004
-0.21230091 0.053880043 0.44400004
-0.21114592 0.053880043 0.44400004
-0.20999095 0.053880043 0.44400004
-0.20883597 0.053880043 0.44400004
-0.207681 0.053880043 0.44400004
-0.20652601 0.053880043 0.44400004
-0.20583357 0.054001391 0.44500002
-0.204676 0.054001391 0.44500002
-0.20351842 0.054001391 0.44500002
-0.20236084 0.054001391 0.44500002
-0.20120326 0.054001391 0.44500002
-0.20004568 0.054001391 0.44500002
-0.19888809 0.054001391 0.44500002
-0.19773053 0.054001391 0.44500002
-0.19657294 0.054001391 0.44500002
-0.19541536 0.054001391 0.44500002
-0.19469431 0.054122742 0.44600001
-0.19353414 0.054122742 0.44600001
-0.19237395 0.054122742 0.44600001
-0.19121377 0.054122742 0.44600001
-0.19005358 0.054122742 0.44600001
-0.18889341 0.054122742 0.44600001
-0.18773323 0.054122742 0.44600001
-0.18657304 0.054122742 0.44600001
-0.18541287 0.054122742 0.44600001
-0.18383956 0.054001391 0.44500002
-0.18268199 0.054001391 0.44500002
-0.18152441 0.054001391 0.44500002
-0.18036683 0.054001391 0.44500002
-0.17920925 0.054001391 0.44500002
-0.17805167 0.054001391 0.44500002
-0.17689408 0.054001391 0.44500002
-0.17573652 0.054001391 0.44500002
-0.17497124 0.054122742 0.44600001
-0.17381105 0.054122742 0.44600001
-0.17265087 0.054122742 0.44600001
-0.1714907 0.054122742 0.44600001
-0.17033052 0.054122742 0.44600001
-0.16917033 0.054122742 0.44600001
-0.16801015 0.054122742 0.44600001
-0.16684997 0.054122742 0.44600001
-0.1656898 0.054122742 0.44600001
-0.16452962 0.054122742 0.44600001
-0.16300315 0.054001391 0.44500002
-0.16184555 0.054001391 0.44500002
-0.16068798 0.054001391 0.44500002
-0.1595304 0.054001391 0.44500002
-0.15837282 0.054001391 0.44500002
-0.15721524 0.054001391 0.44500002
-0.15640834 0.054122742 0.44600001
-0.15524817 0.054122742 0.44600001
-0.15408799 0.054122742 0.44600001
-0.15327071 0.054244094 0.44700003
-0.15210791 0.054244094 0.44700003
-0.15094513 0.054244094 0.44700003
-0.14978236 0.054244094 0.44700003
-0.14828709 0.054122742 0.44600001
-0.14712691 0.054122742 0.44600001
-0.14596672 0.054122742 0.44600001
-0.14480653 0.054122742 0.44600001
-0.14332429 0.054001391 0.44500002
-0.14248618 0.054122742 0.44600001
-0.14100914 0.054001391 0.44500002
-0.14016582 0.054122742 0.44600001
-0.13900563 0.054122742 0.44600001
-0.13784546 0.054122742 0.44600001
-0.13668528 0.054122742 0.44600001
-0.13582896 0.054244094 0.44700003
-0.13466619 0.054244094 0.44700003
-0.13350341 0.054244094 0.44700003
-0.13234062 0.054244094 0.44700003
-0.13117784 0.054244094 0.44700003
-0.13001505 0.054244094 0.44700003
-0.12885228 0.054244094 0.44700003
-0.1276895 0.054244094 0.44700003
-0.12652671 0.054244094 0.44700003
-0.12536393 0.054244094 0.44700003
-0.12420114 0.054244094 0.44700003
-0.12303837 0.054244094 0.44700003
-0.12214823 0.054365445 0.44800001
-0.12098286 0.054365445 0.44800001
-0.11981747 0.054365445 0.44800001
-0.11865208 0.054365445 0.44800001
-0.1174867 0.054365445 0.44800001
-0.11632132 0.054365445 0.44800001
-0.11515594 0.054365445 0.44800001
-0.11399055 0.054365445 0.44800001
-0.11257333 0.054244094 0.44700003
-0.11141054 0.054244094 0.44700003
-0.11024777 0.054244094 0.44700003
-0.10908498 0.054244094 0.44700003
-0.1079222 0.054244094 0.44700003
-0.10675941 0.054244094 0.44700003
-0.10559663 0.054244094 0.44700003
-0.10443386 0.054244094 0.44700003
-0.10327107 0.054244094 0.44700003
-0.10210829 0.054244094 0.44700003
-0.1009455 0.054244094 0.44700003
-0.099782728 0.054244094 0.44700003
-0.098619945 0.054244094 0.44700003
-0.097457163 0.054244094 0.44700003
-0.096294381 0.054244094 0.44700003
-0.095131598 0.054244094 0.44700003
-0.093968816 0.054244094 0.44700003
-0.092806026 0.054244094 0.44700003
-0.091848269 0.054365445 0.44800001
-0.090682887 0.054365445 0.44800001
-0.089517497 0.054365445 0.44800001
-0.088352121 0.054365445 0.44800001
-0.087186731 0.054365445 0.44800001
-0.086021349 0.054365445 0.44800001
-0.085045375 0.0544868 0.44900003
-0.083877392 0.0544868 0.44900003
-0.082525201 0.054365445 0.44800001
-0.081359819 0.054365445 0.44800001
-0.080194436 0.054365445 0.44800001
-0.079029046 0.054365445 0.44800001
-0.077863663 0.054365445 0.44800001
-0.076698288 0.054365445 0.44800001
-0.075532898 0.054365445 0.44800001
-0.074367516 0.054365445 0.44800001
-0.073202133 0.054365445 0.44800001
-0.072036751 0.054365445 0.44800001
-0.070871361 0.054365445 0.44800001
-0.069705985 0.054365445 0.44800001
-0.068540603 0.054365445 0.44800001
-0.067375213 0.054365445 0.44800001
-0.066209838 0.054365445 0.44800001
-0.065044448 0.054365445 0.44800001
-0.063879065 0.054365445 0.44800001
-0.062713683 0.054365445 0.44800001
-0.0615483 0.054365445 0.44800001
-0.060382918 0.054365445 0.44800001
-0.059217531 0.054365445 0.44800001
-0.058052152 0.054365445 0.44800001
-0.056886766 0.054365445 0.44800001
-0.055721384 0.054365445 0.44800001
-0.054556001 0.054365445 0.44800001
-0.053390615 0.054365445 0.44800001
-0.052225232 0.054365445 0.44800001
-0.051059853 0.054365445 0.44800001
-0.050005842 0.0544868 0.44900003
-0.048837855 0.0544868 0.44900003
-0.047669873 0.0544868 0.44900003
-0.046501886 0.0544868 0.44900003
-0.0453339 0.0544868 0.44900003
-0.04416592 0.0544868 0.44900003
-0.042997934 0.0544868 0.44900003
-0.041829947 0.0544868 0.44900003
-0.040661965 0.0544868 0.44900003
-0.039493978 0.0544868 0.44900003
-0.038325991 0.0544868 0.44900003
-0.037158009 0.0544868 0.44900003
-0.035990026 0.0544868 0.44900003
-0.034899592 0.054608148 0.45000002
-0.033729009 0.054608148 0.45000002
-0.032558423 0.054608148 0.45000002
0.0093910182 0.053515986 0.44100001
0.010562089 0.053637337 0.44200003
0.011738362 0.053758688 0.44300002
0.012890739 0.053758688 0.44300002
0.014074816 0.053880043 0.44400004
0.015229795 0.053880043 0.44400004
0.016384771 0.053880043 0.44400004
0.017579254 0.054001391 0.44500002
0.018736834 0.054001391 0.44500002
0.019894412 0.054001391 0.44500002
0.021051992 0.054001391 0.44500002
0.022209572 0.054001391 0.44500002
0.02336715 0.054001391 0.44500002
0.024579842 0.054122742 0.44600001
0.025740022 0.054122742 0.44600001
0.026900202 0.054122742 0.44600001
0.028060386 0.054122742 0.44600001
0.029286081 0.054244094 0.44700003
0.030448863 0.054244094 0.44700003
0.031611647 0.054244094 0.44700003
0.03277443 0.054244094 0.44700003
0.034013133 0.054365445 0.44800001
0.035178516 0.054365445 0.44800001
0.036343899 0.054365445 0.44800001
0.037509281 0.054365445 0.44800001
0.038674664 0.054365445 0.44800001
0.03984005 0.054365445 0.44800001
0.041005433 0.054365445 0.44800001
0.042076685 0.054244094 0.44700003
0.043239467 0.054244094 0.44700003
0.044402249 0.054244094 0.44700003
0.045565031 0.054244094 0.44700003
0.046727814 0.054244094 0.44700003
0.047890596 0.054244094 0.44700003
0.049053378 0.054244094 0.44700003
0.050216161 0.054244094 0.44700003
0.051378939 0.054244094 0.44700003
0.052541722 0.054244094 0.44700003
0.053704504 0.054244094 0.44700003
0.054867286 0.054244094 0.44700003
0.056030069 0.054244094 0.44700003
0.057192855 0.054244094 0.44700003
0.058355633 0.054244094 0.44700003
0.059518419 0.054244094 0.44700003
0.060681198 0.054244094 0.44700003
0.061843976 0.054244094 0.44700003
0.063147716 0.054365445 0.44800001
0.064313099 0.054365445 0.44800001
0.065478481 0.054365445 0.44800001
0.066643864 0.054365445 0.44800001
0.067809254 0.054365445 0.44800001
0.068974629 0.054365445 0.44800001
0.070140012 0.054365445 0.44800001
0.071305402 0.054365445 0.44800001
0.072632551 0.0544868 0.44900003
0.073800534 0.0544868 0.44900003
0.074968517 0.0544868 0.44900003
0.076136507 0.0544868 0.44900003
0.07730449 0.0544868 0.44900003
0.078472473 0.0544868 0.44900003
0.079640456 0.0544868 0.44900003
0.080808438 0.0544868 0.44900003
0.081793852 0.054365445 0.44800001
0.082959235 0.054365445 0.44800001
0.083936833 0.054244094 0.44700003
0.085099623 0.054244094 0.44700003
0.08606942 0.054122742 0.44600001
0.087034024 0.054001391 0.44500002
0.088191599 0.054001391 0.44500002
0.089148402 0.053880043 0.44400004
0.090099983 0.053758688 0.44300002
0.091252357 0.053758688 0.44300002
0.092196152 0.053637337 0.44200003
0.093134731 0.053515986 0.44100001
0.094281912 0.053515986 0.44100001
0.095212691 0.053394634 0.44000003
0.095919274 0.053151932 0.43800002
0.096393868 0.052787878 0.43500003
0.096852839 0.05242382 0.43200001
0.096976124 0.050724901 0.41800001
0.096890457 0.050118145 0.41300002
0.097490385 0.049875442 0.41100001
0.09807992 0.049632739 0.40900001
0.099143848 0.049632739 0.40900001
0.099962778 0.049511388 0.40800002
0.10052889 0.049268685 0.40600002
0.10133481 0.049147334 0.40500003
0.10213552 0.049025983 0.40400001
0.10267563 0.04878328 0.40200001
0.10320532 0.048540574 0.40000001
0.10372462 0.048297875 0.39800003
0.1042335 0.048055172 0.39600003
0.10473199 0.047812469 0.39400002
0.10522006 0.047569767 0.39200002
0.10569774 0.04732706 0.39000002
0.10616499 0.047084358 0.38800001
0.10662185 0.046841655 0.38600001
0.10734715 0.046720304 0.38500002
0.10806721 0.046598952 0.384
0.10849807 0.046356253 0.38200003
0.10920513 0.046234898 0.38100001
0.10990699 0.046113547 0.38000003
0.11031184 0.045870844 0.37800002
0.11100069 0.045749493 0.377
0.11138732 0.04550679 0.37500003
0.11206317 0.045385439 0.37400001
0.11243158 0.045142736 0.37200001
0.1127896 0.044900034 0.37
0.11313721 0.044657331 0.36800003
0.11347441 0.044414628 0.36600003
0.1138012 0.044171926 0.36400002
0.11411759 0.043929223 0.36200002
0.11474143 0.043807872 0.36100003
0.11536004 0.04368652 0.36000001
0.11597347 0.043565169 0.35900003
0.11658168 0.043443814 0.35800001
0.11718471 0.043322466 0.35700002
0.11778252 0.043201111 0.35600001
0.11837513 0.043079764 0.35500002
0.11896253 0.042958409 0.354
0.11954474 0.042837057 0.35300002
0.12046301 0.042837057 0.35300002
0.16189751 0.055457607 0.45700002
0.1630863 0.055457607 0.45700002
0.16427509 0.055457607 0.45700002
0.16546388 0.055457607 0.45700002
0.16665269 0.055457607 0.45700002
0.16784148 0.055457607 0.45700002
0.16903028 0.055457607 0.45700002
0.17021906 0.055457607 0.45700002
0.17140786 0.055457607 0.45700002
0.17259666 0.055457607 0.45700002
0.17378545 0.055457607 0.45700002
0.17497425 0.055457607 0.45700002
0.17577757 0.055336259 0.45600003
0.17696376 0.055336259 0.45600003
0.17814997 0.055336259 0.45600003
0.17933616 0.055336259 0.45600003
0.18052234 0.055336259 0.45600003
0.18170853 0.055336259 0.45600003
0.18289472 0.055336259 0.45600003
0.18408093 0.055336259 0.45600003
0.18526712 0.055336259 0.45600003
0.18645331 0.055336259 0.45600003
0.1876395 0.055336259 0.45600003
0.1888257 0.055336259 0.45600003
0.1900119 0.055336259 0.45600003
0.1911981 0.055336259 0.45600003
0.19238429 0.055336259 0.45600003
0.19357046 0.055336259 0.45600003
0.19475667 0.055336259 0.45600003
0.19594286 0.055336259 0.45600003
0.19712906 0.055336259 0.45600003
0.19831525 0.055336259 0.45600003
0.19950144 0.055336259 0.45600003
0.20068765 0.055336259 0.45600003
0.20231654 0.055457607 0.45700002
0.20350532 0.055457607 0.45700002
0.20469412 0.055457607 0.45700002
0.20588291 0.055457607 0.45700002
0.20707172 0.055457607 0.45700002
0.20826051 0.055457607 0.45700002
0.20944931 0.055457607 0.45700002
0.21063809 0.055457607 0.45700002
0.21182689 0.055457607 0.45700002
0.21301569 0.055457607 0.45700002
0.21373577 0.055336259 0.45600003
0.21492197 0.055336259 0.45600003
0.21610816 0.055336259 0.45600003
0.21729437 0.055336259 0.45600003
0.21848054 0.055336259 0.45600003
-0.24806261 0.055282924 0.44600001
-0.24690245 0.055282924 0.44600001
-0.24574226 0.055282924 0.44600001
-0.24458209 0.055282924 0.44600001
-0.2434219 0.055282924 0.44600001
-0.24226171 0.055282924 0.44600001
-0.24056096 0.055158973 0.44500002
-0.23940338 0.055158973 0.44500002
-0.23824582 0.055158973 0.44500002
-0.23708822 0.055158973 0.44500002
-0.23593064 0.055158973 0.44500002
-0.23477307 0.055158973 0.44500002
-0.23361547 0.055158973 0.44500002
-0.23245792 0.055158973 0.44500002
-0.23130032 0.055158973 0.44500002
-0.23014274 0.055158973 0.44500002
-0.22898518 0.055158973 0.44500002
-0.22731562 0.055035021 0.44400004
-0.22616066 0.055035021 0.44400004
-0.22500567 0.055035021 0.44400004
-0.22385068 0.055035021 0.44400004
-0.22269571 0.055035021 0.44400004
-0.22154073 0.055035021 0.44400004
-0.22038575 0.055035021 0.44400004
-0.21923077 0.055035021 0.44400004
-0.2180758 0.055035021 0.44400004
-0.21740937 0.055158973 0.44500002
-0.21625179 0.055158973 0.44500002
-0.21509421 0.055158973 0.44500002
-0.21345589 0.055035021 0.44400004
-0.21277906 0.055158973 0.44500002
-0.21114592 0.055035021 0.44400004
-0.20999095 0.055035021 0.44400004
-0.20883597 0.055035021 0.44400004
-0.207681 0.055035021 0.44400004
-0.20652601 0.055035021 0.44400004
-0.20583357 0.055158973 0.44500002
-0.204676 0.055158973 0.44500002
-0.20351842 0.055158973 0.44500002
-0.20236084 0.055158973 0.44500002
-0.20120326 0.055158973 0.44500002
-0.20004568 0.055158973 0.44500002
-0.19888809 0.055158973 0.44500002
-0.19773053 0.055158973 0.44500002
-0.19657294 0.055158973 0.44500002
-0.19585449 0.055282924 0.44600001
-0.19469431 0.055282924 0.44600001
-0.19353414 0.055282924 0.44600001
-0.19237395 0.055282924 0.44600001
-0.19121377 0.055282924 0.44600001
-0.19005358 0.055282924 0.44600001
-0.18889341 0.055282924 0.44600001
-0.18773323 0.055282924 0.44600001
-0.18657304 0.055282924 0.44600001
-0.18541287 0.055282924 0.44600001
-0.18383956 0.055158973 0.44500002
-0.18268199 0.055158973 0.44500002
