# .PCD v0.7 - Point Cloud Data file format
VERSION 0.7
FIELDS x y z
SIZE 4 4 4
TYPE F F F
COUNT 1 1 1
WIDTH 1354
HEIGHT 1
VIEWPOINT 0 0 0 1 0 0 0
POINTS 1354
DATA ascii
-0.11618853 -0.073759861 0.50300002
-0.11487717 -0.073759861 0.50300002
-0.11379159 -0.073906504 0.50400001
-0.11247764 -0.073906504 0.50400001
-0.11116368 -0.073906504 0.50400001
-0.10984971 -0.073906504 0.50400001
-0.10853576 -0.073906504 0.50400001
-0.10743453 -0.074053138 0.505
-0.10611797 -0.074053138 0.505
-0.1048014 -0.074053138 0.505
-0.10348484 -0.074053138 0.505
-0.10237059 -0.074199788 0.50600004
-0.10105142 -0.074199788 0.50600004
-0.099732235 -0.074199788 0.50600004
-0.098413065 -0.074199788 0.50600004
-0.097093888 -0.074199788 0.50600004
-0.095963992 -0.074346423 0.50700003
-0.094642214 -0.074346423 0.50700003
-0.093504496 -0.074493065 0.50800002
-0.092180103 -0.074493065 0.50800002
-0.091034561 -0.0746397 0.509
-0.089707568 -0.0746397 0.509
-0.088554218 -0.07478635 0.51000005
-0.087224618 -0.07478635 0.51000005
-0.085895017 -0.07478635 0.51000005
-0.084731229 -0.074932985 0.51100004
-0.083399005 -0.074932985 0.51100004
-0.082066797 -0.074932985 0.51100004
-0.080734588 -0.074932985 0.51100004
-0.07940238 -0.074932985 0.51100004
-0.078222953 -0.075079627 0.51200002
-0.076888137 -0.075079627 0.51200002
-0.07555332 -0.075079627 0.51200002
-0.074218504 -0.075079627 0.51200002
-0.072883688 -0.075079627 0.51200002
-0.071688615 -0.075226262 0.51300001
-0.070351191 -0.075226262 0.51300001
-0.069013767 -0.075226262 0.51300001
-0.067808263 -0.075372897 0.514
-0.066468224 -0.075372897 0.514
-0.065128192 -0.075372897 0.514
-0.063788168 -0.075372897 0.514
-0.062569641 -0.075519547 0.51500005
-0.061345883 -0.075666182 0.51600003
-0.060116917 -0.075812824 0.51700002
-0.058769066 -0.075812824 0.51700002
-0.057532281 -0.075959459 0.51800001
-0.056290288 -0.076106109 0.51900005
-0.055043072 -0.076252744 0.52000004
-0.053687394 -0.076252744 0.52000004
-0.052432358 -0.076399386 0.52100003
-0.05107408 -0.076399386 0.52100003
-0.049811222 -0.076546021 0.52200001
-0.048450336 -0.076546021 0.52200001
-0.047179658 -0.076692656 0.523
-0.045816164 -0.076692656 0.523
-0.044452667 -0.076692656 0.523
-0.043171566 -0.076839305 0.52400005
-0.041805465 -0.076839305 0.52400005
-0.040439364 -0.076839305 0.52400005
-0.039147828 -0.076985948 0.52500004
-0.037779123 -0.076985948 0.52500004
-0.03641041 -0.076985948 0.52500004
-0.035041701 -0.076985948 0.52500004
-0.033672992 -0.076985948 0.52500004
-0.032304287 -0.076985948 0.52500004
-0.030994501 -0.077132583 0.52600002
-0.029679501 -0.077279218 0.52700001
-0.028305581 -0.077279218 0.52700001
-0.026931658 -0.077279218 0.52700001
-0.02560623 -0.07742586 0.528
-0.024275593 -0.077572502 0.52900004
-0.02293974 -0.077719145 0.53000003
-0.021557994 -0.077719145 0.53000003
-0.020214319 -0.077865779 0.53100002
-0.018829968 -0.077865779 0.53100002
-0.017445618 -0.077865779 0.53100002
-0.016091513 -0.078012422 0.53200001
-0.014704555 -0.078012422 0.53200001
-0.013317597 -0.078012422 0.53200001
-0.011953067 -0.078159064 0.53300005
-0.010563501 -0.078159064 0.53300005
-0.0091739362 -0.078159064 0.53300005
-0.0077843713 -0.078159064 0.53300005
-0.0063948063 -0.078159064 0.53300005
-0.0050052414 -0.078159064 0.53300005
-0.0036156764 -0.078159064 0.53300005
-0.0022261112 -0.078159064 0.53300005
-0.0008365463 -0.078159064 0.53300005
0.00055301876 -0.078159064 0.53300005
0.0019425838 -0.078159064 0.53300005
0.0033321488 -0.078159064 0.53300005
0.0047217142 -0.078159064 0.53300005
0.0061112791 -0.078159064 0.53300005
0.0075008441 -0.078159064 0.53300005
0.008890409 -0.078159064 0.53300005
0.010299261 -0.078305706 0.53400004
0.011691433 -0.078305706 0.53400004
0.013083605 -0.078305706 0.53400004
0.014502885 -0.078452341 0.53500003
0.015897663 -0.078452341 0.53500003
0.017292442 -0.078452341 0.53500003
0.01872215 -0.078598976 0.53600001
0.020119537 -0.078598976 0.53600001
0.021516923 -0.078598976 0.53600001
0.022914309 -0.078598976 0.53600001
0.024357053 -0.078745618 0.537
0.025757046 -0.078745618 0.537
0.027207613 -0.078892261 0.53800005
0.028610215 -0.078892261 0.53800005
0.030068599 -0.079038903 0.53900003
0.031473804 -0.079038903 0.53900003
0.032940015 -0.079185538 0.54000002
0.034347825 -0.079185538 0.54000002
0.035821855 -0.07933218 0.54100001
0.037232276 -0.07933218 0.54100001
0.038642697 -0.07933218 0.54100001
0.040127158 -0.079478823 0.54200006
0.041540187 -0.079478823 0.54200006
0.042953216 -0.079478823 0.54200006
0.0444481 -0.079625465 0.54300004
0.045863736 -0.079625465 0.54300004
0.047279373 -0.079625465 0.54300004
0.048784684 -0.0797721 0.54400003
0.050202925 -0.0797721 0.54400003
0.051621169 -0.0797721 0.54400003
0.053136908 -0.079918742 0.54500002
0.054557759 -0.079918742 0.54500002
0.056081321 -0.080065377 0.546
0.057504777 -0.080065377 0.546
0.059036165 -0.080212027 0.54700005
0.060462229 -0.080212027 0.54700005
0.062001433 -0.080358662 0.54800004
0.063430108 -0.080358662 0.54800004
0.064858779 -0.080358662 0.54800004
0.066408411 -0.080505297 0.54900002
0.067839682 -0.080505297 0.54900002
0.069270961 -0.080505297 0.54900002
0.070831023 -0.080651939 0.55000001
0.07226491 -0.080651939 0.55000001
0.073832788 -0.080798574 0.551
0.075269274 -0.080798574 0.551
0.076705769 -0.080798574 0.551
0.078284092 -0.080945224 0.55200005
0.079867616 -0.081091858 0.55300003
0.081309326 -0.081091858 0.55300003
0.082900666 -0.081238501 0.55400002
0.084344983 -0.081238501 0.55400002
0.085944146 -0.081385136 0.55500001
0.087391064 -0.081385136 0.55500001
0.088998057 -0.081531785 0.55600005
0.09044759 -0.081531785 0.55600005
0.091897115 -0.081531785 0.55600005
0.093514524 -0.08167842 0.55700004
0.094966665 -0.08167842 0.55700004
0.096591897 -0.081825063 0.55800003
0.098046646 -0.081825063 0.55800003
0.099501386 -0.081825063 0.55800003
0.10113705 -0.081971698 0.55900002
0.1025944 -0.081971698 0.55900002
0.10423788 -0.082118332 0.56
0.10569784 -0.082118332 0.56
0.1071578 -0.082118332 0.56
0.10881172 -0.082264982 0.56100005
0.11047085 -0.082411617 0.56200004
0.11193601 -0.082411617 0.56200004
0.11340118 -0.082411617 0.56200004
0.11486635 -0.082411617 0.56200004
0.11653852 -0.082558259 0.56300002
0.1177967 -0.082411617 0.56200004
0.11947408 -0.082558259 0.56300002
0.12094186 -0.082558259 0.56300002
0.12240963 -0.082558259 0.56300002
0.12387741 -0.082558259 0.56300002
0.12556781 -0.082704894 0.56400001
0.1270382 -0.082704894 0.56400001
0.12850858 -0.082704894 0.56400001
0.13020942 -0.082851537 0.565
0.13168241 -0.082851537 0.565
0.13315541 -0.082851537 0.565
0.13486668 -0.082998179 0.56600004
0.13634229 -0.082998179 0.56600004
0.13806137 -0.083144821 0.56700003
0.13953958 -0.083144821 0.56700003
0.14101779 -0.083144821 0.56700003
0.1427473 -0.083291456 0.56800002
0.14422812 -0.083291456 0.56800002
0.14570892 -0.083291456 0.56800002
0.14744887 -0.083438091 0.56900001
0.14867055 -0.083291456 0.56800002
0.15015136 -0.083291456 0.56800002
0.15163217 -0.083291456 0.56800002
0.15284343 -0.083144821 0.56700003
0.15432164 -0.083144821 0.56700003
0.15552506 -0.082998179 0.56600004
0.15672326 -0.082851537 0.565
0.15791626 -0.082704894 0.56400001
0.15910405 -0.082558259 0.56300002
0.16028662 -0.082411617 0.56200004
0.16146398 -0.082264982 0.56100005
0.1626361 -0.082118332 0.56
0.16380304 -0.081971698 0.55900002
0.16496477 -0.081825063 0.55800003
0.16612126 -0.08167842 0.55700004
0.16727255 -0.081531785 0.55600005
0.1684186 -0.081385136 0.55500001
0.16925341 -0.081091858 0.55300003
0.17038643 -0.080945224 0.55200005
0.17120297 -0.080651939 0.55000001
0.17232297 -0.080505297 0.54900002
0.17312129 -0.080212027 0.54700005
0.17422822 -0.080065377 0.546
0.17532998 -0.079918742 0.54500002
0.17642651 -0.0797721 0.54400003
0.17751785 -0.079625465 0.54300004
0.17860398 -0.079478823 0.54200006
0.17968483 -0.07933218 0.54100001
0.18076053 -0.079185538 0.54000002
0.18149365 -0.078892261 0.53800005
0.18221633 -0.078598976 0.53600001
0.18327115 -0.078452341 0.53500003
0.18397561 -0.078159064 0.53300005
0.1846696 -0.077865779 0.53100002
0.18535319 -0.077572502 0.52900004
0.18602633 -0.077279218 0.52700001
0.18704467 -0.077132583 0.52600002
0.18805778 -0.076985948 0.52500004
0.18870485 -0.076692656 0.523
0.18970494 -0.076546021 0.52200001
0.1906998 -0.076399386 0.52100003
0.19168946 -0.076252744 0.52000004
0.19230263 -0.075959459 0.51800001
0.19327925 -0.075812824 0.51700002
0.1938742 -0.075519547 0.51500005
0.19483776 -0.075372897 0.514
0.19503279 -0.074932985 0.51100004
0.19559644 -0.0746397 0.509
0.19614968 -0.074346423 0.50700003
0.19669247 -0.074053138 0.505
0.19722484 -0.073759861 0.50300002
0.1977468 -0.073466592 0.50100005
0.19825831 -0.073173307 0.49900001
0.19875939 -0.072880022 0.49700001
0.19925007 -0.072586745 0.49500003
0.19973029 -0.072293468 0.49300003
0.2002001 -0.072000183 0.49100003
0.2010698 -0.071853541 0.49000001
0.20152138 -0.071560271 0.48800004
0.2019625 -0.071266986 0.48600003
0.2023932 -0.070973709 0.48400003
0.20323423 -0.070827067 0.48300001
0.20364669 -0.07053379 0.48100004
0.20404871 -0.070240512 0.47900003
0.2044403 -0.069947228 0.47700003
0.20482147 -0.069653951 0.47500002
0.20519219 -0.069360666 0.47300002
0.2055525 -0.069067389 0.47100002
0.2063414 -0.068920746 0.47000003
0.20668347 -0.068627469 0.46800002
0.20701508 -0.068334192 0.46600002
0.20778315 -0.06818755 0.46500003
0.20854597 -0.068040907 0.46400002
0.20885153 -0.06774763 0.46200001
0.20960133 -0.067600988 0.46100003
0.20988864 -0.067307711 0.45900002
0.2106254 -0.067161068 0.45800003
0.21089447 -0.066867791 0.45600003
0.21161819 -0.066721149 0.45500001
0.21140128 -0.066281229 0.45200002
-0.26137102 -0.066975266 0.46500003
-0.26015875 -0.066975266 0.46500003
-0.2595033 -0.0671193 0.46600002
-0.25828844 -0.0671193 0.46600002
-0.25762519 -0.067263328 0.46700001
-0.25640768 -0.067263328 0.46700001
-0.25519019 -0.067263328 0.46700001
-0.25451654 -0.067407362 0.46800002
-0.25329643 -0.067407362 0.46800002
-0.25261495 -0.067551397 0.46900001
-0.25139225 -0.067551397 0.46900001
-0.25016952 -0.067551397 0.46900001
-0.24947764 -0.067695431 0.47000003
-0.24825229 -0.067695431 0.47000003
-0.24702698 -0.067695431 0.47000003
-0.24632464 -0.067839459 0.47100002
-0.24509673 -0.067839459 0.47100002
-0.24386878 -0.067839459 0.47100002
-0.24315603 -0.067983493 0.47200003
-0.24243805 -0.068127528 0.47300002
-0.24120489 -0.068127528 0.47300002
-0.23997176 -0.068127528 0.47300002
-0.23924336 -0.068271562 0.47400004
-0.23800762 -0.068271562 0.47400004
-0.23677187 -0.068271562 0.47400004
-0.23553611 -0.068271562 0.47400004
-0.23430037 -0.068271562 0.47400004
-0.23306462 -0.068271562 0.47400004
-0.23182887 -0.068271562 0.47400004
-0.23059312 -0.068271562 0.47400004
-0.22935736 -0.068271562 0.47400004
-0.22812162 -0.068271562 0.47400004
-0.22688587 -0.068271562 0.47400004
-0.22612618 -0.068415597 0.47500002
-0.22488782 -0.068415597 0.47500002
-0.22364947 -0.068415597 0.47500002
-0.22241111 -0.068415597 0.47500002
-0.22117276 -0.068415597 0.47500002
-0.22039741 -0.068559624 0.47600001
-0.21915646 -0.068559624 0.47600001
-0.21791549 -0.068559624 0.47600001
-0.21712974 -0.068703659 0.47700003
-0.21588616 -0.068703659 0.47700003
-0.21464258 -0.068703659 0.47700003
-0.2138464 -0.068847694 0.47800002
-0.21260022 -0.068847694 0.47800002
-0.21135405 -0.068847694 0.47800002
-0.21010786 -0.068847694 0.47800002
-0.20929866 -0.068991728 0.47900003
-0.20804986 -0.068991728 0.47900003
-0.20680109 -0.068991728 0.47900003
-0.20598142 -0.069135755 0.48000002
-0.20473003 -0.069135755 0.48000002
-0.20347863 -0.069135755 0.48000002
-0.20264857 -0.06927979 0.48100004
-0.20139456 -0.06927979 0.48100004
-0.20055665 -0.069423825 0.48200002
-0.19930005 -0.069423825 0.48200002
-0.19845431 -0.069567852 0.48300001
-0.19719511 -0.069567852 0.48300001
-0.19593589 -0.069567852 0.48300001
-0.19467668 -0.069567852 0.48300001
-0.19381793 -0.069711886 0.48400003
-0.19255611 -0.069711886 0.48400003
-0.19129428 -0.069711886 0.48400003
-0.19003247 -0.069711886 0.48400003
-0.18877065 -0.069711886 0.48400003
-0.18750884 -0.069711886 0.48400003
-0.18663181 -0.069855921 0.48500001
-0.18536738 -0.069855921 0.48500001
-0.18410297 -0.069855921 0.48500001
-0.18321553 -0.069999956 0.48600003
-0.1819485 -0.069999956 0.48600003
-0.18068147 -0.069999956 0.48600003
-0.17941444 -0.069999956 0.48600003
-0.17814739 -0.069999956 0.48600003
-0.17688037 -0.069999956 0.48600003
-0.17597467 -0.07014399 0.48700002
-0.17470504 -0.07014399 0.48700002
-0.17343539 -0.07014399 0.48700002
-0.17251928 -0.070288025 0.48800004
-0.17124704 -0.070288025 0.48800004
-0.16997477 -0.070288025 0.48800004
-0.16870254 -0.070288025 0.48800004
-0.16777338 -0.070432052 0.48900002
-0.16649853 -0.070432052 0.48900002
-0.16522367 -0.070432052 0.48900002
-0.1642841 -0.070576087 0.49000001
-0.16300662 -0.070576087 0.49000001
-0.16205923 -0.070720121 0.49100003
-0.16077916 -0.070720121 0.49100003
-0.15982394 -0.070864148 0.49200001
-0.1588635 -0.071008183 0.49300003
-0.15757823 -0.071008183 0.49300003
-0.15629295 -0.071008183 0.49300003
-0.15532206 -0.071152218 0.49400002
-0.154346 -0.071296252 0.49500003
-0.15305549 -0.071296252 0.49500003
-0.151765 -0.071296252 0.49500003
-0.15077849 -0.071440279 0.49600002
-0.14948539 -0.071440279 0.49600002
-0.14819229 -0.071440279 0.49600002
-0.14719535 -0.071584314 0.49700001
-0.14589964 -0.071584314 0.49700001
-0.14460392 -0.071584314 0.49700001
-0.14330821 -0.071584314 0.49700001
-0.14201251 -0.071584314 0.49700001
-0.14071679 -0.071584314 0.49700001
-0.13942108 -0.071584314 0.49700001
-0.13812537 -0.071584314 0.49700001
-0.13682966 -0.071584314 0.49700001
-0.13580666 -0.071728349 0.49800003
-0.13450834 -0.071728349 0.49800003
-0.13321003 -0.071728349 0.49800003
-0.13217658 -0.071872376 0.49900001
-0.13087566 -0.071872376 0.49900001
-0.12957473 -0.071872376 0.49900001
-0.12827381 -0.071872376 0.49900001
-0.12722734 -0.072016411 0.5
-0.12592381 -0.072016411 0.5
-0.12462027 -0.072016411 0.5
-0.12356339 -0.072160453 0.50100005
-0.12225725 -0.072160453 0.50100005
-0.12095111 -0.072160453 0.50100005
-0.11988378 -0.07230448 0.50200003
-0.11881123 -0.072448514 0.50300002
-0.11749989 -0.072448514 0.50300002
-0.11641952 -0.072592542 0.50400001
-0.11510555 -0.072592542 0.50400001
-0.11379159 -0.072592542 0.50400001
-0.11247764 -0.072592542 0.50400001
-0.11116368 -0.072592542 0.50400001
-0.10984971 -0.072592542 0.50400001
-0.1087511 -0.072736576 0.505
-0.10743453 -0.072736576 0.505
-0.10611797 -0.072736576 0.505
-0.1048014 -0.072736576 0.505
-0.10368977 -0.072880611 0.50600004
-0.10237059 -0.072880611 0.50600004
-0.10105142 -0.072880611 0.50600004
-0.099732235 -0.072880611 0.50600004
-0.098413065 -0.072880611 0.50600004
-0.09728577 -0.073024645 0.50700003
-0.095963992 -0.073024645 0.50700003
-0.094828881 -0.073168673 0.50800002
-0.093504496 -0.073168673 0.50800002
-0.092361562 -0.073312707 0.509
-0.091034561 -0.073312707 0.509
-0.089883819 -0.073456749 0.51000005
-0.088554218 -0.073456749 0.51000005
-0.087224618 -0.073456749 0.51000005
-0.085895017 -0.073456749 0.51000005
-0.084731229 -0.073600776 0.51100004
-0.083399005 -0.073600776 0.51100004
-0.082066797 -0.073600776 0.51100004
-0.080734588 -0.073600776 0.51100004
-0.07940238 -0.073600776 0.51100004
-0.078222953 -0.073744811 0.51200002
-0.076888137 -0.073744811 0.51200002
-0.07555332 -0.073744811 0.51200002
-0.074218504 -0.073744811 0.51200002
-0.073026031 -0.073888838 0.51300001
-0.071688615 -0.073888838 0.51300001
-0.070351191 -0.073888838 0.51300001
-0.069148295 -0.074032873 0.514
-0.067808263 -0.074032873 0.514
-0.066468224 -0.074032873 0.514
-0.065128192 -0.074032873 0.514
-0.06391228 -0.074176908 0.51500005
-0.06269113 -0.074320942 0.51600003
-0.061464772 -0.074464969 0.51700002
-0.060116917 -0.074464969 0.51700002
-0.058882739 -0.074609004 0.51800001
-0.05764335 -0.074753039 0.51900005
-0.056290288 -0.074753039 0.51900005
-0.055043072 -0.074897073 0.52000004
-0.05379064 -0.0750411 0.52100003
-0.052432358 -0.0750411 0.52100003
-0.05107408 -0.0750411 0.52100003
-0.049811222 -0.075185135 0.52200001
-0.048450336 -0.075185135 0.52200001
-0.047179658 -0.075329162 0.523
-0.045816164 -0.075329162 0.523
-0.044452667 -0.075329162 0.523
-0.043089174 -0.075329162 0.523
-0.041805465 -0.075473204 0.52400005
-0.040439364 -0.075473204 0.52400005
-0.039073262 -0.075473204 0.52400005
-0.037779123 -0.075617239 0.52500004
-0.03641041 -0.075617239 0.52500004
-0.035041701 -0.075617239 0.52500004
-0.033672992 -0.075617239 0.52500004
-0.032365818 -0.075761266 0.52600002
-0.030994501 -0.075761266 0.52600002
-0.029623184 -0.075761266 0.52600002
-0.028305581 -0.075905301 0.52700001
-0.026931658 -0.075905301 0.52700001
-0.02560623 -0.076049328 0.528
-0.024275593 -0.07619337 0.52900004
-0.02293974 -0.076337397 0.53000003
-0.021557994 -0.076337397 0.53000003
-0.020214319 -0.076481432 0.53100002
-0.018829968 -0.076481432 0.53100002
-0.017445618 -0.076481432 0.53100002
-0.016091513 -0.076625459 0.53200001
-0.014704555 -0.076625459 0.53200001
-0.013342631 -0.076769501 0.53300005
-0.011953067 -0.076769501 0.53300005
-0.010563501 -0.076769501 0.53300005
-0.0091739362 -0.076769501 0.53300005
-0.0077843713 -0.076769501 0.53300005
-0.0063948063 -0.076769501 0.53300005
-0.0050052414 -0.076769501 0.53300005
-0.0036156764 -0.076769501 0.53300005
-0.0022261112 -0.076769501 0.53300005
-0.0008365463 -0.076769501 0.53300005
0.00055301876 -0.076769501 0.53300005
0.0019425838 -0.076769501 0.53300005
0.0033321488 -0.076769501 0.53300005
0.0047217142 -0.076769501 0.53300005
0.0061112791 -0.076769501 0.53300005
0.0075008441 -0.076769501 0.53300005
0.008907089 -0.076913536 0.53400004
0.010299261 -0.076913536 0.53400004
0.011691433 -0.076913536 0.53400004
0.013083605 -0.076913536 0.53400004
0.014502885 -0.077057563 0.53500003
0.015897663 -0.077057563 0.53500003
0.017292442 -0.077057563 0.53500003
0.01868722 -0.077057563 0.53500003
0.020119537 -0.077201597 0.53600001
0.021516923 -0.077201597 0.53600001
0.022914309 -0.077201597 0.53600001
0.024357053 -0.077345625 0.537
0.025757046 -0.077345625 0.537
0.027207613 -0.077489667 0.53800005
0.028610215 -0.077489667 0.53800005
0.030068599 -0.077633694 0.53900003
0.031473804 -0.077633694 0.53900003
0.032940015 -0.077777728 0.54000002
0.034347825 -0.077777728 0.54000002
0.035821855 -0.077921756 0.54100001
0.037232276 -0.077921756 0.54100001
0.038642697 -0.077921756 0.54100001
0.040127158 -0.078065798 0.54200006
0.041540187 -0.078065798 0.54200006
0.042953216 -0.078065798 0.54200006
0.0444481 -0.078209825 0.54300004
0.045863736 -0.078209825 0.54300004
0.047279373 -0.078209825 0.54300004
0.048784684 -0.078353859 0.54400003
0.050202925 -0.078353859 0.54400003
0.051621169 -0.078353859 0.54400003
0.053136908 -0.078497887 0.54500002
0.054557759 -0.078497887 0.54500002
0.056081321 -0.078641921 0.546
0.057610102 -0.078785963 0.54700005
0.059036165 -0.078785963 0.54700005
0.060462229 -0.078785963 0.54700005
0.062001433 -0.078929991 0.54800004
0.063430108 -0.078929991 0.54800004
0.064858779 -0.078929991 0.54800004
0.066408411 -0.079074025 0.54900002
0.067839682 -0.079074025 0.54900002
0.069270961 -0.079074025 0.54900002
0.070831023 -0.079218052 0.55000001
0.07226491 -0.079218052 0.55000001
0.073698789 -0.079218052 0.55000001
0.075269274 -0.079362087 0.551
0.076705769 -0.079362087 0.551
0.078284092 -0.079506122 0.55200005
0.079723194 -0.079506122 0.55200005
0.081309326 -0.079650156 0.55300003
0.082751028 -0.079650156 0.55300003
0.084344983 -0.079794183 0.55400002
0.085944146 -0.079938218 0.55500001
0.087391064 -0.079938218 0.55500001
0.088837981 -0.079938218 0.55500001
0.09044759 -0.080082253 0.55600005
0.091897115 -0.080082253 0.55600005
0.093514524 -0.080226287 0.55700004
0.094966665 -0.080226287 0.55700004
0.096591897 -0.080370322 0.55800003
0.098046646 -0.080370322 0.55800003
0.099501386 -0.080370322 0.55800003
0.10113705 -0.080514349 0.55900002
0.1025944 -0.080514349 0.55900002
0.10423788 -0.080658384 0.56
0.10569784 -0.080658384 0.56
0.10734916 -0.080802418 0.56100005
0.10881172 -0.080802418 0.56100005
0.11047085 -0.080946453 0.56200004
0.11193601 -0.080946453 0.56200004
0.11340118 -0.080946453 0.56200004
0.11486635 -0.080946453 0.56200004
0.11633153 -0.080946453 0.56200004
0.1180063 -0.08109048 0.56300002
0.11947408 -0.08109048 0.56300002
0.12094186 -0.08109048 0.56300002
0.12240963 -0.08109048 0.56300002
0.12409743 -0.081234515 0.56400001
0.12556781 -0.081234515 0.56400001
0.1270382 -0.081234515 0.56400001
0.12850858 -0.081234515 0.56400001
0.13020942 -0.081378542 0.565
0.13168241 -0.081378542 0.565
0.13315541 -0.081378542 0.565
0.13486668 -0.081522584 0.56600004
0.13634229 -0.081522584 0.56600004
0.13781789 -0.081522584 0.56600004
0.13953958 -0.081666611 0.56700003
0.14101779 -0.081666611 0.56700003
0.14249599 -0.081666611 0.56700003
0.14422812 -0.081810646 0.56800002
0.14570892 -0.081810646 0.56800002
0.14744887 -0.081954673 0.56900001
0.14893229 -0.081954673 0.56900001
0.1504157 -0.081954673 0.56900001
0.15163217 -0.081810646 0.56800002
0.15311298 -0.081810646 0.56800002
0.15459381 -0.081810646 0.56800002
0.15579984 -0.081666611 0.56700003
0.15700066 -0.081522584 0.56600004
0.15819624 -0.081378542 0.565
0.15938665 -0.081234515 0.56400001
0.16057181 -0.08109048 0.56300002
0.16203961 -0.08109048 0.56300002
0.16321695 -0.080946453 0.56200004
0.1643891 -0.080802418 0.56100005
0.16555603 -0.080658384 0.56
0.16671774 -0.080514349 0.55900002
0.16787425 -0.080370322 0.55800003
0.16902553 -0.080226287 0.55700004
0.16986553 -0.079938218 0.55500001
0.17100377 -0.079794183 0.55400002
0.17182554 -0.079506122 0.55200005
0.17295073 -0.079362087 0.551
0.17375426 -0.079074025 0.54900002
0.17486644 -0.078929991 0.54800004
0.17597342 -0.078785963 0.54700005
0.17707513 -0.078641921 0.546
0.17817168 -0.078497887 0.54500002
0.17926301 -0.078353859 0.54400003
0.18034913 -0.078209825 0.54300004
0.18143003 -0.078065798 0.54200006
0.18216833 -0.077777728 0.54000002
0.18289626 -0.077489667 0.53800005
0.18361372 -0.077201597 0.53600001
0.18466593 -0.077057563 0.53500003
0.18536517 -0.076769501 0.53300005
0.18605396 -0.076481432 0.53100002
0.18673232 -0.07619337 0.52900004
0.18775585 -0.076049328 0.528
0.18841597 -0.075761266 0.52600002
0.1894265 -0.075617239 0.52500004
0.19043179 -0.075473204 0.52400005
0.19143184 -0.075329162 0.523
0.19242671 -0.075185135 0.52200001
0.19341636 -0.0750411 0.52100003
0.19402696 -0.074753039 0.51900005
0.19500354 -0.074609004 0.51800001
0.19559589 -0.074320942 0.51600003
0.19617778 -0.074032873 0.514
0.19674927 -0.073744811 0.51200002
0.19731033 -0.073456749 0.51000005
0.19786094 -0.073168673 0.50800002
0.19840114 -0.072880611 0.50600004
0.1989309 -0.072592542 0.50400001
0.19905294 -0.072160453 0.50100005
0.19955923 -0.071872376 0.49900001
0.20005511 -0.071584314 0.49700001
0.20054056 -0.071296252 0.49500003
0.20101558 -0.071008183 0.49300003
0.2018905 -0.070864148 0.49200001
0.20234728 -0.070576087 0.49000001
0.20279361 -0.070288025 0.48800004
0.2036477 -0.07014399 0.48700002
0.20407578 -0.069855921 0.48500001
0.20449345 -0.069567852 0.48300001
0.20490068 -0.06927979 0.48100004
0.2052975 -0.068991728 0.47900003
0.20611507 -0.068847694 0.47800002
0.20649362 -0.068559624 0.47600001
0.20686176 -0.068271562 0.47400004
0.20721945 -0.067983493 0.47200003
0.20800836 -0.067839459 0.47100002
0.2083478 -0.067551397 0.46900001
0.20912367 -0.067407362 0.46800002
0.20944487 -0.0671193 0.46600002
0.21020772 -0.066975266 0.46500003
0.21051066 -0.066687204 0.46300003
0.21126045 -0.066543162 0.46200001
0.21154514 -0.0662551 0.46000001
0.21228191 -0.066111065 0.45900002
0.21254838 -0.065823004 0.45700002
-0.26137102 -0.065762982 0.46500003
-0.26071823 -0.065904409 0.46600002
-0.2595033 -0.065904409 0.46600002
-0.25828844 -0.065904409 0.46600002
-0.25762519 -0.066045828 0.46700001
-0.25640768 -0.066045828 0.46700001
-0.25573665 -0.066187255 0.46800002
-0.25451654 -0.066187255 0.46800002
-0.25329643 -0.066187255 0.46800002
-0.25261495 -0.066328682 0.46900001
-0.25139225 -0.066328682 0.46900001
-0.25016952 -0.066328682 0.46900001
-0.24947764 -0.066470109 0.47000003
-0.24825229 -0.066470109 0.47000003
-0.24702698 -0.066470109 0.47000003
-0.24632464 -0.066611536 0.47100002
-0.24509673 -0.066611536 0.47100002
-0.24386878 -0.066611536 0.47100002
-0.24315603 -0.066752963 0.47200003
-0.24243805 -0.06689439 0.47300002
-0.24120489 -0.06689439 0.47300002
-0.23997176 -0.06689439 0.47300002
-0.23924336 -0.067035817 0.47400004
-0.23800762 -0.067035817 0.47400004
-0.23677187 -0.067035817 0.47400004
-0.23553611 -0.067035817 0.47400004
-0.23430037 -0.067035817 0.47400004
-0.23306462 -0.067035817 0.47400004
-0.23182887 -0.067035817 0.47400004
-0.23059312 -0.067035817 0.47400004
-0.22935736 -0.067035817 0.47400004
-0.22812162 -0.067035817 0.47400004
-0.22688587 -0.067035817 0.47400004
-0.22565013 -0.067035817 0.47400004
-0.22488782 -0.067177236 0.47500002
-0.22364947 -0.067177236 0.47500002
-0.22241111 -0.067177236 0.47500002
-0.22117276 -0.067177236 0.47500002
-0.21993439 -0.067177236 0.47500002
-0.21915646 -0.067318663 0.47600001
-0.21791549 -0.067318663 0.47600001
-0.21712974 -0.06746009 0.47700003
-0.21588616 -0.06746009 0.47700003
-0.21464258 -0.06746009 0.47700003
-0.2138464 -0.067601517 0.47800002
-0.21260022 -0.067601517 0.47800002
-0.21135405 -0.067601517 0.47800002
-0.21010786 -0.067601517 0.47800002
-0.20929866 -0.067742944 0.47900003
-0.20804986 -0.067742944 0.47900003
-0.20723282 -0.067884363 0.48000002
-0.20598142 -0.067884363 0.48000002
-0.20473003 -0.067884363 0.48000002
-0.20347863 -0.067884363 0.48000002
-0.20264857 -0.068025798 0.48100004
-0.20139456 -0.068025798 0.48100004
-0.20014055 -0.068025798 0.48100004
-0.19930005 -0.068167217 0.48200002
-0.19804344 -0.068167217 0.48200002
-0.19719511 -0.068308644 0.48300001
-0.19593589 -0.068308644 0.48300001
-0.19467668 -0.068308644 0.48300001
-0.19341746 -0.068308644 0.48300001
-0.19215827 -0.068308644 0.48300001
-0.19129428 -0.068450071 0.48400003
-0.19003247 -0.068450071 0.48400003
-0.18877065 -0.068450071 0.48400003
-0.18750884 -0.068450071 0.48400003
-0.18624701 -0.068450071 0.48400003
-0.18536738 -0.068591498 0.48500001
-0.18410297 -0.068591498 0.48500001
-0.18283853 -0.068591498 0.48500001
-0.18157412 -0.068591498 0.48500001
-0.18068147 -0.068732925 0.48600003
-0.17941444 -0.068732925 0.48600003
-0.17814739 -0.068732925 0.48600003
-0.17688037 -0.068732925 0.48600003
-0.17597467 -0.068874344 0.48700002
-0.1743463 -0.068732925 0.48600003
-0.17343539 -0.068874344 0.48700002
-0.17251928 -0.069015779 0.48800004
-0.17124704 -0.069015779 0.48800004
-0.16997477 -0.069015779 0.48800004
-0.16870254 -0.069015779 0.48800004
-0.16777338 -0.069157198 0.48900002
-0.16649853 -0.069157198 0.48900002
-0.16522367 -0.069157198 0.48900002
-0.1642841 -0.069298625 0.49000001
-0.16300662 -0.069298625 0.49000001
-0.16205923 -0.069440052 0.49100003
-0.16077916 -0.069440052 0.49100003
-0.15982394 -0.069581479 0.49200001
-0.1588635 -0.069722906 0.49300003
-0.15757823 -0.069722906 0.49300003
-0.15629295 -0.069722906 0.49300003
-0.15532206 -0.069864325 0.49400002
-0.154346 -0.070005752 0.49500003
-0.15305549 -0.070005752 0.49500003
-0.151765 -0.070005752 0.49500003
-0.1504745 -0.070005752 0.49500003
-0.14918402 -0.070005752 0.49500003
-0.14819229 -0.070147179 0.49600002
-0.14689919 -0.070147179 0.49600002
-0.14560607 -0.070147179 0.49600002
-0.14460392 -0.070288606 0.49700001
-0.14330821 -0.070288606 0.49700001
-0.14201251 -0.070288606 0.49700001
-0.14071679 -0.070288606 0.49700001
-0.13942108 -0.070288606 0.49700001
-0.13812537 -0.070288606 0.49700001
-0.13682966 -0.070288606 0.49700001
-0.13580666 -0.070430033 0.49800003
-0.13450834 -0.070430033 0.49800003
-0.13321003 -0.070430033 0.49800003
-0.13217658 -0.070571452 0.49900001
-0.13087566 -0.070571452 0.49900001
-0.12957473 -0.070571452 0.49900001
-0.12827381 -0.070571452 0.49900001
-0.12697288 -0.070571452 0.49900001
-0.12592381 -0.070712879 0.5
-0.12462027 -0.070712879 0.5
-0.12356339 -0.070854314 0.50100005
-0.12225725 -0.070854314 0.50100005
-0.12095111 -0.070854314 0.50100005
-0.11988378 -0.070995733 0.50200003
-0.11881123 -0.07113716 0.50300002
-0.11749989 -0.07113716 0.50300002
-0.11641952 -0.071278587 0.50400001
-0.11510555 -0.071278587 0.50400001
-0.11379159 -0.071278587 0.50400001
-0.11247764 -0.071278587 0.50400001
-0.11116368 -0.071278587 0.50400001
-0.11006767 -0.071420006 0.505
-0.1087511 -0.071420006 0.505
-0.10743453 -0.071420006 0.505
-0.10611797 -0.071420006 0.505
-0.10500894 -0.071561441 0.50600004
-0.10368977 -0.071561441 0.50600004
-0.10237059 -0.071561441 0.50600004
-0.10105142 -0.071561441 0.50600004
-0.099732235 -0.071561441 0.50600004
-0.098413065 -0.071561441 0.50600004
-0.09728577 -0.07170286 0.50700003
-0.095963992 -0.07170286 0.50700003
-0.094828881 -0.071844287 0.50800002
-0.093504496 -0.071844287 0.50800002
-0.092361562 -0.071985714 0.509
-0.091034561 -0.071985714 0.509
-0.089883819 -0.072127141 0.51000005
-0.088554218 -0.072127141 0.51000005
-0.087224618 -0.072127141 0.51000005
-0.086063437 -0.072268568 0.51100004
-0.084731229 -0.072268568 0.51100004
-0.083399005 -0.072268568 0.51100004
-0.082066797 -0.072268568 0.51100004
-0.080734588 -0.072268568 0.51100004
-0.079557769 -0.072409995 0.51200002
-0.078222953 -0.072409995 0.51200002
-0.076888137 -0.072409995 0.51200002
-0.075700879 -0.072551414 0.51300001
-0.074363455 -0.072551414 0.51300001
-0.073026031 -0.072551414 0.51300001
-0.07182835 -0.072692841 0.514
-0.070488326 -0.072692841 0.514
-0.069148295 -0.072692841 0.514
-0.067808263 -0.072692841 0.514
-0.066468224 -0.072692841 0.514
-0.065254912 -0.072834276 0.51500005
-0.064036377 -0.072975695 0.51600003
-0.062812626 -0.073117122 0.51700002
-0.061464772 -0.073117122 0.51700002
-0.060233198 -0.073258542 0.51800001
-0.058882739 -0.073258542 0.51800001
-0.05764335 -0.073399976 0.51900005
-0.056290288 -0.073399976 0.51900005
-0.055043072 -0.073541403 0.52000004
-0.05379064 -0.073682822 0.52100003
-0.052432358 -0.073682822 0.52100003
-0.05107408 -0.073682822 0.52100003
-0.049715798 -0.073682822 0.52100003
-0.048450336 -0.073824249 0.52200001
-0.04708945 -0.073824249 0.52200001
-0.045816164 -0.073965669 0.523
-0.044452667 -0.073965669 0.523
-0.043089174 -0.073965669 0.523
-0.04172568 -0.073965669 0.523
-0.040439364 -0.074107103 0.52400005
-0.039073262 -0.074107103 0.52400005
-0.037707161 -0.074107103 0.52400005
-0.03641041 -0.07424853 0.52500004
-0.035041701 -0.07424853 0.52500004
-0.033672992 -0.07424853 0.52500004
-0.032304287 -0.07424853 0.52500004
-0.030935578 -0.07424853 0.52500004
-0.029623184 -0.074389949 0.52600002
-0.028305581 -0.074531376 0.52700001
-0.026931658 -0.074531376 0.52700001
-0.02560623 -0.074672803 0.528
-0.024275593 -0.07481423 0.52900004
-0.02293974 -0.074955657 0.53000003
-0.021557994 -0.074955657 0.53000003
-0.02017625 -0.074955657 0.53000003
-0.018829968 -0.075097084 0.53100002
-0.017445618 -0.075097084 0.53100002
-0.016091513 -0.075238504 0.53200001
-0.014704555 -0.075238504 0.53200001
-0.013342631 -0.075379938 0.53300005
-0.011953067 -0.075379938 0.53300005
-0.010563501 -0.075379938 0.53300005
-0.0091739362 -0.075379938 0.53300005
-0.0077843713 -0.075379938 0.53300005
-0.0063948063 -0.075379938 0.53300005
-0.0050052414 -0.075379938 0.53300005
-0.0036156764 -0.075379938 0.53300005
-0.0022261112 -0.075379938 0.53300005
-0.0008365463 -0.075379938 0.53300005
0.00055301876 -0.075379938 0.53300005
0.0019425838 -0.075379938 0.53300005
0.0033321488 -0.075379938 0.53300005
0.0047305725 -0.075521357 0.53400004
0.0061227446 -0.075521357 0.53400004
0.0075149164 -0.075521357 0.53400004
0.008907089 -0.075521357 0.53400004
0.010299261 -0.075521357 0.53400004
0.011691433 -0.075521357 0.53400004
0.013108106 -0.075662784 0.53500003
0.014502885 -0.075662784 0.53500003
0.015897663 -0.075662784 0.53500003
0.017292442 -0.075662784 0.53500003
0.01872215 -0.075804211 0.53600001
0.020119537 -0.075804211 0.53600001
0.021516923 -0.075804211 0.53600001
0.022957059 -0.075945631 0.537
0.024357053 -0.075945631 0.537
0.025757046 -0.075945631 0.537
0.027207613 -0.076087065 0.53800005
0.028610215 -0.076087065 0.53800005
0.030068599 -0.076228492 0.53900003
0.031473804 -0.076228492 0.53900003
0.032940015 -0.076369911 0.54000002
0.034347825 -0.076369911 0.54000002
0.035821855 -0.076511338 0.54100001
0.037232276 -0.076511338 0.54100001
0.038642697 -0.076511338 0.54100001
0.040127158 -0.076652765 0.54200006
0.041540187 -0.076652765 0.54200006
0.042953216 -0.076652765 0.54200006
0.0444481 -0.076794192 0.54300004
0.045863736 -0.076794192 0.54300004
0.047279373 -0.076794192 0.54300004
0.048784684 -0.076935619 0.54400003
0.050202925 -0.076935619 0.54400003
0.051621169 -0.076935619 0.54400003
0.053136908 -0.077077039 0.54500002
0.054557759 -0.077077039 0.54500002
0.056081321 -0.077218466 0.546
0.057610102 -0.0773599 0.54700005
0.059036165 -0.0773599 0.54700005
0.060462229 -0.0773599 0.54700005
0.062001433 -0.077501319 0.54800004
0.063430108 -0.077501319 0.54800004
0.064977132 -0.077642746 0.54900002
0.066408411 -0.077642746 0.54900002
0.067839682 -0.077642746 0.54900002
0.069397137 -0.077784166 0.55000001
0.070831023 -0.077784166 0.55000001
0.07226491 -0.077784166 0.55000001
0.073698789 -0.077784166 0.55000001
0.075269274 -0.077925593 0.551
0.076705769 -0.077925593 0.551
0.078284092 -0.078067027 0.55200005
0.079723194 -0.078067027 0.55200005
0.081309326 -0.078208447 0.55300003
0.082751028 -0.078208447 0.55300003
0.084344983 -0.078349873 0.55400002
0.085789293 -0.078349873 0.55400002
0.087391064 -0.0784913 0.55500001
0.088837981 -0.0784913 0.55500001
0.09044759 -0.078632727 0.55600005
0.091897115 -0.078632727 0.55600005
0.093514524 -0.078774154 0.55700004
0.094966665 -0.078774154 0.55700004
0.096418798 -0.078774154 0.55700004
0.098046646 -0.078915574 0.55800003
0.099501386 -0.078915574 0.55800003
0.10113705 -0.079057001 0.55900002
0.1025944 -0.079057001 0.55900002
0.10423788 -0.079198427 0.56
0.10569784 -0.079198427 0.56
0.10734916 -0.079339854 0.56100005
0.10900567 -0.079481281 0.56200004
0.11047085 -0.079481281 0.56200004
0.11193601 -0.079481281 0.56200004
0.11360296 -0.079622708 0.56300002
0.11507074 -0.079622708 0.56300002
0.11653852 -0.079622708 0.56300002
0.1180063 -0.079622708 0.56300002
0.11947408 -0.079622708 0.56300002
0.12094186 -0.079622708 0.56300002
0.12262705 -0.079764128 0.56400001
0.12409743 -0.079764128 0.56400001
0.12556781 -0.079764128 0.56400001
0.1270382 -0.079764128 0.56400001
0.12873644 -0.079905555 0.565
0.13020942 -0.079905555 0.565
0.13168241 -0.079905555 0.565
0.13315541 -0.079905555 0.565
0.13486668 -0.080046989 0.56600004
0.13634229 -0.080046989 0.56600004
0.13781789 -0.080046989 0.56600004
0.13953958 -0.080188408 0.56700003
0.14101779 -0.080188408 0.56700003
0.14249599 -0.080188408 0.56700003
0.14422812 -0.080329835 0.56800002
0.14570892 -0.080329835 0.56800002
0.14744887 -0.080471255 0.56900001
0.14893229 -0.080471255 0.56900001
0.1504157 -0.080471255 0.56900001
0.15189913 -0.080471255 0.56900001
0.15338254 -0.080471255 0.56900001
0.15459381 -0.080329835 0.56800002
0.15607461 -0.080329835 0.56800002
0.15727805 -0.080188408 0.56700003
0.15847625 -0.080046989 0.56600004
0.15995185 -0.080046989 0.56600004
0.16114223 -0.079905555 0.565
0.16232741 -0.079764128 0.56400001
0.16350737 -0.079622708 0.56300002
0.16497515 -0.079622708 0.56300002
0.16614731 -0.079481281 0.56200004
0.16731423 -0.079339854 0.56100005
0.16817509 -0.079057001 0.55900002
0.16963243 -0.079057001 0.55900002
0.17047766 -0.078774154 0.55700004
0.17162113 -0.078632727 0.55600005
0.17275937 -0.0784913 0.55500001
0.17357852 -0.078208447 0.55300003
0.17470375 -0.078067027 0.55200005
0.17550462 -0.077784166 0.55000001
0.17661682 -0.077642746 0.54900002
0.17772378 -0.077501319 0.54800004
0.17882554 -0.0773599 0.54700005
0.17959253 -0.077077039 0.54500002
0.18068124 -0.076935619 0.54400003
0.18176477 -0.076794192 0.54300004
0.18250568 -0.076511338 0.54100001
0.18323621 -0.076228492 0.53900003
0.18395627 -0.075945631 0.537
0.1850111 -0.075804211 0.53600001
0.18571293 -0.075521357 0.53400004
0.18675473 -0.075379938 0.53300005
0.18743829 -0.075097084 0.53100002
0.18846706 -0.074955657 0.53000003
0.1894906 -0.07481423 0.52900004
0.1901481 -0.074531376 0.52700001
0.19115862 -0.074389949 0.52600002
0.1921639 -0.07424853 0.52500004
0.19316399 -0.074107103 0.52400005
0.19415882 -0.073965669 0.523
0.19477464 -0.073682822 0.52100003
0.19575647 -0.073541403 0.52000004
0.196354 -0.073258542 0.51800001
0.1973228 -0.073117122 0.51700002
0.19751781 -0.072692841 0.514
0.19808409 -0.072409995 0.51200002
0.19902943 -0.072268568 0.51100004
0.19957742 -0.071985714 0.509
0.19972032 -0.071561441 0.50600004
0.20024487 -0.071278587 0.50400001
0.20075899 -0.070995733 0.50200003
0.20086016 -0.070571452 0.49900001
0.20135081 -0.070288606 0.49700001
0.2022388 -0.070147179 0.49600002
0.20271119 -0.069864325 0.49400002
0.20317319 -0.069581479 0.49200001
0.2040403 -0.069440052 0.49100003
0.20448403 -0.069157198 0.48900002
0.20491733 -0.068874344 0.48700002
0.20534021 -0.068591498 0.48500001
0.20575266 -0.068308644 0.48300001
0.20615469 -0.068025798 0.48100004
0.20697749 -0.067884363 0.48000002
0.20736124 -0.067601517 0.47800002
0.20773458 -0.067318663 0.47600001
0.2080975 -0.067035817 0.47400004
0.20889162 -0.06689439 0.47300002
0.20923628 -0.066611536 0.47100002
0.21001737 -0.066470109 0.47000003
0.21079323 -0.066328682 0.46900001
0.21111181 -0.066045828 0.46700001
0.21187465 -0.065904409 0.46600002
0.21263228 -0.065762982 0.46500003
0.21292479 -0.065480128 0.46300003
0.21366937 -0.065338701 0.46200001
0.21394366 -0.065055847 0.46000001
0.2142075 -0.064773001 0.45800003
-0.26193312 -0.064689517 0.46600002
-0.26071823 -0.064689517 0.46600002
-0.26006019 -0.064828329 0.46700001
-0.25884268 -0.064828329 0.46700001
-0.25762519 -0.064828329 0.46700001
-0.25695673 -0.064967155 0.46800002
-0.25573665 -0.064967155 0.46800002
-0.25506037 -0.065105967 0.46900001
-0.25383767 -0.065105967 0.46900001
-0.25261495 -0.065105967 0.46900001
-0.25139225 -0.065105967 0.46900001
-0.25016952 -0.065105967 0.46900001
-0.24947764 -0.065244794 0.47000003
-0.24825229 -0.065244794 0.47000003
-0.24702698 -0.065244794 0.47000003
-0.24632464 -0.065383606 0.47100002
-0.24509673 -0.065383606 0.47100002
-0.24386878 -0.065383606 0.47100002
-0.24315603 -0.065522432 0.47200003
-0.24243805 -0.065661244 0.47300002
-0.24120489 -0.065661244 0.47300002
-0.23997176 -0.065661244 0.47300002
-0.23924336 -0.065800071 0.47400004
-0.23800762 -0.065800071 0.47400004
-0.23677187 -0.065800071 0.47400004
-0.23553611 -0.065800071 0.47400004
-0.23430037 -0.065800071 0.47400004
-0.23306462 -0.065800071 0.47400004
-0.23182887 -0.065800071 0.47400004
-0.23059312 -0.065800071 0.47400004
-0.22935736 -0.065800071 0.47400004
-0.22812162 -0.065800071 0.47400004
-0.22688587 -0.065800071 0.47400004
-0.22565013 -0.065800071 0.47400004
-0.22488782 -0.065938883 0.47500002
-0.22364947 -0.065938883 0.47500002
-0.22241111 -0.065938883 0.47500002
-0.22117276 -0.065938883 0.47500002
-0.21993439 -0.065938883 0.47500002
-0.21915646 -0.066077702 0.47600001
-0.21791549 -0.066077702 0.47600001
-0.21712974 -0.066216521 0.47700003
-0.21588616 -0.066216521 0.47700003
-0.21509257 -0.06635534 0.47800002
-0.2138464 -0.06635534 0.47800002
-0.21260022 -0.06635534 0.47800002
-0.21179621 -0.066494159 0.47900003
-0.21054743 -0.066494159 0.47900003
-0.20929866 -0.066494159 0.47900003
-0.2084842 -0.066632979 0.48000002
-0.20723282 -0.066632979 0.48000002
-0.20598142 -0.066632979 0.48000002
-0.20473003 -0.066632979 0.48000002
-0.20347863 -0.066632979 0.48000002
-0.20222725 -0.066632979 0.48000002
-0.20139456 -0.066771798 0.48100004
-0.20014055 -0.066771798 0.48100004
-0.19930005 -0.066910617 0.48200002
-0.19804344 -0.066910617 0.48200002
-0.19678684 -0.066910617 0.48200002
-0.19593589 -0.067049429 0.48300001
-0.19467668 -0.067049429 0.48300001
-0.19341746 -0.067049429 0.48300001
-0.19215827 -0.067049429 0.48300001
-0.19089904 -0.067049429 0.48300001
-0.19003247 -0.067188255 0.48400003
-0.18877065 -0.067188255 0.48400003
-0.18750884 -0.067188255 0.48400003
-0.18624701 -0.067188255 0.48400003
-0.18498519 -0.067188255 0.48400003
-0.18372338 -0.067188255 0.48400003
-0.18283853 -0.067327067 0.48500001
-0.18157412 -0.067327067 0.48500001
-0.18030968 -0.067327067 0.48500001
-0.17941444 -0.067465894 0.48600003
-0.17814739 -0.067465894 0.48600003
-0.17688037 -0.067465894 0.48600003
-0.17561333 -0.067465894 0.48600003
-0.1743463 -0.067465894 0.48600003
-0.17307927 -0.067465894 0.48600003
-0.17216575 -0.067604706 0.48700002
-0.17089611 -0.067604706 0.48700002
-0.16997477 -0.067743525 0.48800004
-0.16870254 -0.067743525 0.48800004
-0.16743028 -0.067743525 0.48800004
-0.16649853 -0.067882344 0.48900002
-0.16522367 -0.067882344 0.48900002
-0.1642841 -0.068021163 0.49000001
-0.16300662 -0.068021163 0.49000001
-0.16205923 -0.068159983 0.49100003
-0.16077916 -0.068159983 0.49100003
-0.15982394 -0.068298802 0.49200001
-0.1588635 -0.068437621 0.49300003
-0.15757823 -0.068437621 0.49300003
-0.15629295 -0.068437621 0.49300003
-0.15532206 -0.06857644 0.49400002
-0.15403418 -0.06857644 0.49400002
-0.15274629 -0.06857644 0.49400002
-0.151765 -0.068715259 0.49500003
-0.1504745 -0.068715259 0.49500003
-0.14918402 -0.068715259 0.49500003
-0.14789352 -0.068715259 0.49500003
-0.14660302 -0.068715259 0.49500003
-0.14560607 -0.068854079 0.49600002
-0.14431298 -0.068854079 0.49600002
-0.14301987 -0.068854079 0.49600002
-0.14172678 -0.068854079 0.49600002
-0.14071679 -0.06899289 0.49700001
-0.13942108 -0.06899289 0.49700001
-0.13812537 -0.06899289 0.49700001
-0.13682966 -0.06899289 0.49700001
-0.13553396 -0.06899289 0.49700001
-0.13450834 -0.069131717 0.49800003
-0.13321003 -0.069131717 0.49800003
-0.1319117 -0.069131717 0.49800003
-0.13087566 -0.069270529 0.49900001
-0.12957473 -0.069270529 0.49900001
-0.12827381 -0.069270529 0.49900001
-0.12697288 -0.069270529 0.49900001
-0.12592381 -0.069409348 0.5
-0.12462027 -0.069409348 0.5
-0.12356339 -0.069548175 0.50100005
-0.12225725 -0.069548175 0.50100005
-0.12095111 -0.069548175 0.50100005
-0.11988378 -0.069686987 0.50200003
-0.11881123 -0.069825806 0.50300002
-0.11749989 -0.069825806 0.50300002
-0.11641952 -0.069964625 0.50400001
-0.11510555 -0.069964625 0.50400001
-0.11379159 -0.069964625 0.50400001
-0.11270081 -0.070103444 0.505
-0.11138424 -0.070103444 0.505
-0.11006767 -0.070103444 0.505
-0.1087511 -0.070103444 0.505
-0.10743453 -0.070103444 0.505
-0.10611797 -0.070103444 0.505
-0.10500894 -0.070242263 0.50600004
-0.10368977 -0.070242263 0.50600004
-0.10237059 -0.070242263 0.50600004
-0.10105142 -0.070242263 0.50600004
-0.099732235 -0.070242263 0.50600004
-0.098413065 -0.070242263 0.50600004
-0.09728577 -0.070381083 0.50700003
-0.095963992 -0.070381083 0.50700003
-0.094828881 -0.070519902 0.50800002
-0.093504496 -0.070519902 0.50800002
-0.092361562 -0.070658714 0.509
-0.091034561 -0.070658714 0.509
-0.089883819 -0.07079754 0.51000005
-0.088554218 -0.07079754 0.51000005
-0.087395646 -0.070936359 0.51100004
-0.086063437 -0.070936359 0.51100004
-0.084731229 -0.070936359 0.51100004
-0.083399005 -0.070936359 0.51100004
-0.082066797 -0.070936359 0.51100004
-0.080734588 -0.070936359 0.51100004
-0.079557769 -0.071075179 0.51200002
-0.078222953 -0.071075179 0.51200002
-0.077038303 -0.07121399 0.51300001
-0.075700879 -0.07121399 0.51300001
-0.074363455 -0.07121399 0.51300001
-0.073168382 -0.07135281 0.514
-0.07182835 -0.07135281 0.514
-0.070488326 -0.07135281 0.514
-0.069148295 -0.07135281 0.514
-0.06794019 -0.071491636 0.51500005
-0.066597551 -0.071491636 0.51500005
-0.065381616 -0.071630448 0.51600003
-0.064160474 -0.071769267 0.51700002
-0.062934116 -0.071908087 0.51800001
-0.061583657 -0.071908087 0.51800001
-0.060233198 -0.071908087 0.51800001
-0.058996417 -0.072046913 0.51900005
-0.05764335 -0.072046913 0.51900005
-0.056398746 -0.072185725 0.52000004
-0.055043072 -0.072185725 0.52000004
-0.05379064 -0.072324544 0.52100003
-0.052432358 -0.072324544 0.52100003
-0.05107408 -0.072324544 0.52100003
-0.049715798 -0.072324544 0.52100003
-0.048450336 -0.072463363 0.52200001
-0.04708945 -0.072463363 0.52200001
-0.045728564 -0.072463363 0.52200001
-0.044452667 -0.072602175 0.523
-0.043089174 -0.072602175 0.523
-0.04172568 -0.072602175 0.523
-0.040362187 -0.072602175 0.523
-0.039073262 -0.072741002 0.52400005
-0.037707161 -0.072741002 0.52400005
-0.036341056 -0.072741002 0.52400005
-0.034974955 -0.072741002 0.52400005
-0.033672992 -0.072879821 0.52500004
-0.032304287 -0.072879821 0.52500004
-0.030935578 -0.072879821 0.52500004
-0.029623184 -0.07301864 0.52600002
-0.02825187 -0.07301864 0.52600002
-0.026931658 -0.073157452 0.52700001
-0.025557734 -0.073157452 0.52700001
-0.024275593 -0.073435098 0.52900004
-0.022896457 -0.073435098 0.52900004
-0.021557994 -0.07357391 0.53000003
-0.02017625 -0.07357391 0.53000003
-0.018829968 -0.073712729 0.53100002
-0.017445618 -0.073712729 0.53100002
-0.016091513 -0.073851548 0.53200001
-0.014704555 -0.073851548 0.53200001
-0.013317597 -0.073851548 0.53200001
-0.011953067 -0.073990375 0.53300005
-0.010563501 -0.073990375 0.53300005
-0.0091739362 -0.073990375 0.53300005
-0.0077843713 -0.073990375 0.53300005
-0.0063948063 -0.073990375 0.53300005
-0.0050146319 -0.074129187 0.53400004
-0.0036224599 -0.074129187 0.53400004
-0.0022302878 -0.074129187 0.53400004
-0.0008365463 -0.073990375 0.53300005
0.00055405631 -0.074129187 0.53400004
0.0019462283 -0.074129187 0.53400004
0.0033384005 -0.074129187 0.53400004
0.0047305725 -0.074129187 0.53400004
0.0061227446 -0.074129187 0.53400004
0.0075149164 -0.074129187 0.53400004
0.008907089 -0.074129187 0.53400004
0.010318547 -0.074268006 0.53500003
0.011713327 -0.074268006 0.53500003
0.013108106 -0.074268006 0.53500003
0.014502885 -0.074268006 0.53500003
0.015897663 -0.074268006 0.53500003
0.017324764 -0.074406825 0.53600001
0.01872215 -0.074406825 0.53600001
0.020119537 -0.074406825 0.53600001
0.021516923 -0.074406825 0.53600001
0.022957059 -0.074545637 0.537
0.024357053 -0.074545637 0.537
0.025805013 -0.074684463 0.53800005
0.027207613 -0.074684463 0.53800005
0.028610215 -0.074684463 0.53800005
0.030068599 -0.074823283 0.53900003
0.031532198 -0.074962102 0.54000002
0.032940015 -0.074962102 0.54000002
0.03441143 -0.075100914 0.54100001
0.035821855 -0.075100914 0.54100001
0.037232276 -0.075100914 0.54100001
0.038642697 -0.075100914 0.54100001
0.040127158 -0.07523974 0.54200006
0.041540187 -0.07523974 0.54200006
0.042953216 -0.07523974 0.54200006
0.0444481 -0.07537856 0.54300004
0.045863736 -0.07537856 0.54300004
0.047279373 -0.07537856 0.54300004
0.048695005 -0.07537856 0.54300004
0.050202925 -0.075517371 0.54400003
0.051621169 -0.075517371 0.54400003
0.053136908 -0.075656191 0.54500002
0.054557759 -0.075656191 0.54500002
0.056081321 -0.07579501 0.546
0.057610102 -0.075933836 0.54700005
0.059036165 -0.075933836 0.54700005
0.060462229 -0.075933836 0.54700005
0.062001433 -0.076072648 0.54800004
0.063430108 -0.076072648 0.54800004
0.064977132 -0.076211467 0.54900002
0.066408411 -0.076211467 0.54900002
0.06796325 -0.076350287 0.55000001
0.069397137 -0.076350287 0.55000001
0.070831023 -0.076350287 0.55000001
0.07226491 -0.076350287 0.55000001
0.073832788 -0.076489098 0.551
0.075269274 -0.076489098 0.551
0.076705769 -0.076489098 0.551
0.078284092 -0.076627925 0.55200005
0.079723194 -0.076627925 0.55200005
0.081309326 -0.076766744 0.55300003
0.082751028 -0.076766744 0.55300003
0.084344983 -0.076905563 0.55400002
0.085789293 -0.076905563 0.55400002
0.087391064 -0.077044375 0.55500001
0.088837981 -0.077044375 0.55500001
0.09044759 -0.077183202 0.55600005
0.091897115 -0.077183202 0.55600005
0.093514524 -0.077322021 0.55700004
0.094966665 -0.077322021 0.55700004
0.096418798 -0.077322021 0.55700004
0.098046646 -0.077460833 0.55800003
0.099501386 -0.077460833 0.55800003
0.10113705 -0.077599652 0.55900002
0.1025944 -0.077599652 0.55900002
0.10423788 -0.077738471 0.56
0.10569784 -0.077738471 0.56
0.10734916 -0.077877298 0.56100005
0.10900567 -0.07801611 0.56200004
0.11047085 -0.07801611 0.56200004
0.11193601 -0.07801611 0.56200004
0.11360296 -0.078154929 0.56300002
