# .PCD v0.7 - Point Cloud Data file format
VERSION 0.7
FIELDS x y z
SIZE 4 4 4
TYPE F F F
COUNT 1 1 1
WIDTH 1304
HEIGHT 1
VIEWPOINT 0 0 0 1 0 0 0
POINTS 1304
DATA ascii
0.080199473 -0.0087723415 0.40800002
0.081263155 -0.0087723415 0.40800002
0.082125053 -0.0087508401 0.40700001
0.083186127 -0.0087508401 0.40700001
0.08404021 -0.0087293396 0.40600002
0.085098684 -0.0087293396 0.40600002
0.086157151 -0.0087293396 0.40600002
0.087215617 -0.0087293396 0.40600002
0.088056661 -0.0087078391 0.40500003
0.08911252 -0.0087078391 0.40500003
0.090168387 -0.0087078391 0.40500003
0.091224246 -0.0087078391 0.40500003
0.092280105 -0.0087078391 0.40500003
0.093335964 -0.0087078391 0.40500003
0.094158754 -0.0086863376 0.40400001
0.095212005 -0.0086863376 0.40400001
0.096265264 -0.0086863376 0.40400001
0.09707763 -0.0086648371 0.40300003
0.098128282 -0.0086648371 0.40300003
0.099178925 -0.0086648371 0.40300003
0.10022958 -0.0086648371 0.40300003
0.1010289 -0.0086433357 0.40200001
0.10207694 -0.0086433357 0.40200001
0.10312498 -0.0086433357 0.40200001
0.10417302 -0.0086433357 0.40200001
0.10522106 -0.0086433357 0.40200001
0.1062691 -0.0086433357 0.40200001
0.10731714 -0.0086433357 0.40200001
0.10836518 -0.0086433357 0.40200001
0.10914105 -0.0086218351 0.40100002
0.11018648 -0.0086218351 0.40100002
0.11123192 -0.0086218351 0.40100002
0.11227734 -0.0086218351 0.40100002
0.11304017 -0.0086003346 0.40000001
0.11408299 -0.0086003346 0.40000001
0.11512583 -0.0086003346 0.40000001
0.11587822 -0.0085788332 0.39900002
0.11691845 -0.0085788332 0.39900002
0.11795867 -0.0085788332 0.39900002
0.11870065 -0.0085573327 0.39800003
0.11973827 -0.0085573327 0.39800003
0.12047241 -0.0085358322 0.39700001
0.12150741 -0.0085358322 0.39700001
0.12254241 -0.0085358322 0.39700001
0.12326615 -0.0085143317 0.39600003
0.12429854 -0.0085143317 0.39600003
0.12533094 -0.0085143317 0.39600003
0.12636334 -0.0085143317 0.39600003
0.12707402 -0.0084928302 0.39500001
0.12810381 -0.0084928302 0.39500001
0.12913361 -0.0084928302 0.39500001
0.1301634 -0.0084928302 0.39500001
0.13086106 -0.0084713297 0.39400002
0.13188824 -0.0084713297 0.39400002
0.13291542 -0.0084713297 0.39400002
0.1339426 -0.0084713297 0.39400002
0.13462722 -0.0084498283 0.39300001
0.1356518 -0.0084498283 0.39300001
0.13667637 -0.0084498283 0.39300001
0.13770095 -0.0084498283 0.39300001
0.13837253 -0.0084283277 0.39200002
0.13939451 -0.0084283277 0.39200002
0.14041647 -0.0084283277 0.39200002
0.14107764 -0.0084068272 0.39100003
0.142097 -0.0084068272 0.39100003
0.14311635 -0.0084068272 0.39100003
0.14376709 -0.0083853258 0.39000002
0.14478384 -0.0083853258 0.39000002
0.14580059 -0.0083853258 0.39000002
0.14681734 -0.0083853258 0.39000002
0.14783411 -0.0083853258 0.39000002
0.14885086 -0.0083853258 0.39000002
0.14986761 -0.0083853258 0.39000002
0.15049748 -0.0083638253 0.38900003
0.15151164 -0.0083638253 0.38900003
0.15252578 -0.0083638253 0.38900003
0.15353993 -0.0083638253 0.38900003
0.15415676 -0.0083423248 0.38800001
0.15516829 -0.0083423248 0.38800001
0.15577732 -0.0083208233 0.38700002
0.15678625 -0.0083208233 0.38700002
0.15779519 -0.0083208233 0.38700002
0.15880412 -0.0083208233 0.38700002
0.15940011 -0.0082993228 0.38600001
0.16040643 -0.0082993228 0.38600001
0.16141275 -0.0082993228 0.38600001
0.16241907 -0.0082993228 0.38600001
0.1634254 -0.0082993228 0.38600001
0.16443172 -0.0082993228 0.38600001
0.16500947 -0.0082778223 0.38500002
0.1660132 -0.0082778223 0.38500002
0.16701691 -0.0082778223 0.38500002
0.16758421 -0.0082563208 0.384
0.16858532 -0.0082563208 0.384
0.16958642 -0.0082563208 0.384
0.17014331 -0.0082348203 0.38300002
0.17114182 -0.0082348203 0.38300002
0.17214032 -0.0082348203 0.38300002
0.17313883 -0.0082348203 0.38300002
0.17368266 -0.0082133198 0.38200003
0.17467856 -0.0082133198 0.38200003
0.17567445 -0.0082133198 0.38200003
0.17667036 -0.0082133198 0.38200003
-0.28197849 -0.0095224613 0.50400001
-0.28066453 -0.0095224613 0.50400001
-0.27879632 -0.0095035685 0.50300002
-0.27748495 -0.0095035685 0.50300002
-0.27562454 -0.0094846748 0.50200003
-0.2743158 -0.0094846748 0.50200003
-0.27246323 -0.009465781 0.50100005
-0.27115712 -0.009465781 0.50100005
-0.26985094 -0.009465781 0.50100005
-0.26800877 -0.0094468864 0.5
-0.26670524 -0.0094468864 0.5
-0.26540172 -0.0094468864 0.5
-0.26356998 -0.0094279926 0.49900001
-0.26226905 -0.0094279926 0.49900001
-0.26096815 -0.0094279926 0.49900001
-0.25914687 -0.0094090989 0.49800003
-0.25784853 -0.0094090989 0.49800003
-0.25603503 -0.0093902051 0.49700001
-0.25473934 -0.0093902051 0.49700001
-0.25293365 -0.0093713114 0.49600002
-0.25164056 -0.0093713114 0.49600002
-0.24984275 -0.0093524186 0.49500003
-0.24855226 -0.0093524186 0.49500003
-0.24676223 -0.0093335239 0.49400002
-0.24497743 -0.0093146302 0.49300003
-0.24369216 -0.0093146302 0.49300003
-0.24240686 -0.0093146302 0.49300003
-0.24063249 -0.0092957364 0.49200001
-0.23934981 -0.0092957364 0.49200001
-0.23758325 -0.0092768427 0.49100003
-0.2363032 -0.0092768427 0.49100003
-0.23502313 -0.0092768427 0.49100003
-0.23374306 -0.0092768427 0.49100003
-0.23246299 -0.0092768427 0.49100003
-0.23071207 -0.009257949 0.49000001
-0.22943461 -0.009257949 0.49000001
-0.22815715 -0.009257949 0.49000001
-0.22687969 -0.009257949 0.49000001
-0.22514182 -0.0092390552 0.48900002
-0.22386697 -0.0092390552 0.48900002
-0.22259212 -0.0092390552 0.48900002
-0.22086467 -0.0092201615 0.48800004
-0.21959242 -0.0092201615 0.48800004
-0.2178728 -0.0092012677 0.48700002
-0.21615839 -0.009182374 0.48600003
-0.21489136 -0.009182374 0.48600003
-0.21318476 -0.0091634803 0.48500001
-0.21192034 -0.0091634803 0.48500001
-0.21022157 -0.0091445865 0.48400003
-0.20895976 -0.0091445865 0.48400003
-0.20726879 -0.0091256928 0.48300001
-0.2060096 -0.0091256928 0.48300001
-0.20432647 -0.009106799 0.48200002
-0.20306987 -0.009106799 0.48200002
-0.20139456 -0.0090879053 0.48100004
-0.20014055 -0.0090879053 0.48100004
-0.19888657 -0.0090879053 0.48100004
-0.19763257 -0.0090879053 0.48100004
-0.19637857 -0.0090879053 0.48100004
-0.1947189 -0.0090690115 0.48000002
-0.19346751 -0.0090690115 0.48000002
-0.19221611 -0.0090690115 0.48000002
-0.1905669 -0.0090501178 0.47900003
-0.18931811 -0.0090501178 0.47900003
-0.1876767 -0.0090312241 0.47800002
-0.18643051 -0.0090312241 0.47800002
-0.18518434 -0.0090312241 0.47800002
-0.18393816 -0.0090312241 0.47800002
-0.18230978 -0.0090123303 0.47700003
-0.18106622 -0.0090123303 0.47700003
-0.17944565 -0.0089934357 0.47600001
-0.1782047 -0.0089934357 0.47600001
-0.17659196 -0.0089745428 0.47500002
-0.17535362 -0.0089745428 0.47500002
-0.17411526 -0.0089745428 0.47500002
-0.17251295 -0.0089556491 0.47400004
-0.1712772 -0.0089556491 0.47400004
-0.17004146 -0.0089556491 0.47400004
-0.16844957 -0.0089367544 0.47300002
-0.16721644 -0.0089367544 0.47300002
-0.16598329 -0.0089367544 0.47300002
-0.16475014 -0.0089367544 0.47300002
-0.16317131 -0.0089178616 0.47200003
-0.16194077 -0.0089178616 0.47200003
-0.16036975 -0.0088989669 0.47100002
-0.15914181 -0.0088989669 0.47100002
-0.15791389 -0.0088989669 0.47100002
-0.15635329 -0.0088800741 0.47000003
-0.15512799 -0.0088800741 0.47000003
-0.1535752 -0.0088611795 0.46900001
-0.1523525 -0.0088611795 0.46900001
-0.15112978 -0.0088611795 0.46900001
-0.14990707 -0.0088611795 0.46900001
-0.14836733 -0.0088422857 0.46800002
-0.14683279 -0.008823392 0.46700001
-0.14561531 -0.008823392 0.46700001
-0.14439781 -0.008823392 0.46700001
-0.14287372 -0.0088044982 0.46600002
-0.14165883 -0.0088044982 0.46600002
-0.14014256 -0.0087856045 0.46500003
-0.13893026 -0.0087856045 0.46500003
-0.13771799 -0.0087856045 0.46500003
-0.09038382 -0.0076519786 0.40500003
-0.089327961 -0.0076519786 0.40500003
-0.088490054 -0.0076708719 0.40600002
-0.087646931 -0.0076897657 0.40700001
-0.086798601 -0.0077086599 0.40800002
-0.085734919 -0.0077086599 0.40800002
-0.084878765 -0.0077275531 0.40900001
-0.083812475 -0.0077275531 0.40900001
-0.082543872 -0.0077086599 0.40800002
-0.08148019 -0.0077086599 0.40800002
-0.080416508 -0.0077086599 0.40800002
-0.079352826 -0.0077086599 0.40800002
-0.078289144 -0.0077086599 0.40800002
-0.077414736 -0.0077275531 0.40900001
-0.076535121 -0.0077464473 0.41000003
-0.07565029 -0.0077653406 0.41100001
-0.074760243 -0.0077842348 0.41200003
-0.074043833 -0.0078220228 0.41400003
-0.073316991 -0.0078598093 0.41600001
-0.072579727 -0.0078975968 0.41800001
-0.071832031 -0.0079353852 0.42000002
-0.071073912 -0.0079731727 0.42200002
-0.070305362 -0.0080109602 0.42400002
-0.069526374 -0.0080487477 0.42600003
-0.06873697 -0.0080865351 0.42800003
-0.067937128 -0.0081243226 0.43000001
-0.067282252 -0.0081810039 0.43300003
-0.066458955 -0.0082187913 0.43500003
-0.065625221 -0.0082565788 0.43700001
-0.064781062 -0.0082943663 0.43900001
-0.063926481 -0.0083321538 0.44100001
-0.063061468 -0.0083699413 0.44300002
-0.062046286 -0.0083888359 0.44400004
-0.060888752 -0.0083888359 0.44400004
-0.059731215 -0.0083888359 0.44400004
-0.058573678 -0.0083888359 0.44400004
-0.057416137 -0.0083888359 0.44400004
-0.0562586 -0.0083888359 0.44400004
-0.055101071 -0.0083888359 0.44400004
-0.053822037 -0.0083699413 0.44300002
-0.052667104 -0.0083699413 0.44300002
-0.051395897 -0.0083510485 0.44200003
-0.050129902 -0.0083321538 0.44100001
-0.048980188 -0.0083321538 0.44100001
-0.047722012 -0.008313261 0.44000003
-0.046574906 -0.008313261 0.44000003
-0.045427795 -0.008313261 0.44000003
-0.044180047 -0.0082943663 0.43900001
-0.043035548 -0.0082943663 0.43900001
-0.041891046 -0.0082943663 0.43900001
-0.040653732 -0.0082754726 0.43800002
-0.039511837 -0.0082754726 0.43800002
-0.038369942 -0.0082754726 0.43800002
-0.037228048 -0.0082754726 0.43800002
-0.036086153 -0.0082754726 0.43800002
-0.034944262 -0.0082754726 0.43800002
-0.033802368 -0.0082754726 0.43800002
-0.032585904 -0.0082565788 0.43700001
-0.031446621 -0.0082565788 0.43700001
-0.03030733 -0.0082565788 0.43700001
-0.029101297 -0.0082376851 0.43600002
-0.027964618 -0.0082376851 0.43600002
-0.026827939 -0.0082376851 0.43600002
-0.02569126 -0.0082376851 0.43600002
-0.024498262 -0.0082187913 0.43500003
-0.02336419 -0.0082187913 0.43500003
-0.022230119 -0.0082187913 0.43500003
-0.021047546 -0.0081998976 0.43400002
-0.019916082 -0.0081998976 0.43400002
-0.018784616 -0.0081998976 0.43400002
-0.017653149 -0.0081998976 0.43400002
-0.016483616 -0.0081810039 0.43300003
-0.015354758 -0.0081810039 0.43300003
-0.0142259 -0.0081810039 0.43300003
-0.013066793 -0.0081621101 0.43200001
-0.011940542 -0.0081621101 0.43200001
-0.01081429 -0.0081621101 0.43200001
-0.0096656131 -0.0081432164 0.43100002
-0.0085419677 -0.0081432164 0.43100002
-0.0074183233 -0.0081432164 0.43100002
-0.0062800739 -0.0081243226 0.43000001
-0.0051590367 -0.0081243226 0.43000001
-0.0040379995 -0.0081243226 0.43000001
-0.0029169621 -0.0081243226 0.43000001
-0.0017917481 -0.0081054289 0.42900002
-0.0006733177 -0.0081054289 0.42900002
0.00044511264 -0.0081054289 0.42900002
0.0015598984 -0.0080865351 0.42800003
0.0026757217 -0.0080865351 0.42800003
0.0037915451 -0.0080865351 0.42800003
0.0049073682 -0.0080865351 0.42800003
0.0060091186 -0.0080676414 0.42700002
0.007122335 -0.0080676414 0.42700002
0.0082355505 -0.0080676414 0.42700002
0.0093487669 -0.0080676414 0.42700002
0.010461983 -0.0080676414 0.42700002
0.0115752 -0.0080676414 0.42700002
0.012658701 -0.0080487477 0.42600003
0.01376931 -0.0080487477 0.42600003
0.014879919 -0.0080487477 0.42600003
0.015952991 -0.0080298539 0.42500001
0.017060993 -0.0080298539 0.42500001
0.018168995 -0.0080298539 0.42500001
0.019276997 -0.0080298539 0.42500001
0.020337036 -0.0080109602 0.42400002
0.02144243 -0.0080109602 0.42400002
0.022547826 -0.0080109602 0.42400002
0.023597434 -0.0079920664 0.42300001
0.024700221 -0.0079920664 0.42300001
0.025742011 -0.0079731727 0.42200002
0.02684219 -0.0079731727 0.42200002
0.027942372 -0.0079731727 0.42200002
0.028973734 -0.007954279 0.42100003
0.030071307 -0.007954279 0.42100003
0.03116888 -0.007954279 0.42100003
0.032189809 -0.0079353852 0.42000002
0.033284776 -0.0079353852 0.42000002
0.034379747 -0.0079353852 0.42000002
0.03539025 -0.0079164915 0.41900003
0.03648261 -0.0079164915 0.41900003
0.037574969 -0.0079164915 0.41900003
0.038667329 -0.0079164915 0.41900003
0.039759688 -0.0079164915 0.41900003
0.040754545 -0.0078975968 0.41800001
0.041844301 -0.0078975968 0.41800001
0.042934053 -0.0078975968 0.41800001
0.043918487 -0.007878704 0.41700003
0.045005631 -0.007878704 0.41700003
0.045982242 -0.0078598093 0.41600001
0.047066778 -0.0078598093 0.41600001
0.048151318 -0.0078598093 0.41600001
0.049117502 -0.0078409165 0.41500002
0.050199434 -0.0078409165 0.41500002
0.051157799 -0.0078220228 0.41400003
0.052110944 -0.0078031286 0.41300002
0.053187661 -0.0078031286 0.41300002
0.054264378 -0.0078031286 0.41300002
0.055341095 -0.0078031286 0.41300002
0.056417808 -0.0078031286 0.41300002
0.057494525 -0.0078031286 0.41300002
0.058571249 -0.0078031286 0.41300002
0.059647966 -0.0078031286 0.41300002
0.060724683 -0.0078031286 0.41300002
0.0618014 -0.0078031286 0.41300002
0.062878117 -0.0078031286 0.41300002
0.063799985 -0.0077842348 0.41200003
0.06487409 -0.0077842348 0.41200003
0.065788127 -0.0077653406 0.41100001
0.066859633 -0.0077653406 0.41100001
0.067931138 -0.0077653406 0.41100001
0.068834752 -0.0077464473 0.41000003
0.069903649 -0.0077464473 0.41000003
0.070972539 -0.0077464473 0.41000003
0.072041444 -0.0077464473 0.41000003
0.073110342 -0.0077464473 0.41000003
0.074179232 -0.0077464473 0.41000003
0.07524813 -0.0077464473 0.41000003
0.076317027 -0.0077464473 0.41000003
0.077197172 -0.0077275531 0.40900001
0.078263462 -0.0077275531 0.40900001
0.079329751 -0.0077275531 0.40900001
0.080199473 -0.0077086599 0.40800002
0.081263155 -0.0077086599 0.40800002
0.082125053 -0.0076897657 0.40700001
0.083186127 -0.0076897657 0.40700001
0.084247202 -0.0076897657 0.40700001
0.085308284 -0.0076897657 0.40700001
0.086157151 -0.0076708719 0.40600002
0.087215617 -0.0076708719 0.40600002
0.088274084 -0.0076708719 0.40600002
0.089332551 -0.0076708719 0.40600002
0.090391017 -0.0076708719 0.40600002
0.091224246 -0.0076519786 0.40500003
0.092280105 -0.0076519786 0.40500003
0.093335964 -0.0076519786 0.40500003
0.094158754 -0.0076330844 0.40400001
0.095212005 -0.0076330844 0.40400001
0.096265264 -0.0076330844 0.40400001
0.09707763 -0.0076141907 0.40300003
0.098128282 -0.0076141907 0.40300003
0.099178925 -0.0076141907 0.40300003
0.10022958 -0.0076141907 0.40300003
0.10128021 -0.0076141907 0.40300003
0.10207694 -0.0075952969 0.40200001
0.10312498 -0.0075952969 0.40200001
0.10417302 -0.0075952969 0.40200001
0.10522106 -0.0075952969 0.40200001
0.1062691 -0.0075952969 0.40200001
0.10731714 -0.0075952969 0.40200001
0.10836518 -0.0075952969 0.40200001
0.10941322 -0.0075952969 0.40200001
0.11018648 -0.0075764032 0.40100002
0.11123192 -0.0075764032 0.40100002
0.11227734 -0.0075764032 0.40100002
0.11332278 -0.0075764032 0.40100002
0.11408299 -0.007557509 0.40000001
0.11512583 -0.007557509 0.40000001
0.11616864 -0.007557509 0.40000001
0.11691845 -0.0075386157 0.39900002
0.11795867 -0.0075386157 0.39900002
0.11870065 -0.007519722 0.39800003
0.11973827 -0.007519722 0.39800003
0.12077587 -0.007519722 0.39800003
0.12150741 -0.0075008282 0.39700001
0.12254241 -0.0075008282 0.39700001
0.12357742 -0.0075008282 0.39700001
0.12461242 -0.0075008282 0.39700001
0.12533094 -0.0074819345 0.39600003
0.12636334 -0.0074819345 0.39600003
0.12739573 -0.0074819345 0.39600003
0.12842813 -0.0074819345 0.39600003
0.12913361 -0.0074630403 0.39500001
0.1301634 -0.0074630403 0.39500001
0.13119319 -0.0074630403 0.39500001
0.13222298 -0.0074630403 0.39500001
0.13291542 -0.007444147 0.39400002
0.1339426 -0.007444147 0.39400002
0.13496979 -0.007444147 0.39400002
0.1356518 -0.0074252528 0.39300001
0.13667637 -0.0074252528 0.39300001
0.13770095 -0.0074252528 0.39300001
0.13837253 -0.0074063591 0.39200002
0.13939451 -0.0074063591 0.39200002
0.14041647 -0.0074063591 0.39200002
0.14107764 -0.0073874658 0.39100003
0.142097 -0.0073874658 0.39100003
0.14311635 -0.0073874658 0.39100003
0.14413573 -0.0073874658 0.39100003
0.14478384 -0.0073685716 0.39000002
0.14580059 -0.0073685716 0.39000002
0.14681734 -0.0073685716 0.39000002
0.14783411 -0.0073685716 0.39000002
0.14885086 -0.0073685716 0.39000002
0.14986761 -0.0073685716 0.39000002
0.15049748 -0.0073496783 0.38900003
0.15151164 -0.0073496783 0.38900003
0.15252578 -0.0073496783 0.38900003
0.15353993 -0.0073496783 0.38900003
0.15415676 -0.0073307841 0.38800001
0.15516829 -0.0073307841 0.38800001
0.15577732 -0.0073118904 0.38700002
0.15678625 -0.0073118904 0.38700002
0.15779519 -0.0073118904 0.38700002
0.15880412 -0.0073118904 0.38700002
0.15981306 -0.0073118904 0.38700002
0.16082199 -0.0073118904 0.38700002
0.16141275 -0.0072929966 0.38600001
0.16241907 -0.0072929966 0.38600001
0.1634254 -0.0072929966 0.38600001
0.16443172 -0.0072929966 0.38600001
0.16500947 -0.0072741029 0.38500002
0.1660132 -0.0072741029 0.38500002
0.16701691 -0.0072741029 0.38500002
0.16758421 -0.0072552087 0.384
0.16858532 -0.0072552087 0.384
0.16958642 -0.0072552087 0.384
0.17058754 -0.0072552087 0.384
0.17114182 -0.0072363154 0.38300002
0.17214032 -0.0072363154 0.38300002
0.17313883 -0.0072363154 0.38300002
0.17413732 -0.0072363154 0.38300002
0.17467856 -0.0072174217 0.38200003
0.17567445 -0.0072174217 0.38200003
0.17667036 -0.0072174217 0.38200003
-0.28197849 -0.0082085012 0.50400001
-0.28066453 -0.0082085012 0.50400001
-0.27879632 -0.0081922151 0.50300002
-0.27748495 -0.0081922151 0.50300002
-0.27562454 -0.0081759281 0.50200003
-0.2743158 -0.0081759281 0.50200003
-0.27246323 -0.0081596421 0.50100005
-0.27115712 -0.0081596421 0.50100005
-0.26985094 -0.0081596421 0.50100005
-0.26800877 -0.0081433542 0.5
-0.26670524 -0.0081433542 0.5
-0.26540172 -0.0081433542 0.5
-0.26356998 -0.0081270682 0.49900001
-0.26226905 -0.0081270682 0.49900001
-0.26096815 -0.0081270682 0.49900001
-0.25966722 -0.0081270682 0.49900001
-0.25784853 -0.0081107812 0.49800003
-0.25603503 -0.0080944942 0.49700001
-0.25473934 -0.0080944942 0.49700001
-0.2534436 -0.0080944942 0.49700001
-0.25164056 -0.0080782073 0.49600002
-0.24984275 -0.0080619212 0.49500003
-0.24855226 -0.0080619212 0.49500003
-0.24676223 -0.0080456343 0.49400002
-0.24547434 -0.0080456343 0.49400002
-0.24369216 -0.0080293473 0.49300003
-0.24240686 -0.0080293473 0.49300003
-0.24112159 -0.0080293473 0.49300003
-0.23934981 -0.0080130603 0.49200001
-0.23806712 -0.0080130603 0.49200001
-0.23678446 -0.0080130603 0.49200001
-0.23502313 -0.0079967743 0.49100003
-0.23374306 -0.0079967743 0.49100003
-0.23246299 -0.0079967743 0.49100003
-0.23118292 -0.0079967743 0.49100003
-0.22990285 -0.0079967743 0.49100003
-0.22815715 -0.0079804873 0.49000001
-0.22687969 -0.0079804873 0.49000001
-0.22514182 -0.0079642003 0.48900002
-0.22386697 -0.0079642003 0.48900002
-0.22259212 -0.0079642003 0.48900002
-0.22086467 -0.0079479143 0.48800004
-0.21959242 -0.0079479143 0.48800004
-0.21832018 -0.0079479143 0.48800004
-0.21660315 -0.0079316273 0.48700002
-0.21489136 -0.0079153404 0.48600003
-0.21362431 -0.0079153404 0.48600003
-0.21192034 -0.0078990534 0.48500001
-0.21022157 -0.0078827674 0.48400003
-0.20895976 -0.0078827674 0.48400003
-0.20726879 -0.0078664804 0.48300001
-0.2060096 -0.0078664804 0.48300001
-0.20475037 -0.0078664804 0.48300001
-0.20306987 -0.0078501934 0.48200002
-0.20181325 -0.0078501934 0.48200002
-0.20014055 -0.0078339074 0.48100004
-0.19888657 -0.0078339074 0.48100004
-0.19763257 -0.0078339074 0.48100004
-0.19637857 -0.0078339074 0.48100004
-0.1947189 -0.0078176204 0.48000002
-0.19346751 -0.0078176204 0.48000002
-0.19221611 -0.0078176204 0.48000002
-0.19096473 -0.0078176204 0.48000002
-0.18931811 -0.0078013339 0.47900003
-0.18806933 -0.0078013339 0.47900003
-0.18643051 -0.0077850469 0.47800002
-0.18518434 -0.0077850469 0.47800002
-0.18393816 -0.0077850469 0.47800002
-0.18269198 -0.0077850469 0.47800002
-0.18106622 -0.0077687604 0.47700003
-0.17982264 -0.0077687604 0.47700003
-0.1782047 -0.0077524735 0.47600001
-0.17696373 -0.0077524735 0.47600001
-0.17535362 -0.007736187 0.47500002
-0.17411526 -0.007736187 0.47500002
-0.17287691 -0.007736187 0.47500002
-0.1712772 -0.0077199005 0.47400004
-0.17004146 -0.0077199005 0.47400004
-0.1688057 -0.0077199005 0.47400004
-0.16721644 -0.0077036135 0.47300002
-0.16598329 -0.0077036135 0.47300002
-0.16475014 -0.0077036135 0.47300002
-0.16317131 -0.007687327 0.47200003
-0.16194077 -0.007687327 0.47200003
-0.16036975 -0.00767104 0.47100002
-0.15914181 -0.00767104 0.47100002
-0.15791389 -0.00767104 0.47100002
-0.15635329 -0.0076547535 0.47000003
-0.15512799 -0.0076547535 0.47000003
-0.15390266 -0.0076547535 0.47000003
-0.1523525 -0.0076384665 0.46900001
-0.15112978 -0.0076384665 0.46900001
-0.14990707 -0.0076384665 0.46900001
-0.14836733 -0.00762218 0.46800002
-0.14714722 -0.00762218 0.46800002
-0.14561531 -0.0076058931 0.46700001
-0.14439781 -0.0076058931 0.46700001
-0.14287372 -0.0075896066 0.46600002
-0.14165883 -0.0075896066 0.46600002
-0.14044394 -0.0075896066 0.46600002
-0.13893026 -0.0075733201 0.46500003
-0.13771799 -0.0075733201 0.46500003
-0.090606987 -0.0066124038 0.40600002
-0.08976908 -0.0066286903 0.40700001
-0.088708006 -0.0066286903 0.40700001
-0.087862283 -0.0066449773 0.40800002
-0.086798601 -0.0066449773 0.40800002
-0.085945055 -0.0066612638 0.40900001
-0.084878765 -0.0066612638 0.40900001
-0.083812475 -0.0066612638 0.40900001
-0.082746185 -0.0066612638 0.40900001
-0.08148019 -0.0066449773 0.40800002
-0.080416508 -0.0066449773 0.40800002
-0.079352826 -0.0066449773 0.40800002
-0.078289144 -0.0066449773 0.40800002
-0.077414736 -0.0066612638 0.40900001
-0.076535121 -0.0066775507 0.41000003
-0.07565029 -0.0066938372 0.41100001
-0.074760243 -0.0067101242 0.41200003
-0.074043833 -0.0067426977 0.41400003
-0.073316991 -0.0067752707 0.41600001
-0.072579727 -0.0068078442 0.41800001
-0.071832031 -0.0068404176 0.42000002
-0.071073912 -0.0068729911 0.42200002
-0.070305362 -0.0069055646 0.42400002
-0.069689579 -0.0069544245 0.42700002
-0.068897568 -0.006986998 0.42900002
-0.068095125 -0.0070195715 0.43100002
-0.067282252 -0.0070521454 0.43300003
-0.066458955 -0.0070847189 0.43500003
-0.065775394 -0.0071335789 0.43800002
-0.064928636 -0.0071661524 0.44000003
-0.063926481 -0.0071824389 0.44100001
-0.063061468 -0.0072150123 0.44300002
-0.062046286 -0.0072312993 0.44400004
-0.060888752 -0.0072312993 0.44400004
-0.059865743 -0.0072475858 0.44500002
-0.058705602 -0.0072475858 0.44500002
-0.057545453 -0.0072475858 0.44500002
-0.0562586 -0.0072312993 0.44400004
-0.055101071 -0.0072312993 0.44400004
-0.053822037 -0.0072150123 0.44300002
-0.052667104 -0.0072150123 0.44300002
-0.051395897 -0.0071987258 0.44200003
-0.050243575 -0.0071987258 0.44200003
-0.048980188 -0.0071824389 0.44100001
-0.04783047 -0.0071824389 0.44100001
-0.046574906 -0.0071661524 0.44000003
-0.045427795 -0.0071661524 0.44000003
-0.044280689 -0.0071661524 0.44000003
-0.043035548 -0.0071498654 0.43900001
-0.041891046 -0.0071498654 0.43900001
-0.040746547 -0.0071498654 0.43900001
-0.039511837 -0.0071335789 0.43800002
-0.038369942 -0.0071335789 0.43800002
-0.037228048 -0.0071335789 0.43800002
-0.036086153 -0.0071335789 0.43800002
-0.034944262 -0.0071335789 0.43800002
-0.033802368 -0.0071335789 0.43800002
-0.032660473 -0.0071335789 0.43800002
-0.031446621 -0.0071172919 0.43700001
-0.03030733 -0.0071172919 0.43700001
-0.029168043 -0.0071172919 0.43700001
-0.028028756 -0.0071172919 0.43700001
-0.026827939 -0.0071010054 0.43600002
-0.02569126 -0.0071010054 0.43600002
-0.024554579 -0.0071010054 0.43600002
-0.02336419 -0.0070847189 0.43500003
-0.022230119 -0.0070847189 0.43500003
-0.021096043 -0.0070847189 0.43500003
-0.019916082 -0.0070684315 0.43400002
-0.018784616 -0.0070684315 0.43400002
-0.017653149 -0.0070684315 0.43400002
-0.016521685 -0.0070684315 0.43400002
-0.015390219 -0.0070684315 0.43400002
-0.0142259 -0.0070521454 0.43300003
-0.01309704 -0.0070521454 0.43300003
-0.011940542 -0.007035858 0.43200001
-0.01081429 -0.007035858 0.43200001
-0.0096880384 -0.007035858 0.43200001
-0.0085419677 -0.0070195715 0.43100002
-0.0074183233 -0.0070195715 0.43100002
-0.0062946789 -0.0070195715 0.43100002
-0.0051590367 -0.0070032845 0.43000001
-0.0040379995 -0.0070032845 0.43000001
-0.0029169621 -0.0070032845 0.43000001
-0.0017917481 -0.006986998 0.42900002
-0.0006733177 -0.006986998 0.42900002
0.00044511264 -0.006986998 0.42900002
0.0015598984 -0.0069707115 0.42800003
0.0026757217 -0.0069707115 0.42800003
0.0037915451 -0.0069707115 0.42800003
0.0049073682 -0.0069707115 0.42800003
0.0060231914 -0.0069707115 0.42800003
0.007139015 -0.0069707115 0.42800003
0.0082355505 -0.0069544245 0.42700002
0.0093487669 -0.0069544245 0.42700002
0.010461983 -0.0069544245 0.42700002
0.0115752 -0.0069544245 0.42700002
0.012688416 -0.0069544245 0.42700002
0.01376931 -0.006938138 0.42600003
0.014879919 -0.006938138 0.42600003
0.015990529 -0.006938138 0.42600003
0.017060993 -0.0069218511 0.42500001
0.018168995 -0.0069218511 0.42500001
0.019276997 -0.0069218511 0.42500001
0.020337036 -0.0069055646 0.42400002
0.02144243 -0.0069055646 0.42400002
0.022547826 -0.0069055646 0.42400002
0.023597434 -0.0068892776 0.42300001
0.024700221 -0.0068892776 0.42300001
0.025803011 -0.0068892776 0.42300001
0.02684219 -0.0068729911 0.42200002
0.027942372 -0.0068729911 0.42200002
0.029042553 -0.0068729911 0.42200002
0.030071307 -0.0068567046 0.42100003
0.03116888 -0.0068567046 0.42100003
0.032266453 -0.0068567046 0.42100003
0.033284776 -0.0068404176 0.42000002
0.034379747 -0.0068404176 0.42000002
0.03547471 -0.0068404176 0.42000002
0.03648261 -0.0068241311 0.41900003
0.037574969 -0.0068241311 0.41900003
0.038667329 -0.0068241311 0.41900003
0.039759688 -0.0068241311 0.41900003
0.040852044 -0.0068241311 0.41900003
0.041844301 -0.0068078442 0.41800001
0.042934053 -0.0068078442 0.41800001
0.044023804 -0.0068078442 0.41800001
0.045005631 -0.0067915577 0.41700003
0.045982242 -0.0067752707 0.41600001
0.047066778 -0.0067752707 0.41600001
0.048151318 -0.0067752707 0.41600001
0.049117502 -0.0067589842 0.41500002
0.050199434 -0.0067589842 0.41500002
0.051157799 -0.0067426977 0.41400003
0.05223712 -0.0067426977 0.41400003
0.053187661 -0.0067264107 0.41300002
0.054264378 -0.0067264107 0.41300002
0.055341095 -0.0067264107 0.41300002
0.056417808 -0.0067264107 0.41300002
0.057494525 -0.0067264107 0.41300002
0.058571249 -0.0067264107 0.41300002
0.059647966 -0.0067264107 0.41300002
0.060724683 -0.0067264107 0.41300002
0.0618014 -0.0067264107 0.41300002
0.062878117 -0.0067264107 0.41300002
0.063799985 -0.0067101242 0.41200003
0.06487409 -0.0067101242 0.41200003
0.065788127 -0.0066938372 0.41100001
0.066859633 -0.0066938372 0.41100001
0.067931138 -0.0066938372 0.41100001
0.069002636 -0.0066938372 0.41100001
0.069903649 -0.0066775507 0.41000003
0.070972539 -0.0066775507 0.41000003
0.072041444 -0.0066775507 0.41000003
0.073110342 -0.0066775507 0.41000003
0.074179232 -0.0066775507 0.41000003
0.07524813 -0.0066775507 0.41000003
0.076317027 -0.0066775507 0.41000003
0.077385925 -0.0066775507 0.41000003
0.078263462 -0.0066612638 0.40900001
0.079329751 -0.0066612638 0.40900001
0.080199473 -0.0066449773 0.40800002
0.081263155 -0.0066449773 0.40800002
0.082326837 -0.0066449773 0.40800002
0.083186127 -0.0066286903 0.40700001
0.084247202 -0.0066286903 0.40700001
0.085308284 -0.0066286903 0.40700001
0.086369358 -0.0066286903 0.40700001
0.087430432 -0.0066286903 0.40700001
0.088274084 -0.0066124038 0.40600002
0.089332551 -0.0066124038 0.40600002
0.090391017 -0.0066124038 0.40600002
0.091449484 -0.0066124038 0.40600002
0.092280105 -0.0065961173 0.40500003
0.093335964 -0.0065961173 0.40500003
0.094391823 -0.0065961173 0.40500003
0.095212005 -0.0065798303 0.40400001
0.096265264 -0.0065798303 0.40400001
0.09707763 -0.0065635438 0.40300003
0.098128282 -0.0065635438 0.40300003
0.099178925 -0.0065635438 0.40300003
0.10022958 -0.0065635438 0.40300003
0.10128021 -0.0065635438 0.40300003
0.10233087 -0.0065635438 0.40300003
0.10338151 -0.0065635438 0.40300003
0.10417302 -0.0065472568 0.40200001
0.10548281 -0.0065635438 0.40300003
0.10653345 -0.0065635438 0.40300003
0.10731714 -0.0065472568 0.40200001
0.10836518 -0.0065472568 0.40200001
0.10941322 -0.0065472568 0.40200001
0.11018648 -0.0065309703 0.40100002
0.11123192 -0.0065309703 0.40100002
0.11227734 -0.0065309703 0.40100002
0.11332278 -0.0065309703 0.40100002
0.11408299 -0.0065146834 0.40000001
0.11512583 -0.0065146834 0.40000001
0.11616864 -0.0065146834 0.40000001
0.11691845 -0.0064983969 0.39900002
0.11795867 -0.0064983969 0.39900002
0.11899889 -0.0064983969 0.39900002
0.11973827 -0.0064821104 0.39800003
0.12077587 -0.0064821104 0.39800003
0.12181348 -0.0064821104 0.39800003
0.12254241 -0.0064658234 0.39700001
0.12357742 -0.0064658234 0.39700001
0.12461242 -0.0064658234 0.39700001
0.12564743 -0.0064658234 0.39700001
0.12636334 -0.0064495369 0.39600003
0.12739573 -0.0064495369 0.39600003
0.12842813 -0.0064495369 0.39600003
0.12946053 -0.0064495369 0.39600003
0.13049294 -0.0064495369 0.39600003
0.13119319 -0.0064332499 0.39500001
0.13222298 -0.0064332499 0.39500001
0.13325277 -0.0064332499 0.39500001
0.1339426 -0.0064169634 0.39400002
0.13496979 -0.0064169634 0.39400002
0.1356518 -0.0064006764 0.39300001
0.13667637 -0.0064006764 0.39300001
0.13770095 -0.0064006764 0.39300001
0.13837253 -0.0063843899 0.39200002
0.13939451 -0.0063843899 0.39200002
0.14041647 -0.0063843899 0.39200002
0.14143844 -0.0063843899 0.39200002
0.142097 -0.0063681034 0.39100003
0.14311635 -0.0063681034 0.39100003
0.14413573 -0.0063681034 0.39100003
0.14515509 -0.0063681034 0.39100003
0.14580059 -0.0063518165 0.39000002
0.14681734 -0.0063518165 0.39000002
0.14783411 -0.0063518165 0.39000002
0.14885086 -0.0063518165 0.39000002
0.14986761 -0.0063518165 0.39000002
0.15049748 -0.00633553 0.38900003
0.15151164 -0.00633553 0.38900003
0.15252578 -0.00633553 0.38900003
0.15353993 -0.00633553 0.38900003
0.15415676 -0.006319243 0.38800001
0.15516829 -0.006319243 0.38800001
0.15617985 -0.006319243 0.38800001
0.15678625 -0.0063029565 0.38700002
0.15779519 -0.0063029565 0.38700002
0.15880412 -0.0063029565 0.38700002
0.15981306 -0.0063029565 0.38700002
0.16082199 -0.0063029565 0.38700002
0.16183093 -0.0063029565 0.38700002
0.16241907 -0.0062866695 0.38600001
0.1634254 -0.0062866695 0.38600001
0.16443172 -0.0062866695 0.38600001
0.16500947 -0.006270383 0.38500002
0.1660132 -0.006270383 0.38500002
0.16701691 -0.006270383 0.38500002
0.16802062 -0.006270383 0.38500002
0.16858532 -0.006254096 0.384
0.16958642 -0.006254096 0.384
0.17058754 -0.006254096 0.384
0.17114182 -0.0062378095 0.38300002
0.17214032 -0.0062378095 0.38300002
0.17313883 -0.0062378095 0.38300002
0.17413732 -0.0062378095 0.38300002
0.17467856 -0.006221523 0.38200003
0.17567445 -0.006221523 0.38200003
0.17667036 -0.006221523 0.38200003
-0.28197849 -0.006894541 0.50400001
-0.28066453 -0.006894541 0.50400001
-0.27879632 -0.0068808617 0.50300002
-0.27748495 -0.0068808617 0.50300002
-0.27562454 -0.0068671824 0.50200003
-0.2743158 -0.0068671824 0.50200003
-0.27246323 -0.0068535027 0.50100005
-0.27115712 -0.0068535027 0.50100005
-0.26985094 -0.0068535027 0.50100005
-0.26854482 -0.0068535027 0.50100005
-0.26670524 -0.0068398225 0.5
-0.26540172 -0.0068398225 0.5
-0.26409817 -0.0068398225 0.5
-0.26226905 -0.0068261432 0.49900001
-0.26096815 -0.0068261432 0.49900001
-0.25966722 -0.0068261432 0.49900001
-0.25784853 -0.0068124635 0.49800003
-0.25655022 -0.0068124635 0.49800003
-0.25473934 -0.0067987838 0.49700001
-0.2534436 -0.0067987838 0.49700001
-0.25164056 -0.0067851041 0.49600002
-0.25034747 -0.0067851041 0.49600002
-0.24855226 -0.0067714248 0.49500003
-0.24726176 -0.0067714248 0.49500003
-0.24547434 -0.0067577451 0.49400002
-0.24418645 -0.0067577451 0.49400002
-0.24240686 -0.0067440653 0.49300003
-0.24112159 -0.0067440653 0.49300003
-0.23983631 -0.0067440653 0.49300003
-0.23806712 -0.0067303856 0.49200001
-0.23678446 -0.0067303856 0.49200001
-0.23550178 -0.0067303856 0.49200001
-0.23374306 -0.0067167059 0.49100003
-0.23246299 -0.0067167059 0.49100003
-0.23118292 -0.0067167059 0.49100003
-0.22990285 -0.0067167059 0.49100003
-0.22862279 -0.0067167059 0.49100003
-0.22687969 -0.0067030261 0.49000001
-0.22560224 -0.0067030261 0.49000001
-0.22386697 -0.0066893469 0.48900002
-0.22259212 -0.0066893469 0.48900002
-0.22131726 -0.0066893469 0.48900002
-0.21959242 -0.0066756671 0.48800004
-0.21832018 -0.0066756671 0.48800004
-0.21660315 -0.0066619874 0.48700002
-0.21533352 -0.0066619874 0.48700002
-0.21362431 -0.0066483081 0.48600003
-0.2123573 -0.0066483081 0.48600003
-0.2106559 -0.0066346279 0.48500001
-0.20895976 -0.0066209487 0.48400003
-0.20769793 -0.0066209487 0.48400003
-0.2060096 -0.0066072685 0.48300001
-0.20475037 -0.0066072685 0.48300001
-0.20349117 -0.0066072685 0.48300001
-0.20181325 -0.0065935892 0.48200002
-0.20055665 -0.0065935892 0.48200002
-0.19888657 -0.0065799099 0.48100004
-0.19763257 -0.0065799099 0.48100004
-0.19637857 -0.0065799099 0.48100004
-0.19512457 -0.0065799099 0.48100004
-0.19346751 -0.0065662297 0.48000002
-0.19221611 -0.0065662297 0.48000002
-0.19096473 -0.0065662297 0.48000002
-0.18971334 -0.0065662297 0.48000002
-0.18806933 -0.0065525505 0.47900003
-0.18682054 -0.0065525505 0.47900003
-0.18557176 -0.0065525505 0.47900003
-0.18393816 -0.0065388707 0.47800002
-0.18269198 -0.0065388707 0.47800002
-0.18106622 -0.006525191 0.47700003
-0.17982264 -0.006525191 0.47700003
-0.17857908 -0.006525191 0.47700003
-0.17696373 -0.0065115113 0.47600001
-0.17572278 -0.0065115113 0.47600001
-0.17411526 -0.0064978315 0.47500002
-0.17287691 -0.0064978315 0.47500002
-0.1712772 -0.0064841523 0.47400004
-0.17004146 -0.0064841523 0.47400004
-0.1688057 -0.0064841523 0.47400004
-0.16756997 -0.0064841523 0.47400004
-0.16598329 -0.0064704726 0.47300002
-0.16475014 -0.0064704726 0.47300002
-0.16351701 -0.0064704726 0.47300002
-0.16194077 -0.0064567928 0.47200003
-0.16071025 -0.0064567928 0.47200003
-0.15914181 -0.0064431131 0.47100002
-0.15791389 -0.0064431131 0.47100002
-0.15668596 -0.0064431131 0.47100002
-0.15512799 -0.0064294334 0.47000003
-0.15390266 -0.0064294334 0.47000003
-0.15267734 -0.0064294334 0.47000003
-0.15112978 -0.0064157536 0.46900001
-0.14990707 -0.0064157536 0.46900001
-0.14868435 -0.0064157536 0.46900001
-0.14714722 -0.0064020744 0.46800002
-0.14592712 -0.0064020744 0.46800002
-0.14439781 -0.0063883942 0.46700001
-0.14318031 -0.0063883942 0.46700001
-0.14196281 -0.0063883942 0.46700001
-0.14044394 -0.0063747149 0.46600002
-0.13922904 -0.0063747149 0.46600002
-0.13801415 -0.0063747149 0.46600002
-0.089989647 -0.0055812956 0.40800002
-0.089143917 -0.0055949748 0.40900001
-0.088077627 -0.0055949748 0.40900001
-0.087011337 -0.0055949748 0.40900001
-0.086155191 -0.005608655 0.41000003
-0.085086294 -0.005608655 0.41000003
-0.084017396 -0.005608655 0.41000003
-0.082746185 -0.0055949748 0.40900001
-0.081679896 -0.0055949748 0.40900001
-0.080416508 -0.0055812956 0.40800002
-0.079352826 -0.0055812956 0.40800002
-0.078481026 -0.0055949748 0.40900001
-0.077414736 -0.0055949748 0.40900001
-0.076535121 -0.005608655 0.41000003
-0.07565029 -0.0056223343 0.41100001
-0.074941702 -0.0056496938 0.41300002
-0.074222684 -0.0056770528 0.41500002
-0.073316991 -0.0056907325 0.41600001
-0.072753362 -0.0057317717 0.41900003
-0.071832031 -0.005745451 0.42000002
-0.071073912 -0.0057728104 0.42200002
-0.070471175 -0.0058138492 0.42500001
-0.069689579 -0.0058412086 0.42700002
-0.068897568 -0.0058685681 0.42900002
-0.068095125 -0.0058959275 0.43100002
-0.067282252 -0.0059232865 0.43300003
-0.06661173 -0.0059643253 0.43600002
-0.065775394 -0.0059916847 0.43800002
-0.064928636 -0.0060190442 0.44000003
-0.064071439 -0.0060464037 0.44200003
-0.063203827 -0.0060737627 0.44400004
-0.062046286 -0.0060737627 0.44400004
-0.061025888 -0.0060874424 0.44500002
-0.059865743 -0.0060874424 0.44500002
-0.058705602 -0.0060874424 0.44500002
-0.057545453 -0.0060874424 0.44500002
-0.0562586 -0.0060737627 0.44400004
-0.055101071 -0.0060737627 0.44400004
-0.053943533 -0.0060737627 0.44400004
-0.052667104 -0.0060600829 0.44300002
-0.051512174 -0.0060600829 0.44300002
-0.050243575 -0.0060464037 0.44200003
-0.049091253 -0.0060464037 0.44200003
-0.04783047 -0.0060327235 0.44100001
-0.046680756 -0.0060327235 0.44100001
-0.045427795 -0.0060190442 0.44000003
-0.044280689 -0.0060190442 0.44000003
-0.043133579 -0.0060190442 0.44000003
-0.041891046 -0.0060053645 0.43900001
-0.040746547 -0.0060053645 0.43900001
-0.039602045 -0.0060053645 0.43900001
-0.038369942 -0.0059916847 0.43800002
-0.037228048 -0.0059916847 0.43800002
-0.036086153 -0.0059916847 0.43800002
-0.034944262 -0.0059916847 0.43800002
-0.033802368 -0.0059916847 0.43800002
-0.032660473 -0.0059916847 0.43800002
-0.031518582 -0.0059916847 0.43800002
-0.030376684 -0.0059916847 0.43800002
-0.029168043 -0.005978005 0.43700001
-0.028028756 -0.005978005 0.43700001
-0.026889471 -0.005978005 0.43700001
-0.02569126 -0.0059643253 0.43600002
-0.024554579 -0.0059643253 0.43600002
-0.023417899 -0.0059643253 0.43600002
-0.022230119 -0.005950646 0.43500003
-0.021096043 -0.005950646 0.43500003
-0.019961972 -0.005950646 0.43500003
-0.018784616 -0.0059369663 0.43400002
-0.017653149 -0.0059369663 0.43400002
-0.016521685 -0.0059369663 0.43400002
-0.015390219 -0.0059369663 0.43400002
-0.014258754 -0.0059369663 0.43400002
-0.01309704 -0.0059232865 0.43300003
-0.011968182 -0.0059232865 0.43300003
-0.010839324 -0.0059232865 0.43300003
-0.0096880384 -0.0059096068 0.43200001
-0.0085617872 -0.0059096068 0.43200001
-0.0074183233 -0.0058959275 0.43100002
-0.0062946789 -0.0058959275 0.43100002
-0.0051590367 -0.0058822474 0.43000001
-0.0040379995 -0.0058822474 0.43000001
-0.0029169621 -0.0058822474 0.43000001
-0.0017917481 -0.0058685681 0.42900002
-0.0006733177 -0.0058685681 0.42900002
0.00044511264 -0.0058685681 0.42900002
0.001563543 -0.0058685681 0.42900002
0.0026757217 -0.0058548884 0.42800003
0.0037915451 -0.0058548884 0.42800003
0.0049073682 -0.0058548884 0.42800003
0.0060231914 -0.0058548884 0.42800003
0.007139015 -0.0058548884 0.42800003
0.0082548382 -0.0058548884 0.42800003
0.0093706613 -0.0058548884 0.42800003
0.010461983 -0.0058412086 0.42700002
0.0115752 -0.0058412086 0.42700002
0.012688416 -0.0058412086 0.42700002
0.013801632 -0.0058412086 0.42700002
0.014879919 -0.0058275294 0.42600003
0.015990529 -0.0058275294 0.42600003
0.017060993 -0.0058138492 0.42500001
0.018168995 -0.0058138492 0.42500001
0.019276997 -0.0058138492 0.42500001
0.020384999 -0.0058138492 0.42500001
0.02144243 -0.0058001699 0.42400002
0.022547826 -0.0058001699 0.42400002
0.02365322 -0.0058001699 0.42400002
0.024700221 -0.0057864902 0.42300001
0.025803011 -0.0057864902 0.42300001
0.02684219 -0.0057728104 0.42200002
0.027942372 -0.0057728104 0.42200002
0.029042553 -0.0057728104 0.42200002
0.030142734 -0.0057728104 0.42200002
0.03116888 -0.0057591312 0.42100003
0.032266453 -0.0057591312 0.42100003
0.033364028 -0.0057591312 0.42100003
0.034379747 -0.005745451 0.42000002
0.03547471 -0.005745451 0.42000002
0.036569677 -0.005745451 0.42000002
0.037664644 -0.005745451 0.42000002
0.038759612 -0.005745451 0.42000002
0.039759688 -0.0057317717 0.41900003
0.040852044 -0.0057317717 0.41900003
0.041944407 -0.0057317717 0.41900003
0.042934053 -0.005718092 0.41800001
0.044023804 -0.005718092 0.41800001
0.045005631 -0.0057044122 0.41700003
0.045982242 -0.0056907325 0.41600001
0.047066778 -0.0056907325 0.41600001
0.048151318 -0.0056907325 0.41600001
0.049117502 -0.0056770528 0.41500002
0.050199434 -0.0056770528 0.41500002
0.051157799 -0.0056633735 0.41400003
0.05223712 -0.0056633735 0.41400003
0.053316444 -0.0056633735 0.41400003
0.054395769 -0.0056633735 0.41400003
0.055475093 -0.0056633735 0.41400003
0.056417808 -0.0056496938 0.41300002
0.057494525 -0.0056496938 0.41300002
0.058571249 -0.0056496938 0.41300002
0.059647966 -0.0056496938 0.41300002
0.060724683 -0.0056496938 0.41300002
0.0618014 -0.0056496938 0.41300002
0.062878117 -0.0056496938 0.41300002
0.06395483 -0.0056496938 0.41300002
0.06487409 -0.005636014 0.41200003
0.065948203 -0.005636014 0.41200003
0.066859633 -0.0056223343 0.41100001
0.067931138 -0.0056223343 0.41100001
0.069002636 -0.0056223343 0.41100001
0.070074141 -0.0056223343 0.41100001
0.070972539 -0.005608655 0.41000003
0.072041444 -0.005608655 0.41000003
0.073110342 -0.005608655 0.41000003
0.074179232 -0.005608655 0.41000003
0.07524813 -0.005608655 0.41000003
0.076317027 -0.005608655 0.41000003
0.077385925 -0.005608655 0.41000003
0.078454815 -0.005608655 0.41000003
0.079329751 -0.0055949748 0.40900001
0.080199473 -0.0055812956 0.40800002
0.081263155 -0.0055812956 0.40800002
0.082326837 -0.0055812956 0.40800002
0.083390519 -0.0055812956 0.40800002
0.084247202 -0.0055676154 0.40700001
0.085308284 -0.0055676154 0.40700001
0.086369358 -0.0055676154 0.40700001
0.087430432 -0.0055676154 0.40700001
0.088491507 -0.0055676154 0.40700001
0.089552581 -0.0055676154 0.40700001
0.090391017 -0.0055539361 0.40600002
0.091449484 -0.0055539361 0.40600002
0.092507951 -0.0055539361 0.40600002
0.093335964 -0.0055402569 0.40500003
0.094391823 -0.0055402569 0.40500003
0.095212005 -0.0055265767 0.40400001
0.096265264 -0.0055265767 0.40400001
0.097318515 -0.0055265767 0.40400001
0.098128282 -0.0055128974 0.40300003
0.099178925 -0.0055128974 0.40300003
0.10022958 -0.0055128974 0.40300003
0.10128021 -0.0055128974 0.40300003
0.10233087 -0.0055128974 0.40300003
0.10338151 -0.0055128974 0.40300003
0.10443216 -0.0055128974 0.40300003
0.10548281 -0.0055128974 0.40300003
0.10653345 -0.0055128974 0.40300003
0.1075841 -0.0055128974 0.40300003
0.10836518 -0.0054992177 0.40200001
0.10941322 -0.0054992177 0.40200001
0.11046125 -0.0054992177 0.40200001
0.11123192 -0.0054855379 0.40100002
0.11227734 -0.0054855379 0.40100002
0.11332278 -0.0054855379 0.40100002
0.11408299 -0.0054718582 0.40000001
0.11512583 -0.0054718582 0.40000001
0.11616864 -0.0054718582 0.40000001
0.11721148 -0.0054718582 0.40000001
0.11795867 -0.0054581785 0.39900002
0.11899889 -0.0054581785 0.39900002
0.11973827 -0.0054444992 0.39800003
0.12077587 -0.0054444992 0.39800003
0.12181348 -0.0054444992 0.39800003
0.12285109 -0.0054444992 0.39800003
0.12357742 -0.0054308195 0.39700001
0.12461242 -0.0054308195 0.39700001
0.12564743 -0.0054308195 0.39700001
0.12668243 -0.0054308195 0.39700001
0.12771744 -0.0054308195 0.39700001
0.12842813 -0.0054171397 0.39600003
0.12946053 -0.0054171397 0.39600003
0.13049294 -0.0054171397 0.39600003
0.13152532 -0.0054171397 0.39600003
0.13222298 -0.00540346 0.39500001
0.13325277 -0.00540346 0.39500001
0.13428256 -0.00540346 0.39500001
0.13496979 -0.0053897803 0.39400002
0.1356518 -0.0053761005 0.39300001
0.13667637 -0.0053761005 0.39300001
0.13770095 -0.0053761005 0.39300001
0.13837253 -0.0053624213 0.39200002
0.13939451 -0.0053624213 0.39200002
0.14041647 -0.0053624213 0.39200002
0.14143844 -0.0053624213 0.39200002
0.142097 -0.0053487415 0.39100003
0.14311635 -0.0053487415 0.39100003
0.14413573 -0.0053487415 0.39100003
0.14478384 -0.0053350618 0.39000002
0.14580059 -0.0053350618 0.39000002
0.14681734 -0.0053350618 0.39000002
0.14783411 -0.0053350618 0.39000002
0.14885086 -0.0053350618 0.39000002
0.14948334 -0.0053213821 0.38900003
0.15049748 -0.0053213821 0.38900003
0.15151164 -0.0053213821 0.38900003
0.15252578 -0.0053213821 0.38900003
0.15353993 -0.0053213821 0.38900003
0.15415676 -0.0053077023 0.38800001
0.15516829 -0.0053077023 0.38800001
0.15617985 -0.0053077023 0.38800001
0.15719138 -0.0053077023 0.38800001
0.15779519 -0.0052940231 0.38700002
0.15880412 -0.0052940231 0.38700002
0.15981306 -0.0052940231 0.38700002
0.16082199 -0.0052940231 0.38700002
0.16183093 -0.0052940231 0.38700002
0.16283986 -0.0052940231 0.38700002
0.1634254 -0.0052803429 0.38600001
0.16443172 -0.0052803429 0.38600001
0.16543806 -0.0052803429 0.38600001
0.1660132 -0.0052666636 0.38500002
0.16701691 -0.0052666636 0.38500002
0.16802062 -0.0052666636 0.38500002
0.16902435 -0.0052666636 0.38500002
0.16958642 -0.0052529839 0.384
0.17058754 -0.0052529839 0.384
0.17158864 -0.0052529839 0.384
0.17214032 -0.0052393042 0.38300002
0.17313883 -0.0052393042 0.38300002
0.17413732 -0.0052393042 0.38300002
0.17513584 -0.0052393042 0.38300002
0.17567445 -0.0052256249 0.38200003
0.17667036 -0.0052256249 0.38200003
-0.28253797 -0.0055916538 0.505
-0.28066453 -0.0055805813 0.50400001
-0.27935058 -0.0055805813 0.50400001
-0.27748495 -0.0055695088 0.50300002
-0.27617359 -0.0055695088 0.50300002
-0.2743158 -0.0055584363 0.50200003
-0.27300707 -0.0055584363 0.50200003
-0.27115712 -0.0055473638 0.50100005
-0.26985094 -0.0055473638 0.50100005
-0.26854482 -0.0055473638 0.50100005
-0.26723868 -0.0055473638 0.50100005
-0.26540172 -0.0055362908 0.5
-0.26409817 -0.0055362908 0.5
-0.26226905 -0.0055252183 0.49900001
-0.26096815 -0.0055252183 0.49900001
-0.25966722 -0.0055252183 0.49900001
-0.25784853 -0.0055141458 0.49800003
-0.25655022 -0.0055141458 0.49800003
-0.25473934 -0.0055030733 0.49700001
-0.2534436 -0.0055030733 0.49700001
-0.25214791 -0.0055030733 0.49700001
-0.25034747 -0.0054920008 0.49600002
-0.24855226 -0.0054809283 0.49500003
-0.24726176 -0.0054809283 0.49500003
-0.24597125 -0.0054809283 0.49500003
-0.24418645 -0.0054698554 0.49400002
-0.24289855 -0.0054698554 0.49400002
-0.24112159 -0.0054587829 0.49300003
-0.23983631 -0.0054587829 0.49300003
-0.23855101 -0.0054587829 0.49300003
-0.23678446 -0.0054477104 0.49200001
-0.23550178 -0.0054477104 0.49200001
-0.2342191 -0.0054477104 0.49200001
-0.23246299 -0.0054366379 0.49100003
-0.23118292 -0.0054366379 0.49100003
-0.22990285 -0.0054366379 0.49100003
-0.22862279 -0.0054366379 0.49100003
-0.22734271 -0.0054366379 0.49100003
-0.22560224 -0.0054255649 0.49000001
-0.22432476 -0.0054255649 0.49000001
-0.22259212 -0.0054144925 0.48900002
-0.22131726 -0.0054144925 0.48900002
-0.22004239 -0.0054144925 0.48900002
-0.21832018 -0.0054034204 0.48800004
-0.21704793 -0.0054034204 0.48800004
-0.21533352 -0.0053923475 0.48700002
-0.21406387 -0.0053923475 0.48700002
-0.2123573 -0.005381275 0.48600003
-0.21109025 -0.005381275 0.48600003
-0.20939149 -0.0053702025 0.48500001
-0.20769793 -0.00535913 0.48400003
-0.20643611 -0.00535913 0.48400003
-0.20475037 -0.005348057 0.48300001
-0.20349117 -0.005348057 0.48300001
-0.20181325 -0.0053369845 0.48200002
-0.20055665 -0.0053369845 0.48200002
-0.19888657 -0.005325912 0.48100004
-0.19763257 -0.005325912 0.48100004
-0.19637857 -0.005325912 0.48100004
-0.19512457 -0.005325912 0.48100004
-0.19387057 -0.005325912 0.48100004
-0.19221611 -0.0053148395 0.48000002
-0.19096473 -0.0053148395 0.48000002
-0.18971334 -0.0053148395 0.48000002
-0.18846196 -0.0053148395 0.48000002
-0.18682054 -0.005303767 0.47900003
-0.18557176 -0.005303767 0.47900003
-0.18432297 -0.005303767 0.47900003
-0.18269198 -0.0052926941 0.47800002
-0.18144581 -0.0052926941 0.47800002
-0.18019962 -0.0052926941 0.47800002
-0.17857908 -0.0052816216 0.47700003
-0.1773355 -0.0052816216 0.47700003
-0.17572278 -0.0052705491 0.47600001
-0.17411526 -0.0052594766 0.47500002
-0.17287691 -0.0052594766 0.47500002
-0.17163853 -0.0052594766 0.47500002
-0.17004146 -0.0052484041 0.47400004
-0.1688057 -0.0052484041 0.47400004
-0.16756997 -0.0052484041 0.47400004
-0.16633421 -0.0052484041 0.47400004
-0.16475014 -0.0052373311 0.47300002
-0.16351701 -0.0052373311 0.47300002
-0.16228385 -0.0052373311 0.47300002
-0.16071025 -0.0052262591 0.47200003
-0.15947971 -0.0052262591 0.47200003
-0.15791389 -0.0052151862 0.47100002
-0.15668596 -0.0052151862 0.47100002
-0.15512799 -0.0052041137 0.47000003
-0.15390266 -0.0052041137 0.47000003
-0.15267734 -0.0052041137 0.47000003
-0.15145202 -0.0052041137 0.47000003
-0.14990707 -0.0051930407 0.46900001
-0.14868435 -0.0051930407 0.46900001
-0.14746164 -0.0051930407 0.46900001
-0.14623892 -0.0051930407 0.46900001
-0.14470701 -0.0051819687 0.46800002
-0.14318031 -0.0051708957 0.46700001
-0.14196281 -0.0051708957 0.46700001
-0.14074531 -0.0051708957 0.46700001
-0.13922904 -0.0051598232 0.46600002
-0.13801415 -0.0051598232 0.46600002
-0.086155191 -0.0045397589 0.41000003
-0.085086294 -0.0045397589 0.41000003
