# .PCD v0.7 - Point Cloud Data file format
VERSION 0.7
FIELDS x y z
SIZE 4 4 4
TYPE F F F
COUNT 1 1 1
WIDTH 1384
HEIGHT 1
VIEWPOINT 0 0 0 1 0 0 0
POINTS 1384
DATA ascii
0.12164814 0.044437896 0.505
0.12320822 0.044525895 0.50600004
0.12452739 0.044525895 0.50600004
0.12584656 0.044525895 0.50600004
0.12716573 0.044525895 0.50600004
0.12848492 0.044525895 0.50600004
0.1300606 0.04461389 0.50700003
0.13138239 0.04461389 0.50700003
0.13270418 0.04461389 0.50700003
0.13402596 0.04461389 0.50700003
0.13561469 0.044701885 0.50800002
0.13693908 0.044701885 0.50800002
0.13853565 0.044789881 0.509
0.13986263 0.044789881 0.509
0.14118963 0.044789881 0.509
0.14279662 0.044877879 0.51000005
0.14412624 0.044877879 0.51000005
0.14574103 0.044965874 0.51100004
0.14707325 0.044965874 0.51100004
0.14869587 0.045053869 0.51200002
0.15003069 0.045053869 0.51200002
0.15166114 0.045141865 0.51300001
0.15299857 0.045141865 0.51300001
0.15463684 0.04522986 0.514
0.15597686 0.04522986 0.514
0.15762298 0.045317858 0.51500005
0.1589656 0.045317858 0.51500005
0.16061953 0.045405854 0.51600003
0.16196476 0.045405854 0.51600003
0.16362651 0.045493849 0.51700002
0.16497435 0.045493849 0.51700002
0.1666439 0.045581844 0.51800001
0.16799437 0.045581844 0.51800001
0.16934483 0.045581844 0.51800001
0.17069529 0.045581844 0.51800001
0.17204574 0.045581844 0.51800001
0.17373097 0.045669843 0.51900005
0.17508402 0.045669843 0.51900005
0.17677705 0.045757838 0.52000004
0.17813271 0.045757838 0.52000004
0.17948839 0.045757838 0.52000004
0.18084405 0.045757838 0.52000004
0.18255012 0.045845833 0.52100003
0.18390839 0.045845833 0.52100003
0.18526667 0.045845833 0.52100003
0.18698315 0.045933828 0.52200001
0.18834405 0.045933828 0.52200001
0.19006835 0.046021823 0.523
0.19143184 0.046021823 0.523
0.19316399 0.046109822 0.52400005
0.19490132 0.046197817 0.52500004
0.19627003 0.046197817 0.52500004
0.19801518 0.046285812 0.52600002
0.19938651 0.046285812 0.52600002
0.20113948 0.046373807 0.52700001
0.20251341 0.046373807 0.52700001
0.20427421 0.046461802 0.528
0.20565073 0.046461802 0.528
0.20741938 0.046549801 0.52900004
0.20919321 0.046637796 0.53000003
0.21057497 0.046637796 0.53000003
0.21195671 0.046637796 0.53000003
0.21374097 0.046725791 0.53100002
0.21512532 0.046725791 0.53100002
0.21691741 0.046813786 0.53200001
0.21830437 0.046813786 0.53200001
0.21969132 0.046813786 0.53200001
0.22107828 0.046813786 0.53200001
0.22288343 0.046901785 0.53300005
0.22427298 0.046901785 0.53300005
0.22608593 0.04698978 0.53400004
0.2274781 0.04698978 0.53400004
0.22887027 0.04698978 0.53400004
0.23069365 0.047077775 0.53500003
0.23208842 0.047077775 0.53500003
0.23391962 0.04716577 0.53600001
0.23531699 0.04716577 0.53600001
0.23671439 0.04716577 0.53600001
0.238556 0.047253761 0.537
0.23995601 0.047253761 0.537
0.24180546 0.047341764 0.53800005
0.24320807 0.047341764 0.53800005
0.24461067 0.047341764 0.53800005
0.24647054 0.047429759 0.53900003
0.24833561 0.047517754 0.54000002
0.24974343 0.047517754 0.54000002
0.25161633 0.047605745 0.54100001
0.25302675 0.047605745 0.54100001
0.25490752 0.047693748 0.54200006
0.25632054 0.047693748 0.54200006
0.25820908 0.047781743 0.54300004
-0.23032475 0.036784779 0.40600002
-0.22983097 0.036875378 0.40700001
-0.2287699 0.036875378 0.40700001
-0.22770883 0.036875378 0.40700001
-0.22720462 0.036965985 0.40800002
-0.22614095 0.036965985 0.40800002
-0.22507727 0.036965985 0.40800002
-0.22401357 0.036965985 0.40800002
-0.22294989 0.036965985 0.40800002
-0.22188622 0.036965985 0.40800002
-0.22136377 0.037056584 0.40900001
-0.22029746 0.037056584 0.40900001
-0.21923117 0.037056584 0.40900001
-0.21816489 0.037056584 0.40900001
-0.21762942 0.03714719 0.41000003
-0.21656051 0.03714719 0.41000003
-0.21549162 0.03714719 0.41000003
-0.21442273 0.03714719 0.41000003
-0.21335384 0.03714719 0.41000003
-0.21280269 0.037237793 0.41100001
-0.2117312 0.037237793 0.41100001
-0.2106597 0.037237793 0.41100001
-0.20958817 0.037237793 0.41100001
-0.20851667 0.037237793 0.41100001
-0.20744519 0.037237793 0.41100001
-0.20687582 0.037328396 0.41200003
-0.20580171 0.037328396 0.41200003
-0.20472759 0.037328396 0.41200003
-0.20365348 0.037328396 0.41200003
-0.20307106 0.037418999 0.41300002
-0.20199434 0.037418999 0.41300002
-0.20140412 0.037509602 0.41400003
-0.20032479 0.037509602 0.41400003
-0.19972673 0.037600204 0.41500002
-0.1986448 0.037600204 0.41500002
-0.19756287 0.037600204 0.41500002
-0.19695437 0.037690807 0.41600001
-0.19586985 0.037690807 0.41600001
-0.1947853 0.037690807 0.41600001
-0.19370076 0.037690807 0.41600001
-0.19261622 0.037690807 0.41600001
-0.19153169 0.037690807 0.41600001
-0.19090496 0.03778141 0.41700003
-0.18981782 0.03778141 0.41700003
-0.18873067 0.03778141 0.41700003
-0.18764351 0.03778141 0.41700003
-0.18655638 0.03778141 0.41700003
-0.18546923 0.03778141 0.41700003
-0.18482424 0.037872013 0.41800001
-0.18373449 0.037872013 0.41800001
-0.18264474 0.037872013 0.41800001
-0.18155499 0.037872013 0.41800001
-0.18089698 0.037962615 0.41900003
-0.17980462 0.037962615 0.41900003
-0.17913878 0.038053218 0.42000002
-0.17804381 0.038053218 0.42000002
-0.17694885 0.038053218 0.42000002
-0.17585388 0.038053218 0.42000002
-0.1747589 0.038053218 0.42000002
-0.17407744 0.038143821 0.42100003
-0.17297985 0.038143821 0.42100003
-0.17188229 0.038143821 0.42100003
-0.17078471 0.038143821 0.42100003
-0.1700902 0.038234424 0.42200002
-0.16899 0.038234424 0.42200002
-0.16788983 0.038234424 0.42200002
-0.16718487 0.038325027 0.42300001
-0.1660821 0.038325027 0.42300001
-0.16536933 0.038415629 0.42400002
-0.16426393 0.038415629 0.42400002
-0.16315854 0.038415629 0.42400002
-0.16243534 0.038506232 0.42500001
-0.16132735 0.038506232 0.42500001
-0.16021933 0.038506232 0.42500001
-0.15948573 0.038596835 0.42600003
-0.15837511 0.038596835 0.42600003
-0.1572645 0.038596835 0.42600003
-0.15615389 0.038596835 0.42600003
-0.15504329 0.038596835 0.42600003
-0.15429401 0.038687438 0.42700002
-0.15318081 0.038687438 0.42700002
-0.15206759 0.038687438 0.42700002
-0.15095437 0.038687438 0.42700002
-0.15019207 0.038778044 0.42800003
-0.14907624 0.038778044 0.42800003
-0.14796042 0.038778044 0.42800003
-0.14718768 0.038868643 0.42900002
-0.14606926 0.038868643 0.42900002
-0.14495082 0.038868643 0.42900002
-0.14416768 0.038959246 0.43000001
-0.14304663 0.038959246 0.43000001
-0.1419256 0.038959246 0.43000001
-0.14113201 0.039049853 0.43100002
-0.14000838 0.039049853 0.43100002
-0.13920696 0.039140452 0.43200001
-0.13808072 0.039140452 0.43200001
-0.13695446 0.039140452 0.43200001
-0.13614263 0.039231058 0.43300003
-0.13501377 0.039231058 0.43300003
-0.13388491 0.039231058 0.43300003
-0.13306265 0.039321657 0.43400002
-0.13193117 0.039321657 0.43400002
-0.13079971 0.039321657 0.43400002
-0.12966825 0.039321657 0.43400002
-0.12853679 0.039321657 0.43400002
-0.12769888 0.039412264 0.43500003
-0.12656482 0.039412264 0.43500003
-0.12543073 0.039412264 0.43500003
-0.12458241 0.039502867 0.43600002
-0.12344572 0.039502867 0.43600002
-0.12230904 0.039502867 0.43600002
-0.12117236 0.039502867 0.43600002
-0.12031098 0.039593466 0.43700001
-0.1191717 0.039593466 0.43700001
-0.11803241 0.039593466 0.43700001
-0.11689314 0.039593466 0.43700001
-0.11575384 0.039593466 0.43700001
-0.11487684 0.039684072 0.43800002
-0.11373494 0.039684072 0.43800002
-0.11259305 0.039684072 0.43800002
-0.11145115 0.039684072 0.43800002
-0.11056111 0.039774671 0.43900001
-0.1094166 0.039774671 0.43900001
-0.10827211 0.039774671 0.43900001
-0.1071276 0.039774671 0.43900001
-0.1059831 0.039774671 0.43900001
-0.10507742 0.039865278 0.44000003
-0.10393031 0.039865278 0.44000003
-0.1030168 0.03995588 0.44100001
-0.10186708 0.03995588 0.44100001
-0.10094575 0.040046483 0.44200003
-0.099793427 0.040046483 0.44200003
-0.098864272 0.040137086 0.44300002
-0.097709343 0.040137086 0.44300002
-0.096554413 0.040137086 0.44300002
-0.095399484 0.040137086 0.44300002
-0.094244562 0.040137086 0.44300002
-0.093089633 0.040137086 0.44300002
-0.092142232 0.040227689 0.44400004
-0.090984695 0.040227689 0.44400004
-0.089827158 0.040227689 0.44400004
-0.088669628 0.040227689 0.44400004
-0.087709181 0.040318292 0.44500002
-0.086549036 0.040318292 0.44500002
-0.085580774 0.040408894 0.44600001
-0.084418029 0.040408894 0.44600001
-0.08344195 0.040499497 0.44700003
-0.08227659 0.040499497 0.44700003
-0.081111237 0.040499497 0.44700003
-0.080124728 0.0405901 0.44800001
-0.07895676 0.0405901 0.44800001
-0.0777888 0.0405901 0.44800001
-0.076791868 0.040680703 0.44900003
-0.075621292 0.040680703 0.44900003
-0.074450724 0.040680703 0.44900003
-0.073443353 0.040771306 0.45000002
-0.07227017 0.040771306 0.45000002
-0.071096994 0.040771306 0.45000002
-0.069923818 0.040771306 0.45000002
-0.068903424 0.040861908 0.45100003
-0.067727633 0.040861908 0.45100003
-0.066551849 0.040861908 0.45100003
-0.065521024 0.040952511 0.45200002
-0.064342625 0.040952511 0.45200002
-0.063303977 0.041043114 0.45300001
-0.062122978 0.041043114 0.45300001
-0.060941979 0.041043114 0.45300001
-0.059892904 0.041133717 0.45400003
-0.058709294 0.041133717 0.45400003
-0.057652391 0.041224319 0.45500001
-0.056466185 0.041224319 0.45500001
-0.055401467 0.041314922 0.45600003
-0.054212641 0.041314922 0.45600003
-0.0531401 0.041405525 0.45700002
-0.051948674 0.041405525 0.45700002
-0.050868314 0.041496132 0.45800003
-0.04967428 0.041496132 0.45800003
-0.048480242 0.041496132 0.45800003
-0.047286205 0.041496132 0.45800003
-0.046092171 0.041496132 0.45800003
-0.044898137 0.041496132 0.45800003
-0.0437041 0.041496132 0.45800003
-0.042602882 0.041586731 0.45900002
-0.04140624 0.041586731 0.45900002
-0.040209599 0.041586731 0.45900002
-0.039012954 0.041586731 0.45900002
-0.037898701 0.041677333 0.46000001
-0.036699452 0.041677333 0.46000001
-0.035500202 0.041677333 0.46000001
-0.034375522 0.041767936 0.46100003
-0.033245627 0.041858539 0.46200001
-0.032041159 0.041858539 0.46200001
-0.030836696 0.041858539 0.46200001
-0.029696373 0.041949145 0.46300003
-0.028489303 0.041949145 0.46300003
-0.027341157 0.042039745 0.46400002
-0.026131479 0.042039745 0.46400002
-0.024975514 0.042130351 0.46500003
-0.023763228 0.042130351 0.46500003
-0.02259944 0.04222095 0.46600002
-0.021384548 0.04222095 0.46600002
-0.020212939 0.042311553 0.46700001
-0.01899544 0.042311553 0.46700001
-0.01777794 0.042311553 0.46700001
-0.016595904 0.042402159 0.46800002
-0.015375799 0.042402159 0.46800002
-0.014155692 0.042402159 0.46800002
-0.012963227 0.042492758 0.46900001
-0.011715481 0.042402159 0.46800002
-0.010495376 0.042402159 0.46800002
-0.0092950882 0.042492758 0.46900001
-0.0080723744 0.042492758 0.46900001
-0.0068496619 0.042492758 0.46900001
-0.0056269495 0.042492758 0.46900001
-0.0044042366 0.042492758 0.46900001
-0.0031815236 0.042492758 0.46900001
-0.0019588107 0.042492758 0.46900001
-0.00073766743 0.042583365 0.47000003
0.00048765255 0.042583365 0.47000003
0.0017166171 0.042673968 0.47100002
0.0029445442 0.042673968 0.47100002
0.0041813301 0.042764571 0.47200003
0.0054118643 0.042764571 0.47200003
0.0066564707 0.042855173 0.47300002
0.0078896126 0.042855173 0.47300002
0.0091227526 0.042855173 0.47300002
0.010377789 0.042945776 0.47400004
0.011638038 0.043036379 0.47500002
0.012876393 0.043036379 0.47500002
0.014114749 0.043036379 0.47500002
0.015385426 0.043126982 0.47600001
0.016626388 0.043126982 0.47600001
0.017904887 0.043217584 0.47700003
0.0191886 0.043308187 0.47800002
0.020434774 0.043308187 0.47800002
0.021680953 0.043308187 0.47800002
0.022975095 0.04339879 0.47900003
0.024223877 0.04339879 0.47900003
0.02552584 0.043489393 0.48000002
0.02677723 0.043489393 0.48000002
0.02802862 0.043489393 0.48000002
0.029280012 0.043489393 0.48000002
0.030531401 0.043489393 0.48000002
0.031782795 0.043489393 0.48000002
0.033103008 0.043579996 0.48100004
0.034285575 0.043489393 0.48000002
0.035536963 0.043489393 0.48000002
0.036788356 0.043489393 0.48000002
0.038118996 0.043579996 0.48100004
0.039372995 0.043579996 0.48100004
0.040626992 0.043579996 0.48100004
0.041880991 0.043579996 0.48100004
0.043224663 0.043670598 0.48200002
0.044481266 0.043670598 0.48200002
0.045832764 0.043761201 0.48300001
0.047091972 0.043761201 0.48300001
0.048451297 0.043851804 0.48400003
0.049713116 0.043851804 0.48400003
0.050974932 0.043851804 0.48400003
0.052344676 0.043942407 0.48500001
0.053609103 0.043942407 0.48500001
0.054986671 0.04403301 0.48600003
0.056253705 0.04403301 0.48600003
0.057639092 0.044123612 0.48700002
0.058908734 0.044123612 0.48700002
0.060301945 0.044214215 0.48800004
0.061574191 0.044214215 0.48800004
0.062846437 0.044214215 0.48800004
0.064250074 0.044304818 0.48900002
0.065524928 0.044304818 0.48900002
0.066799782 0.044304818 0.48900002
0.068213843 0.044395421 0.49000001
0.069633134 0.044486023 0.49100003
0.070913203 0.044486023 0.49100003
0.072193265 0.044486023 0.49100003
0.073473334 0.044486023 0.49100003
0.074905649 0.044576626 0.49200001
0.076188326 0.044576626 0.49200001
0.077470995 0.044576626 0.49200001
0.078753673 0.044576626 0.49200001
0.080199026 0.044667233 0.49300003
0.08148431 0.044667233 0.49300003
0.082769588 0.044667233 0.49300003
0.084054872 0.044667233 0.49300003
0.085513256 0.044757832 0.49400002
0.086801149 0.044757832 0.49400002
0.088267364 0.044848438 0.49500003
0.089557856 0.044848438 0.49500003
0.090848356 0.044848438 0.49500003
0.092324987 0.044939037 0.49600002
0.093618087 0.044939037 0.49600002
0.095102541 0.04502964 0.49700001
0.096398257 0.04502964 0.49700001
0.097693965 0.04502964 0.49700001
0.099188849 0.045120247 0.49800003
0.10048717 0.045120247 0.49800003
0.10178549 0.045120247 0.49800003
0.1032908 0.045210846 0.49900001
0.10459173 0.045210846 0.49900001
0.10589265 0.045210846 0.49900001
0.10719357 0.045210846 0.49900001
0.10871192 0.045301449 0.5
0.11023549 0.045392055 0.50100005
0.11154163 0.045392055 0.50100005
0.11307301 0.045482658 0.50200003
0.11460961 0.045573261 0.50300002
0.11592096 0.045573261 0.50300002
0.11746538 0.04566386 0.50400001
0.11877933 0.04566386 0.50400001
0.12033157 0.045754462 0.505
0.12188904 0.045845069 0.50600004
0.12320822 0.045845069 0.50600004
0.12452739 0.045845069 0.50600004
0.12584656 0.045845069 0.50600004
0.12716573 0.045845069 0.50600004
0.12848492 0.045845069 0.50600004
0.1300606 0.045935672 0.50700003
0.13138239 0.045935672 0.50700003
0.13270418 0.045935672 0.50700003
0.13402596 0.045935672 0.50700003
0.13561469 0.046026275 0.50800002
0.13693908 0.046026275 0.50800002
0.13853565 0.046116874 0.509
0.13986263 0.046116874 0.509
0.14118963 0.046116874 0.509
0.14279662 0.046207484 0.51000005
0.14440884 0.046298083 0.51100004
0.14574103 0.046298083 0.51100004
0.14707325 0.046298083 0.51100004
0.14869587 0.046388686 0.51200002
0.15003069 0.046388686 0.51200002
0.15166114 0.046479288 0.51300001
0.15299857 0.046479288 0.51300001
0.15463684 0.046569888 0.514
0.15597686 0.046569888 0.514
0.15762298 0.046660498 0.51500005
0.1589656 0.046660498 0.51500005
0.16061953 0.046751097 0.51600003
0.16196476 0.046751097 0.51600003
0.16362651 0.0468417 0.51700002
0.16529344 0.046932302 0.51800001
0.1666439 0.046932302 0.51800001
0.16799437 0.046932302 0.51800001
0.16934483 0.046932302 0.51800001
0.17069529 0.046932302 0.51800001
0.17204574 0.046932302 0.51800001
0.17373097 0.047022909 0.51900005
0.17508402 0.047022909 0.51900005
0.17677705 0.047113512 0.52000004
0.17813271 0.047113512 0.52000004
0.17948839 0.047113512 0.52000004
0.18084405 0.047113512 0.52000004
0.18255012 0.047204111 0.52100003
0.18390839 0.047204111 0.52100003
0.18526667 0.047204111 0.52100003
0.18698315 0.047294714 0.52200001
0.18834405 0.047294714 0.52200001
0.19006835 0.047385316 0.523
0.19143184 0.047385316 0.523
0.19316399 0.047475923 0.52400005
0.19453008 0.047475923 0.52400005
0.19627003 0.047566526 0.52500004
0.19763874 0.047566526 0.52500004
0.19938651 0.047657125 0.52600002
0.20075782 0.047657125 0.52600002
0.20251341 0.047747727 0.52700001
0.20427421 0.04783833 0.528
0.20565073 0.04783833 0.528
0.20741938 0.047928937 0.52900004
0.20919321 0.04801954 0.53000003
0.21057497 0.04801954 0.53000003
0.21195671 0.04801954 0.53000003
0.21374097 0.048110139 0.53100002
0.21512532 0.048110139 0.53100002
0.21650967 0.048110139 0.53100002
0.21830437 0.048200741 0.53200001
0.21969132 0.048200741 0.53200001
0.22107828 0.048200741 0.53200001
0.22288343 0.048291348 0.53300005
0.22427298 0.048291348 0.53300005
0.22566256 0.048291348 0.53300005
0.2274781 0.048381951 0.53400004
0.22887027 0.048381951 0.53400004
0.23026246 0.048381951 0.53400004
0.23208842 0.048472553 0.53500003
0.23391962 0.048563153 0.53600001
0.23531699 0.048563153 0.53600001
0.23671439 0.048563153 0.53600001
0.23811176 0.048563153 0.53600001
0.23995601 0.048653755 0.537
0.24180546 0.048744362 0.53800005
0.24320807 0.048744362 0.53800005
0.24461067 0.048744362 0.53800005
0.24647054 0.048834965 0.53900003
0.24833561 0.048925567 0.54000002
0.24974343 0.048925567 0.54000002
0.25161633 0.049016166 0.54100001
0.25302675 0.049016166 0.54100001
0.25490752 0.049106777 0.54200006
0.25632054 0.049106777 0.54200006
0.25820908 0.049197376 0.54300004
-0.23032475 0.037843246 0.40600002
-0.22983097 0.037936453 0.40700001
-0.2287699 0.037936453 0.40700001
-0.22770883 0.037936453 0.40700001
-0.22720462 0.038029667 0.40800002
-0.22614095 0.038029667 0.40800002
-0.22507727 0.038029667 0.40800002
-0.22401357 0.038029667 0.40800002
-0.22294989 0.038029667 0.40800002
-0.22188622 0.038029667 0.40800002
-0.22136377 0.038122874 0.40900001
-0.22029746 0.038122874 0.40900001
-0.21923117 0.038122874 0.40900001
-0.21816489 0.038122874 0.40900001
-0.21709861 0.038122874 0.40900001
-0.21656051 0.038216084 0.41000003
-0.21549162 0.038216084 0.41000003
-0.21442273 0.038216084 0.41000003
-0.21335384 0.038216084 0.41000003
-0.21280269 0.038309295 0.41100001
-0.2117312 0.038309295 0.41100001
-0.2106597 0.038309295 0.41100001
-0.20958817 0.038309295 0.41100001
-0.20851667 0.038309295 0.41100001
-0.20794992 0.038402505 0.41200003
-0.20687582 0.038402505 0.41200003
-0.20580171 0.038402505 0.41200003
-0.20472759 0.038402505 0.41200003
-0.20365348 0.038402505 0.41200003
-0.20307106 0.038495716 0.41300002
-0.20199434 0.038495716 0.41300002
-0.20140412 0.038588926 0.41400003
-0.20032479 0.038588926 0.41400003
-0.19972673 0.038682137 0.41500002
-0.1986448 0.038682137 0.41500002
-0.19756287 0.038682137 0.41500002
-0.19695437 0.038775343 0.41600001
-0.19586985 0.038775343 0.41600001
-0.1947853 0.038775343 0.41600001
-0.19370076 0.038775343 0.41600001
-0.19261622 0.038775343 0.41600001
-0.19153169 0.038775343 0.41600001
-0.19090496 0.038868554 0.41700003
-0.18981782 0.038868554 0.41700003
-0.18873067 0.038868554 0.41700003
-0.18764351 0.038868554 0.41700003
-0.18655638 0.038868554 0.41700003
-0.18546923 0.038868554 0.41700003
-0.18482424 0.038961764 0.41800001
-0.18373449 0.038961764 0.41800001
-0.18264474 0.038961764 0.41800001
-0.18155499 0.038961764 0.41800001
-0.18089698 0.039054975 0.41900003
-0.17980462 0.039054975 0.41900003
-0.17871226 0.039054975 0.41900003
-0.17804381 0.039148185 0.42000002
-0.17694885 0.039148185 0.42000002
-0.17585388 0.039148185 0.42000002
-0.1747589 0.039148185 0.42000002
-0.17407744 0.039241396 0.42100003
-0.17297985 0.039241396 0.42100003
-0.17188229 0.039241396 0.42100003
-0.17119037 0.039334606 0.42200002
-0.1700902 0.039334606 0.42200002
-0.16899 0.039334606 0.42200002
-0.16788983 0.039334606 0.42200002
-0.16718487 0.039427813 0.42300001
-0.1660821 0.039427813 0.42300001
-0.16536933 0.039521024 0.42400002
-0.16426393 0.039521024 0.42400002
-0.16354334 0.039614234 0.42500001
-0.16243534 0.039614234 0.42500001
-0.16132735 0.039614234 0.42500001
-0.16021933 0.039614234 0.42500001
-0.15911134 0.039614234 0.42500001
-0.15800333 0.039614234 0.42500001
-0.1572645 0.039707445 0.42600003
-0.15615389 0.039707445 0.42600003
-0.15504329 0.039707445 0.42600003
-0.15429401 0.039800655 0.42700002
-0.15318081 0.039800655 0.42700002
-0.15206759 0.039800655 0.42700002
-0.15095437 0.039800655 0.42700002
-0.14984114 0.039800655 0.42700002
-0.14907624 0.039893866 0.42800003
-0.14796042 0.039893866 0.42800003
-0.14718768 0.039987076 0.42900002
-0.14606926 0.039987076 0.42900002
-0.14495082 0.039987076 0.42900002
-0.14416768 0.040080283 0.43000001
-0.14304663 0.040080283 0.43000001
-0.1419256 0.040080283 0.43000001
-0.14113201 0.040173493 0.43100002
-0.14000838 0.040173493 0.43100002
-0.13920696 0.040266704 0.43200001
-0.13808072 0.040266704 0.43200001
-0.13695446 0.040266704 0.43200001
-0.13614263 0.040359914 0.43300003
-0.13501377 0.040359914 0.43300003
-0.13388491 0.040359914 0.43300003
-0.13306265 0.040453125 0.43400002
-0.13193117 0.040453125 0.43400002
-0.13079971 0.040453125 0.43400002
-0.12966825 0.040453125 0.43400002
-0.12853679 0.040453125 0.43400002
-0.12769888 0.040546335 0.43500003
-0.12656482 0.040546335 0.43500003
-0.12543073 0.040546335 0.43500003
-0.12429667 0.040546335 0.43500003
-0.12316259 0.040546335 0.43500003
-0.12230904 0.040639546 0.43600002
-0.12117236 0.040639546 0.43600002
-0.12003568 0.040639546 0.43600002
-0.1191717 0.040732753 0.43700001
-0.11803241 0.040732753 0.43700001
-0.11689314 0.040732753 0.43700001
-0.11575384 0.040732753 0.43700001
-0.11487684 0.040825963 0.43800002
-0.11373494 0.040825963 0.43800002
-0.11259305 0.040825963 0.43800002
-0.11145115 0.040825963 0.43800002
-0.11056111 0.040919174 0.43900001
-0.1094166 0.040919174 0.43900001
-0.10827211 0.040919174 0.43900001
-0.1071276 0.040919174 0.43900001
-0.10622452 0.041012384 0.44000003
-0.10507742 0.041012384 0.44000003
-0.10393031 0.041012384 0.44000003
-0.1030168 0.041105594 0.44100001
-0.10186708 0.041105594 0.44100001
-0.10094575 0.041198805 0.44200003
-0.099793427 0.041198805 0.44200003
-0.098864272 0.041292015 0.44300002
-0.097709343 0.041292015 0.44300002
-0.096554413 0.041292015 0.44300002
-0.095399484 0.041292015 0.44300002
-0.094244562 0.041292015 0.44300002
-0.093089633 0.041292015 0.44300002
-0.092142232 0.041385226 0.44400004
-0.090984695 0.041385226 0.44400004
-0.089827158 0.041385226 0.44400004
-0.088869326 0.041478433 0.44500002
-0.087709181 0.041478433 0.44500002
-0.086549036 0.041478433 0.44500002
-0.085580774 0.041571643 0.44600001
-0.084418029 0.041571643 0.44600001
-0.08344195 0.041664854 0.44700003
-0.08227659 0.041664854 0.44700003
-0.081111237 0.041664854 0.44700003
-0.080124728 0.041758064 0.44800001
-0.07895676 0.041758064 0.44800001
-0.0777888 0.041758064 0.44800001
-0.076791868 0.041851275 0.44900003
-0.075621292 0.041851275 0.44900003
-0.074450724 0.041851275 0.44900003
-0.073280148 0.041851275 0.44900003
-0.07227017 0.041944485 0.45000002
-0.071096994 0.041944485 0.45000002
-0.070079207 0.042037696 0.45100003
-0.068903424 0.042037696 0.45100003
-0.067727633 0.042037696 0.45100003
-0.066551849 0.042037696 0.45100003
-0.065521024 0.042130902 0.45200002
-0.064342625 0.042130902 0.45200002
-0.063164234 0.042130902 0.45200002
-0.062122978 0.042224113 0.45300001
-0.060941979 0.042224113 0.45300001
-0.059892904 0.042317323 0.45400003
-0.058709294 0.042317323 0.45400003
-0.057652391 0.042410534 0.45500001
-0.056466185 0.042410534 0.45500001
-0.055401467 0.042503744 0.45600003
-0.054212641 0.042503744 0.45600003
-0.0531401 0.042596955 0.45700002
-0.051948674 0.042596955 0.45700002
-0.050868314 0.042690165 0.45800003
-0.04967428 0.042690165 0.45800003
-0.048480242 0.042690165 0.45800003
-0.047286205 0.042690165 0.45800003
-0.046092171 0.042690165 0.45800003
-0.044996165 0.042783372 0.45900002
-0.043799523 0.042783372 0.45900002
-0.042602882 0.042783372 0.45900002
-0.04140624 0.042783372 0.45900002
-0.040209599 0.042783372 0.45900002
-0.039012954 0.042783372 0.45900002
-0.037898701 0.042876583 0.46000001
-0.036699452 0.042876583 0.46000001
-0.035500202 0.042876583 0.46000001
-0.034375522 0.042969793 0.46100003
-0.033245627 0.043063004 0.46200001
-0.032041159 0.043063004 0.46200001
-0.030836696 0.043063004 0.46200001
-0.029696373 0.043156214 0.46300003
-0.028489303 0.043156214 0.46300003
-0.027341157 0.043249425 0.46400002
-0.026131479 0.043249425 0.46400002
-0.024975514 0.043342635 0.46500003
-0.023763228 0.043342635 0.46500003
-0.02259944 0.043435842 0.46600002
-0.021384548 0.043435842 0.46600002
-0.020212939 0.043529052 0.46700001
-0.01899544 0.043529052 0.46700001
-0.01777794 0.043529052 0.46700001
-0.016595904 0.043622263 0.46800002
-0.015375799 0.043622263 0.46800002
-0.014155692 0.043622263 0.46800002
-0.012935587 0.043622263 0.46800002
-0.011715481 0.043622263 0.46800002
-0.010495376 0.043622263 0.46800002
-0.0092752697 0.043622263 0.46800002
-0.0080551635 0.043622263 0.46800002
-0.0068496619 0.043715473 0.46900001
-0.0056269495 0.043715473 0.46900001
-0.0044042366 0.043715473 0.46900001
-0.0031815236 0.043715473 0.46900001
-0.0019629875 0.043808684 0.47000003
-0.00073766743 0.043808684 0.47000003
0.00048765255 0.043808684 0.47000003
0.0017166171 0.043901894 0.47100002
0.0029445442 0.043901894 0.47100002
0.0041813301 0.043995105 0.47200003
0.0054118643 0.043995105 0.47200003
0.0066564707 0.044088311 0.47300002
0.0078896126 0.044088311 0.47300002
0.0091420403 0.044181526 0.47400004
0.010377789 0.044181526 0.47400004
0.011638038 0.044274732 0.47500002
0.012876393 0.044274732 0.47500002
0.014114749 0.044274732 0.47500002
0.015385426 0.044367943 0.47600001
0.016626388 0.044367943 0.47600001
0.017904887 0.044461153 0.47700003
0.019148456 0.044461153 0.47700003
0.020434774 0.04455436 0.47800002
0.021680953 0.04455436 0.47800002
0.022975095 0.044647574 0.47900003
0.024274448 0.044740781 0.48000002
0.02552584 0.044740781 0.48000002
0.02677723 0.044740781 0.48000002
0.02802862 0.044740781 0.48000002
0.029280012 0.044740781 0.48000002
0.030595008 0.044833995 0.48100004
0.031849008 0.044833995 0.48100004
0.033103008 0.044833995 0.48100004
0.034357004 0.044833995 0.48100004
0.035611 0.044833995 0.48100004
0.036865 0.044833995 0.48100004
0.038118996 0.044833995 0.48100004
0.039372995 0.044833995 0.48100004
0.040626992 0.044833995 0.48100004
0.041880991 0.044833995 0.48100004
0.043224663 0.044927202 0.48200002
0.044481266 0.044927202 0.48200002
0.045832764 0.045020413 0.48300001
0.047091972 0.045020413 0.48300001
0.048451297 0.045113623 0.48400003
0.049713116 0.045113623 0.48400003
0.050974932 0.045113623 0.48400003
0.052344676 0.04520683 0.48500001
0.053609103 0.04520683 0.48500001
0.054986671 0.045300044 0.48600003
0.056253705 0.045300044 0.48600003
0.057639092 0.045393251 0.48700002
0.058908734 0.045393251 0.48700002
0.060301945 0.045486465 0.48800004
0.061574191 0.045486465 0.48800004
0.062846437 0.045486465 0.48800004
0.064250074 0.045579672 0.48900002
0.065524928 0.045579672 0.48900002
0.066936381 0.045672882 0.49000001
0.068213843 0.045672882 0.49000001
0.069491312 0.045672882 0.49000001
0.070913203 0.045766093 0.49100003
0.072193265 0.045766093 0.49100003
0.073473334 0.045766093 0.49100003
0.074905649 0.0458593 0.49200001
0.076188326 0.0458593 0.49200001
0.077470995 0.0458593 0.49200001
0.078753673 0.0458593 0.49200001
0.080199026 0.045952514 0.49300003
0.08148431 0.045952514 0.49300003
0.082769588 0.045952514 0.49300003
0.084054872 0.045952514 0.49300003
0.085513256 0.046045721 0.49400002
0.086801149 0.046045721 0.49400002
0.088267364 0.046138935 0.49500003
0.089557856 0.046138935 0.49500003
0.090848356 0.046138935 0.49500003
0.092324987 0.046232142 0.49600002
0.093618087 0.046232142 0.49600002
0.095102541 0.046325352 0.49700001
0.096398257 0.046325352 0.49700001
0.097693965 0.046325352 0.49700001
0.098989673 0.046325352 0.49700001
0.10048717 0.046418563 0.49800003
0.10178549 0.046418563 0.49800003
0.1032908 0.046511769 0.49900001
0.10459173 0.046511769 0.49900001
0.10589265 0.046511769 0.49900001
0.10719357 0.046511769 0.49900001
0.10871192 0.04660498 0.5
0.11023549 0.046698194 0.50100005
0.11154163 0.046698194 0.50100005
0.11307301 0.046791404 0.50200003
0.11460961 0.046884611 0.50300002
0.11592096 0.046884611 0.50300002
0.11746538 0.046977822 0.50400001
0.11877933 0.046977822 0.50400001
0.12033157 0.047071029 0.505
0.12188904 0.047164243 0.50600004
0.12320822 0.047164243 0.50600004
0.12452739 0.047164243 0.50600004
0.12584656 0.047164243 0.50600004
0.12716573 0.047164243 0.50600004
0.12848492 0.047164243 0.50600004
0.1300606 0.047257453 0.50700003
0.13138239 0.047257453 0.50700003
0.13270418 0.047257453 0.50700003
0.13402596 0.047257453 0.50700003
0.13561469 0.04735066 0.50800002
0.13693908 0.04735066 0.50800002
0.13853565 0.04744387 0.509
0.13986263 0.04744387 0.509
0.14118963 0.04744387 0.509
0.14279662 0.047537085 0.51000005
0.14412624 0.047537085 0.51000005
0.14574103 0.047630291 0.51100004
0.14707325 0.047630291 0.51100004
0.14869587 0.047723502 0.51200002
0.15003069 0.047723502 0.51200002
0.15166114 0.047816709 0.51300001
0.15299857 0.047816709 0.51300001
0.15463684 0.047909919 0.514
0.15597686 0.047909919 0.514
0.15762298 0.048003133 0.51500005
0.1589656 0.048003133 0.51500005
0.16061953 0.048096344 0.51600003
0.16196476 0.048096344 0.51600003
0.16362651 0.048189551 0.51700002
0.16529344 0.048282761 0.51800001
0.1666439 0.048282761 0.51800001
0.16799437 0.048282761 0.51800001
0.16934483 0.048282761 0.51800001
0.17069529 0.048282761 0.51800001
0.17204574 0.048282761 0.51800001
0.17373097 0.048375975 0.51900005
0.17508402 0.048375975 0.51900005
0.17677705 0.048469182 0.52000004
0.17813271 0.048469182 0.52000004
0.17948839 0.048469182 0.52000004
0.18084405 0.048469182 0.52000004
0.18255012 0.048562393 0.52100003
0.18390839 0.048562393 0.52100003
0.18526667 0.048562393 0.52100003
0.18698315 0.048655599 0.52200001
0.18834405 0.048655599 0.52200001
0.19006835 0.04874881 0.523
0.19143184 0.04874881 0.523
0.19316399 0.048842024 0.52400005
0.19453008 0.048842024 0.52400005
0.19627003 0.048935231 0.52500004
0.19763874 0.048935231 0.52500004
0.19938651 0.049028441 0.52600002
0.20075782 0.049028441 0.52600002
0.20251341 0.049121648 0.52700001
0.20427421 0.049214859 0.528
0.20565073 0.049214859 0.528
0.20741938 0.049308073 0.52900004
0.20919321 0.049401283 0.53000003
0.21057497 0.049401283 0.53000003
0.21195671 0.049401283 0.53000003
0.21374097 0.04949449 0.53100002
0.21512532 0.04949449 0.53100002
0.21650967 0.04949449 0.53100002
0.21830437 0.049587701 0.53200001
0.21969132 0.049587701 0.53200001
0.22107828 0.049587701 0.53200001
0.22288343 0.049680915 0.53300005
0.22427298 0.049680915 0.53300005
0.22566256 0.049680915 0.53300005
0.2274781 0.049774121 0.53400004
0.22887027 0.049774121 0.53400004
0.23026246 0.049774121 0.53400004
0.23208842 0.049867332 0.53500003
0.23348321 0.049867332 0.53500003
0.23531699 0.049960539 0.53600001
0.23671439 0.049960539 0.53600001
0.23811176 0.049960539 0.53600001
0.23995601 0.050053749 0.537
0.24180546 0.050146963 0.53800005
0.24320807 0.050146963 0.53800005
0.24461067 0.050146963 0.53800005
0.24647054 0.05024017 0.53900003
0.24833561 0.050333381 0.54000002
0.24974343 0.050333381 0.54000002
0.25115126 0.050333381 0.54000002
0.25302675 0.050426587 0.54100001
0.25490752 0.050519802 0.54200006
0.25632054 0.050519802 0.54200006
0.25820908 0.050613012 0.54300004
-0.23032475 0.038901716 0.40600002
-0.22983097 0.038997531 0.40700001
-0.2287699 0.038997531 0.40700001
-0.22770883 0.038997531 0.40700001
-0.22720462 0.039093349 0.40800002
-0.22614095 0.039093349 0.40800002
-0.22507727 0.039093349 0.40800002
-0.22401357 0.039093349 0.40800002
-0.22294989 0.039093349 0.40800002
-0.22188622 0.039093349 0.40800002
-0.22136377 0.039189167 0.40900001
-0.22029746 0.039189167 0.40900001
-0.21923117 0.039189167 0.40900001
-0.21816489 0.039189167 0.40900001
-0.21709861 0.039189167 0.40900001
-0.21656051 0.039284986 0.41000003
-0.21549162 0.039284986 0.41000003
-0.21442273 0.039284986 0.41000003
-0.21335384 0.039284986 0.41000003
-0.21280269 0.0393808 0.41100001
-0.2117312 0.0393808 0.41100001
-0.2106597 0.0393808 0.41100001
-0.20958817 0.0393808 0.41100001
-0.20851667 0.0393808 0.41100001
-0.20794992 0.039476618 0.41200003
-0.20687582 0.039476618 0.41200003
-0.20580171 0.039476618 0.41200003
-0.20472759 0.039476618 0.41200003
-0.20414779 0.039572436 0.41300002
-0.20307106 0.039572436 0.41300002
-0.20199434 0.039572436 0.41300002
-0.20140412 0.039668255 0.41400003
-0.20032479 0.039668255 0.41400003
-0.19972673 0.039764069 0.41500002
-0.1986448 0.039764069 0.41500002
-0.19756287 0.039764069 0.41500002
-0.19695437 0.039859883 0.41600001
-0.19586985 0.039859883 0.41600001
-0.1947853 0.039859883 0.41600001
-0.19370076 0.039859883 0.41600001
-0.19261622 0.039859883 0.41600001
-0.19153169 0.039859883 0.41600001
-0.19044715 0.039859883 0.41600001
-0.18981782 0.039955705 0.41700003
-0.18873067 0.039955705 0.41700003
-0.18764351 0.039955705 0.41700003
-0.18655638 0.039955705 0.41700003
-0.18546923 0.039955705 0.41700003
-0.18482424 0.04005152 0.41800001
-0.18373449 0.04005152 0.41800001
-0.18264474 0.04005152 0.41800001
-0.18155499 0.04005152 0.41800001
-0.18089698 0.040147338 0.41900003
-0.17980462 0.040147338 0.41900003
-0.17871226 0.040147338 0.41900003
-0.17804381 0.040243153 0.42000002
-0.17694885 0.040243153 0.42000002
-0.17585388 0.040243153 0.42000002
-0.1747589 0.040243153 0.42000002
-0.17407744 0.040338974 0.42100003
-0.17297985 0.040338974 0.42100003
-0.17188229 0.040338974 0.42100003
-0.17119037 0.040434789 0.42200002
-0.1700902 0.040434789 0.42200002
-0.16899 0.040434789 0.42200002
-0.16828766 0.040530603 0.42300001
-0.16718487 0.040530603 0.42300001
-0.16647473 0.040626422 0.42400002
-0.16536933 0.040626422 0.42400002
-0.16426393 0.040626422 0.42400002
-0.16354334 0.04072224 0.42500001
-0.16243534 0.04072224 0.42500001
-0.16132735 0.04072224 0.42500001
-0.16021933 0.04072224 0.42500001
-0.15911134 0.04072224 0.42500001
-0.15800333 0.04072224 0.42500001
-0.15689534 0.04072224 0.42500001
-0.15615389 0.040818058 0.42600003
-0.15504329 0.040818058 0.42600003
-0.15393268 0.040818058 0.42600003
-0.15318081 0.040913872 0.42700002
-0.15206759 0.040913872 0.42700002
-0.15095437 0.040913872 0.42700002
-0.15019207 0.041009691 0.42800003
-0.14907624 0.041009691 0.42800003
-0.14796042 0.041009691 0.42800003
-0.14718768 0.041105509 0.42900002
-0.14606926 0.041105509 0.42900002
-0.14495082 0.041105509 0.42900002
-0.14416768 0.041201323 0.43000001
-0.14304663 0.041201323 0.43000001
-0.1419256 0.041201323 0.43000001
-0.14113201 0.041297141 0.43100002
-0.14000838 0.041297141 0.43100002
-0.13920696 0.04139296 0.43200001
-0.13808072 0.04139296 0.43200001
-0.13695446 0.04139296 0.43200001
-0.13614263 0.041488778 0.43300003
-0.13501377 0.041488778 0.43300003
-0.13388491 0.041488778 0.43300003
-0.13306265 0.041584592 0.43400002
-0.13193117 0.041584592 0.43400002
-0.13079971 0.041584592 0.43400002
-0.12966825 0.041584592 0.43400002
-0.12853679 0.041584592 0.43400002
-0.12740532 0.041584592 0.43400002
-0.12656482 0.041680411 0.43500003
-0.12543073 0.041680411 0.43500003
-0.12429667 0.041680411 0.43500003
-0.12316259 0.041680411 0.43500003
-0.12202851 0.041680411 0.43500003
-0.12117236 0.041776225 0.43600002
-0.12003568 0.041776225 0.43600002
-0.118899 0.041776225 0.43600002
-0.11803241 0.041872043 0.43700001
-0.11689314 0.041872043 0.43700001
-0.11575384 0.041872043 0.43700001
-0.11461456 0.041872043 0.43700001
-0.11373494 0.041967861 0.43800002
-0.11259305 0.041967861 0.43800002
-0.11145115 0.041967861 0.43800002
-0.11056111 0.042063676 0.43900001
-0.1094166 0.042063676 0.43900001
-0.10827211 0.042063676 0.43900001
-0.1071276 0.042063676 0.43900001
-0.10622452 0.042159494 0.44000003
-0.10507742 0.042159494 0.44000003
-0.10393031 0.042159494 0.44000003
-0.1030168 0.042255312 0.44100001
-0.10186708 0.042255312 0.44100001
-0.10094575 0.04235113 0.44200003
-0.099793427 0.04235113 0.44200003
-0.098864272 0.042446945 0.44300002
-0.097709343 0.042446945 0.44300002
-0.096554413 0.042446945 0.44300002
-0.095399484 0.042446945 0.44300002
-0.094244562 0.042446945 0.44300002
-0.093299769 0.042542763 0.44400004
-0.092142232 0.042542763 0.44400004
-0.090984695 0.042542763 0.44400004
-0.089827158 0.042542763 0.44400004
-0.088869326 0.042638581 0.44500002
-0.087709181 0.042638581 0.44500002
-0.086549036 0.042638581 0.44500002
-0.085580774 0.042734396 0.44600001
-0.084418029 0.042734396 0.44600001
-0.08344195 0.042830214 0.44700003
-0.08227659 0.042830214 0.44700003
-0.081111237 0.042830214 0.44700003
-0.080124728 0.042926032 0.44800001
-0.07895676 0.042926032 0.44800001
-0.0777888 0.042926032 0.44800001
-0.076791868 0.04302185 0.44900003
-0.075621292 0.04302185 0.44900003
-0.074616536 0.043117665 0.45000002
-0.073443353 0.043117665 0.45000002
-0.07227017 0.043117665 0.45000002
-0.071254991 0.043213483 0.45100003
-0.070079207 0.043213483 0.45100003
-0.068903424 0.043213483 0.45100003
-0.067727633 0.043213483 0.45100003
-0.066551849 0.043213483 0.45100003
-0.065521024 0.043309301 0.45200002
-0.064342625 0.043309301 0.45200002
-0.063164234 0.043309301 0.45200002
-0.062122978 0.043405116 0.45300001
-0.060941979 0.043405116 0.45300001
-0.059892904 0.043500934 0.45400003
-0.058709294 0.043500934 0.45400003
-0.057652391 0.043596748 0.45500001
-0.056466185 0.043596748 0.45500001
-0.055401467 0.04369257 0.45600003
-0.054212641 0.04369257 0.45600003
-0.0531401 0.043788385 0.45700002
-0.051948674 0.043788385 0.45700002
-0.050868314 0.043884203 0.45800003
-0.04967428 0.043884203 0.45800003
-0.048480242 0.043884203 0.45800003
-0.047286205 0.043884203 0.45800003
-0.046092171 0.043884203 0.45800003
-0.044996165 0.043980017 0.45900002
-0.043799523 0.043980017 0.45900002
-0.042602882 0.043980017 0.45900002
-0.04140624 0.043980017 0.45900002
-0.040209599 0.043980017 0.45900002
-0.039012954 0.043980017 0.45900002
-0.037898701 0.044075835 0.46000001
-0.036699452 0.044075835 0.46000001
-0.035500202 0.044075835 0.46000001
-0.034375522 0.044171654 0.46100003
-0.033245627 0.044267468 0.46200001
-0.032041159 0.044267468 0.46200001
-0.030836696 0.044267468 0.46200001
-0.029696373 0.044363286 0.46300003
-0.028489303 0.044363286 0.46300003
-0.027341157 0.044459105 0.46400002
-0.026131479 0.044459105 0.46400002
-0.024975514 0.044554923 0.46500003
-0.023763228 0.044554923 0.46500003
-0.02259944 0.044650737 0.46600002
-0.021384548 0.044650737 0.46600002
-0.020169657 0.044650737 0.46600002
-0.01899544 0.044746552 0.46700001
-0.01777794 0.044746552 0.46700001
-0.016595904 0.044842374 0.46800002
-0.015375799 0.044842374 0.46800002
-0.014155692 0.044842374 0.46800002
-0.012935587 0.044842374 0.46800002
-0.011715481 0.044842374 0.46800002
-0.010495376 0.044842374 0.46800002
-0.0092752697 0.044842374 0.46800002
-0.0080723744 0.044938188 0.46900001
-0.0068496619 0.044938188 0.46900001
-0.0056269495 0.044938188 0.46900001
-0.0044042366 0.044938188 0.46900001
-0.0031815236 0.044938188 0.46900001
-0.0019629875 0.045034006 0.47000003
-0.00073766743 0.045034006 0.47000003
0.00048765255 0.045034006 0.47000003
0.0017166171 0.045129821 0.47100002
0.0029445442 0.045129821 0.47100002
0.0041813301 0.045225643 0.47200003
0.0054118643 0.045225643 0.47200003
0.0066564707 0.045321457 0.47300002
0.0078896126 0.045321457 0.47300002
0.0091420403 0.045417275 0.47400004
0.010377789 0.045417275 0.47400004
0.011638038 0.04551309 0.47500002
0.012876393 0.04551309 0.47500002
0.014114749 0.04551309 0.47500002
0.015385426 0.045608908 0.47600001
0.016626388 0.045608908 0.47600001
0.017904887 0.045704726 0.47700003
0.019148456 0.045704726 0.47700003
0.020434774 0.045800541 0.47800002
0.021680953 0.045800541 0.47800002
0.022975095 0.045896359 0.47900003
0.024223877 0.045896359 0.47900003
0.02552584 0.045992177 0.48000002
0.02677723 0.045992177 0.48000002
0.02802862 0.045992177 0.48000002
0.029280012 0.045992177 0.48000002
0.030531401 0.045992177 0.48000002
0.031849008 0.046087995 0.48100004
0.033103008 0.046087995 0.48100004
0.034357004 0.046087995 0.48100004
0.035611 0.046087995 0.48100004
0.036865 0.046087995 0.48100004
0.038118996 0.046087995 0.48100004
0.039372995 0.046087995 0.48100004
0.040626992 0.046087995 0.48100004
0.041880991 0.046087995 0.48100004
0.043224663 0.04618381 0.48200002
0.044481266 0.04618381 0.48200002
0.045832764 0.046279628 0.48300001
0.047091972 0.046279628 0.48300001
0.048351187 0.046279628 0.48300001
0.049713116 0.046375446 0.48400003
0.050974932 0.046375446 0.48400003
0.052344676 0.04647126 0.48500001
0.053609103 0.04647126 0.48500001
0.054986671 0.046567079 0.48600003
0.056253705 0.046567079 0.48600003
0.057639092 0.046662897 0.48700002
0.058908734 0.046662897 0.48700002
0.060301945 0.046758715 0.48800004
0.061574191 0.046758715 0.48800004
0.06297522 0.04685453 0.48900002
0.064250074 0.04685453 0.48900002
0.065524928 0.04685453 0.48900002
0.066936381 0.046950344 0.49000001
0.068213843 0.046950344 0.49000001
0.069633134 0.047046162 0.49100003
0.070913203 0.047046162 0.49100003
0.072193265 0.047046162 0.49100003
0.073473334 0.047046162 0.49100003
0.074905649 0.04714198 0.49200001
0.076188326 0.04714198 0.49200001
0.077470995 0.04714198 0.49200001
0.078753673 0.04714198 0.49200001
0.080199026 0.047237799 0.49300003
0.08148431 0.047237799 0.49300003
0.082769588 0.047237799 0.49300003
0.084054872 0.047237799 0.49300003
0.085513256 0.047333613 0.49400002
0.086801149 0.047333613 0.49400002
0.088267364 0.047429431 0.49500003
0.089557856 0.047429431 0.49500003
0.090848356 0.047429431 0.49500003
0.092324987 0.047525249 0.49600002
0.093806833 0.047621064 0.49700001
0.095102541 0.047621064 0.49700001
0.096398257 0.047621064 0.49700001
0.097693965 0.047621064 0.49700001
0.099188849 0.047716882 0.49800003
0.10048717 0.047716882 0.49800003
0.10198987 0.0478127 0.49900001
0.1032908 0.0478127 0.49900001
0.10459173 0.0478127 0.49900001
0.10589265 0.0478127 0.49900001
0.10719357 0.0478127 0.49900001
0.10871192 0.047908515 0.5
0.11023549 0.048004337 0.50100005
0.11154163 0.048004337 0.50100005
0.11307301 0.048100151 0.50200003
0.11438176 0.048100151 0.50200003
0.11592096 0.048195969 0.50300002
0.11746538 0.048291784 0.50400001
0.11877933 0.048291784 0.50400001
0.12033157 0.048387598 0.505
0.12164814 0.048387598 0.505
0.12320822 0.04848342 0.50600004
0.12452739 0.04848342 0.50600004
0.12584656 0.04848342 0.50600004
0.12716573 0.04848342 0.50600004
0.12848492 0.04848342 0.50600004
0.1300606 0.048579238 0.50700003
0.13138239 0.048579238 0.50700003
0.13270418 0.048579238 0.50700003
0.13402596 0.048579238 0.50700003
0.13561469 0.048675053 0.50800002
0.13693908 0.048675053 0.50800002
0.13826348 0.048675053 0.50800002
0.13986263 0.048770867 0.509
0.14118963 0.048770867 0.509
0.14279662 0.048866689 0.51000005
0.14412624 0.048866689 0.51000005
0.14574103 0.048962507 0.51100004
0.14707325 0.048962507 0.51100004
0.14869587 0.049058322 0.51200002
0.15003069 0.049058322 0.51200002
0.15166114 0.049154136 0.51300001
0.1532968 0.049249955 0.514
0.15463684 0.049249955 0.514
0.15628034 0.049345773 0.51500005
0.15762298 0.049345773 0.51500005
0.15927428 0.049441591 0.51600003
0.16061953 0.049441591 0.51600003
0.16227865 0.049537405 0.51700002
0.16362651 0.049537405 0.51700002
0.16529344 0.049633224 0.51800001
0.1666439 0.049633224 0.51800001
0.16799437 0.049633224 0.51800001
0.16934483 0.049633224 0.51800001
0.17069529 0.049633224 0.51800001
0.17204574 0.049633224 0.51800001
0.17373097 0.049729042 0.51900005
0.17508402 0.049729042 0.51900005
0.17677705 0.04982486 0.52000004
0.17813271 0.04982486 0.52000004
0.17948839 0.04982486 0.52000004
0.18119183 0.049920674 0.52100003
0.18255012 0.049920674 0.52100003
0.18390839 0.049920674 0.52100003
0.18526667 0.049920674 0.52100003
0.18698315 0.050016493 0.52200001
0.18834405 0.050016493 0.52200001
0.19006835 0.050112307 0.523
0.19143184 0.050112307 0.523
0.19279534 0.050112307 0.523
0.19453008 0.050208129 0.52400005
0.19627003 0.050303943 0.52500004
0.19763874 0.050303943 0.52500004
0.19938651 0.050399758 0.52600002
0.20075782 0.050399758 0.52600002
0.20251341 0.050495576 0.52700001
0.20427421 0.050591391 0.528
0.20604025 0.050687212 0.52900004
0.20741938 0.050687212 0.52900004
0.20919321 0.050783027 0.53000003
0.21057497 0.050783027 0.53000003
0.21195671 0.050783027 0.53000003
0.21333845 0.050783027 0.53000003
0.21512532 0.050878845 0.53100002
0.21650967 0.050878845 0.53100002
0.21830437 0.05097466 0.53200001
0.21969132 0.05097466 0.53200001
0.22107828 0.05097466 0.53200001
0.22288343 0.051070482 0.53300005
0.22427298 0.051070482 0.53300005
0.22566256 0.051070482 0.53300005
0.2274781 0.051166296 0.53400004
0.22887027 0.051166296 0.53400004
0.23026246 0.051166296 0.53400004
0.23208842 0.051262114 0.53500003
0.23348321 0.051262114 0.53500003
0.23531699 0.051357929 0.53600001
0.23671439 0.051357929 0.53600001
0.23811176 0.051357929 0.53600001
0.23995601 0.051453743 0.537
0.24180546 0.051549565 0.53800005
0.24320807 0.051549565 0.53800005
0.24461067 0.051549565 0.53800005
0.24647054 0.051645383 0.53900003
0.24833561 0.051741198 0.54000002
0.24974343 0.051741198 0.54000002
0.25115126 0.051741198 0.54000002
0.25302675 0.051837012 0.54100001
0.25490752 0.051932834 0.54200006
0.25632054 0.051932834 0.54200006
0.25820908 0.052028652 0.54300004
-0.23032475 0.039960183 0.40600002
-0.22983097 0.040058605 0.40700001
-0.2287699 0.040058605 0.40700001
-0.22770883 0.040058605 0.40700001
-0.22664773 0.040058605 0.40700001
-0.22614095 0.040157031 0.40800002
-0.22507727 0.040157031 0.40800002
-0.22401357 0.040157031 0.40800002
-0.22294989 0.040157031 0.40800002
-0.22188622 0.040157031 0.40800002
-0.22082254 0.040157031 0.40800002
-0.22029746 0.040255453 0.40900001
-0.21923117 0.040255453 0.40900001
-0.21816489 0.040255453 0.40900001
-0.21709861 0.040255453 0.40900001
-0.21656051 0.040353879 0.41000003
-0.21549162 0.040353879 0.41000003
-0.21442273 0.040353879 0.41000003
-0.21335384 0.040353879 0.41000003
-0.21280269 0.040452302 0.41100001
-0.2117312 0.040452302 0.41100001
-0.2106597 0.040452302 0.41100001
-0.20958817 0.040452302 0.41100001
-0.20851667 0.040452302 0.41100001
-0.20794992 0.040550727 0.41200003
-0.20687582 0.040550727 0.41200003
-0.20580171 0.040550727 0.41200003
-0.20472759 0.040550727 0.41200003
-0.20414779 0.040649153 0.41300002
-0.20307106 0.040649153 0.41300002
-0.20199434 0.040649153 0.41300002
-0.20140412 0.040747579 0.41400003
-0.20032479 0.040747579 0.41400003
-0.19972673 0.040846001 0.41500002
-0.1986448 0.040846001 0.41500002
-0.19756287 0.040846001 0.41500002
-0.19695437 0.040944424 0.41600001
-0.19586985 0.040944424 0.41600001
-0.1947853 0.040944424 0.41600001
-0.19370076 0.040944424 0.41600001
-0.19261622 0.040944424 0.41600001
-0.19153169 0.040944424 0.41600001
-0.19044715 0.040944424 0.41600001
-0.18981782 0.041042849 0.41700003
-0.18873067 0.041042849 0.41700003
-0.18764351 0.041042849 0.41700003
-0.18655638 0.041042849 0.41700003
-0.18546923 0.041042849 0.41700003
-0.18482424 0.041141272 0.41800001
-0.18373449 0.041141272 0.41800001
-0.18264474 0.041141272 0.41800001
-0.18155499 0.041141272 0.41800001
-0.18089698 0.041239697 0.41900003
-0.17980462 0.041239697 0.41900003
-0.17871226 0.041239697 0.41900003
-0.17804381 0.04133812 0.42000002
-0.17694885 0.04133812 0.42000002
-0.17585388 0.04133812 0.42000002
-0.1747589 0.04133812 0.42000002
-0.17407744 0.041436546 0.42100003
-0.17297985 0.041436546 0.42100003
-0.17188229 0.041436546 0.42100003
-0.17119037 0.041534968 0.42200002
-0.1700902 0.041534968 0.42200002
-0.16899 0.041534968 0.42200002
-0.16828766 0.04163339 0.42300001
-0.16718487 0.04163339 0.42300001
-0.16647473 0.041731816 0.42400002
-0.16536933 0.041731816 0.42400002
-0.16426393 0.041731816 0.42400002
-0.16354334 0.041830242 0.42500001
-0.16243534 0.041830242 0.42500001
-0.16132735 0.041830242 0.42500001
-0.16021933 0.041830242 0.42500001
-0.15911134 0.041830242 0.42500001
-0.15800333 0.041830242 0.42500001
-0.15689534 0.041830242 0.42500001
-0.15578732 0.041830242 0.42500001
-0.15504329 0.041928668 0.42600003
-0.15393268 0.041928668 0.42600003
-0.15318081 0.04202709 0.42700002
-0.15206759 0.04202709 0.42700002
-0.15095437 0.04202709 0.42700002
-0.15019207 0.042125516 0.42800003
-0.14907624 0.042125516 0.42800003
-0.14796042 0.042125516 0.42800003
-0.14718768 0.042223938 0.42900002
-0.14606926 0.042223938 0.42900002
-0.14495082 0.042223938 0.42900002
-0.14416768 0.04232236 0.43000001
