# .PCD v0.7 - Point Cloud Data file format
VERSION 0.7
FIELDS x y z rgb
SIZE 4 4 4 4
TYPE F F F U
COUNT 1 1 1 1
WIDTH 1055
HEIGHT 1
VIEWPOINT 0 0 0 1 0 0 0
POINTS 1055
DATA ascii
0.073764682 0.062414069 0.22642925 4278255360
0.078329422 0.062546529 0.22224042 4278255360
0.08226312 0.062557578 0.21745224 4278255360
0.085486665 0.062446997 0.21216099 4278255360
0.087935247 0.062217005 0.20647308 4278255360
0.089559622 0.061872229 0.20050289 4278255360
0.090327136 0.061419602 0.19437045 4278255360
0.090222336 0.060868222 0.18819907 4278255360
0.089247353 0.060229182 0.18211289 4278255360
0.062472358 0.061702769 0.23240688 4278255360
0.068332665 0.062171929 0.23044795 4278255360
0.073865399 0.062534556 0.22768061 4278255360
0.078959294 0.06278336 0.22416052 4278255360
0.083511926 0.062913343 0.21995844 4278255360
0.087431744 0.062921882 0.21515889 4278255360
0.090639934 0.062808804 0.20985837 4278255360
0.093071982 0.062576398 0.20416348 4278255360
0.094678976 0.06222932 0.19818871 4278255360
0.095428616 0.061774559 0.19205421 4278255360
0.095305815 0.061221257 0.18588334 4278255360
0.094313055 0.06058054 0.1798002 4278255360
0.092470288 0.059865292 0.1739271 4278255360
0.073183432 0.062444109 0.22749878 4278255360
0.078708224 0.062804461 0.22471532 4278255360
0.083791971 0.063050859 0.22118041 4278255360
0.088332452 0.063178353 0.21696514 4278255360
0.092238359 0.063184381 0.21215425 4278255360
0.095431164 0.063068822 0.20684451 4278255360
0.097846657 0.062833995 0.20114267 4278255360
0.099436261 0.062484622 0.19516338 4278255360
0.10016803 0.06202773 0.18902689 4278255360
0.10002723 0.061472509 0.18285659 4278255360
0.099016689 0.060830124 0.17677654 4278255360
0.097156748 0.060113486 0.17090902 4278255360
0.094484799 0.059337012 0.16537201 4278255360
0.083090022 0.062967047 0.22109939 4278255360
0.088163577 0.063211039 0.2175497 4278255360
0.092691869 0.063336052 0.21332125 4278255360
0.096583843 0.063339569 0.20849909 4278255360
0.099761233 0.063221514 0.20318016 4278255360
0.10216015 0.062984273 0.19747142 4278255360
0.10373235 0.062632613 0.19148767 4278255360
0.10444622 0.062173594 0.18534923 4278255360
0.10428742 0.061616458 0.17917953 4278255360
0.10325913 0.060972407 0.17310265 4278255360
0.10138203 0.060254388 0.16724077 4278255360
0.098693863 0.059476841 0.16171175 4278255360
0.095248684 0.0586554 0.15662681 4278255360
0.091984645 0.06326063 0.21334273 4278255360
0.09650071 0.063383155 0.20910116 4278255360
0.1003787 0.06338416 0.20426774 4278255360
0.10354065 0.063263617 0.19893967 4278255360
0.10592297 0.063023962 0.19322409 4278255360
0.10747775 0.062670007 0.18723592 4278255360
0.10817374 0.062208876 0.18109559 4278255360
0.10799694 0.061649829 0.17492655 4278255360
0.1069509 0.061004117 0.16885288 4278255360
0.10505666 0.060284723 0.16299668 4278255360
0.1023523 0.059506111 0.15747571 4278255360
0.098892204 0.058683936 0.15240102 4278255360
0.094745964 0.057834737 0.14787462 4278255360
0.099681012 0.063318707 0.20439126 4278255360
0.103545 0.063317202 0.19954664 4278255360
0.10669148 0.063194178 0.19420947 4278255360
0.10905718 0.062952109 0.1884871 4278255360
0.11059453 0.062595867 0.18249457 4278255360
0.11127263 0.062132616 0.1763524 4278255360
0.11107783 0.061571665 0.17018408 4278255360
0.11001404 0.060924299 0.16411364 4278255360
0.10810267 0.060203534 0.15826319 4278255360
0.10538214 0.05942386 0.15275033 4278255360
0.10190717 0.058600962 0.14768593 4278255360
0.097747624 0.057751384 0.14317182 4278255360
0.09298715 0.056892205 0.13929878 4278255360
0.10601793 0.063140064 0.19443245 4278255360
0.10914891 0.063014552 0.18908624 4278255360
0.11149798 0.062770076 0.18335712 4278255360
0.11301789 0.062411554 0.17736028 4278255360
0.11367808 0.061946187 0.17121631 4278255360
0.11346529 0.061383337 0.16504876 4278255360
0.11238377 0.060734324 0.15898165 4278255360
0.11045529 0.060012192 0.15313697 4278255360
0.10771862 0.059231471 0.14763226 4278255360
0.10422879 0.058407851 0.1425782 4278255360
0.10005598 0.0575579 0.13807642 4278255360
0.095284089 0.056698706 0.13421746 4278255360
0.090009078 0.055847548 0.13107888 4278255360
0.11086268 0.062728442 0.18367489 4278255360
0.11319509 0.06248156 0.17793906 4278255360
0.11469755 0.062120754 0.17193796 4278255360
0.11533983 0.061653279 0.16579226 4278255360
0.11510903 0.061088532 0.15962553 4278255360
0.1140098 0.060437873 0.15356177 4278255360
0.11206422 0.059714388 0.14772293 4278255360
0.10931143 0.058932617 0.14222641 4278255360
0.10580678 0.058108289 0.13718274 4278255360
0.10162073 0.057257973 0.13269334 4278255360
0.096837483 0.056398772 0.12884846 4278255360
0.091553196 0.05554796 0.12572546 4278255360
0.085874133 0.054722648 0.1233871 4278255360
0.11411381 0.062092461 0.17234387 4278255360
0.11559879 0.061729375 0.16633856 4278255360
0.11622316 0.061259795 0.16019116 4278255360
0.11597437 0.06069316 0.15402532 4278255360
0.11485742 0.060040865 0.14796497 4278255360
0.11289477 0.059316024 0.14213201 4278255360
0.11012588 0.058533218 0.13664374 4278255360
0.10660643 0.057708185 0.1316105 4278255360
0.10240719 0.056857511 0.12713349 4278255360
0.097612612 0.05599831 0.12330276 4278255360
0.092319094 0.055147853 0.12019533 4278255360
0.086633079 0.054323241 0.11787368 4278255360
0.080668911 0.053541061 0.11638451 4278255360
0.1157032 0.061245441 0.1606767 4278255360
0.11630966 0.06077376 0.15452769 4278255360
0.11604287 0.06020524 0.14836276 4278255360
0.11490822 0.059551314 0.14230588 4278255360
0.11292851 0.058825128 0.13647887 4278255360
0.11014354 0.058041289 0.13099886 4278255360
0.10660933 0.057215557 0.1259761 4278255360
0.10239694 0.056364536 0.12151154 4278255360
0.097591072 0.055505339 0.11769497 4278255360
0.09228836 0.054655243 0.11460315 4278255360
0.086595446 0.053831339 0.11229824 4278255360
0.080626793 0.053050201 0.11082657 4278255360
0.074502423 0.052327529 0.11021777 4278255360
0.11559759 0.060205124 0.14891776 4278255360
0.11531281 0.059634723 0.14275381 4278255360
0.11416047 0.058979169 0.13670045 4278255360
0.11216371 0.058251645 0.13087942 4278255360
0.1093627 0.057466783 0.12540777 4278255360
0.10581375 0.056640361 0.1203955 4278255360
0.10158823 0.055788994 0.11594342 4278255360
0.096771121 0.054929812 0.11214107 4278255360
0.091459267 0.054080084 0.10906487 4278255360
0.085759498 0.053256899 0.10677671 4278255360
0.079786412 0.052476808 0.10532258 4278255360
0.073660128 0.051755499 0.10473173 4278255360
0.067503825 0.051107477 0.10501605 4278255360
0.11379918 0.058993299 0.13731331 4278255360
0.11262914 0.058336124 0.13126352 4278255360
0.11061536 0.057607267 0.12544852 4278255360
0.10779832 0.056821384 0.11998525 4278255360
0.10423467 0.055994276 0.11498354 4278255360
0.099996068 0.055142578 0.11054398 4278255360
0.095167749 0.054283414 0.10675585 4278255360
0.089846797 0.053434063 0.10369532 4278255360
0.084140219 0.052611601 0.10142393 4278255360
0.078162752 0.051832564 0.099987343 4278255360
0.072034597 0.051112626 0.09941446 4278255360
0.065878987 0.050466254 0.099716797 4278255360
0.059819695 0.049906451 0.10088828 4278255360
0.11034563 0.057635341 0.12610638 4278255360
0.10831483 0.056905158 0.12029747 4278255360
0.1054818 0.056118261 0.11484262 4278255360
0.10190347 0.055290479 0.10985151 4278255360
0.097651824 0.054438453 0.10542451 4278255360
0.092812337 0.053579316 0.10165065 4278255360
0.087482341 0.052730348 0.098605797 4278255360
0.081768997 0.051908616 0.096351191 4278255360
0.075787202 0.051130645 0.094932169 4278255360
0.069657236 0.050412077 0.094377257 4278255360
0.063502356 0.049767364 0.094697617 4278255360
0.057446342 0.049209468 0.095886812 4278255360
0.051610962 0.048749611 0.097920917 4278255360
0.068301812 0.061997883 0.22849715 4278255360
0.074173264 0.062471297 0.22657292 4278255360
0.079721943 0.062838532 0.22383831 4278255360
0.084836274 0.063092202 0.22034833 4278255360
0.089413404 0.063227214 0.21617311 4278255360
0.093361303 0.063240841 0.21139663 4278255360
0.096600592 0.063132815 0.20611496 4278255360
0.099066116 0.062905304 0.20043428 4278255360
0.10070831 0.06256289 0.19446883 4278255360
0.10149416 0.062112458 0.18833853 4278255360
0.10140784 0.06156306 0.18216671 4278255360
0.1004511 0.060925744 0.17607744 4278255360
0.098643191 0.060213327 0.17019317 4278255360
0.079041108 0.062747851 0.22365244 4278255360
0.084581941 0.063112818 0.22090167 4278255360
0.089686207 0.063364089 0.2173968 4278255360
0.094251268 0.063496612 0.2132083 4278255360
0.098185331 0.063507728 0.20842043 4278255360
0.10140928 0.063397214 0.20312943 4278255360
0.1038583 0.063167289 0.1974417 4278255360
0.10548313 0.062822573 0.19147162 4278255360
0.10625111 0.062369999 0.18533924 4278255360
0.10614679 0.06181867 0.17916787 4278255360
0.10517227 0.061179675 0.17308158 4278255360
0.10334715 0.060465857 0.1672028 4278255360
0.10070811 0.059691574 0.1616497 4278255360
0.088984795 0.063279971 0.21731159 4278255360
0.094078958 0.063528836 0.21379189 4278255360
0.098631904 0.063658878 0.20959017 4278255360
0.10255209 0.063667484 0.20479091 4278255360
0.10576069 0.063554481 0.19949064 4278255360
0.10819317 0.063322134 0.19379592 4278255360
0.10980062 0.062975116 0.18782127 4278255360
0.11055073 0.062520415 0.18168683 4278255360
0.11042841 0.061967161 0.17551595 4278255360
0.10943611 0.061326489 0.16943273 4278255360
0.1075938 0.060611274 0.16355947 4278255360
0.10493851 0.059835907 0.1580143 4278255360
0.10152364 0.059015974 0.1529087 4278255360
0.097924605 0.063583083 0.20960744 4278255360
0.10246541 0.063710645 0.20539251 4278255360
0.10637169 0.063716739 0.20058192 4278255360
0.10956489 0.063601241 0.19527242 4278255360
0.11198083 0.06336648 0.18957075 4278255360
0.11357089 0.063017167 0.18359159 4278255360
0.11430312 0.062560335 0.17745514 4278255360
0.1141628 0.062005162 0.17128482 4278255360
0.11315273 0.061362818 0.1652047 4278255360
0.11129323 0.060646217 0.15933703 4278255360
0.10862171 0.05986977 0.15379982 4278255360
0.10519187 0.059049089 0.14870438 4278255360
0.10107268 0.058200676 0.14415319 4278255360
0.10567331 0.063650846 0.2007013 4278255360
0.10956565 0.06365443 0.19587943 4278255360
0.11274344 0.063536443 0.19056074 4278255360
0.1151428 0.063299268 0.18485218 4278255360
0.11671546 0.062947661 0.17886855 4278255360
0.11742981 0.062488705 0.17273016 4278255360
0.11727148 0.061931618 0.16656046 4278255360
0.11624366 0.061287608 0.16048348 4278255360
0.11436701 0.060569625 0.15462144 4278255360
0.11167927 0.059792109 0.14909223 4278255360
0.10823448 0.058970686 0.144007 4278255360
0.10410193 0.058121882 0.13946803 4278255360
0.09936469 0.05726276 0.13556659 4278255360
0.11206863 0.063481845 0.19077973 4278255360
0.11523098 0.063361377 0.18545189 4278255360
0.11761374 0.063121781 0.1797365 4278255360
0.11916899 0.062767886 0.17374845 4278255360
0.11986545 0.062306806 0.16760816 4278255360
0.11968911 0.061747812 0.16143911 4278255360
0.11864354 0.061102144 0.15536535 4278255360
0.11674975 0.060382783 0.149509 4278255360
0.11404581 0.059604201 0.14398782 4278255360
0.11058612 0.058782045 0.13891286 4278255360
0.10644022 0.057932854 0.13438614 4278255360
0.1016915 0.057073701 0.13049869 4278255360
0.096435428 0.056221865 0.12732869 4278255360
0.11697661 0.063079618 0.18005051 4278255360
0.11934275 0.062837608 0.17432831 4278255360
0.12088057 0.062481429 0.1683359 4278255360
0.12155914 0.062018234 0.16219376 4278255360
0.1213648 0.061457332 0.15602542 4278255360
0.12030149 0.060810011 0.14995492 4278255360
0.11839057 0.060089279 0.1441043 4278255360
0.11567046 0.059309635 0.13859123 4278255360
0.11219588 0.058486756 0.13352656 4278255360
0.10803668 0.057637189 0.12901214 4278255360
0.10327651 0.05677801 0.12513873 4278255360
0.098011069 0.055926505 0.12198422 4278255360
0.092346251 0.055099793 0.11961207 4278255360
0.12029447 0.062452577 0.16873835 4278255360
0.12181484 0.062094115 0.16274163 4278255360
0.1224755 0.061628804 0.1565977 4278255360
0.12226318 0.061066002 0.15043013 4278255360
0.12118213 0.06041703 0.14436293 4278255360
0.1192541 0.059694938 0.1385181 4278255360
0.11651785 0.05891424 0.13301317 4278255360
0.11302841 0.058090642 0.12795885 4278255360
0.10885595 0.057240702 0.12345674 4278255360
0.10408437 0.056381509 0.11959741 4278255360
0.0988096 0.055530343 0.11645843 4278255360
0.093137726 0.054704316 0.11410294 4278255360
0.087182797 0.053920042 0.1125783 4278255360
0.12195271 0.061613873 0.15708017 4278255360
0.12259547 0.061146449 0.15093452 4278255360
0.12236515 0.060581755 0.14476776 4278255360
0.12126637 0.05993114 0.13870393 4278255360
0.11932125 0.059207689 0.13286492 4278255360
0.11656888 0.058425948 0.1273682 4278255360
0.11306462 0.057601638 0.12232424 4278255360
0.10887893 0.056751333 0.11783451 4278255360
0.10409597 0.055892128 0.11398927 4278255360
0.098811924 0.055041309 0.11086585 4278255360
0.093133047 0.054215979 0.10852706 4278255360
0.087173536 0.053432733 0.10701991 4278255360
0.08105322 0.052707322 0.10637473 4278255360
0.12191661 0.060581058 0.14532015 4278255360
0.12166829 0.060014471 0.13915427 4278255360
0.12055181 0.059362218 0.13309385 4278255360
0.1185896 0.058637414 0.12726073 4278255360
0.11582114 0.057854638 0.12177224 4278255360
0.11230208 0.05702962 0.11673871 4278255360
0.10810319 0.056178957 0.11226138 4278255360
0.10330891 0.055319753 0.10843028 4278255360
0.098015629 0.054469287 0.10532244 4278255360
0.0923298 0.053644657 0.10300035 4278255360
0.086365752 0.052862447 0.10151071 4278255360
0.080243409 0.052138388 0.10088348 4278255360
0.074085884 0.051487036 0.10113126 4278255360
0.12018692 0.059375767 0.13370457 4278255360
0.11905273 0.058721885 0.12764761 4278255360
0.11707347 0.057995737 0.12182043 4278255360
0.11428893 0.057211924 0.11634022 4278255360
0.1107551 0.05638621 0.11131717 4278255360
0.10654306 0.055535197 0.10685229 4278255360
0.10173748 0.054676 0.10303535 4278255360
0.096435018 0.053825893 0.099943109 4278255360
0.090742275 0.053001974 0.09763775 4278255360
0.084773742 0.052220806 0.096165635 4278255360
0.078649431 0.0514981 0.095556356 4278255360
0.07249248 0.050848387 0.095822163 4278255360
0.066426709 0.050284736 0.096957721 4278255360
0.11679987 0.058023248 0.12247671 4278255360
0.11480356 0.057295758 0.11665552 4278255360
0.11200297 0.056510922 0.11118364 4278255360
0.10845441 0.055684518 0.1061711 4278255360
0.10422924 0.054833163 0.10171869 4278255360
0.099412419 0.053973977 0.097915962 4278255360
0.094100811 0.053124238 0.094839357 4278255360
0.088401213 0.052301034 0.092550747 4278255360
0.082428247 0.051520918 0.091096163 4278255360
0.076302014 0.050799575 0.09050484 4278255360
0.070145696 0.050151508 0.090788685 4278255360
0.064083099 0.049589753 0.091941975 4278255360
0.058236122 0.049125604 0.093941525 4278255360
0.1118264 0.056551822 0.11187173 4278255360
0.10900978 0.055765964 0.10640822 4278255360
0.10544652 0.054938875 0.10140624 4278255360
0.10120825 0.054087188 0.096966356 4278255360
0.096380234 0.053228024 0.093177855 4278255360
0.091059521 0.052378662 0.090116911 4278255360
0.085353121 0.051556177 0.087845072 4278255360
0.079375766 0.050777115 0.086408027 4278255360
0.073247664 0.050057139 0.085834675 4278255360
0.067092031 0.049410727 0.086136535 4278255360
0.061032657 0.048850875 0.08730755 4278255360
0.055191375 0.048388839 0.089324169 4278255360
0.049685653 0.048033915 0.09214583 4278255360
0.084281757 0.062911578 0.21897648 4278255360
0.089838445 0.063281141 0.2162585 4278255360
0.094963051 0.063537277 0.2127838 4278255360
0.099552535 0.063674822 0.20862225 4278255360
0.1035146 0.063691027 0.20385754 4278255360
0.10676959 0.063585564 0.19858547 4278255360
0.10925204 0.063360542 0.19291206 4278255360
0.11091205 0.06302049 0.1869514 4278255360
0.11171622 0.062572256 0.18082334 4278255360
0.11164838 0.062024839 0.1746511 4278255360
0.11070991 0.061389256 0.16855881 4278255360
0.10891967 0.060678285 0.16266896 4278255360
0.10631365 0.059906222 0.15709999 4278255360
0.09426219 0.063452847 0.21269444 4278255360
0.099376783 0.063706584 0.20920482 4278255360
0.10395423 0.063841656 0.20502996 4278255360
0.1079025 0.06385535 0.2002538 4278255360
0.11114218 0.063747391 0.19497237 4278255360
0.11360814 0.063519947 0.18929186 4278255360
0.1152508 0.063177593 0.18332653 4278255360
0.11603711 0.062727213 0.17719631 4278255360
0.11595127 0.062177867 0.17102447 4278255360
0.114995 0.061540596 0.16493511 4278255360
0.11318754 0.060828216 0.1590507 4278255360
0.11056522 0.060055055 0.15348954 4278255360
0.10718078 0.059236657 0.14836349 4278255360
0.10324688 0.063765489 0.20504303 4278255360
0.10781226 0.063898079 0.2008549 4278255360
0.11174669 0.063909262 0.19606732 4278255360
0.11497104 0.063798808 0.19077657 4278255360
0.11742049 0.063568942 0.18508902 4278255360
0.11904579 0.063224286 0.17911907 4278255360
0.11981423 0.062771775 0.17298673 4278255360
0.11971039 0.062220495 0.16681534 4278255360
0.11873633 0.061581545 0.16072899 4278255360
0.11691166 0.060867764 0.15485005 4278255360
0.11427306 0.060093511 0.14929676 4278255360
0.11087359 0.059274349 0.14418077 4278255360
0.10678161 0.058426756 0.13960497 4278255360
0.11104766 0.063842937 0.19618256 4278255360
0.11496822 0.06385161 0.1913836 4278255360
0.11817721 0.063738666 0.18608357 4278255360
0.12061013 0.06350638 0.18038905 4278255360
0.12221804 0.063159429 0.17441452 4278255360
0.12296862 0.062704779 0.16828012 4278255360
0.12284677 0.062151581 0.16210924 4278255360
0.12185495 0.06151095 0.15602593 4278255360
0.12001308 0.060795777 0.15015253 4278255360
0.11735822 0.060020436 0.14460714 4278255360
0.11394375 0.059200522 0.13950127 4278255360
0.10983832 0.058352519 0.1349376 4278255360
0.1051245 0.057493486 0.13100788 4278255360
0.11750115 0.063683584 0.18629856 4278255360
0.12069476 0.063568152 0.18098931 4278255360
0.12311113 0.063333452 0.17528783 4278255360
0.12470166 0.062984198 0.16930878 4278255360
0.12543435 0.062527418 0.16317239 4278255360
0.12529451 0.061972301 0.15700205 4278255360
0.12428491 0.061330002 0.15092185 4278255360
0.12242587 0.060613438 0.14505403 4278255360
0.11975477 0.059837017 0.13951659 4278255360
0.11632532 0.059016358 0.1344209 4278255360
0.11220649 0.058167957 0.12986939 4278255360
0.10748108 0.057308875 0.12595361 4278255360
0.10224414 0.056456387 0.12275229 4278255360
0.12247219 0.063290752 0.17559807 4278255360
0.12487198 0.063053638 0.16988969 4278255360
0.1264451 0.062702097 0.16390617 4278255360
0.12715992 0.062243193 0.15776783 4278255360
0.12700206 0.061686158 0.15159811 4278255360
0.1259747 0.061042193 0.14552104 4278255360
0.12409851 0.060324244 0.13965887 4278255360
0.1214112 0.059546754 0.13412943 4278255360
0.1179668 0.058725353 0.12904395 4278255360
0.1138346 0.057876557 0.12450466 4278255360
0.10909766 0.057017438 0.12060284 4278255360
0.10385126 0.056165267 0.11741696 4278255360
0.09820088 0.055337183 0.11501109 4278255360
0.12585667 0.062672682 0.16430517 4278255360
0.12741236 0.06231885 0.15831724 4278255360
0.12810931 0.061857827 0.15217699 4278255360
0.12793344 0.061298884 0.14600793 4278255360
0.12688833 0.060653258 0.13993408 4278255360
0.12499499 0.059933934 0.13407758 4278255360
0.12229149 0.059155378 0.12855619 4278255360
0.11883218 0.058333244 0.12348095 4278255360
0.11468664 0.057484061 0.11895391 4278255360
0.10993821 0.056624908 0.1150661 4278255360
0.10468239 0.055773064 0.1118957 4278255360
0.099024862 0.054945651 0.10950645 4278255360
0.093079381 0.054159313 0.10794641 4278255360
0.1275837 0.061842319 0.15265639 4278255360
0.12826273 0.061379176 0.14651431 4278255360
0.12806888 0.060818326 0.14034595 4278255360
0.12700602 0.060171049 0.13427535 4278255360
0.12509556 0.059450354 0.12842458 4278255360
0.12237588 0.058670737 0.1229113 4278255360
0.11890168 0.057847876 0.11784635 4278255360
0.11474284 0.056998316 0.1133316 4278255360
0.10998296 0.056139141 0.10945783 4278255360
0.10471777 0.055287626 0.10630292 4278255360
0.099053137 0.054460894 0.10393032 4278255360
0.093102969 0.05367557 0.10238775 4278255360
0.086986922 0.052947447 0.10170621 4278255360
0.12761711 0.060817044 0.14089569 4278255360
0.12740526 0.060254294 0.1347281 4278255360
0.12632467 0.059605367 0.12866081 4278255360
0.12439709 0.058883309 0.12281583 4278255360
0.12166127 0.058102641 0.11731069 4278255360
0.11817222 0.057279062 0.11225608 4278255360
0.1140001 0.056429129 0.10775366 4278255360
0.10922882 0.055569936 0.10389395 4278255360
0.1039543 0.054718759 0.10075457 4278255360
0.098282613 0.053892717 0.098398641 4278255360
0.092327811 0.053108413 0.096873544 4278255360
0.086209625 0.052381627 0.096209943 4278255360
0.080051087 0.051726967 0.096421182 4278255360
0.12595621 0.059618335 0.12926939 4278255360
0.1248579 0.058967765 0.12320547 4278255360
0.12291322 0.058244348 0.11736632 4278255360
0.12016127 0.057462633 0.11186936 4278255360
0.1166574 0.056638341 0.10682514 4278255360
0.11247206 0.055788048 0.10233509 4278255360
0.1076894 0.054928843 0.098489478 4278255360
0.1024056 0.054078016 0.095365644 4278255360
0.096726909 0.053252663 0.093026407 4278255360
0.09076751 0.052469391 0.091518804 4278255360
0.084647253 0.051743947 0.090873152 4278255360
0.078489184 0.051090918 0.091102421 4278255360
0.072417155 0.050523434 0.092202015 4278255360
0.12263577 0.0582713 0.118021 4278255360
0.12067401 0.05754653 0.11218774 4278255360
0.11790597 0.056763779 0.10669902 4278255360
0.1143873 0.05593878 0.10166522 4278255360
0.11018875 0.055088129 0.097187571 4278255360
0.10539477 0.054228924 0.093356095 4278255360
0.10010173 0.053378448 0.09024784 4278255360
0.094416082 0.052553799 0.087925315 4278255360
0.088452153 0.051771563 0.086435214 4278255360
0.082329862 0.051047467 0.08580751 4278255360
0.076172329 0.05039607 0.086054817 4278255360
0.070103355 0.049830474 0.087172166 4278255360
0.064244993 0.049362052 0.089137085 4278255360
0.11772534 0.056804147 0.10738608 4278255360
0.11494122 0.05602036 0.10190565 4278255360
0.11140779 0.055194665 0.096882328 4278255360
0.10719609 0.054343663 0.092417113 4278255360
0.10239081 0.053484466 0.088599801 4278255360
0.097088583 0.052634347 0.085507154 4278255360
0.091396026 0.05181041 0.083201356 4278255360
0.085427612 0.051029216 0.081728779 4278255360
0.079303347 0.050306473 0.081119031 4278255360
0.07314638 0.049656719 0.081384368 4278255360
0.067080535 0.049093015 0.082519457 4278255360
0.061227761 0.048626699 0.084501475 4278255360
0.055705767 0.048267148 0.087290563 4278255360
0.11132777 0.055247605 0.097587384 4278255360
0.1077796 0.054421216 0.092574574 4278255360
0.10355477 0.053569872 0.088121839 4278255360
0.098738246 0.052710686 0.084318727 4278255360
0.093426876 0.05186094 0.081241712 4278255360
0.087727465 0.051037714 0.078952663 4278255360
0.08175461 0.050257571 0.077497616 4278255360
0.075628422 0.049536191 0.076905824 4278255360
0.069472089 0.04888808 0.077189185 4278255360
0.06340941 0.048326276 0.078342013 4278255360
0.057562284 0.047862072 0.080341116 4278255360
0.052048292 0.047504801 0.083146289 4278255360
0.046978317 0.047261652 0.08670114 4278255360
0.098813064 0.063482024 0.20734239 4278255360
0.1039479 0.063740619 0.20388301 4278255360
0.10854969 0.063880719 0.19973515 4278255360
0.1125259 0.063899495 0.19498225 4278255360
0.11579657 0.063796587 0.18971984 4278255360
0.11829592 0.063574053 0.18405375 4278255360
0.11997371 0.063236378 0.17809793 4278255360
0.1207962 0.062790342 0.17197214 4278255360
0.12074684 0.062244914 0.16579956 4278255360
0.11982664 0.061611068 0.1597043 4278255360
0.11805409 0.060901545 0.15380892 4278255360
0.11546484 0.060130619 0.148232 4278255360
0.11211095 0.059313782 0.14308564 4278255360
0.10784232 0.063804172 0.19974403 4278255360
0.11243211 0.063941792 0.19558284 4278255360
0.11639455 0.063958064 0.19081841 4278255360
0.11964994 0.06385266 0.18554661 4278255360
0.12213283 0.063627705 0.17987338 4278255360
0.12379329 0.063287713 0.17391284 4278255360
0.12459792 0.06283953 0.16778484 4278255360
0.12453056 0.06229217 0.16161259 4278255360
0.12359256 0.061656632 0.15552022 4278255360
0.12180277 0.060945697 0.14963023 4278255360
0.11919719 0.060173664 0.14406106 4278255360
0.11582821 0.059356052 0.13892469 4278255360
0.11176357 0.058509309 0.13432442 4278255360
0.1156949 0.063891307 0.19092952 4278255360
0.11964352 0.063905068 0.18615365 4278255360
0.12288361 0.063797176 0.18087246 4278255360
0.12535001 0.063569792 0.17519215 4278255360
0.12699312 0.063227504 0.16922693 4278255360
0.1277799 0.062777176 0.16309677 4278255360
0.12769453 0.062227882 0.15692492 4278255360
0.12673874 0.061590657 0.15083548 4278255360
0.12493172 0.060878314 0.14495093 4278255360
0.12230983 0.060105179 0.13938957 4278255360
0.11892579 0.059286803 0.13426323 4278255360
0.11484765 0.058439635 0.12967502 4278255360
0.11015739 0.057580713 0.12571716 4278255360
0.12220633 0.063741602 0.18108346 4278255360
0.12543109 0.063631222 0.17579293 4278255360
0.12788098 0.063401416 0.17010558 4278255360
0.12950672 0.063056819 0.16413574 4278255360
0.13027564 0.06260436 0.15800346 4278255360
0.13017227 0.062053137 0.15183206 4278255360
0.12919869 0.061414227 0.14574564 4278255360
0.12737447 0.060700484 0.13986655 4278255360
0.12473629 0.05992626 0.13431305 4278255360
0.12133722 0.059107121 0.12919679 4278255360
0.11724559 0.058259536 0.12462067 4278255360
0.11254369 0.057400554 0.12067669 4278255360
0.10732605 0.056547448 0.11744416 4278255360
0.12724026 0.063358195 0.17041205 4278255360
0.1296736 0.063125975 0.16471769 4278255360
0.13128197 0.062779084 0.15874328 4278255360
0.13203302 0.06232449 0.15260895 4278255360
0.13191165 0.061771341 0.14643805 4278255360
0.13092029 0.061130755 0.14035466 4278255360
0.12907888 0.060415618 0.13448112 4278255360
0.12642445 0.059640303 0.12893552 4278255360
0.12301037 0.058820412 0.12382938 4278255360
0.11890529 0.05797242 0.11926538 4278255360
0.11419177 0.057113387 0.11533531 4278255360
0.10896458 0.056260578 0.11211817 4278255360
0.10332884 0.05543115 0.10967866 4278255360
0.13069123 0.062749118 0.1591388 4278255360
0.13228221 0.062399924 0.15315987 4278255360
0.13301538 0.061943203 0.14702353 4278255360
0.13287599 0.061388135 0.14085318 4278255360
0.13186687 0.060745876 0.1347729 4278255360
0.13000828 0.06002935 0.12890492 4278255360
0.12733762 0.059252959 0.12336729 4278255360
0.12390856 0.058432318 0.11827131 4278255360
0.11979008 0.057583928 0.11371949 4278255360
0.11506498 0.056724846 0.10980334 4278255360
0.10982829 0.055872351 0.10660162 4278255360
0.1041853 0.055043582 0.1041787 4278255360
0.09824948 0.054255206 0.1025833 4278255360
0.13248698 0.061927117 0.14749981 4278255360
0.13320227 0.06146827 0.14136153 4278255360
0.13304488 0.060911287 0.13519178 4278255360
0.132018 0.060267363 0.12911464 4278255360
0.13014226 0.059549455 0.12325232 4278255360
0.12745537 0.05877199 0.11772268 4278255360
0.12401137 0.057950608 0.11263691 4278255360
0.11987951 0.057101823 0.1080973 4278255360
0.11514288 0.056242704 0.10419512 4278255360
0.10989673 0.055390526 0.10100883 4278255360
0.10424653 0.054562423 0.098602526 4278255360
0.098305918 0.05377505 0.097024567 4278255360
0.092194349 0.053044233 0.096306697 4278255360
0.13258991 0.06090942 0.13573886 4278255360
0.13241452 0.060350522 0.12956978 4278255360
0.13136987 0.059704944 0.12349585 4278255360
0.12947699 0.058985654 0.1176392 4278255360
0.12677391 0.058207128 0.1121176 4278255360
0.12331499 0.057385013 0.10704209 4278255360
0.1191698 0.05653584 0.10251473 4278255360
0.11442167 0.055676688 0.098626547 4278255360
0.1091661 0.054824833 0.095455736 4278255360
0.10350876 0.053997405 0.093066052 4278255360
0.097563408 0.053211037 0.09150555 4278255360
0.091449596 0.052481551 0.090805605 4278255360
0.085290268 0.051823605 0.090980299 4278255360
0.13099784 0.059717335 0.12410227 4278255360
0.12993546 0.059070095 0.11803158 4278255360
0.12802544 0.058349438 0.11218067 4278255360
0.12530619 0.05756985 0.10666717 4278255360
0.12183239 0.056747008 0.10160195 4278255360
0.11767389 0.055897459 0.097086877 4278255360
0.11291432 0.055038285 0.093212731 4278255360
0.10764937 0.054186761 0.090057418 4278255360
0.10198492 0.053360011 0.087684378 4278255360
0.096034877 0.052574661 0.08614134 4278255360
0.089918882 0.0518465 0.085459329 4278255360
0.083759919 0.051190175 0.085652061 4278255360
0.077681832 0.050618879 0.086715654 4278255360
0.12774414 0.058375828 0.11283373 4278255360
0.125817 0.057653807 0.10698859 4278255360
0.12308161 0.056873165 0.10148323 4278255360
0.11959295 0.056049604 0.096428357 4278255360
0.11542118 0.055199683 0.091925606 4278255360
0.1106502 0.054340489 0.088065527 4278255360
0.10537592 0.053489305 0.084925734 4278255360
0.099704422 0.052663244 0.082569368 4278255360
0.093749739 0.051878914 0.081043817 4278255360
0.087631606 0.051152091 0.080379739 4278255360
0.08147306 0.05049739 0.080590509 4278255360
0.075397931 0.049927972 0.081671871 4278255360
0.069528386 0.049455289 0.083602093 4278255360
0.12289693 0.056913 0.10216925 4278255360
0.12014541 0.056131311 0.096672088 4278255360
0.11664193 0.055307038 0.09162759 4278255360
0.11245693 0.054456752 0.087137207 4278255360
0.10767457 0.053597551 0.083291225 4278255360
0.10239101 0.052746713 0.080166988 4278255360
0.096712507 0.051921345 0.077827312 4278255360
0.090753235 0.051138043 0.07631924 4278255360
0.084633023 0.050412565 0.075673118 4278255360
0.078474946 0.049759489 0.075901918 4278255360
0.072402835 0.049191955 0.077001043 4278255360
0.066538781 0.048721373 0.078948393 4278255360
0.061000705 0.048357207 0.081704818 4278255360
0.11655775 0.055359483 0.092332207 4278255360
0.11303947 0.054534502 0.087298132 4278255360
0.10884127 0.053683858 0.082820147 4278255360
0.10404758 0.052824657 0.078988299 4278255360
0.098754793 0.05197417 0.075879641 4278255360
0.093069322 0.051149506 0.073556669 4278255360
0.087105513 0.05036724 0.072066113 4278255360
0.080983274 0.049643107 0.071437933 4278255360
0.074825726 0.048991669 0.071684763 4278255360
0.06875667 0.048426025 0.07280165 4278255360
0.062898159 0.047957547 0.074766114 4278255360
0.057367995 0.047595654 0.077538677 4278255360
0.052277382 0.047347628 0.081063569 4278255360
0.10885935 0.053747818 0.083528601 4278255360
0.10464799 0.052896824 0.079063058 4278255360
0.099843018 0.052037627 0.075245373 4278255360
0.094541036 0.0511875 0.072152317 4278255360
0.088848658 0.050363541 0.069846079 4278255360
0.082880363 0.049582321 0.068373039 4278255360
0.07675615 0.048859544 0.067762814 4278255360
0.070599169 0.048209745 0.068027675 4278255360
0.064533234 0.047645994 0.069162294 4278255360
0.058680318 0.047179621 0.071143866 4278255360
0.053158112 0.046820007 0.073932536 4278255360
0.048077658 0.046574388 0.077472225 4278255360
0.043541119 0.046447694 0.081691764 4278255360
0.11161572 0.063698247 0.193819 4278255360
0.11622978 0.063840881 0.1896849 4278255360
0.12022008 0.063862242 0.18494383 4278255360
0.12350639 0.06376189 0.17969112 4278255360
0.12602262 0.063541852 0.17403242 4278255360
0.1277182 0.063206539 0.16808151 4278255360
0.12855899 0.062762707 0.16195804 4278255360
0.12852812 0.062219277 0.15578516 4278255360
0.1276262 0.061587173 0.14968698 4278255360
0.12587136 0.060879111 0.14378615 4278255360
0.12329888 0.060109325 0.13820128 4278255360
0.11996051 0.059293292 0.13304473 4278255360
0.11592336 0.058447424 0.12842014 4278255360
0.11951982 0.06379506 0.18505077 4278255360
0.12349638 0.063813902 0.18029815 4278255360
0.12676746 0.063711062 0.175036 4278255360
0.12926725 0.063488595 0.1693701 4278255360
0.13094549 0.063150972 0.16341442 4278255360
0.13176845 0.062704995 0.15728869 4278255360
0.13171957 0.06215962 0.15111609 4278255360
0.13079983 0.061525818 0.14502075 4278255360
0.12902774 0.060816333 0.13912523 4278255360
0.12643892 0.060045436 0.1335481 4278255360
0.12308542 0.059228621 0.12840147 4278255360
0.11903469 0.058382317 0.12378888 4278255360
0.11436818 0.057523541 0.11980303 4278255360
0.12608898 0.063655011 0.17524298 4278255360
0.12934476 0.063549675 0.16997139 4278255360
0.13182808 0.063324779 0.16429837 4278255360
0.133489 0.062984854 0.15833795 4278255360
0.13429411 0.062536724 0.15221 4278255360
0.13422722 0.061989415 0.14603774 4278255360
0.13328968 0.061353922 0.1399453 4278255360
0.13150035 0.060643021 0.13405517 4278255360
0.12889519 0.059871018 0.12848578 4278255360
0.12552661 0.059053428 0.12334916 4278255360
0.12146234 0.058206696 0.11874857 4278255360
0.11678409 0.057347845 0.11477652 4278255360
0.11158594 0.056494147 0.1115129 4278255360
0.13118559 0.063281037 0.16460103 4278255360
0.13365243 0.06305372 0.15892091 4278255360
0.135296 0.062711485 0.15295582 4278255360
0.13608325 0.06226122 0.1468257 4278255360
0.13599835 0.061711974 0.14065385 4278255360
0.13504303 0.06107479 0.13456434 4278255360
0.13323647 0.060362488 0.12867963 4278255360
0.13061501 0.059589382 0.12311807 4278255360
0.12723136 0.058771025 0.11799147 4278255360
0.12315357 0.057923868 0.11340293 4278255360
0.11846362 0.057064947 0.10944472 4278255360
0.11325584 0.056211539 0.10619643 4278255360
0.10763492 0.055380795 0.10372337 4278255360
0.13470295 0.06268096 0.15334783 4278255360
0.13632916 0.06233643 0.14737812 4278255360
0.13709855 0.061884023 0.1412459 4278255360
0.13699564 0.061332848 0.13507448 4278255360
0.13602254 0.060693987 0.12898797 4278255360
0.13419877 0.059980281 0.12310875 4278255360
0.13156103 0.059206083 0.11755504 4278255360
0.12816234 0.058386963 0.11243852 4278255360
0.12407107 0.057539392 0.10786208 4278255360
0.11936947 0.056680411 0.10391773 4278255360
0.11415208 0.055827294 0.10068479 4278255360
0.10852383 0.054997198 0.098228283 4278255360
0.10259788 0.054206811 0.09659759 4278255360
0.13656737 0.061867364 0.14171907 4278255360
0.13731889 0.061412826 0.13558479 4278255360
0.13719799 0.060859729 0.12941387 4278255360
0.13620709 0.060219187 0.12333041 4278255360
0.13436614 0.059504084 0.11745671 4278255360
0.13171212 0.058728803 0.11191091 4278255360
0.12829845 0.057908926 0.10680451 4278255360
0.12419372 0.057060946 0.1022402 4278255360
0.11948051 0.056201912 0.098309748 4278255360
0.11425357 0.0553491 0.0950922 4278255360
0.10861802 0.054519653 0.092652254 4278255360
0.10268717 0.053730257 0.09103898 4278255360
0.096580289 0.052996781 0.090284802 4278255360
0.13673981 0.060857274 0.12995829 4278255360
0.1366009 0.060302258 0.12378792 4278255360
0.13559224 0.059660044 0.11770754 4278255360
0.13373409 0.058943555 0.11183943 4278255360
0.13106385 0.058167193 0.10630158 4278255360
0.1276352 0.057346568 0.10120534 4278255360
0.12351707 0.056498189 0.096653193 4278255360
0.11879227 0.055639107 0.092736684 4278255360
0.11355583 0.054786604 0.089534551 4278255360
0.10791302 0.053957816 0.08711119 4278255360
0.10197733 0.053169414 0.085515335 4278255360
0.095868111 0.05243725 0.084779076 4278255360
0.089708202 0.051776044 0.084917217 4278255360
0.13521664 0.059671856 0.11831178 4278255360
0.13419022 0.059027977 0.11223456 4278255360
0.13231492 0.058310103 0.10637207 4278255360
0.12962845 0.057532668 0.10084222 4278255360
0.12618485 0.056711305 0.095756188 4278255360
0.12205335 0.055862531 0.091216259 4278255360
0.11731702 0.055003412 0.087313704 4278255360
0.11207111 0.054151226 0.084127016 4278255360
0.10642111 0.053323105 0.08172027 4278255360
0.10048062 0.052535702 0.08014185 4278255360
0.094369106 0.051804855 0.07942351 4278255360
0.088209458 0.051145256 0.079579689 4278255360
0.08212553 0.050570171 0.08060725 4278255360
0.13202977 0.058335926 0.10702349 4278255360
0.13013734 0.057616677 0.10116669 4278255360
0.12743469 0.056838177 0.095644884 4278255360
0.12397616 0.05601608 0.090569101 4278255360
0.11983132 0.055166919 0.086041413 4278255360
0.11508349 0.05430777 0.082152866 4278255360
0.10982817 0.053455904 0.078981645 4278255360
0.10417101 0.052628458 0.076591529 4278255360
0.09822578 0.051842064 0.075030565 4278255360
0.092112027 0.05111254 0.074330151 4278255360
0.085952692 0.050454553 0.074504368 4278255360
0.079871617 0.049881335 0.075549714 4278255360
0.073991098 0.049404413 0.077445164 4278255360
0.12724596 0.056877475 0.096329831 4278255360
0.12452714 0.056097914 0.090816118 4278255360
0.12105373 0.05527509 0.085750632 4278255360
0.11689558 0.054425552 0.081235237 4278255360
0.1121363 0.053566378 0.077360719 4278255360
0.1068716 0.052714843 0.074204996 4278255360
0.10120735 0.051888075 0.071831517 4278255360
0.095257424 0.051102698 0.070288025 4278255360
0.089141488 0.050374504 0.069605544 4278255360
0.08298251 0.049718134 0.069797799 4278255360
0.076904349 0.04914679 0.070860922 4278255360
0.071029216 0.048671957 0.072773546 4278255360
0.065475255 0.048303187 0.075497195 4278255360
0.12096539 0.055327039 0.086454771 4278255360
0.11747713 0.054503497 0.081399627 4278255360
0.11330571 0.053653587 0.076896548 4278255360
0.10853502 0.052794393 0.073036097 4278255360
0.10326099 0.051943198 0.069895901 4278255360
0.097589672 0.051117118 0.067539096 4278255360
0.091635115 0.050332762 0.066013075 4278255360
0.085517041 0.049605906 0.065348528 4278255360
0.079358481 0.04895116 0.065558821 4278255360
0.073283277 0.048381694 0.066639721 4278255360
0.067413583 0.047908958 0.068569489 4278255360
0.061867438 0.047542457 0.071309328 4278255360
0.056756362 0.047289561 0.074804142 4278255360
0.1133196 0.053717095 0.077605128 4278255360
0.10913495 0.05286682 0.073114417 4278255360
0.10435288 0.052007619 0.06926807 4278255360
0.099069573 0.05115677 0.066143416 4278255360
0.093391255 0.050331384 0.0638033 4278255360
0.087432101 0.049548056 0.062294777 4278255360
0.081311941 0.048822541 0.061648175 4278255360
0.07515385 0.048169423 0.061876502 4278255360
0.069081657 0.047601841 0.062975161 4278255360
0.063217461 0.047131203 0.064922065 4278255360
0.057679176 0.046766974 0.067678064 4278255360
0.052578174 0.046516482 0.071187735 4278255360
0.048017029 0.046384759 0.075380512 4278255360
0.10446872 0.052081361 0.069966249 4278255360
0.09967532 0.051222157 0.066134028 4278255360
0.09438277 0.050371662 0.06302496 4278255360
0.088697493 0.049546979 0.060701553 4278255360
0.082733795 0.048764687 0.059210531 4278255360
0.076611616 0.04804052 0.058581881 4278255360
0.070454046 0.047389038 0.058828238 4278255360
0.064384915 0.046823341 0.059944652 4278255360
0.058526255 0.046354808 0.06190867 4278255360
0.052995883 0.045992855 0.0646808 4278255360
0.047904998 0.045744766 0.068205304 4278255360
0.043355975 0.045615524 0.072411306 4278255360
0.039440285 0.045607731 0.077214234 4278255360
0.12244304 0.06355606 0.17866693 4278255360
0.12644741 0.063579999 0.17393774 4278255360
0.12974934 0.063482203 0.16869479 4278255360
0.13228244 0.063264653 0.16304353 4278255360
0.13399576 0.062931724 0.15709756 4278255360
0.13485487 0.062490102 0.15097648 4278255360
0.13484247 0.061948668 0.14480336 4278255360
0.13395883 0.061318316 0.13870233 4278255360
0.13222171 0.060611714 0.13279606 4278255360
0.12966605 0.059843075 0.12720335 4278255360
0.12634322 0.059027854 0.12203663 4278255360
0.12232006 0.058182444 0.1173998 4278255360
0.11767744 0.057323843 0.11338611 4278255360
0.12906969 0.063425675 0.16889775 4278255360
0.13235639 0.06332539 0.1636453 4278255360
0.13487306 0.063105412 0.15798679 4278255360
0.13656908 0.062770166 0.15203601 4278255360
0.13741036 0.06232639 0.1459126 4278255360
0.13737996 0.061783008 0.13973971 4278255360
0.1364785 0.061150949 0.13364147 4278255360
0.13472411 0.060442924 0.12774049 4278255360
0.13215207 0.059673168 0.12215543 4278255360
0.1288141 0.058857154 0.11699861 4278255360
0.12477731 0.058011301 0.11237371 4278255360
0.12012289 0.05715261 0.10837375 4278255360
0.11494441 0.056298353 0.10507914 4278255360
0.13422884 0.06306114 0.15828566 4278255360
0.13672906 0.062838741 0.15261996 4278255360
0.13840777 0.062501185 0.1466644 4278255360
0.13923119 0.062055256 0.14053872 4278255360
0.13918278 0.061509933 0.13436611 4278255360
0.13826352 0.060876176 0.1282707 4278255360
0.13649188 0.060166731 0.12237505 4278255360
0.13390347 0.059395861 0.11679771 4278255360
0.13055038 0.058579065 0.11165082 4278255360
0.12650001 0.057732776 0.10703791 4278255360
0.12183381 0.056874003 0.10305171 4278255360
0.1166456 0.056020018 0.099772371 4278255360
0.11103973 0.055187989 0.097265854 4278255360
0.13781245 0.062470101 0.14705291 4278255360
0.13947381 0.062130235 0.14109261 4278255360
0.1402794 0.061682168 0.13496473 4278255360
0.14021298 0.061134905 0.12879246 4278255360
0.13927591 0.060499456 0.12269994 4278255360
0.13748702 0.059788596 0.11680967 4278255360
0.1348823 0.059016619 0.11124008 4278255360
0.13151412 0.058199052 0.10610319 4278255360
0.1274502 0.057352327 0.10150228 4278255360
0.12277225 0.05649348 0.097529873 4278255360
0.11757436 0.055639774 0.094265848 4278255360
0.11196104 0.054808378 0.091775835 4278255360
0.10604517 0.054016009 0.090109907 4278255360
0.13974546 0.061664931 0.13543476 4278255360
0.14053318 0.061214719 0.12930471 4278255360
0.14044876 0.060665525 0.12313283 4278255360
0.1394939 0.060028385 0.11704325 4278255360
0.13768779 0.059316117 0.1111584 4278255360
0.13506676 0.058543045 0.10559663 4278255360
0.13168351 0.057724707 0.10046977 4278255360
0.12760608 0.056877561 0.095880911 4278255360
0.12291644 0.056018643 0.091922335 4278255360
0.11770891 0.055165224 0.088673644 4278255360
0.11208819 0.054334465 0.086200148 4278255360
0.10616732 0.053543072 0.084551603 4278255360
0.10006534 0.052806959 0.083761148 4278255360
0.13998739 0.060662489 0.12367454 4278255360
0.13988496 0.060111362 0.11750311 4278255360
0.13891232 0.059472546 0.11141652 4278255360
0.13708901 0.058758873 0.10553715 4278255360
0.13445169 0.057984706 0.09998323 4278255360
0.1310534 0.057165608 0.094866447 4278255360
0.12696248 0.056318045 0.090289682 4278255360
0.1222612 0.055459067 0.086344972 4278255360
0.11704406 0.054605942 0.083111636 4278255360
0.111416 0.053775828 0.080654688 4278255360
0.10549018 0.052985419 0.07902354 4278255360
0.099385753 0.052250601 0.078250982 4278255360
0.093225487 0.051586159 0.078352563 4278255360
0.13853317 0.059483774 0.11201855 4278255360
0.13754275 0.058843277 0.105935 4278255360
0.13570225 0.058128212 0.10006116 4278255360
0.13304867 0.05735296 0.094515145 4278255360
0.12963538 0.056533102 0.08940848 4278255360
0.12553102 0.055685133 0.084843844 4278255360
0.1208181 0.054826103 0.08091303 4278255360
0.11559141 0.05397328 0.077695079 4278255360
0.10995606 0.053143818 0.075254701 4278255360
0.10402534 0.052354395 0.073640965 4278255360
0.097918518 0.051620882 0.072886318 4278255360
0.0917584 0.050958034 0.073005937 4278255360
0.085668847 0.050379176 0.073997416 4278255360
0.13541327 0.058153473 0.10071091 4278255360
0.13355559 0.057437018 0.09484265 4278255360
0.13088578 0.056660686 0.089304589 4278255360
0.12745751 0.055840082 0.084208079 4278255360
0.12333973 0.054991711 0.079655617 4278255360
0.11861525 0.054132633 0.075738735 4278255360
0.11337905 0.053280119 0.0725362 4278255360
0.10773644 0.052451316 0.0701124 4278255360
0.10180087 0.051662888 0.068516091 4278255360
0.095691711 0.050930686 0.067779355 4278255360
0.089531794 0.05026944 0.067917019 4278255360
0.08344499 0.049692441 0.068926312 4278255360
0.077553697 0.049211293 0.070786931 4278255360
0.13069302 0.056699447 0.08998844 4278255360
0.12800699 0.055922039 0.084458381 4278255360
0.12456378 0.055100698 0.079372078 4278255360
0.12043262 0.054251932 0.074831821 4278255360
0.1156966 0.053392813 0.070928909 4278255360
0.11045094 0.052540619 0.067741811 4278255360
0.10480113 0.051712479 0.065334626 4278255360
0.09886077 0.050925054 0.063755751 4278255360
0.092749313 0.05019417 0.063036934 4278255360
0.086589657 0.049534529 0.063192636 4278255360
0.080505654 0.048959393 0.064219728 4278255360
0.074619651 0.048480328 0.06609755 4278255360
0.069049999 0.048106968 0.068788335 4278255360
0.12447128 0.055152148 0.080075718 4278255360
0.12101315 0.05433007 0.074999668 4278255360
0.11686866 0.053480919 0.070471659 4278255360
0.11212114 0.052621771 0.066582747 4278255360
0.10686606 0.051769897 0.063411117 4278255360
0.1012091 0.050942432 0.061020557 4278255360
0.095263988 0.050156012 0.059459135 4278255360
0.089150295 0.049426455 0.058758248 4278255360
0.082990944 0.048768423 0.058931991 4278255360
0.076909795 0.048195157 0.059976868 4278255360
0.071029134 0.047718178 0.061871871 4278255360
0.065467201 0.04734708 0.064578891 4278255360
0.060335845 0.047089327 0.0680435 4278255360
0.11687836 0.053543981 0.071180351 4278255360
0.11272056 0.052694451 0.066664629 4278255360
0.10796159 0.051835276 0.062789746 4278255360
0.10269713 0.050983734 0.059633613 4278255360
0.097033061 0.050156951 0.057259701 4278255360
0.091083266 0.049371548 0.055715743 4278255360
0.084967382 0.048643317 0.05503279 4278255360
0.078808397 0.047986906 0.055224568 4278255360
0.072730154 0.04741551 0.056287229 4278255360
0.066854879 0.046940625 0.058199398 4278255360
0.061300714 0.046571795 0.060922626 4278255360
0.056179341 0.046316437 0.064402156 4278255360
0.051593751 0.046179686 0.068568014 4278255360
0.10807328 0.051908631 0.06348864 4278255360
0.1033029 0.051049441 0.05962782 4278255360
0.098029107 0.050198238 0.05648721 4278255360
0.092357978 0.049372137 0.054129966 4278255360
0.086403534 0.048587754 0.052603491 4278255360
0.080285519 0.047860861 0.051938474 4278255360
0.074126951 0.047206074 0.05214829 4278255360
0.068051666 0.046636559 0.053228721 4278255360
0.06218183 0.046163768 0.055158038 4278255360
0.05663548 0.045797206 0.057897452 4278255360
0.05152414 0.045544248 0.061391871 4278255360
0.04695059 0.045409977 0.065571032 4278255360
0.0430068 0.045397095 0.070350893 4278255360
0.098240457 0.050280344 0.057161678 4278255360
0.092957385 0.049429487 0.054036617 4278255360
0.087279245 0.048604082 0.051696062 4278255360
0.081320211 0.047820728 0.050187077 4278255360
0.075200111 0.04709518 0.049540006 4278255360
0.069042012 0.046442021 0.049767856 4278255360
0.062969737 0.045874387 0.050866049 4278255360
0.057105392 0.045403693 0.052812502 4278255360
0.051566903 0.045039404 0.055568073 4278255360
0.046465635 0.044788849 0.059077356 4278255360
0.04190417 0.044657059 0.063269779 4278255360
0.037974231 0.044646692 0.068061046 4278255360
0.034754839 0.044757947 0.073354803 4278255360
0.13108641 0.063058212 0.16217811 4278255360
0.13440391 0.062962987 0.15694498 4278255360
0.13695385 0.062747933 0.15130119 4278255360
0.13868493 0.062417377 0.14536023 4278255360
0.13956232 0.061977968 0.13924159 4278255360
0.13956842 0.061438538 0.13306828 4278255360
0.13870306 0.06080994 0.12696445 4278255360
0.13698369 0.060104806 0.12105282 4278255360
0.13444485 0.059337325 0.11545229 4278255360
0.13113759 0.058522921 0.11027545 4278255360
0.12712845 0.057677973 0.10562642 4278255360
0.12249801 0.056819476 0.10159867 4278255360
0.11733939 0.055964686 0.098273195 4278255360
0.1363079 0.06270314 0.15159625 4278255360
0.13884144 0.062485658 0.14594516 4278255360
0.14055522 0.062152784 0.13999933 4278255360
0.14141479 0.061711218 0.13387831 4278255360
0.14140287 0.061169837 0.12770519 4278255360
0.14051969 0.060539529 0.12160408 4278255360
0.13878304 0.059832964 0.11569767 4278255360
0.1362278 0.059064355 0.11010475 4278255360
0.13290536 0.058249157 0.10493778 4278255360
0.12888256 0.057403758 0.10030063 4278255360
0.12424026 0.056545161 0.09628658 4278255360
0.11907183 0.055690631 0.092976324 4278255360
0.11348117 0.054857347 0.090436436 4278255360
0.13995764 0.062121153 0.14038433 4278255360
0.14165412 0.061785966 0.13443367 4278255360
0.14249586 0.061342247 0.12831032 4278255360
0.14246593 0.060798917 0.12213743 4278255360
0.14156495 0.060166907 0.1160391 4278255360
0.13981101 0.059458915 0.11013798 4278255360
0.1372394 0.058689188 0.10455273 4278255360
0.13390182 0.057873197 0.099395648 4278255360
0.12986539 0.057027355 0.094770439 4278255360
0.12521128 0.056168668 0.09077011 4278255360
0.12003306 0.055314403 0.087475099 4278255360
0.11443488 0.054481737 0.084951669 4278255360
0.10852928 0.053687416 0.08325056 4278255360
0.14195919 0.061324436 0.12877721 4278255360
0.14278308 0.060878567 0.12265159 4278255360
0.14273515 0.060333297 0.11647898 4278255360
0.14181635 0.059699584 0.1103835 4278255360
0.14004517 0.058990173 0.1044877 4278255360
0.13745719 0.058219332 0.098910153 4278255360
