# .PCD v0.7 - Point Cloud Data file format
VERSION 0.7
FIELDS x y z rgb
SIZE 4 4 4 4
TYPE F F F U
COUNT 1 1 1 1
WIDTH 1027
HEIGHT 1
VIEWPOINT 0 0 0 1 0 0 0
POINTS 1027
DATA ascii
0.090052687 -0.041121475 0.13883385 4278190335
0.10144604 -0.046908949 0.19437893 4278190335
0.10428216 -0.048349608 0.18906088 4278190335
0.1064191 -0.049435113 0.18334635 4278190335
0.10781391 -0.050143629 0.17735024 4278190335
0.10843852 -0.050460912 0.17119312 4278190335
0.10828038 -0.05038058 0.16499883 4278190335
0.10734268 -0.049904253 0.1588919 4278190335
0.10564425 -0.04904151 0.15299514 4278190335
0.10321926 -0.04780969 0.14742713 4278190335
0.10011648 -0.046233572 0.14229982 4278190335
0.096398287 -0.044344846 0.13771631 4278190335
0.09213946 -0.042181488 0.13376877 4278190335
0.087425619 -0.039787006 0.1305366 4278190335
0.1058477 -0.049144857 0.18365549 4278190335
0.10796975 -0.050222788 0.17793396 4278190335
0.10934892 -0.050923366 0.17193331 4278190335
0.10995748 -0.051232498 0.16577418 4278190335
0.10978319 -0.051143967 0.15958044 4278190335
0.10882958 -0.05065956 0.15347661 4278190335
0.1071158 -0.049789008 0.14758544 4278190335
0.10467631 -0.048549827 0.1420254 4278190335
0.10156018 -0.046966925 0.13690828 4278190335
0.097830057 -0.045072138 0.13233697 4278190335
0.093560956 -0.042903569 0.12840343 4278190335
0.088838719 -0.040504817 0.12518671 4278190335
0.083758302 -0.037924118 0.12275153 4278190335
0.10882328 -0.05065636 0.17233172 4278190335
0.11018681 -0.051348988 0.16632657 4278190335
0.11077932 -0.051649965 0.16016547 4278190335
0.11058889 -0.051553234 0.15397233 4278190335
0.10961937 -0.051060747 0.14787164 4278190335
0.10789024 -0.050182402 0.14198612 4278190335
0.10543628 -0.048935864 0.13643409 4278190335
0.10230682 -0.047346197 0.13132723 4278190335
0.098564804 -0.045445368 0.12676817 4278190335
0.094285473 -0.043271597 0.12284864 4278190335
0.089554869 -0.040868599 0.11964742 4278190335
0.084468126 -0.038284689 0.1172289 4278190335
0.079127528 -0.035571832 0.11564171 4278190335
0.11031046 -0.051411796 0.16064481 4278190335
0.11088691 -0.051704615 0.1544818 4278190335
0.11068035 -0.051599689 0.14828929 4278190335
0.10969493 -0.051099129 0.14219183 4278190335
0.10795047 -0.050212998 0.13631199 4278190335
0.10548204 -0.048959114 0.13076805 4278190335
0.10233929 -0.047362693 0.12567145 4278190335
0.098585412 -0.045455836 0.12112468 4278190335
0.094295882 -0.043276884 0.11721919 4278190335
0.089556955 -0.040869657 0.11403351 4278190335
0.084463932 -0.038282558 0.11163168 4278190335
0.07911922 -0.035567611 0.110062 4278190335
0.073630296 -0.032779407 0.10935605 4278190335
0.11027808 -0.051395353 0.14883952 4278190335
0.11005539 -0.051282231 0.14264771 4278190335
0.10905408 -0.050773598 0.13655351 4278190335
0.10729431 -0.049879685 0.13067943 4278190335
0.10481144 -0.048618469 0.12514359 4278190335
0.10165542 -0.047015306 0.12005731 4278190335
0.097889706 -0.04510244 0.11552288 4278190335
0.093590014 -0.042918328 0.11163147 4278190335
0.088842809 -0.040506896 0.10846133 4278190335
0.08374355 -0.037916627 0.1060762 4278190335
0.078394771 -0.035199612 0.10452406 4278190335
0.072904028 -0.032410484 0.1038361 4278190335
0.067381732 -0.029605327 0.10402618 4278190335
0.10872684 -0.050607368 0.13716309 4278190335
0.10770965 -0.050090671 0.13107219 4278190335
0.10593458 -0.049188986 0.12520389 4278190335
0.1034373 -0.047920447 0.11967622 4278190335
0.10026804 -0.046310559 0.11460032 4278190335
0.096490517 -0.044391695 0.11007825 4278190335
0.092180707 -0.042202443 0.10620096 4278190335
0.087425254 -0.039786823 0.10304639 4278190335
0.082319804 -0.037193406 0.100678 4278190335
0.076967001 -0.034474351 0.099143401 4278190335
0.071474493 -0.03168432 0.098473445 4278190335
0.065952718 -0.02887943 0.098681621 4278190335
0.06051271 -0.026116075 0.099763729 4278190335
0.10568921 -0.049064346 0.12586008 4278190335
0.10389885 -0.048154894 0.11999764 4278190335
0.10138717 -0.046879042 0.11447817 4278190335
0.098204695 -0.045262445 0.10941268 4278190335
0.094415404 -0.043337602 0.10490302 4278190335
0.090095505 -0.041143224 0.10103986 4278190335
0.085331857 -0.038723439 0.097900905 4278190335
0.080220252 -0.0361269 0.095549263 4278190335
0.074863479 -0.033405822 0.094032221 4278190335
0.069369242 -0.03061492 0.09338028 4278190335
0.063848034 -0.027810317 0.093606554 4278190335
0.058410868 -0.025048405 0.094706491 4278190335
0.053167086 -0.022384724 0.096657977 4278190335
0.10122881 -0.046798602 0.1151672 4278190335
0.098702766 -0.045515448 0.109656 4278190335
0.0955071 -0.043892149 0.10460097 4278190335
0.091706075 -0.041961346 0.10010374 4278190335
0.087376125 -0.039761864 0.096254773 4278190335
0.082604319 -0.037337933 0.093131445 4278190335
0.077486612 -0.034738295 0.090796567 4278190335
0.072125897 -0.032015219 0.089297093 4278190335
0.066629991 -0.029223466 0.088663168 4278190335
0.061109394 -0.026419172 0.088907547 4278190335
0.055675123 -0.02365873 0.090025306 4278190335
0.050436448 -0.020997643 0.09199398 4278190335
0.04549871 -0.018489426 0.094773971 4278190335
0.076525748 -0.034250204 0.22241868 4278190335
0.081509188 -0.036781639 0.21974325 4278190335
0.086105123 -0.039116234 0.21630409 4278190335
0.090221137 -0.041207042 0.21217036 4278190335
0.093774468 -0.043012027 0.20742519 4278190335
0.096693665 -0.044494886 0.20216401 4278190335
0.098920025 -0.04562581 0.19649257 4278190335
0.10040878 -0.046382047 0.19052495 4278190335
0.10112999 -0.0467484 0.18438114 4278190335
0.10106914 -0.046717498 0.17818469 4278190335
0.10022749 -0.046289962 0.17206018 4278190335
0.098621935 -0.045474391 0.16613078 4278190335
0.096284769 -0.044287182 0.16051571 4278190335
0.08547657 -0.038796946 0.21620771 4278190335
0.09006352 -0.041126978 0.2127535 4278190335
0.094168745 -0.043212306 0.2086063 4278190335
0.0977097 -0.045010999 0.20384949 4278190335
0.10061517 -0.046486892 0.19857876 4278190335
0.10282674 -0.047610298 0.19290005 4278190335
0.10429993 -0.048358634 0.18692757 4278190335
0.10500512 -0.048716851 0.18078142 4278190335
0.10492814 -0.048677746 0.17458519 4278190335
0.10407053 -0.048242107 0.16846347 4278190335
0.10244953 -0.047418687 0.16253936 4278190335
0.10009774 -0.04622405 0.15693198 4278190335
0.097062446 -0.04468222 0.1517541 4278190335
0.093534373 -0.042890064 0.20861268 4278190335
0.097628772 -0.044969894 0.20445204 4278190335
0.10115731 -0.04676228 0.19968365 4278190335
0.10404903 -0.048231188 0.19440341 4278190335
0.10624579 -0.049347073 0.18871747 4278190335
0.10770341 -0.0500875 0.1827402 4278190335
0.10839259 -0.050437581 0.17659175 4278190335
0.10829946 -0.050390273 0.17039581 4278190335
0.10742589 -0.049946528 0.16427693 4278190335
0.10578946 -0.04911527 0.15835816 4278190335
0.10342307 -0.047913216 0.15275851 4278190335
0.1003743 -0.046364535 0.14759059 4278190335
0.096704461 -0.04450037 0.14295831 4278190335
0.1005304 -0.046443831 0.19979267 4278190335
0.10404649 -0.048229899 0.19501273 4278190335
0.10692444 -0.049691807 0.18972303 4278190335
0.10910638 -0.050800163 0.18402992 4278190335
0.11054841 -0.051532675 0.1780479 4278190335
0.11122156 -0.051874612 0.17189722 4278190335
0.11111228 -0.051819101 0.1657016 4278190335
0.11022277 -0.051367261 0.15958561 4278190335
0.10857093 -0.050528169 0.15367222 4278190335
0.10618995 -0.049318708 0.14808036 4278190335
0.10312773 -0.047763191 0.14292246 4278190335
0.099445827 -0.045892902 0.13830225 4278190335
0.095218301 -0.043745447 0.13431261 4278190335
0.10631813 -0.049383819 0.18993241 4278190335
0.10918228 -0.05083872 0.18463328 4278190335
0.11134937 -0.051939532 0.17893304 4278190335
0.1127758 -0.05266412 0.1729463 4278190335
0.11343292 -0.052997913 0.16679347 4278190335
0.1133075 -0.052934203 0.16059822 4278190335
0.11240205 -0.052474264 0.15448517 4278190335
0.1107348 -0.051627353 0.14857723 4278190335
0.10833926 -0.05041049 0.1429932 4278190335
0.10526361 -0.048848156 0.13784537 4278190335
0.10156969 -0.046971757 0.13323724 4278190335
0.097331777 -0.044819027 0.12926148 4278190335
0.092635095 -0.042433258 0.12599805 4278190335
0.11077634 -0.051648453 0.17923838 4278190335
0.11292856 -0.052741714 0.17353107 4278190335
0.1143394 -0.053458374 0.16753969 4278190335
0.11498047 -0.05378402 0.1613847 4278190335
0.1148389 -0.053712107 0.1551899 4278190335
0.11391753 -0.05324408 0.14907984 4278190335
0.11223489 -0.05238935 0.1431774 4278190335
0.10982481 -0.051165104 0.13760124 4278190335
0.10673575 -0.049595959 0.13246351 4278190335
0.10302984 -0.047713466 0.12786752 4278190335
0.098781586 -0.045555484 0.12390567 4278190335
0.094076417 -0.043165404 0.12065765 4278190335
0.089008942 -0.040591285 0.11818875 4278190335
0.11381166 -0.053190306 0.1679346 4278190335
0.11520687 -0.053899031 0.16193861 4278190335
0.11583191 -0.054216526 0.15578155 4278190335
0.1156742 -0.054136414 0.14958724 4278190335
0.11473691 -0.0536603 0.14348024 4278190335
0.11303889 -0.052797757 0.13758333 4278190335
0.11061428 -0.051566135 0.13201509 4278190335
0.10751186 -0.049990196 0.12688752 4278190335
0.10379398 -0.048101626 0.12230369 4278190335
0.099535421 -0.04593841 0.1183558 4278190335
0.094821803 -0.043544039 0.1151232 4278190335
0.089747921 -0.040966664 0.11267094 4278190335
0.084415801 -0.038258109 0.1110483 4278190335
0.11536053 -0.05397708 0.15625776 4278190335
0.11596952 -0.054286424 0.1500987 4278190335
0.11579566 -0.054198112 0.14390492 4278190335
0.11484246 -0.053713914 0.13780102 4278190335
0.11312908 -0.052843571 0.1319097 4278190335
0.11068998 -0.051604584 0.12634945 4278190335
0.10757419 -0.050021861 0.12123206 4278190335
0.10384439 -0.048127234 0.11666044 4278190335
0.099575557 -0.045958798 0.11272652 4278190335
0.094853535 -0.043560158 0.1095094 4278190335
0.08977329 -0.040979549 0.10707378 4278190335
0.084436961 -0.038268857 0.10546862 4278190335
0.078951858 -0.035482597 0.10472622 4278190335
0.11539049 -0.053992301 0.14445247 4278190335
0.1152005 -0.05389579 0.13825929 4278190335
0.11423139 -0.053403515 0.13215853 4278190335
0.11250267 -0.052525375 0.12627287 4278190335
0.11004908 -0.051279031 0.12072063 4278190335
0.10691998 -0.049689543 0.11561348 4278190335
0.10317828 -0.04778887 0.11105411 4278190335
0.098899208 -0.045615237 0.1071342 4278190335
0.094168827 -0.043212347 0.10393258 4278190335
0.089082256 -0.040628523 0.10151362 4278190335
0.083741762 -0.037915722 0.099925973 4278190335
0.078254752 -0.035128485 0.099201553 4278190335
0.072731547 -0.032322869 0.09935493 4278190335
0.11390094 -0.053235654 0.13276593 4278190335
0.11291594 -0.052735303 0.12666838 4278190335
0.11117188 -0.051849376 0.1207884 4278190335
0.10870384 -0.050595686 0.11524424 4278190335
0.10556144 -0.048999444 0.11014736 4278190335
0.10180786 -0.047092743 0.10560028 4278190335
0.097518601 -0.044913929 0.10169442 4278190335
0.092779897 -0.042506814 0.098508321 4278190335
0.087687038 -0.039919797 0.096106052 4278190335
0.082342438 -0.037204903 0.094535917 4278190335
0.076853558 -0.034416724 0.09382949 4278190335
0.071330778 -0.031611323 0.094000973 4278190335
0.065885156 -0.028845113 0.095046923 4278190335
0.11092305 -0.051722977 0.12144294 4278190335
0.10916368 -0.050829269 0.1155687 4278190335
0.1066812 -0.049568247 0.11003266 4278190335
0.10352553 -0.047965262 0.10494611 4278190335
0.099760123 -0.046052553 0.10041136 4278190335
0.095460698 -0.043868575 0.096519575 4278190335
0.09071371 -0.041457251 0.093349025 4278190335
0.085614607 -0.038867068 0.090963461 4278190335
0.080265939 -0.036150105 0.089410856 4278190335
0.074775241 -0.033361003 0.088722423 4278190335
0.069252938 -0.030555841 0.088912018 4278190335
0.063810058 -0.027791027 0.089975812 4278190335
0.058556061 -0.025122158 0.091892429 4278190335
0.1065192 -0.049485959 0.11072063 4278190335
0.1040223 -0.04821761 0.10519274 4278190335
0.10085339 -0.0466079 0.10011656 4278190335
0.097076185 -0.044689193 0.095594168 4278190335
0.092766635 -0.042500075 0.091716498 4278190335
0.088011406 -0.040084567 0.088561527 4278190335
0.082906112 -0.037491232 0.08619269 4278190335
0.077553414 -0.034772228 0.084657624 4278190335
0.07206095 -0.031982224 0.083987199 4278190335
0.066539161 -0.029177327 0.084194899 4278190335
0.061099082 -0.026413932 0.085276537 4278190335
0.0558501 -0.023747614 0.087210372 4278190335
0.05089777 -0.021231981 0.089957513 4278190335
0.10078163 -0.046571445 0.10082355 4278190335
0.097599499 -0.044955023 0.095757782 4278190335
0.093810521 -0.043030336 0.091247797 4278190335
0.089490883 -0.040836096 0.087384269 4278190335
0.084727451 -0.038416419 0.084244899 4278190335
0.07961601 -0.035819963 0.081892818 4278190335
0.074259333 -0.033098936 0.080375306 4278190335
0.068765149 -0.030308058 0.079722896 4278190335
0.063243918 -0.027503446 0.079948694 4278190335
0.057806682 -0.024741497 0.081048161 4278190335
0.052562766 -0.022077749 0.0829992 4278190335
0.047617614 -0.019565765 0.08576256 4278190335
0.043070674 -0.017256057 0.089282691 4278190335
0.089557953 -0.040870167 0.21087857 4278190335
0.094163068 -0.043209422 0.20745489 4278190335
0.098290123 -0.045305841 0.20333505 4278190335
0.10185613 -0.047117263 0.19860184 4278190335
0.10478939 -0.048607264 0.19335049 4278190335
0.10703091 -0.049745888 0.18768659 4278190335
0.10853561 -0.050510231 0.181724 4278190335
0.10927325 -0.050884929 0.17558265 4278190335
0.10922899 -0.050862446 0.16938601 4278190335
0.10840372 -0.050443232 0.1632587 4278190335
0.10681403 -0.04963572 0.15732393 4278190335
0.10449189 -0.048456147 0.15170102 4278190335
0.101484 -0.046928231 0.14650306 4278190335
0.097655728 -0.044983584 0.20333721 4278190335
0.10177203 -0.047074538 0.19920385 4278190335
0.10532568 -0.048879687 0.19445898 4278190335
0.10824524 -0.050362732 0.18919803 4278190335
0.11047199 -0.05149385 0.1835268 4278190335
0.11196115 -0.0522503 0.1775593 4278190335
0.11268278 -0.052616864 0.17141555 4278190335
0.11262237 -0.052586179 0.1652191 4278190335
0.11178114 -0.052158855 0.15909451 4278190335
0.11017598 -0.051343489 0.15316497 4278190335
0.1078392 -0.050156478 0.1475497 4278190335
0.10481778 -0.048621688 0.14236163 4278190335
0.10117247 -0.04676998 0.13770506 4278190335
0.10469821 -0.048560951 0.19456384 4278190335
0.10823949 -0.050359808 0.18980734 4278190335
0.11114532 -0.051835883 0.18453684 4278190335
0.11335728 -0.052959487 0.17885832 4278190335
0.11483087 -0.053708032 0.17288598 4278190335
0.1155365 -0.054066464 0.1667399 4278190335
0.11545993 -0.054027576 0.16054365 4278190335
0.11460274 -0.053592145 0.15442187 4278190335
0.11298215 -0.052768935 0.14849761 4278190335
0.11063074 -0.051574495 0.14289002 4278190335
0.10759581 -0.050032843 0.13771188 4278190335
0.10393838 -0.048174977 0.13306728 4278190335
0.099731989 -0.046038263 0.12904963 4278190335
0.11053791 -0.051527336 0.18474218 4278190335
0.11342999 -0.052996427 0.17946219 4278190335
0.11562714 -0.054112509 0.17377645 4278190335
0.11708517 -0.054853145 0.16779929 4278190335
0.11777477 -0.055203438 0.16165093 4278190335
0.11768206 -0.055156346 0.15545496 4278190335
0.11680891 -0.054712813 0.149336 4278190335
0.11517289 -0.053881764 0.14341709 4278190335
0.11280688 -0.052679904 0.13781723 4278190335
0.10975847 -0.051131405 0.13264906 4278190335
0.10608894 -0.0492674 0.12801647 4278190335
0.1018721 -0.047125373 0.12401263 4278190335
0.097192734 -0.044748399 0.12071805 4278190335
0.11505251 -0.053820617 0.17407797 4278190335
0.11723483 -0.054929171 0.16838506 4278190335
0.11867728 -0.055661887 0.16240315 4278190335
0.11935085 -0.05600404 0.15625253 4278190335
0.119242 -0.055948745 0.1500569 4278190335
0.11835291 -0.055497117 0.14394084 4278190335
0.11670147 -0.054658234 0.13802731 4278190335
0.11432087 -0.053448968 0.13243525 4278190335
0.11125901 -0.051893633 0.12727708 4278190335
0.10757742 -0.050023504 0.12265655 4278190335
0.10335016 -0.047876187 0.11866654 4278190335
0.098662235 -0.045494858 0.11538732 4278190335
0.093607888 -0.04292741 0.1128848 4278190335
0.11814748 -0.055392765 0.16279455 4278190335
0.11957433 -0.056117561 0.15680793 4278190335
0.12023187 -0.05645157 0.15065514 4278190335
0.12010687 -0.056388073 0.14445989 4278190335
0.11920185 -0.055928349 0.13834676 4278190335
0.117535 -0.055081643 0.13243867 4278190335
0.11513984 -0.053864978 0.12685443 4278190335
0.11206454 -0.052302819 0.12170634 4278190335
0.10837094 -0.05042658 0.11709789 4278190335
0.10413329 -0.048273992 0.11312177 4278190335
0.099436834 -0.045888335 0.10985793 4278190335
0.094375998 -0.043317582 0.10737199 4278190335
0.089052536 -0.040613428 0.10571396 4278190335
0.11975798 -0.056210849 0.15112822 4278190335
0.12039948 -0.056536712 0.14497329 4278190335
0.12025833 -0.056465015 0.13877848 4278190335
0.11933738 -0.0559972 0.13266835 4278190335
0.11765514 -0.055142675 0.12676576 4278190335
0.11524545 -0.053918622 0.12118939 4278190335
0.11215674 -0.052349653 0.11605139 4278190335
0.10845114 -0.050467324 0.11145508 4278190335
0.10420316 -0.048309479 0.10749286 4278190335
0.099498212 -0.045919511 0.10424443 4278190335
0.094430916 -0.043345481 0.1017751 4278190335
0.089103155 -0.040639143 0.10013453 4278190335
0.083622076 -0.037854921 0.09935569 4278190335
0.11985029 -0.05625774 0.13932332 4278190335
0.119693 -0.05617784 0.133129 4278190335
0.11875613 -0.055701938 0.12702191 4278190335
0.11705852 -0.054839604 0.12112486 4278190335
0.11463429 -0.053608175 0.11555642 4278190335
0.11153221 -0.052032411 0.11042856 4278190335
0.10781465 -0.050144006 0.10584442 4278190335
0.10355636 -0.047980923 0.10189615 4278190335
0.098842971 -0.045586668 0.098663159 4278190335
0.093769252 -0.043009378 0.096210457 4278190335
0.088437244 -0.04030088 0.094587356 4278190335
0.082954153 -0.037515637 0.093826495 4278190335
0.077430241 -0.034709658 0.093943171 4278190335
0.11842247 -0.055532452 0.1276271 4278190335
0.11746968 -0.055048466 0.12152311 4278190335
0.11575671 -0.054178327 0.11563165 4278190335
0.11331799 -0.05293953 0.11007118 4278190335
0.11020256 -0.05135699 0.10495353 4278190335
0.10647307 -0.04946252 0.10038158 4278190335
0.1022045 -0.047294222 0.096447296 4278190335
0.097482704 -0.044895694 0.093229771 4278190335
0.092402622 -0.04231517 0.090793706 4278190335
0.087066405 -0.039604533 0.089188099 4278190335
0.081581354 -0.036818296 0.088445216 4278190335
0.076057769 -0.034012485 0.088580005 4278190335
0.070606716 -0.031243518 0.08958976 4278190335
0.11550443 -0.054050174 0.11628452 4278190335
0.1137761 -0.053172242 0.1103987 4278190335
0.1113229 -0.051926088 0.10484625 4278190335
0.10819415 -0.050336778 0.099738829 4278190335
0.10445275 -0.048436265 0.095179141 4278190335
0.10017396 -0.046262767 0.091258861 4278190335
0.095443793 -0.043859992 0.088056833 4278190335
0.090357386 -0.041276254 0.085637435 4278190335
0.085017003 -0.038563505 0.084049322 4278190335
0.079530045 -0.035776295 0.083324432 4278190335
0.074006833 -0.032970674 0.083477333 4278190335
0.068558432 -0.030203056 0.084504955 4278190335
0.063294411 -0.027529093 0.086386628 4278190335
0.11115728 -0.051841959 0.10553313 4278190335
0.10868961 -0.050588463 0.099988751 4278190335
0.10554756 -0.048992395 0.094891615 4278190335
0.1017943 -0.047085855 0.090344205 4278190335
0.097505309 -0.044907175 0.086437978 4278190335
0.092766821 -0.042500172 0.083251469 4278190335
0.087674126 -0.039913241 0.080848761 4278190335
0.082329631 -0.037198402 0.079278164 4278190335
0.076840803 -0.034410246 0.07857126 4278190335
0.071318015 -0.031604838 0.078742266 4278190335
0.065872319 -0.028838592 0.079787746 4278190335
0.060613219 -0.02616713 0.081686676 4278190335
0.055646468 -0.023644174 0.08440087 4278190335
0.10547207 -0.048954047 0.095598117 4278190335
0.10231674 -0.047351237 0.0905113 4278190335
0.098551653 -0.045438688 0.085976213 4278190335
0.094252497 -0.043254849 0.082084067 4278190335
0.089505725 -0.040843632 0.078913108 4278190335
0.084406793 -0.038253531 0.076527104 4278190335
0.079058222 -0.035536624 0.074974038 4278190335
0.073567577 -0.032747544 0.074285135 4278190335
0.068045259 -0.029942377 0.074474245 4278190335
0.062602304 -0.027177526 0.075537577 4278190335
0.057348181 -0.02450859 0.07745374 4278190335
0.052388523 -0.021989238 0.080184206 4278190335
0.047823071 -0.019670129 0.083674066 4278190335
0.098567866 -0.045446925 0.086687542 4278190335
0.094790965 -0.043528374 0.082164824 4278190335
0.090481684 -0.041339394 0.078286782 4278190335
0.085726671 -0.03892399 0.075131401 4278190335
0.080621541 -0.036330741 0.072762124 4278190335
0.075268954 -0.033611793 0.071226597 4278190335
0.069776535 -0.030821811 0.070555702 4278190335
0.064254731 -0.028016904 0.070762925 4278190335
0.058814574 -0.025253473 0.071844094 4278190335
0.053565461 -0.022587087 0.073777474 4278190335
0.048612941 -0.020071359 0.076524183 4278190335
0.044056606 -0.017756879 0.080029003 4278190335
0.039988067 -0.015690187 0.084221438 4278190335
0.10103986 -0.046702616 0.1974255 4278190335
0.10517791 -0.048804622 0.19331956 4278190335
0.10875656 -0.050622467 0.18859838 4278190335
0.11170385 -0.052119598 0.18335693 4278190335
0.1139605 -0.053265911 0.17770058 4278190335
0.11548115 -0.054038353 0.17174309 4278190335
0.11623521 -0.054421391 0.16560425 4278190335
0.11620753 -0.054407328 0.15940748 4278190335
0.11539865 -0.053996444 0.15327743 4278190335
0.11382484 -0.053196996 0.14733732 4278190335
0.11151776 -0.052025069 0.14170663 4278190335
0.10852378 -0.050504223 0.13649857 4278190335
0.10490312 -0.048665039 0.13181786 4278190335
0.10812854 -0.050303452 0.18869907 4278190335
0.11169487 -0.052115042 0.18396617 4278190335
0.11462849 -0.053605225 0.17871508 4278190335
0.1168704 -0.054744046 0.17305137 4278190335
0.11837551 -0.055508599 0.16708891 4278190335
0.11911357 -0.055883508 0.16094762 4278190335
0.11906973 -0.055861242 0.15475099 4278190335
0.11824488 -0.055442244 0.1486236 4278190335
0.1166556 -0.054634936 0.14268868 4278190335
0.11433385 -0.053455558 0.13706557 4278190335
0.11132631 -0.051927824 0.13186736 4278190335
0.10769347 -0.050082453 0.12719855 4278190335
0.10350838 -0.047956549 0.12315302 4278190335
0.11402 -0.053296134 0.17891638 4278190335
0.11693992 -0.054779362 0.17365569 4278190335
0.11916705 -0.055910677 0.16798465 4278190335
0.12065662 -0.056667335 0.16201729 4278190335
0.12137868 -0.057034113 0.1558736 4278190335
0.12131869 -0.057003643 0.14967713 4278190335
0.12047788 -0.056576535 0.14355248 4278190335
0.11887313 -0.055761375 0.1376228 4278190335
0.11653674 -0.054574557 0.13200733 4278190335
0.11351567 -0.053039949 0.126819 4278190335
0.10987068 -0.051188402 0.12216211 4278190335
0.10567505 -0.049057156 0.11813033 4278190335
0.10101316 -0.04668906 0.11480471 4278190335
0.11859085 -0.055617981 0.16828236 4278190335
0.12080319 -0.056741785 0.16260403 4278190335
0.12227721 -0.057490539 0.15663181 4278190335
0.12298324 -0.057849184 0.15048578 4278190335
0.12290711 -0.057810511 0.14428954 4278190335
0.12205034 -0.057375293 0.13816766 4278190335
0.12043015 -0.056552291 0.13224328 4278190335
0.11807913 -0.055358045 0.12663549 4278190335
0.11504455 -0.053816572 0.12145708 4278190335
0.11138743 -0.05195887 0.11681217 4278190335
0.10718132 -0.049822293 0.11279415 4278190335
0.10251079 -0.047449805 0.10948385 4278190335
0.097469747 -0.044889115 0.10694779 4278190335
0.12174534 -0.05722037 0.15701969 4278190335
0.12320378 -0.057961211 0.15104266 4278190335
0.1238938 -0.058311719 0.14489435 4278190335
0.12380152 -0.058264844 0.13869837 4278190335
0.12292879 -0.057821523 0.13257934 4278190335
0.12129317 -0.056990679 0.12666029 4278190335
0.11892755 -0.055789016 0.12106023 4278190335
0.11587949 -0.054240696 0.11589178 4278190335
0.11221029 -0.052376851 0.11125889 4278190335
0.10799371 -0.050234966 0.10725468 4278190335
0.10331458 -0.047858108 0.10395969 4278190335
0.098266952 -0.045294069 0.10144018 4278190335
0.092952341 -0.04259441 0.099746808 4278190335
0.12341742 -0.058069732 0.14536425 4278190335
0.12409142 -0.058412101 0.13921371 4278190335
0.12398298 -0.058357023 0.13301806 4278190335
0.12309431 -0.057905607 0.12690191 4278190335
0.12144328 -0.057066929 0.12098825 4278190335
0.11906307 -0.055857856 0.11539598 4278190335
0.11600155 -0.0543027 0.11023755 4278190335
0.11232029 -0.052432731 0.1056167 4278190335
0.10809331 -0.050285552 0.10162634 4278190335
0.10340559 -0.047904342 0.098346703 4278190335
0.098351426 -0.04533698 0.095843755 4278190335
0.093032427 -0.042635091 0.094167814 4278190335
0.08755555 -0.039853007 0.093352579 4278190335
0.12357207 -0.058148287 0.13356018 4278190335
0.12344749 -0.058085009 0.12736492 4278190335
0.12254289 -0.057625499 0.12125172 4278190335
0.12087645 -0.056778997 0.11534349 4278190335
0.11848167 -0.055562526 0.10975904 4278190335
0.11540673 -0.054000545 0.10461067 4278190335
0.11171344 -0.05212447 0.10000191 4278190335
0.10747607 -0.049972016 0.096025422 4278190335
0.10277984 -0.047586475 0.092761181 4278190335
0.097719163 -0.045015808 0.090274803 4278190335
0.09239582 -0.042311713 0.088616312 4278190335
0.086916842 -0.03952856 0.08781904 4278190335
0.081392407 -0.036722317 0.087899022 4278190335
0.12220604 -0.057454389 0.12185469 4278190335
0.12128551 -0.056986786 0.11574447 4278190335
0.11960367 -0.056132466 0.10984173 4278190335
0.11719435 -0.054908607 0.10426516 4278190335
0.11410601 -0.05333982 0.099126898 4278190335
0.11040072 -0.051457651 0.094530262 4278190335
0.10615301 -0.049299944 0.090567686 4278190335
0.10144829 -0.046910089 0.087318845 4278190335
0.096381158 -0.044336144 0.084849074 4278190335
0.091053516 -0.041629862 0.083208039 4278190335
0.085572481 -0.038845669 0.082428738 4278190335
0.080048278 -0.036039542 0.082526833 4278190335
0.074591994 -0.033267915 0.083500355 4278190335
0.11934794 -0.056002565 0.11049291 4278190335
0.11765074 -0.055140436 0.10459571 4278190335
0.1152269 -0.053909201 0.099027067 4278190335
0.11212517 -0.052333616 0.093898952 4278190335
0.10840792 -0.05044537 0.089314483 4278190335
0.1041499 -0.048282426 0.085365854 4278190335
0.09943673 -0.045888282 0.082132451 4278190335
0.09436319 -0.043311078 0.07967931 4278190335
0.089031287 -0.040602636 0.078055747 4278190335
0.083548248 -0.037817422 0.077294409 4278190335
0.078024328 -0.035011437 0.077410616 4278190335
0.0725706 -0.03224111 0.078402027 4278190335
0.067296728 -0.029562147 0.080248699 4278190335
0.11505765 -0.053823229 0.099712841 4278190335
0.11261931 -0.052584626 0.09415216 4278190335
0.10950423 -0.05100226 0.089034237 4278190335
0.10577505 -0.04910795 0.084461972 4278190335
0.10150675 -0.04693979 0.080527321 4278190335
0.09678518 -0.044541374 0.077309385 4278190335
0.091705263 -0.041960932 0.074872889 4278190335
0.086369157 -0.039250355 0.073266812 4278190335
0.080884159 -0.036464144 0.07252346 4278190335
0.075360566 -0.033658326 0.072657771 4278190335
0.069909438 -0.030889325 0.073667057 4278190335
0.064640403 -0.028212817 0.075531013 4278190335
0.05965941 -0.025682624 0.078212164 4278190335
0.10942501 -0.050962016 0.089740224 4278190335
0.1062966 -0.049372882 0.084632538 4278190335
0.10255552 -0.047472529 0.080072522 4278190335
0.098276995 -0.045299169 0.076151878 4278190335
0.093547054 -0.042896505 0.072949439 4278190335
0.088460803 -0.040312849 0.070529602 4278190335
0.083120532 -0.037600156 0.068941027 4278190335
0.077633619 -0.034812972 0.068215661 4278190335
0.0721104 -0.032007344 0.068368085 4278190335
0.066661932 -0.02923969 0.069395237 4278190335
0.061397776 -0.026565662 0.071276464 4278190335
0.056423791 -0.024039028 0.073973931 4278190335
0.051839989 -0.021710599 0.0774334 4278190335
0.10256798 -0.047478858 0.080783941 4278190335
0.098815031 -0.045572475 0.076236211 4278190335
0.094526306 -0.043393932 0.072329611 4278190335
0.089788035 -0.040987041 0.069142692 4278190335
0.084695503 -0.038400192 0.066739544 4278190335
0.07935112 -0.035685405 0.065168485 4278190335
0.073862337 -0.032897275 0.064461112 4278190335
0.068339534 -0.030091863 0.064631641 4278190335
0.062893771 -0.02732558 0.065676652 4278190335
0.05763454 -0.024654053 0.067575127 4278190335
0.052667603 -0.022131002 0.070288889 4278190335
0.048092835 -0.019807162 0.073763378 4278190335
0.044002231 -0.01772926 0.077928714 4278190335
0.094630182 -0.043446701 0.07303156 4278190335
0.090331294 -0.041262999 0.069139041 4278190335
0.085584737 -0.038851894 0.065967672 4278190335
0.08048597 -0.036261875 0.063581228 4278190335
0.075137511 -0.033545025 0.0620277 4278190335
0.06964691 -0.030755967 0.061338324 4278190335
0.064124577 -0.027950792 0.061526962 4278190335
0.058681555 -0.025185905 0.062589824 4278190335
0.053427294 -0.022516903 0.064505532 4278190335
0.048467454 -0.019997455 0.067235567 4278190335
0.04390176 -0.017678224 0.070725039 4278190335
0.039822027 -0.015605845 0.074903764 4278190335
0.036310293 -0.013821991 0.079687729 4278190335
0.1107502 -0.051635176 0.1823187 4278190335
0.11434146 -0.053459425 0.17760959 4278190335
0.11730275 -0.054963671 0.17237808 4278190335
0.11957453 -0.056117661 0.16672935 4278190335
0.1211111 -0.056898195 0.160777 4278190335
0.12188158 -0.057289574 0.15464072 4278190335
0.12187047 -0.05728393 0.14844389 4278190335
0.12107799 -0.056881376 0.14231114 4278190335
0.11952008 -0.056090005 0.13636577 4278190335
0.11722806 -0.054925729 0.13072734 4278190335
0.11424803 -0.053411964 0.12550923 4278190335
0.11063991 -0.051579151 0.12081636 4278190335
0.10647625 -0.049464136 0.11674311 4278190335
0.11669321 -0.054654043 0.17257532 4278190335
0.11964086 -0.056151357 0.16733412 4278190335
0.12189791 -0.057297867 0.16167797 4278190335
0.12341896 -0.058070514 0.15572062 4278190335
0.12417345 -0.058453768 0.14958183 4278190335
0.12414619 -0.058439922 0.14338507 4278190335
0.12333772 -0.058029249 0.13725494 4278190335
0.12176432 -0.057230011 0.13131471 4278190335
0.11945762 -0.05605828 0.12568381 4278190335
0.11646401 -0.054537613 0.1204755 4278190335
0.11284367 -0.052698594 0.11579448 4278190335
0.10866941 -0.050578196 0.1117349 4278190335
0.10402516 -0.048219062 0.10837837 4278190335
0.12132014 -0.057004377 0.16197185 4278190335
0.12356243 -0.058143392 0.15630832 4278190335
0.12506795 -0.058908153 0.150346 4278190335
0.12580644 -0.059283279 0.14420477 4278190335
0.12576303 -0.059261225 0.13800813 4278190335
0.12493859 -0.058842439 0.13188067 4278190335
0.12334972 -0.058035344 0.12594563 4278190335
0.12102836 -0.056856159 0.12032232 4278190335
0.11802118 -0.055328608 0.11512384 4278190335
0.11438865 -0.053483397 0.11045471 4278190335
0.11020383 -0.051357638 0.10640883 4278190335
0.10555086 -0.048994072 0.10306754 4278190335
0.1005233 -0.046440225 0.10049805 4278190335
0.12453405 -0.058636948 0.15073033 4278190335
0.12602404 -0.059393812 0.1447631 4278190335
0.12674651 -0.059760805 0.13861947 4278190335
0.12668695 -0.059730548 0.132423 4278190335
0.12584655 -0.059303652 0.12629828 4278190335
0.12424222 -0.058488701 0.12036846 4278190335
0.12190621 -0.05730208 0.11475279 4278190335
0.11888549 -0.055767652 0.10956419 4278190335
0.11524081 -0.053916268 0.10490699 4278190335
0.11104546 -0.05178516 0.10087484 4278190335
0.10638381 -0.049417183 0.097548828 4278190335
0.10134958 -0.046859946 0.094995826 4278190335
0.096044004 -0.044164877 0.09326718 4278190335
0.12626766 -0.059517562 0.13908622 4278190335
0.12697411 -0.059876423 0.13294025 4278190335
0.12689841 -0.059837963 0.126744 4278190335
0.12604205 -0.059402961 0.12062205 4278190335
0.12442227 -0.058580164 0.11469752 4278190335
0.12207163 -0.057386115 0.10908954 4278190335
0.11903741 -0.055844821 0.10391086 4278190335
0.11538061 -0.053987283 0.099265635 4278190335
0.11117478 -0.051850844 0.095247261 4278190335
0.10650447 -0.049478471 0.091936544 4278190335
0.1014636 -0.046917871 0.08940006 4278190335
0.096153542 -0.044220522 0.087688811 4278190335
0.090681069 -0.041440673 0.08683721 4278190335
0.12648463 -0.059627779 0.12728338 4278190335
0.12639277 -0.05958112 0.1210874 4278190335
0.12552047 -0.059138015 0.11496829 4278190335
0.12388525 -0.058307376 0.1090491 4278190335
0.12152001 -0.05710591 0.10344884 4278190335
0.11847231 -0.055557769 0.098280132 4278190335
0.11480342 -0.053694084 0.093646914 4278190335
0.11058713 -0.05155234 0.089642346 4278190335
0.10590822 -0.049175594 0.086346962 4278190335
0.10086076 -0.046611644 0.083827011 4278190335
0.095546268 -0.043912042 0.082133181 4278190335
0.090071596 -0.041131079 0.081299521 4278190335
0.084546834 -0.038324673 0.081342801 4278190335
0.12518044 -0.058965292 0.11556901 4278190335
0.12429219 -0.058514088 0.10945278 4278190335
0.12264156 -0.057675619 0.10353898 4278190335
0.12026174 -0.05646674 0.097946502 4278190335
0.11720057 -0.054911762 0.09278781 4278190335
0.11351962 -0.053041957 0.088166639 4278190335
0.10929292 -0.050894916 0.084175915 4278190335
0.10460543 -0.048513819 0.080895878 4278190335
0.099551432 -0.045946546 0.078392491 4278190335
0.094232544 -0.043244712 0.076716088 4278190335
0.088755727 -0.040462658 0.075900383 4278190335
0.083231106 -0.037656318 0.075961776 4278190335
0.077769771 -0.034882128 0.076899029 4278190335
0.12238239 -0.057543974 0.10418846 4278190335
0.12071636 -0.056697678 0.09828008 4278190335
0.11832197 -0.0554814 0.09269543 4278190335
0.11524738 -0.053919602 0.087546796 4278190335
0.1115544 -0.052043684 0.082937717 4278190335
0.10731731 -0.049891371 0.078960866 4278190335
0.10262129 -0.047505941 0.075696208 4278190335
0.097560793 -0.044935364 0.073209405 4278190335
0.092237562 -0.042231325 0.071550444 4278190335
0.086758643 -0.039448202 0.070752703 4278190335
0.081234202 -0.036641955 0.070832208 4278190335
0.075775333 -0.033869017 0.071787365 4278190335
0.070491806 -0.031185148 0.073598973 4278190335
0.1181491 -0.055393592 0.093380064 4278190335
0.11574017 -0.054169927 0.087803282 4278190335
0.11265217 -0.052601319 0.082664758 4278190335
0.1089472 -0.050719306 0.078067802 4278190335
0.10469976 -0.048561737 0.074104853 4278190335
0.099995263 -0.046171997 0.07085561 4278190335
0.094928302 -0.043598138 0.068385407 4278190335
0.089600772 -0.040891916 0.06674391 4278190335
0.084119789 -0.038107745 0.065964133 4278190335
0.078595586 -0.035301618 0.06606175 4278190335
0.073139228 -0.032529958 0.067034803 4278190335
0.067860439 -0.029848497 0.06886372 4278190335
0.062865376 -0.027311156 0.071511731 4278190335
0.11256922 -0.052559182 0.083370201 4278190335
0.10946784 -0.050983775 0.078241818 4278190335
0.10575091 -0.049095687 0.073657028 4278190335
0.10149316 -0.046932884 0.069708034 4278190335
0.096780211 -0.044538852 0.066474229 4278190335
0.091706835 -0.04196173 0.064020641 4278190335
0.08637505 -0.039253347 0.062396619 4278190335
0.080892064 -0.036468159 0.061634816 4278190335
0.075368129 -0.03366217 0.061750542 4278190335
0.069914334 -0.030891811 0.062741481 4278190335
0.064640336 -0.028212782 0.064587697 4278190335
0.059652191 -0.025678959 0.067252077 4278190335
0.055050202 -0.023341289 0.070681036 4278190335
0.10575961 -0.049100108 0.074368522 4278190335
0.10203075 -0.047205959 0.069795944 4278190335
0.097762719 -0.045037933 0.06586092 4278190335
0.093041368 -0.042639632 0.062642574 4278190335
0.087961614 -0.040059276 0.060205638 4278190335
0.08262562 -0.037348751 0.058599103 4278190335
0.077140674 -0.034562569 0.057855278 4278190335
0.071617067 -0.031756748 0.057989117 4278190335
0.066165872 -0.028987709 0.058997929 4278190335
0.06089671 -0.026311135 0.060861431 4278190335
0.055915531 -0.023780849 0.06354215 4278190335
0.051322497 -0.021447729 0.066986181 4278190335
0.047209967 -0.019358691 0.071124271 4278190335
0.097862892 -0.045088816 0.066563547 4278190335
0.093584634 -0.042915594 0.062642537 4278190335
0.088854909 -0.040513042 0.059439689 4278190335
0.08376883 -0.037929468 0.057019413 4278190335
0.078428671 -0.035216831 0.055430379 4278190335
0.07294181 -0.032429673 0.054704539 4278190335
0.067418575 -0.029624041 0.054856487 4278190335
0.061970036 -0.026856352 0.055883169 4278190335
0.056705751 -0.024182256 0.057763938 4278190335
0.051731579 -0.02165553 0.060460977 4278190335
0.047147539 -0.019326979 0.063920051 4278190335
0.043045811 -0.017243428 0.068071604 4278190335
0.039508875 -0.015446773 0.07283216 4278190335
0.089044452 -0.040609322 0.060118746 4278190335
0.084306404 -0.038202539 0.056931417 4278190335
0.079214036 -0.035615776 0.05452783 4278190335
0.073869757 -0.032901045 0.052956313 4278190335
0.068381026 -0.030112939 0.052248463 4278190335
0.062858216 -0.02730752 0.052418519 4278190335
0.057412375 -0.024541199 0.05346306 4278190335
0.052153014 -0.021869607 0.055361081 4278190335
0.04718589 -0.019346461 0.058074415 4278190335
0.042610887 -0.0170225 0.061548505 4278190335
0.038519997 -0.014944453 0.065713488 4278190335
0.034995481 -0.013154107 0.070485614 4278190335
0.032108214 -0.011687464 0.075768933 4278190335
0.11850189 -0.055572793 0.16584924 4278190335
0.12147716 -0.057084139 0.16062771 4278190335
0.12376403 -0.0582458 0.15498665 4278190335
0.12531652 -0.059034418 0.14903951 4278190335
0.1261034 -0.059434131 0.14290585 4278190335
0.12610887 -0.059436906 0.136709 4278190335
0.1253328 -0.059042685 0.13057362 4278190335
0.12379079 -0.058259394 0.12462303 4278190335
0.12151387 -0.057102788 0.11897691 4278190335
0.11854781 -0.055596121 0.1137488 4278190335
0.11495226 -0.053769689 0.10904381 4278190335
0.11079951 -0.051660221 0.10495657 4278190335
0.10617307 -0.049310133 0.10156925 4278190335
0.12318472 -0.057951529 0.15527669 4278190335
0.12545688 -0.059105717 0.14962815 4278190335
0.12699386 -0.059886456 0.14367594 4278190335
0.12776476 -0.060278051 0.13753971 4278190335
0.12775408 -0.060272619 0.1313429 4278190335
0.12696202 -0.05987028 0.12521008 4278190335
0.12540452 -0.059079114 0.11926457 4278190335
0.12311289 -0.057915039 0.11362594 4278190335
0.12013321 -0.056401458 0.10840757 4278190335
0.11652541 -0.054568805 0.1037144 4278190335
0.11236203 -0.052453931 0.099640787 4278190335
0.10772678 -0.050099373 0.096268646 4278190335
0.10271288 -0.047552463 0.093665801 4278190335
0.12645794 -0.059614226 0.14405671 4278190335
0.12797941 -0.060387082 0.13809948 4278190335
0.12873431 -0.060770549 0.13196076 4278190335
0.12870747 -0.060756918 0.12576401 4278190335
0.12789944 -0.060346458 0.11963381 4278190335
0.12632644 -0.059547428 0.11369344 4278190335
0.12402013 -0.058375891 0.10806234 4278190335
0.12102687 -0.056855407 0.10285377 4278190335
0.11740685 -0.055016551 0.098172441 4278190335
0.11323287 -0.052896295 0.094112493 4278190335
0.10858886 -0.050537281 0.090755567 4278190335
0.1035682 -0.047986936 0.088169165 4278190335
0.098271847 -0.045296554 0.0864053 4278190335
0.128253 -0.060526062 0.13242432 4278190335
0.1289919 -0.0609014 0.12628315 4278190335
0.12894891 -0.060879566 0.12008651 4278190335
0.12812491 -0.060460992 0.11395898 4278190335
0.12653644 -0.059654102 0.1080238 4278190335
0.12421546 -0.058475114 0.1024003 4278190335
0.12120864 -0.056947742 0.097201549 4278190335
0.11757644 -0.055102695 0.092532113 4278190335
0.1133919 -0.052977074 0.088485867 4278190335
0.10873915 -0.050613623 0.085144185 4278190335
0.10371177 -0.04805987 0.082574256 4278190335
0.098410845 -0.045367163 0.080827758 4278190335
0.092942961 -0.042589646 0.079939812 4278190335
0.12853231 -0.060667936 0.12062313 4278190335
0.12847318 -0.060637899 0.11442665 4278190335
0.1276332 -0.060211215 0.10830186 4278190335
0.12602927 -0.059396472 0.1023719 4278190335
0.12369365 -0.058210045 0.096756026 4278190335
0.12067328 -0.056675795 0.091567166 4278190335
0.11702893 -0.054824576 0.086909652 4278190335
0.11283386 -0.052693609 0.082877144 4278190335
0.10817242 -0.050325744 0.079550728 4278190335
0.10313837 -0.0477686 0.076997295 4278190335
0.097832911 -0.045073591 0.075268187 4278190335
0.092362739 -0.042294912 0.074398175 4278190335
0.086837851 -0.039488435 0.074404746 4278190335
0.12729 -0.060036883 0.1089003 4278190335
0.12643406 -0.059602097 0.10277829 4278190335
0.12481469 -0.058779504 0.096853614 4278190335
0.12246444 -0.057585649 0.091245428 4278190335
0.11943057 -0.056044538 0.086066492 4278190335
0.1157741 -0.05418716 0.081420943 4278190335
0.11156853 -0.052050862 0.077402212 4278190335
0.10689845 -0.049678605 0.074091092 4278190335
0.10185776 -0.04711809 0.071554169 4278190335
0.09654782 -0.044420805 0.069842465 4278190335
0.091075405 -0.041640986 0.068990387 4278190335
0.085550554 -0.038834531 0.069015078 4278190335
0.080084369 -0.036057875 0.069916032 4278190335
0.12455211 -0.058646116 0.09750136 4278190335
0.12291729 -0.057815686 0.091582023 4278190335
0.12055244 -0.05661441 0.085981563 4278190335
0.11750509 -0.055066451 0.080812596 4278190335
0.11383652 -0.053202931 0.076179057 4278190335
0.1096205 -0.051061325 0.072174124 4278190335
0.10494182 -0.048684694 0.068878338 4278190335
0.099894531 -0.04612083 0.066357948 4278190335
0.094580159 -0.043421291 0.064663664 4278190335
0.089105539 -0.040640354 0.063829526 4278190335
0.083580777 -0.037833944 0.06387233 4278190335
0.078116961 -0.035058495 0.06479121 4278190335
0.072823957 -0.032369811 0.066567682 4278190335
0.12037596 -0.056524765 0.086665034 4278190335
0.11799652 -0.055316083 0.081072353 4278190335
0.11493571 -0.053761285 0.075913399 4278190335
0.11125508 -0.05189164 0.071291909 4278190335
0.10702865 -0.04974474 0.067300819 4278190335
0.10234138 -0.047363754 0.06402038 4278190335
0.097287558 -0.044796567 0.061516553 4278190335
0.09196879 -0.042094797 0.059839692 4278190335
0.086492024 -0.039312769 0.059023514 4278190335
0.080967396 -0.036506426 0.05908443 4278190335
0.075506002 -0.033732206 0.060021218 4278190335
0.070217647 -0.031045886 0.061815035 4278190335
0.065208681 -0.028501485 0.064429812 4278190335
0.11484904 -0.053717256 0.076618284 4278190335
0.11177479 -0.052155636 0.071469381 4278190335
0.10808214 -0.050279882 0.066859983 4278190335
0.10384532 -0.048127707 0.062882766 4278190335
0.099149533 -0.045742393 0.059617706 4278190335
0.094089203 -0.043171898 0.057130463 4278190335
0.088766083 -0.040467918 0.055471048 4278190335
0.083287217 -0.037684821 0.05467283 4278190335
0.077762768 -0.034878574 0.054751858 4278190335
0.072303832 -0.032105602 0.055706546 4278190335
0.067020178 -0.02942167 0.057517696 4278190335
0.062018052 -0.026880743 0.060148887 4278190335
0.057398036 -0.024533916 0.063547209 4278190335
0.10808708 -0.050282393 0.067571521 4278190335
0.10438243 -0.04840054 0.062974244 4278190335
0.10013526 -0.046243113 0.059010934 4278190335
0.095430985 -0.043853484 0.055761285 4278190335
0.090364195 -0.041279711 0.053290643 4278190335
0.08503677 -0.038573544 0.051648688 4278190335
0.079555847 -0.035789404 0.050868437 4278190335
0.074031636 -0.032983273 0.050965577 4278190335
0.068575211 -0.030211577 0.051938158 4278190335
0.063296296 -0.027530052 0.053766623 4278190335
0.05830105 -0.024992619 0.056414202 4278190335
0.053689908 -0.022650301 0.059827659 4278190335
0.0495556 -0.020550199 0.063938357 4278190335
0.10023171 -0.046292108 0.05971422 4278190335
0.095974237 -0.044129442 0.055764854 4278190335
0.091261514 -0.041735522 0.052530639 4278190335
0.086188309 -0.03915849 0.050076619 4278190335
0.080856629 -0.036450159 0.048452139 4278190335
0.075373694 -0.033664998 0.047689859 4278190335
0.069849759 -0.030859008 0.047805112 4278190335
0.06439589 -0.028088612 0.048795577 4278190335
0.059121769 -0.02540952 0.050641339 4278190335
0.054133441 -0.022875601 0.053305287 4278190335
0.049531214 -0.020537814 0.056733847 4278190335
0.045407634 -0.018443162 0.060858078 4278190335
0.04184562 -0.016633768 0.065595053 4278190335
0.091447465 -0.041829981 0.053210944 4278190335
0.08672633 -0.039431788 0.0499922 4278190335
0.081646748 -0.036851518 0.047554821 4278190335
0.076310866 -0.034141053 0.045947827 4278190335
0.070825964 -0.031354893 0.045203526 4278190335
0.06530235 -0.028549066 0.045336887 4278190335
0.059851091 -0.025779994 0.04634523 4278190335
0.054581802 -0.023103356 0.048208278 4278190335
0.049600437 -0.020572975 0.050888568 4278190335
0.045007166 -0.018239737 0.054332204 4278190335
0.040894352 -0.016150553 0.058469936 4278190335
0.037344698 -0.014347438 0.063218564 4278190335
0.03442958 -0.012866648 0.068482608 4278190335
0.081918307 -0.036989458 0.048197895 4278190335
0.076832391 -0.034405973 0.045777183 4278190335
0.071492337 -0.031693388 0.044187691 4278190335
0.066005528 -0.028906256 0.043461375 4278190335
0.060482282 -0.026100619 0.043612849 4278190335
0.055033673 -0.023332894 0.044639058 4278190335
0.04976926 -0.020658733 0.046519373 4278190335
0.044794902 -0.018131914 0.049215984 4278190335
0.040210627 -0.015803242 0.052674662 4278190335
0.036108613 -0.013719546 0.056825861 4278190335
0.032571349 -0.011922724 0.061586112 4278190335
0.029669963 -0.010448908 0.066859685 4278190335
0.027462795 -0.0093277358 0.072540544 4278190335
0.12414555 -0.058439601 0.14833447 4278190335
0.1264475 -0.059608921 0.14270113 4278190335
0.12801589 -0.060405616 0.13675924 4278190335
0.12881918 -0.060813662 0.13062826 4278190335
0.12884122 -0.060824856 0.12443147 4278190335
0.12808156 -0.060438972 0.11829349 4278190335
0.12655549 -0.059663773 0.11233775 4278190335
0.12429367 -0.058514841 0.10668399 4278190335
0.12134161 -0.057015281 0.10144591 4278190335
0.11775865 -0.055195253 0.096728854 4278190335
0.11361685 -0.053091347 0.092627652 4278190335
0.1089995 -0.050745871 0.089224786 4278190335
0.10399943 -0.04820599 0.086588666 4278190335
0.12747797 -0.060132366 0.13713644 4278190335
0.12903087 -0.060921192 0.13118944 4278190335
0.12981817 -0.061321121 0.12505583 4278190335
0.12982406 -0.061324108 0.11885901 4278190335
0.12904841 -0.060930103 0.11272354 4278190335
0.12750682 -0.060147021 0.10677283 4278190335
0.12523028 -0.058990609 0.10112651 4278190335
0.12226458 -0.057484124 0.095898144 4278190335
0.11866935 -0.055657856 0.091192849 4278190335
0.11451688 -0.05354853 0.087105244 4278190335
0.10989067 -0.051198561 0.083717525 4278190335
0.10488375 -0.048655201 0.081097819 4278190335
0.099596806 -0.045969594 0.079298794 4278190335
0.12933442 -0.061075389 0.12551619 4278190335
0.13010575 -0.061467197 0.11938003 4278190335
0.13009548 -0.061461985 0.11318322 4278190335
0.12930384 -0.061059855 0.10705032 4278190335
0.12774675 -0.060268898 0.10110468 4278190335
0.12545551 -0.05910502 0.095465861 4278190335
0.12247619 -0.057591617 0.090247236 4278190335
0.11886872 -0.055759128 0.085553743 4278190335
0.11470561 -0.0536444 0.081479773 4278190335
0.11007059 -0.051289957 0.078107238 4278190335
0.10505687 -0.04874314 0.075503953 4278190335
0.099765263 -0.046055164 0.073722273 4278190335
0.094302163 -0.04328008 0.072798014 4278190335
0.12967604 -0.061248921 0.11371706 4278190335
0.12964964 -0.061235506 0.10752029 4278190335
0.12884201 -0.060825258 0.10139003 4278190335
0.12726943 -0.060026433 0.095449515 4278190335
0.1249635 -0.058855094 0.089818224 4278190335
0.1219706 -0.057334792 0.084609389 4278190335
0.1183509 -0.055496097 0.07992775 4278190335
0.1141772 -0.053375985 0.075867444 4278190335
0.10953341 -0.051017087 0.072510116 4278190335
0.10451293 -0.048466835 0.069923282 4278190335
0.0992167 -0.045776512 0.068158962 4278190335
0.093751222 -0.043000214 0.067252621 4278190335
0.088226393 -0.04019377 0.067222491 4278190335
0.12849566 -0.060649324 0.10198618 4278190335
0.12767208 -0.060230967 0.095858589 4278190335
0.12608401 -0.059424281 0.089923263 4278190335
0.12376342 -0.058245491 0.084299557 4278190335
0.12075695 -0.056718301 0.079100557 4278190335
0.11712508 -0.054873414 0.074430801 4278190335
0.11294081 -0.052747935 0.070384197 4278190335
0.1082883 -0.050384603 0.067042112 4278190335
0.10326109 -0.047830939 0.064471744 4278190335
0.097960286 -0.045138292 0.062724791 4278190335
0.092492461 -0.042360805 0.061836377 4278190335
0.08696758 -0.039554335 0.061824363 4278190335
0.08149673 -0.03677531 0.062688991 4278190335
0.12581801 -0.059289161 0.09056925 4278190335
0.12421449 -0.058474623 0.084639154 4278190335
0.12187926 -0.05728839 0.079023086 4278190335
0.11885925 -0.055754323 0.073833957 4278190335
0.11521522 -0.053903267 0.069176137 4278190335
0.11102042 -0.051772438 0.065143265 4278190335
0.10635922 -0.049404692 0.061816446 4278190335
0.10132534 -0.046847634 0.059262577 4278190335
0.096019998 -0.044152685 0.057533011 4278190335
0.090549886 -0.041374035 0.056662522 4278190335
0.085024998 -0.038567562 0.056668624 4278190335
0.07955642 -0.035789695 0.057551187 4278190335
