# .PCD v0.7 - Point Cloud Data file format
VERSION 0.7
FIELDS x y z
SIZE 4 4 4
TYPE F F F
COUNT 1 1 1
WIDTH 1321
HEIGHT 1
VIEWPOINT 0 0 0 1 0 0 0
POINTS 1321
DATA ascii
0.0012323805 0.042054284 0.11322012
0.0024029643 0.042018585 0.11281207
0.0034732809 0.041984882 0.11217815
0.0034867967 0.042018682 0.1121922
0.003429193 0.041950889 0.11212562
0.004329992 0.041884646 0.11128116
0.0049553276 0.041784097 0.11021919
0.0049898066 0.041793127 0.11023507
0.0054310411 0.041713327 0.10907425
0.0055707102 0.04160529 0.10783937
0.0054595964 0.041567124 0.10659183
0.0054521752 0.041529149 0.10659684
0.0053621023 0.04168278 0.10906112
0.0053994115 0.041476283 0.10661356
0.0054999986 0.041576114 0.10784192
0.0049898066 0.041374262 0.10544743
0.0050190366 0.041394629 0.10543152
0.0043723048 0.041333716 0.10436301
0.0034867967 0.041256536 0.10348087
0.0032796124 0.041282535 0.10333895
0.0034732809 0.041225694 0.10350058
0.0024170405 0.041167852 0.10283943
0.0012323805 0.041113105 0.10246238
-7.4280791e-15 0.041119769 0.10228985
-7.4288931e-15 0.041150201 0.10226543
-0.0012461173 0.041199896 0.10239438
-7.4268272e-15 0.041096754 0.10236284
-0.0012323805 0.041113105 0.10246238
-0.0024029643 0.041148804 0.10287043
-0.0024170405 0.041167852 0.10283943
-0.0034867967 0.041256536 0.10348087
-0.0034732809 0.041225694 0.10350058
-0.0055707102 0.04160529 0.10783937
-0.0050385674 0.041849088 0.11025374
-0.0054310411 0.041713327 0.10907425
-0.0043723048 0.041941505 0.11131006
-0.0049898066 0.041793127 0.11023507
-0.0034732809 0.041984882 0.11217815
-0.0012461173 0.042151567 0.11327203
-0.0017193311 0.042137135 0.11310707
-0.0012444233 0.042112797 0.11326797
-0.0024264462 0.042076748 0.11285593
-0.0024297489 0.042115469 0.11285943
-0.003429193 0.041950889 0.11212562
-0.0034530533 0.041961078 0.11215477
-0.0024170405 0.042042725 0.1128393
-0.0012395997 0.042078633 0.11324973
-7.3148071e-15 0.042125016 0.11340764
-7.3154305e-15 0.0421638 0.1134119
0.0012444233 0.042112797 0.11326797
0.0012395997 0.042078633 0.11324973
0.0043782564 0.041980039 0.11131146
0.0024264462 0.042076748 0.11285593
0.0012238648 0.042043451 0.11318361
0.0034530533 0.041961078 0.11215477
0.0043723048 0.041941505 0.11131006
0.0043553566 0.041908003 0.11129943
0.0050385674 0.041849088 0.11025374
0.0054521752 0.041746069 0.10907622
0.0052940114 0.041825581 0.10954599
0.0043000723 0.041874986 0.11125806
0.0050190366 0.041815948 0.11024721
0.0055923876 0.041637611 0.10783654
0.0053994115 0.041691102 0.10906894
0.0055382675 0.041583695 0.10784125
0.0054310411 0.041497249 0.10660448
0.0050385674 0.04142613 0.10541932
0.003491543 0.041294139 0.10347161
0.0053621023 0.041469444 0.1066227
0.0049553276 0.041368127 0.10546464
0.004329992 0.041282739 0.10440134
0.0043553566 0.041302573 0.1043793
0.0024264462 0.04119847 0.10281714
0.0012444233 0.04116242 0.1024051
0.0017193311 0.041214325 0.10255934
0.0024297489 0.041235991 0.10280698
0.003429193 0.041201334 0.10355821
0.0024029643 0.041148804 0.10287043
0.0034530533 0.041206308 0.10352773
0.0012395997 0.041131943 0.102429
-7.4296724e-15 0.041187659 0.10225451
-7.4273541e-15 0.041101001 0.10232405
-0.0012444233 0.04116242 0.1024051
-0.0012395997 0.041131943 0.102429
-0.0043782564 0.041371424 0.10435495
-0.003491543 0.041294139 0.10347161
-0.0032796124 0.041282535 0.10333895
-0.0024264462 0.04119847 0.10281714
-0.0024297489 0.041235991 0.10280698
-0.0017193311 0.041214325 0.10255934
-0.0043723048 0.041333716 0.10436301
-0.0050385674 0.04142613 0.10541932
-0.0050454256 0.041463964 0.1054127
-0.0053994115 0.041476283 0.10661356
-0.0050190366 0.041394629 0.10543152
-0.0045114211 0.041961566 0.11110034
-0.0054521752 0.041746069 0.10907622
-0.0055923876 0.041637611 0.10783654
-0.0054595964 0.041784335 0.10907458
-0.0054521752 0.041529149 0.10659684
-0.0054595964 0.041567124 0.10659183
0.0054595964 0.041965604 0.10655696
0.0052940114 0.041525882 0.10612042
0.0050454256 0.041862443 0.10537783
0.0050454256 0.041463964 0.1054127
0.0045114211 0.041389894 0.10456607
0.0043782564 0.041769903 0.10432008
0.0043782564 0.041371424 0.10435495
0.0012461173 0.041598376 0.10235951
0.0012461173 0.041199896 0.10239438
-7.4358939e-15 0.041586138 0.10221964
-0.0012461173 0.041598376 0.10235951
-7.4283163e-15 0.041187659 0.10225451
-0.0017193311 0.041612804 0.10252447
-0.0032796124 0.041681014 0.10330408
-0.0043782564 0.041769903 0.10432008
-0.0045114211 0.041389894 0.10456607
-0.0052940114 0.041924361 0.10608555
-0.0054595964 0.041965604 0.10655696
-0.0052940114 0.041525882 0.10612042
-0.0055999998 0.042074211 0.10779834
-0.0055999998 0.041675732 0.10783321
-0.0050454256 0.042285975 0.11021884
-0.0052940114 0.041825581 0.10954599
-0.0050454256 0.041887496 0.11025371
-0.0043782564 0.042378519 0.11127659
-0.0043782564 0.041980039 0.11131146
-0.003491543 0.04205732 0.1121948
-0.0032796124 0.042068925 0.11232746
-0.0012461173 0.042550046 0.11323716
-7.3273813e-15 0.04256228 0.11337703
-7.3198038e-15 0.0421638 0.1134119
0.0012461173 0.042550046 0.11323716
0.0017193311 0.042535614 0.1130722
0.0017193311 0.042137135 0.11310707
0.0024297489 0.042115469 0.11285943
0.0032796124 0.042068925 0.11232746
0.003491543 0.0424558 0.11215993
0.003491543 0.04205732 0.1121948
0.0045114211 0.042360045 0.11106547
0.0050454256 0.042285975 0.11021884
0.0045114211 0.041961566 0.11110034
0.0050454256 0.041887496 0.11025371
0.0054595964 0.041784335 0.10907458
0.0054595964 0.042182814 0.10903971
0.0055999998 0.042074211 0.10779834
0.0055999998 0.041675732 0.10783321
-0.0043723048 0.042416226 0.11126853
-0.0045114211 0.042360045 0.11106547
-0.0034867967 0.042493403 0.11215067
-0.003491543 0.0424558 0.11215993
-0.0032796124 0.042467404 0.11229259
-0.0024264462 0.042551469 0.1128144
-0.0024297489 0.042513948 0.11282456
-0.0017193311 0.042535614 0.1130722
-7.3235494e-15 0.042599738 0.11336611
-7.3227692e-15 0.04256228 0.11337703
0.0012444234 0.042587519 0.11322644
0.0024297489 0.042513948 0.11282456
0.0032796124 0.042467404 0.11229259
0.0043782564 0.042378519 0.11127659
0.0043723048 0.042416226 0.11126853
0.0052940114 0.042224061 0.10951112
0.0055923881 0.042112332 0.10779501
0.0054521752 0.04200387 0.10655531
0.0052940114 0.041924361 0.10608555
0.0050385674 0.041900851 0.10537779
0.0045114211 0.041788373 0.1045312
0.0034867967 0.041731257 0.10343934
0.003491543 0.041692618 0.10343674
0.0032796124 0.041681014 0.10330408
0.0024297489 0.04163447 0.10277211
0.0024264462 0.041673191 0.10277561
0.0017193311 0.041612804 0.10252447
-7.4376362e-15 0.041624922 0.1022239
-7.4370111e-15 0.041586138 0.10221964
-0.0024297489 0.04163447 0.10277211
-0.0024264462 0.041673191 0.10277561
-0.003491543 0.041692618 0.10343674
-0.0045114211 0.041788373 0.1045312
-0.0050385674 0.041900851 0.10537779
-0.0050454256 0.041862443 0.10537783
-0.0054521752 0.04200387 0.10655531
-0.0054595964 0.042182814 0.10903971
-0.0052940114 0.042224061 0.10951112
-0.0050190371 0.041933991 0.10538433
-0.0043723048 0.041808438 0.10432148
-0.0034867967 0.041731257 0.10343934
-0.004355357 0.041841935 0.10433211
-0.0012444234 0.041637141 0.10236357
0.0012444234 0.041637141 0.10236357
0.0043723048 0.041808438 0.10432148
0.004355357 0.041841935 0.10433211
0.0050190371 0.041933991 0.10538433
0.0055707106 0.042144652 0.10779218
0.0054521752 0.04222079 0.10903469
0.0050385674 0.042323809 0.11021221
0.0034867967 0.042493403 0.11215067
0.0034732814 0.042524245 0.11213095
0.0024264462 0.042551469 0.1128144
0.0012395998 0.042617999 0.11320255
-7.3243684e-15 0.04263017 0.11334169
-0.0012444234 0.042587519 0.11322644
-0.0012395998 0.042617999 0.11320255
-0.0024170408 0.042582087 0.11279211
-0.0050385674 0.042323809 0.11021221
-0.0054521752 0.04222079 0.10903469
-0.0050190371 0.04235531 0.11020002
-0.0054310411 0.04225269 0.10902706
-0.0055923881 0.042112332 0.10779501
-0.0055707106 0.042144652 0.10779218
-0.0053994125 0.042058837 0.1065626
-0.0034732814 0.041765057 0.10345339
-0.0024170408 0.041707214 0.10279223
-0.0024029645 0.041731358 0.10281947
-0.0012395998 0.041671306 0.1023818
-7.4380123e-15 0.041659132 0.10224266
-7.4380826e-15 0.041683555 0.10227309
0.0012395998 0.041671306 0.1023818
0.0024170408 0.041707214 0.10279223
0.0034732814 0.041765057 0.10345339
0.0034530538 0.041788861 0.10347677
0.0054310411 0.042036612 0.10655729
0.0054310411 0.04225269 0.10902706
0.0050190371 0.04235531 0.11020002
0.0053994125 0.042273656 0.10901798
0.004355357 0.042447366 0.11125223
0.0049898075 0.04237568 0.1101841
0.0024170408 0.042582087 0.11279211
0.0024029645 0.042601138 0.11276111
0.0012323806 0.042636838 0.11316916
-0.0024029645 0.042601138 0.11276111
-0.0034732814 0.042524245 0.11213095
-0.004355357 0.042447366 0.11125223
-0.0049898075 0.04237568 0.1101841
-0.0053994125 0.042273656 0.10901798
-0.0054310411 0.042036612 0.10655729
-0.0055382685 0.042166248 0.10779029
-0.0049898075 0.041956816 0.10539647
-0.0043299925 0.041865293 0.10435037
-0.0043000733 0.041874953 0.10437348
-0.0034530538 0.041788861 0.10347677
-0.003429194 0.04179905 0.10350591
-0.0023863607 0.041741941 0.10285316
-0.0012323806 0.041695658 0.10241142
-7.4378353e-15 0.04169447 0.10231055
0.0012323806 0.041695658 0.10241142
0.0012238651 0.041706488 0.10244793
0.0024029645 0.041731358 0.10281947
0.0023863607 0.041741941 0.10285316
0.0043299925 0.041865293 0.10435037
0.0043000733 0.041874953 0.10437348
0.0049898075 0.041956816 0.10539647
0.0053994125 0.042058837 0.1065626
0.0055382685 0.042166248 0.10779029
0.0055 0.042173829 0.10778963
0.0043299925 0.042467199 0.1112302
0.0034530538 0.042543631 0.1121038
0.003429194 0.042548604 0.11207334
0.0012238651 0.042641167 0.11313132
-7.3251003e-15 0.042648938 0.11330748
-7.3256339e-15 0.042653184 0.1132687
-0.0012323806 0.042636838 0.11316916
-0.0034530538 0.042543631 0.1121038
-0.003429194 0.042548604 0.11207334
-0.0043299925 0.042467199 0.1112302
-0.004955329 0.042381812 0.1101669
-0.0053621037 0.042280495 0.10900883
-0.0055 0.042173829 0.10778963
-0.009555283 0.041175466 0.096378297
-0.0098000001 0.042505018 0.11157516
-0.0088450853 0.041296948 0.097766839
0.0077389264 0.041393355 0.098868787
0.0088450853 0.041296948 0.097766839
0.004955329 0.042381812 0.1101669
0.0043000733 0.042472702 0.11120577
0.0053621037 0.042280495 0.10900883
0.0053621037 0.042067159 0.10657042
-0.0023863607 0.042605713 0.11272609
-0.0048000002 0.042940799 0.11655614
-0.0012238651 0.042641167 0.11313132
-7.3263022e-15 0.042653184 0.1132687
0.0023863607 0.042605713 0.11272609
0.0048000002 0.042940799 0.11655614
0.0063450849 0.042919468 0.11631235
0.0077389264 0.042857572 0.11560486
0.009555283 0.042639684 0.11311437
0.0048000002 0.041476581 0.09982007
-0.0048000002 0.041476581 0.09982007
-7.4375617e-15 0.04169447 0.10231055
-0.0012238651 0.041706488 0.10244793
0.004955329 0.041965842 0.10541235
0.0063450849 0.041455254 0.09957628
0.003429194 0.04179905 0.10350591
-0.0063450849 0.041455254 0.09957628
-0.004955329 0.041965842 0.10541235
-0.0053621037 0.042067159 0.10657042
-0.0043000733 0.042472702 0.11120577
-0.0077389264 0.042857572 0.11560486
0.0063450849 0.038765527 0.099811599
0.0088450853 0.038607221 0.098002158
0.009555283 0.038485739 0.096613616
0.009555283 0.041175466 0.096378297
0.0098000001 0.038351078 0.095074415
-0.0077389264 0.038703628 0.099104106
-0.0077389264 0.041393355 0.098868787
-0.009555283 0.038485739 0.096613616
0.0079480503 0.039541669 0.081146002
0.0089213206 0.039598346 0.081793845
-0.0079480503 0.039541669 0.081146002
-0.0098000001 0.039373599 0.079224981
-0.0068000001 0.039521765 0.080918513
-0.0029344428 0.039768878 0.068827227
0.003 0.039823242 0.06944859
0.0027406365 0.039716892 0.068233021
-0.0015 0.039596803 0.0668604
-0.0024270511 0.039976928 0.071205236
0.0020073918 0.039628934 0.067227639
-0.0088450853 0.038607221 0.098002158
-0.0063450849 0.038765527 0.099811599
-0.0041999999 0.035588238 0.06349504
0.0087343138 0.036341477 0.072104588
0.0035779832 0.035793878 0.06584549
0.0048000002 0.038786855 0.10005539
-0.0048000002 0.038786855 0.10005539
0.0098000001 0.03680842 0.077441767
-0.0089213206 0.035664819 0.064370379
-0.0068000001 0.035588238 0.06349504
0.0077389264 0.038703628 0.099104106
0.0098000001 0.038800813 0.077267453
0.0098000001 0.038975123 0.079259843
-0.0029344428 0.03807535 0.068975389
-0.0098000001 0.037842099 0.06630931
-0.0029344428 0.038184077 0.070218116
-0.0098000001 0.038975123 0.079259843
-0.0024270511 0.0382834 0.071353398
0.0095309941 0.038562767 0.074546583
0.0087343138 0.03833387 0.071930274
0.003 0.038129713 0.069596753
0.0027406365 0.038023364 0.068381183
0.0020073918 0.037935406 0.067375802
0.00092705101 0.037881043 0.066754438
0.0035779832 0.037786271 0.065671176
0.0011575681 0.037673514 0.064382359
-0.00031358539 0.037869677 0.066624537
-0.0015 0.037903275 0.067008562
-0.0024270511 0.037976027 0.067840107
-0.0068000001 0.037580632 0.063320726
-0.0014687355 0.037604079 0.063588709
-0.0014687355 0.035611685 0.063763022
0.0011575681 0.035681121 0.064556673
0.0056994949 0.03594562 0.06757994
0.0056994949 0.037938014 0.067405626
0.0074405745 0.036130525 0.069693379
0.0074405745 0.038122918 0.069519065
0.0095309941 0.036570374 0.074720897
-0.0095716389 0.037742041 0.065165631
-0.0095716389 0.035749648 0.065339945
-0.0089213206 0.037657212 0.064196065
-0.0079480503 0.037600536 0.063548215
-0.0079480503 0.035608143 0.063722529
0.0098000001 0.039373599 0.079224981
-0.0041999999 0.037580632 0.063320726
0.003 0.038129713 0.069596753
0.0027406365 0.039929591 0.07066416
0.0027406365 0.038236063 0.070812322
0.0020073918 0.040017549 0.071669541
0.00092705101 0.040071912 0.072290905
0.0020073918 0.038324021 0.071817704
0.00092705101 0.038378384 0.072439067
-0.00031358539 0.03838975 0.072568968
-0.00031358539 0.040083278 0.072420806
-0.0015 0.04004968 0.07203678
-0.0015 0.038356151 0.072184943
-0.0029344428 0.039877605 0.070069954
-0.0024270511 0.039669555 0.067691945
-0.00031358539 0.039563205 0.066476375
0.00092705101 0.039574571 0.066606276
0.003 0.039823242 0.06944859
0.0098000001 0.06275785 0.092939101
-0.0098000001 0.064222068 0.10967517
0.0077389264 0.063110404 0.096968792
0.0098000001 0.064222068 0.10967517
0.0048000002 0.063193627 0.097920075
-0.0063450849 0.064636514 0.11441236
-0.0048000002 0.063193627 0.097920075
-0.0048000002 0.064657845 0.11465614
0.0048000002 0.064657845 0.11465614
-0.0048000002 0.065684117 0.097702183
-0.0063450849 0.063172303 0.097676285
-0.0077389264 0.065600887 0.0967509
-0.0077389264 0.063110404 0.096968792
-0.0088450853 0.065504484 0.095648952
-0.0088450853 0.063013993 0.095866844
-0.009555283 0.065383002 0.094260409
-0.009555283 0.062892511 0.094478302
0.0048000002 0.065684117 0.097702183
0.0063450849 0.063172303 0.097676285
0.0063450849 0.065662786 0.097458392
0.0088450853 0.063013993 0.095866844
0.0077389264 0.065600887 0.0967509
0.0088450853 0.065504484 0.095648952
0.009555283 0.062892511 0.094478302
0.009555283 0.065383002 0.094260409
0.001454197 0.060351975 0.071176715
-8.4411289e-15 0.060377188 0.071464874
-0.0038000001 0.060045995 0.067679331
-0.0035107422 0.059919253 0.06623067
-8.5179988e-15 0.059714802 0.063893788
0.0026870058 0.059811808 0.065002553
-0.001454197 0.059740014 0.064181946
0.0035107422 0.059919253 0.06623067
0.0098000001 0.060043376 0.079123102
0.0098000001 0.060304843 0.082111686
0.0095716389 0.060204785 0.080968
-0.0098000001 0.060555335 0.064322159
-0.0038000001 0.06084295 0.067609601
-0.0095716389 0.060455278 0.06317848
-0.0089213206 0.060370449 0.062208913
-8.5326559e-15 0.060511757 0.063824058
0.001454197 0.060536969 0.064112216
-0.0014687355 0.060317315 0.061601557
-0.001454197 0.06114893 0.071106985
0.0098000001 0.061836526 0.078966223
0.0038000001 0.06084295 0.067609601
0.0087343138 0.061047107 0.069943123
0.0035107422 0.060969692 0.069058262
-0.0041999999 0.062485497 0.061141834
-0.0098000001 0.06524834 0.092721209
-0.0063450849 0.065662786 0.097458392
0.0011575681 0.06257838 0.062203467
0.0056994949 0.062842883 0.065226734
-0.0095716389 0.062646911 0.062986739
-0.0098000001 0.062746964 0.064130418
0.0098000001 0.063705683 0.075088561
-0.0041999999 0.060293868 0.061333574
-0.0014687355 0.062508948 0.061409816
0.0035779832 0.062691137 0.063492283
0.0011575681 0.060386751 0.062395208
0.0035779832 0.060499508 0.063684024
0.0056994949 0.06065125 0.065418474
0.0074405745 0.063027784 0.067340173
0.0074405745 0.060836155 0.067531914
0.0087343138 0.06323874 0.069751382
0.0095309941 0.061276004 0.072559431
0.0095309941 0.063467637 0.072367691
-0.0068000001 0.060293868 0.061333574
-0.0089213206 0.062562078 0.062017173
-0.0079480503 0.062505402 0.061369322
-0.0079480503 0.060313772 0.061561063
-0.0068000001 0.062485497 0.061141834
-0.0098000001 0.035849705 0.066483624
-0.0098000001 0.038351078 0.095074415
-0.0098000001 0.061836526 0.078966223
-0.0098000001 0.039783232 0.083907098
-0.0098000001 0.041040804 0.094839096
-0.0098000001 0.06275785 0.092939101
0.0098000001 0.06524834 0.092721209
0.0098000001 0.06151405 0.075280301
0.0098000001 0.042505018 0.11157516
0.0098000001 0.039783232 0.083907098
0.0098000001 0.041040804 0.094839096
-0.0098000001 0.060043376 0.079123102
0.0068000001 0.060043376 0.079123102
0.0068000001 0.039521765 0.080918513
-0.0038000001 0.060045995 0.067679331
-0.0035107422 0.060172737 0.069127992
-0.0038000001 0.06084295 0.067609601
-0.0035107422 0.060969692 0.069058262
-0.0026870058 0.060280181 0.070356108
-0.0026870058 0.061077137 0.070286378
-0.001454197 0.060351975 0.071176715
-8.4410653e-15 0.060377188 0.071464874
-8.4557859e-15 0.061174143 0.071395144
0.001454197 0.06114893 0.071106985
0.0026870058 0.060280181 0.070356108
0.0026870058 0.061077137 0.070286378
0.0035107422 0.060172737 0.069127992
0.0038000001 0.060045995 0.067679331
0.0038000001 0.06084295 0.067609601
0.0035107422 0.060716208 0.06616094
0.001454197 0.059740014 0.064181946
0.0026870058 0.060608763 0.064932823
-8.5179353e-15 0.059714802 0.063893788
-0.001454197 0.060536969 0.064112216
-0.0026870058 0.059811808 0.065002553
-0.0026870058 0.060608763 0.064932823
-0.0035107422 0.060716208 0.06616094
-0.0063450849 0.042919468 0.11631235
-0.0077389264 0.064574622 0.11370486
-0.0088450853 0.064478211 0.11260291
-0.0088450853 0.042761162 0.11450291
-0.009555283 0.064356729 0.11121438
-0.009555283 0.042639684 0.11311437
0.0063450849 0.064636514 0.11441236
0.0077389264 0.064574622 0.11370486
0.0088450853 0.042761162 0.11450291
0.0088450853 0.064478211 0.11260291
0.009555283 0.064356729 0.11121438
-0.0098000001 0.060304843 0.082111686
-0.0095716389 0.060204785 0.080968
-0.0095716389 0.039683174 0.082763411
-0.0089213206 0.039598346 0.081793845
-0.0089213206 0.060119957 0.079998434
-0.0079480503 0.06006328 0.079350591
-0.0068000001 0.060043376 0.079123102
0.0079480503 0.06006328 0.079350591
0.0089213206 0.060119957 0.079998434
0.0095716389 0.039683174 0.082763411
0.00050000002 0.053488154 0.12255972
-1.6792908e-14 0.053354688 0.12257139
-0.0008660254 0.053852785 0.12252782
-0.001 0.053976115 0.1182006
-0.001 0.054350883 0.12248424
-0.00050000002 0.054838844 0.11812512
-1.6874285e-14 0.05497231 0.11811344
-1.6830372e-14 0.055347078 0.12239708
0.00050000002 0.055213612 0.12240876
0.0008660254 0.054474212 0.11815702
0.001 0.053976115 0.1182006
0.001 0.054350883 0.12248424
0.0008660254 0.053478017 0.11824418
-1.6836823e-14 0.05297992 0.11828776
-0.001 0.054350883 0.12248424
0.0098000001 0.040952064 0.12365648
-1.6793678e-14 0.053354688 0.12257139
-0.00050000002 0.053488154 0.12255972
-0.0008660254 0.05484898 0.12244066
-0.00050000002 0.055213612 0.12240876
-1.6830331e-14 0.055347078 0.12239708
0.0008660254 0.05484898 0.12244066
0.001 0.054350883 0.12248424
0.0008660254 0.053852785 0.12252782
-7.7272376e-15 0.063723966 0.10971875
-7.8100139e-15 0.06306158 0.10214766
0.0030742646 0.063198105 0.10370812
0.0038000001 0.063392773 0.1059332
-0.0030742646 0.063198105 0.10370812
0.0022335839 0.063660719 0.10899577
-0.0022335839 0.063660719 0.10899577
-0.0030742646 0.063587442 0.10815829
-0.0038000001 0.063392773 0.1059332
0.0038000001 0.064189732 0.10586347
-0.0092270514 0.063748427 0.10081939
-0.0098000001 0.065183304 0.1172201
-0.0030742646 0.064384401 0.10808856
0.0036140147 0.064087383 0.10469368
0.0030742646 0.063995063 0.10363839
0.0021558669 0.06377364 0.10110755
0.00012623792 0.06370037 0.10027005
-7.8246862e-15 0.063858539 0.10207793
-0.0041999999 0.063640647 0.099587448
-0.0077270512 0.063653447 0.099733718
-0.0030742646 0.063995063 0.10363839
-0.0098000001 0.063902117 0.10257603
0.0098000001 0.064860828 0.11353417
-7.7419099e-15 0.064520925 0.10964902
0.0056994949 0.063998029 0.10367235
0.0091147916 0.064483769 0.1092244
-0.0085633555 0.065882213 0.099966474
-0.0092270514 0.06594006 0.10062765
0.0098000001 0.067052461 0.11334243
-0.0098000001 0.067749701 0.12131199
-0.0041999999 0.06583228 0.099395707
-0.0096531697 0.066012949 0.10146077
0.0021558669 0.065965272 0.10091581
-0.0020099175 0.0658473 0.099567413
-0.0020099175 0.063655674 0.099759154
0.00012623792 0.065891996 0.10007831
0.0040289937 0.066065311 0.1020593
0.0040289937 0.063873686 0.10225104
0.0056994949 0.066189662 0.10348061
0.0071262377 0.066335253 0.10514475
0.0071262377 0.064143628 0.10533649
0.0082740914 0.066498511 0.10701075
0.0082740914 0.064306878 0.10720249
0.0091147916 0.066675402 0.10903266
0.0096276365 0.066861577 0.11116069
0.0096276365 0.064669952 0.11135243
-0.0068000001 0.063640647 0.099587448
-0.0098000001 0.066093743 0.10238429
-0.0096531697 0.063821316 0.10165251
-0.0085633555 0.063690588 0.10015821
-0.0077270512 0.065845072 0.099541977
-0.0068000001 0.06583228 0.099395707
-0.0036140147 0.064087383 0.10469368
-0.0038000001 0.063392773 0.1059332
-0.0038000001 0.064189732 0.10586347
-0.0036140147 0.063495122 0.107103
-0.0036140147 0.064292073 0.10703327
-0.0022335839 0.06445767 0.10892604
-0.0011742646 0.063707754 0.10953347
-0.0011742646 0.064504713 0.10946374
-7.7272495e-15 0.063723966 0.10971875
0.0011742646 0.064504713 0.10946374
0.0011742646 0.063707754 0.10953347
0.0022335839 0.06445767 0.10892604
0.0030742646 0.063587442 0.10815829
0.0030742646 0.064384401 0.10808856
0.0036140147 0.063495122 0.107103
0.0036140147 0.064292073 0.10703327
0.0038000001 0.064189732 0.10586347
0.0036140147 0.063290432 0.10476341
0.0022335839 0.063921787 0.10280091
0.0022335839 0.063124835 0.10287064
0.0011742646 0.063874751 0.10226321
0.0011742646 0.063077793 0.10233294
-7.8100258e-15 0.06306158 0.10214766
-0.0011742646 0.063077793 0.10233294
-0.0011742646 0.063874751 0.10226321
-0.0022335839 0.063921787 0.10280091
-0.0022335839 0.063124835 0.10287064
-0.0036140147 0.063290432 0.10476341
0.001 0.053976115 0.1182006
0.0098000001 0.065183304 0.1172201
-0.00050000002 0.053113386 0.11827608
-1.6837067e-14 0.05297992 0.11828776
0.00050000002 0.053113386 0.11827608
0.00050000002 0.054838844 0.11812512
-0.0008660254 0.054474212 0.11815702
-0.0098000001 0.042968165 0.11916367
-0.001 0.053976115 0.1182006
-0.0008660254 0.053478017 0.11824418
-0.0098000001 0.042819999 0.11747014
-0.0028190778 0.043359067 0.1087159
0.003 0.043269642 0.10769375
0.0028190778 0.043180216 0.10667159
0.0028190778 0.043359067 0.1087159
0.00052094454 0.043012146 0.10475057
0.0022981332 0.043437708 0.10961477
0.0015 0.04349608 0.11028194
-0.0022981332 0.043437708 0.10961477
0.00012623792 0.039094359 0.1024228
-0.0085633555 0.039084576 0.10231096
-0.0096531697 0.039215308 0.10380526
-0.0068000001 0.039034639 0.1017402
0.0021558669 0.039167631 0.1032603
0.0040289937 0.039267674 0.10440379
-0.0098000001 0.040952064 0.12365648
0.0056994949 0.039392021 0.1058251
0.0071262377 0.039537616 0.10748924
0.0082740914 0.039700869 0.10935524
0.0022981332 0.041744176 0.10976294
0.0015 0.041802548 0.1104301
0.00052094454 0.041833606 0.11078509
-0.0015 0.041802548 0.1104301
-0.0028190778 0.041665535 0.10886406
-0.003 0.04157611 0.10784191
-0.0098000001 0.041288495 0.10455447
-0.0028190778 0.041486684 0.10681976
-0.0096531697 0.041207697 0.10363095
-0.0022981332 0.041408043 0.10592088
-0.0085633555 0.041076966 0.10213665
0.0096276365 0.04205633 0.11333086
0.003 0.04157611 0.10784191
0.0040289937 0.041260064 0.10422947
0.00052094454 0.041318614 0.10489873
0.0021558669 0.041160021 0.10308599
-0.0015 0.041349672 0.10525372
-0.0077270512 0.041039824 0.10171215
-0.0041999999 0.039034639 0.1017402
-0.0020099175 0.041042052 0.10173759
-0.0020099175 0.039049663 0.1019119
0.00012623792 0.041086748 0.10224848
0.0056994949 0.04138441 0.10565078
0.0071262377 0.041530006 0.10731493
0.0082740914 0.041693259 0.10918093
0.0091147916 0.041870151 0.11120284
0.0091147916 0.039877761 0.11137715
0.0098000001 0.04224721 0.11551261
0.0096276365 0.04006394 0.11350518
0.0098000001 0.04025482 0.11568692
-0.0098000001 0.039296106 0.10472878
-0.0092270514 0.041134808 0.10279782
-0.0092270514 0.039142419 0.10297213
-0.0077270512 0.039047435 0.10188647
-0.0068000001 0.041027028 0.10156588
-0.0098000001 0.04242152 0.117505
0.0098000001 0.042819999 0.11747014
0.0098000001 0.04242152 0.117505
0.0098000001 0.067749701 0.12131199
0.0098000001 0.042968165 0.11916367
-0.0041999999 0.041027028 0.10156588
0.003 0.043269642 0.10769375
0.003 0.04157611 0.10784191
0.0028190778 0.041665535 0.10886406
0.00052094454 0.043527137 0.11063693
-0.00052094454 0.043527137 0.11063693
-0.00052094454 0.041833606 0.11078509
-0.0015 0.04349608 0.11028194
-0.0022981332 0.041744176 0.10976294
-0.003 0.043269642 0.10769375
-0.003 0.04157611 0.10784191
-0.0028190778 0.043180216 0.10667159
-0.0022981332 0.043101575 0.10577272
-0.0015 0.043043204 0.10510556
-0.00052094454 0.043012146 0.10475057
-0.00052094454 0.041318614 0.10489873
0.0015 0.041349672 0.10525372
0.0015 0.043043204 0.10510556
0.0022981332 0.043101575 0.10577272
0.0022981332 0.041408043 0.10592088
0.0028190778 0.041486684 0.10681976
-1.6587362e-14 0.042396545 0.1235301
-0.0042164978 0.043158818 0.12346341
0.0061547915 0.044088699 0.12338205
-0.0078952648 0.045348413 0.12327185
0.005206605 0.065121368 0.12154193
-0.010014879 0.060936492 0.12190806
-0.011412678 0.050656788 0.12280742
-0.0070534232 0.064022146 0.1216381
-0.005206605 0.065121368 0.12154193
0.0070534232 0.064022146 0.1216381
0.0086735385 0.062612079 0.12176147
0.010014879 0.060936492 0.12190806
0.011699134 0.057010975 0.1222515
0.011987917 0.054887213 0.12243731
0.011891397 0.052746214 0.12262462
-0.011034333 0.059049238 0.12207317
0.010567146 0.048686098 0.12297983
0.0093819778 0.046897475 0.12313632
0.0078952648 0.045348413 0.12327185
0.00075348624 0.043378849 0.13448618
0.0021426827 0.042588659 0.12351329
0.0022485757 0.043567006 0.13446972
0.0042164978 0.043158818 0.12346341
0.003708204 0.043940347 0.13443705
0.0078843497 0.046318706 0.13422897
0.0076490878 0.046098623 0.13424823
0.0064299214 0.045216218 0.13432543
0.0051093516 0.04449299 0.1343887
0.0087476233 0.047126289 0.13415831
0.0097082043 0.048283014 0.13405712
0.010515681 0.049550552 0.13394623
0.011412678 0.050656788 0.12280742
0.011622998 0.052336674 0.13370247
0.011390158 0.051622793 0.13376492
0.011157318 0.050908912 0.13382739
0.012 0.055309597 0.13344237
0.011905377 0.053811323 0.13357346
0.011966214 0.055844568 0.13339557
0.011905377 0.056807872 0.13331129
0.011683472 0.057966713 0.1332099
0.011622998 0.058282521 0.13318227
0.011157318 0.059710283 0.13305736
0.010515681 0.061068643 0.13293852
0.011034333 0.059049238 0.12207317
0.011019905 0.060001187 0.1330319
0.0086692385 0.06356623 0.13272001
0.0087476233 0.063492902 0.13272643
0.0097082043 0.06233618 0.13282762
0.0099965185 0.061883599 0.13286722
0.0076490878 0.064520575 0.13263652
0.0064299214 0.065402977 0.13255931
0.0052035791 0.066074602 0.13250056
0.0051093516 0.066126205 0.13249604
0.0031924422 0.06587442 0.12147605
0.003708204 0.066678844 0.13244769
-0.0010736733 0.06720005 0.13240209
-0.00075348624 0.067240342 0.13239856
-0.0010756718 0.066257097 0.12144257
0.0010756718 0.066257097 0.12144257
0.00075348624 0.067240342 0.13239856
0.0022485757 0.067052193 0.13241503
-0.0022485757 0.067052193 0.13241503
-0.003708204 0.066678844 0.13244769
-0.0031924422 0.06587442 0.12147605
-0.0051093516 0.066126205 0.13249604
-0.0076490878 0.064520575 0.13263652
-0.0064299214 0.065402977 0.13255931
-0.0097082043 0.06233618 0.13282762
-0.0087476233 0.063492902 0.13272643
-0.0086692385 0.06356623 0.13272001
-0.0086735385 0.062612079 0.12176147
-0.010515681 0.061068643 0.13293852
-0.011019905 0.060001187 0.1330319
-0.011157318 0.059710283 0.13305736
-0.011699134 0.057010975 0.1222515
-0.011987917 0.054887213 0.12243731
-0.011905377 0.056807872 0.13331129
-0.011622998 0.058282521 0.13318227
-0.011891397 0.052746214 0.12262462
-0.011905377 0.053811323 0.13357346
-0.012 0.055309597 0.13344237
-0.011885228 0.053706098 0.13358267
-0.011622998 0.052336674 0.13370247
-0.011390158 0.051622793 0.13376492
-0.010567146 0.048686098 0.12297983
-0.011157318 0.050908912 0.13382739
-0.010515681 0.049550552 0.13394623
-0.0097082043 0.048283014 0.13405712
-0.0087476233 0.047126289 0.13415831
-0.0093652224 0.047869999 0.13409325
-0.0093819778 0.046897475 0.12313632
-0.0061471094 0.045061331 0.13433897
-0.0064299214 0.045216218 0.13432543
-0.0061547915 0.044088699 0.12338205
-0.0076490878 0.046098623 0.13424823
-0.0078843497 0.046318706 0.13422897
-0.0051093516 0.04449299 0.1343887
-0.003708204 0.043940347 0.13443705
-1.6477332e-14 0.04335526 0.13448824
-1.6590299e-14 0.042396545 0.1235301
-0.00075348624 0.043378849 0.13448618
-0.0021426827 0.042588659 0.12351329
-0.0021418955 0.04355358 0.13447089
-0.0022485757 0.043567006 0.13446972
-0.011622998 0.052336674 0.13370247
0.011157318 0.050908912 0.13382739
0.011622998 0.052336674 0.13370247
-0.001344866 0.056878284 0.14526315
-0.00027103585 0.054932427 0.14543338
0.00092199567 0.057458099 0.14521241
-0.0014009976 0.056706186 0.1452782
-0.002516567 0.057703305 0.14492875
-0.0026701209 0.057378229 0.1449572
0.0010544095 0.057334229 0.14522326
-0.0013149473 0.05225591 0.14497259
-0.00088743126 0.053604234 0.14528738
-0.0034425766 0.058779161 0.14440188
-0.0012675251 0.057042018 0.14524882
0.0023233253 0.058006644 0.14490221
0.0037289115 0.058329687 0.1444412
0.0011701947 0.057194799 0.14523545
0.0027124039 0.053021245 0.14490563
0.0020934434 0.054366682 0.14522067
-0.00044697459 0.054977428 0.14542945
-0.00310195 0.059189342 0.144366
-0.0023233253 0.058006644 0.14490221
-0.0011701947 0.057194799 0.14523545
-0.0020934434 0.058283467 0.144878
-0.0010544095 0.057334229 0.14522326
0.0039564394 0.057848006 0.14448334
0.002516567 0.057703305 0.14492875
0.0012675251 0.057042018 0.14524882
-0.0029881336 0.051545039 0.14443779
-0.001811801 0.052451879 0.14495544
-0.0022800816 0.052708339 0.144933
-0.0012227478 0.053736489 0.1452758
-0.001538781 0.05390957 0.14526066
-0.00061586429 0.05504404 0.14542362
-0.0040652235 0.060038641 0.1436947
-0.0035547083 0.06051622 0.14365292
-0.0018305465 0.058529403 0.14485648
-0.00092199567 0.057458099 0.14521241
0.0066026156 0.057859141 0.14313285
0.0054014763 0.057617255 0.14390653
0.0051850639 0.058280766 0.14384849
0.0041215718 0.057341713 0.14452763
0.0026701209 0.057378229 0.1449572
0.0027815655 0.057036541 0.14498709
0.001344866 0.056878284 0.14526315
-0.0036526117 0.050436635 0.14378223
-0.0035547083 0.051955115 0.14440191
-0.0018305465 0.054120746 0.14524218
-0.00077504141 0.055131216 0.14541599
-0.0042638266 0.062785588 0.14180475
-0.0050722836 0.062200446 0.14185594
-0.0043451772 0.06140276 0.14282282
-0.0027124039 0.059553757 0.14433411
-0.0022800816 0.059866663 0.14430673
0.0078947246 0.05708598 0.14230341
0.0055327043 0.05693195 0.1439665
0.0014009976 0.056706186 0.1452782
0.0058007473 0.050665904 0.14286509
-0.0058007473 0.050665904 0.14286509
-0.0043451772 0.050937898 0.14373837
-0.00310195 0.05338566 0.14487374
-0.0027124039 0.053021245 0.14490563
-0.0020934434 0.054366682 0.14522067
-0.0010544095 0.05536145 0.14539585
-0.00092199567 0.05523758 0.14540669
-0.0038244044 0.064099483 0.14066122
-0.0036526117 0.061904024 0.14277896
-0.0029024424 0.062314864 0.14274302
-0.0029881336 0.060926296 0.14361703
-0.001538781 0.058740579 0.14483801
-0.0012227478 0.058913659 0.14482287
-0.00077504141 0.057564463 0.14520311
-0.00061586429 0.057651639 0.14519548
0.0067630247 0.057021447 0.14320613
0.0068167769 0.056170329 0.1432806
0.0042217048 0.056818798 0.14457339
0.0042552585 0.056287501 0.14461987
0.0028717879 0.056325074 0.14504933
0.002849143 0.056683633 0.14501797
0.0014350346 0.056528438 0.14529376
-0.0065476904 0.049877845 0.14190546
-0.0049692164 0.051521681 0.14368729
-0.0040652235 0.052432694 0.14436013
-0.0055148886 0.052178774 0.1436298
-0.0034425766 0.053795841 0.14483786
-0.0023233253 0.054643504 0.14519645
-0.003051792 0.065260425 0.13941459
-0.0033881268 0.063265182 0.14176279
-0.0017232883 0.06151922 0.14356516
-0.0023744341 0.061262395 0.14358763
-0.001811801 0.060123123 0.14428429
-0.00088743126 0.059045915 0.14481129
0.010541688 0.054468978 0.13911389
0.009875806 0.055903718 0.1402332
0.0089821294 0.056003138 0.14136957
0.0079574715 0.056092441 0.14239033
0.0067630247 0.055319212 0.14335506
0.0055766781 0.056235667 0.14402741
0.0014464401 0.05634784 0.14530955
-0.0093111722 0.050696254 0.13944396
-0.0086542349 0.051164117 0.14064786
-0.0079896953 0.050120953 0.14073913
-0.0072666951 0.050743666 0.14182971
-0.00643773 0.051432956 0.14279798
-0.0045116274 0.052970253 0.1443131
-0.0048868801 0.053559307 0.14426157
-0.0012675251 0.055653661 0.14537029
-0.0011701947 0.05550088 0.14538366
0.010291654 0.053163245 0.13922812
0.0097979326 0.054670662 0.14034109
0.0089113023 0.054881662 0.14146768
0.0078947246 0.055098902 0.14247724
0.0055327043 0.055539384 0.14408833
0.0042217048 0.055756204 0.14466634
0.0041215718 0.055233289 0.14471211
0.002849143 0.055966515 0.1450807
0.0014350346 0.056167241 0.14532535
0.0014009976 0.055989493 0.1453409
-0.0078710997 0.05169243 0.1417467
-0.0083513726 0.052709177 0.14165775
-0.0069731856 0.052273486 0.14272444
-0.0059735873 0.05289882 0.14356682
-0.0051850639 0.054190569 0.14420633
-0.0037289115 0.054245315 0.14479853
-0.002516567 0.054946844 0.14516991
-0.001344866 0.055817395 0.14535595
-0.0007045219 0.06683591 0.13670546
-0.0021024549 0.066659987 0.13672085
0.010432273 0.051565755 0.13804144
0.0095655397 0.053457052 0.14044726
0.0086999387 0.053777874 0.14156425
0.0077074734 0.054121029 0.14256281
0.0073986701 0.053174246 0.14264563
0.0066026156 0.054481518 0.14342834
0.006338079 0.053670455 0.1434993
0.0054014763 0.05485408 0.14414829
0.0051850639 0.054190569 0.14420633
0.0039564394 0.054726996 0.14475639
0.0027815655 0.055613607 0.14511158
0.0026701209 0.05527192 0.14514147
-0.010867692 0.052900739 0.13792464
-0.010291654 0.053163245 0.13922812
-0.0098793143 0.051899023 0.13933873
-0.0095655397 0.053457052 0.14044726
-0.009182293 0.052282024 0.14055006
-0.0073986701 0.053174246 0.14264563
-0.0086999387 0.053777874 0.14156425
-0.006338079 0.053670455 0.1434993
-0.0066026156 0.054481518 0.14342834
-0.0054014763 0.05485408 0.14414829
-0.0039564394 0.054726996 0.14475639
-0.0026701209 0.05527192 0.14514147
-0.0041215718 0.055233289 0.14471211
-0.0027815655 0.055613607 0.14511158
0.010833106 0.051287081 0.13667706
0.0098323319 0.050295666 0.13815255
0.0098793143 0.051899023 0.13933873
0.009182293 0.052282024 0.14055006
0.0093111722 0.050696254 0.13944396
0.0083513726 0.052709177 0.14165775
0.0078710997 0.05169243 0.1417467
0.0069731856 0.052273486 0.14272444
0.001344866 0.055817395 0.14535595
-0.011285255 0.052673355 0.13655578
-0.011559428 0.054105151 0.1364305
-0.010541688 0.054468978 0.13911389
-0.0097979326 0.054670662 0.14034109
-0.0077074734 0.054121029 0.14256281
-0.0055327043 0.055539384 0.14408833
-0.0042217048 0.055756204 0.14466634
-0.0014009976 0.055989493 0.1453409
-0.0014350346 0.056167241 0.14532535
-0.011538253 0.058386907 0.13462511
-0.011559428 0.057014626 0.13617596
-0.010210114 0.061151586 0.13581403
-0.010833106 0.059832696 0.13592941
-0.010291654 0.058428027 0.13876753
-0.0097979326 0.057136774 0.14012532
-0.0096374201 0.062411014 0.13427305
-0.0086838435 0.063559301 0.13417259
-0.0098323319 0.061065271 0.13721032
-0.010432273 0.059795182 0.13732144
-0.0089821294 0.056003138 0.14136957
-0.0074268193 0.064503208 0.13552079
-0.0081791701 0.063331991 0.13701202
-0.0086542349 0.060643319 0.13981855
-0.0079896953 0.061686482 0.13972728
-0.0083513726 0.0592971 0.14108138
-0.0077074734 0.058063854 0.14221784
-0.0066026156 0.057859141 0.14313285
-0.0067630247 0.057021447 0.14320613
-0.0055327043 0.05693195 0.1439665
-0.003708204 0.066678844 0.13244769
-0.0050720987 0.066173404 0.13394389
-0.0049608829 0.066062182 0.1353844
-0.0062430799 0.065359972 0.13544583
-0.0071520214 0.064292878 0.13692795
-0.0077456362 0.063041598 0.13836388
-0.0067729307 0.063951552 0.13828427
-0.0072666951 0.061262611 0.14090942
-0.0078710997 0.060313847 0.14099243
-0.0069731856 0.059911396 0.14205621
-0.0073986701 0.059010636 0.14213502
-0.0054014763 0.057617255 0.14390653
-0.0042552585 0.056287501 0.14461987
-0.00074799248 0.067279421 0.13384712
-0.0021832362 0.066961266 0.13530575
-0.0034672308 0.066310905 0.1367514
-0.0056934129 0.064732879 0.13821591
-0.0062950761 0.063484199 0.13957
-0.0052917218 0.064210407 0.13950646
-0.0055148886 0.060161885 0.14293139
-0.0051850639 0.058280766 0.14384849
-0.0048868801 0.058912028 0.14379326
-0.0039564394 0.057848006 0.14448334
-0.0041215718 0.057341713 0.14452763
-0.002849143 0.056683633 0.14501797
-0.0019910149 0.066193186 0.13808815
0.0051093516 0.066126205 0.13249604
0.0050720987 0.066173404 0.13394389
0.0021832362 0.066961266 0.13530575
0.0007045219 0.06683591 0.13670546
0.00066717895 0.066359788 0.13807358
-0.00066717895 0.066359788 0.13807358
-0.00062010699 0.065722533 0.13937417
-0.0016830831 0.064792596 0.14060059
0.0086838435 0.063559301 0.13417259
0.0074268193 0.064503208 0.13552079
0.0060120812 0.06511794 0.13685577
0.0045241062 0.065373264 0.13815989
0.003051792 0.065260425 0.13941459
0.00056399254 0.064933434 0.14058827
0.0004996538 0.064003989 0.14169815
-0.00042802896 0.062947765 0.14268765
0.0096374201 0.062411014 0.13427305
0.0056934129 0.064732879 0.13821591
0.004204914 0.064805612 0.13945439
0.0027756304 0.064513147 0.14062504
0.0016830831 0.064792596 0.14060059
0.00042802896 0.062947765 0.14268765
-0.0003501625 0.061780162 0.14354233
-0.0010449652 0.061692722 0.14354998
0.010210114 0.061151586 0.13581403
0.010439009 0.061152719 0.13438314
0.0090773283 0.062250439 0.13710664
0.0081791701 0.063331991 0.13701202
0.0062950761 0.063484199 0.13957
0.0048128655 0.063558139 0.1407086
0.0052917218 0.064210407 0.13950646
0.0038244044 0.064099483 0.14066122
0.0033881268 0.063265182 0.14176279
0.002458994 0.063631646 0.14173073
0.0010449652 0.061692722 0.14354998
0.0012773366 0.062840879 0.14269699
0.0003501625 0.061780162 0.14354233
0.0002671899 0.060518201 0.14424972
-0.0002671899 0.060518201 0.14424972
-0.00018032106 0.05918029 0.14479953
-0.00053811941 0.059135262 0.14480348
-0.00027103585 0.057763252 0.14518572
0.0021064999 0.062628798 0.14271556
0.0042638266 0.062785588 0.14180475
0.0057254243 0.062897652 0.14076637
0.0077456362 0.063041598 0.13836388
0.011075969 0.059804261 0.13450111
0.011622998 0.058282521 0.13318227
0.011538253 0.058386907 0.13462511
0.011912506 0.055435661 0.13488331
0.011559428 0.057014626 0.13617596
0.010432273 0.059795182 0.13732144
0.0093111722 0.060895018 0.13855168
0.0065476904 0.062128432 0.14083368
0.0058007473 0.061518978 0.14191556
0.0043451772 0.06140276 0.14282282
0.0029881336 0.060926296 0.14361703
0.00053811941 0.059135262 0.14480348
0.00027103585 0.057763252 0.14518572
-1.6574675e-14 0.056355465 0.14539671
9.082273e-05 0.057785932 0.14518374
0.011885228 0.053706098 0.13358267
0.011651302 0.055559888 0.13630323
0.011131721 0.057081379 0.13755888
0.010291654 0.058428027 0.13876753
0.010867692 0.058460198 0.13743824
0.009182293 0.059525412 0.13991635
0.0098793143 0.059692249 0.13865691
0.0086542349 0.060643319 0.13981855
0.0072666951 0.061262611 0.14090942
0.0049692164 0.060818978 0.1428739
0.0022800816 0.059866663 0.14430673
0.001811801 0.060123123 0.14428429
0.00088743126 0.059045915 0.14481129
0.00044697459 0.057718251 0.14518966
0.0022485757 0.043567006 0.13446972
0.0022321811 0.043778688 0.13590316
0.0036004502 0.044521008 0.13726901
0.00073159131 0.043975826 0.1373167
0.0019910149 0.045398086 0.13990749
0.0021024549 0.044700954 0.13864203
0.0032834515 0.045728665 0.13987857
0.003051792 0.046547011 0.14105181
0.004204914 0.047001824 0.14101201
0.0038244044 0.047906794 0.14207791
0.0042638266 0.04939929 0.1429759
-0.0007045219 0.044525027 0.13865742
-0.00073159131 0.043975826 0.1373167
0.00066717895 0.045231484 0.13992207
0.0007045219 0.044525027 0.13865742
0.0018505416 0.046239752 0.1410787
0.0033881268 0.048919704 0.14301786
0.0035547083 0.051955115 0.14440191
0.0043451772 0.050937898 0.14373837
0.0040652235 0.052432694 0.14436013
-0.0049608829 0.045057591 0.13722207
-0.0036004502 0.044521008 0.13726901
-0.0034672308 0.045050036 0.13861148
-0.0021024549 0.044700954 0.13864203
-0.0019910149 0.045398086 0.13990749
-0.00066717895 0.045231484 0.13992207
0.00062010699 0.046084903 0.14109224
0.00056399254 0.047072846 0.14215086
0.0016830831 0.047213681 0.14213854
0.0014910816 0.04830566 0.14307158
0.0021064999 0.049711861 0.14384563
0.0022800816 0.052708339 0.144933
0.00092199567 0.05523758 0.14540669
0.001538781 0.05390957 0.14526066
0.0018305465 0.054120746 0.14524218
0.001811801 0.052451879 0.14495544
0.0023744341 0.051208939 0.14446719
0.0017232883 0.050952114 0.14448966
0.0004996538 0.048180893 0.1430825
-0.00062010699 0.046084903 0.14109224
-0.0032834515 0.045728665 0.13987857
-0.0047773267 0.045566764 0.13856627
-0.0062430799 0.045759805 0.13716063
-0.0075933174 0.046291847 0.1356833
-0.0076490878 0.046098623 0.13424823
-0.0071520214 0.047068056 0.13843493
-0.0060120812 0.046242993 0.13850711
-0.0027756304 0.047493134 0.14211409
-0.003051792 0.046547011 0.14105181
-0.0004996538 0.048180893 0.1430825
0.00042802896 0.049392894 0.14387354
0.0003501625 0.050691172 0.14451249
0.0010449652 0.050778612 0.14450485
0.00079735596 0.052123521 0.14498417
0.00088743126 0.053604234 0.14528738
0.0013149473 0.05225591 0.14497259
0.00061586429 0.05504404 0.14542362
0.0012227478 0.053736489 0.1452758
0.00077504141 0.055131216 0.14541599
-0.010561463 0.049647477 0.13393775
-0.010515681 0.049550552 0.13394623
-0.010439009 0.049718603 0.13538349
-0.0096374201 0.048460308 0.13549358
-0.0094261011 0.048737485 0.13690011
-0.0084934337 0.047614373 0.13699837
-0.0056934129 0.046858393 0.13977973
-0.004204914 0.047001824 0.14101201
-0.0014910816 0.04830566 0.14307158
-0.002458994 0.048553236 0.14304993
-0.00042802896 0.049392894 0.14387354
0.00044697459 0.054977428 0.14542945
-0.010625472 0.055795636 0.13899782
-0.011651302 0.055559888 0.13630323
-0.011912506 0.055435661 0.13488331
-0.011966214 0.055844568 0.13339557
-0.011157318 0.059710283 0.13305736
-0.011622998 0.058282521 0.13318227
-0.011683472 0.057966713 0.1332099
-0.011905377 0.056807872 0.13331129
-0.011818573 0.056923013 0.13475318
-0.010541688 0.057122294 0.13888176
-0.011131721 0.057081379 0.13755888
-0.010867692 0.058460198 0.13743824
-0.011285255 0.058446422 0.13605069
-0.011075969 0.059804261 0.13450111
-0.010439009 0.061152719 0.13438314
-0.0087476233 0.063492902 0.13272643
-0.0097082043 0.06233618 0.13282762
-0.0099965185 0.061883599 0.13286722
-0.010515681 0.061068643 0.13293852
-0.0076490878 0.064520575 0.13263652
-0.0094261011 0.062382292 0.13570635
-0.0090773283 0.062250439 0.13710664
-0.0093111722 0.060895018 0.13855168
-0.009182293 0.059525412 0.13991635
-0.0098793143 0.059692249 0.13865691
-0.0095655397 0.058350384 0.14001915
-0.0086999387 0.058228403 0.14117488
-0.0089113023 0.057124615 0.14127146
-0.0078947246 0.05708598 0.14230341
-0.0079574715 0.056092441 0.14239033
-0.0085961875 0.062017366 0.1384535
-0.0084934337 0.063505404 0.13560809
-0.0075933174 0.064579479 0.13408333
-0.0051093516 0.066126205 0.13249604
-0.00638304 0.065455452 0.13400669
-0.0052035791 0.066074602 0.13250056
-0.0064299214 0.065402977 0.13255931
-0.0070395046 0.064961776 0.13259792
-0.0028717879 0.056325074 0.14504933
-0.0042217048 0.056818798 0.14457339
-0.006338079 0.058670204 0.14306189
-0.0059735873 0.059441838 0.14299437
-0.00643773 0.060751926 0.14198267
-0.0071991528 0.062638447 0.139644
-0.0065476904 0.062128432 0.14083368
-0.0047773267 0.06579417 0.13679661
-0.0060120812 0.06511794 0.13685577
-0.003681167 0.066722013 0.13389589
-0.0036004502 0.066598766 0.13533746
-0.0031870343 0.06681215 0.13243602
-0.00075348624 0.067240342 0.13239856
-0.0022321811 0.067092635 0.13386346
-0.0022485757 0.067052193 0.13241503
-0.00073159131 0.067143947 0.13528976
0.00073159131 0.067143947 0.13528976
0.00074799248 0.067279421 0.13384712
0.003681167 0.066722013 0.13389589
0.003708204 0.066678844 0.13244769
0.0022321811 0.067092635 0.13386346
0.0031870343 0.06681215 0.13243602
0.0022485757 0.067052193 0.13241503
0.0010736733 0.06720005 0.13240209
0.0064299214 0.065402977 0.13255931
0.00638304 0.065455452 0.13400669
0.0049608829 0.066062182 0.1353844
0.0034672308 0.066310905 0.1367514
0.0036004502 0.066598766 0.13533746
0.0021024549 0.066659987 0.13672085
0.0019910149 0.066193186 0.13808815
0.00062010699 0.065722533 0.13937417
-0.0004996538 0.064003989 0.14169815
-0.00056399254 0.064933434 0.14058827
0.0018505416 0.06556768 0.13938771
0.0032834515 0.065862603 0.13811707
0.0047773267 0.06579417 0.13679661
0.0062430799 0.065359972 0.13544583
0.0097082043 0.06233618 0.13282762
0.0087476233 0.063492902 0.13272643
0.0075933174 0.064579479 0.13408333
0.0076490878 0.064520575 0.13263652
0.0070395046 0.064961776 0.13259792
0.0014910816 0.063879222 0.14170907
0.0067729307 0.063951552 0.13828427
0.0071520214 0.064292878 0.13692795
0.0094261011 0.062382292 0.13570635
0.0084934337 0.063505404 0.13560809
0.011157318 0.059710283 0.13305736
0.010515681 0.061068643 0.13293852
-9.082273e-05 0.057785932 0.14518374
0.00018032106 0.05918029 0.14479953
0.00079735596 0.060451481 0.14425556
0.0013149473 0.060319092 0.14426714
0.0017232883 0.06151922 0.14356516
0.0023744341 0.061262395 0.14358763
0.0029024424 0.062314864 0.14274302
0.0036526117 0.061904024 0.14277896
0.0050722836 0.062200446 0.14185594
0.0071991528 0.062638447 0.139644
0.0085961875 0.062017366 0.1384535
0.0079896953 0.061686482 0.13972728
0.0098323319 0.061065271 0.13721032
0.010833106 0.059832696 0.13592941
0.011285255 0.058446422 0.13605069
0.011818573 0.056923013 0.13475318
-0.0018505416 0.06556768 0.13938771
-0.0027756304 0.064513147 0.14062504
-0.002458994 0.063631646 0.14173073
-0.0014910816 0.063879222 0.14170907
-0.0021064999 0.062628798 0.14271556
-0.0012773366 0.062840879 0.14269699
-0.0013149473 0.060319092 0.14426714
-0.00079735596 0.060451481 0.14425556
-0.00044697459 0.057718251 0.14518966
0.011905377 0.053811323 0.13357346
0.012 0.055309597 0.13344237
0.011905377 0.056807872 0.13331129
0.011538253 0.052484415 0.13514152
0.011818573 0.053948309 0.13501345
0.011559428 0.054105151 0.1364305
0.010541688 0.057122294 0.13888176
0.0078710997 0.060313847 0.14099243
0.00643773 0.060751926 0.14198267
0.0055148886 0.060161885 0.14293139
0.0035547083 0.06051622 0.14365292
0.0040652235 0.060038641 0.1436947
0.0027124039 0.059553757 0.14433411
0.0012227478 0.058913659 0.14482287
0.00061586429 0.057651639 0.14519548
0.011075969 0.051067062 0.13526551
0.011285255 0.052673355 0.13655578
0.011220195 0.055680469 0.13768144
0.0097979326 0.057136774 0.14012532
0.0095655397 0.058350384 0.14001915
0.0086999387 0.058228403 0.14117488
0.0073986701 0.059010636 0.14213502
0.0083513726 0.0592971 0.14108138
0.0069731856 0.059911396 0.14205621
0.0018305465 0.058529403 0.14485648
0.001538781 0.058740579 0.14483801
0.00077504141 0.057564463 0.14520311
0.010561463 0.049647477 0.13393775
0.010867692 0.052900739 0.13792464
0.011131721 0.054279558 0.137804
0.010625472 0.055795636 0.13899782
0.0089113023 0.057124615 0.14127146
0.0077074734 0.058063854 0.14221784
0.006338079 0.058670204 0.14306189
0.0059735873 0.059441838 0.14299437
0.0048868801 0.058912028 0.14379326
0.0045116274 0.059501082 0.14374173
