# .PCD v0.7 - Point Cloud Data file format
VERSION 0.7
FIELDS x y z rgb
SIZE 4 4 4 4
TYPE F F F F
COUNT 1 1 1 1
WIDTH 1219
HEIGHT 1
VIEWPOINT 0 0 0 1 0 0 0
POINTS 1219
DATA ascii
0.0032915974 -0.056631021 0.11331963 0
0.0027793185 -0.056257088 0.11363505 0
0.00096555275 -0.056714486 0.11427363 0
0.0020614974 -0.05629148 0.11402817 0
0.00070186611 -0.056720387 0.11434107 0
0.00070186611 -0.056321908 0.11437593 0
-0.00070186611 -0.056720387 0.11434107 0
-0.0020614974 -0.056689959 0.11399331 0
-0.0020614974 -0.05629148 0.11402817 0
-0.0042865872 -0.056549586 0.11238883 0
-0.0042865872 -0.056151107 0.11242369 0
-0.0043148743 -0.056148794 0.11239722 0
-0.0050670314 -0.056443974 0.11118167 0
-0.0050670314 -0.056045495 0.11121653 0
-0.0052235266 -0.056401994 0.11070186 0
-0.0055008088 -0.055929139 0.10988658 0
-0.0055669579 -0.05623598 0.1088043 0
-0.0055669579 -0.055837501 0.10883917 0
-0.0053259167 -0.056085341 0.10708246 0
-0.0053259167 -0.055686861 0.10711733 0
-0.0047282362 -0.05597464 0.10581716 0
-0.0047282362 -0.055576161 0.10585202 0
-0.00425593 -0.055526402 0.10528328 0
-0.0038334639 -0.055481896 0.10477455 0
-0.0027920764 -0.05581443 0.10398595 0
-0.0026978205 -0.055808462 0.10391773 0
-0.0026978205 -0.055409983 0.10395259 0
-0.0013926633 -0.055763423 0.10340295 0
-0.0013926633 -0.055364944 0.10343781 0
9.7519126e-16 -0.055349611 0.10326254 0
9.8250253e-16 -0.05574809 0.10322768 0
0.0013926633 -0.055364944 0.10343781 0
0.0027920764 -0.05581443 0.10398595 0
0.0038334639 -0.055481896 0.10477455 0
0.0038334639 -0.055880375 0.10473969 0
0.0047282362 -0.05597464 0.10581716 0
0.0053259167 -0.056085341 0.10708246 0
0.0053259167 -0.055686861 0.10711733 0
-0.00096773333 -0.055360265 0.10338433 0
-0.0013893315 -0.055316266 0.1034551 0
-0.0027920764 -0.055415951 0.10402081 0
-0.0026913662 -0.055361196 0.10396865 0
-0.0038242927 -0.055432934 0.10478863 0
-0.0052431775 -0.055671535 0.10694217 0
-0.0055889497 -0.055807035 0.10849095 0
-0.0054876483 -0.055879109 0.10988843 0
-0.0050549093 -0.055995185 0.1112152 0
-0.0052235266 -0.056003515 0.11073672 0
-0.0043045511 -0.056098238 0.11239308 0
-0.0032915974 -0.056232542 0.11335449 0
-0.0032837226 -0.056181785 0.11334805 0
-0.0027793185 -0.056257088 0.11363505 0
-0.00096555275 -0.056316007 0.11430849 0
-0.00070018694 -0.056270938 0.11436705 0
-0.00070186611 -0.056321908 0.11437593 0
0.00070018694 -0.056270938 0.11436705 0
0.00096555275 -0.056316007 0.11430849 0
0.0032837226 -0.056181785 0.11334805 0
0.0032915974 -0.056232542 0.11335449 0
0.0043045511 -0.056098238 0.11239308 0
0.0043148743 -0.056148794 0.11239722 0
0.0050670314 -0.056045495 0.11121653 0
0.0052235266 -0.056003515 0.11073672 0
0.0054876483 -0.055879109 0.10988843 0
0.0055008088 -0.055929139 0.10988658 0
0.0055999998 -0.055837683 0.10884124 0
0.0055889497 -0.055807035 0.10849095 0
0.0052431775 -0.055671535 0.10694217 0
0.0047169244 -0.055526976 0.10586353 0
0.0047282362 -0.055576161 0.10585202 0
0.00425593 -0.055526402 0.10528328 0
0.0038242927 -0.055432934 0.10478863 0
0.0027920764 -0.055415951 0.10402081 0
0.0026978205 -0.055409983 0.10395259 0
0.0013893315 -0.055316266 0.1034551 0
0.00096773333 -0.055360265 0.10338433 0
9.7500237e-16 -0.055349611 0.10326254 0
0.0026913662 -0.055361196 0.10396865 0
0.0053131748 -0.055637412 0.10712581 0
0.0052783638 -0.055601932 0.10714027 0
0.0055755787 -0.055757299 0.10849614 0
0.0055390485 -0.055721037 0.10850162 0
0.0054516941 -0.055842049 0.10988479 0
0.0050549093 -0.055995185 0.1112152 0
0.0020565656 -0.056240585 0.11402012 0
0.00069559942 -0.056231309 0.11433407 0
-0.00069559942 -0.056231309 0.11433407 0
-0.0020565656 -0.056240585 0.11402012 0
-0.0032622081 -0.056142744 0.11332174 0
-0.00502179 -0.055957366 0.11120287 0
-0.0055755787 -0.055757299 0.10849614 0
-0.0053131748 -0.055637412 0.10712581 0
-0.0046860198 -0.055492222 0.10588627 0
-0.0047169244 -0.055526976 0.10586353 0
-0.0037992364 -0.055398796 0.1048184 0
-0.0026737328 -0.055327527 0.10400379 0
-0.0013802289 -0.055282891 0.1034936 0
9.7421886e-16 -0.05530097 0.10328025 0
0.0026737328 -0.055327527 0.10400379 0
0.0026496453 -0.055318002 0.10404861 0
0.0037992364 -0.055398796 0.1048184 0
0.0046860198 -0.055492222 0.10588627 0
0.0046438035 -0.055481214 0.10591412 0
0.005230811 -0.055589937 0.10715683 0
0.00502179 -0.055957366 0.11120287 0
0.0042763483 -0.05605974 0.11237302 0
0.0032622081 -0.056142744 0.11332174 0
0.0020430912 -0.056201156 0.11398941 0
0.002024685 -0.056183759 0.11394426 0
0.00068933278 -0.056213643 0.11428582 0
-0.0020430912 -0.056201156 0.11398941 0
-0.00068933278 -0.056213643 0.11428582 0
-0.002024685 -0.056183759 0.11394426 0
-0.0042763483 -0.05605974 0.11237302 0
-0.0042378227 -0.056043617 0.11234244 0
-0.0049765487 -0.055942167 0.11118282 0
-0.0054516941 -0.055842049 0.10988479 0
-0.0054025799 -0.05582789 0.10987663 0
-0.0054891468 -0.055707965 0.10850592 0
-0.0055390485 -0.055721037 0.10850162 0
-0.0052783638 -0.055601932 0.10714027 0
9.7390599e-16 -0.055267695 0.10331991 0
9.7414761e-16 -0.05525871 0.10337088 0
0.0013802289 -0.055282891 0.1034936 0
-0.009555283 -0.056736428 0.12026127 0
0.0063450849 -0.05645664 0.1170633 0
0.0098000001 -0.055406872 0.10506441 0
0.009555283 -0.056736428 0.12026127 0
0.0054025799 -0.05582789 0.10987663 0
0.0049765487 -0.055942167 0.11118282 0
0.0077389264 -0.056518536 0.11777079 0
0.0032328188 -0.056125872 0.11328261 0
0.0042378227 -0.056043617 0.11234244 0
0.0054891468 -0.055707965 0.10850592 0
0.0088450853 -0.055150729 0.10213667 0
-0.005230811 -0.055589937 0.10715683 0
0.0013677943 -0.055273768 0.10354301 0
0.0048000002 -0.054971095 0.10008344 0
0.0037650091 -0.055388629 0.10485588 0
0.0063450849 -0.054992422 0.10032722 0
0.0077389264 -0.055054322 0.10103472 0
-0.0046438035 -0.055481214 0.10591412 0
-0.0013677943 -0.055273768 0.10354301 0
-0.0026496453 -0.055318002 0.10404861 0
-0.0063450849 -0.054992422 0.10032722 0
-0.0037650091 -0.055388629 0.10485588 0
-0.0077389264 -0.055054322 0.10103472 0
-0.0088450853 -0.055150729 0.10213667 0
-0.0032328188 -0.056125872 0.11328261 0
-0.0063450849 -0.05645664 0.1170633 0
-0.0077389264 -0.056518536 0.11777079 0
-0.0088450853 -0.056614947 0.11887274 0
-0.0098000001 -0.05687109 0.12180048 0
0.0048000002 -0.056435313 0.11681951 0
0.0063450849 -0.059146367 0.11682798 0
0.0077389264 -0.059208263 0.11753547 0
0.0088450853 -0.056614947 0.11887274 0
0.0088450853 -0.059304673 0.11863742 0
0.0098000001 -0.05687109 0.12180048 0
0.0098000001 -0.059560817 0.12156516 0
-0.0048000002 -0.056435313 0.11681951 0
0.0048000002 -0.05912504 0.11658419 0
-0.0048000002 -0.05912504 0.11658419 0
-0.0095716389 -0.05822872 0.13387616 0
-0.0089213206 -0.058313545 0.13484573 0
0.0079480503 -0.05841003 0.13594855 0
-0.0098000001 -0.035154045 0.12370048 0
0.0077389264 -0.034801491 0.11967079 0
0.009555283 -0.035019383 0.12216128 0
0.0098000001 -0.035154045 0.12370048 0
0.009555283 -0.033555165 0.1054252 0
-0.0048000002 -0.034718268 0.1187195 0
-0.0063450849 -0.033275377 0.10222722 0
0.0077389264 -0.033337276 0.10293472 0
-0.0098000001 -0.033689827 0.10696441 0
-0.0077389264 -0.033337276 0.10293472 0
0.0048000002 -0.034718268 0.1187195 0
0.0063450849 -0.034739595 0.11896329 0
0.0063450849 -0.032249108 0.11918118 0
0.0077389264 -0.032311004 0.11988868 0
0.0088450853 -0.032407414 0.12099063 0
0.0088450853 -0.034897901 0.12077273 0
-0.0048000002 -0.032227781 0.1189374 0
-0.0063450849 -0.034739595 0.11896329 0
-0.0063450849 -0.032249108 0.11918118 0
-0.0077389264 -0.034801491 0.11967079 0
-0.0077389264 -0.032311004 0.11988868 0
-0.0088450853 -0.034897901 0.12077273 0
-0.0088450853 -0.032407414 0.12099063 0
-0.009555283 -0.035019383 0.12216128 0
0.0098000001 -0.038129985 0.14050506 0
0.0095716389 -0.038029924 0.13936138 0
0.0089213206 -0.037791934 0.13664113 0
0.0089213206 -0.037945099 0.13839181 0
0.0068000001 -0.037868518 0.13751647 0
0.0048000002 -0.03325405 0.10198344 0
0.0063450849 -0.033275377 0.10222722 0
0.0088450853 -0.033433683 0.10403667 0
0.009555283 -0.05527221 0.10352521 0
0.0098000001 -0.033689827 0.10696441 0
-0.0048000002 -0.03325405 0.10198344 0
-0.0048000002 -0.054971095 0.10008344 0
-0.009555283 -0.05527221 0.10352521 0
-0.0088450853 -0.033433683 0.10403667 0
-0.009555283 -0.033555165 0.1054252 0
0.0095716389 -0.037707109 0.13567157 0
0.0095716389 -0.05822872 0.13387616 0
0.0089213206 -0.058313545 0.13484573 0
0.0079480503 -0.037848614 0.13728897 0
0.0079480503 -0.058370225 0.13549358 0
-0.0068000001 -0.037868518 0.13751647 0
-0.0068000001 -0.058390129 0.13572106 0
-0.0079480503 -0.058370225 0.13549358 0
-0.0098000001 -0.055406872 0.10506441 0
-0.0098000001 -0.038129985 0.14050506 0
-0.0098000001 -0.058128662 0.13273248 0
-0.0098000001 -0.05931145 0.14969394 0
-8.1357032e-15 -0.060562834 0.15711311 0
0.0013677941 -0.060577895 0.15728524 0
0.0037650082 -0.060692754 0.15859811 0
0.00068933261 -0.061517768 0.16802804 0
-0.0026496446 -0.060622126 0.15779084 0
-0.0049765478 -0.061246291 0.16492505 0
0.0054891459 -0.061012093 0.16224815 0
0.0054025785 -0.061132014 0.16361885 0
0.0032328181 -0.06143 0.16702484 0
-0.0054891459 -0.061012093 0.16224815 0
-0.0052308096 -0.060894061 0.16089906 0
-0.0052235266 -0.061108407 0.16449638 0
-0.0055008088 -0.061034027 0.16364624 0
-8.1371618e-15 -0.060454499 0.15702219 0
0.00069412898 -0.061513495 0.16806653 0
-0.00068933261 -0.061517768 0.16802804 0
0.0052308096 -0.060894061 0.16089906 0
0.0020507153 -0.06146444 0.16775453 0
0.0047218092 -0.060719527 0.1596124 0
0.0052980604 -0.060862981 0.16087984 0
0.0047035064 -0.060752861 0.15962115 0
0.0052672052 -0.060885452 0.16088794 0
0.0013773111 -0.060567085 0.15724897 0
-8.1348672e-15 -0.060551919 0.15707564 0
-0.0013907703 -0.060508598 0.15720148 0
-0.0013677941 -0.060577895 0.15728524 0
-0.0037650082 -0.060692754 0.15859811 0
-0.0037912049 -0.060682744 0.15857098 0
-0.0047035064 -0.060752861 0.15962115 0
-0.0053186771 -0.060830075 0.16087599 0
-0.0052980604 -0.060862981 0.16087984 0
-0.0055813524 -0.060950089 0.16224775 0
-0.0054401695 -0.061125059 0.16362666 0
-0.0054720375 -0.061103992 0.1636346 0
-0.0050601438 -0.061188221 0.16496962 0
-0.0042673084 -0.061342288 0.16610964 0
-0.0042378218 -0.061347745 0.16608466 0
-0.0020507153 -0.06146444 0.16775453 0
-0.0020387722 -0.061483406 0.1677226 0
-0.0032553119 -0.061425116 0.16705635 0
-0.00069819513 -0.061494704 0.16810048 0
0.00070091203 -0.061464258 0.16812474 0
0.00096555275 -0.061420895 0.16806814 0
0.0032871231 -0.061375014 0.16710468 0
0.0050670314 -0.061150383 0.16497618 0
0.0042378218 -0.061347745 0.16608466 0
0.0042673084 -0.061342288 0.16610964 0
0.0050405292 -0.061219737 0.1649576 0
0.0054720375 -0.061103992 0.1636346 0
0.0054933312 -0.061072025 0.16364148 0
0.0050111744 -0.061240129 0.16494195 0
0.0054401695 -0.061125059 0.16362666 0
0.0055813524 -0.060950089 0.16224775 0
0.0055597178 -0.060982529 0.16224627 0
0.0038282529 -0.060625389 0.15853639 0
0.0013907703 -0.060508598 0.15720148 0
0.0013926633 -0.060469836 0.15719746 0
0.0026837101 -0.060587551 0.15773165 0
0.0038134137 -0.060659084 0.15854931 0
0.0026496446 -0.060622126 0.15779084 0
-8.1363867e-15 -0.060493287 0.15702645 0
-8.1355804e-15 -0.060527496 0.15704522 0
-0.0038334639 -0.060586784 0.1585342 0
-0.0026837101 -0.060587551 0.15773165 0
-0.0013853793 -0.060542747 0.15721956 0
-8.1343555e-15 -0.060562834 0.15711311 0
-0.0027920764 -0.060520839 0.15778047 0
-0.0026941535 -0.060553573 0.15771556 0
-0.0013926633 -0.060469836 0.15719746 0
-0.0013773111 -0.060567085 0.15724897 0
-0.0026680806 -0.060611624 0.15775809 0
-0.0038134137 -0.060659084 0.15854931 0
-0.0038282529 -0.060625389 0.15853639 0
-0.0055889497 -0.060911927 0.16225059 0
-0.0047218092 -0.060719527 0.1596124 0
-0.0052431775 -0.060776427 0.16070183 0
-0.0047282362 -0.060681053 0.15961167 0
-0.00425593 -0.06063129 0.15904292 0
-0.0046761138 -0.060775969 0.15963659 0
-0.0046438025 -0.060785338 0.15965635 0
-0.0055597178 -0.060982529 0.16224627 0
-0.0055669579 -0.060942393 0.16259882 0
-0.0052672052 -0.060885452 0.16088794 0
-0.0055273389 -0.0610043 0.16224642 0
-0.0054933312 -0.061072025 0.16364148 0
-0.004292306 -0.061322495 0.16613212 0
-0.0050405292 -0.061219737 0.1649576 0
-0.0050111744 -0.061240129 0.16494195 0
-0.0043090088 -0.061291378 0.16614871 0
-0.0043148743 -0.061253682 0.16615687 0
-0.0054025785 -0.061132014 0.16361885 0
-0.0032871231 -0.061375014 0.16710468 0
-0.0032743814 -0.061405808 0.16708438 0
-0.00070186611 -0.061426796 0.16813558 0
-0.00070091203 -0.061464258 0.16812474 0
-0.0020586953 -0.061433874 0.16777745 0
-0.0032328181 -0.06143 0.16702484 0
-0.0020246846 -0.061487887 0.16768649 0
-0.00069412898 -0.061513495 0.16806653 0
0.00069819513 -0.061494704 0.16810048 0
0.0020586953 -0.061433874 0.16777745 0
0.0020246846 -0.061487887 0.16768649 0
0.0032553119 -0.061425116 0.16705635 0
0.0020387722 -0.061483406 0.1677226 0
0.0032743814 -0.061405808 0.16708438 0
0.0043090088 -0.061291378 0.16614871 0
0.004292306 -0.061322495 0.16613212 0
0.0050601438 -0.061188221 0.16496962 0
0.0055669579 -0.060942393 0.16259882 0
0.0055008088 -0.061034027 0.16364624 0
0.0049765478 -0.061246291 0.16492505 0
0.0055273389 -0.0610043 0.16224642 0
0.0053186771 -0.060830075 0.16087599 0
0.0046438025 -0.060785338 0.15965635 0
0.0046761138 -0.060775969 0.15963659 0
0.0037912049 -0.060682744 0.15857098 0
0.0026941535 -0.060553573 0.15771556 0
0.00425593 -0.06063129 0.15904292 0
0.0026680806 -0.060611624 0.15775809 0
0.0013853793 -0.060542747 0.15721956 0
0.0055889497 -0.060911927 0.16225059 0
0.0055889497 -0.060513448 0.16228546 0
0.0055008088 -0.060635548 0.1636811 0
0.0052235266 -0.061108407 0.16449638 0
0.0052235266 -0.060709927 0.16453125 0
0.0043148743 -0.061253682 0.16615687 0
0.0042865872 -0.061255995 0.16618334 0
0.0042865872 -0.060857516 0.16621821 0
0.0032915974 -0.060938951 0.16714901 0
0.0032915974 -0.06133743 0.16711414 0
0.0027793185 -0.060963497 0.16742957 0
0.0027793185 -0.061361976 0.1673947 0
0.0020614974 -0.061396372 0.16778782 0
0.00096555275 -0.061022416 0.16810301 0
0.00070186611 -0.061426796 0.16813558 0
0.00070186611 -0.061028317 0.16817045 0
-0.00096555275 -0.061420895 0.16806814 0
-0.00070186611 -0.061028317 0.16817045 0
-0.0020614974 -0.061396372 0.16778782 0
-0.0027793185 -0.061361976 0.1673947 0
-0.0027793185 -0.060963497 0.16742957 0
-0.0032915974 -0.06133743 0.16711414 0
-0.0042865872 -0.061255995 0.16618334 0
-0.0050670314 -0.061150383 0.16497618 0
-0.0043148743 -0.060855202 0.16619174 0
-0.0055008088 -0.060635548 0.1636811 0
-0.0055669579 -0.060543913 0.16263369 0
-0.0055889497 -0.060513448 0.16228546 0
-0.0053259167 -0.06079175 0.16087697 0
-0.0053259167 -0.06039327 0.16091184 0
-0.00425593 -0.060232811 0.15907779 0
-0.0038334639 -0.060188305 0.15856907 0
-0.0027920764 -0.06012236 0.15781534 0
-0.0026978205 -0.060514871 0.15771225 0
-0.0013926633 -0.060071357 0.15723233 0
-0.00096773333 -0.060465157 0.15714398 0
-8.1366408e-15 -0.060454499 0.15702219 0
-8.1452196e-15 -0.06005602 0.15705706 0
0.00096773333 -0.060465157 0.15714398 0
0.0026978205 -0.060514871 0.15771225 0
0.0026978205 -0.060116392 0.15774712 0
0.0027920764 -0.06012236 0.15781534 0
0.0027920764 -0.060520839 0.15778047 0
0.0038334639 -0.060188305 0.15856907 0
0.0038334639 -0.060586784 0.1585342 0
0.00425593 -0.060232811 0.15907779 0
0.0047282362 -0.060681053 0.15961167 0
0.0047282362 -0.060282573 0.15964654 0
0.0052431775 -0.060377948 0.16073669 0
0.0052431775 -0.060776427 0.16070183 0
0.0053259167 -0.06079175 0.16087697 0
0.0053259167 -0.06039327 0.16091184 0
-0.0026978205 -0.060116392 0.15774712 0
-0.0026913662 -0.060067605 0.15776315 0
-0.0038242927 -0.060139343 0.15858315 0
-0.0047282362 -0.060282573 0.15964654 0
-0.0052431775 -0.060377948 0.16073669 0
-0.0052235266 -0.060709927 0.16453125 0
-0.0050549093 -0.060701597 0.16500972 0
-0.0050670314 -0.060751904 0.16501105 0
-0.0042865872 -0.060857516 0.16621821 0
-0.0032915974 -0.060938951 0.16714901 0
-0.0020614974 -0.060997892 0.16782269 0
-0.0020565656 -0.060946994 0.16781464 0
-0.00070018694 -0.060977347 0.16816157 0
-0.00096555275 -0.061022416 0.16810301 0
0.00070018694 -0.060977347 0.16816157 0
0.0020565656 -0.060946994 0.16781464 0
0.0020614974 -0.060997892 0.16782269 0
0.0032837226 -0.060888197 0.16714257 0
0.0043148743 -0.060855202 0.16619174 0
0.0043045511 -0.060804646 0.1661876 0
0.0050549093 -0.060701597 0.16500972 0
0.0050670314 -0.060751904 0.16501105 0
0.0055755787 -0.060463708 0.16229066 0
0.0055999998 -0.060544092 0.16263576 0
0.0053131748 -0.060343821 0.16092032 0
0.0047169244 -0.060233384 0.15965804 0
0.0013926633 -0.060071357 0.15723233 0
-8.145284e-15 -0.060007378 0.15707476 0
0.00096773333 -0.060066678 0.15717885 0
-8.1444971e-15 -0.06005602 0.15705706 0
-0.00096773333 -0.060066678 0.15717885 0
0.0013893315 -0.060022675 0.15724961 0
0.0013802289 -0.059989303 0.15728812 0
0.0026913662 -0.060067605 0.15776315 0
0.0038242927 -0.060139343 0.15858315 0
0.0037992364 -0.060105208 0.15861292 0
0.0055390485 -0.060427446 0.16229615 0
0.0054876483 -0.060585521 0.16368295 0
0.0032622081 -0.060849153 0.16711627 0
0.00069559942 -0.060937721 0.16812859 0
-0.00069559942 -0.060937721 0.16812859 0
-0.0020430912 -0.060907565 0.16778393 0
-0.0032837226 -0.060888197 0.16714257 0
-0.0043045511 -0.060804646 0.1661876 0
-0.0042763483 -0.060766149 0.16616754 0
-0.00502179 -0.060663775 0.16499738 0
-0.0054876483 -0.060585521 0.16368295 0
-0.0055390485 -0.060427446 0.16229615 0
-0.0055755787 -0.060463708 0.16229066 0
-0.0053131748 -0.060343821 0.16092032 0
-0.0047169244 -0.060233384 0.15965804 0
-0.0026737328 -0.060033936 0.15779831 0
-0.0013893315 -0.060022675 0.15724961 0
-0.0013802289 -0.059989303 0.15728812 0
0.0013677943 -0.05998018 0.15733753 0
0.0026737328 -0.060033936 0.15779831 0
0.0046860198 -0.060198631 0.15968078 0
0.0046438035 -0.060187623 0.15970863 0
0.0052783638 -0.060308345 0.16093479 0
0.0054516941 -0.060548458 0.16367932 0
0.00502179 -0.060663775 0.16499738 0
0.0049765487 -0.060648575 0.16497734 0
0.0042763483 -0.060766149 0.16616754 0
0.0032328188 -0.060832284 0.16707712 0
0.0020430912 -0.060907565 0.16778393 0
0.002024685 -0.060890172 0.16773878 0
0.00068933278 -0.060920052 0.16808033 0
-0.002024685 -0.060890172 0.16773878 0
-0.0032622081 -0.060849153 0.16711627 0
-0.0054516941 -0.060548458 0.16367932 0
-0.0054025799 -0.060534298 0.16367114 0
-0.0052783638 -0.060308345 0.16093479 0
-0.0054891468 -0.060414378 0.16230044 0
-0.0046860198 -0.060198631 0.15968078 0
-0.0046438035 -0.060187623 0.15970863 0
-0.0037992364 -0.060105208 0.15861292 0
-8.1455991e-15 -0.059974104 0.15711442 0
-8.1453577e-15 -0.059965119 0.15716539 0
0.0088450853 -0.059567597 0.15262169 0
-0.009555283 -0.059446115 0.15123314 0
0.0098000001 -0.060775667 0.16643001 0
0.0054025799 -0.060534298 0.16367114 0
0.0054891468 -0.060414378 0.16230044 0
0.005230811 -0.060296346 0.16095135 0
0.0037650091 -0.060095038 0.1586504 0
0.0026496453 -0.06002441 0.15784313 0
-0.0048000002 -0.05974723 0.15467492 0
-0.0013677943 -0.05998018 0.15733753 0
-0.0026496453 -0.06002441 0.15784313 0
-0.0037650091 -0.060095038 0.1586504 0
-0.0063450849 -0.059725899 0.15443112 0
-0.0088450853 -0.059567597 0.15262169 0
-0.0032328188 -0.060832284 0.16707712 0
-0.0042378227 -0.06075003 0.16613695 0
-0.0088450853 -0.061031811 0.16935775 0
-0.0049765487 -0.060648575 0.16497734 0
-0.009555283 -0.060910329 0.16796921 0
-0.005230811 -0.060296346 0.16095135 0
-0.00068933278 -0.060920052 0.16808033 0
0.0048000002 -0.061211444 0.17141098 0
0.0063450849 -0.061190117 0.17116719 0
0.0042378227 -0.06075003 0.16613695 0
0.0063450849 -0.059725899 0.15443112 0
0.0063450849 -0.062415626 0.1541958 0
0.0077389264 -0.059664004 0.15372363 0
0.009555283 -0.062135842 0.15099782 0
0.009555283 -0.059446115 0.15123314 0
0.0098000001 -0.05931145 0.14969394 0
-0.0063450849 -0.062415626 0.1541958 0
-0.0077389264 -0.059664004 0.15372363 0
-0.0048000002 -0.062436957 0.15443958 0
0.0048000002 -0.05974723 0.15467492 0
-0.0098000001 -0.062001176 0.14945862 0
-0.0077389264 -0.06235373 0.15348831 0
-0.0088450853 -0.062257323 0.15238635 0
-0.009555283 -0.062135842 0.15099782 0
-0.009555283 -0.059426155 0.12002596 0
-0.0098000001 -0.059560817 0.12156516 0
0.0098000001 -0.062001176 0.14945862 0
0.0048000002 -0.062436957 0.15443958 0
0.0077389264 -0.06235373 0.15348831 0
0.0088450853 -0.062257323 0.15238635 0
-0.0088450853 -0.059304673 0.11863742 0
-0.0077389264 -0.059208263 0.11753547 0
-0.0063450849 -0.059146367 0.11682798 0
0.009555283 -0.059426155 0.12002596 0
0.0098000001 -0.039058622 0.16833 0
0.0088450853 -0.037850551 0.15452167 0
-0.0098000001 -0.039058622 0.16833 0
-0.0063450849 -0.038008854 0.15633112 0
0.009555283 -0.039193284 0.16986921 0
0.0088450853 -0.039314765 0.17125775 0
0.0048000002 -0.038030185 0.1565749 0
-0.0077389264 -0.039411176 0.17235969 0
-0.0048000002 -0.039494399 0.17331098 0
-0.0048000002 -0.038030185 0.1565749 0
-0.0063450849 -0.035518367 0.15654901 0
-0.0077389264 -0.035456471 0.15584151 0
-0.0077389264 -0.037946958 0.15562363 0
-0.0088450853 -0.037850551 0.15452167 0
-0.009555283 -0.035238583 0.15335102 0
-0.009555283 -0.03772907 0.15313314 0
-0.0098000001 -0.037594404 0.15159394 0
0.0063450849 -0.038008854 0.15633112 0
0.0077389264 -0.037946958 0.15562363 0
0.0063450849 -0.035518367 0.15654901 0
0.0077389264 -0.035456471 0.15584151 0
0.009555283 -0.03772907 0.15313314 0
0.0048000002 -0.035539698 0.15679279 0
-0.0079480503 -0.037848614 0.13728897 0
-0.0089213206 -0.037791934 0.13664113 0
-0.0095716389 -0.037707109 0.13567157 0
-0.0095716389 -0.038029924 0.13936138 0
-0.0098000001 -0.037607051 0.13452789 0
-0.0098000001 -0.032663558 0.12391837 0
0.0048000002 -0.032227781 0.1189374 0
0.009555283 -0.032528896 0.12237916 0
-0.0088450853 -0.035360064 0.15473956 0
-0.0048000002 -0.035539698 0.15679279 0
0.009555283 -0.035238583 0.15335102 0
0.0088450853 -0.035360064 0.15473956 0
-0.0098000001 -0.035103917 0.15181182 0
-0.009555283 -0.032528896 0.12237916 0
-0.0063450849 -0.039473072 0.1730672 0
-0.0063450849 -0.061190117 0.17116719 0
-0.0088450853 -0.039314765 0.17125775 0
-0.0077389264 -0.061128221 0.1704597 0
-0.009555283 -0.039193284 0.16986921 0
-0.0098000001 -0.060775667 0.16643001 0
-0.0048000002 -0.061211444 0.17141098 0
0.0048000002 -0.039494399 0.17331098 0
0.0063450849 -0.039473072 0.1730672 0
0.0077389264 -0.061128221 0.1704597 0
0.0088450853 -0.061031811 0.16935775 0
0.0077389264 -0.039411176 0.17235969 0
0.009555283 -0.060910329 0.16796921 0
-0.0098000001 -0.058651596 0.13870965 0
-0.0095716389 -0.058551535 0.13756597 0
-0.0089213206 -0.05846671 0.1365964 0
-0.0089213206 -0.037945099 0.13839181 0
-0.0079480503 -0.037888419 0.13774396 0
-0.0079480503 -0.05841003 0.13594855 0
0.0068000001 -0.058390129 0.13572106 0
0.0079480503 -0.037888419 0.13774396 0
0.0089213206 -0.05846671 0.1365964 0
0.0095716389 -0.058551535 0.13756597 0
0.0098000001 -0.058651596 0.13870965 0
0.0012238648 -0.06392163 0.19550435 0
-7.4265536e-15 -0.063909613 0.19536698 0
-0.00238636 -0.064820856 0.20578252 0
0.00238636 -0.064820856 0.20578252 0
-7.3152942e-15 -0.064868331 0.20632513 0
-0.0053621023 -0.064495638 0.20206526 0
-0.0043000723 -0.064090095 0.1974299 0
0.00238636 -0.063957088 0.19590959 0
0.0043000723 -0.064090095 0.1974299 0
-0.0054999986 -0.064388976 0.20084605 0
-0.0043000723 -0.064687848 0.2042622 0
-0.0012238648 -0.06392163 0.19550435 0
-0.003429193 -0.064014196 0.19656235 0
-0.0034530533 -0.064004004 0.1965332 0
-0.0049553276 -0.064180985 0.19846879 0
-0.0053621023 -0.064282306 0.19962685 0
-0.00238636 -0.063957088 0.19590959 0
-0.0043553566 -0.064057074 0.19738854 0
-0.004329992 -0.064080432 0.1974068 0
-0.0049898066 -0.064171955 0.1984529 0
-0.0054310411 -0.064251751 0.19961371 0
-0.0055382675 -0.064381391 0.20084672 0
-0.0053994115 -0.064488798 0.20207441 0
-0.0043553566 -0.064662509 0.20430866 0
-0.0050190366 -0.064570449 0.20325644 0
-0.0034867967 -0.064708546 0.20520711 0
-0.0049553276 -0.064596958 0.20322333 0
-0.004329992 -0.064682342 0.20428663 0
-0.0024029643 -0.064816281 0.20581754 0
-0.0012323805 -0.064851977 0.20622559 0
-7.3144344e-15 -0.064845309 0.20639813 0
0.0012461173 -0.064765185 0.20629358 0
-0.0012238648 -0.064856313 0.20618775 0
-7.3146259e-15 -0.064868331 0.20632513 0
-7.3143709e-15 -0.064864077 0.20636392 0
0.0024170405 -0.06479723 0.20584854 0
0.0012323805 -0.064851977 0.20622559 0
0.0024029643 -0.064816281 0.20581754 0
0.0034732809 -0.064739384 0.20518738 0
0.0034867967 -0.064708546 0.20520711 0
0.003429193 -0.064763747 0.20512976 0
0.004329992 -0.064682342 0.20428663 0
0.0049553276 -0.064596958 0.20322333 0
0.0049898066 -0.064590819 0.20324053 0
0.0054310411 -0.064467832 0.20208348 0
0.0055707102 -0.064359792 0.20084861 0
0.0054595964 -0.064180747 0.19961339 0
0.0054521752 -0.064219013 0.19961174 0
0.0053621023 -0.064495638 0.20206526 0
0.0053994115 -0.064273976 0.19961904 0
0.0054999986 -0.064388976 0.20084605 0
0.0049898066 -0.064171955 0.1984529 0
0.0050190366 -0.064149134 0.19844075 0
0.0043723048 -0.064023584 0.19737791 0
0.0034867967 -0.063946404 0.19649577 0
0.0032796124 -0.063896157 0.19636051 0
0.0034732809 -0.063980199 0.19650982 0
0.0024170405 -0.063922353 0.19584866 0
0.0012323805 -0.063910797 0.19546786 0
-7.4280791e-15 -0.063874274 0.19529909 0
-7.4288931e-15 -0.063840069 0.19528033 0
-0.0012461173 -0.063813515 0.19541594 0
-7.4268272e-15 -0.063909613 0.19536698 0
-0.0012323805 -0.063910797 0.19546786 0
-0.0024029643 -0.0639465 0.1958759 0
-0.0024170405 -0.063922353 0.19584866 0
-0.0034867967 -0.063946404 0.19649577 0
-0.0034732809 -0.063980199 0.19650982 0
-0.0055707102 -0.064359792 0.20084861 0
-0.0050385674 -0.064538956 0.20326865 0
-0.0054310411 -0.064467832 0.20208348 0
-0.0043723048 -0.064631373 0.20432495 0
-0.0049898066 -0.064590819 0.20324053 0
-0.0034732809 -0.064739384 0.20518738 0
-0.0012461173 -0.064765185 0.20629358 0
-0.0017193311 -0.064750753 0.20612863 0
-0.0012444233 -0.064802662 0.20628287 0
-0.0024264462 -0.064766616 0.20587082 0
-0.0024297489 -0.064729087 0.205881 0
-0.003429193 -0.064763747 0.20512976 0
-0.0034530533 -0.06475877 0.20516023 0
-0.0024170405 -0.06479723 0.20584854 0
-0.0012395997 -0.064833134 0.20625897 0
-7.3148071e-15 -0.06481488 0.20642254 0
-7.3154305e-15 -0.064777419 0.20643345 0
0.0012444233 -0.064802662 0.20628287 0
0.0012395997 -0.064833134 0.20625897 0
0.0043782564 -0.064593658 0.20433302 0
0.0024264462 -0.064766616 0.20587082 0
0.0012238648 -0.064856313 0.20618775 0
0.0034530533 -0.06475877 0.20516023 0
0.0043723048 -0.064631373 0.20432495 0
0.0043553566 -0.064662509 0.20430866 0
0.0050385674 -0.064538956 0.20326865 0
0.0054521752 -0.064435937 0.20209113 0
0.0052940114 -0.0644392 0.20256755 0
0.0043000723 -0.064687848 0.2042622 0
0.0050190366 -0.064570449 0.20325644 0
0.0055923876 -0.064327478 0.20085143 0
0.0053994115 -0.064488798 0.20207441 0
0.0055382675 -0.064381391 0.20084672 0
0.0054310411 -0.064251751 0.19961371 0
0.0050385674 -0.064115994 0.19843422 0
0.003491543 -0.063907757 0.19649316 0
0.0053621023 -0.064282306 0.19962685 0
0.0049553276 -0.064180985 0.19846879 0
0.004329992 -0.064080432 0.1974068 0
0.0043553566 -0.064057074 0.19738854 0
0.0024264462 -0.063888334 0.19583204 0
0.0012444233 -0.063852288 0.19542 0
0.0017193311 -0.063827947 0.1955809 0
0.0024297489 -0.063849613 0.19582854 0
0.003429193 -0.064014196 0.19656235 0
0.0024029643 -0.0639465 0.1958759 0
0.0034530533 -0.064004004 0.1965332 0
0.0012395997 -0.063886449 0.19543824 0
-7.4296724e-15 -0.063801281 0.19527607 0
-7.4273541e-15 -0.063898697 0.19532952 0
-0.0012444233 -0.063852288 0.19542 0
-0.0012395997 -0.063886449 0.19543824 0
-0.0043782564 -0.063985042 0.19737652 0
-0.003491543 -0.063907757 0.19649316 0
-0.0032796124 -0.063896157 0.19636051 0
-0.0024264462 -0.063888334 0.19583204 0
-0.0024297489 -0.063849613 0.19582854 0
-0.0017193311 -0.063827947 0.1955809 0
-0.0043723048 -0.064023584 0.19737791 0
-0.0050385674 -0.064115994 0.19843422 0
-0.0050454256 -0.064077586 0.19843426 0
-0.0053994115 -0.064273976 0.19961904 0
-0.0050190366 -0.064149134 0.19844075 0
-0.0045114211 -0.064575188 0.2041219 0
-0.0054521752 -0.064435937 0.20209113 0
-0.0055923876 -0.064327478 0.20085143 0
-0.0054595964 -0.064397953 0.20209615 0
-0.0054521752 -0.064219013 0.19961174 0
-0.0054595964 -0.064180747 0.19961339 0
0.0054595964 -0.063782267 0.19964825 0
0.0052940114 -0.0641395 0.19914198 0
0.0050454256 -0.063679107 0.19846913 0
0.0050454256 -0.064077586 0.19843426 0
0.0045114211 -0.064003512 0.19758764 0
0.0043782564 -0.06358657 0.19741137 0
0.0043782564 -0.063985042 0.19737652 0
0.0012461173 -0.063415043 0.19545081 0
0.0012461173 -0.063813515 0.19541594 0
-7.4358939e-15 -0.063402802 0.19531094 0
-0.0012461173 -0.063415043 0.19545081 0
-7.4283163e-15 -0.063801281 0.19527607 0
-0.0017193311 -0.063429467 0.19561577 0
-0.0032796124 -0.063497677 0.19639538 0
-0.0043782564 -0.06358657 0.19741137 0
-0.0045114211 -0.064003512 0.19758764 0
-0.0052940114 -0.063741028 0.19917685 0
-0.0054595964 -0.063782267 0.19964825 0
-0.0052940114 -0.0641395 0.19914198 0
-0.0055999998 -0.063890874 0.20088963 0
-0.0055999998 -0.064289354 0.20085476 0
-0.0050454256 -0.064102642 0.20331013 0
-0.0052940114 -0.0644392 0.20256755 0
-0.0050454256 -0.064501114 0.20327526 0
-0.0043782564 -0.064195186 0.20436788 0
-0.0043782564 -0.064593658 0.20433302 0
-0.003491543 -0.064670943 0.20521636 0
-0.0032796124 -0.064682543 0.20534901 0
-0.0012461173 -0.064366713 0.20632845 0
-7.3273813e-15 -0.064378947 0.20646833 0
-7.3198038e-15 -0.064777419 0.20643345 0
0.0012461173 -0.064366713 0.20632845 0
0.0017193311 -0.064352281 0.2061635 0
0.0017193311 -0.064750753 0.20612863 0
0.0024297489 -0.064729087 0.205881 0
0.0032796124 -0.064682543 0.20534901 0
0.003491543 -0.064272463 0.20525123 0
0.003491543 -0.064670943 0.20521636 0
0.0045114211 -0.064176708 0.20415677 0
0.0050454256 -0.064102642 0.20331013 0
0.0045114211 -0.064575188 0.2041219 0
0.0050454256 -0.064501114 0.20327526 0
0.0054595964 -0.064397953 0.20209615 0
0.0054595964 -0.063999481 0.202131 0
0.0055999998 -0.063890874 0.20088963 0
0.0055999998 -0.064289354 0.20085476 0
-0.0043723048 -0.064156644 0.20436648 0
-0.0045114211 -0.064176708 0.20415677 0
-0.0034867967 -0.064233825 0.20524864 0
-0.003491543 -0.064272463 0.20525123 0
-0.0032796124 -0.064284071 0.20538388 0
-0.0024264462 -0.064291887 0.20591235 0
-0.0024297489 -0.064330615 0.20591585 0
-0.0017193311 -0.064352281 0.2061635 0
-7.3235494e-15 -0.064340159 0.20646407 0
-7.3227692e-15 -0.064378947 0.20646833 0
0.0012444234 -0.06432794 0.2063244 0
0.0024297489 -0.064330615 0.20591585 0
0.0032796124 -0.064284071 0.20538388 0
0.0043782564 -0.064195186 0.20436788 0
0.0043723048 -0.064156644 0.20436648 0
0.0052940114 -0.064040728 0.20260242 0
0.0055923881 -0.06385275 0.20089297 0
0.0054521752 -0.063744292 0.19965327 0
0.0052940114 -0.063741028 0.19917685 0
0.0050385674 -0.063641272 0.19847575 0
0.0045114211 -0.06360504 0.19762249 0
0.0034867967 -0.063471675 0.19653729 0
0.003491543 -0.063509285 0.19652803 0
0.0032796124 -0.063497677 0.19639538 0
0.0024297489 -0.063451134 0.1958634 0
0.0024264462 -0.063413613 0.19587357 0
0.0017193311 -0.063429467 0.19561577 0
-7.4376362e-15 -0.06336534 0.19532186 0
-7.4370111e-15 -0.063402802 0.19531094 0
-0.0024297489 -0.063451134 0.1958634 0
-0.0024264462 -0.063413613 0.19587357 0
-0.003491543 -0.063509285 0.19652803 0
-0.0045114211 -0.06360504 0.19762249 0
-0.0050385674 -0.063641272 0.19847575 0
-0.0050454256 -0.063679107 0.19846913 0
-0.0054521752 -0.063744292 0.19965327 0
-0.0054595964 -0.063999481 0.202131 0
-0.0052940114 -0.064040728 0.20260242 0
-0.0050190371 -0.063609771 0.19848795 0
-0.0043723048 -0.063548855 0.19741945 0
-0.0034867967 -0.063471675 0.19653729 0
-0.004355357 -0.06351772 0.19743574 0
-0.0012444234 -0.063377559 0.19546153 0
0.0012444234 -0.063377559 0.19546153 0
0.0043723048 -0.063548855 0.19741945 0
0.004355357 -0.06351772 0.19743574 0
0.0050190371 -0.063609771 0.19848795 0
0.0055707106 -0.063820437 0.20089579 0
0.0054521752 -0.063961208 0.20213266 0
0.0050385674 -0.064064227 0.20331018 0
0.0034867967 -0.064233825 0.20524864 0
0.0034732814 -0.064200029 0.20523457 0
0.0024264462 -0.064291887 0.20591235 0
0.0012395998 -0.064293779 0.20630617 0
-7.3243684e-15 -0.064305954 0.20644531 0
-0.0012444234 -0.06432794 0.2063244 0
-0.0012395998 -0.064293779 0.20630617 0
-0.0024170408 -0.064257868 0.20589574 0
-0.0050385674 -0.064064227 0.20331018 0
-0.0054521752 -0.063961208 0.20213266 0
-0.0050190371 -0.064031094 0.20330364 0
-0.0054310411 -0.06392847 0.20213068 0
-0.0055923881 -0.06385275 0.20089297 0
-0.0055707106 -0.063820437 0.20089579 0
-0.0053994125 -0.06369143 0.19966999 0
-0.0034732814 -0.063440837 0.19655702 0
-0.0024170408 -0.063382998 0.19589585 0
-0.0024029645 -0.063363947 0.19592686 0
-0.0012395998 -0.063347086 0.19548541 0
-7.4380123e-15 -0.063334912 0.19534627 0
-7.4380826e-15 -0.063316144 0.19538048 0
0.0012395998 -0.063347086 0.19548541 0
0.0024170408 -0.063382998 0.19589585 0
0.0034732814 -0.063440837 0.19655702 0
0.0034530538 -0.063421451 0.19658417 0
0.0054310411 -0.063712396 0.19966091 0
0.0054310411 -0.06392847 0.20213068 0
0.0050190371 -0.064031094 0.20330364 0
0.0053994125 -0.063906245 0.20212536 0
0.004355357 -0.064123146 0.20435585 0
0.0049898075 -0.064008273 0.20329149 0
0.0024170408 -0.064257868 0.20589574 0
0.0024029645 -0.064233728 0.2058685 0
0.0012323806 -0.064269431 0.20627654 0
-0.0024029645 -0.064233728 0.2058685 0
-0.0034732814 -0.064200029 0.20523457 0
-0.004355357 -0.064123146 0.20435585 0
-0.0049898075 -0.064008273 0.20329149 0
-0.0053994125 -0.063906245 0.20212536 0
-0.0054310411 -0.063712396 0.19966091 0
-0.0055382685 -0.063798837 0.20089768 0
-0.0049898075 -0.063589409 0.19850387 0
-0.0043299925 -0.063497886 0.19745776 0
-0.0043000733 -0.06349238 0.1974822 0
-0.0034530538 -0.063421451 0.19658417 0
-0.003429194 -0.063416474 0.19661462 0
-0.0023863607 -0.063359365 0.19596188 0
-0.0012323806 -0.063328251 0.19551881 0
-7.4378353e-15 -0.063311897 0.19541927 0
0.0012323806 -0.063328251 0.19551881 0
0.0012238651 -0.063323915 0.19555664 0
0.0024029645 -0.063363947 0.19592686 0
0.0023863607 -0.063359365 0.19596188 0
0.0043299925 -0.063497886 0.19745776 0
0.0043000733 -0.06349238 0.1974822 0
0.0049898075 -0.063589409 0.19850387 0
0.0053994125 -0.06369143 0.19966999 0
0.0055382685 -0.063798837 0.20089768 0
0.0055 -0.063791253 0.20089835 0
0.0043299925 -0.064099789 0.2043376 0
0.0034530538 -0.064176224 0.20521119 0
0.003429194 -0.064166032 0.20518205 0
0.0012238651 -0.06425859 0.20624004 0
-7.3251003e-15 -0.064281531 0.20641488 0
-7.3256339e-15 -0.064270608 0.20637742 0
-0.0012323806 -0.064269431 0.20627654 0
-0.0034530538 -0.064176224 0.20521119 0
-0.003429194 -0.064166032 0.20518205 0
-0.0043299925 -0.064099789 0.2043376 0
-0.004955329 -0.063999236 0.20327561 0
-0.0053621037 -0.063897923 0.20211755 0
-0.0055 -0.063791253 0.20089835 0
-0.009555283 -0.06279289 0.18948701 0
-0.0098000001 -0.064122446 0.20468388 0
-0.0088450853 -0.062914371 0.19087556 0
0.0077389264 -0.063010782 0.1919775 0
0.0088450853 -0.062914371 0.19087556 0
0.004955329 -0.063999236 0.20327561 0
0.0043000733 -0.064090125 0.20431449 0
0.0053621037 -0.063897923 0.20211755 0
0.0053621037 -0.063684583 0.19967914 0
-0.0023863607 -0.06422314 0.20583481 0
-0.0048000002 -0.064558223 0.20966485 0
-0.0012238651 -0.06425859 0.20624004 0
-7.3263022e-15 -0.064270608 0.20637742 0
0.0023863607 -0.06422314 0.20583481 0
0.0048000002 -0.064558223 0.20966485 0
0.0063450849 -0.064536892 0.20942107 0
0.0077389264 -0.064475 0.20871358 0
0.009555283 -0.064257108 0.20622309 0
0.0048000002 -0.063094005 0.19292879 0
-0.0048000002 -0.063094005 0.19292879 0
-7.4375617e-15 -0.063311897 0.19541927 0
-0.0012238651 -0.063323915 0.19555664 0
0.004955329 -0.06358327 0.19852106 0
0.0063450849 -0.063072681 0.19268499 0
0.003429194 -0.063416474 0.19661462 0
-0.0063450849 -0.063072681 0.19268499 0
-0.004955329 -0.06358327 0.19852106 0
-0.0053621037 -0.063684583 0.19967914 0
-0.0043000733 -0.064090125 0.20431449 0
-0.0077389264 -0.064475 0.20871358 0
0.0063450849 -0.065762408 0.19244967 0
0.0088450853 -0.065604098 0.19064024 0
0.009555283 -0.065482616 0.18925169 0
0.009555283 -0.06279289 0.18948701 0
0.0098000001 -0.065347955 0.18771249 0
-0.0077389264 -0.065700509 0.19174218 0
-0.0077389264 -0.063010782 0.1919775 0
-0.009555283 -0.065482616 0.18925169 0
0.0079480503 -0.061756812 0.17420243 0
0.0089213206 -0.061813489 0.17485027 0
-0.0079480503 -0.061756812 0.17420243 0
-0.0098000001 -0.061588742 0.17228141 0
-0.0068000001 -0.061736908 0.17397495 0
-0.0029344428 -0.059393916 0.16211025 0
0.003 -0.059448279 0.16273162 0
0.0027406365 -0.05934193 0.16151606 0
-0.0015 -0.059221841 0.16014344 0
-0.0024270511 -0.059601966 0.16448827 0
0.0020073918 -0.059253972 0.16051067 0
-0.0088450853 -0.065604098 0.19064024 0
-0.0063450849 -0.065762408 0.19244967 0
-0.0041999999 -0.062585115 0.15613312 0
0.0087343138 -0.063338354 0.16474266 0
0.0035779832 -0.062790759 0.15848356 0
0.0048000002 -0.065783732 0.19269347 0
-0.0048000002 -0.065783732 0.19269347 0
0.0098000001 -0.063805297 0.17007984 0
-0.0089213206 -0.0626617 0.15700845 0
-0.0068000001 -0.062585115 0.15613312 0
0.0077389264 -0.065700509 0.19174218 0
0.0098000001 -0.061812907 0.17025416 0
0.0098000001 -0.061987218 0.17224655 0
-0.0029344428 -0.061087444 0.16196209 0
-0.0098000001 -0.060854193 0.15929602 0
-0.0029344428 -0.061196171 0.16320482 0
-0.0098000001 -0.061987218 0.17224655 0
-0.0024270511 -0.061295494 0.16434011 0
0.0095309941 -0.061574861 0.16753329 0
0.0087343138 -0.061345965 0.16491698 0
0.003 -0.061141808 0.16258346 0
0.0027406365 -0.061035458 0.16136789 0
0.0020073918 -0.0609475 0.16036251 0
0.00092705101 -0.060893137 0.15974115 0
0.0035779832 -0.060798366 0.15865788 0
0.0011575681 -0.060685609 0.15736906 0
-0.00031358539 -0.060881771 0.15961124 0
-0.0015 -0.06091537 0.15999527 0
-0.0024270511 -0.060988121 0.16082682 0
-0.0068000001 -0.060592726 0.15630743 0
-0.0014687355 -0.060616173 0.15657541 0
-0.0014687355 -0.062608562 0.1564011 0
0.0011575681 -0.062678002 0.15719475 0
0.0056994949 -0.062942497 0.16021802 0
0.0056994949 -0.060950108 0.16039233 0
0.0074405745 -0.063127406 0.16233146 0
0.0074405745 -0.061135013 0.16250578 0
0.0095309941 -0.063567251 0.16735898 0
-0.0095716389 -0.060754135 0.15815234 0
-0.0095716389 -0.062746525 0.15797803 0
-0.0089213206 -0.060669307 0.15718277 0
-0.0079480503 -0.06061263 0.15653493 0
-0.0079480503 -0.062605023 0.15636061 0
0.0098000001 -0.061588742 0.17228141 0
-0.0041999999 -0.060592726 0.15630743 0
0.003 -0.061141808 0.16258346 0
0.0027406365 -0.059554629 0.16394719 0
0.0027406365 -0.061248157 0.16379903 0
0.0020073918 -0.059642587 0.16495258 0
0.00092705101 -0.05969695 0.16557394 0
0.0020073918 -0.061336115 0.16480441 0
0.00092705101 -0.061390478 0.16542578 0
-0.00031358539 -0.061401844 0.16555567 0
-0.00031358539 -0.059708316 0.16570383 0
-0.0015 -0.059674717 0.16531982 0
-0.0015 -0.061368246 0.16517165 0
-0.0029344428 -0.059502643 0.16335298 0
-0.0024270511 -0.059294593 0.16097498 0
-0.00031358539 -0.059188243 0.1597594 0
0.00092705101 -0.059199609 0.15988931 0
0.003 -0.059448279 0.16273162 0
0.0098000001 -0.040941186 0.18984781 0
-0.0098000001 -0.0424054 0.20658387 0
0.0077389264 -0.041293737 0.1938775 0
0.0098000001 -0.0424054 0.20658387 0
0.0048000002 -0.041376963 0.19482878 0
-0.0063450849 -0.04281985 0.21132106 0
-0.0048000002 -0.041376963 0.19482878 0
-0.0048000002 -0.042841181 0.21156485 0
0.0048000002 -0.042841181 0.21156485 0
-0.0048000002 -0.038886476 0.19504668 0
-0.0063450849 -0.041355636 0.194585 0
-0.0077389264 -0.03880325 0.19409539 0
-0.0077389264 -0.041293737 0.1938775 0
-0.0088450853 -0.038706843 0.19299345 0
-0.0088450853 -0.04119733 0.19277555 0
-0.009555283 -0.038585361 0.1916049 0
-0.009555283 -0.041075848 0.19138701 0
0.0048000002 -0.038886476 0.19504668 0
0.0063450849 -0.041355636 0.194585 0
0.0063450849 -0.038865149 0.19480288 0
0.0088450853 -0.04119733 0.19277555 0
0.0077389264 -0.03880325 0.19409539 0
0.0088450853 -0.038706843 0.19299345 0
0.009555283 -0.041075848 0.19138701 0
0.009555283 -0.038585361 0.1916049 0
0.001454197 -0.039531507 0.16799827 0
-8.4411289e-15 -0.039556719 0.16828643 0
-0.0038000001 -0.039225526 0.16450088 0
-0.0035107422 -0.039098784 0.16305222 0
-8.5179988e-15 -0.038894333 0.16071534 0
0.0026870058 -0.03899134 0.16182411 0
-0.001454197 -0.038919546 0.1610035 0
0.0035107422 -0.039098784 0.16305222 0
0.0098000001 -0.041215297 0.17577036 0
0.0098000001 -0.041476764 0.17875893 0
0.0095716389 -0.041376706 0.17761526 0
-0.0098000001 -0.038140956 0.16128317 0
-0.0038000001 -0.038428571 0.16457061 0
-0.0095716389 -0.038040899 0.16013949 0
-0.0089213206 -0.03795607 0.15916993 0
-8.5326559e-15 -0.038097378 0.16078506 0
0.001454197 -0.038122591 0.16107322 0
-0.0014687355 -0.037902936 0.15856257 0
-0.001454197 -0.038734552 0.16806799 0
0.0098000001 -0.039422147 0.17592724 0
0.0038000001 -0.038428571 0.16457061 0
0.0087343138 -0.038632728 0.16690414 0
0.0035107422 -0.038555313 0.16601928 0
-0.0041999999 -0.03568786 0.15848632 0
-0.0098000001 -0.038450699 0.1900657 0
-0.0063450849 -0.038865149 0.19480288 0
0.0011575681 -0.035780743 0.15954795 0
0.0056994949 -0.036045242 0.16257122 0
-0.0095716389 -0.035849269 0.16033123 0
-0.0098000001 -0.035949327 0.16147491 0
0.0098000001 -0.036908042 0.17243305 0
-0.0041999999 -0.037879489 0.15829459 0
-0.0014687355 -0.035711307 0.1587543 0
0.0035779832 -0.0358935 0.16083677 0
0.0011575681 -0.037972372 0.15935622 0
0.0035779832 -0.038085129 0.16064504 0
0.0056994949 -0.038236871 0.16237949 0
0.0074405745 -0.036230147 0.16468467 0
0.0074405745 -0.038421776 0.16449292 0
0.0087343138 -0.036441099 0.16709587 0
0.0095309941 -0.038861625 0.16952044 0
0.0095309941 -0.036669996 0.16971219 0
-0.0068000001 -0.037879489 0.15829459 0
-0.0089213206 -0.035764441 0.15936166 0
-0.0079480503 -0.035707764 0.15871382 0
-0.0079480503 -0.037899394 0.15852207 0
-0.0068000001 -0.03568786 0.15848632 0
-0.0098000001 -0.062846586 0.15912171 0
-0.0098000001 -0.065347955 0.18771249 0
-0.0098000001 -0.039422147 0.17592724 0
-0.0098000001 -0.061998375 0.17696352 0
-0.0098000001 -0.062658228 0.18794781 0
-0.0098000001 -0.040941186 0.18984781 0
0.0098000001 -0.038450699 0.1900657 0
0.0098000001 -0.039099671 0.17224132 0
0.0098000001 -0.064122446 0.20468388 0
0.0098000001 -0.061998375 0.17696352 0
0.0098000001 -0.062658228 0.18794781 0
-0.0098000001 -0.041215297 0.17577036 0
0.0068000001 -0.041215297 0.17577036 0
0.0068000001 -0.061736908 0.17397495 0
-0.0038000001 -0.039225526 0.16450088 0
-0.0035107422 -0.039352268 0.16594954 0
-0.0038000001 -0.038428571 0.16457061 0
-0.0035107422 -0.038555313 0.16601928 0
-0.0026870058 -0.039459713 0.16717766 0
-0.0026870058 -0.038662758 0.16724738 0
-0.001454197 -0.039531507 0.16799827 0
-8.4410653e-15 -0.039556719 0.16828643 0
-8.4557859e-15 -0.038759764 0.16835615 0
0.001454197 -0.038734552 0.16806799 0
0.0026870058 -0.039459713 0.16717766 0
0.0026870058 -0.038662758 0.16724738 0
0.0035107422 -0.039352268 0.16594954 0
0.0038000001 -0.039225526 0.16450088 0
0.0038000001 -0.038428571 0.16457061 0
0.0035107422 -0.038301829 0.16312195 0
0.001454197 -0.038919546 0.1610035 0
0.0026870058 -0.038194384 0.16189383 0
-8.5179353e-15 -0.038894333 0.16071534 0
-0.001454197 -0.038122591 0.16107322 0
-0.0026870058 -0.03899134 0.16182411 0
-0.0026870058 -0.038194384 0.16189383 0
-0.0035107422 -0.038301829 0.16312195 0
-0.0063450849 -0.064536892 0.20942107 0
-0.0077389264 -0.042757954 0.21061356 0
-0.0088450853 -0.042661544 0.20951162 0
-0.0088450853 -0.064378589 0.20761162 0
-0.009555283 -0.042540066 0.20812309 0
-0.009555283 -0.064257108 0.20622309 0
0.0063450849 -0.04281985 0.21132106 0
0.0077389264 -0.042757954 0.21061356 0
0.0088450853 -0.064378589 0.20761162 0
0.0088450853 -0.042661544 0.20951162 0
0.009555283 -0.042540066 0.20812309 0
-0.0098000001 -0.041476764 0.17875893 0
-0.0095716389 -0.041376706 0.17761526 0
-0.0095716389 -0.061898317 0.17581984 0
-0.0089213206 -0.061813489 0.17485027 0
-0.0089213206 -0.041291878 0.17664568 0
-0.0079480503 -0.041235201 0.17599784 0
-0.0068000001 -0.041215297 0.17577036 0
0.0079480503 -0.041235201 0.17599784 0
0.0089213206 -0.041291878 0.17664568 0
0.0095716389 -0.061898317 0.17581984 0
0.00050000002 -0.055213612 0.21740876 0
-1.6792908e-14 -0.055347078 0.21739708 0
-0.0008660254 -0.05484898 0.21744066 0
-0.001 -0.053976115 0.2132006 0
-0.001 -0.054350883 0.21748424 0
-0.00050000002 -0.053113386 0.21327609 0
-1.6874285e-14 -0.05297992 0.21328776 0
-1.6830372e-14 -0.053354688 0.21757139 0
0.00050000002 -0.053488154 0.21755973 0
0.0008660254 -0.053478017 0.21324418 0
0.001 -0.053976115 0.2132006 0
0.001 -0.054350883 0.21748424 0
0.0008660254 -0.054474212 0.21315703 0
-1.6836823e-14 -0.05497231 0.21311344 0
-0.001 -0.054350883 0.21748424 0
0.0098000001 -0.067749701 0.21631199 0
-1.6793678e-14 -0.055347078 0.21739708 0
-0.00050000002 -0.055213612 0.21740876 0
-0.0008660254 -0.053852785 0.21752782 0
-0.00050000002 -0.053488154 0.21755973 0
-1.6830331e-14 -0.053354688 0.21757139 0
0.0008660254 -0.053852785 0.21752782 0
0.001 -0.054350883 0.21748424 0
0.0008660254 -0.05484898 0.21744066 0
-7.7272376e-15 -0.042903498 0.2065403 0
-7.8100139e-15 -0.042241111 0.19896922 0
0.0030742646 -0.042377636 0.20052968 0
0.0038000001 -0.042572305 0.20275475 0
-0.0030742646 -0.042377636 0.20052968 0
0.0022335839 -0.042840246 0.20581733 0
-0.0022335839 -0.042840246 0.20581733 0
-0.0030742646 -0.042766973 0.20497984 0
-0.0038000001 -0.042572305 0.20275475 0
0.0038000001 -0.04177535 0.20282449 0
-0.0092270514 -0.041334048 0.19778039 0
-0.0098000001 -0.042768925 0.2141811 0
-0.0030742646 -0.041970018 0.20504957 0
0.0036140147 -0.041673005 0.20165469 0
0.0030742646 -0.041580681 0.2005994 0
0.0021558669 -0.041359261 0.19806856 0
0.00012623792 -0.041285988 0.19723107 0
-7.8246862e-15 -0.041444156 0.19903894 0
-0.0041999999 -0.041226268 0.19654846 0
-0.0077270512 -0.041239064 0.19669473 0
-0.0030742646 -0.041580681 0.2005994 0
-0.0098000001 -0.041487735 0.19953704 0
0.0098000001 -0.042446449 0.21049519 0
-7.7419099e-15 -0.042106543 0.20661004 0
0.0056994949 -0.04158365 0.20063336 0
0.0091147916 -0.04206939 0.20618542 0
-0.0085633555 -0.039084576 0.19731097 0
-0.0092270514 -0.039142419 0.19797213 0
0.0098000001 -0.04025482 0.21068692 0
-0.0098000001 -0.040952064 0.21865648 0
-0.0041999999 -0.039034639 0.1967402 0
-0.0096531697 -0.039215308 0.19880526 0
0.0021558669 -0.039167631 0.19826031 0
-0.0020099175 -0.039049663 0.1969119 0
-0.0020099175 -0.041241292 0.19672017 0
0.00012623792 -0.039094359 0.1974228 0
0.0040289937 -0.039267674 0.19940379 0
0.0040289937 -0.041459303 0.19921206 0
0.0056994949 -0.039392021 0.2008251 0
0.0071262377 -0.039537616 0.20248924 0
0.0071262377 -0.041729245 0.20229751 0
0.0082740914 -0.039700869 0.20435524 0
0.0082740914 -0.041892499 0.20416351 0
0.0091147916 -0.039877761 0.20637715 0
0.0096276365 -0.04006394 0.20850518 0
0.0096276365 -0.042255569 0.20831344 0
-0.0068000001 -0.041226268 0.19654846 0
-0.0098000001 -0.039296106 0.19972879 0
-0.0096531697 -0.041406937 0.19861352 0
-0.0085633555 -0.041276205 0.19711922 0
-0.0077270512 -0.039047435 0.19688648 0
-0.0068000001 -0.039034639 0.1967402 0
-0.0036140147 -0.041673005 0.20165469 0
-0.0038000001 -0.042572305 0.20275475 0
-0.0038000001 -0.04177535 0.20282449 0
-0.0036140147 -0.04267465 0.20392455 0
-0.0036140147 -0.041877694 0.20399429 0
-0.0022335839 -0.042043291 0.20588705 0
-0.0011742646 -0.042887285 0.20635501 0
-0.0011742646 -0.04209033 0.20642474 0
-7.7272495e-15 -0.042903498 0.2065403 0
0.0011742646 -0.04209033 0.20642474 0
0.0011742646 -0.042887285 0.20635501 0
0.0022335839 -0.042043291 0.20588705 0
0.0030742646 -0.042766973 0.20497984 0
0.0030742646 -0.041970018 0.20504957 0
0.0036140147 -0.04267465 0.20392455 0
0.0036140147 -0.041877694 0.20399429 0
0.0038000001 -0.04177535 0.20282449 0
0.0036140147 -0.04246996 0.20158496 0
0.0022335839 -0.041507408 0.19976191 0
0.0022335839 -0.042304363 0.19969219 0
0.0011742646 -0.041460369 0.19922422 0
0.0011742646 -0.042257324 0.1991545 0
