# .PCD v0.7 - Point Cloud Data file format
VERSION 0.7
FIELDS x y z rgb
SIZE 4 4 4 4
TYPE F F F F
COUNT 1 1 1 1
WIDTH 983
HEIGHT 1
VIEWPOINT 0 0 0 1 0 0 0
POINTS 983
DATA ascii
0.10292659 0.056161154 0.1794779 9.1476764e-41
0.10124549 0.055308137 0.17073603 9.1476764e-41
0.097814091 0.054409884 0.16252673 9.1476764e-41
0.09277612 0.053504005 0.15519376 9.1476764e-41
0.086342543 0.052628446 0.14904425 9.1476764e-41
0.096567199 0.058123007 0.20571572 9.1476764e-41
0.10180268 0.057764173 0.19847451 9.1476764e-41
0.1054557 0.05724315 0.19032846 9.1476764e-41
0.1073733 0.056581758 0.18161874 9.1476764e-41
0.10747518 0.055807695 0.17271006 9.1476764e-41
0.10575705 0.054953378 0.16397552 9.1476764e-41
0.10229088 0.054054581 0.1557809 9.1476764e-41
0.097221814 0.053148948 0.14846936 9.1476764e-41
0.090762146 0.052274406 0.14234711 9.1476764e-41
0.083182387 0.051467571 0.13767055 9.1476764e-41
0.10499324 0.057271853 0.19093391 9.1476764e-41
0.10861183 0.056747697 0.18277271 9.1476764e-41
0.11049259 0.056083687 0.17405514 9.1476764e-41
0.11055675 0.05530763 0.16514629 9.1476764e-41
0.10880164 0.054452028 0.15641923 9.1476764e-41
0.10530075 0.05355271 0.14823945 9.1476764e-41
0.10020068 0.052647337 0.14094947 9.1476764e-41
0.093715034 0.051773824 0.1348546 9.1476764e-41
0.086115398 0.050968755 0.13021009 9.1476764e-41
0.077720046 0.050265841 0.12721042 9.1476764e-41
0.11016583 0.056126691 0.17474264 9.1476764e-41
0.1120097 0.055460073 0.1660174 9.1476764e-41
0.11203616 0.054682039 0.15710853 9.1476764e-41
0.1102441 0.053825162 0.1483891 9.1476764e-41
0.10670854 0.052925337 0.14022428 9.1476764e-41
0.10157757 0.052020241 0.132956 9.1476764e-41
0.095066056 0.051147774 0.12688862 9.1476764e-41
0.08744669 0.050344482 0.12227625 9.1476764e-41
0.079038553 0.049644001 0.11931203 9.1476764e-41
0.07019376 0.049075663 0.11812011 9.1476764e-41
0.11185936 0.054737464 0.15784808 9.1476764e-41
0.11184811 0.053957462 0.14893934 9.1476764e-41
0.11001912 0.053099331 0.14022771 9.1476764e-41
0.10644897 0.052199014 0.13207801 9.1476764e-41
0.10128719 0.051294208 0.12483154 9.1476764e-41
0.09474992 0.050422806 0.11879177 9.1476764e-41
0.087110952 0.049621303 0.11421161 9.1476764e-41
0.078690179 0.048923265 0.11128289 9.1476764e-41
0.069840252 0.048357919 0.11012826 9.1476764e-41
0.060931779 0.047948945 0.11079606 9.1476764e-41
0.10999998 0.053164762 0.14098705 9.1476764e-41
0.1081341 0.052305393 0.13228337 9.1476764e-41
0.10452942 0.051404595 0.12414895 9.1476764e-41
0.099336907 0.050500099 0.11692443 9.1476764e-41
0.092774011 0.049629778 0.11091235 9.1476764e-41
0.085115582 0.048830081 0.1063645 9.1476764e-41
0.076682322 0.048134495 0.10347134 9.1476764e-41
0.067827411 0.047572155 0.10235401 9.1476764e-41
0.058921676 0.047166605 0.10305932 9.1476764e-41
0.050338071 0.046934832 0.10555772 9.1476764e-41
0.10466878 0.051477179 0.12489498 9.1476764e-41
0.10102964 0.050575923 0.11677597 9.1476764e-41
0.095806494 0.049671751 0.10957352 9.1476764e-41
0.089218087 0.048802525 0.10358926 9.1476764e-41
0.081540324 0.048004646 0.099073797 9.1476764e-41
0.073094733 0.04731153 0.096216232 9.1476764e-41
0.064235002 0.0467522 0.095136233 9.1476764e-41
0.055332161 0.046350081 0.095879033 9.1476764e-41
0.046759039 0.046122018 0.09841352 9.1476764e-41
0.038874663 0.046077553 0.10263355 9.1476764e-41
0.064836346 0.058633462 0.23057918 9.1476764e-41
0.073346272 0.058840152 0.22783828 9.1476764e-41
0.081126586 0.058862612 0.22342916 9.1476764e-41
0.087851465 0.058699902 0.21753649 9.1476764e-41
0.093239293 0.058358841 0.21040705 9.1476764e-41
0.097064435 0.057853702 0.20233938 9.1476764e-41
0.099166699 0.057205651 0.19367136 9.1476764e-41
0.099458046 0.056441817 0.18476598 9.1476764e-41
0.097926281 0.055594195 0.17599618 9.1476764e-41
0.094635546 0.054698277 0.16772924 9.1476764e-41
0.080395244 0.058843009 0.22364368 9.1476764e-41
0.088156976 0.058861636 0.21920192 9.1476764e-41
0.094856985 0.05869516 0.2132811 9.1476764e-41
0.1002147 0.058350548 0.20612915 9.1476764e-41
0.10400573 0.057842232 0.1980456 9.1476764e-41
0.10607133 0.057191502 0.18936898 9.1476764e-41
0.10632499 0.056425609 0.18046261 9.1476764e-41
0.10475609 0.055576622 0.17169952 9.1476764e-41
0.10143033 0.054680098 0.16344666 9.1476764e-41
0.096486986 0.053773586 0.15604967 9.1476764e-41
0.094185568 0.058691531 0.21364225 9.1476764e-41
0.10086059 0.058521289 0.20769337 9.1476764e-41
0.10618808 0.058173135 0.20051907 9.1476764e-41
0.10994494 0.057661649 0.19241978 9.1476764e-41
0.11197384 0.057008255 0.1837347 9.1476764e-41
0.1121898 0.056240309 0.17482753 9.1476764e-41
0.11058379 0.055389974 0.16607128 9.1476764e-41
0.10722307 0.054492865 0.15783267 9.1476764e-41
0.10224836 0.053586546 0.1504567 9.1476764e-41
0.095868021 0.052708972 0.14425226 9.1476764e-41
0.10560586 0.058185637 0.20101114 9.1476764e-41
0.11090304 0.057833947 0.19381459 9.1476764e-41
0.11462566 0.057319302 0.1856997 9.1476764e-41
0.11661781 0.056663252 0.17700632 9.1476764e-41
0.11679608 0.055893272 0.16809849 9.1476764e-41
0.115153 0.055041607 0.15934926 9.1476764e-41
0.11175737 0.054143924 0.15112503 9.1476764e-41
0.1067514 0.053237814 0.14377022 9.1476764e-41
0.10034472 0.052361224 0.13759282 9.1476764e-41
0.092805646 0.051550869 0.13285156 9.1476764e-41
0.11415803 0.057347391 0.1863012 9.1476764e-41
0.11784635 0.056829594 0.17817086 9.1476764e-41
0.11980173 0.056170903 0.16946934 9.1476764e-41
0.11994229 0.0553989 0.16056101 9.1476764e-41
0.11826216 0.054545917 0.15181895 9.1476764e-41
0.11483169 0.053647678 0.14360926 9.1476764e-41
0.10979453 0.052741796 0.13627574 9.1476764e-41
0.10336164 0.051866207 0.13012549 9.1476764e-41
0.095802419 0.051057581 0.12541611 9.1476764e-41
0.087433428 0.050349783 0.12234479 9.1476764e-41
0.1194691 0.056213353 0.17015404 9.1476764e-41
0.12138767 0.055552032 0.16144451 9.1476764e-41
0.12149053 0.054778021 0.15253584 9.1476764e-41
0.11977338 0.053923737 0.14380111 9.1476764e-41
0.11630812 0.053024955 0.1356061 9.1476764e-41
0.11123987 0.052119318 0.12829399 9.1476764e-41
0.10478089 0.051244747 0.12217103 9.1476764e-41
0.097201653 0.050437868 0.11749361 9.1476764e-41
0.088819571 0.049732473 0.11445763 9.1476764e-41
0.079985671 0.049158104 0.11319022 9.1476764e-41
0.1213074 0.05483298 0.15327388 9.1476764e-41
0.12137256 0.054056976 0.14436503 9.1476764e-41
0.11961842 0.053201407 0.13563778 9.1476764e-41
0.11611843 0.052302103 0.12745759 9.1476764e-41
0.11101919 0.051396724 0.12016704 9.1476764e-41
0.10453422 0.050523184 0.11407145 9.1476764e-41
0.096935108 0.049718067 0.1094261 9.1476764e-41
0.088540092 0.04901509 0.1064255 9.1476764e-41
0.079700731 0.04844369 0.10519534 9.1476764e-41
0.070787206 0.048027802 0.10578711 9.1476764e-41
0.11959276 0.053266484 0.13639696 9.1476764e-41
0.11780167 0.052409641 0.12767734 9.1476764e-41
0.11426703 0.051509827 0.11951212 9.1476764e-41
0.10913687 0.050604723 0.11224326 9.1476764e-41
0.10262603 0.049732231 0.10617516 9.1476764e-41
0.095007181 0.04892889 0.10156194 9.1476764e-41
0.08659938 0.048228346 0.098596789 9.1476764e-41
0.077754721 0.04765993 0.097403884 9.1476764e-41
0.068843611 0.047247447 0.09803319 9.1476764e-41
0.060239226 0.047008175 0.10045834 9.1476764e-41
0.11439998 0.051582176 0.12025934 9.1476764e-41
0.11083075 0.05068187 0.11210925 9.1476764e-41
0.10566977 0.049777057 0.10486221 9.1476764e-41
0.099133186 0.04890563 0.0988217 9.1476764e-41
0.091494732 0.048104078 0.094240695 9.1476764e-41
0.083074287 0.047405973 0.091311045 9.1476764e-41
0.074224487 0.046840552 0.09015543 9.1476764e-41
0.065315947 0.046431489 0.090822242 9.1476764e-41
0.056721739 0.046195917 0.093283571 9.1476764e-41
0.048801769 0.046143699 0.097436324 9.1476764e-41
0.10595553 0.049853526 0.10556488 9.1476764e-41
0.10076383 0.048949022 0.098339774 9.1476764e-41
0.094201609 0.048078671 0.092326969 9.1476764e-41
0.086543687 0.047278926 0.08777827 9.1476764e-41
0.078110754 0.046583276 0.084884167 9.1476764e-41
0.06925597 0.046020854 0.083765857 9.1476764e-41
0.060350165 0.045615215 0.084470183 9.1476764e-41
0.051766284 0.045383345 0.086967632 9.1476764e-41
0.043863803 0.045334958 0.091153629 9.1476764e-41
0.03697367 0.045472071 0.096852869 9.1476764e-41
0.088003024 0.05865676 0.21695247 9.1476764e-41
0.095802262 0.05868315 0.21257694 9.1476764e-41
0.10255255 0.058524314 0.20671329 9.1476764e-41
0.10797118 0.058186896 0.19960706 9.1476764e-41
0.11183126 0.057685032 0.19155584 9.1476764e-41
0.11397111 0.057039741 0.18289682 9.1476764e-41
0.11430115 0.056278039 0.1739926 9.1476764e-41
0.11280752 0.055431828 0.1652161 9.1476764e-41
0.10955279 0.054536548 0.15693484 9.1476764e-41
0.10467326 0.053629689 0.14949563 9.1476764e-41
0.10187808 0.058520023 0.20706873 9.1476764e-41
0.10860361 0.058357414 0.20117679 9.1476764e-41
0.11399224 0.058016442 0.19404794 9.1476764e-41
0.11781827 0.057511393 0.18598069 9.1476764e-41
0.1199215 0.056863409 0.17731291 9.1476764e-41
0.12021384 0.056099631 0.16840756 9.1476764e-41
0.11868306 0.055252042 0.15963759 9.1476764e-41
0.11539324 0.054356143 0.15137027 9.1476764e-41
0.11048217 0.053449444 0.14395182 9.1476764e-41
0.10415552 0.052569922 0.13769291 9.1476764e-41
0.11340584 0.058028292 0.19453503 9.1476764e-41
0.11876434 0.057683773 0.18738368 9.1476764e-41
0.12255627 0.057175543 0.17930055 9.1476764e-41
0.12462284 0.056524884 0.17062415 9.1476764e-41
0.12487749 0.055759043 0.16171782 9.1476764e-41
0.12330957 0.05491009 0.15295455 9.1476764e-41
0.11998472 0.054013584 0.14470132 9.1476764e-41
0.11504221 0.053107064 0.13730375 9.1476764e-41
0.108689 0.052228495 0.13107167 9.1476764e-41
0.10119116 0.051414672 0.12626605 9.1476764e-41
0.12208352 0.057203013 0.17989805 9.1476764e-41
0.12584129 0.056691613 0.17179918 9.1476764e-41
0.12787114 0.056038287 0.16311432 9.1476764e-41
0.1280881 0.055270396 0.15420717 9.1476764e-41
0.12648307 0.054420099 0.14545074 9.1476764e-41
0.12312327 0.053523 0.13721175 9.1476764e-41
0.11814939 0.052616678 0.12983522 9.1476764e-41
0.11176974 0.051739078 0.12363008 9.1476764e-41
0.10425147 0.050926957 0.11885616 9.1476764e-41
0.095909454 0.05021432 0.1157134 9.1476764e-41
0.12753266 0.056080181 0.16379619 9.1476764e-41
0.1295258 0.055424202 0.15510301 9.1476764e-41
0.12970506 0.054654274 0.1461952 9.1476764e-41
0.12806295 0.053802647 0.13744578 9.1476764e-41
0.12466823 0.052904978 0.12922117 9.1476764e-41
0.11966308 0.051998861 0.1218658 9.1476764e-41
0.1132571 0.051122248 0.1156877 9.1476764e-41
0.10571855 0.050311845 0.11094558 9.1476764e-41
0.097363144 0.049601588 0.10783806 9.1476764e-41
0.088540778 0.049021229 0.10649525 9.1476764e-41
0.1295156 0.054708768 0.14693168 9.1476764e-41
0.12965716 0.05393682 0.13802336 9.1476764e-41
0.127978 0.053083874 0.1292811 9.1476764e-41
0.12454844 0.052185647 0.12107103 9.1476764e-41
0.11951211 0.051279757 0.11373694 9.1476764e-41
0.11307991 0.050404143 0.107586 9.1476764e-41
0.10552122 0.049595471 0.10287577 9.1476764e-41
0.097152568 0.04888761 0.099803522 9.1476764e-41
0.088324428 0.048310202 0.098497905 9.1476764e-41
0.079406507 0.047887426 0.099013604 9.1476764e-41
0.12794584 0.053148586 0.13004008 9.1476764e-41
0.12622966 0.052294336 0.12130515 9.1476764e-41
0.12276532 0.051395573 0.11310975 9.1476764e-41
0.11769789 0.050489925 0.10579708 9.1476764e-41
0.11123959 0.049615327 0.099673398 9.1476764e-41
0.10366088 0.048808403 0.094995141 9.1476764e-41
0.095279142 0.048102945 0.091958225 9.1476764e-41
0.086445391 0.047528498 0.09068983 9.1476764e-41
0.077529557 0.047109116 0.091243081 9.1476764e-41
0.068905018 0.04686236 0.093594804 9.1476764e-41
0.12289186 0.051467683 0.1138581 9.1476764e-41
0.11939279 0.050568391 0.10567752 9.1476764e-41
0.11429436 0.049663004 0.098386414 9.1476764e-41
0.10781007 0.048789438 0.092290103 9.1476764e-41
0.10021149 0.047984276 0.087643899 9.1476764e-41
0.091816805 0.047281235 0.084642373 9.1476764e-41
0.082977585 0.046709757 0.083411224 9.1476764e-41
0.074064001 0.046293776 0.084002011 9.1476764e-41
0.065449335 0.046050716 0.086389996 9.1476764e-41
0.057494346 0.045990746 0.090475164 9.1476764e-41
0.11457407 0.049739368 0.09909153 9.1476764e-41
0.10944472 0.048834257 0.091822095 9.1476764e-41
0.10293457 0.047961738 0.085753269 9.1476764e-41
0.095316239 0.047158349 0.081139207 9.1476764e-41
0.086908765 0.046457738 0.078173123 9.1476764e-41
0.078064248 0.045889243 0.076979242 9.1476764e-41
0.06915307 0.045476675 0.07760755 9.1476764e-41
0.060548421 0.045237307 0.080031753 9.1476764e-41
0.052610639 0.045181163 0.084150307 9.1476764e-41
0.045672148 0.045310598 0.089790754 9.1476764e-41
0.10335526 0.048039027 0.086384386 9.1476764e-41
0.096819349 0.047167569 0.08034315 9.1476764e-41
0.089181408 0.046365969 0.075761303 9.1476764e-41
0.080761299 0.045667801 0.072830714 9.1476764e-41
0.071911633 0.045102298 0.071674123 9.1476764e-41
0.063003026 0.044693146 0.072339952 9.1476764e-41
0.054408543 0.044457477 0.07480032 9.1476764e-41
0.046488114 0.044405159 0.078952201 9.1476764e-41
0.039573424 0.044538386 0.084621713 9.1476764e-41
0.033954047 0.044851575 0.091571428 9.1476764e-41
0.10800315 0.058135916 0.19900514 9.1476764e-41
0.1147787 0.057980951 0.19317061 9.1476764e-41
0.12022805 0.057647187 0.18608773 9.1476764e-41
0.12412299 0.057148606 0.17805311 9.1476764e-41
0.12630039 0.056506082 0.16940325 9.1476764e-41
0.12666909 0.055746529 0.16050038 9.1476764e-41
0.12521364 0.054901749 0.15171732 9.1476764e-41
0.12199498 0.05400712 0.1434219 9.1476764e-41
0.11714791 0.053100113 0.13596152 9.1476764e-41
0.11087541 0.052218709 0.1296486 9.1476764e-41
0.11963753 0.057658382 0.18656981 9.1476764e-41
0.12505695 0.05732106 0.17946418 9.1476764e-41
0.12891793 0.056819282 0.17141339 9.1476764e-41
0.13105875 0.056174058 0.1627546 9.1476764e-41
0.13138977 0.055412412 0.15385042 9.1476764e-41
0.12989712 0.054566238 0.14507374 9.1476764e-41
0.12664331 0.053670973 0.13679212 9.1476764e-41
0.12176462 0.05276411 0.12935236 9.1476764e-41
0.11546534 0.051883627 0.12306604 9.1476764e-41
0.10800927 0.051066395 0.11819641 9.1476764e-41
0.1284401 0.056846134 0.17200686 9.1476764e-41
0.13226703 0.056341164 0.16394004 9.1476764e-41
0.13437122 0.055693254 0.15527248 9.1476764e-41
0.13466455 0.054929528 0.14636716 9.1476764e-41
0.13313474 0.054081976 0.13759701 9.1476764e-41
0.12984584 0.053186093 0.12932932 9.1476764e-41
0.12493561 0.05227939 0.12191033 9.1476764e-41
0.11860966 0.051399842 0.11565071 9.1476764e-41
0.11113291 0.050584286 0.11081263 9.1476764e-41
0.10281847 0.04986687 0.10759866 9.1476764e-41
0.13402691 0.05573459 0.15595146 9.1476764e-41
0.13609445 0.055084001 0.14727527 9.1476764e-41
0.1363501 0.054318212 0.13836896 9.1476764e-41
0.13478315 0.0534693 0.12960552 9.1476764e-41
0.13145922 0.052572809 0.12135191 9.1476764e-41
0.12651753 0.051666282 0.11395381 9.1476764e-41
0.12016502 0.050787691 0.10772102 9.1476764e-41
0.11266772 0.049973819 0.10291455 9.1476764e-41
0.10433959 0.049258757 0.0997357 9.1476764e-41
0.095529415 0.048672449 0.098317593 9.1476764e-41
0.13615434 0.054372236 0.13910383 9.1476764e-41
0.13637228 0.053604398 0.13019669 9.1476764e-41
0.13476823 0.052754134 0.12144009 9.1476764e-41
0.13140935 0.051857054 0.11320072 9.1476764e-41
0.12643629 0.050950725 0.10582364 9.1476764e-41
0.12005734 0.050073098 0.099617779 9.1476764e-41
0.11253961 0.049260933 0.09484303 9.1476764e-41
0.10419794 0.048548236 0.091699347 9.1476764e-41
0.09538167 0.047964856 0.090318389 9.1476764e-41
0.086459994 0.047535226 0.090757981 9.1476764e-41
0.13472956 0.052818485 0.12219879 9.1476764e-41
0.13308844 0.051966891 0.11344919 9.1476764e-41
0.12969464 0.051069234 0.1052242 9.1476764e-41
0.12469031 0.050163113 0.097868271 9.1476764e-41
0.11828502 0.049286474 0.091689453 9.1476764e-41
0.110747 0.048476025 0.086946502 9.1476764e-41
0.10239194 0.047765706 0.083838046 9.1476764e-41
0.093569741 0.047185268 0.082494259 9.1476764e-41
0.084649831 0.046759017 0.082971409 9.1476764e-41
0.076005779 0.046504799 0.085249528 9.1476764e-41
0.12981474 0.051141106 0.10597365 9.1476764e-41
0.12638611 0.050242893 0.097763181 9.1476764e-41
0.12135059 0.049337 0.090428539 9.1476764e-41
0.11491908 0.048461359 0.084276877 9.1476764e-41
0.10736091 0.047652639 0.079565808 9.1476764e-41
0.098992616 0.046944715 0.07649263 9.1476764e-41
0.090164624 0.046367228 0.075186037 9.1476764e-41
0.081246644 0.045944363 0.075700752 9.1476764e-41
0.072612152 0.045693826 0.078015216 9.1476764e-41
0.064622723 0.045626115 0.082032502 9.1476764e-41
0.12162424 0.049413253 0.091136046 9.1476764e-41
0.11655762 0.048507601 0.083822817 9.1476764e-41
0.11010001 0.047632977 0.077698417 9.1476764e-41
0.10252182 0.046826005 0.073019318 9.1476764e-41
0.094140425 0.046120483 0.069981471 9.1476764e-41
0.085306816 0.045545958 0.0687121 9.1476764e-41
0.07639093 0.045126487 0.06926436 9.1476764e-41
0.067766137 0.044879638 0.071615122 9.1476764e-41
0.059793632 0.044815749 0.075665951 9.1476764e-41
0.052807294 0.044937491 0.081247188 9.1476764e-41
0.11051525 0.047710292 0.078333125 9.1476764e-41
0.10403165 0.0468367 0.072236091 9.1476764e-41
0.09643358 0.04603149 0.067589045 9.1476764e-41
0.088039242 0.045328386 0.064586587 9.1476764e-41
0.079200171 0.04475683 0.063354455 9.1476764e-41
0.07028652 0.04434076 0.063944258 9.1476764e-41
0.061671592 0.044097602 0.066331282 9.1476764e-41
0.053716153 0.044037532 0.070415571 9.1476764e-41
0.046753362 0.044163074 0.076026082 9.1476764e-41
0.041074809 0.044468965 0.08292786 9.1476764e-41
0.096972317 0.046106495 0.068123266 9.1476764e-41
0.0893545 0.045303058 0.063508354 9.1476764e-41
0.080947369 0.044602383 0.060541339 9.1476764e-41
0.072102986 0.04403381 0.059346475 9.1476764e-41
0.063191742 0.043621153 0.059973799 9.1476764e-41
0.054586828 0.043381687 0.062397044 9.1476764e-41
0.046648592 0.043325443 0.06651473 9.1476764e-41
0.039709475 0.043454777 0.07215441 9.1476764e-41
0.034060076 0.043764275 0.079079911 9.1476764e-41
0.029936977 0.04424097 0.087001204 9.1476764e-41
0.12403407 0.057091828 0.17745748 9.1476764e-41
0.12951402 0.05676173 0.17039807 9.1476764e-41
0.13344376 0.056266438 0.16238022 9.1476764e-41
0.13565867 0.055626698 0.15373968 9.1476764e-41
0.13606603 0.054869302 0.1448383 9.1476764e-41
0.13464877 0.05402597 0.13604887 9.1476764e-41
0.13146624 0.053132012 0.12773946 9.1476764e-41
0.12665172 0.052224871 0.12025804 9.1476764e-41
0.12040683 0.051342536 0.11391794 9.1476764e-41
0.11299309 0.050521955 0.10898466 9.1476764e-41
0.13296087 0.056292668 0.16296962 9.1476764e-41
0.13685669 0.055794172 0.15493543 9.1476764e-41
0.13903506 0.05515172 0.14628582 9.1476764e-41
0.13940476 0.054392219 0.13738297 9.1476764e-41
0.13795027 0.053547475 0.12859975 9.1476764e-41
0.13473254 0.052652866 0.12030397 9.1476764e-41
0.1298863 0.051745854 0.11284305 9.1476764e-41
0.12361451 0.050864425 0.10652943 9.1476764e-41
0.11617982 0.050045487 0.10162751 9.1476764e-41
0.10789358 0.049323343 0.09834259 9.1476764e-41
0.13868497 0.055192497 0.14696185 9.1476764e-41
0.14082675 0.054547343 0.13830329 9.1476764e-41
0.14115876 0.053785753 0.12939915 9.1476764e-41
0.13966709 0.052939616 0.1206223 9.1476764e-41
0.13641421 0.052044369 0.11234031 9.1476764e-41
0.13153635 0.0511375 0.10490001 9.1476764e-41
0.12523776 0.05025699 0.098612987 9.1476764e-41
0.11778225 0.049439713 0.09374252 9.1476764e-41
0.10948202 0.048719898 0.090492591 9.1476764e-41
0.10068467 0.048127681 0.088999286 9.1476764e-41
0.14095671 0.053839296 0.13013235 9.1476764e-41
0.14125104 0.05307563 0.12122705 9.1476764e-41
0.13972221 0.052228112 0.11245673 9.1476764e-41
0.13643424 0.051332243 0.10418867 9.1476764e-41
0.13152483 0.050425537 0.096769132 9.1476764e-41
0.12519959 0.049545966 0.090508811 9.1476764e-41
0.11772338 0.048730362 0.08566989 9.1476764e-41
0.1094093 0.048012886 0.082455009 9.1476764e-41
0.10060554 0.047423579 0.080998801 9.1476764e-41
0.091680773 0.046987124 0.081362247 9.1476764e-41
0.13967705 0.052292094 0.1132151 9.1476764e-41
0.13811107 0.051443212 0.10445147 9.1476764e-41
0.13478808 0.050546739 0.096197501 9.1476764e-41
0.12984721 0.049640208 0.088798843 9.1476764e-41
0.1234954 0.048761591 0.082565337 9.1476764e-41
0.11599863 0.047947675 0.077758044 9.1476764e-41
0.10767087 0.04723255 0.07457827 9.1476764e-41
0.098860845 0.046646163 0.073159181 9.1476764e-41
0.089937523 0.046213072 0.073560208 9.1476764e-41
0.081274591 0.045951411 0.075764559 9.1476764e-41
0.13490175 0.050618358 0.096947968 9.1476764e-41
0.13154379 0.049721293 0.088708229 9.1476764e-41
0.12657155 0.04881496 0.08133059 9.1476764e-41
0.12019329 0.047937308 0.075124018 9.1476764e-41
0.1126761 0.047125097 0.070348434 9.1476764e-41
0.10433479 0.046412338 0.06720382 9.1476764e-41
0.095518671 0.045828879 0.065821886 9.1476764e-41
0.086596951 0.045399159 0.066260487 9.1476764e-41
0.077943258 0.045141172 0.068501264 9.1476764e-41
0.069919989 0.045065716 0.07245037 9.1476764e-41
0.1268391 0.048891101 0.082040429 9.1476764e-41
0.1218356 0.047984973 0.074683942 9.1476764e-41
0.115431 0.047108307 0.068504408 9.1476764e-41
0.10789352 0.046297811 0.063760623 9.1476764e-41
0.099538811 0.045587432 0.060651235 9.1476764e-41
0.090716757 0.045006916 0.059306469 9.1476764e-41
0.081796803 0.044580575 0.059782635 9.1476764e-41
0.073152505 0.044326261 0.062059797 9.1476764e-41
0.065145865 0.044254627 0.066042587 9.1476764e-41
0.058112182 0.044368673 0.07156422 9.1476764e-41
0.11584077 0.047185645 0.069142662 9.1476764e-41
0.10940995 0.046309978 0.062990278 9.1476764e-41
0.10185231 0.045501214 0.058278374 9.1476764e-41
0.093484357 0.044793226 0.055204265 9.1476764e-41
0.084656514 0.044215661 0.053896695 9.1476764e-41
0.07573849 0.043792706 0.05441042 9.1476764e-41
0.067103736 0.043542072 0.056723926 9.1476764e-41
0.059113871 0.043474261 0.060740329 9.1476764e-41
0.05210349 0.043592107 0.066291429 9.1476764e-41
0.046366174 0.043890677 0.073144756 9.1476764e-41
0.10238642 0.045576379 0.0588172 9.1476764e-41
0.094808765 0.044769362 0.054137256 9.1476764e-41
0.086427711 0.044063777 0.051098481 9.1476764e-41
0.077594243 0.043489173 0.049828131 9.1476764e-41
0.068678297 0.043069612 0.050379403 9.1476764e-41
0.060053248 0.042822666 0.052729215 9.1476764e-41
0.0520803 0.042758673 0.056779157 9.1476764e-41
0.045093339 0.042880319 0.062359627 9.1476764e-41
0.039384972 0.043182507 0.069236927 9.1476764e-41
0.035194248 0.043652579 0.077123053 9.1476764e-41
0.087062873 0.044133488 0.05151438 9.1476764e-41
0.07866887 0.043430321 0.048510991 9.1476764e-41
0.069829933 0.042858686 0.047277883 9.1476764e-41
0.060916226 0.04244253 0.047866695 9.1476764e-41
0.052301034 0.042199273 0.050252765 9.1476764e-41
0.044345144 0.042139105 0.054336175 9.1476764e-41
0.037381735 0.042264543 0.059945919 9.1476764e-41
0.031702414 0.042570341 0.066847071 9.1476764e-41
0.027545026 0.043043688 0.074750625 9.1476764e-41
0.025083674 0.043664761 0.083325587 9.1476764e-41
0.13545243 0.055566408 0.15317422 9.1476764e-41
0.13941687 0.055074416 0.14517327 9.1476764e-41
0.14166927 0.054437473 0.13654222 9.1476764e-41
0.14211528 0.053682253 0.12764251 9.1476764e-41
0.14073624 0.052840378 0.11884686 9.1476764e-41
0.1375899 0.051947109 0.1105236 9.1476764e-41
0.13280801 0.051039856 0.10302129 9.1476764e-41
0.12659085 0.050156604 0.096654125 9.1476764e-41
0.11919876 0.049334355 0.091688745 9.1476764e-41
0.11094132 0.048607528 0.088333085 9.1476764e-41
0.1413134 0.054477688 0.13721527 9.1476764e-41
0.14352928 0.053838018 0.12857497 9.1476764e-41
0.14393763 0.053080678 0.11967363 9.1476764e-41
0.14252135 0.05223738 0.11088403 9.1476764e-41
0.13933975 0.051343441 0.10257426 9.1476764e-41
0.13452606 0.050436299 0.095092312 9.1476764e-41
0.12828188 0.049553938 0.088751517 9.1476764e-41
0.1208687 0.048733316 0.083817407 9.1476764e-41
0.11259697 0.048008796 0.080496624 9.1476764e-41
0.10381309 0.047410719 0.078928232 9.1476764e-41
0.14372931 0.053133745 0.12040511 9.1476764e-41
0.1441 0.0523743 0.1115023 9.1476764e-41
0.14264649 0.051529594 0.10271891 9.1476764e-41
0.13942969 0.050634999 0.09442278 9.1476764e-41
0.13458428 0.049727984 0.086961314 9.1476764e-41
0.1283132 0.048846532 0.080646992 9.1476764e-41
0.12087906 0.048027553 0.075744249 9.1476764e-41
0.11259319 0.047305346 0.072458401 9.1476764e-41
0.10380258 0.046710156 0.070927054 9.1476764e-41
0.094875373 0.046266906 0.071214333 9.1476764e-41
0.14259483 0.051593196 0.1034769 9.1476764e-41
0.14110413 0.050747097 0.094699889 9.1476764e-41
0.13785218 0.049851865 0.086417533 9.1476764e-41
0.13297515 0.048944995 0.078976683 9.1476764e-41
0.12667727 0.048064463 0.07268896 9.1476764e-41
0.1192223 0.047247142 0.067817666 9.1476764e-41
0.11092243 0.046527263 0.064566813 9.1476764e-41
0.10212526 0.045934968 0.063072532 9.1476764e-41
0.093199171 0.045495071 0.0633974 9.1476764e-41
0.084517986 0.045225982 0.065527819 9.1476764e-41
0.13795941 0.049923234 0.087168977 9.1476764e-41
0.13467236 0.04902738 0.078900553 9.1476764e-41
0.12976378 0.04812067 0.07148046 9.1476764e-41
0.12343923 0.047241073 0.065219432 9.1476764e-41
0.11596356 0.046425428 0.06037968 9.1476764e-41
0.10764986 0.045707889 0.057163876 9.1476764e-41
0.098846257 0.045118503 0.055706687 9.1476764e-41
0.089921452 0.044681959 0.056069147 9.1476764e-41
0.0812492 0.044416536 0.05823607 9.1476764e-41
0.073192663 0.044333346 0.062116712 9.1476764e-41
0.13002522 0.048196692 0.072192587 9.1476764e-41
0.12508519 0.047290158 0.064793378 9.1476764e-41
0.11873408 0.046411514 0.058559168 9.1476764e-41
0.11123785 0.045597553 0.053751037 9.1476764e-41
0.10291044 0.044882368 0.050570339 9.1476764e-41
0.094100587 0.044295903 0.049150273 9.1476764e-41
0.085177228 0.043862723 0.049550314 9.1476764e-41
0.07651405 0.043600965 0.051753704 9.1476764e-41
0.068473853 0.043521594 0.055668171 9.1476764e-41
0.061393354 0.043627933 0.061129786 9.1476764e-41
0.11913834 0.04648887 0.059200916 9.1476764e-41
0.11276077 0.045611192 0.052993637 9.1476764e-41
0.10524411 0.044798937 0.048217215 9.1476764e-41
0.09690316 0.044086114 0.04507168 9.1476764e-41
0.088087201 0.04350258 0.043688763 9.1476764e-41
0.079165444 0.043072771 0.044126377 9.1476764e-41
0.070511505 0.042814687 0.046366196 9.1476764e-41
0.062487796 0.042739131 0.050314415 9.1476764e-41
0.055430334 0.042849272 0.055805698 9.1476764e-41
0.049634676 0.043140501 0.062610075 9.1476764e-41
0.10577357 0.044874255 0.0487606 9.1476764e-41
0.09823662 0.044063713 0.044015974 9.1476764e-41
0.089882262 0.043353271 0.040905662 9.1476764e-41
0.081060357 0.042772677 0.039559916 9.1476764e-41
0.072140358 0.042346247 0.040035095 9.1476764e-41
0.063495807 0.042091839 0.0423113 9.1476764e-41
0.055488728 0.042020105 0.046293203 9.1476764e-41
0.048454437 0.04213405 0.051814057 9.1476764e-41
0.04268752 0.042428903 0.058642656 9.1476764e-41
0.03842948 0.042892314 0.066493034 9.1476764e-41
0.090513803 0.043423269 0.041326981 9.1476764e-41
0.082146198 0.042715214 0.038251944 9.1476764e-41
0.073318511 0.042137571 0.036943395 9.1476764e-41
0.064400427 0.041714527 0.037456132 9.1476764e-41
0.05576542 0.0414638 0.039768681 9.1476764e-41
0.047775112 0.041395884 0.043784201 9.1476764e-41
0.040764116 0.041513633 0.049334526 9.1476764e-41
0.03502604 0.041812107 0.056187224 9.1476764e-41
0.030801181 0.042278811 0.064055316 9.1476764e-41
0.028266473 0.042894196 0.072609298 9.1476764e-41
0.074024603 0.042199191 0.037224274 9.1476764e-41
0.065191284 0.041624509 0.035952944 9.1476764e-41
0.056275278 0.041204859 0.036503229 9.1476764e-41
0.047649972 0.040957816 0.038852084 9.1476764e-41
0.039676577 0.040893726 0.042901143 9.1476764e-41
0.032688998 0.041015267 0.048480846 9.1476764e-41
0.026979867 0.041317359 0.055357516 9.1476764e-41
0.022788268 0.041787345 0.063243181 9.1476764e-41
0.020289738 0.042405546 0.071807593 9.1476764e-41
0.01958891 0.043146066 0.080692105 9.1476764e-41
0.14180002 0.053620864 0.12712991 9.1476764e-41
0.14408983 0.05298673 0.11850851 9.1476764e-41
0.14457449 0.052233696 0.10961064 9.1476764e-41
0.1432337 0.0513933 0.10080893 9.1476764e-41
0.14012361 0.050500736 0.09247198 9.1476764e-41
0.13537444 0.049593382 0.084948927 9.1476764e-41
0.12918513 0.048709236 0.078554824 9.1476764e-41
0.12181482 0.047885325 0.073557436 9.1476764e-41
0.1135722 0.047156155 0.070166051 9.1476764e-41
0.10480244 0.046552259 0.068522684 9.1476764e-41
0.14435992 0.052286278 0.11034033 9.1476764e-41
0.14480692 0.05153111 0.10144067 9.1476764e-41
0.14342886 0.050689276 0.092644855 9.1476764e-41
0.14028345 0.049796026 0.084321246 9.1476764e-41
0.13550241 0.048888769 0.076818407 9.1476764e-41
0.12928595 0.048005495 0.070450552 9.1476764e-41
0.12189442 0.047183201 0.065484352 9.1476764e-41
0.11363736 0.046456318 0.062127776 9.1476764e-41
0.10486055 0.045855287 0.060521398 9.1476764e-41
0.095931552 0.04540528 0.060732484 9.1476764e-41
0.1433707 0.050752502 0.093402408 9.1476764e-41
0.14195539 0.049909241 0.084612645 9.1476764e-41
0.13877472 0.049015321 0.076302513 9.1476764e-41
0.13396187 0.048108172 0.068820029 9.1476764e-41
0.1277184 0.047225792 0.062478535 9.1476764e-41
0.12030577 0.046405125 0.057543606 9.1476764e-41
0.11203442 0.045680542 0.054221902 9.1476764e-41
0.10325072 0.045082387 0.052652538 9.1476764e-41
0.094322518 0.044635713 0.052901227 9.1476764e-41
0.085623719 0.044359222 0.054957561 9.1476764e-41
0.1388755 0.049086429 0.077054873 9.1476764e-41
0.13565961 0.048191853 0.068758376 9.1476764e-41
0.13081504 0.047284834 0.061296374 9.1476764e-41
0.12454467 0.046403356 0.054981355 9.1476764e-41
0.11711107 0.045584336 0.050077785 9.1476764e-41
0.10882557 0.044862065 0.046791017 9.1476764e-41
0.10003514 0.044266801 0.045258693 9.1476764e-41
0.091107905 0.043823466 0.045544982 9.1476764e-41
0.082417719 0.043550625 0.047637895 9.1476764e-41
0.074328512 0.043459706 0.051449787 9.1476764e-41
0.13107036 0.047360729 0.062010732 9.1476764e-41
0.12619416 0.046453856 0.054569341 9.1476764e-41
0.11989699 0.045573298 0.048280913 9.1476764e-41
0.11244257 0.044755932 0.043408792 9.1476764e-41
0.10414307 0.044035994 0.040157016 9.1476764e-41
0.095346056 0.043443624 0.038661759 9.1476764e-41
0.08641994 0.043003634 0.03898564 9.1476764e-41
0.077738523 0.042734452 0.041115098 9.1476764e-41
0.069665365 0.042647347 0.044960953 9.1476764e-41
0.062538557 0.04274597 0.050362151 9.1476764e-41
0.12029572 0.045650665 0.048926119 9.1476764e-41
0.11397187 0.044771042 0.04266439 9.1476764e-41
0.10649674 0.043955352 0.037823804 9.1476764e-41
0.098183401 0.043237749 0.034607075 9.1476764e-41
0.089379966 0.042648289 0.033148915 9.1476764e-41
0.080455132 0.042211659 0.033510383 9.1476764e-41
0.071782634 0.041946139 0.035676345 9.1476764e-41
0.063725673 0.041862849 0.039556097 9.1476764e-41
0.056621652 0.04196528 0.044987161 9.1476764e-41
0.050768074 0.042249143 0.051742092 9.1476764e-41
0.1070215 0.044030819 0.038371712 9.1476764e-41
0.099525809 0.043216817 0.033562746 9.1476764e-41
0.091198757 0.042501569 0.030381124 9.1476764e-41
0.082389072 0.041915026 0.028960083 9.1476764e-41
0.073465668 0.041481756 0.029359134 9.1476764e-41
0.064802252 0.041219905 0.031561565 9.1476764e-41
0.056761626 0.04114043 0.035475142 9.1476764e-41
0.049680516 0.041246668 0.040935975 9.1476764e-41
0.04385547 0.041534167 0.04771537 9.1476764e-41
0.039530423 0.041990887 0.055529423 9.1476764e-41
0.09182664 0.042571843 0.030807836 9.1476764e-41
0.083486043 0.04185896 0.027661376 9.1476764e-41
0.07467024 0.041275349 0.026277481 9.1476764e-41
0.065748438 0.04084545 0.026714105 9.1476764e-41
0.057094254 0.040587269 0.028952964 9.1476764e-41
0.049070109 0.040511612 0.0329003 9.1476764e-41
0.042012043 0.040621657 0.0383908 9.1476764e-41
0.036215626 0.040912785 0.045194544 9.1476764e-41
0.031923611 0.041372813 0.053026594 9.1476764e-41
0.029315731 0.041982472 0.061558962 9.1476764e-41
0.075373873 0.041337367 0.026564388 9.1476764e-41
0.066552125 0.040756695 0.025217663 9.1476764e-41
0.057632077 0.040330175 0.025691854 9.1476764e-41
0.048987281 0.040075667 0.027967101 9.1476764e-41
0.040979762 0.040003832 0.031948123 9.1476764e-41
0.033944856 0.040117681 0.037468199 9.1476764e-41
0.028177181 0.040412437 0.04429616 9.1476764e-41
0.023918269 0.040875763 0.05214607 9.1476764e-41
0.021346476 0.041488253 0.060689181 9.1476764e-41
0.020569503 0.042224262 0.069567733 9.1476764e-41
0.058380768 0.04038123 0.025826443 9.1476764e-41
0.049462635 0.039958097 0.026338192 9.1476764e-41
0.040827375 0.039707273 0.028649786 9.1476764e-41
0.032836623 0.039639257 0.032664422 9.1476764e-41
0.025825012 0.039756905 0.038213972 9.1476764e-41
0.020086175 0.040055282 0.045066036 9.1476764e-41
0.015860444 0.040521901 0.052933663 9.1476764e-41
0.013324783 0.041137215 0.061487369 9.1476764e-41
0.012585382 0.041875456 0.070368938 9.1476764e-41
0.013673204 0.042705711 0.079206437 9.1476764e-41
-0.039269224 0.048373226 0.23439208 9.1476764e-41
-0.031494096 0.049966604 0.23851307 9.1476764e-41
-0.023028376 0.051521249 0.24093975 9.1476764e-41
-0.014226592 0.052972056 0.24157047 9.1476764e-41
-0.005457344 0.054258272 0.24037883 9.1476764e-41
0.0029121281 0.055326026 0.23741472 9.1476764e-41
0.010531328 0.056130603 0.2328023 9.1476764e-41
0.017081179 0.056638315 0.2267347 9.1476764e-41
0.022287386 0.056827895 0.21946603 9.1476764e-41
0.025931921 0.056691404 0.21130069 9.1476764e-41
-0.023681566 0.051385399 0.24057077 9.1476764e-41
-0.015205274 0.052938551 0.24296121 9.1476764e-41
-0.0064004208 0.05438656 0.24355441 9.1476764e-41
0.0023642653 0.05566879 0.2423255 9.1476764e-41
0.010721737 0.056731541 0.23932596 9.1476764e-41
0.018321998 0.057530303 0.23468138 9.1476764e-41
0.024846766 0.058031633 0.22858629 9.1476764e-41
0.030022796 0.05821453 0.22129592 9.1476764e-41
0.033633325 0.058071338 0.2131156 9.1476764e-41
0.035527155 0.057608053 0.2043879 9.1476764e-41
-0.0071172053 0.054253396 0.24333137 9.1476764e-41
0.0016905605 0.055698581 0.24388702 9.1476764e-41
0.010450529 0.056976803 0.24262087 9.1476764e-41
0.01879585 0.058034532 0.23958592 9.1476764e-41
0.026377037 0.058827467 0.23490928 9.1476764e-41
0.032876607 0.059322402 0.22878681 9.1476764e-41
0.038022369 0.059498616 0.2214749 9.1476764e-41
0.041598827 0.059348721 0.21327974 9.1476764e-41
0.043456212 0.058879003 0.20454456 9.1476764e-41
0.043516733 0.058109127 0.19563514 9.1476764e-41
0.0097014112 0.056852128 0.2425535 9.1476764e-41
0.018456506 0.058126323 0.24125011 9.1476764e-41
0.026789527 0.059179004 0.23817983 9.1476764e-41
0.034351505 0.059966099 0.23347121 9.1476764e-41
0.040825762 0.060454633 0.22732148 9.1476764e-41
0.045941163 0.060624156 0.21998812 9.1476764e-41
0.049483489 0.060467567 0.21177828 9.1476764e-41
0.051304393 0.059991423 0.20303576 9.1476764e-41
0.05132762 0.059215665 0.19412668 9.1476764e-41
0.049552195 0.058172777 0.18542413 9.1476764e-41
0.02604075 0.059068263 0.23827107 9.1476764e-41
0.034361325 0.060115885 0.23516551 9.1476764e-41
0.041903958 0.060897119 0.230425 9.1476764e-41
0.048352785 0.061379246 0.22424808 9.1476764e-41
0.053437732 0.061542079 0.21689343 9.1476764e-41
0.05694586 0.061378792 0.20866905 9.1476764e-41
0.058730256 0.060896233 0.19991936 9.1476764e-41
0.058716185 0.060114603 0.19101077 9.1476764e-41
0.056904241 0.059066635 0.18231638 9.1476764e-41
0.053370308 0.057796221 0.17420025 9.1476764e-41
0.041188177 0.060805134 0.23067087 9.1476764e-41
0.048711333 0.061580498 0.22589856 9.1476764e-41
0.055134613 0.062056206 0.21969458 9.1476764e-41
0.060189024 0.062212344 0.21231878 9.1476764e-41
0.063662894 0.062042367 0.20408 9.1476764e-41
0.065410741 0.0615534 0.19532329 9.1476764e-41
0.065359376 0.060765911 0.18641536 9.1476764e-41
0.063510947 0.059712887 0.17772925 9.1476764e-41
0.05994286 0.05843842 0.16962872 9.1476764e-41
0.054804545 0.056995887 0.16245301 9.1476764e-41
0.054483049 0.061986994 0.22008437 9.1476764e-41
0.060880668 0.06245628 0.21385346 9.1476764e-41
0.065904446 0.062605716 0.2064566 9.1476764e-41
0.069343992 0.062429056 0.19820359 9.1476764e-41
0.071055263 0.061933685 0.18944001 9.1476764e-41
0.070966609 0.061140355 0.18053289 9.1476764e-41
0.069081724 0.06008229 0.17185523 9.1476764e-41
0.065479554 0.058803797 0.16377044 9.1476764e-41
0.060310945 0.057358418 0.15661709 9.1476764e-41
0.053792354 0.055806678 0.15069474 9.1476764e-41
0.065345511 0.062562294 0.2069733 9.1476764e-41
0.07033857 0.06270504 0.19955555 9.1476764e-41
0.073743731 0.062521689 0.19128843 9.1476764e-41
0.075418398 0.062019926 0.18251814 9.1476764e-41
0.075292446 0.061220769 0.173612 9.1476764e-41
0.073371142 0.060157683 0.16494294 9.1476764e-41
0.069734953 0.058875181 0.15687403 9.1476764e-41
0.064536147 0.057426982 0.14974317 9.1476764e-41
0.05799244 0.055873726 0.14384899 9.1476764e-41
0.050377879 0.054280464 0.13943832 9.1476764e-41
0.073301807 0.062505953 0.19190948 9.1476764e-41
0.076672524 0.062315919 0.18362841 9.1476764e-41
0.078310564 0.061807778 0.17485158 9.1476764e-41
0.078147322 0.061002806 0.16594656 9.1476764e-41
0.07618963 0.059934713 0.15728627 9.1476764e-41
0.072519481 0.058648232 0.14923337 9.1476764e-41
0.067290567 0.057197236 0.14212513 9.1476764e-41
0.060721871 0.055642493 0.13625921 9.1476764e-41
0.053088471 0.054049104 0.13188127 9.1476764e-41
0.04471004 0.052483808 0.12917463 9.1476764e-41
0.078004926 0.061820414 0.17554992 9.1476764e-41
0.079606302 0.061305899 0.1667667 9.1476764e-41
0.079405762 0.060495127 0.15786298 9.1476764e-41
0.077411726 0.05942205 0.14921159 9.1476764e-41
0.073707685 0.058131609 0.14117487 9.1476764e-41
0.06844876 0.056677844 0.13408937 9.1476764e-41
0.061855182 0.055121638 0.12825182 9.1476764e-41
0.054203086 0.053528156 0.12390667 9.1476764e-41
0.045812916 0.051964134 0.12123591 9.1476764e-41
0.037036043 0.050495069 0.12035137 9.1476764e-41
-0.013706455 0.053027958 0.24126674 9.1476764e-41
-0.0052517424 0.054584108 0.24373055 9.1476764e-41
0.0035467285 0.056037758 0.24439977 9.1476764e-41
0.012320495 0.057328038 0.24324641 9.1476764e-41
0.020702129 0.058400907 0.24031873 9.1476764e-41
0.028340625 0.05921144 0.23573938 9.1476764e-41
0.034916095 0.059725691 0.22970012 9.1476764e-41
0.040153176 0.059922125 0.22245385 9.1476764e-41
0.043832548 0.059792519 0.21430403 9.1476764e-41
0.04580012 0.059342295 0.20559196 9.1476764e-41
0.0028319459 0.055904366 0.24417053 9.1476764e-41
0.011633648 0.057355247 0.24480224 9.1476764e-41
0.020403013 0.058641564 0.24361157 9.1476764e-41
0.028772799 0.059709448 0.2406484 9.1476764e-41
0.036392495 0.060514182 0.23603682 9.1476764e-41
0.042943005 0.061022062 0.22996995 9.1476764e-41
0.048150003 0.061211817 0.22270186 9.1476764e-41
0.051795434 0.061075505 0.21453692 9.1476764e-41
0.053726632 0.060618829 0.20581706 9.1476764e-41
0.053862724 0.059860919 0.19690745 9.1476764e-41
0.019654581 0.058516432 0.24353774 9.1476764e-41
0.02841939 0.059798766 0.24230981 9.1476764e-41
0.03677718 0.060861647 0.23931119 9.1476764e-41
0.044377942 0.061660565 0.23466747 9.1476764e-41
0.050903369 0.06216206 0.2285731 9.1476764e-41
0.056080196 0.062345136 0.22128332 9.1476764e-41
0.059691623 0.062202118 0.21310338 9.1476764e-41
0.06158641 0.061739001 0.20437588 9.1476764e-41
0.061685208 0.060975183 0.19546628 9.1476764e-41
0.059983879 0.05994264 0.18674771 9.1476764e-41
0.036027741 0.060750235 0.23939599 9.1476764e-41
0.044373386 0.061808091 0.23636197 9.1476764e-41
0.051955074 0.062601179 0.23168617 9.1476764e-41
0.058455311 0.063096285 0.22556442 9.1476764e-41
0.063601866 0.063272677 0.21825308 9.1476764e-41
0.067179225 0.063122958 0.21005832 9.1476764e-41
0.069037572 0.062653407 0.20132332 9.1476764e-41
0.069099069 0.061883688 0.1924139 9.1476764e-41
0.067361161 0.060846031 0.18370315 9.1476764e-41
0.063896619 0.059583895 0.17555588 9.1476764e-41
0.051237319 0.062508345 0.2319259 9.1476764e-41
0.058799803 0.063295588 0.22721812 9.1476764e-41
0.06527473 0.063784294 0.2210691 9.1476764e-41
0.070390925 0.063953996 0.21373631 9.1476764e-41
0.073934153 0.063797578 0.20552686 9.1476764e-41
0.075756021 0.063321605 0.19678453 9.1476764e-41
0.075780228 0.062546 0.18787543 9.1476764e-41
0.07400576 0.061503246 0.17917268 9.1476764e-41
0.070506945 0.060237013 0.1710407 9.1476764e-41
0.065430284 0.058800325 0.16382007 9.1476764e-41
0.064619951 0.063714087 0.22145328 9.1476764e-41
0.071069449 0.064196385 0.21527709 9.1476764e-41
0.076155201 0.064359389 0.207923 9.1476764e-41
0.07966423 0.064196281 0.199699 9.1476764e-41
0.081449583 0.063713886 0.19094948 9.1476764e-41
0.0814365 0.062932417 0.18204089 9.1476764e-41
0.079625517 0.061884582 0.17334627 9.1476764e-41
0.076092482 0.060614273 0.16522974 9.1476764e-41
0.070985347 0.059174687 0.15803121 9.1476764e-41
0.06451799 0.057626113 0.15205213 9.1476764e-41
0.075591974 0.064314872 0.20843491 9.1476764e-41
0.080647185 0.064471185 0.20105964 9.1476764e-41
0.084121957 0.064301379 0.19282125 9.1476764e-41
0.085870765 0.063812584 0.18406472 9.1476764e-41
0.085820384 0.063025251 0.17515677 9.1476764e-41
0.083972916 0.061972357 0.16647044 9.1476764e-41
0.080405727 0.060697995 0.1583695 9.1476764e-41
0.075268209 0.059255537 0.1511932 9.1476764e-41
0.068775512 0.057705387 0.14524207 9.1476764e-41
0.061199531 0.056112465 0.14076532 9.1476764e-41
0.083674833 0.064284489 0.19343854 9.1476764e-41
0.087115288 0.064108007 0.18518589 9.1476764e-41
0.088827521 0.063612804 0.17642251 9.1476764e-41
0.088739842 0.06281963 0.16751535 9.1476764e-41
0.086855918 0.061761692 0.15883747 9.1476764e-41
0.083254643 0.060483307 0.15075226 9.1476764e-41
0.078086831 0.059037998 0.14359832 9.1476764e-41
0.071568906 0.057486303 0.13767524 9.1476764e-41
0.063973814 0.055893198 0.13323107 9.1476764e-41
0.055619631 0.054325398 0.13045192 9.1476764e-41
0.088516012 0.063624278 0.17711827 9.1476764e-41
0.09019164 0.06312269 0.16834816 9.1476764e-41
0.090066671 0.062323682 0.15944198 9.1476764e-41
0.088146321 0.061260726 0.15077271 9.1476764e-41
0.084511027 0.059978332 0.14270337 9.1476764e-41
0.07931301 0.058530208 0.13557191 9.1476764e-41
0.07276997 0.056976993 0.12967698 9.1476764e-41
0.065155901 0.055383731 0.12526545 9.1476764e-41
0.056789681 0.053817153 0.12252207 9.1476764e-41
0.048021656 0.052342862 0.12156171 9.1476764e-41
0.089904353 0.062363029 0.16018586 9.1476764e-41
0.089742087 0.061558209 0.15128081 9.1476764e-41
0.087785356 0.060490247 0.14262028 9.1476764e-41
0.084116094 0.059203871 0.13456698 9.1476764e-41
0.078887977 0.057752948 0.12745813 9.1476764e-41
0.072319932 0.056198243 0.12159146 9.1476764e-41
0.064687029 0.054604858 0.11721266 9.1476764e-41
0.056308914 0.053039528 0.11450508 9.1476764e-41
0.04753644 0.0515678 0.11358213 9.1476764e-41
0.038736992 0.050251313 0.11448246 9.1476764e-41
0.012771584 0.057364445 0.24284501 9.1476764e-41
0.021566577 0.058820914 0.24355274 9.1476764e-41
0.030344699 0.060115233 0.24243766 9.1476764e-41
0.038738336 0.061193198 0.23954649 9.1476764e-41
0.046395984 0.06200967 0.2350003 9.1476764e-41
0.052996952 0.062530451 0.22898947 9.1476764e-41
0.058264811 0.06273374 0.22176573 9.1476764e-41
0.061978944 0.062611014 0.2136316 9.1476764e-41
0.063983813 0.062167417 0.2049277 9.1476764e-41
0.064195462 0.061421528 0.19601855 9.1476764e-41
0.029597009 0.05998965 0.24235736 9.1476764e-41
0.038370889 0.061280034 0.24120498 9.1476764e-41
0.046752833 0.062353034 0.23827825 9.1476764e-41
0.05439182 0.06316372 0.23369974 9.1476764e-41
0.060967948 0.063678138 0.22766121 9.1476764e-41
0.066205814 0.063874751 0.2204155 9.1476764e-41
0.069886081 0.06374532 0.21226609 9.1476764e-41
0.071854614 0.063295268 0.20355424 9.1476764e-41
0.072028972 0.062543437 0.19464478 9.1476764e-41
0.07040187 0.061521318 0.18591084 9.1476764e-41
0.04600279 0.062240958 0.23835658 9.1476764e-41
0.054372892 0.063308977 0.23539434 9.1476764e-41
0.061993085 0.064113863 0.23078361 9.1476764e-41
0.068544254 0.06462191 0.22471747 9.1476764e-41
0.073752046 0.064811841 0.21744993 9.1476764e-41
0.077398367 0.064675704 0.20928539 9.1476764e-41
0.079330526 0.064219199 0.20056574 9.1476764e-41
0.079467595 0.063461445 0.19165613 9.1476764e-41
0.077803843 0.062434174 0.18292969 9.1476764e-41
0.074408941 0.061180405 0.17475186 9.1476764e-41
0.061273403 0.064020179 0.23101716 9.1476764e-41
0.068874665 0.064819247 0.22637427 9.1476764e-41
0.075400755 0.065320916 0.22028063 9.1476764e-41
0.080578379 0.065504164 0.2129914 9.1476764e-41
0.084190696 0.065361321 0.20481187 9.1476764e-41
0.086086445 0.064898379 0.19608456 9.1476764e-41
0.086186223 0.06413471 0.18717496 9.1476764e-41
0.084485859 0.063102305 0.1784562 9.1476764e-41
0.081056558 0.061844397 0.17029338 9.1476764e-41
0.076041929 0.060413662 0.16302836 9.1476764e-41
0.074742824 0.065249711 0.2206592 9.1476764e-41
0.081243724 0.065744989 0.21453816 9.1476764e-41
0.086391084 0.065921552 0.20722738 9.1476764e-41
0.089969337 0.065772012 0.19903299 9.1476764e-41
0.091828637 0.065302633 0.1902982 9.1476764e-41
0.091891125 0.064533062 0.18138877 9.1476764e-41
0.090154171 0.063495539 0.17267781 9.1476764e-41
0.08669053 0.062233515 0.16453016 9.1476764e-41
0.08164525 0.06079983 0.15728697 9.1476764e-41
0.075229608 0.059254527 0.1512516 9.1476764e-41
0.085823596 0.065875933 0.20773447 9.1476764e-41
0.090940595 0.066045806 0.20040224 9.1476764e-41
0.094484717 0.065889575 0.19219317 9.1476764e-41
0.096307546 0.065413766 0.18345103 9.1476764e-41
0.096332736 0.064638317 0.17454194 9.1476764e-41
0.09455923 0.063595697 0.16583896 9.1476764e-41
0.091061316 0.062329568 0.15770659 9.1476764e-41
0.085985459 0.060892958 0.15048537 9.1476764e-41
0.079544239 0.059346028 0.14447773 9.1476764e-41
0.072007395 0.057753555 0.13993526 9.1476764e-41
0.094032429 0.065871529 0.19280666 9.1476764e-41
0.09754236 0.0657086 0.18458304 9.1476764e-41
0.099328674 0.065226376 0.17583372 9.1476764e-41
0.099316567 0.064445049 0.1669251 9.1476764e-41
0.097506545 0.063397355 0.15823026 9.1476764e-41
0.093974411 0.062127151 0.15011333 9.1476764e-41
0.088868082 0.060687643 0.14291421 9.1476764e-41
0.082401395 0.059139106 0.1369344 9.1476764e-41
0.074845165 0.0575464 0.13242432 9.1476764e-41
0.066515841 0.055976216 0.12957285 9.1476764e-41
0.099011309 0.065236688 0.17652684 9.1476764e-41
0.10076108 0.064748056 0.1677705 9.1476764e-41
0.10071167 0.06396088 0.15886253 9.1476764e-41
0.098865166 0.06290812 0.15017597 9.1476764e-41
0.095298879 0.061633866 0.14207463 9.1476764e-41
0.090162158 0.060191482 0.13489774 9.1476764e-41
0.083670124 0.058641374 0.12894587 9.1476764e-41
0.07609465 0.057048455 0.12446828 9.1476764e-41
0.06775298 0.055479433 0.12165247 9.1476764e-41
0.05899445 0.05400002 0.12061637 9.1476764e-41
0.10054307 0.063999109 0.15960507 9.1476764e-41
0.10045637 0.063206084 0.1506979 9.1476764e-41
0.098573409 0.062148284 0.14201979 9.1476764e-41
0.094973028 0.060870003 0.13393417 9.1476764e-41
0.089806013 0.059424773 0.12677965 9.1476764e-41
0.083288744 0.057873115 0.12085582 9.1476764e-41
0.075694159 0.056280017 0.11641078 9.1476764e-41
0.067340292 0.054712184 0.1136307 9.1476764e-41
0.058576997 0.053235285 0.11263196 9.1476764e-41
0.04977126 0.05191116 0.11345642 9.1476764e-41
0.098560922 0.062212758 0.14277937 9.1476764e-41
0.096641533 0.061149936 0.13410985 9.1476764e-41
0.093007132 0.059867647 0.1260401 9.1476764e-41
0.087809913 0.058419593 0.11890806 9.1476764e-41
0.081267528 0.056866419 0.11301239 9.1476764e-41
0.073653959 0.055273164 0.1086 9.1476764e-41
0.065288052 0.053706553 0.10585567 9.1476764e-41
0.056520145 0.052232191 0.10489433 9.1476764e-41
0.04771743 0.050911821 0.10575623 9.1476764e-41
0.039248541 0.049800742 0.10840529 9.1476764e-41
0.039102275 0.061208654 0.23906356 9.1476764e-41
0.047884587 0.062506989 0.2379868 9.1476764e-41
0.056290071 0.063590027 0.23513217 9.1476764e-41
0.063966729 0.064412422 0.23061924 9.1476764e-41
0.070593067 0.06493973 0.22463696 9.1476764e-41
0.075891599 0.065149859 0.21743588 9.1476764e-41
0.079640433 0.065034024 0.20931758 9.1476764e-41
0.081682563 0.064597063 0.20062201 9.1476764e-41
0.081932478 0.063857287 0.19171335 9.1476764e-41
0.08037971 0.062845662 0.18296465 9.1476764e-41
0.055539481 0.0634773 0.23520404 9.1476764e-41
0.063933425 0.064555399 0.2323138 9.1476764e-41
0.071591564 0.06537202 0.22776847 9.1476764e-41
0.07819318 0.065892972 0.22175837 9.1476764e-41
0.083461829 0.066096433 0.21453521 9.1476764e-41
0.087176852 0.065973885 0.20640147 9.1476764e-41
0.089182682 0.065530464 0.19769779 9.1476764e-41
0.089395307 0.064784728 0.18878865 9.1476764e-41
