# .PCD v0.7 - Point Cloud Data file format
VERSION 0.7
FIELDS x y z rgb
SIZE 4 4 4 4
TYPE F F F F
COUNT 1 1 1 1
WIDTH 256
HEIGHT 1
VIEWPOINT 0 0 0 1 0 0 0
POINTS 256
DATA ascii
-0.034559086 0.078077577 0.23179328 9.1476764e-41
-0.011955074 0.067297317 0.24031717 9.1476764e-41
0.01039195 0.055251621 0.23287919 9.1476764e-41
0.024292853 0.046354659 0.21220504 9.1476764e-41
0.0096428497 0.056482811 0.24258581 9.1476764e-41
0.031892549 0.044458751 0.23482794 9.1476764e-41
0.045550998 0.035667419 0.21394801 9.1476764e-41
0.045613013 0.033330429 0.18759756 9.1476764e-41
0.050063707 0.034116536 0.22252272 9.1476764e-41
0.063477509 0.025432244 0.20144039 9.1476764e-41
0.063240781 0.023246538 0.17507794 9.1476764e-41
0.049440268 0.028360378 0.15309599 9.1476764e-41
0.071295053 0.019504774 0.17925206 9.1476764e-41
0.070759617 0.017470704 0.15288186 9.1476764e-41
0.056717951 0.022723814 0.13108626 9.1476764e-41
0.034315668 0.033339087 0.12185232 9.1476764e-41
0.036180694 0.042783782 0.24067552 9.1476764e-41
0.058623876 0.030717883 0.23356712 9.1476764e-41
0.072771296 0.021714 0.21310759 9.1476764e-41
0.073438577 0.019071637 0.18679439 9.1476764e-41
0.077090159 0.02027229 0.22180036 9.1476764e-41
0.090997413 0.011372571 0.20113166 9.1476764e-41
0.091366023 0.0088807065 0.17479791 9.1476764e-41
0.078060918 0.013709847 0.15244918 9.1476764e-41
0.099329963 0.0052047526 0.17919773 9.1476764e-41
0.099399835 0.0028637869 0.15284765 9.1476764e-41
0.085849129 0.0078338385 0.1306781 9.1476764e-41
0.063643537 0.018293615 0.12081319 9.1476764e-41
0.094422288 0.0033249157 0.12910776 9.1476764e-41
0.080628149 0.0084350798 0.10712095 9.1476764e-41
0.058323655 0.018972464 0.097566642 9.1476764e-41
0.035682347 0.03107561 0.10394605 9.1476764e-41
0.097399153 0.0083036441 0.20336491 9.1476764e-41
0.11179069 -0.00080563925 0.18312345 9.1476764e-41
0.1127644 -0.0036020218 0.15683573 9.1476764e-41
0.099963464 0.00093923934 0.13413498 9.1476764e-41
0.12063276 -0.0072097443 0.16145837 9.1476764e-41
0.12130791 -0.0098560629 0.13514577 9.1476764e-41
0.10825709 -0.0051723453 0.11261688 9.1476764e-41
0.086262807 0.0051250458 0.10212749 9.1476764e-41
0.11687221 -0.009680938 0.11129488 9.1476764e-41
0.10357359 -0.0048555154 0.088941492 9.1476764e-41
0.081473202 0.0055228691 0.078759454 9.1476764e-41
0.058669806 0.017651025 0.084480003 9.1476764e-41
0.087551005 0.0018320823 0.071996778 9.1476764e-41
0.065348059 0.012289795 0.062123716 9.1476764e-41
0.042622782 0.024406606 0.068169914 9.1476764e-41
0.02770292 0.033742271 0.08791972 9.1476764e-41
0.12757246 -0.013239942 0.13297948 9.1476764e-41
0.12885243 -0.016189871 0.10672169 9.1476764e-41
0.11631008 -0.011795573 0.083848305 9.1476764e-41
0.094541609 -0.0016673513 0.072741352 9.1476764e-41
0.1249615 -0.016300865 0.082775518 9.1476764e-41
0.11216716 -0.011763363 0.060070284 9.1476764e-41
0.090285443 -0.0015508141 0.049267214 9.1476764e-41
0.067334972 0.010594361 0.05432513 9.1476764e-41
0.096522748 -0.0053068665 0.042688198 9.1476764e-41
0.074531309 0.0049883709 0.032190744 9.1476764e-41
0.051651537 0.017126145 0.03757612 9.1476764e-41
0.036267795 0.026658533 0.056870829 9.1476764e-41
0.053097084 0.015551141 0.027998794 9.1476764e-41
0.030291677 0.027679568 0.033710759 9.1476764e-41
0.015135615 0.037115648 0.053231671 9.1476764e-41
0.013182883 0.0404015 0.079408027 9.1476764e-41
-0.039269183 0.063595995 0.23306026 9.1476764e-41
-0.014226573 0.060313411 0.24092819 9.1476764e-41
0.010531327 0.055680145 0.2328417 9.1476764e-41
0.025931908 0.051394071 0.21176414 9.1476764e-41
0.0097014112 0.056662861 0.24257006 9.1476764e-41
0.034351487 0.052018952 0.2341665 9.1476764e-41
0.049483456 0.047758084 0.21289022 9.1476764e-41
0.049552161 0.045441668 0.18653797 9.1476764e-41
0.054483011 0.047704052 0.22133397 9.1476764e-41
0.069343939 0.043469075 0.19986238 9.1476764e-41
0.069081672 0.041204847 0.1735068 9.1476764e-41
0.053792316 0.041741107 0.15192533 9.1476764e-41
0.078004867 0.040134661 0.17744718 9.1476764e-41
0.077411667 0.03792299 0.15109251 9.1476764e-41
0.061855137 0.038518529 0.1297044 9.1476764e-41
0.03703602 0.041703042 0.12112057 9.1476764e-41
0.039102249 0.051766347 0.23988965 9.1476764e-41
0.063966684 0.047144778 0.23212995 9.1476764e-41
0.079640374 0.042833548 0.21125987 9.1476764e-41
0.08037965 0.040412523 0.1849273 9.1476764e-41
0.084425166 0.042824391 0.21982731 9.1476764e-41
0.099832788 0.038537662 0.19875503 9.1476764e-41
0.10024116 0.036168065 0.17241056 9.1476764e-41
0.085500658 0.036583949 0.15044796 9.1476764e-41
0.10906428 0.035133723 0.17657928 9.1476764e-41
0.1091417 0.032815937 0.15022717 9.1476764e-41
0.094129093 0.033291265 0.12845086 9.1476764e-41
0.069527879 0.036385521 0.11923035 9.1476764e-41
0.10362715 0.031626031 0.12663174 9.1476764e-41
0.088344857 0.032160729 0.10504522 9.1476764e-41
0.063634075 0.035299785 0.096138187 9.1476764e-41
0.038550142 0.039892886 0.10317464 9.1476764e-41
0.10692517 0.037592173 0.20080249 9.1476764e-41
0.12286932 0.033256516 0.1801434 9.1476764e-41
0.12394808 0.030783111 0.15382743 9.1476764e-41
0.10976613 0.031078346 0.13149814 9.1476764e-41
0.13266531 0.029785296 0.15822172 9.1476764e-41
0.13341329 0.027362924 0.13188952 9.1476764e-41
0.11895449 0.027717728 0.10973937 9.1476764e-41
0.094587393 0.03071969 0.09988825 9.1476764e-41
0.12849905 0.026066743 0.10816737 9.1476764e-41
0.11376573 0.02648106 0.086199902 9.1476764e-41
0.089281075 0.029528821 0.076659203 9.1476764e-41
0.064017572 0.034093164 0.083041504 9.1476764e-41
0.096014574 0.027854022 0.069720149 9.1476764e-41
0.071416296 0.030947093 0.060491413 9.1476764e-41
0.046239339 0.035526004 0.067197092 9.1476764e-41
0.029709868 0.039912801 0.087379865 9.1476764e-41
0.14035368 0.026056973 0.12954144 9.1476764e-41
0.14177173 0.023531608 0.10324651 9.1476764e-41
0.12787628 0.023765655 0.080737107 9.1476764e-41
0.10375935 0.026673347 0.070261866 9.1476764e-41
0.13746104 0.022130007 0.079413258 9.1476764e-41
0.1232864 0.022423672 0.057079304 9.1476764e-41
0.09904401 0.02537813 0.046911236 9.1476764e-41
0.07361757 0.029910712 0.052635171 9.1476764e-41
0.10595422 0.023690972 0.040151216 9.1476764e-41
0.081590272 0.026691724 0.030291948 9.1476764e-41
0.056242146 0.031240353 0.036341287 9.1476764e-41
0.039198752 0.035670005 0.056082428 9.1476764e-41
0.057843644 0.030144833 0.026722012 9.1476764e-41
0.03257791 0.034708783 0.033095781 9.1476764e-41
0.01578676 0.039117645 0.053056519 9.1476764e-41
0.01362336 0.041755784 0.079289548 9.1476764e-41
-0.039269224 0.048373226 0.23439208 9.1476764e-41
-0.014226592 0.052972056 0.24157047 9.1476764e-41
0.010531328 0.056130603 0.2328023 9.1476764e-41
0.025931921 0.056691404 0.21130069 9.1476764e-41
0.0097014112 0.056852128 0.2425535 9.1476764e-41
0.034351505 0.059966099 0.23347121 9.1476764e-41
0.049483489 0.060467567 0.21177828 9.1476764e-41
0.049552195 0.058172777 0.18542413 9.1476764e-41
0.054483049 0.061986994 0.22008437 9.1476764e-41
0.069343992 0.062429056 0.19820359 9.1476764e-41
0.069081724 0.06008229 0.17185523 9.1476764e-41
0.053792354 0.055806678 0.15069474 9.1476764e-41
0.078004926 0.061820414 0.17554992 9.1476764e-41
0.077411726 0.05942205 0.14921159 9.1476764e-41
0.061855182 0.055121638 0.12825182 9.1476764e-41
0.037036043 0.050495069 0.12035137 9.1476764e-41
0.039102275 0.061208654 0.23906356 9.1476764e-41
0.063966729 0.064412422 0.23061924 9.1476764e-41
0.079640433 0.065034024 0.20931758 9.1476764e-41
0.08037971 0.062845662 0.18296465 9.1476764e-41
0.084425233 0.066530734 0.21775326 9.1476764e-41
0.099832863 0.067093097 0.19625674 9.1476764e-41
0.10024124 0.064852029 0.16990104 9.1476764e-41
0.085500717 0.060628779 0.14834431 9.1476764e-41
0.10906436 0.066594504 0.17382683 9.1476764e-41
0.10914178 0.064301081 0.14747258 9.1476764e-41
0.09412916 0.060051642 0.12610963 9.1476764e-41
0.069527932 0.0554034 0.1175665 9.1476764e-41
0.10362723 0.061375637 0.12402898 9.1476764e-41
0.088344924 0.057100691 0.10286326 9.1476764e-41
0.06363412 0.052462764 0.094636627 9.1476764e-41
0.038550165 0.049161442 0.10236374 9.1476764e-41
0.10692526 0.068379723 0.19810893 9.1476764e-41
0.12286942 0.069062017 0.17701083 9.1476764e-41
0.12394818 0.066928126 0.15066515 9.1476764e-41
0.10976622 0.06276001 0.12872636 9.1476764e-41
0.13266541 0.068673797 0.15481941 9.1476764e-41
0.13341339 0.066486828 0.12846664 9.1476764e-41
0.11895458 0.06229116 0.10671459 9.1476764e-41
0.094587468 0.057624307 0.097534403 9.1476764e-41
0.12849915 0.063644037 0.10487978 9.1476764e-41
0.11376581 0.059421483 0.083317988 9.1476764e-41
0.089281142 0.054763433 0.074451469 9.1476764e-41
0.064017616 0.051376838 0.081529379 9.1476764e-41
0.096014649 0.0552078 0.067327008 9.1476764e-41
0.071416348 0.050559297 0.05877557 9.1476764e-41
0.046239369 0.047214508 0.066174477 9.1476764e-41
0.029709887 0.046399143 0.086812384 9.1476764e-41
0.14035378 0.067365162 0.12592745 9.1476764e-41
0.14177185 0.065286092 0.099593468 9.1476764e-41
0.12787639 0.061146956 0.077466667 9.1476764e-41
0.10375942 0.056464564 0.067655474 9.1476764e-41
0.13746114 0.06252782 0.075878911 9.1476764e-41
0.12328649 0.058360446 0.053935248 9.1476764e-41
0.099044085 0.053685337 0.044434678 9.1476764e-41
0.073617622 0.050215699 0.050858714 9.1476764e-41
0.1059543 0.054172963 0.037484389 9.1476764e-41
0.081590332 0.049505886 0.02829597 9.1476764e-41
0.056242187 0.046076946 0.035043254 9.1476764e-41
0.039198779 0.045142695 0.055253677 9.1476764e-41
0.057843685 0.045485448 0.025379883 9.1476764e-41
0.032577932 0.042097762 0.032449331 9.1476764e-41
0.015786765 0.04122211 0.052872401 9.1476764e-41
0.013623363 0.043179378 0.079164997 9.1476764e-41
-0.034559201 0.033891618 0.23565905 9.1476764e-41
-0.011955131 0.045988139 0.24218148 9.1476764e-41
0.010391953 0.056559131 0.23276481 9.1476764e-41
0.024292894 0.061730824 0.21085981 9.1476764e-41
0.0096428515 0.057032179 0.24253775 9.1476764e-41
0.031892609 0.067526311 0.23280978 9.1476764e-41
0.045551095 0.072558254 0.21072049 9.1476764e-41
0.04561311 0.070284039 0.18436454 9.1476764e-41
0.050063815 0.075574532 0.21889561 9.1476764e-41
0.063477658 0.080465913 0.19662558 9.1476764e-41
0.063240923 0.07804063 0.17028409 9.1476764e-41
0.049440376 0.069187433 0.14952409 9.1476764e-41
0.071295217 0.08245033 0.17374505 9.1476764e-41
0.070759781 0.079874374 0.14742225 9.1476764e-41
0.056718078 0.070916377 0.12686996 9.1476764e-41
0.034315735 0.058859035 0.11961962 9.1476764e-41
0.036180768 0.070191234 0.23827769 9.1476764e-41
0.058624011 0.080839343 0.22918206 9.1476764e-41
0.072771467 0.086153604 0.20746985 9.1476764e-41
0.073438756 0.084186591 0.18109757 9.1476764e-41
0.077090338 0.089082874 0.21578021 9.1476764e-41
0.090997629 0.094258234 0.19388011 9.1476764e-41
0.091366246 0.092139438 0.16751371 9.1476764e-41
0.078061096 0.083502918 0.14634308 9.1476764e-41
0.099330202 0.096523523 0.17120838 9.1476764e-41
0.099400081 0.094253287 0.1448521 9.1476764e-41
0.085849337 0.085509114 0.1238824 9.1476764e-41
0.063643679 0.073495336 0.11598367 9.1476764e-41
0.094422519 0.089676805 0.12155296 9.1476764e-41
0.080628343 0.080826379 0.10078754 9.1476764e-41
0.058323786 0.068790115 0.093208171 9.1476764e-41
0.035682417 0.057978731 0.10159233 9.1476764e-41
0.097399391 0.097668305 0.19554651 9.1476764e-41
0.11179097 0.10312423 0.17403078 9.1476764e-41
0.11276469 0.10131332 0.14765684 9.1476764e-41
0.09996371 0.092899173 0.12608953 9.1476764e-41
0.12063307 0.1056689 0.15158278 9.1476764e-41
0.12130821 0.10370588 0.12521039 9.1476764e-41
0.10825735 0.095181294 0.10383708 9.1476764e-41
0.086263008 0.083218992 0.095295168 9.1476764e-41
0.1168725 0.099391781 0.10175227 9.1476764e-41
0.10357384 0.090758115 0.080576397 9.1476764e-41
0.081473395 0.078769423 0.072351217 9.1476764e-41
0.058669936 0.067819007 0.080090873 9.1476764e-41
0.087551214 0.081229784 0.065050386 9.1476764e-41
0.065348215 0.069216624 0.057143267 9.1476764e-41
0.042622872 0.058333926 0.065201655 9.1476764e-41
0.02770297 0.052569684 0.086272538 9.1476764e-41
0.12757277 0.10666215 0.12248942 9.1476764e-41
0.12885275 0.10500764 0.096118294 9.1476764e-41
0.11631037 0.096708246 0.074355461 9.1476764e-41
0.09454184 0.08480531 0.06517598 9.1476764e-41
0.1249618 0.10095876 0.072516643 9.1476764e-41
0.11216743 0.092547543 0.050944269 9.1476764e-41
0.090285659 0.080614328 0.0420787 9.1476764e-41
0.067335129 0.069532081 0.049168754 9.1476764e-41
0.096522987 0.083170854 0.034947407 9.1476764e-41
0.074531488 0.071209274 0.026397172 9.1476764e-41
0.051651653 0.060191181 0.033808421 9.1476764e-41
0.036267869 0.05415418 0.054465275 9.1476764e-41
0.0530972 0.060079165 0.024103099 9.1476764e-41
0.030291734 0.049126986 0.031834353 9.1476764e-41
0.015135631 0.043224111 0.052697249 9.1476764e-41
0.013182894 0.044533659 0.079046518 9.1476764e-41
