# .PCD v0.7 - Point Cloud Data file format
VERSION 0.7
FIELDS x y z rgb
SIZE 4 4 4 4
TYPE F F F F
COUNT 1 1 1 1
WIDTH 256
HEIGHT 1
VIEWPOINT 0 0 0 1 0 0 0
POINTS 256
DATA ascii
-0.034559112 0.022177486 0.23650849 3.5733111e-43
-0.011955105 0.010695346 0.24406038 3.5733111e-43
0.010391922 -0.00065625628 0.23560086 3.5733111e-43
0.024292829 -0.0077174893 0.21422996 3.5733111e-43
0.0096428189 -0.00027573534 0.24537784 3.5733111e-43
0.031892519 -0.011577899 0.23660153 3.5733111e-43
0.045550972 -0.018515972 0.21503486 3.5733111e-43
0.045612995 -0.018547477 0.18858099 3.5733111e-43
0.050063681 -0.020808289 0.22344176 3.5733111e-43
0.063477486 -0.027622091 0.20168278 3.5733111e-43
0.063240767 -0.027501842 0.17523015 3.5733111e-43
0.049440257 -0.020491609 0.15377754 3.5733111e-43
0.071295038 -0.031593166 0.17906226 3.5733111e-43
0.070759602 -0.031321183 0.15261513 3.5733111e-43
0.056717943 -0.024188451 0.13136029 3.5733111e-43
0.034315664 -0.012808782 0.12308668 3.5733111e-43
0.036180664 -0.013756144 0.24228089 3.5733111e-43
0.058623847 -0.025156591 0.23414792 3.5733111e-43
0.072771274 -0.032343045 0.21298151 3.5733111e-43
0.073438562 -0.032682009 0.18653814 3.5733111e-43
0.077090129 -0.034536894 0.22151555 3.5733111e-43
0.09099739 -0.041601356 0.20014983 3.5733111e-43
0.091366008 -0.0417886 0.17369911 3.5733111e-43
0.078060903 -0.035030019 0.15185632 3.5733111e-43
0.099329941 -0.045834035 0.17776182 3.5733111e-43
0.099399827 -0.045869533 0.15130797 3.5733111e-43
0.085849121 -0.038986195 0.12965596 3.5733111e-43
0.06364353 -0.027706437 0.12074021 3.5733111e-43
0.094422281 -0.043341096 0.12769862 3.5733111e-43
0.080628157 -0.036334101 0.10624085 3.5733111e-43
0.058323659 -0.025004104 0.097641289 3.5733111e-43
0.035682347 -0.013503014 0.10505127 3.5733111e-43
0.09739913 -0.044853244 0.20210712 3.5733111e-43
0.11179068 -0.052163705 0.18114877 3.5733111e-43
0.1127644 -0.052658323 0.15471737 3.5733111e-43
0.099963464 -0.046155844 0.13249877 3.5733111e-43
0.12063275 -0.056655206 0.15900797 3.5733111e-43
0.1213079 -0.056998163 0.13256486 3.5733111e-43
0.10825709 -0.050368749 0.11052991 3.5733111e-43
0.086262807 -0.039196331 0.10097791 3.5733111e-43
0.11687221 -0.054744963 0.10882 3.5733111e-43
0.10357359 -0.047989678 0.086972229 3.5733111e-43
0.081473209 -0.036763366 0.077733465 3.5733111e-43
0.058669809 -0.025179939 0.084489271 3.5733111e-43
0.087551013 -0.039850701 0.070674844 3.5733111e-43
0.065348074 -0.028572289 0.061750799 3.5733111e-43
0.042622793 -0.017028548 0.068830036 3.5733111e-43
0.027702926 -0.0094497139 0.089318335 3.5733111e-43
0.12757245 -0.060180362 0.13011189 3.5733111e-43
0.12885243 -0.060830548 0.10369692 3.5733111e-43
0.11631009 -0.054459427 0.081293561 3.5733111e-43
0.094541617 -0.043401714 0.071111597 3.5733111e-43
0.1249615 -0.058854077 0.079832196 3.5733111e-43
0.11216716 -0.05235495 0.057608824 3.5733111e-43
0.090285458 -0.041239716 0.047736939 3.5733111e-43
0.067334987 -0.029581582 0.053834125 3.5733111e-43
0.096522763 -0.044408076 0.040855598 3.5733111e-43
0.074531332 -0.033237103 0.031295374 3.5733111e-43
0.051651556 -0.021614881 0.037718128 3.5733111e-43
0.03626781 -0.013800411 0.057770215 3.5733111e-43
0.053097103 -0.022349175 0.028039977 3.5733111e-43
0.030291695 -0.010764729 0.03478726 3.5733111e-43
0.015135628 -0.0030659134 0.055056296 3.5733111e-43
0.01318289 -0.0020739825 0.081419423 3.5733111e-43
-0.039269209 0.0076405872 0.23650849 3.5733111e-43
-0.014226603 0.0036847603 0.24406038 3.5733111e-43
0.010531298 -0.0002260934 0.23560086 3.5733111e-43
0.025931884 -0.0026588293 0.21422996 3.5733111e-43
0.0097013805 -9.4996336e-05 0.24537784 3.5733111e-43
0.034351457 -0.0039888178 0.23660153 3.5733111e-43
0.04948343 -0.0063791228 0.21503486 3.5733111e-43
0.049552143 -0.0063899769 0.18858099 3.5733111e-43
0.054482985 -0.0071688714 0.22344176 3.5733111e-43
0.069343917 -0.0095163621 0.20168278 3.5733111e-43
0.069081657 -0.0094749341 0.17523015 3.5733111e-43
0.053792305 -0.0070597692 0.15377754 3.5733111e-43
0.078004852 -0.010884477 0.17906226 3.5733111e-43
0.077411659 -0.010790774 0.15261513 3.5733111e-43
0.061855134 -0.0083334045 0.13136029 3.5733111e-43
0.037036017 -0.0044128811 0.12308668 3.5733111e-43
0.039102219 -0.0047392664 0.24228089 3.5733111e-43
0.063966654 -0.0086669484 0.23414792 3.5733111e-43
0.079640351 -0.011142826 0.21298151 3.5733111e-43
0.080379628 -0.011259606 0.18653814 3.5733111e-43
0.084425144 -0.011898651 0.22151555 3.5733111e-43
0.099832766 -0.014332497 0.20014983 3.5733111e-43
0.10024115 -0.014397008 0.17369911 3.5733111e-43
0.08550065 -0.012068542 0.15185632 3.5733111e-43
0.10906427 -0.015790742 0.17776182 3.5733111e-43
0.10914169 -0.015802972 0.15130797 3.5733111e-43
0.094129086 -0.013431523 0.12965596 3.5733111e-43
0.069527879 -0.0095454212 0.12074021 3.5733111e-43
0.10362715 -0.014931873 0.12769862 3.5733111e-43
0.088344857 -0.012517824 0.10624085 3.5733111e-43
0.063634075 -0.0086144134 0.097641289 3.5733111e-43
0.038550142 -0.0046520582 0.10505127 3.5733111e-43
0.10692515 -0.015452839 0.20210712 3.5733111e-43
0.12286931 -0.017971439 0.18114877 3.5733111e-43
0.12394807 -0.018141845 0.15471737 3.5733111e-43
0.10976613 -0.01590161 0.13249877 3.5733111e-43
0.13266529 -0.01951885 0.15900797 3.5733111e-43
0.13341329 -0.019637005 0.13256486 3.5733111e-43
0.11895449 -0.017353041 0.11052991 3.5733111e-43
0.094587401 -0.013503919 0.10097791 3.5733111e-43
0.12849905 -0.018860735 0.10882 3.5733111e-43
0.11376573 -0.016533403 0.086972229 3.5733111e-43
0.089281082 -0.012665714 0.077733465 3.5733111e-43
0.064017572 -0.0086749922 0.084489271 3.5733111e-43
0.096014582 -0.013729363 0.070674844 3.5733111e-43
0.071416311 -0.0098437248 0.061750799 3.5733111e-43
0.04623935 -0.0058666747 0.068830036 3.5733111e-43
0.029709874 -0.0032556152 0.089318335 3.5733111e-43
0.14035368 -0.020733338 0.13011189 3.5733111e-43
0.14177173 -0.02095734 0.10369692 3.5733111e-43
0.12787628 -0.018762361 0.081293561 3.5733111e-43
0.10375936 -0.014952757 0.071111597 3.5733111e-43
0.13746104 -0.020276405 0.079832196 3.5733111e-43
0.12328641 -0.018037327 0.057608824 3.5733111e-43
0.099044025 -0.014207906 0.047736939 3.5733111e-43
0.073617578 -0.010191446 0.053834125 3.5733111e-43
0.10595424 -0.015299469 0.040855598 3.5733111e-43
0.081590287 -0.011450846 0.031295374 3.5733111e-43
0.056242164 -0.0074467584 0.037718128 3.5733111e-43
0.039198767 -0.0047545172 0.057770215 3.5733111e-43
0.057843663 -0.0076997373 0.028039977 3.5733111e-43
0.032577928 -0.0037086643 0.03478726 3.5733111e-43
0.015786773 -0.0010562685 0.055056296 3.5733111e-43
0.013623366 -0.00071452837 0.081419423 3.5733111e-43
-0.03926925 -0.0076403306 0.23650849 3.5733111e-43
-0.014226623 -0.0036846364 0.24406038 3.5733111e-43
0.0105313 0.0002260858 0.23560086 3.5733111e-43
0.025931897 0.0026587399 0.21422996 3.5733111e-43
0.0097013805 9.4993142e-05 0.24537784 3.5733111e-43
0.034351479 0.0039886837 0.23660153 3.5733111e-43
0.049483463 0.0063789082 0.21503486 3.5733111e-43
0.049552176 0.0063897623 0.18858099 3.5733111e-43
0.054483023 0.0071686306 0.22344176 3.5733111e-43
0.069343969 0.0095160427 0.20168278 3.5733111e-43
0.069081709 0.0094746156 0.17523015 3.5733111e-43
0.053792343 0.0070595318 0.15377754 3.5733111e-43
0.078004912 0.010884111 0.17906226 3.5733111e-43
0.077411719 0.01079041 0.15261513 3.5733111e-43
0.061855178 0.0083331252 0.13136029 3.5733111e-43
0.037036043 0.004412733 0.12308668 3.5733111e-43
0.039102245 0.0047391071 0.24228089 3.5733111e-43
0.063966699 0.0086666569 0.23414792 3.5733111e-43
0.079640411 0.011142451 0.21298151 3.5733111e-43
0.080379695 0.011259228 0.18653814 3.5733111e-43
0.084425204 0.011898251 0.22151555 3.5733111e-43
0.09983284 0.014332016 0.20014983 3.5733111e-43
0.10024123 0.014396524 0.17369911 3.5733111e-43
0.08550071 0.012068136 0.15185632 3.5733111e-43
0.10906435 0.015790211 0.17776182 3.5733111e-43
0.10914177 0.015802441 0.15130797 3.5733111e-43
0.09412916 0.013431071 0.12965596 3.5733111e-43
0.069527932 0.0095450999 0.12074021 3.5733111e-43
0.10362723 0.014931371 0.12769862 3.5733111e-43
0.088344924 0.012517404 0.10624085 3.5733111e-43
0.06363412 0.0086141238 0.097641289 3.5733111e-43
0.038550168 0.0046519022 0.10505127 3.5733111e-43
0.10692523 0.01545232 0.20210712 3.5733111e-43
0.1228694 0.017970836 0.18114877 3.5733111e-43
0.12394817 0.018141236 0.15471737 3.5733111e-43
0.10976622 0.015901076 0.13249877 3.5733111e-43
0.1326654 0.019518195 0.15900797 3.5733111e-43
0.13341339 0.019636346 0.13256486 3.5733111e-43
0.11895458 0.017352458 0.11052991 3.5733111e-43
0.094587468 0.013503466 0.10097791 3.5733111e-43
0.12849915 0.0188601 0.10882 3.5733111e-43
0.11376582 0.016532848 0.086972229 3.5733111e-43
0.089281149 0.012665289 0.077733465 3.5733111e-43
0.064017624 0.0086747007 0.084489271 3.5733111e-43
0.096014656 0.013728902 0.070674844 3.5733111e-43
0.071416363 0.0098433942 0.061750799 3.5733111e-43
0.04623938 0.0058664777 0.068830036 3.5733111e-43
0.02970989 0.003255506 0.089318335 3.5733111e-43
0.14035378 0.020732641 0.13011189 3.5733111e-43
0.14177185 0.020956635 0.10369692 3.5733111e-43
0.12787639 0.018761732 0.081293561 3.5733111e-43
0.10375944 0.014952255 0.071111597 3.5733111e-43
0.13746114 0.020275725 0.079832196 3.5733111e-43
0.12328651 0.018036721 0.057608824 3.5733111e-43
0.099044099 0.014207428 0.047736939 3.5733111e-43
0.073617637 0.010191103 0.053834125 3.5733111e-43
0.10595432 0.015298955 0.040855598 3.5733111e-43
0.081590347 0.011450461 0.031295374 3.5733111e-43
0.056242205 0.0074465084 0.037718128 3.5733111e-43
0.03919879 0.0047543575 0.057770215 3.5733111e-43
0.057843704 0.0076994784 0.028039977 3.5733111e-43
0.032577947 0.0037085398 0.03478726 3.5733111e-43
0.015786778 0.001056233 0.055056296 3.5733111e-43
0.01362337 0.00071450439 0.081419423 3.5733111e-43
-0.034559231 -0.022177255 0.23650849 3.5733111e-43
-0.011955162 -0.010695234 0.24406038 3.5733111e-43
0.010391925 0.00065624941 0.23560086 3.5733111e-43
0.024292869 0.0077174087 0.21422996 3.5733111e-43
0.0096428208 0.00027573245 0.24537784 3.5733111e-43
0.031892583 0.011577778 0.23660153 3.5733111e-43
0.045551073 0.018515779 0.21503486 3.5733111e-43
0.045613091 0.018547283 0.18858099 3.5733111e-43
0.050063789 0.020808073 0.22344176 3.5733111e-43
0.063477635 0.027621802 0.20168278 3.5733111e-43
0.063240908 0.027501555 0.17523015 3.5733111e-43
0.049440365 0.020491395 0.15377754 3.5733111e-43
0.071295202 0.031592835 0.17906226 3.5733111e-43
0.070759773 0.031320855 0.15261513 3.5733111e-43
0.056718074 0.024188198 0.13136029 3.5733111e-43
0.034315731 0.012808648 0.12308668 3.5733111e-43
0.036180738 0.013756 0.24228089 3.5733111e-43
0.058623981 0.025156328 0.23414792 3.5733111e-43
0.072771445 0.03234271 0.21298151 3.5733111e-43
0.073438734 0.03268167 0.18653814 3.5733111e-43
0.077090316 0.034536533 0.22151555 3.5733111e-43
0.090997614 0.04160092 0.20014983 3.5733111e-43
0.091366231 0.041788165 0.17369911 3.5733111e-43
0.078061089 0.035029653 0.15185632 3.5733111e-43
0.099330187 0.045833558 0.17776182 3.5733111e-43
0.099400073 0.045869056 0.15130797 3.5733111e-43
0.08584933 0.038985785 0.12965596 3.5733111e-43
0.063643679 0.027706146 0.12074021 3.5733111e-43
0.094422512 0.043340642 0.12769862 3.5733111e-43
0.080628343 0.036333721 0.10624085 3.5733111e-43
0.058323789 0.025003843 0.097641289 3.5733111e-43
0.035682417 0.013502873 0.10505127 3.5733111e-43
0.097399369 0.044852775 0.20210712 3.5733111e-43
0.11179096 0.052163161 0.18114877 3.5733111e-43
0.11276468 0.052657776 0.15471737 3.5733111e-43
0.09996371 0.04615536 0.13249877 3.5733111e-43
0.12063305 0.056654613 0.15900797 3.5733111e-43
0.12130821 0.056997567 0.13256486 3.5733111e-43
0.10825735 0.050368223 0.11052991 3.5733111e-43
0.086263016 0.039195921 0.10097791 3.5733111e-43
0.1168725 0.054744393 0.10882 3.5733111e-43
0.10357385 0.047989178 0.086972229 3.5733111e-43
0.08147341 0.036762983 0.077733465 3.5733111e-43
0.058669943 0.025179675 0.084489271 3.5733111e-43
0.087551229 0.039850283 0.070674844 3.5733111e-43
0.065348223 0.028571991 0.061750799 3.5733111e-43
0.042622883 0.017028369 0.068830036 3.5733111e-43
0.027702976 0.0094496151 0.089318335 3.5733111e-43
0.12757277 0.060179733 0.13011189 3.5733111e-43
0.12885275 0.060829915 0.10369692 3.5733111e-43
0.11631038 0.05445886 0.081293561 3.5733111e-43
0.094541848 0.04340126 0.071111597 3.5733111e-43
0.12496181 0.058853462 0.079832196 3.5733111e-43
0.11216745 0.052354403 0.057608824 3.5733111e-43
0.090285674 0.041239284 0.047736939 3.5733111e-43
0.067335144 0.029581273 0.053834125 3.5733111e-43
0.096523002 0.044407614 0.040855598 3.5733111e-43
0.074531503 0.033236753 0.031295374 3.5733111e-43
0.051651668 0.021614654 0.037718128 3.5733111e-43
0.03626788 0.013800266 0.057770215 3.5733111e-43
0.053097222 0.02234894 0.028039977 3.5733111e-43
0.030291753 0.010764617 0.03478726 3.5733111e-43
0.015135644 0.0030658813 0.055056296 3.5733111e-43
0.013182901 0.0020739608 0.081419423 3.5733111e-43
