# .PCD v0.7 - Point Cloud Data file format
VERSION 0.7
FIELDS x y z rgb
SIZE 4 4 4 4
TYPE F F F F
COUNT 1 1 1 1
WIDTH 981
HEIGHT 1
VIEWPOINT 0 0 0 1 0 0 0
POINTS 981
DATA ascii
0.087756209 0.031051811 0.19530058 3.5733111e-43
0.090646565 0.032192864 0.1878732 3.5733111e-43
0.092220463 0.032814205 0.1800018 3.5733111e-43
0.092424475 0.032894745 0.17195356 3.5733111e-43
0.091251686 0.032431751 0.16400169 3.5733111e-43
0.088741899 0.031440943 0.15641609 3.5733111e-43
0.084980309 0.029955944 0.14945424 3.5733111e-43
0.080094591 0.028027168 0.14335245 3.5733111e-43
0.074250594 0.025720078 0.13831787 3.5733111e-43
0.067646675 0.023112994 0.13452135 3.5733111e-43
0.060507007 0.020294402 0.13209178 3.5733111e-43
0.091811121 0.032652605 0.18059547 3.5733111e-43
0.093357183 0.033262961 0.17271771 3.5733111e-43
0.093532756 0.03333227 0.16466869 3.5733111e-43
0.092331864 0.032858185 0.15672167 3.5733111e-43
0.089795284 0.031856798 0.14914638 3.5733111e-43
0.086009115 0.030362096 0.14219995 3.5733111e-43
0.081101865 0.028424818 0.13611817 3.5733111e-43
0.075240113 0.026110722 0.13110748 3.5733111e-43
0.068622828 0.023498356 0.12733798 3.5733111e-43
0.061474621 0.020676397 0.12493759 3.5733111e-43
0.054038137 0.017740628 0.12398781 3.5733111e-43
0.093234017 0.033214334 0.16533425 3.5733111e-43
0.093381137 0.033272415 0.15728459 3.5733111e-43
0.092152163 0.032787245 0.14934254 3.5733111e-43
0.089588828 0.031775292 0.14177765 3.5733111e-43
0.085778132 0.030270908 0.13484675 3.5733111e-43
0.080849424 0.028325159 0.12878506 3.5733111e-43
0.074969999 0.026004087 0.12379836 3.5733111e-43
0.068339445 0.023386482 0.12005591 3.5733111e-43
0.061182804 0.020561192 0.11768474 3.5733111e-43
0.053743016 0.017624121 0.11676535 3.5733111e-43
0.046272609 0.014674962 0.11732893 3.5733111e-43
0.091974594 0.032717142 0.15005645 3.5733111e-43
0.090717562 0.032220893 0.14211947 3.5733111e-43
0.088127509 0.031198392 0.13456511 3.5733111e-43
0.084292337 0.029684348 0.12764981 3.5733111e-43
0.079342239 0.027730154 0.12160831 3.5733111e-43
0.073445238 0.025402142 0.11664567 3.5733111e-43
0.066801496 0.022779332 0.11293034 3.5733111e-43
0.05963653 0.019950755 0.11058842 3.5733111e-43
0.052193545 0.017012423 0.10969944 3.5733111e-43
0.044725183 0.014064071 0.11029354 3.5733111e-43
0.037484951 0.01120578 0.11235056 3.5733111e-43
0.029988168 0.0082462076 0.24387158 3.5733111e-43
0.037471805 0.01120059 0.24357335 3.5733111e-43
0.044777539 0.01408474 0.24180417 3.5733111e-43
0.05165739 0.016800759 0.23862407 3.5733111e-43
0.057877824 0.019256456 0.23414101 3.5733111e-43
0.063227706 0.021368476 0.22850715 3.5733111e-43
0.067525424 0.023065126 0.22191374 3.5733111e-43
0.070625111 0.024288816 0.21458457 3.5733111e-43
0.072421551 0.024998013 0.20676844 3.5733111e-43
0.072853759 0.025168639 0.19873063 3.5733111e-43
0.071907066 0.024794906 0.19074401 3.5733111e-43
0.044104498 0.013819038 0.24165402 3.5733111e-43
0.051403929 0.016700698 0.23985499 3.5733111e-43
0.058272488 0.019412261 0.23664682 3.5733111e-43
0.064477034 0.021861685 0.23213837 3.5733111e-43
0.069806956 0.023965826 0.22648269 3.5733111e-43
0.074081346 0.025653265 0.21987177 3.5733111e-43
0.077155106 0.026866721 0.21253 3.5733111e-43
0.078923903 0.027565004 0.20470658 3.5733111e-43
0.079327703 0.027724415 0.19666708 3.5733111e-43
0.078352787 0.02733954 0.18868437 3.5733111e-43
0.076032259 0.026423445 0.18102944 3.5733111e-43
0.057585202 0.019140935 0.23663476 3.5733111e-43
0.064442374 0.021848001 0.23339854 3.5733111e-43
0.070630938 0.024291117 0.22886479 3.5733111e-43
0.075940832 0.026387351 0.22318737 3.5733111e-43
0.080191821 0.028065553 0.21655904 3.5733111e-43
0.083239615 0.029268755 0.20920476 3.5733111e-43
0.084980749 0.029956117 0.20137417 3.5733111e-43
0.085356124 0.030104309 0.19333307 3.5733111e-43
0.084353 0.029708298 0.18535441 3.5733111e-43
0.082005434 0.028781528 0.17770901 3.5733111e-43
0.078393102 0.027355455 0.17065638 3.5733111e-43
0.069953702 0.024023758 0.22899127 3.5733111e-43
0.076126195 0.026460528 0.22443226 3.5733111e-43
0.081415989 0.028548827 0.21873321 3.5733111e-43
0.085643522 0.030217767 0.21208754 3.5733111e-43
0.088665292 0.031410698 0.20472087 3.5733111e-43
0.090378739 0.032087132 0.19688322 3.5733111e-43
0.09072569 0.0322241 0.18884064 3.5733111e-43
0.089694373 0.031816959 0.18086614 3.5733111e-43
0.087319799 0.030879527 0.17323038 3.5733111e-43
0.083682567 0.029443625 0.16619256 3.5733111e-43
0.078906141 0.027557991 0.15999158 3.5733111e-43
0.08077275 0.028294889 0.21899374 3.5733111e-43
0.086042359 0.03037522 0.21327311 3.5733111e-43
0.090246364 0.032034874 0.20661023 3.5733111e-43
0.093242079 0.03321752 0.19923127 3.5733111e-43
0.09492781 0.033883009 0.19138667 3.5733111e-43
0.09524633 0.034008756 0.18334274 3.5733111e-43
0.094186842 0.033590488 0.17537251 3.5733111e-43
0.091785297 0.032642409 0.1677465 3.5733111e-43
0.08812321 0.031196697 0.1607236 3.5733111e-43
0.083324902 0.029302426 0.15454218 3.5733111e-43
0.077553228 0.027023891 0.14941204 3.5733111e-43
0.089659855 0.031803332 0.20699562 3.5733111e-43
0.093840286 0.033453677 0.20031561 3.5733111e-43
0.096809901 0.034626018 0.19292445 3.5733111e-43
0.098467886 0.035280555 0.18507303 3.5733111e-43
0.098757975 0.035395078 0.17702787 3.5733111e-43
0.097670324 0.034965694 0.169062 3.5733111e-43
0.095241837 0.034006979 0.16144587 3.5733111e-43
0.091554962 0.032551479 0.15443799 3.5733111e-43
0.086734839 0.030648595 0.14827619 3.5733111e-43
0.080945075 0.028362921 0.14316969 3.5733111e-43
0.074382208 0.025772037 0.13929178 3.5733111e-43
0.096300855 0.034425057 0.19342107 3.5733111e-43
0.099244319 0.035587076 0.18601783 3.5733111e-43
0.10087455 0.036230654 0.1781597 3.5733111e-43
0.1011362 0.036333948 0.17011338 3.5733111e-43
0.10002039 0.035893455 0.16215204 3.5733111e-43
0.09756501 0.03492412 0.15454589 3.5733111e-43
0.093853392 0.033458851 0.1475531 3.5733111e-43
0.08901152 0.031547382 0.14141105 3.5733111e-43
0.083203755 0.029254599 0.13632824 3.5733111e-43
0.076627225 0.026658323 0.13247716 3.5733111e-43
0.06950517 0.023846686 0.12998855 3.5733111e-43
0.10046097 0.036067382 0.17874996 3.5733111e-43
0.10206341 0.036699992 0.17088522 3.5733111e-43
0.10229662 0.036792058 0.16283791 3.5733111e-43
0.10115268 0.036340456 0.15488118 3.5733111e-43
0.09867043 0.035360515 0.1472851 3.5733111e-43
0.094934121 0.033885501 0.14030755 3.5733111e-43
0.090070575 0.031965476 0.13418531 3.5733111e-43
0.084244885 0.029665615 0.12912627 3.5733111e-43
0.077654794 0.027063986 0.12530208 3.5733111e-43
0.070523992 0.024248896 0.12284259 3.5733111e-43
0.063094527 0.021315901 0.12183128 3.5733111e-43
0.10199312 0.036672246 0.16350098 3.5733111e-43
0.10219789 0.036753081 0.15545277 3.5733111e-43
0.10102583 0.036290381 0.14750077 3.5733111e-43
0.098516755 0.035299849 0.1399149 3.5733111e-43
0.094755813 0.033815108 0.13295265 3.5733111e-43
0.089870661 0.031886555 0.12685034 3.5733111e-43
0.084027134 0.029579651 0.12181512 3.5733111e-43
0.077423573 0.026972704 0.11801789 3.5733111e-43
0.070284128 0.024154203 0.11558755 3.5733111e-43
0.062851146 0.021219818 0.1146066 3.5733111e-43
0.055376925 0.018269153 0.11510832 3.5733111e-43
0.10084315 0.036218263 0.14821319 3.5733111e-43
0.099643007 0.03574447 0.14026605 3.5733111e-43
0.097107135 0.034743361 0.13269047 3.5733111e-43
0.093321607 0.033248913 0.12574364 3.5733111e-43
0.088414922 0.031311858 0.11966133 3.5733111e-43
0.08255364 0.028997947 0.11465002 3.5733111e-43
0.075936705 0.026385721 0.11087979 3.5733111e-43
0.068788722 0.023563849 0.10847864 3.5733111e-43
0.061352324 0.020628115 0.10752806 3.5733111e-43
0.053879932 0.017678171 0.10806032 3.5733111e-43
0.046625182 0.014814151 0.11005735 3.5733111e-43
0.097051725 0.034721486 0.13342707 3.5733111e-43
0.09448909 0.033709809 0.12586191 3.5733111e-43
0.090679035 0.032205682 0.11893059 3.5733111e-43
0.085750893 0.030260155 0.11286838 3.5733111e-43
0.079871938 0.027939267 0.10788105 3.5733111e-43
0.073241718 0.025321798 0.10413789 3.5733111e-43
0.066085301 0.022496596 0.10176595 3.5733111e-43
0.058645602 0.019559558 0.10084576 3.5733111e-43
0.051175144 0.016610378 0.10140854 3.5733111e-43
0.043927506 0.013749165 0.1034352 3.5733111e-43
0.037148699 0.011073035 0.10685693 3.5733111e-43
0.051747315 0.01683626 0.23768662 3.5733111e-43
0.059059411 0.019722922 0.23594807 3.5733111e-43
0.065950744 0.022443475 0.23279685 3.5733111e-43
0.072187394 0.024905574 0.2283399 3.5733111e-43
0.077557668 0.027025644 0.22272852 3.5733111e-43
0.081879281 0.028731724 0.21615317 3.5733111e-43
0.085005529 0.029965902 0.20883706 3.5733111e-43
0.086830311 0.030686285 0.20102851 3.5733111e-43
0.087291673 0.030868422 0.1929926 3.5733111e-43
0.086373962 0.030506128 0.18500206 3.5733111e-43
0.084108323 0.029611705 0.17732814 3.5733111e-43
0.065263562 0.02217219 0.23277912 3.5733111e-43
0.072143711 0.024888327 0.22959974 3.5733111e-43
0.078364566 0.02734419 0.22511736 3.5733111e-43
0.083714962 0.029456414 0.21948408 3.5733111e-43
0.088013299 0.031153306 0.21289112 3.5733111e-43
0.091113672 0.032377269 0.20556229 3.5733111e-43
0.092910834 0.033086751 0.19774635 3.5733111e-43
0.093343794 0.033257671 0.18970859 3.5733111e-43
0.092397846 0.032884233 0.18172187 3.5733111e-43
0.090105101 0.031979106 0.17405726 3.5733111e-43
0.086543389 0.030573016 0.16697493 3.5733111e-43
0.077686444 0.027076481 0.22523822 3.5733111e-43
0.083891407 0.02952607 0.22073045 3.5733111e-43
0.089221857 0.031630419 0.21507534 3.5733111e-43
0.093496859 0.033318102 0.20846489 3.5733111e-43
0.096571304 0.034531824 0.20112345 3.5733111e-43
0.098340832 0.035230398 0.19330022 3.5733111e-43
0.098745376 0.035390101 0.18526076 3.5733111e-43
0.097771205 0.035005521 0.17727794 3.5733111e-43
0.095451385 0.034089707 0.16962276 3.5733111e-43
0.091864668 0.032673746 0.16255504 3.5733111e-43
0.087132789 0.030805701 0.1563147 3.5733111e-43
0.088576771 0.031375751 0.21533056 3.5733111e-43
0.093887195 0.033472195 0.20965372 3.5733111e-43
0.098138802 0.03515064 0.20302585 3.5733111e-43
0.10118727 0.036354113 0.19567189 3.5733111e-43
0.10292914 0.037041765 0.18784149 3.5733111e-43
0.10330526 0.037190251 0.17980044 3.5733111e-43
0.10230288 0.036794532 0.17182165 3.5733111e-43
0.099956028 0.035868041 0.164176 3.5733111e-43
0.096344352 0.034442227 0.157123 3.5733111e-43
0.091590449 0.032565489 0.15090203 3.5733111e-43
0.085855693 0.03030153 0.14572427 3.5733111e-43
0.09754955 0.034918018 0.20340636 3.5733111e-43
0.1017777 0.036587201 0.19676116 3.5733111e-43
0.10480016 0.037780404 0.1893948 3.5733111e-43
0.10651433 0.038457122 0.18155734 3.5733111e-43
0.10686203 0.038594387 0.17351481 3.5733111e-43
0.10583146 0.038187537 0.16554019 3.5733111e-43
0.10345759 0.037250388 0.15790418 3.5733111e-43
0.099821016 0.035814743 0.15086597 3.5733111e-43
0.095045164 0.033929337 0.14466447 3.5733111e-43
0.089292146 0.031658169 0.13951018 3.5733111e-43
0.082757242 0.029078327 0.13557805 3.5733111e-43
0.10428757 0.037578046 0.18988718 3.5733111e-43
0.10728397 0.03876096 0.18250854 3.5733111e-43
0.10897043 0.039426737 0.17466412 3.5733111e-43
0.1092897 0.039552782 0.16662022 3.5733111e-43
0.10823095 0.039134808 0.15864988 3.5733111e-43
0.10583011 0.038187008 0.15102363 3.5733111e-43
0.10216869 0.036741555 0.14400032 3.5733111e-43
0.097370945 0.034847509 0.13781838 3.5733111e-43
0.091599755 0.032569163 0.13268763 3.5733111e-43
0.085051 0.029983854 0.12878223 3.5733111e-43
0.077946983 0.027179336 0.12623474 3.5733111e-43
0.10855263 0.039261803 0.17525096 3.5733111e-43
0.11021135 0.039916631 0.16739972 3.5733111e-43
0.11050219 0.040031448 0.15935457 3.5733111e-43
0.10941528 0.039602354 0.1513886 3.5733111e-43
0.1069875 0.038643923 0.14377221 3.5733111e-43
0.10330128 0.037188675 0.13676393 3.5733111e-43
0.098481722 0.03528602 0.13060163 3.5733111e-43
0.092692435 0.033000533 0.12549448 3.5733111e-43
0.086129926 0.030409791 0.12161587 3.5733111e-43
0.079016954 0.027601739 0.11909743 3.5733111e-43
0.071594954 0.024671691 0.11802464 3.5733111e-43
0.11019396 0.039909761 0.16001511 3.5733111e-43
0.11045635 0.040013351 0.15196884 3.5733111e-43
0.10934129 0.039573148 0.14400737 3.5733111e-43
0.10688662 0.038604096 0.13640095 3.5733111e-43
0.10317565 0.03713908 0.12940776 3.5733111e-43
0.09833435 0.035227839 0.1232652 3.5733111e-43
0.092527054 0.032935239 0.11818176 3.5733111e-43
0.085950881 0.030339107 0.11432997 3.5733111e-43
0.078829058 0.027527561 0.11184061 3.5733111e-43
0.071403317 0.024596037 0.11079815 3.5733111e-43
0.063925728 0.021644041 0.11123799 3.5733111e-43
0.10915352 0.039499018 0.14471826 3.5733111e-43
0.10801032 0.039047707 0.13676141 3.5733111e-43
0.10552878 0.038068049 0.12916507 3.5733111e-43
0.10179312 0.036593288 0.1221871 3.5733111e-43
0.096930139 0.034673486 0.11606435 3.5733111e-43
0.091104917 0.032373812 0.11100467 3.5733111e-43
0.084515184 0.029772323 0.10717978 3.5733111e-43
0.077384613 0.026957324 0.10471953 3.5733111e-43
0.069955245 0.024024365 0.10370742 3.5733111e-43
0.062479258 0.021073004 0.1041778 3.5733111e-43
0.055210423 0.018203422 0.10611472 3.5733111e-43
0.10546809 0.038044091 0.12990119 3.5733111e-43
0.10295971 0.037053835 0.12231504 3.5733111e-43
0.099199422 0.035569351 0.11535238 3.5733111e-43
0.094314836 0.033641022 0.10924955 3.5733111e-43
0.088471778 0.031334303 0.10421371 3.5733111e-43
0.081868567 0.028727496 0.10041577 3.5733111e-43
0.074729353 0.025909083 0.097984664 3.5733111e-43
0.06729646 0.022974735 0.097002909 3.5733111e-43
0.059822191 0.020024052 0.097503833 3.5733111e-43
0.052560255 0.017157191 0.099470429 3.5733111e-43
0.045757141 0.014471467 0.10283595 3.5733111e-43
0.099267974 0.035596415 0.1160877 3.5733111e-43
0.095483094 0.034102224 0.10914046 3.5733111e-43
0.090576977 0.032165393 0.10305763 3.5733111e-43
0.084716156 0.029851664 0.098045684 3.5733111e-43
0.078099571 0.027239576 0.094274752 3.5733111e-43
0.070951819 0.024417793 0.091872834 3.5733111e-43
0.063515507 0.021482095 0.090921454 3.5733111e-43
0.056043066 0.018532133 0.091452904 3.5733111e-43
0.04878813 0.015668036 0.09344916 3.5733111e-43
0.041996963 0.012987028 0.096842445 3.5733111e-43
0.035900086 0.010580109 0.10151759 3.5733111e-43
0.072119236 0.024878666 0.22740033 3.5733111e-43
0.079021953 0.027603712 0.22427802 3.5733111e-43
0.085274726 0.030072173 0.21984725 3.5733111e-43
0.090665311 0.032200266 0.21425843 3.5733111e-43
0.095010735 0.033915747 0.20770127 3.5733111e-43
0.098163508 0.035160393 0.20039831 3.5733111e-43
0.10001659 0.035891954 0.19259748 3.5733111e-43
0.1005071 0.036085598 0.18456355 3.5733111e-43
0.099618383 0.03573475 0.17656922 3.5733111e-43
0.097380608 0.03485132 0.16888586 3.5733111e-43
0.093869723 0.0334653 0.16177426 3.5733111e-43
0.084595755 0.029804131 0.21996251 3.5733111e-43
0.090832822 0.032266393 0.21550623 3.5733111e-43
0.096203618 0.034386672 0.20989543 3.5733111e-43
0.10052583 0.036092993 0.20332055 3.5733111e-43
0.10365277 0.037327439 0.19600478 3.5733111e-43
0.10547827 0.038048107 0.18819642 3.5733111e-43
0.10594038 0.038230538 0.18016055 3.5733111e-43
0.10502341 0.037868541 0.17216991 3.5733111e-43
0.10275849 0.036974397 0.16449575 3.5733111e-43
0.099222496 0.035578463 0.15739855 3.5733111e-43
0.094535455 0.033728115 0.15111922 3.5733111e-43
0.095556721 0.034131289 0.21014528 3.5733111e-43
0.10090765 0.036243722 0.20451258 3.5733111e-43
0.10520659 0.037940856 0.1979201 3.5733111e-43
0.10830764 0.039165083 0.19059159 3.5733111e-43
0.11010554 0.039874855 0.18277584 3.5733111e-43
0.11053924 0.040046073 0.17473814 3.5733111e-43
0.10959403 0.039672926 0.16675131 3.5733111e-43
0.107302 0.038768079 0.15908645 3.5733111e-43
0.10374095 0.037362251 0.15200375 3.5733111e-43
0.099031746 0.035503156 0.14574361 3.5733111e-43
0.093334243 0.033253904 0.14051853 3.5733111e-43
0.10461463 0.037707161 0.19829573 3.5733111e-43
0.10889025 0.039395086 0.19168572 3.5733111e-43
0.11196537 0.04060908 0.1843446 3.5733111e-43
0.11373563 0.041307937 0.17652157 3.5733111e-43
0.11414092 0.041467939 0.16848214 3.5733111e-43
0.11316749 0.041083653 0.16049923 3.5733111e-43
0.11084839 0.040168118 0.1528438 3.5733111e-43
0.10726233 0.038752414 0.14577569 3.5733111e-43
0.10253103 0.036884598 0.13953485 3.5733111e-43
0.096815102 0.034628071 0.13433307 3.5733111e-43
0.090308554 0.032059424 0.13034697 3.5733111e-43
0.11144928 0.040405337 0.18483272 3.5733111e-43
0.11449844 0.041609079 0.1774791 3.5733111e-43
0.11624102 0.042297017 0.16964889 3.5733111e-43
0.1166179 0.042445797 0.16160786 3.5733111e-43
0.11561626 0.042050373 0.15362899 3.5733111e-43
0.11327012 0.041124165 0.14598309 3.5733111e-43
0.1096591 0.039698612 0.13892968 3.5733111e-43
0.10490578 0.037822101 0.13270821 3.5733111e-43
0.099171504 0.035558328 0.12752983 3.5733111e-43
0.09265092 0.032984141 0.12357033 3.5733111e-43
0.085565351 0.030186908 0.12096412 3.5733111e-43
0.11581904 0.042130426 0.17023224 3.5733111e-43
0.11753394 0.042807434 0.16239497 3.5733111e-43
0.11788239 0.042944994 0.15435247 3.5733111e-43
0.11685256 0.042538438 0.14637774 3.5733111e-43
0.11447941 0.041601568 0.13874148 3.5733111e-43
0.11084349 0.040166181 0.13170287 3.5733111e-43
0.10606821 0.038281005 0.12550086 3.5733111e-43
0.10031568 0.036010023 0.12034595 3.5733111e-43
0.093781136 0.033430327 0.11641312 3.5733111e-43
0.08668641 0.030629478 0.11383586 3.5733111e-43
0.079272315 0.027702549 0.11270167 3.5733111e-43
0.11756944 0.042821445 0.15501043 3.5733111e-43
0.11788946 0.042947784 0.14696656 3.5733111e-43
0.11683144 0.042530101 0.13899611 3.5733111e-43
0.11443132 0.041582584 0.13136959 3.5733111e-43
0.11077055 0.040137388 0.1243459 3.5733111e-43
0.10597339 0.038243569 0.11816344 3.5733111e-43
0.10020266 0.035965409 0.11303207 3.5733111e-43
0.093654275 0.033380244 0.10912596 3.5733111e-43
0.086550497 0.030575821 0.10657771 3.5733111e-43
0.079132445 0.027647331 0.10547381 3.5733111e-43
0.071651921 0.024694178 0.10585173 3.5733111e-43
0.11663858 0.042453963 0.13970542 3.5733111e-43
0.11555241 0.042025164 0.13173933 3.5733111e-43
0.11312534 0.041067012 0.12412269 3.5733111e-43
0.10943977 0.039612025 0.117114 3.5733111e-43
0.10462078 0.037709594 0.11095118 3.5733111e-43
0.098831974 0.035424292 0.10584342 3.5733111e-43
0.09226983 0.032833695 0.10196409 3.5733111e-43
0.085157089 0.030025735 0.099444889 3.5733111e-43
0.077735193 0.027095726 0.098371305 3.5733111e-43
0.070256062 0.024143122 0.098779783 3.5733111e-43
0.062973566 0.021268148 0.10065647 3.5733111e-43
0.11305939 0.041040972 0.12485828 3.5733111e-43
0.11060542 0.040072199 0.1172516 3.5733111e-43
0.1068951 0.038607441 0.11025801 3.5733111e-43
0.10205437 0.036696427 0.10411493 3.5733111e-43
0.096247546 0.034404013 0.09903086 3.5733111e-43
0.089671738 0.031808022 0.095178373 3.5733111e-43
0.082550146 0.028996568 0.09268824 3.5733111e-43
0.075124502 0.026065081 0.09164498 3.5733111e-43
0.067646869 0.023113068 0.09208402 3.5733111e-43
0.060371064 0.020240733 0.093990438 3.5733111e-43
0.053544048 0.017545573 0.097299539 3.5733111e-43
0.10695839 0.038632426 0.11099388 3.5733111e-43
0.10322338 0.037157923 0.10401551 3.5733111e-43
0.098360971 0.035238348 0.097892247 3.5733111e-43
0.092536218 0.03293886 0.092831932 3.5733111e-43
0.085946836 0.030337511 0.089006335 3.5733111e-43
0.078816496 0.027522601 0.086545318 3.5733111e-43
0.071387224 0.02458968 0.085532404 3.5733111e-43
0.063911192 0.021638302 0.086001985 3.5733111e-43
0.056642175 0.018768648 0.087938122 3.5733111e-43
0.049826909 0.016078124 0.091275088 3.5733111e-43
0.043696728 0.013658058 0.095899619 3.5733111e-43
0.098551266 0.035313472 0.098602369 3.5733111e-43
0.093667246 0.033385366 0.09249901 3.5733111e-43
0.087824658 0.031078834 0.08746253 3.5733111e-43
0.081221797 0.028472165 0.083663881 3.5733111e-43
0.074082807 0.025653843 0.081232011 3.5733111e-43
0.066650011 0.02271953 0.080249459 3.5733111e-43
0.059175696 0.019768829 0.080749579 3.5733111e-43
0.051913574 0.016901895 0.082715392 3.5733111e-43
0.045110151 0.014216048 0.086080179 3.5733111e-43
0.038996357 0.011802452 0.090729721 3.5733111e-43
0.033779725 0.0097430339 0.096506193 3.5733111e-43
0.090441287 0.032111824 0.2133473 3.5733111e-43
0.096710078 0.034586612 0.20894279 3.5733111e-43
0.10212091 0.03672269 0.20337662 3.5733111e-43
0.10649008 0.038447551 0.19683771 3.5733111e-43
0.10966932 0.039702646 0.18954805 3.5733111e-43
0.11155069 0.040445372 0.18175504 3.5733111e-43
0.11207034 0.040650517 0.17372322 3.5733111e-43
0.11121063 0.040311124 0.16572523 3.5733111e-43
0.10900073 0.039438706 0.15803255 3.5733111e-43
0.10551568 0.038062878 0.15090629 3.5733111e-43
0.10087375 0.036230341 0.14458835 3.5733111e-43
0.10147224 0.03646661 0.20362112 3.5733111e-43
0.10686334 0.038594905 0.19803287 3.5733111e-43
0.11120938 0.040310629 0.19147617 3.5733111e-43
0.11436283 0.041555542 0.18417355 3.5733111e-43
0.11621664 0.042287391 0.17637292 3.5733111e-43
0.1167079 0.042481329 0.16833904 3.5733111e-43
0.11581992 0.042130776 0.16034463 3.5733111e-43
0.11358286 0.041247629 0.15266103 3.5733111e-43
0.11007264 0.039861865 0.14554906 3.5733111e-43
0.10540841 0.038020529 0.13925011 3.5733111e-43
0.099748492 0.035786115 0.13397802 3.5733111e-43
0.11061475 0.04007588 0.19184688 3.5733111e-43
0.11493758 0.041782442 0.18527247 3.5733111e-43
0.11806519 0.04301716 0.17795703 3.5733111e-43
0.11989142 0.043738116 0.17014888 3.5733111e-43
0.12035428 0.043920841 0.16211306 3.5733111e-43
0.11943805 0.043559134 0.15412232 3.5733111e-43
0.11717384 0.042665273 0.14644791 3.5733111e-43
0.11363851 0.0412696 0.13935034 3.5733111e-43
0.10895205 0.039419483 0.1330705 3.5733111e-43
0.10327355 0.03717773 0.12782156 3.5733111e-43
0.096795745 0.03462043 0.12378172 3.5733111e-43
0.11754561 0.042812042 0.17844087 3.5733111e-43
0.12064735 0.044036541 0.1711127 3.5733111e-43
0.12244596 0.044746596 0.16329715 3.5733111e-43
0.12288041 0.044918109 0.15525949 3.5733111e-43
0.12193596 0.044545256 0.14727256 3.5733111e-43
0.11964464 0.043640692 0.13960744 3.5733111e-43
0.11608425 0.042235121 0.13252437 3.5733111e-43
0.11137562 0.040376257 0.12626372 3.5733111e-43
0.1056786 0.038127195 0.12103803 3.5733111e-43
0.099186569 0.035564277 0.11702468 3.5733111e-43
0.09211988 0.032774497 0.11435988 3.5733111e-43
0.12201981 0.044578362 0.16387698 3.5733111e-43
0.12379079 0.045277506 0.15605414 3.5733111e-43
0.12419683 0.045437802 0.14801477 3.5733111e-43
0.12322415 0.045053806 0.14003174 3.5733111e-43
0.12090576 0.044138554 0.13237606 3.5733111e-43
0.11732035 0.042723112 0.12530757 3.5733111e-43
0.11258964 0.040855527 0.11906622 3.5733111e-43
0.10687419 0.038599189 0.11386383 3.5733111e-43
0.10036802 0.036030687 0.10987703 3.5733111e-43
0.093291961 0.033237211 0.10724112 3.5733111e-43
0.08588621 0.030313574 0.10604558 3.5733111e-43
0.12387918 0.045312397 0.14867012 3.5733111e-43
0.1242568 0.045461476 0.14062914 3.5733111e-43
0.1232559 0.045066342 0.13265015 3.5733111e-43
0.12091047 0.044140413 0.12500399 3.5733111e-43
0.11730011 0.042715121 0.11795021 3.5733111e-43
0.11254737 0.040838838 0.11172822 3.5733111e-43
0.10681357 0.038575258 0.10654923 3.5733111e-43
0.10029335 0.036001213 0.10258903 3.5733111e-43
0.09320803 0.033204075 0.099982053 3.5733111e-43
0.085798107 0.030278793 0.098816775 3.5733111e-43
0.078315094 0.02732466 0.099132769 3.5733111e-43
0.12305796 0.0449882 0.13335785 3.5733111e-43
0.12202887 0.044581939 0.12538302 3.5733111e-43
0.11965643 0.043645348 0.1177465 3.5733111e-43
0.11602116 0.042210221 0.11070751 3.5733111e-43
0.11124647 0.040325269 0.10450498 3.5733111e-43
0.10549441 0.038054477 0.099349454 3.5733111e-43
0.098960236 0.035474926 0.09541592 3.5733111e-43
0.091865756 0.032674175 0.092837907 3.5733111e-43
0.084451765 0.029747287 0.091702916 3.5733111e-43
0.076969929 0.026793616 0.092049472 3.5733111e-43
0.069674209 0.023913419 0.093865812 3.5733111e-43
0.11958521 0.04361723 0.11848152 3.5733111e-43
0.11718579 0.042669993 0.11085475 3.5733111e-43
0.11352567 0.041225053 0.10383067 3.5733111e-43
0.10872909 0.039331462 0.097647689 3.5733111e-43
0.10295885 0.037053492 0.0925157 3.5733111e-43
0.096410826 0.034468472 0.088608891 3.5733111e-43
0.089307278 0.031664141 0.086059876 3.5733111e-43
0.081889324 0.02873569 0.084955178 3.5733111e-43
0.07440877 0.025782526 0.085332297 3.5733111e-43
0.067119524 0.022904884 0.087178439 3.5733111e-43
0.060269013 0.020200448 0.090430923 3.5733111e-43
0.11358369 0.041247956 0.10456704 3.5733111e-43
0.10989877 0.039793227 0.097557947 3.5733111e-43
0.10508036 0.037891023 0.091394618 3.5733111e-43
0.099292025 0.035605907 0.086286232 3.5733111e-43
0.092730239 0.033015452 0.0824062 3.5733111e-43
0.085617736 0.030207587 0.079886228 3.5733111e-43
0.07819593 0.027277617 0.078811847 3.5733111e-43
0.070716761 0.024324998 0.079219528 3.5733111e-43
0.063434094 0.021449955 0.081095427 3.5733111e-43
0.056595132 0.018750075 0.084375881 3.5733111e-43
0.050432011 0.016317006 0.088949524 3.5733111e-43
0.10526557 0.037964135 0.09210629 3.5733111e-43
0.10042541 0.036053345 0.085962683 3.5733111e-43
0.094619058 0.033761121 0.08087799 3.5733111e-43
0.0880436 0.03116527 0.077024795 3.5733111e-43
0.080922239 0.028353905 0.074533895 3.5733111e-43
0.073496699 0.025422458 0.073489837 3.5733111e-43
0.066019021 0.02247043 0.073928073 3.5733111e-43
0.058743037 0.019598024 0.075833715 3.5733111e-43
0.05191572 0.016902743 0.079142079 3.5733111e-43
0.045768809 0.014476072 0.083740868 3.5733111e-43
0.040510956 0.012400383 0.089473985 3.5733111e-43
0.094924897 0.033881858 0.08153981 3.5733111e-43
0.089100614 0.031582557 0.076478869 3.5733111e-43
0.082511589 0.028981348 0.072652571 3.5733111e-43
0.07538148 0.026166528 0.07019078 3.5733111e-43
0.067952298 0.023233645 0.069177069 3.5733111e-43
0.060476225 0.02028225 0.069645852 3.5733111e-43
0.053207029 0.017412525 0.0715812 3.5733111e-43
0.04639145 0.014721878 0.074917436 3.5733111e-43
0.04026084 0.012301642 0.079541303 3.5733111e-43
0.035023291 0.010233968 0.085295863 3.5733111e-43
0.030856583 0.0085890405 0.091985777 3.5733111e-43
0.10611748 0.038300455 0.19598468 3.5733111e-43
0.11154845 0.040444486 0.19044122 3.5733111e-43
0.11594132 0.042178698 0.1839207 3.5733111e-43
0.11914697 0.043444224 0.1766444 3.5733111e-43
0.1210566 0.044198103 0.16885935 3.5733111e-43
0.12160538 0.044414751 0.16082977 3.5733111e-43
0.12077469 0.04408681 0.15282823 3.5733111e-43
0.11859272 0.043225415 0.14512634 3.5733111e-43
0.11513354 0.041859806 0.13798553 3.5733111e-43
0.11051456 0.040036328 0.13164817 3.5733111e-43
0.10489257 0.03781689 0.12632938 3.5733111e-43
0.11534405 0.041942909 0.18428648 3.5733111e-43
0.11971384 0.043668009 0.17774804 3.5733111e-43
0.12289375 0.044923373 0.1704587 3.5733111e-43
0.12477585 0.045666385 0.1626659 3.5733111e-43
0.12529625 0.045871824 0.15463415 3.5733111e-43
0.12443727 0.045532722 0.14663607 3.5733111e-43
0.1222281 0.044660587 0.13894315 3.5733111e-43
0.1187437 0.04328502 0.13181651 3.5733111e-43
0.11410236 0.041452717 0.12549807 3.5733111e-43
0.10846162 0.039225869 0.12020229 3.5733111e-43
0.10201294 0.036680069 0.11610893 3.5733111e-43
0.12237072 0.044716891 0.17093822 3.5733111e-43
0.12552485 0.045962073 0.16363595 3.5733111e-43
0.12737939 0.046694208 0.15583552 3.5733111e-43
0.12787139 0.046888441 0.1478017 3.5733111e-43
0.12698416 0.046538182 0.13980718 3.5733111e-43
0.12474781 0.045655318 0.13212334 3.5733111e-43
0.12123825 0.044269815 0.125011 3.5733111e-43
0.11657461 0.04242871 0.11871155 3.5733111e-43
0.11091518 0.040194489 0.11343886 3.5733111e-43
0.10445209 0.037642993 0.10937188 3.5733111e-43
0.097404696 0.034860831 0.10664865 3.5733111e-43
0.1269491 0.046524338 0.15641183 3.5733111e-43
0.12877606 0.047245581 0.14860387 3.5733111e-43
0.12923966 0.047428604 0.14056809 3.5733111e-43
0.12832418 0.047067191 0.13257726 3.5733111e-43
0.12606068 0.04617361 0.12490261 3.5733111e-43
0.12252601 0.044778198 0.11780465 3.5733111e-43
0.11784013 0.042928312 0.11152431 3.5733111e-43
0.11216212 0.040686753 0.10627477 3.5733111e-43
0.10568469 0.038129598 0.10223422 3.5733111e-43
0.098627724 0.035343654 0.099539816 3.5733111e-43
0.09123075 0.032423489 0.098283008 3.5733111e-43
0.12891732 0.047301348 0.14122079 3.5733111e-43
0.12935251 0.047473155 0.13318318 3.5733111e-43
0.12840879 0.047100596 0.12519614 3.5733111e-43
0.1261182 0.046196315 0.1175308 3.5733111e-43
0.12255846 0.044791006 0.11044733 3.5733111e-43
0.11785042 0.042932373 0.10418618 3.5733111e-43
0.11215389 0.0406835 0.098959878 3.5733111e-43
0.10566223 0.038120728 0.094945826 3.5733111e-43
0.098595783 0.035331048 0.092280269 3.5733111e-43
0.091194421 0.032409146 0.091053687 3.5733111e-43
0.083709374 0.029454207 0.091307722 3.5733111e-43
0.12820579 0.047020454 0.12590219 3.5733111e-43
0.12723385 0.046636753 0.11791907 3.5733111e-43
0.12491617 0.045721781 0.11026313 3.5733111e-43
0.12133142 0.044306599 0.10319426 3.5733111e-43
0.11660129 0.042439241 0.096952394 3.5733111e-43
0.11088633 0.040183097 0.0917494 3.5733111e-43
0.10438053 0.03761474 0.087761894 3.5733111e-43
0.097304709 0.034821361 0.085125223 3.5733111e-43
0.089899071 0.031897768 0.083928891 3.5733111e-43
0.082414977 0.028943205 0.084213503 3.5733111e-43
0.075106464 0.02605796 0.085969396 3.5733111e-43
0.12483969 0.045691587 0.11099755 3.5733111e-43
0.12249497 0.044765942 0.10335114 3.5733111e-43
0.11888526 0.043340907 0.096296966 3.5733111e-43
0.1141331 0.04146485 0.090074465 3.5733111e-43
0.10839979 0.039201461 0.084894858 3.5733111e-43
0.10187994 0.036627561 0.080933958 3.5733111e-43
0.094794855 0.03383052 0.07832621 3.5733111e-43
0.087385036 0.030905282 0.077160142 3.5733111e-43
0.079902001 0.027951138 0.077475324 3.5733111e-43
0.072599754 0.025068363 0.079261065 3.5733111e-43
0.065726154 0.02235481 0.082456745 3.5733111e-43
0.118938 0.043361727 0.097033791 3.5733111e-43
0.11530339 0.041926857 0.089994408 3.5733111e-43
0.11052927 0.040042136 0.083791368 3.5733111e-43
0.10477769 0.037771534 0.078635223 3.5733111e-43
0.098243885 0.035192125 0.074700989 3.5733111e-43
0.091149636 0.032391466 0.072122209 3.5733111e-43
0.083735757 0.029464621 0.07098642 3.5733111e-43
0.076253884 0.026510937 0.071332172 3.5733111e-43
0.068957999 0.023630675 0.073147729 3.5733111e-43
0.062095743 0.020921601 0.076371469 3.5733111e-43
0.055900048 0.018475672 0.080893956 3.5733111e-43
0.11070936 0.040113233 0.084504552 3.5733111e-43
0.10591336 0.038219869 0.078321062 3.5733111e-43
0.10014359 0.035942089 0.073188446 3.5733111e-43
0.093595929 0.03335721 0.069280937 3.5733111e-43
0.08649262 0.030552974 0.066731162 3.5733111e-43
0.079074778 0.027624564 0.065625668 3.5733111e-43
0.071594186 0.024671385 0.066001981 3.5733111e-43
0.064304769 0.021793677 0.067847334 3.5733111e-43
0.057453953 0.019089121 0.071099088 3.5733111e-43
0.051274288 0.01664952 0.075646855 3.5733111e-43
0.045975532 0.014557682 0.081336275 3.5733111e-43
0.10044468 0.036060955 0.073852785 3.5733111e-43
0.094656825 0.03377603 0.06874378 3.5733111e-43
0.088095397 0.031185716 0.064863048 3.5733111e-43
0.080983125 0.028377941 0.062342308 3.5733111e-43
0.073561423 0.025448011 0.061267126 3.5733111e-43
0.066082217 0.022495378 0.061674003 3.5733111e-43
0.058799375 0.019620266 0.063549124 3.5733111e-43
0.051960107 0.016920267 0.066828839 3.5733111e-43
0.045796562 0.014487028 0.07140182 3.5733111e-43
0.040517952 0.012403145 0.077112846 3.5733111e-43
0.036303457 0.010739351 0.08376807 3.5733111e-43
0.088506833 0.031348143 0.065455049 3.5733111e-43
0.08193174 0.028752435 0.061601147 3.5733111e-43
0.074810609 0.025941163 0.059109479 3.5733111e-43
0.067385159 0.023009753 0.058064628 3.5733111e-43
0.059907448 0.020057708 0.058502056 3.5733111e-43
0.052631285 0.017185234 0.060406916 3.5733111e-43
0.045803659 0.01448983 0.063714549 3.5733111e-43
0.039656319 0.01206299 0.068312675 3.5733111e-43
0.034397934 0.0099870907 0.074045233 3.5733111e-43
0.030206993 0.0083325952 0.080717623 3.5733111e-43
0.02722575 0.0071556638 0.088103361 3.5733111e-43
0.1186379 0.043243255 0.17587718 3.5733111e-43
0.12305439 0.044986792 0.16937512 3.5733111e-43
0.12628642 0.046262726 0.16211233 3.5733111e-43
0.12822427 0.047027748 0.15433533 3.5733111e-43
0.12880218 0.047255896 0.14630812 3.5733111e-43
0.12800051 0.046939418 0.13830318 3.5733111e-43
0.12584651 0.046089057 0.13059218 3.5733111e-43
0.12241326 0.044733681 0.12343692 3.5733111e-43
0.1178173 0.042919297 0.11708024 3.5733111e-43
0.11221465 0.040707488 0.11173792 3.5733111e-43
0.10579548 0.038173337 0.1075913 3.5733111e-43
0.12575997 0.046054896 0.16258751 3.5733111e-43
0.1289663 0.04732069 0.15531155 3.5733111e-43
0.13087666 0.048074856 0.14752671 3.5733111e-43
0.13142619 0.048291799 0.13949719 3.5733111e-43
0.13059624 0.047964152 0.13149557 3.5733111e-43
0.12841499 0.04710304 0.12379345 3.5733111e-43
0.12495647 0.045737691 0.11665225 3.5733111e-43
0.12033808 0.043914448 0.1103144 3.5733111e-43
0.11471659 0.0416952 0.104995 3.5733111e-43
0.10828281 0.039155282 0.10087464 3.5733111e-43
0.10125513 0.036380902 0.098093167 3.5733111e-43
0.13044225 0.047903363 0.14809942 3.5733111e-43
0.13232507 0.048646659 0.14030683 3.5733111e-43
0.13284622 0.048852395 0.13227512 3.5733111e-43
0.13198799 0.048513588 0.12427695 3.5733111e-43
0.12977953 0.047641736 0.11658379 3.5733111e-43
0.1262958 0.046266429 0.10945679 3.5733111e-43
0.12165505 0.044434357 0.10313784 3.5733111e-43
0.11601479 0.042207707 0.097841457 3.5733111e-43
0.10956649 0.039662052 0.0937474 3.5733111e-43
0.10252903 0.036883812 0.090994656 3.5733111e-43
0.095141284 0.033967283 0.089676648 3.5733111e-43
0.13251922 0.048723299 0.13292515 3.5733111e-43
0.13301197 0.04891783 0.12489138 3.5733111e-43
0.13212547 0.048567861 0.11689676 3.5733111e-43
0.12988983 0.04768528 0.10921268 3.5733111e-43
0.12638094 0.046300042 0.10209996 3.5733111e-43
0.12171789 0.044459164 0.09580002 3.5733111e-43
0.11605895 0.042225137 0.090526715 3.5733111e-43
0.10959623 0.03967379 0.086459033 3.5733111e-43
0.10254909 0.036891729 0.083735064 3.5733111e-43
0.095156737 0.033973385 0.082447246 3.5733111e-43
0.087670088 0.031017814 0.082639307 3.5733111e-43
0.13191742 0.048485726 0.1176011 3.5733111e-43
0.13100268 0.048124608 0.10961017 3.5733111e-43
0.12873991 0.047231309 0.10193528 3.5733111e-43
0.12520589 0.045836158 0.094836943 3.5733111e-43
0.1205206 0.043986503 0.088556096 3.5733111e-43
0.11484307 0.041745134 0.083305947 3.5733111e-43
0.10836602 0.039188132 0.079264708 3.5733111e-43
0.1013093 0.036402289 0.076569542 3.5733111e-43
0.093912445 0.033482164 0.075311936 3.5733111e-43
0.086426534 0.030526886 0.075534582 3.5733111e-43
0.079105668 0.027636761 0.077229924 3.5733111e-43
0.12865816 0.047199041 0.10266904 3.5733111e-43
0.12636827 0.046295039 0.095003448 3.5733111e-43
0.12280919 0.044889994 0.0879196 3.5733111e-43
0.11810174 0.043031588 0.081657939 3.5733111e-43
0.1124057 0.04078291 0.076431029 3.5733111e-43
0.10591441 0.038220286 0.072416268 3.5733111e-43
0.098848216 0.035430703 0.069749951 3.5733111e-43
0.091446966 0.032508846 0.06852258 3.5733111e-43
0.083961897 0.029553898 0.06877581 3.5733111e-43
0.076647073 0.026666159 0.070501044 3.5733111e-43
0.069750786 0.023943651 0.073639728 3.5733111e-43
0.12285666 0.044908728 0.088656835 3.5733111e-43
0.11927257 0.043493807 0.081587575 3.5733111e-43
0.11454301 0.041626677 0.075345203 3.5733111e-43
0.10882854 0.039370723 0.070141591 3.5733111e-43
0.10232311 0.036802515 0.066153385 3.5733111e-43
0.095247537 0.034009229 0.063515954 3.5733111e-43
0.08784201 0.031085683 0.062318828 3.5733111e-43
0.080357887 0.028131111 0.062602632 3.5733111e-43
0.07304921 0.025245799 0.064357743 3.5733111e-43
0.066164069 0.022527691 0.067524575 3.5733111e-43
0.05993617 0.020069048 0.071995646 3.5733111e-43
0.11471801 0.041695759 0.076059856 3.5733111e-43
0.10996642 0.039819933 0.069836847 3.5733111e-43
0.10423359 0.037556734 0.064656623 3.5733111e-43
0.097714104 0.034982979 0.060695022 3.5733111e-43
0.090629265 0.032186035 0.058086518 3.5733111e-43
0.083219558 0.029260838 0.056919649 3.5733111e-43
0.075736493 0.026306683 0.05723403 3.5733111e-43
0.068434075 0.023423843 0.059018984 3.5733111e-43
0.06156018 0.020710172 0.062213924 3.5733111e-43
0.055348124 0.018257784 0.066710405 3.5733111e-43
0.050008778 0.016149923 0.072355792 3.5733111e-43
0.10452991 0.037673716 0.065323427 3.5733111e-43
0.098778814 0.035403304 0.060166664 3.5733111e-43
0.092245378 0.032824039 0.05623173 3.5733111e-43
0.085151367 0.030023476 0.053652186 3.5733111e-43
0.077737592 0.027096672 0.0525156 3.5733111e-43
0.070255689 0.024142977 0.052860547 3.5733111e-43
0.062959634 0.021262648 0.054675322 3.5733111e-43
0.056097079 0.018553454 0.057898324 3.5733111e-43
0.049900964 0.01610736 0.062420148 3.5733111e-43
0.044581607 0.01400739 0.06808731 3.5733111e-43
0.040319573 0.012324829 0.074707441 3.5733111e-43
0.092652559 0.032984789 0.056827117 3.5733111e-43
0.086105265 0.030400053 0.0529189 3.5733111e-43
0.079002187 0.027595909 0.050368357 3.5733111e-43
0.071584448 0.024667542 0.049262069 3.5733111e-43
0.064103819 0.021714348 0.049637578 3.5733111e-43
0.056814231 0.018836573 0.051482148 3.5733111e-43
0.049963117 0.016131897 0.054733161 3.5733111e-43
0.043783028 0.013692128 0.059280269 3.5733111e-43
0.038483743 0.011600082 0.064969122 3.5733111e-43
0.034245137 0.0099267699 0.071606621 3.5733111e-43
0.031211087 0.0087289903 0.078967459 3.5733111e-43
0.079505846 0.027794741 0.050871275 3.5733111e-43
0.072393805 0.024987059 0.048349772 3.5733111e-43
0.064972207 0.022057168 0.047273796 3.5733111e-43
0.05749296 0.01910452 0.047679868 3.5733111e-43
0.050209943 0.016229339 0.049554203 3.5733111e-43
0.04337037 0.013529219 0.052833181 3.5733111e-43
0.037206396 0.011095813 0.057405502 3.5733111e-43
0.031927258 0.0090117194 0.063115962 3.5733111e-43
0.027712144 0.0073476816 0.069770731 3.5733111e-43
0.024704132 0.0061601819 0.077143915 3.5733111e-43
0.023005325 0.0054895291 0.084985241 3.5733111e-43
0.12759531 0.046779446 0.15367891 3.5733111e-43
0.13085365 0.048065774 0.14642972 3.5733111e-43
0.1328197 0.048841927 0.13866091 3.5733111e-43
0.13342673 0.049081568 0.13063619 3.5733111e-43
0.1326541 0.048776556 0.12262793 3.5733111e-43
0.13052808 0.047937244 0.11490797 3.5733111e-43
0.12712081 0.046592128 0.10773837 3.5733111e-43
0.12254795 0.044786859 0.10136247 3.5733111e-43
0.11696473 0.042582721 0.095996693 3.5733111e-43
0.11056065 0.040054522 0.09182319 3.5733111e-43
0.10355309 0.037288088 0.088983618 3.5733111e-43
0.1323812 0.04866882 0.13923001 3.5733111e-43
0.13431978 0.049434129 0.13145323 3.5733111e-43
0.13489844 0.049662571 0.12342609 3.5733111e-43
0.13409752 0.049346384 0.11542105 3.5733111e-43
0.13194422 0.04849631 0.10770983 3.5733111e-43
0.12851164 0.047141198 0.1005542 3.5733111e-43
0.12391628 0.045327045 0.09419702 3.5733111e-43
0.11831412 0.043115433 0.088854104 3.5733111e-43
0.11189535 0.040581431 0.084706791 3.5733111e-43
0.10487781 0.037811056 0.081895865 3.5733111e-43
0.097499713 0.034898341 0.080516748 3.5733111e-43
0.13456678 0.049531639 0.12407338 3.5733111e-43
0.13511705 0.049748875 0.11604393 3.5733111e-43
0.13428785 0.049421523 0.10804222 3.5733111e-43
0.13210732 0.048560694 0.10033985 3.5733111e-43
0.12864947 0.047195606 0.093198292 3.5733111e-43
0.12403167 0.045372598 0.086859941 3.5733111e-43
0.11841067 0.043153547 0.081539944 3.5733111e-43
0.11197727 0.040613778 0.077418886 3.5733111e-43
0.10494985 0.037839498 0.074636653 3.5733111e-43
0.09756694 0.03492488 0.073287681 3.5733111e-43
0.090079136 0.031968854 0.07341776 3.5733111e-43
0.13407476 0.049337402 0.10874481 3.5733111e-43
0.13321729 0.048998885 0.10074655 3.5733111e-43
0.13100953 0.048127316 0.093053147 3.5733111e-43
0.12752648 0.046752274 0.085925765 3.5733111e-43
0.1228863 0.044920433 0.079606324 3.5733111e-43
0.11724655 0.042693973 0.074309327 3.5733111e-43
0.11079863 0.040148474 0.070214584 3.5733111e-43
0.10376142 0.037370332 0.067461081 3.5733111e-43
0.096373789 0.034453854 0.066142283 3.5733111e-43
0.088886507 0.03149803 0.066302955 3.5733111e-43
0.081553712 0.028603198 0.067937642 3.5733111e-43
0.13092254 0.048092972 0.09378621 3.5733111e-43
0.12868762 0.047210671 0.08610189 3.5733111e-43
0.1251794 0.045825694 0.078988783 3.5733111e-43
0.12051692 0.04398505 0.072688349 3.5733111e-43
0.11485848 0.041751217 0.067414433 3.5733111e-43
0.10839614 0.039200019 0.063346058 3.5733111e-43
0.10134925 0.036418058 0.060621325 3.5733111e-43
0.093957014 0.033499759 0.059332717 3.5733111e-43
0.086470351 0.030544182 0.059523977 3.5733111e-43
0.079143383 0.027651651 0.061188608 3.5733111e-43
0.072224826 0.02492035 0.064270109 3.5733111e-43
0.12522157 0.045842346 0.079726398 3.5733111e-43
0.12168822 0.044447452 0.072627679 3.5733111e-43
0.11700351 0.042598031 0.066346332 3.5733111e-43
0.11132647 0.040356856 0.061095573 3.5733111e-43
0.10484979 0.037799999 0.057053629 3.5733111e-43
0.097793326 0.035014253 0.054357708 3.5733111e-43
0.090396591 0.032094177 0.053099308 3.5733111e-43
0.082910657 0.029138891 0.053321149 3.5733111e-43
0.075589627 0.026248703 0.055015702 3.5733111e-43
0.068682007 0.023521721 0.058125447 3.5733111e-43
0.062422272 0.021050509 0.062544823 3.5733111e-43
0.11717337 0.042665087 0.067062415 3.5733111e-43
0.1124665 0.040806916 0.060800254 3.5733111e-43
0.10677094 0.038558427 0.055572726 3.5733111e-43
0.10028002 0.035995949 0.051557273 3.5733111e-43
0.09321408 0.033206463 0.048890196 3.5733111e-43
0.085812949 0.030284654 0.047662023 3.5733111e-43
0.078327857 0.027329696 0.047914449 3.5733111e-43
0.071012869 0.024441894 0.049638897 3.5733111e-43
0.064116292 0.021719271 0.05277684 3.5733111e-43
0.057872217 0.019254243 0.057221763 3.5733111e-43
0.052492596 0.017130483 0.062822782 3.5733111e-43
0.10706248 0.03867352 0.056241967 3.5733111e-43
0.10134848 0.036417756 0.051037747 3.5733111e-43
0.094843425 0.033849694 0.047048841 3.5733111e-43
0.0877681 0.031056507 0.04441065 3.5733111e-43
0.080362685 0.028133003 0.043212723 3.5733111e-43
0.072878532 0.025178419 0.043495726 3.5733111e-43
0.065569699 0.022293046 0.045250047 3.5733111e-43
0.05868426 0.019574821 0.048416141 3.5733111e-43
0.052455943 0.017116012 0.052886542 3.5733111e-43
0.047096159 0.015000082 0.058509499 3.5733111e-43
0.042786837 0.013298852 0.065094158 3.5733111e-43
0.09524633 0.034008756 0.047647584 3.5733111e-43
0.088727221 0.031435147 0.04368528 3.5733111e-43
0.08164262 0.028638298 0.041076016 3.5733111e-43
0.074233025 0.025713144 0.039908353 3.5733111e-43
0.06674993 0.022758976 0.040221926 3.5733111e-43
0.059447348 0.01987607 0.042006094 3.5733111e-43
0.052573152 0.017162282 0.045200296 3.5733111e-43
0.046360679 0.014709731 0.049696106 3.5733111e-43
0.041020807 0.012601661 0.055340923 3.5733111e-43
0.03673479 0.010909632 0.061943136 3.5733111e-43
0.033648111 0.0096910764 0.069278643 3.5733111e-43
0.082142659 0.028835701 0.041583087 3.5733111e-43
0.075048894 0.026035231 0.039002784 3.5733111e-43
0.067635216 0.023108469 0.0378654 3.5733111e-43
0.060153287 0.020154761 0.038209543 3.5733111e-43
0.052857064 0.017274365 0.040023535 3.5733111e-43
0.045994207 0.014565054 0.043245796 3.5733111e-43
0.039797671 0.012118793 0.047766954 3.5733111e-43
0.034477789 0.010018615 0.053433545 3.5733111e-43
0.030215137 0.0083358111 0.060053222 3.5733111e-43
0.027154408 0.0071274992 0.067401282 3.5733111e-43
0.025399493 0.0064346958 0.075228319 3.5733111e-43
0.0682147 0.023337238 0.038262878 3.5733111e-43
0.060797062 0.02040891 0.037155792 3.5733111e-43
0.053316403 0.017455703 0.0375305 3.5733111e-43
0.04602664 0.014577859 0.039374284 3.5733111e-43
0.039175224 0.011873064 0.042624559 3.5733111e-43
0.032994714 0.0094331289 0.047171 3.5733111e-43
0.027694898 0.0073408736 0.052859284 3.5733111e-43
0.023455676 0.0056673177 0.059496328 3.5733111e-43
0.020420941 0.004469268 0.066856846 3.5733111e-43
0.018693702 0.0037873914 0.07469099 3.5733111e-43
0.018332591 0.0036448324 0.082732841 3.5733111e-43
0.13269831 0.048794009 0.13011189 3.5733111e-43
0.13469253 0.049581282 0.12235139 3.5733111e-43
0.13532865 0.049832411 0.11432926 3.5733111e-43
0.1345851 0.049538869 0.10631783 3.5733111e-43
0.13248709 0.048710622 0.098589018 3.5733111e-43
0.12910585 0.04737578 0.091405176 3.5733111e-43
0.12455616 0.045579657 0.085010149 3.5733111e-43
0.11899244 0.043383218 0.079621017 3.5733111e-43
0.11260355 0.040861018 0.075420693 3.5733111e-43
0.10560635 0.038098671 0.072551757 3.5733111e-43
0.098238356 0.035189942 0.071111597 3.5733111e-43
0.13499238 0.049699653 0.11497379 3.5733111e-43
0.13560013 0.049939588 0.10694914 3.5733111e-43
0.13482827 0.04963487 0.09894079 3.5733111e-43
0.13270296 0.048795842 0.09122061 3.5733111e-43
0.12929636 0.047450989 0.084050633 3.5733111e-43
0.1247241 0.045645956 0.07767424 3.5733111e-43
0.11914137 0.043442011 0.07230787 3.5733111e-43
0.11273768 0.040913969 0.068133682 3.5733111e-43
0.10573039 0.038147639 0.065293357 3.5733111e-43
0.098357357 0.035236921 0.063883305 3.5733111e-43
0.090868846 0.032280616 0.063951395 3.5733111e-43
0.13461016 0.049548764 0.099641606 3.5733111e-43
0.13380998 0.04923287 0.091636479 3.5733111e-43
0.13165741 0.048383079 0.083925031 3.5733111e-43
0.12822549 0.047028229 0.076769024 3.5733111e-43
0.12363072 0.04521431 0.070411362 3.5733111e-43
0.11802906 0.043002896 0.065067835 3.5733111e-43
0.11161067 0.040469047 0.060919836 3.5733111e-43
0.10459338 0.037698776 0.058108158 3.5733111e-43
0.097215421 0.034786109 0.05672824 3.5733111e-43
0.089727208 0.03182992 0.056826927 3.5733111e-43
0.082382925 0.028930552 0.058400862 3.5733111e-43
0.13156517 0.048346665 0.084657349 3.5733111e-43
0.12938535 0.047486119 0.07695476 3.5733111e-43
0.12592816 0.046121292 0.069812819 3.5733111e-43
0.12131095 0.044298515 0.06347397 3.5733111e-43
0.11569045 0.042079661 0.058153372 3.5733111e-43
0.10925744 0.039540041 0.054031625 3.5733111e-43
0.10223027 0.036765866 0.051248636 3.5733111e-43
0.094847485 0.033851296 0.04989887 3.5733111e-43
0.087359674 0.030895267 0.050028145 3.5733111e-43
0.080021001 0.027998116 0.051632077 3.5733111e-43
0.073080577 0.025258183 0.054656211 3.5733111e-43
0.12596506 0.046135858 0.070550762 3.5733111e-43
0.12248265 0.044761077 0.063423 3.5733111e-43
0.11784307 0.042929471 0.05710306 3.5733111e-43
0.1122038 0.040703207 0.051805463 3.5733111e-43
0.10575627 0.038157854 0.047710024 3.5733111e-43
0.098719314 0.035379816 0.044955764 3.5733111e-43
0.09133181 0.032463383 0.043636173 3.5733111e-43
0.083844513 0.029507555 0.043796036 3.5733111e-43
0.076511562 0.026612664 0.045429934 3.5733111e-43
0.069581874 0.023876969 0.048482403 3.5733111e-43
0.063290671 0.021393334 0.052849833 3.5733111e-43
0.11800779 0.042994499 0.057820529 3.5733111e-43
0.11334591 0.041154087 0.051519591 3.5733111e-43
0.10768796 0.038920447 0.046245068 3.5733111e-43
0.10122599 0.036369402 0.042176001 3.5733111e-43
0.094179362 0.033587538 0.039450508 3.5733111e-43
0.086787246 0.030669285 0.038161106 3.5733111e-43
0.079300568 0.027713703 0.038351558 3.5733111e-43
0.071973443 0.02482111 0.040015403 3.5733111e-43
0.065054603 0.022089696 0.043096162 3.5733111e-43
0.058778878 0.019612173 0.047489259 3.5733111e-43
0.0533593 0.017472638 0.053045582 3.5733111e-43
0.1079747 0.039033644 0.046916705 3.5733111e-43
0.10229815 0.036792662 0.041665334 3.5733111e-43
0.095821843 0.034235954 0.037622698 3.5733111e-43
0.088765629 0.031450309 0.034926012 3.5733111e-43
0.081369005 0.028530279 0.033666819 3.5733111e-43
0.073883057 0.025574984 0.033887856 3.5733111e-43
0.06656187 0.022684734 0.035581622 3.5733111e-43
0.059653964 0.019957637 0.038690623 3.5733111e-43
0.053393811 0.017486263 0.043109331 3.5733111e-43
0.047993913 0.015354497 0.048687752 3.5733111e-43
0.043637559 0.0136347 0.055236541 3.5733111e-43
0.096220456 0.034393318 0.038224757 3.5733111e-43
0.089729913 0.031830989 0.034208607 3.5733111e-43
0.082664214 0.029041599 0.03154077 3.5733111e-43
0.075263195 0.026119834 0.030311801 3.5733111e-43
0.067778081 0.023164868 0.03056342 3.5733111e-43
0.060462933 0.020277003 0.032287084 3.5733111e-43
0.053566065 0.017554265 0.035424285 3.5733111e-43
0.047321577 0.015089073 0.039868534 3.5733111e-43
0.041941438 0.012965106 0.045468979 3.5733111e-43
0.037608258 0.01125446 0.052035514 3.5733111e-43
0.034469135 0.0100152 0.059345253 3.5733111e-43
0.083160602 0.029237565 0.032051966 3.5733111e-43
0.076085523 0.026444472 0.029413015 3.5733111e-43
