# .PCD v0.7 - Point Cloud Data file format
VERSION 0.7
FIELDS x y z rgb
SIZE 4 4 4 4
TYPE F F F F
COUNT 1 1 1 1
WIDTH 978
HEIGHT 1
VIEWPOINT 0 0 0 1 0 0 0
POINTS 978
DATA ascii
0.088061169 -0.023124712 0.12061531 9.219563e-39
0.11930232 -0.01840202 0.17048483 9.219563e-39
0.12107319 -0.017207853 0.16272208 9.219563e-39
0.12143302 -0.016403055 0.15471928 9.219563e-39
0.12036958 -0.016014937 0.14674805 9.219563e-39
0.11791897 -0.016056679 0.13907896 9.219563e-39
0.11416437 -0.016526861 0.13197234 9.219563e-39
0.10923323 -0.017409524 0.1256694 9.219563e-39
0.10329293 -0.018674707 0.12038411 9.219563e-39
0.096545115 -0.020279465 0.11629587 9.219563e-39
0.089218818 -0.022169327 0.11354342 9.219563e-39
0.081562728 -0.024280144 0.11222022 9.219563e-39
0.12110985 -0.016553672 0.15536658 9.219563e-39
0.12144032 -0.015757225 0.14736167 9.219563e-39
0.12034778 -0.01537788 0.13939396 9.219563e-39
0.11786931 -0.01542851 0.13173388 9.219563e-39
0.11408905 -0.015907397 0.12464146 9.219563e-39
0.10913531 -0.016798288 0.11835743 9.219563e-39
0.10317624 -0.018070942 0.11309511 9.219563e-39
0.096414119 -0.019682158 0.10903312 9.219563e-39
0.089078464 -0.021577246 0.10630934 9.219563e-39
0.081418291 -0.023691881 0.10501622 9.219563e-39
0.073693603 -0.025954284 0.10519765 9.219563e-39
0.12014861 -0.015497182 0.14009555 9.219563e-39
0.119027 -0.015126611 0.13213144 9.219563e-39
0.11652071 -0.015186129 0.12448049 9.219563e-39
0.11271484 -0.015673716 0.11740237 9.219563e-39
0.10773857 -0.016572822 0.11113735 9.219563e-39
0.10176082 -0.017852925 0.10589809 9.219563e-39
0.094984479 -0.019470576 0.10186242 9.219563e-39
0.087639585 -0.021370865 0.099167332 9.219563e-39
0.079975434 -0.023489289 0.097904302 9.219563e-39
0.072252184 -0.025753941 0.098116212 9.219563e-39
0.064731993 -0.028087949 0.09979587 9.219563e-39
0.1164526 -0.015269897 0.12521157 9.219563e-39
0.11391854 -0.015338303 0.11756984 9.219563e-39
0.11008711 -0.015834581 0.11050613 9.219563e-39
0.10508839 -0.016741889 0.1042602 9.219563e-39
0.099092036 -0.018029423 0.099044055 9.219563e-39
0.092301592 -0.019653486 0.095034763 9.219563e-39
0.084947549 -0.021558948 0.092368416 9.219563e-39
0.077279538 -0.02368113 0.091135502 9.219563e-39
0.069557838 -0.025947999 0.091377892 9.219563e-39
0.062044546 -0.028282607 0.093087345 9.219563e-39
0.054994699 -0.030605709 0.096205838 9.219563e-39
0.11015247 -0.015879855 0.11124084 9.219563e-39
0.10629555 -0.016384818 0.10419164 9.219563e-39
0.10127444 -0.017300311 0.097964883 9.219563e-39
0.09525957 -0.018595261 0.092771947 9.219563e-39
0.088455111 -0.020225713 0.088789091 9.219563e-39
0.081092037 -0.022136319 0.08615151 9.219563e-39
0.073420271 -0.024262229 0.084948741 9.219563e-39
0.065700226 -0.026531281 0.085221596 9.219563e-39
0.058193952 -0.028866455 0.086960822 9.219563e-39
0.051156234 -0.031188484 0.090107381 9.219563e-39
0.044825964 -0.033418555 0.094554469 9.219563e-39
0.10147094 -0.01730549 0.09867727 9.219563e-39
0.096427515 -0.018229159 0.092469782 9.219563e-39
0.090394221 -0.019531503 0.087300122 9.219563e-39
0.083575852 -0.021168318 0.083343767 9.219563e-39
0.076203845 -0.023084043 0.080734998 9.219563e-39
0.068528436 -0.025213649 0.079562373 9.219563e-39
0.060810164 -0.027484853 0.079865694 9.219563e-39
0.053311009 -0.029820558 0.08163467 9.219563e-39
0.046285521 -0.032141484 0.084809259 9.219563e-39
0.039972175 -0.034368847 0.089281686 9.219563e-39
0.034585271 -0.036427043 0.094900154 9.219563e-39
0.093096226 -0.029723225 0.2127741 9.219563e-39
0.099569641 -0.027471021 0.20854981 9.219563e-39
0.10515707 -0.025373278 0.20314589 9.219563e-39
0.10966886 -0.023501202 0.1967458 9.219563e-39
0.11295187 -0.02191834 0.18956678 9.219563e-39
0.11489465 -0.020678418 0.18185247 9.219563e-39
0.11543126 -0.019823525 0.17386478 9.219563e-39
0.11454349 -0.01938268 0.16587481 9.219563e-39
0.11226147 -0.019370846 0.15815377 9.219563e-39
0.10866266 -0.019788425 0.15096375 9.219563e-39
0.10386922 -0.020621244 0.14454882 9.219563e-39
0.10448723 -0.025587913 0.20337255 9.219563e-39
0.1100543 -0.023494123 0.19794615 9.219563e-39
0.11454219 -0.021627393 0.19152771 9.219563e-39
0.11779857 -0.020051088 0.18433511 9.219563e-39
0.1197129 -0.018818716 0.17661251 9.219563e-39
0.12022019 -0.017972106 0.16862202 9.219563e-39
0.11930323 -0.017539995 0.16063486 9.219563e-39
0.11699315 -0.017537052 0.15292217 9.219563e-39
0.11336836 -0.017963376 0.14574572 9.219563e-39
0.10855189 -0.018804494 0.13934915 9.219563e-39
0.10270724 -0.02003186 0.13394953 9.219563e-39
0.11392815 -0.021836925 0.19188152 9.219563e-39
0.11839208 -0.019975569 0.18544483 9.219563e-39
0.12162178 -0.018405845 0.17823879 9.219563e-39
0.12350762 -0.017181039 0.17050797 9.219563e-39
0.12398559 -0.016342722 0.16251479 9.219563e-39
0.12303946 -0.015919352 0.15453057 9.219563e-39
0.12070135 -0.015925299 0.14682633 9.219563e-39
0.11705063 -0.016360363 0.13966358 9.219563e-39
0.11221121 -0.017209772 0.13328543 9.219563e-39
0.10634735 -0.018444696 0.12790842 9.219563e-39
0.099658117 -0.020023219 0.12371503 9.219563e-39
0.12108525 -0.018602867 0.17870723 9.219563e-39
0.12428822 -0.017039748 0.17148784 9.219563e-39
0.12614554 -0.015822524 0.16374892 9.219563e-39
0.12659419 -0.014992515 0.15575317 9.219563e-39
0.12561889 -0.014577892 0.147772 9.219563e-39
0.12325279 -0.01459273 0.14007632 9.219563e-39
0.11957619 -0.015036524 0.13292736 9.219563e-39
0.11471388 -0.015894212 0.12656775 9.219563e-39
0.10883091 -0.01713668 0.12121341 9.219563e-39
0.10212698 -0.018721752 0.11704604 9.219563e-39
0.094829634 -0.020595629 0.11420711 9.219563e-39
0.12570548 -0.01600007 0.16431545 9.219563e-39
0.12753427 -0.014790448 0.15656854 9.219563e-39
0.12795357 -0.013968756 0.14857034 9.219563e-39
0.12694913 -0.013562886 0.14059234 9.219563e-39
0.12455507 -0.013586614 0.13290533 9.219563e-39
0.12085264 -0.014039135 0.12577026 9.219563e-39
0.11596752 -0.014905088 0.11942929 9.219563e-39
0.11006553 -0.016155079 0.11409768 9.219563e-39
0.10334699 -0.017746681 0.1099564 9.219563e-39
0.096039973 -0.019625867 0.10714601 9.219563e-39
0.088392496 -0.021728849 0.10576192 9.219563e-39
0.12762554 -0.014120548 0.14921492 9.219563e-39
0.12801549 -0.013307187 0.14121439 9.219563e-39
0.12698193 -0.012910075 0.13323967 9.219563e-39
0.12455994 -0.012942693 0.12556145 9.219563e-39
0.12083174 -0.013403933 0.11844036 9.219563e-39
0.11592387 -0.01427814 0.11211812 9.219563e-39
0.11000293 -0.015535638 0.10680933 9.219563e-39
0.10326989 -0.017133744 0.10269418 9.219563e-39
0.095953308 -0.019018212 0.099912375 9.219563e-39
0.088301517 -0.021125076 0.098558322 9.219563e-39
0.080574267 -0.023382822 0.098677993 9.219563e-39
0.12677753 -0.013030749 0.13393952 9.219563e-39
0.12571485 -0.012642401 0.12596819 9.219563e-39
0.12326498 -0.012683908 0.11829887 9.219563e-39
0.11951105 -0.013153862 0.11119188 9.219563e-39
0.11458051 -0.014036308 0.10488845 9.219563e-39
0.10864071 -0.015301295 0.09960255 9.219563e-39
0.10189327 -0.016905883 0.095513612 9.219563e-39
0.094567217 -0.018795606 0.092760414 9.219563e-39
0.086911239 -0.02090632 0.091436423 9.219563e-39
0.079185195 -0.023166381 0.091586575 9.219563e-39
0.071651347 -0.025499072 0.093205772 9.219563e-39
0.12319143 -0.012769197 0.11902924 9.219563e-39
0.1207137 -0.012819593 0.11136892 9.219563e-39
0.11693411 -0.013298252 0.10427613 9.219563e-39
0.11198097 -0.014188926 0.097991608 9.219563e-39
0.10602239 -0.015461382 0.092728689 9.219563e-39
0.099260636 -0.017072428 0.088666007 9.219563e-39
0.091925234 -0.018967381 0.085941464 9.219563e-39
0.084265165 -0.021081915 0.084647551 9.219563e-39
0.07654044 -0.023344258 0.084828183 9.219563e-39
0.069013275 -0.025677618 0.086477228 9.219563e-39
0.061939169 -0.028002787 0.089538708 9.219563e-39
0.11699402 -0.01334514 0.10501121 9.219563e-39
0.11318883 -0.013832497 0.097932711 9.219563e-39
0.10821315 -0.014731387 0.09166719 9.219563e-39
0.10223588 -0.016011294 0.086427316 9.219563e-39
0.095459923 -0.017628776 0.082390949 9.219563e-39
0.088115267 -0.019528929 0.079695106 9.219563e-39
0.08045122 -0.021647254 0.078431293 9.219563e-39
0.072727934 -0.023911847 0.078642398 9.219563e-39
0.065207556 -0.026245838 0.080321267 9.219563e-39
0.05814537 -0.028570006 0.083410911 9.219563e-39
0.051781084 -0.030805457 0.087806448 9.219563e-39
0.1084044 -0.014738216 0.092380986 9.219563e-39
0.10340626 -0.015645307 0.086134553 9.219563e-39
0.097410396 -0.016932648 0.080917798 9.219563e-39
0.090620317 -0.018556541 0.076907814 9.219563e-39
0.083266519 -0.020461867 0.074240707 9.219563e-39
0.075598605 -0.02258395 0.073007002 9.219563e-39
0.06787686 -0.024850762 0.073248588 9.219563e-39
0.06036339 -0.027185354 0.074957252 9.219563e-39
0.053313226 -0.029508485 0.078075007 9.219563e-39
0.046965677 -0.031741295 0.082496017 9.219563e-39
0.041536208 -0.033807997 0.088070221 9.219563e-39
0.097726211 -0.016899178 0.081585079 9.219563e-39
0.091711834 -0.018193934 0.076391533 9.219563e-39
0.08490774 -0.019824216 0.072407983 9.219563e-39
0.077544905 -0.021734688 0.069769643 9.219563e-39
0.069873236 -0.023860499 0.068566076 9.219563e-39
0.062153146 -0.026129495 0.068838134 9.219563e-39
0.054646686 -0.028464654 0.070576571 9.219563e-39
0.047608647 -0.030786714 0.0737224 9.219563e-39
0.04127793 -0.033016853 0.078168817 9.219563e-39
0.035869427 -0.035079371 0.083764911 9.219563e-39
0.03156672 -0.036904264 0.090320714 9.219563e-39
0.1092841 -0.023537904 0.19588628 9.219563e-39
0.11489233 -0.021436136 0.19050555 9.219563e-39
0.11942858 -0.019558603 0.18412438 9.219563e-39
0.12273887 -0.017969033 0.17695937 9.219563e-39
0.12471083 -0.016721383 0.16925372 9.219563e-39
0.12527753 -0.015858004 0.16126901 9.219563e-39
0.12441973 -0.0154082 0.15327626 9.219563e-39
0.12216654 -0.015387243 0.14554679 9.219563e-39
0.11859445 -0.01579584 0.13834295 9.219563e-39
0.11382471 -0.016620124 0.13190927 9.219563e-39
0.10801923 -0.017832115 0.12646413 9.219563e-39
0.11881182 -0.019768491 0.18447319 9.219563e-39
0.12332424 -0.017896274 0.17807359 9.219563e-39
0.12660794 -0.01631324 0.17089491 9.219563e-39
0.12855147 -0.015073121 0.16318083 9.219563e-39
0.12908886 -0.01421801 0.15519321 9.219563e-39
0.12820186 -0.013776936 0.14720316 9.219563e-39
0.12592058 -0.013764868 0.13948192 9.219563e-39
0.12232246 -0.014182216 0.13229154 9.219563e-39
0.11752962 -0.015014815 0.12587611 9.219563e-39
0.11170476 -0.016234402 0.1204534 9.219563e-39
0.1050456 -0.01779958 0.11620747 9.219563e-39
0.12606785 -0.016510913 0.17135896 9.219563e-39
0.12932493 -0.014934436 0.16416672 9.219563e-39
0.13124 -0.013701865 0.15644433 9.219563e-39
0.13174807 -0.012855036 0.14845391 9.219563e-39
0.13083188 -0.012422696 0.14046668 9.219563e-39
0.12852253 -0.012419518 0.13275376 9.219563e-39
0.12489843 -0.012845611 0.12557696 9.219563e-39
0.12008256 -0.013686513 0.11917989 9.219563e-39
0.11423842 -0.014913679 0.11377969 9.219563e-39
0.10756437 -0.016485455 0.10955966 9.219563e-39
0.10028695 -0.018348487 0.10666304 9.219563e-39
0.13079566 -0.013880334 0.15700722 9.219563e-39
0.13268225 -0.012655328 0.1492766 9.219563e-39
0.13316099 -0.011816793 0.1412835 9.219563e-39
0.13221563 -0.011393193 0.1332992 9.219563e-39
0.12987825 -0.011398907 0.12559474 9.219563e-39
0.12622821 -0.011833739 0.11843162 9.219563e-39
0.1213894 -0.012682931 0.11205299 9.219563e-39
0.11552605 -0.013917658 0.10667538 9.219563e-39
0.1088372 -0.015496007 0.10248131 9.219563e-39
0.10154989 -0.017364405 0.099613138 9.219563e-39
0.093911491 -0.01945943 0.098168239 9.219563e-39
0.13282813 -0.011969751 0.14192532 9.219563e-39
0.13327754 -0.011139522 0.13392964 9.219563e-39
0.13230301 -0.010724668 0.12594838 9.219563e-39
0.12993765 -0.010739272 0.11825248 9.219563e-39
0.12626173 -0.011182837 0.11110315 9.219563e-39
0.12140002 -0.012040308 0.10474306 9.219563e-39
0.11551756 -0.013282577 0.099388108 9.219563e-39
0.10881401 -0.014867478 0.095220059 9.219563e-39
0.10151692 -0.016741212 0.092380382 9.219563e-39
0.093873978 -0.018840181 0.09096548 9.219563e-39
0.086144619 -0.021093136 0.091023378 9.219563e-39
0.13209338 -0.010846706 0.12664644 9.219563e-39
0.13108972 -0.010440606 0.11866836 9.219563e-39
0.1286964 -0.010464099 0.11098113 9.219563e-39
0.12499464 -0.01091639 0.10384568 9.219563e-39
0.12011012 -0.011782127 0.097504221 9.219563e-39
0.11420862 -0.01303192 0.092172012 9.219563e-39
0.10749047 -0.01462335 0.08803004 9.219563e-39
0.10018371 -0.016502395 0.085218906 9.219563e-39
0.092536345 -0.018605277 0.083834022 9.219563e-39
0.08480797 -0.020860611 0.083922401 9.219563e-39
0.077260911 -0.023191847 0.08548104 9.219563e-39
0.12861742 -0.010550902 0.11171076 9.219563e-39
0.12619616 -0.010583286 0.1040323 9.219563e-39
0.12246864 -0.011044297 0.096910842 9.219563e-39
0.11756137 -0.011918286 0.090588108 9.219563e-39
0.11164092 -0.013175587 0.08527872 9.219563e-39
0.10490827 -0.014773523 0.081162885 9.219563e-39
0.097591929 -0.016657852 0.078380324 9.219563e-39
0.089940257 -0.018764613 0.077025481 9.219563e-39
0.082212977 -0.021022297 0.07714434 9.219563e-39
0.074672379 -0.023354268 0.078732878 9.219563e-39
0.067574427 -0.025681371 0.081737168 9.219563e-39
0.1225231 -0.011092797 0.097646244 9.219563e-39
0.11876985 -0.011562521 0.090538874 9.219563e-39
0.11383991 -0.01244475 0.084234953 9.219563e-39
0.1079006 -0.01370954 0.078948453 9.219563e-39
0.10115354 -0.015313958 0.074858822 9.219563e-39
0.093827732 -0.017203543 0.072104871 9.219563e-39
0.086171865 -0.019314157 0.070780091 9.219563e-39
0.078445785 -0.021574156 0.070929438 9.219563e-39
0.070911765 -0.023906831 0.072547846 9.219563e-39
0.063825525 -0.026232997 0.075580381 9.219563e-39
0.0574276 -0.028473698 0.079924114 9.219563e-39
0.11402588 -0.012453233 0.084950127 9.219563e-39
0.10907333 -0.01334369 0.078665107 9.219563e-39
0.10311525 -0.01461595 0.073401578 9.219563e-39
0.096353874 -0.016226826 0.069338202 9.219563e-39
0.08901871 -0.018121641 0.066612907 9.219563e-39
0.081358753 -0.020236077 0.065318204 9.219563e-39
0.073633991 -0.02249836 0.065498032 9.219563e-39
0.066106647 -0.024831701 0.067146294 9.219563e-39
0.059032228 -0.027156899 0.07020703 9.219563e-39
0.052650858 -0.029395025 0.074576363 9.219563e-39
0.047179151 -0.031470109 0.080105968 9.219563e-39
0.10342617 -0.014584116 0.074071236 9.219563e-39
0.097449392 -0.015863826 0.068830758 9.219563e-39
0.090673804 -0.017481141 0.064793698 9.219563e-39
0.083329387 -0.019381156 0.062097099 9.219563e-39
0.075665444 -0.021499382 0.060832489 9.219563e-39
0.06794212 -0.023763916 0.061042797 9.219563e-39
0.060421567 -0.026097892 0.06272088 9.219563e-39
0.053359065 -0.028422086 0.065809779 9.219563e-39
0.04699434 -0.030657606 0.070204645 9.219563e-39
0.041543435 -0.032728571 0.075756304 9.219563e-39
0.03719138 -0.034564681 0.082276307 9.219563e-39
0.091098674 -0.017410113 0.065394171 9.219563e-39
0.084308967 -0.019033838 0.061383493 9.219563e-39
0.076955408 -0.020939028 0.058715627 9.219563e-39
0.069287591 -0.023061015 0.057481132 9.219563e-39
0.061565805 -0.025327766 0.057721913 9.219563e-39
0.054052152 -0.027662344 0.059429798 9.219563e-39
0.047001671 -0.0299855 0.062546812 9.219563e-39
0.040653683 -0.032218382 0.066967152 9.219563e-39
0.035223663 -0.034285195 0.072540782 9.219563e-39
0.030895928 -0.036115784 0.079078503 9.219563e-39
0.027817378 -0.037648011 0.086358398 9.219563e-39
0.12221319 -0.018053886 0.17618179 9.219563e-39
0.12677383 -0.016170921 0.16981962 9.219563e-39
0.13011135 -0.014574668 0.16266875 9.219563e-39
0.13211246 -0.013319309 0.15497188 9.219563e-39
0.13270923 -0.012447456 0.14699028 9.219563e-39
0.1318814 -0.011988701 0.13899489 9.219563e-39
0.12965709 -0.01195862 0.13125709 9.219563e-39
0.12611178 -0.01235823 0.12403952 9.219563e-39
0.12136582 -0.013173969 0.11758719 9.219563e-39
0.1155803 -0.014378145 0.11211911 9.219563e-39
0.10895161 -0.015929887 0.10782089 9.219563e-39
0.12956773 -0.014772981 0.16312839 9.219563e-39
0.13287871 -0.01318324 0.15596373 9.219563e-39
0.13485143 -0.011935392 0.14825831 9.219563e-39
0.13541889 -0.011071796 0.14027369 9.219563e-39
0.13456185 -0.010621763 0.13228087 9.219563e-39
0.13230941 -0.010600571 0.12455118 9.219563e-39
0.128738 -0.011008938 0.11734699 9.219563e-39
0.12396888 -0.011833003 0.11091282 9.219563e-39
0.1181639 -0.013044795 0.10546709 9.219563e-39
0.11152013 -0.01460318 0.10119464 9.219563e-39
0.10426306 -0.016455261 0.098240502 9.219563e-39
0.13440284 -0.012114776 0.14881754 9.219563e-39
0.13634712 -0.010874459 0.14110368 9.219563e-39
0.13688527 -0.010019131 0.13311613 9.219563e-39
0.13599904 -0.0095778257 0.12512602 9.219563e-39
0.13371849 -0.0095655238 0.11740454 9.219563e-39
0.13012105 -0.0099826427 0.11021382 9.219563e-39
0.12532882 -0.010815023 0.10379791 9.219563e-39
0.11950448 -0.012034411 0.098374613 9.219563e-39
0.11284571 -0.013599415 0.094127998 9.219563e-39
0.10557855 -0.015456915 0.091202229 9.219563e-39
0.097949661 -0.017543858 0.089696601 9.219563e-39
0.13654758 -0.010173243 0.13375515 9.219563e-39
0.13705643 -0.0093261972 0.1257648 9.219563e-39
0.136141 -0.0088936267 0.1177775 9.219563e-39
0.1338324 -0.0088902153 0.11006436 9.219563e-39
0.13020897 -0.0093160793 0.10288721 9.219563e-39
0.12539372 -0.010156762 0.096489653 9.219563e-39
0.11955008 -0.011383729 0.091088854 9.219563e-39
0.11287642 -0.012955331 0.086868145 9.219563e-39
0.10559926 -0.014818223 0.083970778 9.219563e-39
0.09796562 -0.016909171 0.082495108 9.219563e-39
0.090234607 -0.019157199 0.082491226 9.219563e-39
0.13592616 -0.0090170205 0.11847373 9.219563e-39
0.13498157 -0.0085931905 0.11048935 9.219563e-39
0.13264494 -0.0085986704 0.10278466 9.219563e-39
0.12899557 -0.009033273 0.095621191 9.219563e-39
0.12415735 -0.0098822461 0.089242078 9.219563e-39
0.11829451 -0.011116774 0.083863869 9.219563e-39
0.11160605 -0.012694951 0.07966911 9.219563e-39
0.10431901 -0.014563208 0.076800197 9.219563e-39
0.096680723 -0.016658129 0.075354509 9.219563e-39
0.08895047 -0.018908605 0.075381108 9.219563e-39
0.081390649 -0.021238247 0.076879106 9.219563e-39
0.13256052 -0.008686983 0.1035135 9.219563e-39
0.1301959 -0.0087013524 0.095817372 9.219563e-39
0.12652065 -0.009144688 0.088667676 9.219563e-39
0.12165955 -0.01000194 0.0823071 9.219563e-39
0.11577759 -0.011244011 0.076951548 9.219563e-39
0.10907442 -0.01282874 0.072782815 9.219563e-39
0.10177759 -0.014702336 0.069942392 9.219563e-39
0.09413477 -0.016801201 0.0685267 9.219563e-39
0.086405389 -0.019054091 0.068583786 9.219563e-39
0.078851804 -0.021384535 0.070111729 9.219563e-39
0.071730427 -0.02371343 0.073058642 9.219563e-39
0.12656966 -0.0091947969 0.089403346 9.219563e-39
0.12286859 -0.009646859 0.08226753 9.219563e-39
0.11798467 -0.010512377 0.075925589 9.219563e-39
0.11208367 -0.011761974 0.070592776 9.219563e-39
0.1053659 -0.013353231 0.066450119 9.219563e-39
0.098059393 -0.015232138 0.063638225 9.219563e-39
0.090412147 -0.017334916 0.062252551 9.219563e-39
0.082683742 -0.01959019 0.062340129 9.219563e-39
0.075136513 -0.021921404 0.063897982 9.219563e-39
0.06802664 -0.024249431 0.066873237 9.219563e-39
0.061595462 -0.02649525 0.071164899 9.219563e-39
0.11816537 -0.010522512 0.076642089 9.219563e-39
0.11325869 -0.011396283 0.070318855 9.219563e-39
0.10733874 -0.012653387 0.065008864 9.219563e-39
0.10060647 -0.014251151 0.060892344 9.219563e-39
0.093290381 -0.016135342 0.058109026 9.219563e-39
0.085638821 -0.018242003 0.056753393 9.219563e-39
0.077911511 -0.020499624 0.056871455 9.219563e-39
0.070370741 -0.022831578 0.058459204 9.219563e-39
0.063272484 -0.025158703 0.061462753 9.219563e-39
0.056857668 -0.027402012 0.06578014 9.219563e-39
0.051344045 -0.029485358 0.071264826 9.219563e-39
0.10764474 -0.012623188 0.065680861 9.219563e-39
0.10170593 -0.013887781 0.060393758 9.219563e-39
0.094959244 -0.015492029 0.056303434 9.219563e-39
0.087633684 -0.017381476 0.053548735 9.219563e-39
0.079977922 -0.019491989 0.052223157 9.219563e-39
0.072251819 -0.021751929 0.052371703 9.219563e-39
0.064717621 -0.024084583 0.053989328 9.219563e-39
0.057631068 -0.026410775 0.057021122 9.219563e-39
0.05123271 -0.028651543 0.061364178 9.219563e-39
0.045739733 -0.030730827 0.066871069 9.219563e-39
0.041338582 -0.032578047 0.073354878 9.219563e-39
0.095379718 -0.015422564 0.056907177 9.219563e-39
0.088618718 -0.017033271 0.052843109 9.219563e-39
0.0812838 -0.018927949 0.050117061 9.219563e-39
0.07362394 -0.021042284 0.048821565 9.219563e-39
0.065899149 -0.023304507 0.049000591 9.219563e-39
0.05837163 -0.025637832 0.050648063 9.219563e-39
0.051296897 -0.027963053 0.053708062 9.219563e-39
0.044915091 -0.030201249 0.058076721 9.219563e-39
0.039442834 -0.03227644 0.063605748 9.219563e-39
0.035065882 -0.034118194 0.070107467 9.219563e-39
0.031932797 -0.035663988 0.077361181 9.219563e-39
0.081803888 -0.018821673 0.050631199 9.219563e-39
0.074459717 -0.020721553 0.047933843 9.219563e-39
0.066795878 -0.02283968 0.046668444 9.219563e-39
0.059072513 -0.025104156 0.046877947 9.219563e-39
0.051551782 -0.027438115 0.048555247 9.219563e-39
0.044488963 -0.029762335 0.051643405 9.219563e-39
0.038123798 -0.031997927 0.056037601 9.219563e-39
0.032672346 -0.034068998 0.061588679 9.219563e-39
0.028319649 -0.035905253 0.068108216 9.219563e-39
0.025213456 -0.037444364 0.075374909 9.219563e-39
0.0234592 -0.038634084 0.083142102 9.219563e-39
0.13146296 -0.013449552 0.15430154 9.219563e-39
0.13482766 -0.01184664 0.14716491 9.219563e-39
0.13685788 -0.010583591 0.13947693 9.219563e-39
0.13748473 -0.0097032767 0.13149856 9.219563e-39
0.13668689 -0.0092355786 0.12350064 9.219563e-39
0.13449147 -0.0091963727 0.11575462 9.219563e-39
0.130973 -0.0095869899 0.10852345 9.219563e-39
0.12625088 -0.01039417 0.10205258 9.219563e-39
0.12048542 -0.011590515 0.096561641 9.219563e-39
0.11387231 -0.013135416 0.092237033 9.219563e-39
0.10663603 -0.014976434 0.089225546 9.219563e-39
0.13640508 -0.010763879 0.14003244 9.219563e-39
0.13840693 -0.009508322 0.1323358 9.219563e-39
0.13900447 -0.0086362511 0.12435428 9.219563e-39
0.13817742 -0.0081772683 0.11635882 9.219563e-39
0.13595384 -0.0081469519 0.1086208 9.219563e-39
0.13240921 -0.0085463319 0.10140289 9.219563e-39
0.12766387 -0.009361851 0.09495008 9.219563e-39
0.12187886 -0.010565828 0.089481413 9.219563e-39
0.11525057 -0.012117395 0.085182518 9.219563e-39
0.10800398 -0.013963887 0.082199305 9.219563e-39
0.10038507 -0.016042624 0.080633044 9.219563e-39
0.138662 -0.0087915119 0.12499046 9.219563e-39
0.13923024 -0.0079276972 0.11700591 9.219563e-39
0.13837397 -0.0074774353 0.10901303 9.219563e-39
0.13612226 -0.0074560088 0.10128312 9.219563e-39
0.13255155 -0.0078641456 0.094078563 9.219563e-39
0.12778303 -0.0086879926 0.087643921 9.219563e-39
0.12197856 -0.0098995836 0.082197607 9.219563e-39
0.11533518 -0.011457793 0.077924483 9.219563e-39
0.10807838 -0.013309731 0.074969597 9.219563e-39
0.10045449 -0.015392534 0.07343325 9.219563e-39
0.092722297 -0.017635506 0.073367588 9.219563e-39
0.13815393 -0.007602179 0.10970739 9.219563e-39
0.13726845 -0.0071606445 0.1017172 9.219563e-39
0.13498865 -0.0071481089 0.093995512 9.219563e-39
0.1313919 -0.0075649968 0.086804435 9.219563e-39
0.12660028 -0.0083971582 0.080388047 9.219563e-39
0.12077644 -0.009616347 0.074964151 9.219563e-39
0.11411806 -0.011181178 0.070716858 9.219563e-39
0.10685117 -0.013038535 0.067790337 9.219563e-39
0.099222407 -0.015125373 0.066283926 9.219563e-39
0.091490738 -0.017370857 0.066248752 9.219563e-39
0.083918601 -0.019698765 0.067686021 9.219563e-39
0.13489883 -0.0072379261 0.094723515 9.219563e-39
0.13259095 -0.0072342809 0.08701016 9.219563e-39
0.12896821 -0.0076599144 0.079832651 9.219563e-39
0.12415356 -0.0085003795 0.073434614 9.219563e-39
0.11831043 -0.0097271465 0.068033226 9.219563e-39
0.11163716 -0.011298575 0.063811824 9.219563e-39
0.10436026 -0.013161326 0.060913712 9.219563e-39
0.096726745 -0.015252168 0.059437256 9.219563e-39
0.088995717 -0.017500132 0.05943257 9.219563e-39
0.081429601 -0.019828914 0.060899816 9.219563e-39
0.074285217 -0.022159463 0.063789189 9.219563e-39
0.12901177 -0.0077116303 0.080568552 9.219563e-39
0.12536308 -0.0081460029 0.073404714 9.219563e-39
0.12052547 -0.0089947591 0.067025118 9.219563e-39
0.11466314 -0.010229087 0.061646309 9.219563e-39
0.10797507 -0.011807092 0.057450872 9.219563e-39
0.10068828 -0.013675208 0.054581206 9.219563e-39
0.093050107 -0.015770026 0.053134728 9.219563e-39
0.085319839 -0.018020438 0.05316053 9.219563e-39
0.077759854 -0.020350056 0.054657739 9.219563e-39
0.070626773 -0.022679808 0.057575535 9.219563e-39
0.064162716 -0.024930608 0.061814874 9.219563e-39
0.12070088 -0.009006544 0.067742907 9.219563e-39
0.11584038 -0.0098635787 0.061381843 9.219563e-39
0.10995892 -0.011105452 0.056025695 9.219563e-39
0.10325614 -0.012690009 0.051856272 9.219563e-39
0.095959567 -0.014563464 0.049015101 9.219563e-39
0.088316858 -0.016662225 0.047598619 9.219563e-39
0.080587454 -0.018915053 0.047654908 9.219563e-39
0.073033705 -0.021245478 0.049182057 9.219563e-39
0.065912031 -0.023574395 0.052128229 9.219563e-39
0.059464149 -0.025822753 0.056393422 9.219563e-39
0.053908937 -0.027914234 0.061832856 9.219563e-39
0.11025997 -0.011076891 0.056699991 9.219563e-39
0.10435948 -0.01232629 0.051366583 9.219563e-39
0.097642094 -0.013917376 0.047223236 9.219563e-39
0.090335831 -0.015796144 0.044410594 9.219563e-39
0.082688704 -0.017898818 0.04302413 9.219563e-39
0.074960269 -0.020154029 0.043110907 9.219563e-39
0.067412876 -0.022485225 0.044667974 9.219563e-39
0.060302697 -0.024813276 0.047642484 9.219563e-39
0.053871088 -0.027059158 0.051933467 9.219563e-39
0.048336361 -0.02914664 0.057395276 9.219563e-39
0.043886378 -0.031004863 0.063842505 9.219563e-39
0.098058149 -0.013849478 0.047830205 9.219563e-39
0.091326252 -0.015447072 0.043712996 9.219563e-39
0.084010422 -0.017331123 0.040928926 9.219563e-39
0.076358974 -0.019437682 0.039572503 9.219563e-39
0.068631634 -0.021695243 0.039689761 9.219563e-39
0.061090693 -0.024027176 0.041276727 9.219563e-39
0.053992122 -0.026354328 0.044279531 9.219563e-39
0.047576874 -0.028597701 0.048596241 9.219563e-39
0.042062711 -0.030681154 0.054080341 9.219563e-39
0.037636794 -0.032533962 0.060545672 9.219563e-39
0.034449365 -0.034093235 0.067772783 9.219563e-39
0.084526777 -0.01722629 0.04144711 9.219563e-39
0.077201471 -0.019115599 0.038691655 9.219563e-39
0.069545813 -0.021226011 0.037365288 9.219563e-39
0.061819676 -0.02348589 0.037513029 9.219563e-39
0.054285303 -0.025818527 0.039129868 9.219563e-39
0.047198445 -0.028144743 0.042160921 9.219563e-39
0.040799651 -0.030385578 0.046503302 9.219563e-39
0.03530613 -0.03246497 0.052009612 9.219563e-39
0.030904343 -0.034312334 0.058492947 9.219563e-39
0.02774371 -0.035864968 0.065733239 9.219563e-39
0.025931513 -0.037070166 0.073484734 9.219563e-39
0.070144214 -0.021087946 0.037776362 9.219563e-39
0.062484466 -0.023202181 0.036480073 9.219563e-39
0.054759637 -0.025464345 0.036658298 9.219563e-39
0.047231939 -0.027797652 0.038304985 9.219563e-39
0.04015689 -0.0301229 0.041364245 9.219563e-39
0.033774648 -0.032361165 0.045732226 9.219563e-39
0.028301846 -0.034436464 0.051260673 9.219563e-39
0.023924254 -0.036278363 0.057761922 9.219563e-39
0.020790463 -0.037824333 0.065015294 9.219563e-39
0.019006848 -0.039021902 0.072774597 9.219563e-39
0.018633949 -0.03983042 0.080776431 9.219563e-39
0.13673253 -0.0098746726 0.13095728 9.219563e-39
0.13879184 -0.0086039528 0.1232783 9.219563e-39
0.13944873 -0.0077151912 0.11530329 9.219563e-39
0.13868091 -0.0072385566 0.10730295 9.219563e-39
0.13651443 -0.0071902275 0.099548846 9.219563e-39
0.13302283 -0.0075718448 0.092304178 9.219563e-39
0.12832464 -0.0083704544 0.085814849 9.219563e-39
0.12257932 -0.0095589496 0.080301151 9.219563e-39
0.1159819 -0.011096987 0.07595022 9.219563e-39
0.10875631 -0.01293236 0.07290975 9.219563e-39
0.10114783 -0.015002769 0.071282953 9.219563e-39
0.13910148 -0.0078715887 0.1159366 9.219563e-39
0.13972908 -0.0069910581 0.10795832 9.219563e-39
0.13893202 -0.0065231309 0.099960327 9.219563e-39
0.13673735 -0.0064836913 0.092214108 9.219563e-39
0.13321956 -0.0068740775 0.084982589 9.219563e-39
0.12849806 -0.0076810382 0.078511238 9.219563e-39
0.12273311 -0.0088771824 0.073019721 9.219563e-39
0.11612041 -0.010421908 0.068694435 9.219563e-39
0.1088844 -0.012262782 0.065682203 9.219563e-39
0.10127071 -0.014337317 0.064085267 9.219563e-39
0.093537778 -0.016575096 0.063957833 9.219563e-39
0.13870679 -0.0066492171 0.10065278 9.219563e-39
0.1378805 -0.0061900048 0.092657253 9.219563e-39
0.13565767 -0.0061594546 0.084919028 9.219563e-39
0.13211372 -0.0065586036 0.077700764 9.219563e-39
0.12736899 -0.0073739034 0.071247481 9.219563e-39
0.1215845 -0.0085776802 0.065778226 9.219563e-39
0.1149566 -0.010129072 0.061478652 9.219563e-39
0.10771029 -0.01197542 0.058494698 9.219563e-39
0.10009151 -0.014054051 0.056927655 9.219563e-39
0.09235888 -0.016294409 0.056830708 9.219563e-39
0.084774882 -0.018620446 0.058207151 9.219563e-39
0.13556242 -0.0062507712 0.085646152 9.219563e-39
0.13331145 -0.006229111 0.077916034 9.219563e-39
0.12974142 -0.0066370172 0.070711128 9.219563e-39
0.12497351 -0.0074606449 0.064276002 9.219563e-39
0.11916956 -0.0086720362 0.058829099 9.219563e-39
0.11252657 -0.010230072 0.054555293 9.219563e-39
0.10527004 -0.012081866 0.051599663 9.219563e-39
0.097646281 -0.014164563 0.050062526 9.219563e-39
0.089914069 -0.016407467 0.049996067 9.219563e-39
0.082335867 -0.018734446 0.051402535 9.219563e-39
0.075168908 -0.021066513 0.054234192 9.219563e-39
0.12977952 -0.0066903364 0.071447216 9.219563e-39
0.12618345 -0.0071069947 0.064255781 9.219563e-39
0.12139244 -0.0079389373 0.057838913 9.219563e-39
0.11556911 -0.0091579258 0.052414428 9.219563e-39
0.10891113 -0.010722583 0.048166458 9.219563e-39
0.10164449 -0.012579798 0.045239188 9.219563e-39
0.094015859 -0.01466653 0.043731987 9.219563e-39
0.086284176 -0.016911948 0.043696012 9.219563e-39
0.078711882 -0.019239834 0.045132488 9.219563e-39
0.071556009 -0.021571169 0.04799265 9.219563e-39
0.065059461 -0.023826821 0.052179415 9.219563e-39
0.12156254 -0.0079523744 0.058557946 9.219563e-39
0.1167485 -0.0087926202 0.052159425 9.219563e-39
0.11090587 -0.010019189 0.046757441 9.219563e-39
0.10423299 -0.011590444 0.042535365 9.219563e-39
0.096956357 -0.013453053 0.039636504 9.219563e-39
0.089322962 -0.015543791 0.038159255 9.219563e-39
0.081591919 -0.01779169 0.038153771 9.219563e-39
0.074025646 -0.020120448 0.039620228 9.219563e-39
0.066880964 -0.022451019 0.042508852 9.219563e-39
0.060400404 -0.024704292 0.046721596 9.219563e-39
0.05480393 -0.026803786 0.052115459 9.219563e-39
0.11120196 -0.0099922679 0.047433998 9.219563e-39
0.10534014 -0.011226398 0.042054597 9.219563e-39
0.098652452 -0.01280423 0.037858475 9.219563e-39
0.091365919 -0.014672205 0.034988061 9.219563e-39
0.083727874 -0.016766917 0.033540793 9.219563e-39
0.075997584 -0.019017266 0.033565789 9.219563e-39
0.068437435 -0.021346863 0.035062212 9.219563e-39
0.061304051 -0.023676636 0.03797926 9.219563e-39
0.05483957 -0.025927501 0.042217918 9.219563e-39
0.049263421 -0.028023055 0.047634311 9.219563e-39
0.044764873 -0.029892169 0.054044586 9.219563e-39
0.099064067 -0.012737903 0.038468633 9.219563e-39
0.092361681 -0.014322287 0.034298528 9.219563e-39
0.085065357 -0.016195603 0.031456605 9.219563e-39
0.077422775 -0.01829426 0.030039331 9.219563e-39
0.069693342 -0.020547025 0.030094819 9.219563e-39
0.062139429 -0.022877429 0.03162118 9.219563e-39
0.055017449 -0.025206368 0.034566607 9.219563e-39
0.048569143 -0.027454792 0.038831122 9.219563e-39
0.04301339 -0.029546378 0.044269964 9.219563e-39
0.03853878 -0.031410132 0.050698526 9.219563e-39
0.035297193 -0.032982789 0.057898596 9.219563e-39
0.08557795 -0.016092215 0.031978797 9.219563e-39
0.07827194 -0.017970841 0.029165408 9.219563e-39
0.070624925 -0.020073414 0.027778152 9.219563e-39
0.062896468 -0.022328563 0.027864126 9.219563e-39
0.055348903 -0.024659738 0.029420407 9.219563e-39
0.048238423 -0.026987812 0.032394171 9.219563e-39
0.041806385 -0.029233761 0.036684476 9.219563e-39
0.036271118 -0.031321347 0.042145696 9.219563e-39
0.031820506 -0.033179715 0.048592452 9.219563e-39
0.028605619 -0.034745775 0.055805918 9.219563e-39
0.026735589 -0.035966381 0.063541241 9.219563e-39
0.071220368 -0.019936621 0.028193921 9.219563e-39
0.063569032 -0.022043077 0.026836706 9.219563e-39
0.055841662 -0.024300577 0.026953164 9.219563e-39
0.048300549 -0.026632491 0.028539343 9.219563e-39
0.041201673 -0.028959665 0.0315414 9.219563e-39
0.034785997 -0.031203108 0.035857435 9.219563e-39
0.029271288 -0.033286665 0.041340951 9.219563e-39
0.02484474 -0.035139617 0.047805805 9.219563e-39
0.021656606 -0.036699064 0.055032566 9.219563e-39
0.019815102 -0.037912074 0.062775925 9.219563e-39
0.019382739 -0.038737472 0.070773043 9.219563e-39
0.056498904 -0.024135213 0.027247807 9.219563e-39
0.04877273 -0.02639503 0.027394747 9.219563e-39
0.041238181 -0.028727651 0.029010801 9.219563e-39
0.034151014 -0.031053891 0.03204111 9.219563e-39
0.027751788 -0.033294793 0.036382813 9.219563e-39
0.022257721 -0.035374291 0.041888542 9.219563e-39
0.0178553 -0.037221801 0.048371408 9.219563e-39
0.014693961 -0.03877461 0.055611357 9.219563e-39
0.012881013 -0.039980009 0.063362636 9.219563e-39
0.012477991 -0.040797081 0.071362145 9.219563e-39
0.013498579 -0.041198097 0.079338342 9.219563e-39
-0.03644811 -0.073897481 0.23215897 9.219563e-39
-0.029893218 -0.071658932 0.23626317 9.219563e-39
-0.022785196 -0.069084413 0.23903266 9.219563e-39
-0.015365317 -0.066261314 0.2403734 9.219563e-39
-0.0078854375 -0.063285455 0.24023992 9.219563e-39
-0.00059945491 -0.060257856 0.23863673 9.219563e-39
0.0062453179 -0.057281278 0.23561825 9.219563e-39
0.012416543 -0.054456763 0.23128694 9.219563e-39
0.017704746 -0.051880185 0.22578983 9.219563e-39
0.021930423 -0.049638998 0.2193135 9.219563e-39
0.024950141 -0.047809284 0.21207778 9.219563e-39
-0.023289826 -0.06923914 0.23851542 9.219563e-39
-0.016172897 -0.066658586 0.24125625 9.219563e-39
-0.0087492205 -0.063831352 0.24256693 9.219563e-39
-0.001270782 -0.060853396 0.24240296 9.219563e-39
0.0060085705 -0.057825811 0.24076989 9.219563e-39
0.012841749 -0.054851357 0.23772319 9.219563e-39
0.018996809 -0.052031007 0.23336624 9.219563e-39
0.024264822 -0.049460486 0.22784695 9.219563e-39
0.028466975 -0.047227051 0.22135265 9.219563e-39
0.031460632 -0.045406517 0.21410382 9.219563e-39
0.033144172 -0.04406067 0.20634645 9.219563e-39
-0.0093322974 -0.064026549 0.242157 9.219563e-39
-0.0019049293 -0.061195217 0.24343759 9.219563e-39
0.0055719605 -0.058215212 0.24324313 9.219563e-39
0.012844577 -0.055187684 0.24158022 9.219563e-39
0.019666063 -0.052215401 0.23850532 9.219563e-39
0.025804868 -0.049399253 0.2341228 9.219563e-39
0.031052617 -0.04683483 0.22858141 9.219563e-39
0.035231188 -0.044609178 0.22206925 9.219563e-39
0.038198736 -0.042797845 0.21480738 9.219563e-39
0.039854534 -0.041462317 0.20704228 9.219563e-39
0.040142383 -0.040647924 0.19903752 9.219563e-39
0.0049310494 -0.058443986 0.24295498 9.219563e-39
0.012406282 -0.055461969 0.24273005 9.219563e-39
0.019672059 -0.052434545 0.24103732 9.219563e-39
0.026481751 -0.049464472 0.23793428 9.219563e-39
0.032604214 -0.046652567 0.23352624 9.219563e-39
0.037831627 -0.044094279 0.22796284 9.219563e-39
0.041986547 -0.041876443 0.22143291 9.219563e-39
0.044927947 -0.040074345 0.2141581 9.219563e-39
0.046555981 -0.038749151 0.20638537 9.219563e-39
0.046815392 -0.037945844 0.19837853 9.219563e-39
0.045697369 -0.03769169 0.19040936 9.219563e-39
0.018995972 -0.052688807 0.24088117 9.219563e-39
0.026254803 -0.049661528 0.23915866 9.219563e-39
0.033052605 -0.046693709 0.23602751 9.219563e-39
0.039158635 -0.043886088 0.23159403 9.219563e-39
0.044365633 -0.041333973 0.22600868 9.219563e-39
0.04849685 -0.039123986 0.21946108 9.219563e-39
0.051412057 -0.037331142 0.21217346 9.219563e-39
0.053012304 -0.0360163 0.20439319 9.219563e-39
0.053243272 -0.035224095 0.19638437 9.219563e-39
0.052097119 -0.034981407 0.18841885 9.219563e-39
0.049612749 -0.035296481 0.180767 9.219563e-39
0.032365244 -0.04696447 0.23600887 9.219563e-39
0.039151058 -0.043998946 0.23284967 9.219563e-39
0.04524057 -0.041195653 0.2283908 9.219563e-39
0.050427075 -0.038649745 0.22278361 9.219563e-39
0.054534525 -0.036447637 0.21621841 9.219563e-39
0.057423502 -0.03466408 0.20891808 9.219563e-39
0.058995936 -0.03335961 0.20113041 9.219563e-39
0.059198458 -0.032578513 0.19311972 9.219563e-39
0.05802419 -0.032347295 0.18515795 9.219563e-39
0.055512995 -0.03267381 0.17751534 9.219563e-39
0.051750109 -0.033546973 0.17045133 9.219563e-39
0.044566229 -0.04147334 0.22851032 9.219563e-39
0.050639134 -0.038674414 0.22402613 9.219563e-39
0.055805076 -0.03613475 0.21839716 9.219563e-39
0.059888702 -0.033940554 0.21181448 9.219563e-39
0.062751405 -0.032166306 0.20450154 9.219563e-39
0.064296 -0.030872228 0.19670656 9.219563e-39
0.064470075 -0.030102249 0.18869413 9.219563e-39
0.063267708 -0.029882507 0.18073623 9.219563e-39
0.060729723 -0.030220456 0.17310297 9.219563e-39
0.056942258 -0.031104628 0.16605347 9.219563e-39
0.052033883 -0.032505009 0.15982701 9.219563e-39
0.055167601 -0.036409546 0.21865061 9.219563e-39
0.060312901 -0.033876162 0.21299995 9.219563e-39
0.064372644 -0.031689908 0.20639989 9.219563e-39
0.067209028 -0.029924996 0.19907443 9.219563e-39
0.068725772 -0.02864133 0.19127227 9.219563e-39
0.068871394 -0.027882485 0.18325822 9.219563e-39
0.067640953 -0.027674217 0.17530429 9.219563e-39
0.06507621 -0.028023597 0.16768052 9.219563e-39
0.061264224 -0.028918765 0.16064563 9.219563e-39
0.056334388 -0.030329337 0.15443844 9.219563e-39
0.050454043 -0.032207433 0.14926966 9.219563e-39
0.063794576 -0.031952102 0.20677832 9.219563e-39
0.067830376 -0.029773822 0.20016095 9.219563e-39
0.0706404 -0.02801827 0.19282311 9.219563e-39
0.072129264 -0.026745033 0.18501386 9.219563e-39
0.072246432 -0.02599733 0.1769983 9.219563e-39
0.070987925 -0.025800541 0.16904847 9.219563e-39
0.068396464 -0.026161347 0.16143426 9.219563e-39
0.064560018 -0.027067499 0.1544141 9.219563e-39
0.059608795 -0.028488241 0.14822629 9.219563e-39
0.05371087 -0.030375347 0.14308086 9.219563e-39
0.047066439 -0.032664757 0.13915247 9.219563e-39
0.070142165 -0.028258586 0.19331314 9.219563e-39
0.072925791 -0.02651242 0.185963 9.219563e-39
0.074386753 -0.02524963 0.17814681 9.219563e-39
0.074475467 -0.024513081 0.17012984 9.219563e-39
0.073188923 -0.024327775 0.16218424 9.219563e-39
0.070570782 -0.024700001 0.1545797 9.219563e-39
0.066709913 -0.025617125 0.14757437 9.219563e-39
0.061737381 -0.027048016 0.14140601 9.219563e-39
0.055821959 -0.028944103 0.13628402 9.219563e-39
0.049164452 -0.031241028 0.13238224 9.219563e-39
0.041990828 -0.033860821 0.12983313 9.219563e-39
0.073985964 -0.025459576 0.17873111 9.219563e-39
0.075419009 -0.024207253 0.17090806 9.219563e-39
0.075479269 -0.023481868 0.16288981 9.219563e-39
0.074164696 -0.023308046 0.15494853 9.219563e-39
0.071519911 -0.023691688 0.1473538 9.219563e-39
0.067634694 -0.024619769 0.14036338 9.219563e-39
0.062640913 -0.026060788 0.13421458 9.219563e-39
0.05670809 -0.027965831 0.1291161 9.219563e-39
0.050037596 -0.030270234 0.12524101 9.219563e-39
0.042855855 -0.032895777 0.12272083 9.219563e-39
0.035406649 -0.035753336 0.12164111 9.219563e-39
-0.014838618 -0.065988518 0.23964106 9.219563e-39
-0.0077398452 -0.063420229 0.2424399 9.219563e-39
-0.00032397415 -0.060601417 0.24381149 9.219563e-39
0.0071572713 -0.057627756 0.2437093 9.219563e-39
0.014449949 -0.054600187 0.24213679 9.219563e-39
0.021306518 -0.051621478 0.23914732 9.219563e-39
0.027494242 -0.048792731 0.2348424 9.219563e-39
0.032803085 -0.046209969 0.22936812 9.219563e-39
0.037052844 -0.043960862 0.22291033 9.219563e-39
0.040099263 -0.042121753 0.2156882 9.219563e-39
0.041838944 -0.040755067 0.2079469 9.219563e-39
-0.00090423092 -0.060795091 0.24339686 9.219563e-39
0.0065155476 -0.0579721 0.2447384 9.219563e-39
0.013995463 -0.0549963 0.24460572 9.219563e-39
0.021281619 -0.051968697 0.24300331 9.219563e-39
0.028126696 -0.048992068 0.23998559 9.219563e-39
0.034298345 -0.046167444 0.23565495 9.219563e-39
0.039587077 -0.043590706 0.23015842 9.219563e-39
0.043813374 -0.041349314 0.22368255 9.219563e-39
0.046833776 -0.039519358 0.21644719 9.219563e-39
0.048545763 -0.038162947 0.20869792 9.219563e-39
0.048891224 -0.037326124 0.20069775 9.219563e-39
0.013356484 -0.055223852 0.24431238 9.219563e-39
0.020834962 -0.052245956 0.24414921 9.219563e-39
0.02811449 -0.049218368 0.24251693 9.219563e-39
0.034947973 -0.046243861 0.23947096 9.219563e-39
0.04110346 -0.043423399 0.23511469 9.219563e-39
0.046372008 -0.040852718 0.22959597 9.219563e-39
0.05057478 -0.038619079 0.22310217 9.219563e-39
0.053569123 -0.036798302 0.21585366 9.219563e-39
0.055253394 -0.035452187 0.2080965 9.219563e-39
0.055570424 -0.034626424 0.20009403 9.219563e-39
0.05450945 -0.03434905 0.19211784 9.219563e-39
0.027439378 -0.049471762 0.24235524 9.219563e-39
0.034712173 -0.04644423 0.24069312 9.219563e-39
0.041533969 -0.043471888 0.23761897 9.219563e-39
0.047673203 -0.040655632 0.23323712 9.219563e-39
0.052921485 -0.038091045 0.22769631 9.219563e-39
0.057100676 -0.035865191 0.22118463 9.219563e-39
0.060068913 -0.034053616 0.21392308 9.219563e-39
0.061725441 -0.032717817 0.20615819 9.219563e-39
0.06201404 -0.031903129 0.1981535 9.219563e-39
0.060924903 -0.031637214 0.19018072 9.219563e-39
0.058495004 -0.031929094 0.18251048 9.219563e-39
0.04084659 -0.043742161 0.23759465 9.219563e-39
0.047656596 -0.040772028 0.23449235 9.219563e-39
0.053779487 -0.037960015 0.23008499 9.219563e-39
0.059007436 -0.035401564 0.22452216 9.219563e-39
0.063162982 -0.033183523 0.21799269 9.219563e-39
0.066105068 -0.031381179 0.21071823 9.219563e-39
0.067733832 -0.030055713 0.20294569 9.219563e-39
0.067993991 -0.029252114 0.1949389 9.219563e-39
0.066876709 -0.02899766 0.18696964 9.219563e-39
0.06441991 -0.029300988 0.17930843 9.219563e-39
0.060706992 -0.030151803 0.1722153 9.219563e-39
0.053104144 -0.038237609 0.2301989 9.219563e-39
0.059210606 -0.035429876 0.22576608 9.219563e-39
0.064418145 -0.032877598 0.22018132 9.219563e-39
0.068549983 -0.030667404 0.21363418 9.219563e-39
0.07146588 -0.028874317 0.2063469 9.219563e-39
0.07306686 -0.027559204 0.19856682 9.219563e-39
0.073298573 -0.026766703 0.19055806 9.219563e-39
0.072153158 -0.026523715 0.18259244 9.219563e-39
0.0696695 -0.026838489 0.17494035 9.219563e-39
0.065931894 -0.027700339 0.16786154 9.219563e-39
0.061067209 -0.029080009 0.16159627 9.219563e-39
0.063778706 -0.033152707 0.22042945 9.219563e-39
0.068965755 -0.030606631 0.21482283 9.219563e-39
0.073073834 -0.028404316 0.20825809 9.219563e-39
0.075963497 -0.026620513 0.2009581 9.219563e-39
0.077536665 -0.025315773 0.19317061 9.219563e-39
0.077739932 -0.024534382 0.18515998 9.219563e-39
0.076566406 -0.024302863 0.17719811 9.219563e-39
0.074055918 -0.024629077 0.16955526 9.219563e-39
0.070293672 -0.025501948 0.16249086 9.219563e-39
0.065407395 -0.02689185 0.1562447 9.219563e-39
0.059562929 -0.028751604 0.15102878 9.219563e-39
0.072492912 -0.02866721 0.20863165 9.219563e-39
0.076577164 -0.026472805 0.20204943 9.219563e-39
0.079440556 -0.02469831 0.19473682 9.219563e-39
0.080985889 -0.023403961 0.18694204 9.219563e-39
0.081160709 -0.02263369 0.17892966 9.219563e-39
0.079959087 -0.022413645 0.17097165 9.219563e-39
0.077421807 -0.022751294 0.16333815 9.219563e-39
0.07363499 -0.023635175 0.15628827 9.219563e-39
0.068727173 -0.025035288 0.15006129 9.219563e-39
0.062864959 -0.026904108 0.1448686 9.219563e-39
0.05624732 -0.029178197 0.14088644 9.219563e-39
0.078938685 -0.024939695 0.19522262 9.219563e-39
0.081775762 -0.023174535 0.18789749 9.219563e-39
0.083293244 -0.021890596 0.18009551 9.219563e-39
0.083439611 -0.021131458 0.1720815 9.219563e-39
0.082209907 -0.020922888 0.16412748 9.219563e-39
0.079645865 -0.021271966 0.15650344 9.219563e-39
0.075834528 -0.022166846 0.14946817 9.219563e-39
0.070905253 -0.02357715 0.14326048 9.219563e-39
0.065025374 -0.025455007 0.13809107 9.219563e-39
0.058394466 -0.027736675 0.13413543 9.219563e-39
0.051237609 -0.030344706 0.1315278 9.219563e-39
0.082888164 -0.022101939 0.18067636 9.219563e-39
0.084377766 -0.020828426 0.1728673 9.219563e-39
0.084495686 -0.02008043 0.16485177 9.219563e-39
0.083237916 -0.01988334 0.15690184 9.219563e-39
0.080647156 -0.020243846 0.14928737 9.219563e-39
0.076811351 -0.02114971 0.14226682 9.219563e-39
0.071860693 -0.022570184 0.13607849 9.219563e-39
0.065963224 -0.02445705 0.13093245 9.219563e-39
0.059319142 -0.026746266 0.12700336 9.219563e-39
0.052153956 -0.029360121 0.1244246 9.219563e-39
0.044710889 -0.032209896 0.12328368 9.219563e-39
0.084201723 -0.02025426 0.16550712 9.219563e-39
0.084291182 -0.019517418 0.15749019 9.219563e-39
0.083005376 -0.019331809 0.14954448 9.219563e-39
0.080387935 -0.019703735 0.14193968 9.219563e-39
0.076527715 -0.02062057 0.13493396 9.219563e-39
0.071555741 -0.022051193 0.12876509 9.219563e-39
0.065640777 -0.023947045 0.12364249 9.219563e-39
0.058983609 -0.026243772 0.11974002 9.219563e-39
0.051810205 -0.028863415 0.11719014 9.219563e-39
0.04436405 -0.031717051 0.11607943 9.219563e-39
0.036897901 -0.034707822 0.11644556 9.219563e-39
0.0075495425 -0.057400033 0.24288321 9.219563e-39
0.014961292 -0.05458555 0.24428563 9.219563e-39
0.02244379 -0.051614132 0.24421474 9.219563e-39
0.029743053 -0.048586637 0.24267292 9.219563e-39
0.036611315 -0.045605835 0.23971254 9.219563e-39
0.042815443 -0.042772904 0.23543406 9.219563e-39
0.048144843 -0.040184002 0.2299827 9.219563e-39
0.052418616 -0.037927005 0.22354352 9.219563e-39
0.055491697 -0.036078531 0.2163351 9.219563e-39
0.057259768 -0.034701318 0.20860209 9.219563e-39
0.057662819 -0.033842117 0.200607 9.219563e-39
0.02180678 -0.051840451 0.2439162 9.219563e-39
0.029288059 -0.048866846 0.24381481 9.219563e-39
0.036580909 -0.04583928 0.24224308 9.219563e-39
0.043437779 -0.042860512 0.23925437 9.219563e-39
0.049625922 -0.04003166 0.23495011 9.219563e-39
0.054935295 -0.037448741 0.22947644 9.219563e-39
0.059185669 -0.03519943 0.22301911 9.219563e-39
0.062232774 -0.033360083 0.21579732 9.219563e-39
0.063973181 -0.031993125 0.20805623 9.219563e-39
0.064347811 -0.03114496 0.20005858 9.219563e-39
0.06334395 -0.030844379 0.19207585 9.219563e-39
0.03590681 -0.046091784 0.24207586 9.219563e-39
0.043193139 -0.043064184 0.24047425 9.219563e-39
0.05003852 -0.040087499 0.23745726 9.219563e-39
0.056210592 -0.037262764 0.2331273 9.219563e-39
0.061499856 -0.034685869 0.22763135 9.219563e-39
0.065726772 -0.032444276 0.22115597 9.219563e-39
0.068747863 -0.030614076 0.21392095 9.219563e-39
0.070460573 -0.029257394 0.20617187 9.219563e-39
0.070806779 -0.028420281 0.19817178 9.219563e-39
0.069774732 -0.028131152 0.19019222 9.219563e-39
0.067399442 -0.028399818 0.18250404 9.219563e-39
0.049351167 -0.040357266 0.23742728 9.219563e-39
0.056184959 -0.0373827 0.23438205 9.219563e-39
0.06234087 -0.03456213 0.23002645 9.219563e-39
0.067609951 -0.031991288 0.22450832 9.219563e-39
0.071813345 -0.029757446 0.21801497 9.219563e-39
0.074808374 -0.027936425 0.21076681 9.219563e-39
0.076493368 -0.026590038 0.20300987 9.219563e-39
0.07681115 -0.025763987 0.19500744 9.219563e-39
0.075750917 -0.025486311 0.18703118 9.219563e-39
0.073348664 -0.025766436 0.17935179 9.219563e-39
0.069685929 -0.026594851 0.17222998 9.219563e-39
0.061664559 -0.034839615 0.23013476 9.219563e-39
0.067804225 -0.032023247 0.22575358 9.219563e-39
0.07305304 -0.029458502 0.22021335 9.219563e-39
0.077232853 -0.02723244 0.21370214 9.219563e-39
0.080201775 -0.025420625 0.20644094 9.219563e-39
0.081859037 -0.024084551 0.19867624 9.219563e-39
0.082148381 -0.023269575 0.19067161 9.219563e-39
0.081059985 -0.023003357 0.18269874 9.219563e-39
0.078630798 -0.023294935 0.17502826 9.219563e-39
0.074943267 -0.024134411 0.16792056 9.219563e-39
0.07012257 -0.02549329 0.16161686 9.219563e-39
0.072411686 -0.029733904 0.22045612 9.219563e-39
0.077640168 -0.027175292 0.21489388 9.219563e-39
0.081796333 -0.024957044 0.20836489 9.219563e-39
0.084739111 -0.023154458 0.20109077 9.219563e-39
0.086368613 -0.021828718 0.19331843 9.219563e-39
0.086629517 -0.021024829 0.18531169 9.219563e-39
0.085512973 -0.020770073 0.17734234 9.219563e-39
0.083056882 -0.021073101 0.16968088 9.219563e-39
0.079344615 -0.021923624 0.16258737 9.219563e-39
