# .PCD v0.7 - Point Cloud Data file format
VERSION 0.7
FIELDS x y z rgb
SIZE 4 4 4 4
TYPE F F F F
COUNT 1 1 1 1
WIDTH 982
HEIGHT 1
VIEWPOINT 0 0 0 1 0 0 0
POINTS 982
DATA ascii
0.08939527 -0.039514624 0.19099954 9.219563e-39
0.087805808 -0.038998041 0.18221428 9.219563e-39
0.0844808 -0.038799163 0.17391494 9.219563e-39
0.070869952 -0.045837581 0.22969662 9.219563e-39
0.078509435 -0.044244163 0.22532931 9.219563e-39
0.085086226 -0.04268894 0.21947259 9.219563e-39
0.090324886 -0.041237041 0.21237171 9.219563e-39
0.094006047 -0.039949272 0.20432405 9.219563e-39
0.095975541 -0.038879562 0.19566663 9.219563e-39
0.096150883 -0.038072705 0.18676201 9.219563e-39
0.094524749 -0.037562493 0.17798309 9.219563e-39
0.091165222 -0.037370294 0.16969752 9.219563e-39
0.086212993 -0.037504155 0.16225228 9.219563e-39
0.084425181 -0.04282479 0.21982731 9.219563e-39
0.090977013 -0.041271046 0.21394227 9.219563e-39
0.096185595 -0.039821938 0.20681874 9.219563e-39
0.099832818 -0.038538143 0.19875503 9.219563e-39
0.10176594 -0.037473429 0.19008879 9.219563e-39
0.101904 -0.036672384 0.181183 9.219563e-39
0.10024121 -0.036168549 0.17241056 9.219563e-39
0.096847221 -0.03598303 0.1641389 9.219563e-39
0.091864161 -0.036123596 0.15671439 9.219563e-39
0.085500702 -0.036584355 0.15044796 9.219563e-39
0.095613897 -0.03995515 0.20730524 9.219563e-39
0.10079232 -0.038508851 0.20015918 9.219563e-39
0.10440554 -0.037229054 0.19207951 9.219563e-39
0.10630225 -0.036169354 0.18340464 9.219563e-39
0.10640301 -0.035374135 0.17449781 9.219563e-39
0.10470361 -0.034876689 0.16573204 9.219563e-39
0.10127522 -0.034697853 0.15747443 9.219563e-39
0.096261404 -0.034845117 0.15007077 9.219563e-39
0.089872137 -0.035312317 0.14383115 9.219563e-39
0.08237499 -0.03607988 0.13901682 9.219563e-39
0.10394811 -0.037353817 0.19267656 9.219563e-39
0.10752727 -0.036078043 0.18458112 9.219563e-39
0.10938753 -0.03502338 0.17589773 9.219563e-39
0.109451 -0.034233995 0.16699004 9.219563e-39
0.10771502 -0.033742946 0.15823109 9.219563e-39
0.10425229 -0.0335708 0.14998767 9.219563e-39
0.099207811 -0.033724762 0.14260502 9.219563e-39
0.092792846 -0.034198388 0.1363923 9.219563e-39
0.085276045 -0.034971841 0.13160966 9.219563e-39
0.076972187 -0.036012731 0.12845744 9.219563e-39
0.10906433 -0.035134252 0.17657928 9.219563e-39
0.11088812 -0.034084644 0.16788755 9.219563e-39
0.1109143 -0.033301111 0.15897916 9.219563e-39
0.10914176 -0.03281647 0.15022717 9.219563e-39
0.10564475 -0.032651011 0.1419981 9.219563e-39
0.1005697 -0.032811671 0.13463657 9.219563e-39
0.094129153 -0.033291716 0.12845086 9.219563e-39
0.086592823 -0.034071047 0.12370002 9.219563e-39
0.078276321 -0.035117023 0.12058301 9.219563e-39
0.069527924 -0.036385842 0.11923035 9.219563e-39
0.11073942 -0.03339326 0.15971549 9.219563e-39
0.1107283 -0.032615595 0.15080655 9.219563e-39
0.10891924 -0.032137364 0.14206168 9.219563e-39
0.10538801 -0.031978603 0.13384712 9.219563e-39
0.10028248 -0.032145955 0.12650684 9.219563e-39
0.093816467 -0.032632414 0.12034826 9.219563e-39
0.086260751 -0.033417605 0.11562929 9.219563e-39
0.077931754 -0.034468647 0.11254754 9.219563e-39
0.069178276 -0.035741527 0.11123208 9.219563e-39
0.060366895 -0.037182938 0.11173799 9.219563e-39
0.10890031 -0.03220677 0.14282069 9.219563e-39
0.10705476 -0.031734966 0.13408311 9.219563e-39
0.10348938 -0.031582899 0.12588316 9.219563e-39
0.09835346 -0.031756941 0.11856428 9.219563e-39
0.091862097 -0.032249801 0.11243294 9.219563e-39
0.084287129 -0.03304084 0.10774592 9.219563e-39
0.07594578 -0.034096934 0.10469949 9.219563e-39
0.067187376 -0.035373848 0.10342126 9.219563e-39
0.0583787 -0.036818117 0.10396472 9.219563e-39
0.049888641 -0.03836925 0.10630713 9.219563e-39
0.10362722 -0.031626534 0.12663174 9.219563e-39
0.10002775 -0.031481165 0.11844659 9.219563e-39
0.09486153 -0.031661894 0.11114921 9.219563e-39
0.088344924 -0.03216115 0.10504522 9.219563e-39
0.080750838 -0.032958023 0.10039023 9.219563e-39
0.072397299 -0.034019146 0.097379193 9.219563e-39
0.063634127 -0.035300076 0.096138187 9.219563e-39
0.054828309 -0.036747172 0.096719198 9.219563e-39
0.04634862 -0.038299836 0.099097885 9.219563e-39
0.038550168 -0.039893042 0.10317464 9.219563e-39
0.064228855 -0.047056437 0.23159207 9.219563e-39
0.072646029 -0.045495525 0.2290058 9.219563e-39
0.080341548 -0.043901935 0.22473808 9.219563e-39
0.086993143 -0.042342395 0.21896763 9.219563e-39
0.09232226 -0.040882222 0.21193609 9.219563e-39
0.096105717 -0.039582565 0.20393793 9.219563e-39
0.09818507 -0.03849785 0.19530812 9.219563e-39
0.098473251 -0.037673499 0.18640804 9.219563e-39
0.096958183 -0.037144039 0.17761041 9.219563e-39
0.093703315 -0.036931641 0.16928366 9.219563e-39
0.079618186 -0.044034239 0.2249393 9.219563e-39
0.087295324 -0.042440671 0.2206386 9.219563e-39
0.093922317 -0.040882532 0.21483953 9.219563e-39
0.099221639 -0.039425068 0.20778495 9.219563e-39
0.10297136 -0.038129315 0.1997703 9.219563e-39
0.10501445 -0.037049536 0.1911312 9.219563e-39
0.10526535 -0.036230955 0.18222946 9.219563e-39
0.10371356 -0.035707846 0.17343786 9.219563e-39
0.10042404 -0.035502117 0.16512457 9.219563e-39
0.095534578 -0.035622388 0.15763773 9.219563e-39
0.093258217 -0.041018363 0.21518849 9.219563e-39
0.099860489 -0.03946165 0.20936091 9.219563e-39
0.10512993 -0.03800692 0.20228343 9.219563e-39
0.10884584 -0.036715094 0.19425242 9.219563e-39
0.11085264 -0.035640273 0.1856042 9.219563e-39
0.11106625 -0.034827471 0.17670095 9.219563e-39
0.10947775 -0.034310721 0.16791552 9.219563e-39
0.10615365 -0.034111671 0.15961584 9.219563e-39
0.10123318 -0.034238648 0.15214945 9.219563e-39
0.094922364 -0.034686338 0.14582907 9.219563e-39
0.10455406 -0.038140353 0.20276491 9.219563e-39
0.10979351 -0.036688384 0.19566463 9.219563e-39
0.11347556 -0.03540051 0.18761739 9.219563e-39
0.11544601 -0.03433067 0.17896022 9.219563e-39
0.11562233 -0.03352366 0.17005563 9.219563e-39
0.11399716 -0.03301328 0.16127653 9.219563e-39
0.11063854 -0.032820906 0.15299059 9.219563e-39
0.10568713 -0.032954589 0.14554481 9.219563e-39
0.099350281 -0.033408735 0.13925099 9.219563e-39
0.091893375 -0.034164321 0.13437271 9.219563e-39
0.11301303 -0.035525732 0.1882104 9.219563e-39
0.11666115 -0.034241833 0.18014708 9.219563e-39
0.11859522 -0.033176985 0.17148109 9.219563e-39
0.11873426 -0.032375786 0.16257532 9.219563e-39
0.11707244 -0.031871784 0.15380272 9.219563e-39
0.11367936 -0.03168609 0.14553069 9.219563e-39
0.1086971 -0.031826477 0.13810563 9.219563e-39
0.10233433 -0.032287069 0.1318385 9.219563e-39
0.094857492 -0.033048574 0.12699173 9.219563e-39
0.08657971 -0.034079105 0.12376833 9.219563e-39
0.11826622 -0.033288527 0.17215975 9.219563e-39
0.12016388 -0.032228697 0.16348509 9.219563e-39
0.12026563 -0.031433322 0.15457828 9.219563e-39
0.11856719 -0.030935708 0.14581235 9.219563e-39
0.11513971 -0.030756699 0.13755436 9.219563e-39
0.1101267 -0.030903786 0.13015015 9.219563e-39
0.10373811 -0.031370815 0.12390982 9.219563e-39
0.096241482 -0.032138225 0.11909466 9.219563e-39
0.087950751 -0.033173874 0.11590636 9.219563e-39
0.079213127 -0.0344344 0.11447841 9.219563e-39
0.12008449 -0.031526323 0.155313 9.219563e-39
0.12014894 -0.030736784 0.14640532 9.219563e-39
0.11841393 -0.030245567 0.1376462 9.219563e-39
0.11495209 -0.030073244 0.1294024 9.219563e-39
0.10990842 -0.030227032 0.12201919 9.219563e-39
0.10349413 -0.030700488 0.11580576 9.219563e-39
0.095977843 -0.031473786 0.1110223 9.219563e-39
0.08767432 -0.032514542 0.10786915 9.219563e-39
0.078931294 -0.033779174 0.10647834 9.219563e-39
0.070114918 -0.035214715 0.10690814 9.219563e-39
0.11838856 -0.030315969 0.13840492 9.219563e-39
0.11661698 -0.029831158 0.12965274 9.219563e-39
0.11312087 -0.029665526 0.1214233 9.219563e-39
0.10804662 -0.029826008 0.11406121 9.219563e-39
0.10160675 -0.030305885 0.10787479 9.219563e-39
0.094070934 -0.031085061 0.10312311 9.219563e-39
0.08575476 -0.032130904 0.10000516 9.219563e-39
0.077006496 -0.033399615 0.098651536 9.219563e-39
0.068192504 -0.034838069 0.099118896 9.219563e-39
0.059681892 -0.036386017 0.10138768 9.219563e-39
0.11325237 -0.029710259 0.12217294 9.219563e-39
0.10972204 -0.02955132 0.11395798 9.219563e-39
0.10461731 -0.029718496 0.10661715 9.219563e-39
0.098151967 -0.030204784 0.10045785 9.219563e-39
0.090596758 -0.030989822 0.095738038 9.219563e-39
0.082268089 -0.032040734 0.092655361 9.219563e-39
0.073514745 -0.033313505 0.091338918 9.219563e-39
0.064703293 -0.034754839 0.091843843 9.219563e-39
0.056202743 -0.036304377 0.094148986 9.219563e-39
0.048369084 -0.037897222 0.098157816 9.219563e-39
0.10489996 -0.029735608 0.10732501 9.219563e-39
0.099764839 -0.029909475 0.10000556 9.219563e-39
0.093274139 -0.030402167 0.093873501 9.219563e-39
0.085699677 -0.031193053 0.08918564 9.219563e-39
0.077358656 -0.032249011 0.086138286 9.219563e-39
0.068600379 -0.033525821 0.084859058 9.219563e-39
0.059791628 -0.034970015 0.085401535 9.219563e-39
0.051301297 -0.036521107 0.087742999 9.219563e-39
0.043484941 -0.038114145 0.091785386 9.219563e-39
0.036669899 -0.039682414 0.097359411 9.219563e-39
0.087143049 -0.042267773 0.21838635 9.219563e-39
0.09485729 -0.04067418 0.21415256 9.219563e-39
0.10153401 -0.039113238 0.20841157 9.219563e-39
0.1068936 -0.037650313 0.20140381 9.219563e-39
0.11071161 -0.03634667 0.19342275 9.219563e-39
0.11282815 -0.035256904 0.18480262 9.219563e-39
0.11315458 -0.034426652 0.17590441 9.219563e-39
0.11167724 -0.033890683 0.16710076 9.219563e-39
0.10845799 -0.033671446 0.15876035 9.219563e-39
0.10363164 -0.033778116 0.15123247 9.219563e-39
0.10086689 -0.03924904 0.20875475 9.219563e-39
0.10751913 -0.037689466 0.20298505 9.219563e-39
0.11284903 -0.036229223 0.19595411 9.219563e-39
0.11663337 -0.034929462 0.18795641 9.219563e-39
0.11871368 -0.033844616 0.17932683 9.219563e-39
0.11900284 -0.033020113 0.1704268 9.219563e-39
0.11748874 -0.032490488 0.16162902 9.219563e-39
0.11423479 -0.032277916 0.15330191 9.219563e-39
0.10937725 -0.032391299 0.14579421 9.219563e-39
0.10311955 -0.032825887 0.13942033 9.219563e-39
0.11226903 -0.036362872 0.19643056 9.219563e-39
0.11756913 -0.034905337 0.18937659 9.219563e-39
0.12131974 -0.03360948 0.18136236 9.219563e-39
0.12336379 -0.03252957 0.17272352 9.219563e-39
0.12361567 -0.031710837 0.16382182 9.219563e-39
0.12206484 -0.031187559 0.15503004 9.219563e-39
0.11877624 -0.030981656 0.1467164 9.219563e-39
0.11388759 -0.03110175 0.13922903 9.219563e-39
0.10760362 -0.031542808 0.13288148 9.219563e-39
0.1001875 -0.032286365 0.1279396 9.219563e-39
0.12085215 -0.033735145 0.18195128 9.219563e-39
0.12456895 -0.032443218 0.17392069 9.219563e-39
0.12657671 -0.031368267 0.16527271 9.219563e-39
0.1267913 -0.030555312 0.15636951 9.219563e-39
0.12520376 -0.030038394 0.14758392 9.219563e-39
0.12188058 -0.029839166 0.13928387 9.219563e-39
0.11696091 -0.029965967 0.13181695 9.219563e-39
0.11065079 -0.030413488 0.12549587 9.219563e-39
0.10321447 -0.031162988 0.12058532 9.219563e-39
0.094963364 -0.032183081 0.11729097 9.219563e-39
0.12624191 -0.031480469 0.16594844 9.219563e-39
0.12821332 -0.030410495 0.15729147 9.219563e-39
0.12839063 -0.029603334 0.14838693 9.219563e-39
0.12676641 -0.029092787 0.13960767 9.219563e-39
0.1234087 -0.028900236 0.13132137 9.219563e-39
0.11845811 -0.029033743 0.12387504 9.219563e-39
0.11212194 -0.029487718 0.11758052 9.219563e-39
0.10466556 -0.030243149 0.11270141 9.219563e-39
0.096401207 -0.031268403 0.10944204 9.219563e-39
0.087674998 -0.03252054 0.1079389 9.219563e-39
0.12820324 -0.029697178 0.14911996 9.219563e-39
0.12834325 -0.028895825 0.14021422 9.219563e-39
0.1266824 -0.028391657 0.13144144 9.219563e-39
0.12329023 -0.028205786 0.12316904 9.219563e-39
0.11830878 -0.028345997 0.11574344 9.219563e-39
0.11194669 -0.028806418 0.1094756 9.219563e-39
0.10447037 -0.029567767 0.10462801 9.219563e-39
0.096192934 -0.030598162 0.10140368 9.219563e-39
0.08746101 -0.031854451 0.099937633 9.219563e-39
0.078640275 -0.03328402 0.10029127 9.219563e-39
0.1266506 -0.028463051 0.13219984 9.219563e-39
0.12495313 -0.02796527 0.12343371 9.219563e-39
0.12152654 -0.027786084 0.11517535 9.219563e-39
0.11651435 -0.027932996 0.10777061 9.219563e-39
0.11012644 -0.028399853 0.10152955 9.219563e-39
0.10263032 -0.029167106 0.096713573 9.219563e-39
0.09433993 -0.030202625 0.093524337 9.219563e-39
0.085602455 -0.031463042 0.092095412 9.219563e-39
0.076783784 -0.032895572 0.092486635 9.219563e-39
0.068253249 -0.034440227 0.094681621 9.219563e-39
0.1216517 -0.027831912 0.11592602 9.219563e-39
0.11819077 -0.027659412 0.10768185 9.219563e-39
0.11314791 -0.027813025 0.10029808 9.219563e-39
0.10673429 -0.028286312 0.094083942 9.219563e-39
0.099218518 -0.029059455 0.089299649 9.219563e-39
0.09091533 -0.030100077 0.086145572 9.219563e-39
0.082172446 -0.031364601 0.084753789 9.219563e-39
0.07335601 -0.032800067 0.085182592 9.219563e-39
0.064835221 -0.034346361 0.087414019 9.219563e-39
0.056966931 -0.035938729 0.091354623 9.219563e-39
0.11342457 -0.02783129 0.10100829 9.219563e-39
0.10835113 -0.027991597 0.09364564 9.219563e-39
0.10191193 -0.028471304 0.087458506 9.219563e-39
0.094376624 -0.029250326 0.082705989 9.219563e-39
0.086060785 -0.030296035 0.079587124 9.219563e-39
0.077312656 -0.031564642 0.078232512 9.219563e-39
0.068498597 -0.033003017 0.078698881 9.219563e-39
0.059987724 -0.034550924 0.080966711 9.219563e-39
0.052136451 -0.036143541 0.084941022 9.219563e-39
0.045273576 -0.037714176 0.090455376 9.219563e-39
0.10232803 -0.02846121 0.088097267 9.219563e-39
0.095863357 -0.028947331 0.081937253 9.219563e-39
0.088308662 -0.029732214 0.077216603 9.219563e-39
0.079980314 -0.030782992 0.074133001 9.219563e-39
0.071227103 -0.032055657 0.072815582 9.219563e-39
0.062415581 -0.033496916 0.073319517 9.219563e-39
0.053914767 -0.035046414 0.075623706 9.219563e-39
0.046080653 -0.036639251 0.079631642 9.219563e-39
0.039241321 -0.038208734 0.085175499 9.219563e-39
0.033683185 -0.039689127 0.092023097 9.219563e-39
0.10692521 -0.03759269 0.20080249 9.219563e-39
0.11362693 -0.036030371 0.19509108 9.219563e-39
0.11901689 -0.034564722 0.18810722 9.219563e-39
0.12286939 -0.033257119 0.1801434 9.219563e-39
0.12502307 -0.032162327 0.17153311 9.219563e-39
0.12538774 -0.031326186 0.16263694 9.219563e-39
0.12394816 -0.03078372 0.15382743 9.219563e-39
0.12076458 -0.030557644 0.14547352 9.219563e-39
0.11597034 -0.030657424 0.13792506 9.219563e-39
0.10976621 -0.031078881 0.13149814 9.219563e-39
0.1184328 -0.034698576 0.18857859 9.219563e-39
0.12379317 -0.03323558 0.18157144 9.219563e-39
0.12761207 -0.031931836 0.17359081 9.219563e-39
0.12972955 -0.030841941 0.16497093 9.219563e-39
0.13005698 -0.030011538 0.15607277 9.219563e-39
0.1285806 -0.029475402 0.14726897 9.219563e-39
0.12536226 -0.029255988 0.1389282 9.219563e-39
0.12053674 -0.029362481 0.1313998 9.219563e-39
0.11430611 -0.029790424 0.12499899 9.219563e-39
0.10693131 -0.030521894 0.11999386 9.219563e-39
0.12713943 -0.032057937 0.17417561 9.219563e-39
0.13092467 -0.030758075 0.16617833 9.219563e-39
0.13300593 -0.0296731 0.15754901 9.219563e-39
0.13329607 -0.028848447 0.14864901 9.219563e-39
0.13178293 -0.028318653 0.13985106 9.219563e-39
0.12852989 -0.028105903 0.13152361 9.219563e-39
0.12367318 -0.028219109 0.12401538 9.219563e-39
0.11741617 -0.02865353 0.11764081 9.219563e-39
0.11002091 -0.02939097 0.11266685 9.219563e-39
0.10179709 -0.03040055 0.10930179 9.219563e-39
0.13266538 -0.029785952 0.15822172 9.219563e-39
0.13471039 -0.028705914 0.14958312 9.219563e-39
0.13496324 -0.027887026 0.14068145 9.219563e-39
0.13341337 -0.027363583 0.13188952 9.219563e-39
0.13012569 -0.027157504 0.12357552 9.219563e-39
0.12523787 -0.027277421 0.11608761 9.219563e-39
0.11895458 -0.027718311 0.10973937 9.219563e-39
0.11153899 -0.02846171 0.10479666 9.219563e-39
0.10330164 -0.029476486 0.10146647 9.219563e-39
0.094587475 -0.030720145 0.09988825 9.219563e-39
0.13476963 -0.027981708 0.14141275 9.219563e-39
0.13498521 -0.0271686 0.13250959 9.219563e-39
0.13339864 -0.026651517 0.12372383 9.219563e-39
0.13007636 -0.026452111 0.11542343 9.219563e-39
0.12515751 -0.026578736 0.10795596 9.219563e-39
0.11884808 -0.027026087 0.10163418 9.219563e-39
0.11141229 -0.027775433 0.096722811 9.219563e-39
0.10316153 -0.028795388 0.093427539 9.219563e-39
0.094441339 -0.030043241 0.091886364 9.219563e-39
0.085616902 -0.031466734 0.092163824 9.219563e-39
0.1333604 -0.026723895 0.12448183 9.219563e-39
0.13173714 -0.026213182 0.11570241 9.219563e-39
0.12838034 -0.026020454 0.10741574 9.219563e-39
0.12343056 -0.026153784 0.099968866 9.219563e-39
0.11709508 -0.02660759 0.093673646 9.219563e-39
0.10963922 -0.027362866 0.08879371 9.219563e-39
0.10137522 -0.028387982 0.085533418 9.219563e-39
0.092649162 -0.02964001 0.084029302 9.219563e-39
0.083826467 -0.031066516 0.084344365 9.219563e-39
0.075276621 -0.03260776 0.086465396 9.219563e-39
0.12849915 -0.026067376 0.10816737 9.219563e-39
0.12510787 -0.02588133 0.099894598 9.219563e-39
0.12012724 -0.026021363 0.092468441 9.219563e-39
0.11376583 -0.026481615 0.086199902 9.219563e-39
0.10629003 -0.02724281 0.081351481 9.219563e-39
0.098012939 -0.028273068 0.078126229 9.219563e-39
0.089281157 -0.029529247 0.076659203 9.219563e-39
0.080460377 -0.03095874 0.077011853 9.219563e-39
0.071919978 -0.032501683 0.079169407 9.219563e-39
0.064017624 -0.034093454 0.083041504 9.219563e-39
0.1203979 -0.026040781 0.093180925 9.219563e-39
0.11538652 -0.026187517 0.085775621 9.219563e-39
0.10899928 -0.026654206 0.079533868 9.219563e-39
0.10150369 -0.027421305 0.074717045 9.219563e-39
0.09321364 -0.028456688 0.071526892 9.219563e-39
0.0844763 -0.029716995 0.070096985 9.219563e-39
0.075657576 -0.031149449 0.070487224 9.219563e-39
0.067126781 -0.03269406 0.072681248 9.219563e-39
0.059241168 -0.034286141 0.076587193 9.219563e-39
0.052330963 -0.035859022 0.082041472 9.219563e-39
0.10941 -0.026645271 0.080176115 9.219563e-39
0.10299706 -0.02711839 0.073961258 9.219563e-39
0.095481798 -0.027891379 0.069176137 9.219563e-39
0.087178946 -0.028931867 0.066021129 9.219563e-39
0.078436203 -0.030196283 0.06462837 9.219563e-39
0.069619708 -0.031631671 0.065056182 9.219563e-39
0.061098661 -0.033177923 0.067286655 9.219563e-39
0.053229921 -0.034770284 0.071226373 9.219563e-39
0.046343014 -0.036342073 0.076710351 9.219563e-39
0.040726345 -0.037827458 0.083508931 9.219563e-39
0.096014664 -0.027854482 0.069720149 9.219563e-39
0.088479877 -0.028633349 0.064966798 9.219563e-39
0.080164365 -0.029678924 0.061847005 9.219563e-39
0.071416371 -0.030947423 0.060491413 9.219563e-39
0.062602252 -0.032385722 0.060956795 9.219563e-39
0.054091111 -0.033933587 0.063223667 9.219563e-39
0.046239391 -0.035526201 0.067197092 9.219563e-39
0.039375897 -0.037096865 0.072710671 9.219563e-39
0.033788063 -0.038579799 0.079533502 9.219563e-39
0.029709896 -0.039912909 0.087379865 9.219563e-39
0.12278143 -0.033218812 0.17954615 9.219563e-39
0.12820168 -0.031750467 0.17258634 9.219563e-39
0.13208857 -0.03043893 0.16463989 9.219563e-39
0.13427936 -0.029339127 0.15603961 9.219563e-39
0.13468228 -0.028497119 0.14714563 9.219563e-39
0.13328047 -0.027948163 0.13833044 9.219563e-39
0.13013263 -0.027715253 0.12996319 9.219563e-39
0.12537058 -0.027808139 0.12239428 9.219563e-39
0.11919376 -0.028222933 0.11594069 9.219563e-39
0.11186082 -0.028942263 0.11087269 9.219563e-39
0.13161094 -0.030565459 0.16522051 9.219563e-39
0.13546433 -0.029257758 0.15725712 9.219563e-39
0.13761896 -0.028162835 0.14864708 9.219563e-39
0.13798462 -0.027326547 0.13975097 9.219563e-39
0.136546 -0.026783913 0.13094132 9.219563e-39
0.13336334 -0.02655766 0.12258707 9.219563e-39
0.12856992 -0.026657263 0.11503807 9.219563e-39
0.12236648 -0.027078548 0.10861048 9.219563e-39
0.11501282 -0.027803877 0.10357346 9.219563e-39
0.10681689 -0.02880287 0.10013794 9.219563e-39
0.13727267 -0.028276332 0.14931677 9.219563e-39
0.13939112 -0.027186306 0.14069714 9.219563e-39
0.13971952 -0.026355753 0.13179903 9.219563e-39
0.13824411 -0.025819451 0.12299506 9.219563e-39
0.13502668 -0.025599862 0.11465396 9.219563e-39
0.13020198 -0.025706178 0.10712502 9.219563e-39
0.12397205 -0.026133949 0.10072353 9.219563e-39
0.11659779 -0.026865263 0.095717579 9.219563e-39
0.10838802 -0.027869489 0.092316806 9.219563e-39
0.099686548 -0.029104577 0.090663627 9.219563e-39
0.13951968 -0.026451265 0.13252854 9.219563e-39
0.1398108 -0.02562646 0.1236286 9.219563e-39
0.13829863 -0.0250965 0.1148305 9.219563e-39
0.1350465 -0.024883576 0.10650269 9.219563e-39
0.1301906 -0.024996605 0.098993927 9.219563e-39
0.12393428 -0.025430854 0.092618659 9.219563e-39
0.11653956 -0.02616814 0.087643877 9.219563e-39
0.1083161 -0.027177582 0.084277906 9.219563e-39
0.099608287 -0.028416909 0.082661703 9.219563e-39
0.09078078 -0.029834222 0.082862966 9.219563e-39
0.13825396 -0.025169861 0.11558805 9.219563e-39
0.13670506 -0.024646251 0.10679596 9.219563e-39
0.13341828 -0.024439996 0.098481603 9.219563e-39
0.12853126 -0.024559736 0.090993151 9.219563e-39
0.12224868 -0.025000455 0.084644221 9.219563e-39
0.11483362 -0.025743699 0.079700686 9.219563e-39
0.10659661 -0.026758339 0.076369576 9.219563e-39
0.097882614 -0.028001886 0.074790388 9.219563e-39
0.089056537 -0.029422261 0.075029254 9.219563e-39
0.080488019 -0.030959984 0.077076174 9.219563e-39
0.13353071 -0.024488006 0.099234134 9.219563e-39
0.13020934 -0.024288427 0.090933368 9.219563e-39
0.1252913 -0.024414875 0.083465368 9.219563e-39
0.11898256 -0.024862057 0.077142887 9.219563e-39
0.1115473 -0.025611244 0.072230697 9.219563e-39
0.10329689 -0.026631065 0.0689345 9.219563e-39
0.094576858 -0.027878808 0.067392349 9.219563e-39
0.085752375 -0.029302221 0.067668818 9.219563e-39
0.077192992 -0.030841697 0.069752336 9.219563e-39
0.069257163 -0.032432761 0.073555641 9.219563e-39
0.12555595 -0.024435442 0.084180072 9.219563e-39
0.12060697 -0.024568595 0.076732658 9.219563e-39
0.11427218 -0.025022231 0.070436738 9.219563e-39
0.10681684 -0.025777351 0.065555975 9.219563e-39
0.098553188 -0.026802333 0.062294759 9.219563e-39
0.089827284 -0.02805425 0.060789671 9.219563e-39
0.081004545 -0.029480677 0.061103739 9.219563e-39
0.072454453 -0.031021876 0.063223809 9.219563e-39
0.064535066 -0.032613307 0.067061096 9.219563e-39
0.057578042 -0.034188323 0.072454907 9.219563e-39
0.11467748 -0.025014456 0.071082436 9.219563e-39
0.10831675 -0.025474539 0.064813189 9.219563e-39
0.10084148 -0.026235577 0.059963942 9.219563e-39
0.092564724 -0.027265701 0.056737762 9.219563e-39
0.083833091 -0.028521771 0.055269767 9.219563e-39
0.075012259 -0.029951185 0.055621427 9.219563e-39
0.066471606 -0.031494081 0.057778016 9.219563e-39
0.058568817 -0.033085849 0.061649218 9.219563e-39
0.051634837 -0.034659825 0.067072921 9.219563e-39
0.045960046 -0.036150098 0.073821992 9.219563e-39
0.10136977 -0.026199801 0.060512472 9.219563e-39
0.093874693 -0.026966745 0.055694822 9.219563e-39
0.085584983 -0.028001992 0.052503742 9.219563e-39
0.076847792 -0.029262193 0.051072862 9.219563e-39
0.068029016 -0.030694569 0.051462106 9.219563e-39
0.059497964 -0.032239135 0.053655177 9.219563e-39
0.051611904 -0.033831209 0.057560228 9.219563e-39
0.044701092 -0.03540412 0.063013725 9.219563e-39
0.03905493 -0.036891993 0.069787294 9.219563e-39
0.034909878 -0.038232524 0.07759726 9.219563e-39
0.086213224 -0.027939774 0.052931182 9.219563e-39
0.077910699 -0.028980128 0.04977525 9.219563e-39
0.069168098 -0.030244436 0.048381515 9.219563e-39
0.060351539 -0.031679749 0.048808336 9.219563e-39
0.05183024 -0.033225957 0.051037848 9.219563e-39
0.043961052 -0.034818314 0.054976679 9.219563e-39
0.03707353 -0.036390126 0.060459878 9.219563e-39
0.031456102 -0.037875578 0.067257822 9.219563e-39
0.02734402 -0.039212458 0.075085819 9.219563e-39
0.024909489 -0.040344782 0.083616056 9.219563e-39
0.13407537 -0.029321672 0.1554704 9.219563e-39
0.13799661 -0.028006226 0.14754149 9.219563e-39
0.14022446 -0.026901437 0.13895136 9.219563e-39
0.14066561 -0.026053574 0.13005976 9.219563e-39
0.1393016 -0.025498141 0.12123905 9.219563e-39
0.13618955 -0.0252584 0.11285861 9.219563e-39
0.13145979 -0.025344392 0.10526941 9.219563e-39
0.12531039 -0.025752515 0.09878926 9.219563e-39
0.11799887 -0.026465675 0.093689546 9.219563e-39
0.10983142 -0.027454011 0.090183824 9.219563e-39
0.13987246 -0.027015569 0.13961795 9.219563e-39
0.1420642 -0.025915638 0.13101792 9.219563e-39
0.14246809 -0.02507348 0.12212401 9.219563e-39
0.14106725 -0.024524359 0.11330867 9.219563e-39
0.13792033 -0.024291271 0.10494108 9.219563e-39
0.13315912 -0.024383981 0.097371653 9.219563e-39
0.12698299 -0.024798604 0.090917379 9.219563e-39
0.1196506 -0.025517777 0.085848555 9.219563e-39
0.11146902 -0.02651138 0.082377449 9.219563e-39
0.10278088 -0.027737807 0.080649436 9.219563e-39
0.14226206 -0.025169814 0.12285169 9.219563e-39
0.1426287 -0.024333375 0.11395562 9.219563e-39
0.14119105 -0.023790576 0.10514583 9.219563e-39
0.13800929 -0.023564147 0.09679123 9.219563e-39
0.13321671 -0.023663573 0.089241713 9.219563e-39
0.12701397 -0.024084687 0.082813427 9.219563e-39
0.11966085 -0.024809858 0.07777559 9.219563e-39
0.11146529 -0.025808714 0.074339159 9.219563e-39
0.10277048 -0.027039425 0.072648063 9.219563e-39
0.093940571 -0.028450454 0.072773106 9.219563e-39
0.14113994 -0.023864912 0.10590287 9.219563e-39
0.1396655 -0.023328442 0.097098768 9.219563e-39
0.13644899 -0.023108676 0.088757314 9.219563e-39
0.13162512 -0.023214817 0.081227839 9.219563e-39
0.12539588 -0.023642419 0.074825667 9.219563e-39
0.11802216 -0.024373574 0.069818892 9.219563e-39
0.10981275 -0.025377663 0.06641721 9.219563e-39
0.10111144 -0.026612639 0.064763054 9.219563e-39
0.092282638 -0.02802678 0.064925715 9.219563e-39
0.083696067 -0.029560868 0.066898376 9.219563e-39
0.13655505 -0.023157774 0.089510709 9.219563e-39
0.13330384 -0.022944674 0.081182547 9.219563e-39
0.12844875 -0.023057526 0.073673256 9.219563e-39
0.12219313 -0.023491606 0.067297295 9.219563e-39
0.11479894 -0.024228733 0.062321685 9.219563e-39
0.10657584 -0.025238039 0.058954798 9.219563e-39
0.097868189 -0.026477255 0.057337627 9.219563e-39
0.089040652 -0.027894488 0.057537895 9.219563e-39
0.08046291 -0.029430382 0.059547223 9.219563e-39
0.072494172 -0.031020621 0.063281454 9.219563e-39
0.12870735 -0.023079241 0.074390128 9.219563e-39
0.12382115 -0.023198804 0.066901147 9.219563e-39
0.11753926 -0.023639355 0.06055152 9.219563e-39
0.11012473 -0.02438244 0.055607162 9.219563e-39
0.10188808 -0.025396943 0.052275132 9.219563e-39
0.093174241 -0.02664038 0.050694969 9.219563e-39
0.084348127 -0.028060675 0.050932847 9.219563e-39
0.075779371 -0.029598352 0.052978802 9.219563e-39
0.0678268 -0.031189013 0.056747157 9.219563e-39
0.060823459 -0.032766048 0.0620801 9.219563e-39
0.11793911 -0.023632741 0.061200619 9.219563e-39
0.11163106 -0.024079751 0.054877438 9.219563e-39
0.10419632 -0.024828784 0.04996442 9.219563e-39
0.095946267 -0.025848467 0.046667308 9.219563e-39
0.087226398 -0.0270961 0.045124181 9.219563e-39
0.078401864 -0.028519435 0.045399662 9.219563e-39
0.069842242 -0.030058865 0.047482211 9.219563e-39
0.061905976 -0.031649921 0.051284619 9.219563e-39
0.054925431 -0.033225972 0.056647651 9.219563e-39
0.049192932 -0.034721017 0.063346706 9.219563e-39
0.10472 -0.02479413 0.050517429 9.219563e-39
0.097265199 -0.025549093 0.045635834 9.219563e-39
0.089001894 -0.026573939 0.042373698 9.219563e-39
0.080276132 -0.027825747 0.040867634 9.219563e-39
0.071453348 -0.029252095 0.041180711 9.219563e-39
0.062903009 -0.03079325 0.04329982 9.219563e-39
0.054983191 -0.032384671 0.047136217 9.219563e-39
0.048025563 -0.033959713 0.052529238 9.219563e-39
0.042321492 -0.035452418 0.059253037 9.219563e-39
0.038109854 -0.036800269 0.067026034 9.219563e-39
0.089626551 -0.026512757 0.042806495 9.219563e-39
0.08135014 -0.027542746 0.039579395 9.219563e-39
0.072618656 -0.028798707 0.038110424 9.219563e-39
0.063797772 -0.030228041 0.038461093 9.219563e-39
0.055256873 -0.031770896 0.040616721 9.219563e-39
0.047353644 -0.033362653 0.044487037 9.219563e-39
0.040419053 -0.034936659 0.049909953 9.219563e-39
0.03474351 -0.036426991 0.056658372 9.219563e-39
0.030564694 -0.037771244 0.064449683 9.219563e-39
0.028057605 -0.038913116 0.072957605 9.219563e-39
0.073317058 -0.028713664 0.038404133 9.219563e-39
0.064580008 -0.029973755 0.036972277 9.219563e-39
0.055761173 -0.031406052 0.037360534 9.219563e-39
0.047229871 -0.032950576 0.039552644 9.219563e-39
0.039343368 -0.034542643 0.043456808 9.219563e-39
0.032431941 -0.036115583 0.048909523 9.219563e-39
0.026785029 -0.03760352 0.055682443 9.219563e-39
0.022639109 -0.038944144 0.063491933 9.219563e-39
0.020167805 -0.040081315 0.072010942 9.219563e-39
0.019474611 -0.040967409 0.080882721 9.219563e-39
0.14035378 -0.02605767 0.12954144 9.219563e-39
0.14261864 -0.024947915 0.12096164 9.219563e-39
0.14309803 -0.024094213 0.11207259 9.219563e-39
0.14177185 -0.023532312 0.10324651 9.219563e-39
0.13869566 -0.023285748 0.094853044 9.219563e-39
0.13399826 -0.023364844 0.087243684 9.219563e-39
0.1278764 -0.023766287 0.080737107 9.219563e-39
0.12058642 -0.024473265 0.07560578 9.219563e-39
0.11243363 -0.025456173 0.072064601 9.219563e-39
0.10375945 -0.02667385 0.070261866 9.219563e-39
0.14288579 -0.024191363 0.11279838 9.219563e-39
0.14332794 -0.023343349 0.10390684 9.219563e-39
0.1419649 -0.022787752 0.095085986 9.219563e-39
0.13885376 -0.022547835 0.086705215 9.219563e-39
0.13412483 -0.022633651 0.079115488 9.219563e-39
0.12797613 -0.023041602 0.072634667 9.219563e-39
0.12066516 -0.023754604 0.067534134 9.219563e-39
0.11249808 -0.024742801 0.064027511 9.219563e-39
0.10381693 -0.025964806 0.06226163 9.219563e-39
0.094985247 -0.027369445 0.062310454 9.219563e-39
0.14190736 -0.022863058 0.095842473 9.219563e-39
0.14050749 -0.022313772 0.087026998 9.219563e-39
0.13736148 -0.022080509 0.078659065 9.219563e-39
0.13260108 -0.022173041 0.071089111 9.219563e-39
0.12642567 -0.022587493 0.064634159 9.219563e-39
0.11909382 -0.023306508 0.059564523 9.219563e-39
0.11091261 -0.024299974 0.056092508 9.219563e-39
0.10222465 -0.025526287 0.054363515 9.219563e-39
0.09339375 -0.026934093 0.054449957 9.219563e-39
0.084789753 -0.028464433 0.056348208 9.219563e-39
0.13746116 -0.022130689 0.079413258 9.219563e-39
0.13428032 -0.021904085 0.071058318 9.219563e-39
0.12948856 -0.022003334 0.063508272 9.219563e-39
0.12328652 -0.022424279 0.057079304 9.219563e-39
0.11593395 -0.023149291 0.052040648 9.219563e-39
0.10773875 -0.02414801 0.048603307 9.219563e-39
0.099044114 -0.025378607 0.046911236 9.219563e-39
0.090214171 -0.026789553 0.047035292 9.219563e-39
0.081618696 -0.028321758 0.048970282 9.219563e-39
0.073617645 -0.029911054 0.052635171 9.219563e-39
0.12974109 -0.022026194 0.064227268 9.219563e-39
0.12491804 -0.022132158 0.056697268 9.219563e-39
0.1186895 -0.022559589 0.050294403 9.219563e-39
0.11131632 -0.023290588 0.045286816 9.219563e-39
0.10310727 -0.024294538 0.041884214 9.219563e-39
0.094406143 -0.025529403 0.04022909 9.219563e-39
0.085577302 -0.026943464 0.04039076 9.219563e-39
0.0769905 -0.028477503 0.042362452 9.219563e-39
0.069005325 -0.03006728 0.046061594 9.219563e-39
0.061956186 -0.031646214 0.051333278 9.219563e-39
0.11908388 -0.022554137 0.05094685 9.219563e-39
0.11282896 -0.022988046 0.044570204 9.219563e-39
0.1054353 -0.023725016 0.039593775 9.219563e-39
0.09721256 -0.024734184 0.036225967 9.219563e-39
0.088505074 -0.02597329 0.034607824 9.219563e-39
0.079677507 -0.027390441 0.034807105 9.219563e-39
0.071099527 -0.028926289 0.036815464 9.219563e-39
0.063130371 -0.030516516 0.040548798 9.219563e-39
0.05610377 -0.032094527 0.045850761 9.219563e-39
0.050313983 -0.03359424 0.052499317 9.219563e-39
0.10595433 -0.023691487 0.040151216 9.219563e-39
0.098540343 -0.024434416 0.035206035 9.219563e-39
0.090304047 -0.025448784 0.031873085 9.219563e-39
0.081590369 -0.026692109 0.030291948 9.219563e-39
0.072764218 -0.028112324 0.030528836 9.219563e-39
0.064195216 -0.029649954 0.032573827 9.219563e-39
0.05624222 -0.031240605 0.036341287 9.219563e-39
0.049238283 -0.032817662 0.041673433 9.219563e-39
0.043476716 -0.034315087 0.048346974 9.219563e-39
0.039198805 -0.035670165 0.056082428 9.219563e-39
0.09092509 -0.025388641 0.032311209 9.219563e-39
0.082675382 -0.026408188 0.029013176 9.219563e-39
0.07395567 -0.027655711 0.027469074 9.219563e-39
0.065131098 -0.029078966 0.027743565 9.219563e-39
0.056571227 -0.030618349 0.029825153 9.219563e-39
0.048634533 -0.032209396 0.033626668 9.219563e-39
0.041653384 -0.033785474 0.038988903 9.219563e-39
0.035920139 -0.035280582 0.045687307 9.219563e-39
0.031674895 -0.036632106 0.053441361 9.219563e-39
0.029095432 -0.037783448 0.061926339 9.219563e-39
0.074651629 -0.027571578 0.027768768 9.219563e-39
0.06592603 -0.028823277 0.026261728 9.219563e-39
0.057103191 -0.030249545 0.026573816 9.219563e-39
0.048552606 -0.031790655 0.028691964 9.219563e-39
0.040632356 -0.033382066 0.032527465 9.219563e-39
0.033674121 -0.034957137 0.0379197 9.219563e-39
0.027969299 -0.036449902 0.044642847 9.219563e-39
0.023756798 -0.03779785 0.05241536 9.219563e-39
0.02121303 -0.038944528 0.060911734 9.219563e-39
0.020444522 -0.03984192 0.06977617 9.219563e-39
0.057843722 -0.03014509 0.026722012 9.219563e-39
0.049022783 -0.03157435 0.027071692 9.219563e-39
0.040481634 -0.033117156 0.029226361 9.219563e-39
0.032577965 -0.034708906 0.033095781 9.219563e-39
0.025642768 -0.036282938 0.038517915 9.219563e-39
0.019966472 -0.037773337 0.045265686 9.219563e-39
0.015786791 -0.039117683 0.053056519 9.219563e-39
0.013278762 -0.040259678 0.061564144 9.219563e-39
0.012547414 -0.041151505 0.070432283 9.219563e-39
0.013623377 -0.041755807 0.079289548 9.219563e-39
-0.038209159 -0.068577796 0.23262438 9.219563e-39
-0.030604443 -0.06692338 0.23702954 9.219563e-39
-0.02232427 -0.064941771 0.23976558 9.219563e-39
-0.013715398 -0.06271594 0.24071798 9.219563e-39
-0.0051383469 -0.060339104 0.23984681 9.219563e-39
0.0030476905 -0.057910804 0.23718858 9.219563e-39
0.0104999 -0.055532727 0.2328546 9.219563e-39
0.0169062 -0.053304467 0.22702637 9.219563e-39
0.021998303 -0.051319335 0.21994798 9.219563e-39
0.025562964 -0.049660467 0.21191582 9.219563e-39
-0.022963144 -0.065078765 0.23937273 9.219563e-39
-0.01467263 -0.063091241 0.24207295 9.219563e-39
-0.0060607558 -0.060861334 0.24298793 9.219563e-39
0.0025118331 -0.05848242 0.24207933 9.219563e-39
0.010686133 -0.05605413 0.23938522 9.219563e-39
0.018119819 -0.053678147 0.2350184 9.219563e-39
0.024501584 -0.051453982 0.22916177 9.219563e-39
0.029564174 -0.049474772 0.22206056 9.219563e-39
0.033095576 -0.047823407 0.21401219 9.219563e-39
0.034947898 -0.046569042 0.20535371 9.219563e-39
-0.0067618298 -0.061027579 0.24273871 9.219563e-39
0.0018528934 -0.05879363 0.24361624 9.219563e-39
0.010420868 -0.056412682 0.24267022 9.219563e-39
0.018583283 -0.053984441 0.23994026 9.219563e-39
0.025998315 -0.051610596 0.23554069 9.219563e-39
0.032355435 -0.049390566 0.22965574 9.219563e-39
0.037388418 -0.047417317 0.22253188 9.219563e-39
0.040886495 -0.04577348 0.21446744 9.219563e-39
0.042703174 -0.044527903 0.20580013 9.219563e-39
0.042762373 -0.043732747 0.19689292 9.219563e-39
0.0096881688 -0.056600925 0.24257548 9.219563e-39
0.018251376 -0.054217979 0.24159206 9.219563e-39
0.026401762 -0.051789835 0.2388263 9.219563e-39
0.033798005 -0.049418174 0.23439406 9.219563e-39
0.040130366 -0.047202315 0.22848091 9.219563e-39
0.045133654 -0.045235056 0.22133452 9.219563e-39
0.048598345 -0.043598786 0.21325412 9.219563e-39
0.050379343 -0.042362019 0.20457816 9.219563e-39
0.050402064 -0.041576557 0.19566992 9.219563e-39
0.048665557 -0.041275289 0.18690249 9.219563e-39
0.025669396 -0.051991865 0.23889019 9.219563e-39
0.033807606 -0.049563859 0.23608869 9.219563e-39
0.041184932 -0.047194421 0.23162384 9.219563e-39
0.047492418 -0.044982776 0.2256826 9.219563e-39
0.052465923 -0.043021549 0.21851379 9.219563e-39
0.055897165 -0.041392863 0.21041761 9.219563e-39
0.057642452 -0.040164933 0.20173314 9.219563e-39
0.057628695 -0.039389178 0.19282404 9.219563e-39
0.05585647 -0.039098088 0.18406342 9.219563e-39
0.052399993 -0.03930385 0.17581815 9.219563e-39
0.040484838 -0.047401428 0.23184356 9.219563e-39
0.04784311 -0.045034256 0.22734618 9.219563e-39
0.054125611 -0.042826865 0.22137696 9.219563e-39
0.059069242 -0.040871698 0.21418586 9.219563e-39
0.062466979 -0.039250635 0.20607404 9.219563e-39
0.064176522 -0.038031559 0.19738121 9.219563e-39
0.06412629 -0.037265528 0.18847139 9.219563e-39
0.062318373 -0.036984619 0.17971773 9.219563e-39
0.058828495 -0.037200596 0.17148681 9.219563e-39
0.053802799 -0.037904415 0.16412331 9.219563e-39
0.053488325 -0.043029822 0.22174293 9.219563e-39
0.059745729 -0.040826723 0.21574582 9.219563e-39
0.064659402 -0.038877655 0.20853257 9.219563e-39
0.06802357 -0.037264239 0.20040525 9.219563e-39
0.069697343 -0.036054041 0.19170421 9.219563e-39
0.069610626 -0.035297748 0.18279386 9.219563e-39
0.067767061 -0.035027023 0.17404731 9.219563e-39
0.064243838 -0.035253212 0.16583088 9.219563e-39
0.059188519 -0.035966836 0.15848863 9.219563e-39
0.0528128 -0.037138011 0.15232806 9.219563e-39
0.064112715 -0.039067708 0.20902883 9.219563e-39
0.06899634 -0.037124772 0.20179355 9.219563e-39
0.072326876 -0.035519034 0.19365087 9.219563e-39
0.073964849 -0.034317736 0.1849418 9.219563e-39
0.073841661 -0.033571191 0.17603104 9.219563e-39
0.071962468 -0.033310659 0.16729178 9.219563e-39
0.068405978 -0.033547051 0.15908998 9.219563e-39
0.063321114 -0.034270469 0.15176912 9.219563e-39
0.056920838 -0.035450619 0.14563578 9.219563e-39
0.049473166 -0.037038073 0.14094684 9.219563e-39
0.071894638 -0.035687894 0.19425578 9.219563e-39
0.07519149 -0.03408986 0.18609789 9.219563e-39
0.076793626 -0.032897487 0.17738093 9.219563e-39
0.076633967 -0.032160703 0.16846995 9.219563e-39
0.074719183 -0.031910367 0.15973811 9.219563e-39
0.071129479 -0.032156963 0.15155108 9.219563e-39
0.066015176 -0.03289016 0.14425175 9.219563e-39
0.059590448 -0.034079261 0.13814577 9.219563e-39
0.052124351 -0.03567446 0.13348885 9.219563e-39
0.043929558 -0.037608959 0.13047603 9.219563e-39
0.076494686 -0.033037789 0.1780681 9.219563e-39
0.07806097 -0.031854358 0.16934341 9.219563e-39
0.077864833 -0.03112735 0.16043235 9.219563e-39
0.075914502 -0.030887214 0.1517081 9.219563e-39
0.072291642 -0.031144008 0.143536 9.219563e-39
0.067147985 -0.031886976 0.13625832 9.219563e-39
0.060698923 -0.033085 0.13017979 9.219563e-39
0.053214543 -0.034687918 0.12555499 9.219563e-39
0.045008264 -0.036628596 0.12257761 9.219563e-39
0.036423758 -0.038825765 0.12137231 9.219563e-39
-0.013206661 -0.062554576 0.24043326 9.219563e-39
-0.0049372534 -0.060579062 0.24320604 9.219563e-39
0.003668379 -0.058357459 0.24419682 9.219563e-39
0.012249849 -0.055982798 0.2433641 9.219563e-39
0.020447781 -0.053554535 0.24074274 9.219563e-39
0.027918864 -0.05117435 0.23644255 9.219563e-39
0.034350224 -0.048941929 0.23064359 9.219563e-39
0.039472524 -0.046950758 0.22358871 9.219563e-39
0.043071255 -0.045284219 0.21557336 9.219563e-39
0.04499571 -0.044012111 0.2069332 9.219563e-39
0.0029692627 -0.058522638 0.24394146 9.219563e-39
0.011578054 -0.056296919 0.24489483 9.219563e-39
0.020155219 -0.053920139 0.24402465 9.219563e-39
0.028341565 -0.051491838 0.24136737 9.219563e-39
0.035794262 -0.049113706 0.23703425 9.219563e-39
0.042201202 -0.046885338 0.23120677 9.219563e-39
0.04729408 -0.044900052 0.22412898 9.219563e-39
0.050859619 -0.043240987 0.21609725 9.219563e-39
0.052748494 -0.041977622 0.20744798 9.219563e-39
0.052881606 -0.041162863 0.19854334 9.219563e-39
0.019423192 -0.054107636 0.24392347 9.219563e-39
0.027995901 -0.051728778 0.24301586 9.219563e-39
0.036170512 -0.049300484 0.24032268 9.219563e-39
0.043604687 -0.04692445 0.23595673 9.219563e-39
0.0499871 -0.044700172 0.23010084 9.219563e-39
0.055050466 -0.04272081 0.22300024 9.219563e-39
0.058582742 -0.041069243 0.21495229 9.219563e-39
0.060436007 -0.039814647 0.20629403 9.219563e-39
0.060532644 -0.039009552 0.19738805 9.219563e-39
0.058868606 -0.038687684 0.18860731 9.219563e-39
0.035437498 -0.049502123 0.24038008 9.219563e-39
0.043600228 -0.047073878 0.23765106 9.219563e-39
0.051015753 -0.044699978 0.23325235 9.219563e-39
0.057373524 -0.042479839 0.22736815 9.219563e-39
0.062407285 -0.04050643 0.22024488 9.219563e-39
0.065906242 -0.038862396 0.21218085 9.219563e-39
0.067723855 -0.037616588 0.20351377 9.219563e-39
0.067784019 -0.036821175 0.1946066 9.219563e-39
0.066084199 -0.036509473 0.18583235 9.219563e-39
0.062695593 -0.036694527 0.17755847 9.219563e-39
0.050313726 -0.044906963 0.23346584 9.219563e-39
0.057710465 -0.042535242 0.22903444 9.219563e-39
0.064043477 -0.040319275 0.22312205 9.219563e-39
0.069047548 -0.038351856 0.21597624 9.219563e-39
0.072513118 -0.036715385 0.20789626 9.219563e-39
0.074295059 -0.035478387 0.19922052 9.219563e-39
0.074318744 -0.034692671 0.19031231 9.219563e-39
0.072583176 -0.034391135 0.18154471 9.219563e-39
0.069161043 -0.034586411 0.17328487 9.219563e-39
0.064195655 -0.035270322 0.1658787 9.219563e-39
0.063403055 -0.040522572 0.22348231 9.219563e-39
0.069711201 -0.038310818 0.2175418 9.219563e-39
0.074685492 -0.036349427 0.21037358 9.219563e-39
0.078117616 -0.034720544 0.20227782 9.219563e-39
0.079863839 -0.033492383 0.19359356 9.219563e-39
0.079851046 -0.032716371 0.18468449 9.219563e-39
0.07807976 -0.032425012 0.17592368 9.219563e-39
0.074624158 -0.032630507 0.16767803 9.219563e-39
0.069628969 -0.033324249 0.16029285 9.219563e-39
0.063303359 -0.034477182 0.15407743 9.219563e-39
0.074134603 -0.036540177 0.2108649 9.219563e-39
0.079079024 -0.03458485 0.20367439 9.219563e-39
0.082477644 -0.032963585 0.19556299 9.219563e-39
0.084188126 -0.031744279 0.18687037 9.219563e-39
0.084138855 -0.03097799 0.17796057 9.219563e-39
0.082331881 -0.030696813 0.16920672 9.219563e-39
0.078842878 -0.030912522 0.16097541 9.219563e-39
0.073817961 -0.031616081 0.15361136 9.219563e-39
0.06746757 -0.032778028 0.14742295 9.219563e-39
0.060057636 -0.034349706 0.14266935 9.219563e-39
0.082040317 -0.033133466 0.19616394 9.219563e-39
0.085405365 -0.031519849 0.18803702 9.219563e-39
0.087080084 -0.030309418 0.17933621 9.219563e-39
0.086994328 -0.029552868 0.17042585 9.219563e-39
0.085151702 -0.029281875 0.16167912 9.219563e-39
0.081629358 -0.029507793 0.15346231 9.219563e-39
0.076574817 -0.030221161 0.14611951 9.219563e-39
0.070199743 -0.031392101 0.13995822 9.219563e-39
0.062771119 -0.03297158 0.13523647 9.219563e-39
0.054600038 -0.034893449 0.13215201 9.219563e-39
0.086775392 -0.03045102 0.18002059 9.219563e-39
0.088414311 -0.029249489 0.17131172 9.219563e-39
0.088292077 -0.028502686 0.16240098 9.219563e-39
0.086413823 -0.028241888 0.1536615 9.219563e-39
0.082858205 -0.028478011 0.14545932 9.219563e-39
0.077774122 -0.029201172 0.13813791 9.219563e-39
0.071374491 -0.030381085 0.13200386 9.219563e-39
0.063927308 -0.031968337 0.12731406 9.219563e-39
0.055744447 -0.033896457 0.12426493 9.219563e-39
0.047168594 -0.036084697 0.12298413 9.219563e-39
0.08813332 -0.028609835 0.16313893 9.219563e-39
0.087974615 -0.027872793 0.15422794 9.219563e-39
0.08606077 -0.027622189 0.14549591 9.219563e-39
0.082471937 -0.027868517 0.13730849 9.219563e-39
0.077358402 -0.028601458 0.13000858 9.219563e-39
0.070934318 -0.029790321 0.12390188 9.219563e-39
0.06346871 -0.031385317 0.11924413 9.219563e-39
0.055274218 -0.033319652 0.11623037 9.219563e-39
0.046694018 -0.035512321 0.11498682 9.219563e-39
0.038087428 -0.037871495 0.11556557 9.219563e-39
0.012691052 -0.055830784 0.2429792 9.219563e-39
0.021293283 -0.05361345 0.24400833 9.219563e-39
0.029879011 -0.051241014 0.24321407 9.219563e-39
0.038088687 -0.048812829 0.24062964 9.219563e-39
0.045578498 -0.046430584 0.23636331 9.219563e-39
0.052034795 -0.044194043 0.23059373 9.219563e-39
0.0571872 -0.042196866 0.22356249 9.219563e-39
0.060819931 -0.040522691 0.2155641 9.219563e-39
0.062780865 -0.039241631 0.20693347 9.219563e-39
0.062987886 -0.038407329 0.19803205 9.219563e-39
0.029147709 -0.051427756 0.24310644 9.219563e-39
0.037729289 -0.049053155 0.2422747 9.219563e-39
0.045927525 -0.046624888 0.2396543 9.219563e-39
0.05339909 -0.044244654 0.23535497 9.219563e-39
0.05983109 -0.042012125 0.22955675 9.219563e-39
0.064954162 -0.040020797 0.22250248 9.219563e-39
0.068553768 -0.038354065 0.21448757 9.219563e-39
0.070479155 -0.037081722 0.20584765 9.219563e-39
0.070649706 -0.036257062 0.19694456 9.219563e-39
0.069058262 -0.035914611 0.18815115 9.219563e-39
0.045193922 -0.046826117 0.23970522 9.219563e-39
0.053380575 -0.044397816 0.23704888 9.219563e-39
0.060833756 -0.042019632 0.23271663 9.219563e-39
0.067241341 -0.039791156 0.22688989 9.219563e-39
0.072334997 -0.037805714 0.21981269 9.219563e-39
0.075901404 -0.036146451 0.21178141 9.219563e-39
0.077791221 -0.034882855 0.20313236 9.219563e-39
0.077925295 -0.034067843 0.19422777 9.219563e-39
0.076298006 -0.033735547 0.18544053 9.219563e-39
0.072977521 -0.033899881 0.17713864 9.219563e-39
0.060129847 -0.042226572 0.23292387 9.219563e-39
0.06756451 -0.039850481 0.22855878 9.219563e-39
0.073947571 -0.037626099 0.22270364 9.219563e-39
0.079011716 -0.035646576 0.21560363 9.219563e-39
0.082544871 -0.033994816 0.20755611 9.219563e-39
0.084399074 -0.032739986 0.19889809 9.219563e-39
0.084496669 -0.031934638 0.18999214 9.219563e-39
0.082833573 -0.031612501 0.18121123 9.219563e-39
0.079479441 -0.03178706 0.17292309 9.219563e-39
0.074574724 -0.032451011 0.1654748 9.219563e-39
0.073304065 -0.037829723 0.22305816 9.219563e-39
0.079662479 -0.035609473 0.21717471 9.219563e-39
0.084697023 -0.033635907 0.21005203 9.219563e-39
0.088196859 -0.031991675 0.20198843 9.219563e-39
0.090015411 -0.030745637 0.19332159 9.219563e-39
0.090076536 -0.029949969 0.18441443 9.219563e-39
0.088377655 -0.029637996 0.17564 9.219563e-39
0.084989935 -0.029822782 0.16736576 9.219563e-39
0.080055229 -0.030496588 0.15993819 9.219563e-39
0.073780209 -0.031631194 0.15366836 9.219563e-39
0.084141977 -0.033827338 0.21053839 9.219563e-39
0.08914683 -0.031859763 0.20339316 9.219563e-39
0.09261328 -0.030223092 0.19531362 9.219563e-39
0.094396159 -0.028985864 0.1866381 9.219563e-39
0.094420798 -0.028199889 0.17772992 9.219563e-39
0.092686176 -0.027898086 0.16896214 9.219563e-39
0.089264922 -0.028093094 0.16070192 9.219563e-39
0.084300324 -0.028776744 0.1532952 9.219563e-39
0.078000277 -0.029920407 0.14705217 9.219563e-39
0.070628628 -0.031476188 0.14223425 9.219563e-39
0.092170902 -0.030393977 0.19591057 9.219563e-39
0.095603906 -0.028764894 0.18781523 9.219563e-39
0.097351074 -0.027536498 0.17913119 9.219563e-39
0.097339243 -0.026760234 0.17022213 9.219563e-39
0.095568895 -0.026468607 0.16146114 9.219563e-39
0.092114173 -0.026673831 0.15321513 9.219563e-39
0.087119766 -0.027367314 0.14582939 9.219563e-39
0.080794811 -0.02852001 0.13961326 9.219563e-39
0.0734042 -0.030083651 0.13482703 9.219563e-39
0.06525743 -0.031992752 0.13167116 9.219563e-39
0.097040661 -0.027679387 0.17981273 9.219563e-39
0.098752089 -0.026459847 0.17112033 9.219563e-39
0.098703779 -0.025693303 0.16221055 9.219563e-39
0.096897744 -0.025411857 0.15345651 9.219563e-39
0.09340962 -0.025627296 0.14522482 9.219563e-39
0.088385485 -0.026330598 0.13786022 9.219563e-39
0.082035743 -0.027492309 0.1316711 9.219563e-39
0.074626304 -0.02906378 0.12691665 9.219563e-39
0.066467464 -0.030979199 0.12379599 9.219563e-39
0.057900894 -0.033158354 0.12243979 9.219563e-39
0.098538868 -0.02580196 0.16294692 9.219563e-39
0.098454073 -0.025045153 0.1540366 9.219563e-39
0.096612379 -0.024773894 0.14528967 9.219563e-39
0.093090914 -0.024999544 0.13707246 9.219563e-39
0.088037148 -0.025712652 0.12972911 9.219563e-39
0.081662729 -0.026883356 0.1235671 9.219563e-39
0.07423459 -0.02846263 0.11884452 9.219563e-39
0.066063821 -0.030384334 0.11575913 9.219563e-39
0.057492595 -0.032567993 0.11444014 9.219563e-39
0.048879854 -0.03492216 0.11494278 9.219563e-39
0.096600167 -0.024843583 0.14604878 9.219563e-39
0.094722852 -0.024582516 0.13730912 9.219563e-39
0.091168106 -0.024818372 0.12910655 9.219563e-39
0.086084798 -0.025541276 0.12178457 9.219563e-39
0.079685807 -0.026720952 0.1156498 9.219563e-39
0.072239108 -0.028307999 0.11095917 9.219563e-39
0.06405656 -0.030235954 0.10790911 9.219563e-39
0.055480827 -0.032424077 0.10662733 9.219563e-39
0.046871044 -0.034780737 0.10716753 9.219563e-39
