# .PCD v0.7 - Point Cloud Data file format
VERSION 0.7
FIELDS x y z rgb
SIZE 4 4 4 4
TYPE F F F U
COUNT 1 1 1 1
WIDTH 1029
HEIGHT 1
VIEWPOINT 0 0 0 1 0 0 0
POINTS 1029
DATA ascii
0.07713826 -0.021780612 0.061097074 4294901760
0.062092982 -0.02046735 0.056166843 4294901760
0.048394926 -0.015315652 0.049984973 4294901760
0.12242074 -0.0015963712 0.06560567 4294901760
0.11266796 -0.013898925 0.06803938 4294901760
0.10011835 -0.023626694 0.068559103 4294901760
0.085672639 -0.030081477 0.067127541 4294901760
0.070367649 -0.032799989 0.06384743 4294901760
0.055301871 -0.031587113 0.058954213 4294901760
0.041556645 -0.026529901 0.052799083 4294901760
0.030118516 -0.017991327 0.045823824 4294901760
0.10323825 -0.022804363 0.069112971 4294901760
0.090749539 -0.032607421 0.069682606 4294901760
0.076339744 -0.039152566 0.068300143 4294901760
0.061043121 -0.041970037 0.065064818 4294901760
0.045957554 -0.040857602 0.060208838 4294901760
0.032165803 -0.035895113 0.054080743 4294901760
0.020657755 -0.027438743 0.047120363 4294901760
0.012259385 -0.016095439 0.039827276 4294901760
0.1309474 0.095025212 -0.015113269 4294901760
0.13292994 0.09957891 -2.2688546e-05 4294901760
0.13133207 0.10189676 0.01561274 4294901760
0.12626848 0.10181241 0.030670801 4294901760
0.1181026 0.099331908 0.044070717 4294901760
0.10742053 0.094633289 0.054850727 4294901760
0.094988957 0.088053785 0.062237103 4294901760
0.081700154 0.080065645 0.065699697 4294901760
0.13281435 0.10224678 0.012714976 4294901760
0.13130751 0.10462448 0.028350456 4294901760
0.12632886 0.1046021 0.043437034 4294901760
0.11823573 0.10218124 0.056891881 4294901760
0.107609 0.097535662 0.067749292 4294901760
0.095211387 0.090998799 0.075229995 4294901760
0.081932716 0.08303982 0.078797057 4294901760
0.068726055 0.074229978 0.078194469 4294901760
0.12836152 0.10541366 0.041002624 4294901760
0.12346805 0.10545325 0.056117006 4294901760
0.11544804 0.10309215 0.069626153 4294901760
0.10487715 0.098499835 0.080560461 4294901760
0.092514075 0.092005916 0.088135131 4294901760
0.079246171 0.084076479 0.091806501 4294901760
0.066025719 0.075280651 0.09131106 4294901760
0.053801611 0.066249751 0.086684369 4294901760
0.11789251 0.10430993 0.067821071 4294901760
0.10994601 0.10200871 0.081383884 4294901760
0.099431455 0.097469874 0.092394575 4294901760
0.087103501 0.091019198 0.10006285 4294901760
0.073846973 0.083119676 0.10383835 4294901760
0.06061336 0.07433828 0.10345009 4294901760
0.048352472 0.065305293 0.098925918 4294901760
0.037944335 0.056669042 0.090590566 4294901760
0.10212106 0.099010848 0.09134189 4294901760
0.091663331 0.094525702 0.10242844 4294901760
0.079371072 0.088118583 0.11018998 4294901760
0.066126555 0.080249339 0.11406943 4294901760
0.052880391 0.071482792 0.11378836 4294901760
0.040583309 0.062448144 0.10936692 4294901760
0.030117914 0.053793844 0.10112248 4294901760
0.022235351 0.046141051 0.089646749 4294901760
0.082122445 0.089877687 0.10996147 4294901760
0.069866464 0.083514415 0.1178159 4294901760
0.056634583 0.07567583 0.12179912 4294901760
0.043376494 0.066924542 0.12162524 4294901760
0.031043787 0.057888653 0.11730675 4294901760
0.02052163 0.049216714 0.1091536 4294901760
0.012565237 0.041531138 0.097750962 4294901760
0.0077456716 0.035383556 0.083917268 4294901760
0.059260137 0.077533141 0.12241035 4294901760
0.046041504 0.069725573 0.12649716 4294901760
0.032772113 0.06098995 0.1264305 4294901760
0.020404367 0.051953249 0.12221515 4294901760
0.0098259412 0.043264076 0.11415367 4294901760
0.0017960932 0.035546083 0.10282467 4294901760
-0.0031088437 0.029353224 0.089041255 4294901760
-0.0045368229 0.025129981 0.073792733 4294901760
0.035092846 0.062818825 0.1278398 4294901760
0.021812782 0.054099277 0.12788035 4294901760
0.0094105732 0.045062188 0.12376835 4294901760
-0.0012236226 0.036356192 0.11579893 4294901760
-0.0093265492 0.028606143 0.10454408 4294901760
-0.014316627 0.022368297 0.09081161 4294901760
-0.015835699 0.018090369 0.075587153 4294901760
-0.013774734 0.016079402 0.059963435 4294901760
0.1279934 0.099562787 -0.015588987 4294901760
0.13150135 0.10177335 -0.00025275318 4294901760
0.13146326 0.10169524 0.015633868 4294901760
0.1278819 0.099334061 0.030930631 4294901760
0.1210143 0.094859287 0.044539627 4294901760
0.11135339 0.088592082 0.055484083 4294901760
0.099592559 0.080982268 0.062978476 4294901760
0.086575933 0.072576039 0.066484906 4294901760
0.13266319 0.102479 0.012690631 4294901760
0.13271666 0.10245992 0.028577387 4294901760
0.12922357 0.10015558 0.043903202 4294901760
0.12243465 0.095731348 0.057568084 4294901760
0.11283715 0.089504778 0.068591252 4294901760
0.10111994 0.08192277 0.076181524 4294901760
0.088123985 0.073529519 0.079794116 4294901760
0.074782073 0.064927436 0.079169743 4294901760
0.13102348 0.10132468 0.041431312 4294901760
0.12761885 0.099077269 0.056785461 4294901760
0.12090892 0.094703794 0.070505582 4294901760
0.11137529 0.08851815 0.081606939 4294901760
0.099702232 0.080964297 0.089292727 4294901760
0.086727574 0.07258442 0.093011327 4294901760
0.073382542 0.063979961 0.092495821 4294901760
0.060624972 0.055768501 0.087783217 4294901760
0.1231861 0.096178532 0.068673566 4294901760
0.11655548 0.091856018 0.082448289 4294901760
0.10708617 0.085711583 0.093627311 4294901760
0.09545783 0.078186251 0.10140826 4294901760
0.082505062 0.069820128 0.10523268 4294901760
0.069157541 0.061213698 0.10482606 4294901760
0.056373276 0.052984674 0.10021761 4294901760
0.045069836 0.045723677 0.091738075 4294901760
0.10968538 0.087391414 0.092560068 4294901760
0.10028084 0.081288487 0.10381623 4294901760
0.088697754 0.073792018 0.11169197 4294901760
0.075767495 0.065440059 0.11562204 4294901760
0.062418114 0.05683206 0.11532433 4294901760
0.04960775 0.048585851 0.11082024 4294901760
0.038255852 0.041293293 0.10243303 4294901760
0.029177191 0.035477806 0.090764679 4294901760
0.09144178 0.07556241 0.11146227 4294901760
0.079904497 0.068095163 0.11943245 4294901760
0.066997349 0.059757754 0.12346797 4294901760
0.053646736 0.051148593 0.12327919 4294901760
0.040810876 0.04288559 0.11887967 4294901760
0.029411055 0.035561815 0.11058518 4294901760
0.020265481 0.029702924 0.098991029 4294901760
0.014030566 0.025729433 0.084929399 4294901760
0.069699101 0.061498012 0.12409147 4294901760
0.056815676 0.053175546 0.12823226 4294901760
0.043464456 0.044565622 0.12815242 4294901760
0.030603705 0.036286216 0.12385768 4294901760
0.019156497 0.028931567 0.11565629 4294901760
0.009944438 0.023029549 0.10413689 4294901760
0.0036287154 0.019003771 0.090126291 4294901760
0.00066263386 0.017143184 0.074630067 4294901760
0.045939736 0.046157096 0.12958661 4294901760
0.032588534 0.037546821 0.12961571 4294901760
0.0197035 0.029251397 0.12542595 4294901760
0.0082094409 0.021866219 0.11731805 4294901760
-0.0010686689 0.015921352 0.10587395 4294901760
-0.0074649025 0.011843479 0.091915026 4294901760
-0.010520178 0.0099252881 0.07644318 4294901760
-0.010015205 0.010304453 0.060568877 4294901760
0.12508008 0.10412326 -0.015082601 4294901760
0.13009241 0.10397887 -7.8572075e-06 4294901760
0.13159265 0.1014927 0.015611378 4294901760
0.12947312 0.096843205 0.03065405 4294901760
0.12388594 0.090364084 0.04404049 4294901760
0.11523213 0.082520373 0.054809894 4294901760
0.10413281 0.073875055 0.062189307 4294901760
0.091384612 0.065048628 0.065649077 4294901760
0.13251409 0.10271238 0.012716545 4294901760
0.1341064 0.10028444 0.028335826 4294901760
0.13207844 0.095686615 0.043406978 4294901760
0.12657578 0.089248896 0.056848288 4294901760
0.11799336 0.081433348 0.067695014 4294901760
0.10694718 0.072800927 0.075168654 4294901760
0.094230048 0.063971207 0.078732781 4294901760
0.080754742 0.05557793 0.078131601 4294901760
0.13364881 0.097215049 0.04097499 4294901760
0.13171253 0.092669107 0.056073911 4294901760
0.12629464 0.086273097 0.069569461 4294901760
0.117784 0.078486077 0.080492996 4294901760
0.10679147 0.069866948 0.088060506 4294901760
0.094106019 0.061034344 0.091728829 4294901760
0.080638118 0.052622218 0.091234684 4294901760
0.067354426 0.045234337 0.086613528 4294901760
0.12840685 0.088006079 0.067766115 4294901760
0.123074 0.081652068 0.081315264 4294901760
0.11463555 0.073893942 0.0923151 4294901760
0.10369719 0.065288514 0.099976122 4294901760
0.091044001 0.056453452 0.10374847 4294901760
0.077584147 0.048022863 0.10336138 4294901760
0.064283699 0.040601853 0.098842651 4294901760
0.05209728 0.034723058 0.090516597 4294901760
0.11714561 0.075713322 0.091263361 4294901760
0.10877976 0.067984447 0.10233898 4294901760
0.097896084 0.059393134 0.11009315 4294901760
0.085275754 0.050556015 0.11396934 4294901760
0.071824573 0.042107366 0.11368934 4294901760
0.058507994 0.034653578 0.10927323 4294901760
0.046281796 0.02872964 0.10103799 4294901760
0.036023498 0.024760732 0.08957468 4294901760
0.10063286 0.06117487 0.10986472 4294901760
0.089804389 0.052598074 0.11771169 4294901760
0.077217512 0.04375932 0.12169153 4294901760
0.063775636 0.035293005 0.12151862 4294901760
0.050443552 0.027806789 0.11720535 4294901760
0.038178142 0.021837985 0.10906131 4294901760
0.027859753 0.017814999 0.097671025 4294901760
0.020228969 0.016026575 0.083852015 4294901760
0.07999441 0.045381937 0.12230197 4294901760
0.067441583 0.036541969 0.1263853 4294901760
0.054009646 0.028058385 0.1263195 4294901760
0.040662684 0.02054009 0.12210926 4294901760
0.028358644 0.014526703 0.1140568 4294901760
0.017980644 0.010449827 0.10274007 4294901760
0.010273552 0.0086020743 0.088971309 4294901760
0.0057905358 0.0091160666 0.073738754 4294901760
0.056637354 0.029411256 0.1277272 4294901760
0.043215994 0.020910805 0.12776849 4294901760
0.029854776 0.013360789 0.1236615 4294901760
0.017512687 0.007303101 0.115701 4294901760
0.0070755659 0.0031725254 0.10445835 4294901760
-0.0007074725 0.00126553 0.09074048 4294901760
-0.0052778097 0.0017189874 0.075531974 4294901760
-0.0063074147 0.0045003509 0.059924401 4294901760
0.12230272 0.10855743 -0.013610682 4294901760
0.12874924 0.1061233 0.00070398563 4294901760
0.131716 0.10129578 0.015546007 4294901760
0.13099006 0.094421335 0.029850112 4294901760
0.12662354 0.085993394 0.042589638 4294901760
0.11892983 0.076616861 0.05285022 4294901760
0.10846113 0.066964708 0.059895419 4294901760
0.095968835 0.057729729 0.06321957 4294901760
0.13237196 0.10293929 0.01279187 4294901760
0.13543127 0.098169222 0.02763368 4294901760
0.13480006 0.091341443 0.041964598 4294901760
0.13052362 0.082946017 0.054756045 4294901760
0.12290889 0.073585503 0.065089926 4294901760
0.11250241 0.063931756 0.072224528 4294901760
0.1000511 0.054677658 0.075647786 4294901760
0.086448625 0.04648741 0.075113997 4294901760
0.13615158 0.093219258 0.039648585 4294901760
0.13561513 0.086438455 0.054005645 4294901760
0.13142897 0.07807593 0.066848405 4294901760
0.12389357 0.068731889 0.077255093 4294901760
0.11354981 0.059076995 0.084478781 4294901760
0.10114005 0.049804214 0.088000983 4294901760
0.087555028 0.04157909 0.087568916 4294901760
0.073769778 0.034991976 0.083213575 4294901760
0.13338391 0.080060005 0.065128416 4294901760
0.12928824 0.071730778 0.078021891 4294901760
0.12183254 0.062403645 0.088500902 4294901760
0.11155196 0.052748058 0.095813319 4294901760
0.099184357 0.043457031 0.099434309 4294901760
0.085617416 0.035197418 0.09910398 4294901760
0.071824878 0.028562045 0.094846033 4294901760
0.0587967 0.024027159 0.08696609 4294901760
0.12425762 0.064358711 0.087494195 4294901760
0.11688197 0.055048928 0.098045029 4294901760
0.10666506 0.045393102 0.10544584 4294901760
0.094340198 0.036084265 0.10916544 4294901760
0.080791973 0.027790552 0.10893687 4294901760
0.066992804 0.021107234 0.10477652 4294901760
0.05393311 0.016514001 0.096983008 4294901760
0.042550236 0.014340525 0.086115696 4294901760
0.10939493 0.047185868 0.10522106 4294901760
0.099242181 0.037530255 0.11270992 4294901760
0.086960621 0.028204046 0.11652796 4294901760
0.073431753 0.019876624 0.11640115 4294901760
0.059626598 0.013145675 0.1123386 4294901760
0.04653601 0.0084943091 0.10463188 4294901760
0.035099547 0.0062563722 0.093834132 4294901760
0.026138047 0.0065924898 0.080720372 4294901760
0.089809164 0.029712284 0.11710043 4294901760
0.077571496 0.020369144 0.12101673 4294901760
0.064062618 0.012008401 0.1209917 4294901760
0.050252132 0.0052301385 0.11702712 4294901760
0.037131261 0.0005208599 0.10940756 4294901760
0.025641743 -0.0017814323 0.0986799 4294901760
0.016608227 -0.0015114933 0.085614108 4294901760
0.010679082 0.0013113022 0.071147963 4294901760
0.066835634 0.013129282 0.12232239 4294901760
0.053347394 0.0047356123 0.12239913 4294901760
0.039532218 -0.002089645 0.11853272 4294901760
0.026381683 -0.0068566152 0.11100067 4294901760
0.014839651 -0.0092231547 0.1003436 4294901760
0.0057345401 -0.0090194074 0.087326393 4294901760
-0.00028014061 -0.0062599964 0.072883345 4294901760
-0.0027726938 -0.0011429761 0.058051098 4294901760
0.11975224 0.11272015 -0.011221396 4294901760
0.12751578 0.10813646 0.0018594817 4294901760
0.13182926 0.1011109 0.015439894 4294901760
0.13238309 0.092147723 0.028545123 4294901760
0.12913752 0.081890255 0.040234555 4294901760
0.12232547 0.071074709 0.049669191 4294901760
0.11243589 0.060477369 0.056171872 4294901760
0.10017859 0.050858837 0.059275877 4294901760
0.13224144 0.10315232 0.012914143 4294901760
0.13664792 0.096183486 0.026493922 4294901760
0.13729936 0.08726225 0.03962326 4294901760
0.13414897 0.077028945 0.051359821 4294901760
0.1274229 0.066218048 0.060861215 4294901760
0.11760387 0.055605493 0.067445494 4294901760
0.10539665 0.045952994 0.070640087 4294901760
0.091677405 0.037953347 0.070215695 4294901760
0.13844992 0.089468054 0.037495505 4294901760
0.13919893 0.080589198 0.050648339 4294901760
0.13614389 0.070380531 0.062431473 4294901760
0.12950408 0.059574783 0.071999185 4294901760
0.11975607 0.048947524 0.078664757 4294901760
0.10759951 0.039261509 0.081949778 4294901760
0.093906924 0.031211941 0.081618473 4294901760
0.079661079 0.025376573 0.077694617 4294901760
0.13795441 0.072600327 0.060846779 4294901760
0.13499486 0.062416788 0.072675936 4294901760
0.12844165 0.051616702 0.082309507 4294901760
0.11876511 0.040975228 0.089056052 4294901760
0.10665977 0.031256154 0.092431359 4294901760
0.092994481 0.023157049 0.092193156 4294901760
0.078750059 0.017259223 0.088358544 4294901760
0.064948872 0.013985983 0.081202745 4294901760
0.13078867 0.053699147 0.081375919 4294901760
0.12432235 0.04290523 0.091074899 4294901760
0.11471774 0.032250047 0.097902112 4294901760
0.1026642 0.022498367 0.10136753 4294901760
0.089026861 0.014350106 0.10122244 4294901760
0.074784525 0.0083900969 0.09747725 4294901760
0.060959421 0.0050461125 0.09040077 4294901760
0.048543837 0.0045581637 0.080500901 4294901760
0.11744127 0.034053165 0.097683273 4294901760
0.10790903 0.023384774 0.10459083 4294901760
0.095907852 0.013600951 0.10814621 4294901760
0.082299098 0.0054039164 0.10809424 4294901760
0.068059526 -0.00061799493 0.10443865 4294901760
0.054211158 -0.0040325667 0.097441815 4294901760
0.04174795 -0.0045947214 0.087605923 4294901760
0.031564437 -0.0022641118 0.075636938 4294901760
0.098822191 0.015001809 0.10865705 4294901760
0.086873941 0.0051863003 0.11230222 4294901760
0.073294409 -0.0030591225 0.11234337 4294901760
0.059058264 -0.0091426522 0.10877755 4294901760
0.045187283 -0.012627651 0.10186069 4294901760
0.03267704 -0.013263986 0.092089251 4294901760
0.022425449 -0.011005984 0.080164544 4294901760
0.015168304 -0.0060157124 0.066942468 4294901760
0.076200865 -0.0021560322 0.11354906 4294901760
0.062651202 -0.010449456 0.11368334 4294901760
0.048419151 -0.016594319 0.11020745 4294901760
0.03452621 -0.020149579 0.1033709 4294901760
0.021969521 -0.020860063 0.093664348 4294901760
0.011650332 -0.018674778 0.081784487 4294901760
0.0043092906 -0.013750566 0.06858398 4294901760
0.00047329097 -0.0064408607 0.055010267 4294901760
0.11751208 0.11647524 -0.007992927 4294901760
0.12643242 0.10995248 0.0034208193 4294901760
0.13192876 0.10094412 0.015296511 4294901760
0.13360663 0.090096757 0.026781784 4294901760
0.1313456 0.078188919 0.037052296 4294901760
0.12530795 0.066075288 0.045370892 4294901760
0.11592703 0.05462531 0.051140513 4294901760
0.10387613 0.044660792 0.05394705 4294901760
0.13212681 0.10334449 0.01307936 4294901760
0.13771655 0.094392195 0.02495385 4294901760
0.13949455 0.083582528 0.036459584 4294901760
0.13733321 0.071691319 0.046770748 4294901760
0.13138765 0.05957206 0.055147272 4294901760
0.1220846 0.048094597 0.060987938 4294901760
0.11009178 0.038082711 0.063873537 4294901760
0.096269965 0.030254995 0.063596964 4294901760
0.14046861 0.086084202 0.034586206 4294901760
0.14234668 0.075312734 0.046111859 4294901760
0.14028513 0.063438721 0.056463189 4294901760
0.13443194 0.051314406 0.064897247 4294901760
0.1252072 0.039809998 0.070808686 4294901760
0.11327302 0.029751215 0.07377322 4294901760
0.099485956 0.021860015 0.073578067 4294901760
0.084835559 0.016702779 0.070237242 4294901760
0.1419688 0.065871157 0.055061318 4294901760
0.14000714 0.054014895 0.06545233 4294901760
0.13424659 0.041886091 0.073943526 4294901760
0.1251006 0.03035528 0.079925463 4294901760
0.11322561 0.020250073 0.082968786 4294901760
0.099473946 0.012295758 0.082855061 4294901760
0.084832616 0.0070632515 0.079592466 4294901760
0.07035248 0.0049281088 0.07341516 4294901760
0.13652506 0.044083446 0.073108733 4294901760
0.13085742 0.031950723 0.081656665 4294901760
0.12179061 0.020394051 0.087708808 4294901760
0.10997538 0.010242894 0.090830781 4294901760
0.096259765 0.0022258421 0.090798497 4294901760
0.081628188 -0.0030816901 0.087614283 4294901760
0.067130812 -0.0052987603 0.081506677 4294901760
0.053808164 -0.0042662402 0.072914042 4294901760
0.12450857 0.022206511 0.087498009 4294901760
0.11552136 0.01062452 0.093620084 4294901760
0.10376644 0.00042789159 0.096820556 4294901760
0.090087518 -0.0076515223 0.096869707 4294901760
0.075466372 -0.013033831 0.093764022 4294901760
0.060952432 -0.015332723 0.087726399 4294901760
0.047587413 -0.014383201 0.079190187 4294901760
0.036330573 -0.010253413 0.068768062 4294901760
0.10673856 0.0017318872 0.097248115 4294901760
0.095044509 -0.0085097337 0.10052694 4294901760
0.08140292 -0.016651129 0.10065753 4294901760
0.066792905 -0.022107959 0.097630516 4294901760
0.052263089 -0.024488566 0.091663167 4294901760
0.03885632 -0.023622086 0.08318378 4294901760
0.027534861 -0.019570708 0.072800949 4294901760
0.0191113 -0.012625215 0.061259888 4294901760
0.084426582 -0.015944501 0.1016943 4294901760
0.070822969 -0.024147496 0.10190632 4294901760
0.056224771 -0.029678592 0.098958135 4294901760
0.041679751 -0.032140803 0.093061335 4294901760
0.028231865 -0.031357404 0.084639169 4294901760
0.016846322 -0.027384626 0.074296117 4294901760
0.0083403029 -0.020507608 0.062774554 4294901760
0.003324321 -0.011219939 0.050901413 4294901760
0.11565556 0.11969981 -0.0040309201 4294901760
0.12553456 0.11151193 0.0053369068 4294901760
0.1320112 0.10080092 0.015120551 4294901760
0.13462062 0.088335551 0.024617802 4294901760
0.13317554 0.075010508 0.033147004 4294901760
0.12777966 0.061782189 0.040095981 4294901760
0.11882029 0.049600035 0.044965982 4294901760
0.10694045 0.03933841 0.047407467 4294901760
0.1320318 0.10350951 0.013282116 4294901760
0.13860215 0.092853986 0.023063859 4294901760
0.14131382 0.08042267 0.032577086 4294901760
0.13997215 0.067107797 0.041138995 4294901760
0.13467343 0.053865027 0.048135065 4294901760
0.125798 0.041644849 0.053063162 4294901760
0.11398286 0.031324349 0.055569574 4294901760
0.10007604 0.023644274 0.055474408 4294901760
0.1421416 0.083178423 0.03101589 4294901760
0.14495537 0.070781738 0.040544644 4294901760
0.14371717 0.057477657 0.049138859 4294901760
0.13851587 0.044221062 0.056181692 4294901760
0.1297248 0.03196343 0.061167654 4294901760
0.11797491 0.021584546 0.063738875 4294901760
0.10410956 0.013829337 0.063710816 4294901760
0.08912389 0.0092544258 0.061085492 4294901760
0.14529571 0.060092691 0.047961343 4294901760
0.14416105 0.046800025 0.056587458 4294901760
0.13905741 0.033530228 0.063676722 4294901760
0.13035111 0.021235725 0.068720311 4294901760
0.11866703 0.010798939 0.071356222 4294901760
0.10484378 0.0029689593 0.071395278 4294901760
0.089873515 -0.0016922246 0.068834655 4294901760
0.074830703 -0.002850062 0.063858159 4294901760
0.14127907 0.035826255 0.062963165 4294901760
0.13627334 0.022543879 0.070098527 4294901760
0.12765223 0.01021308 0.075199507 4294901760
0.1160345 -0.00028111544 0.077899985 4294901760
0.10225401 -0.0081854966 0.078006141 4294901760
0.087299846 -0.012932734 0.07551036 4294901760
0.072245322 -0.014182101 0.070591763 4294901760
0.058170956 -0.011843925 0.063603379 4294901760
0.13036557 0.01203356 0.074998558 4294901760
0.12183003 -0.0003329562 0.080156691 4294901760
0.11027921 -0.010884067 0.082921609 4294901760
0.096542135 -0.018862478 0.083094865 4294901760
0.081604771 -0.023695547 0.080664031 4294901760
0.066539243 -0.025036385 0.075803563 4294901760
0.052426845 -0.022788756 0.068862326 4294901760
0.040280491 -0.01711398 0.060338523 4294901760
0.11329922 -0.0096632503 0.083246969 4294901760
0.10181584 -0.02027078 0.0860762 4294901760
0.088122822 -0.028322846 0.086316548 4294901760
0.073202968 -0.033241518 0.083950773 4294901760
0.058127135 -0.034673765 0.079148673 4294901760
0.043977372 -0.032516789 0.072254904 4294901760
0.031769268 -0.0269254 0.063764274 4294901760
0.022379043 -0.018300921 0.054286178 4294901760
0.09124361 -0.027784925 0.087146036 4294901760
0.077595294 -0.035910267 0.08745347 4294901760
0.062693648 -0.040914312 0.085152872 4294901760
0.047608223 -0.0424379 0.080409355 4294901760
0.033421759 -0.040371675 0.073563382 4294901760
0.021152478 -0.034863941 0.065106325 4294901760
0.01168099 -0.026310008 0.055645172 4294901760
0.0056871013 -0.015323826 0.045858987 4294901760
0.11424343 0.12228833 0.00053497392 4294901760
0.12485164 0.11276378 0.0075450442 4294901760
0.13207392 0.10068595 0.01491777 4294901760
0.13539191 0.086921737 0.022123985 4294901760
0.13456745 0.072459035 0.028646467 4294901760
0.12965974 0.058335893 0.034017075 4294901760
0.121021 0.045565985 0.037850335 4294901760
0.10927128 0.035065856 0.039871123 4294901760
0.13195953 0.10364198 0.013515776 4294901760
0.13927579 0.091619186 0.020885797 4294901760
0.14269762 0.07788609 0.028102821 4294901760
0.14197941 0.063428365 0.034648854 4294901760
0.13717271 0.049283691 0.040054064 4294901760
0.12862253 0.036467299 0.043930493 4294901760
0.11694255 0.02589906 0.045999922 4294901760
0.10297107 0.018337505 0.046113811 4294901760
0.14341412 0.080845803 0.026901385 4294901760
0.14693962 0.067144476 0.034128882 4294901760
0.14632769 0.052692398 0.040698159 4294901760
0.14162226 0.038526867 0.046137717 4294901760
0.13316104 0.025664585 0.050057132 4294901760
0.12155134 0.015028736 0.052175101 4294901760
0.10762642 0.0073826942 0.052339602 4294901760
0.092385747 0.0032752457 0.05053883 4294901760
0.14782627 0.055454016 0.039779194 4294901760
0.14732064 0.041008275 0.046371408 4294901760
0.14271669 0.026822545 0.051845055 4294901760
0.13434483 0.013914985 0.055807278 4294901760
0.12280596 0.0032120233 0.057973683 4294901760
0.10892826 -0.0045181462 0.058188789 4294901760
0.093707792 -0.0087206997 0.05643715 4294901760
0.07823699 -0.0090940027 0.052844487 4294901760
0.14489515 0.02919778 0.051271215 4294901760
0.14039287 0.014992518 0.056778699 4294901760
0.13211077 0.0020402863 0.060783535 4294901760
0.12064327 -0.0087292837 0.06299828 4294901760
0.10681345 -0.016543217 0.063263983 4294901760
0.091613911 -0.020840678 0.061561555 4294901760
0.076135598 -0.02131322 0.058013197 4294901760
0.061489452 -0.017926926 0.052873589 4294901760
0.1348206 0.0038672055 0.060593944 4294901760
0.12662864 -0.0091290902 0.064641207 4294901760
0.11523305 -0.019964764 0.066904195 4294901760
0.10145175 -0.027862094 0.067220464 4294901760
0.086273856 -0.03225426 0.065567337 4294901760
0.070788763 -0.032826018 0.062063452 4294901760
0.056107886 -0.029536331 0.0569603 4294901760
0.043284938 -0.022621311 0.050624151 4294901760
0.11828949 -0.018810717 0.067111775 4294901760
0.10696635 -0.029711982 0.069422886 4294901760
0.093234211 -0.037692338 0.069789723 4294901760
0.07807868 -0.042179003 0.068185963 4294901760
0.062587537 -0.04284995 0.064726718 4294901760
0.047872625 -0.039657023 0.05966026 4294901760
0.034990106 -0.032829393 0.053350236 4294901760
0.024864603 -0.022857105 0.046249539 4294901760
0.096428879 -0.037289847 0.07038033 4294901760
0.082746558 -0.045352854 0.070797719 4294901760
0.067614101 -0.049933806 0.069243409 4294901760
0.052117623 -0.050703909 0.065828957 4294901760
0.037369374 -0.047607895 0.060799431 4294901760
0.024427891 -0.040867973 0.054515824 4294901760
0.014222032 -0.030967895 0.047429133 4294901760
0.007484315 -0.018618228 0.040047999 4294901760
0.14046678 0.075769424 -0.013428557 4294901760
0.14285979 0.080032207 0.0016874771 4294901760
0.14140184 0.082553238 0.01730513 4294901760
0.13619758 0.083151571 0.03230346 4294901760
0.12762055 0.081784263 0.045605984 4294901760
0.11628632 0.07854946 0.056257922 4294901760
0.10300843 0.073679321 0.063494742 4294901760
0.088739872 0.067523405 0.066797033 4294901760
0.14295088 0.082701705 0.014424998 4294901760
0.14159109 0.085270002 0.030043803 4294901760
0.13647889 0.085918538 0.04507168 4294901760
0.1279812 0.084600762 0.05843002 4294901760
0.11670796 0.081411265 0.069160037 4294901760
0.10346827 0.076578967 0.076491602 4294901760
0.08921241 0.070450693 0.079898499 4294901760
0.074963562 0.063466311 0.0791362 4294901760
0.13862915 0.086451985 0.042661604 4294901760
0.13360925 0.087150693 0.057718318 4294901760
0.12519135 0.085882515 0.071131848 4294901760
0.11397959 0.082738474 0.081939444 4294901760
0.10077874 0.077944241 0.089365408 4294901760
0.086536244 0.071843907 0.09287674 4294901760
0.07227435 0.06487532 0.092221431 4294901760
0.059016686 0.057538643 0.087446518 4294901760
0.12779625 0.086764574 0.069356136 4294901760
0.11945849 0.085546054 0.082824223 4294901760
0.10830878 0.082447626 0.093708888 4294901760
0.095147371 0.077691682 0.1012289 4294901760
0.080918908 0.07161957 0.10484452 4294901760
0.066644631 0.064667113 0.10429623 4294901760
0.053349059 0.057333313 0.099623397 4294901760
0.041986462 0.050144553 0.091161408 4294901760
0.11119073 0.083618164 0.09268862 4294901760
0.10010356 0.08056549 0.10364984 4294901760
0.086982228 0.075848058 0.11126354 4294901760
0.072768472 0.069804452 0.11498327 4294901760
0.058482483 0.062868454 0.11454204 4294901760
0.045149621 0.055537879 0.10997151 4294901760
0.033726834 0.048338879 0.10159974 4294901760
0.025033984 0.041788146 0.090027593 4294901760
0.08994472 0.077227265 0.11106827 4294901760
0.076864064 0.072548568 0.11877532 4294901760
0.062665686 0.066533752 0.12259897 4294901760
0.048368659 0.059614539 0.12226481 4294901760
0.034999132 0.052287534 0.1177968 4294901760
0.023516696 0.045078628 0.10951564 4294901760
0.014745483 0.038505234 0.098015703 4294901760
0.0093150428 0.033039153 0.084122382 4294901760
0.065506756 0.068027593 0.12324201 4294901760
0.05132442 0.062041864 0.12716942 4294901760
0.037017021 0.055139754 0.12694234 4294901760
0.023611464 0.047816664 0.12257706 4294901760
0.012069914 0.040598195 0.11438691 4294901760
0.003220753 0.034002449 0.10295971 4294901760
-0.0023008785 0.028502828 0.089115657 4294901760
-0.004098672 0.024494059 0.073848374 4294901760
0.039542966 0.056646384 0.12837984 4294901760
0.025225872 0.049761709 0.12825985 4294901760
0.011784911 0.042442873 0.12399752 4294901760
0.00018479122 0.035215184 0.11589876 4294901760
-0.0087419022 0.028597396 0.10454484 4294901760
-0.014354465 0.023064496 0.090750702 4294901760
-0.016250061 0.019013602 0.075506382 4294901760
-0.014292636 0.016735461 0.059906032 4294901760
0.13814521 0.080657765 -0.013934962 4294901760
0.14173704 0.082396284 0.0014425711 4294901760
0.14150494 0.082336135 0.01732762 4294901760
0.1374656 0.080481641 0.032580052 4294901760
0.12990887 0.076965906 0.046105139 4294901760
0.1193772 0.072041258 0.056932136 4294901760
0.10662645 0.066061169 0.064283945 4294901760
0.092571795 0.059454843 0.067632899 4294901760
0.14283207 0.082951866 0.014399083 4294901760
0.14269854 0.082938127 0.030285375 4294901760
0.13875386 0.081128299 0.045567926 4294901760
0.13128117 0.07765229 0.059149843 4294901760
0.12081682 0.072759584 0.070056304 4294901760
0.10811186 0.066801354 0.077504516 4294901760
0.094078183 0.060205236 0.080959871 4294901760
0.079723045 0.053444669 0.080174387 4294901760
0.14072122 0.082046919 0.043117948 4294901760
0.13687141 0.080281846 0.058429897 4294901760
0.12948309 0.076845728 0.072068013 4294901760
0.11908655 0.071985193 0.083053425 4294901760
0.10642798 0.066049099 0.090597682 4294901760
0.092415951 0.059463501 0.09415929 4294901760
0.078056149 0.052701071 0.093482621 4294901760
0.06437923 0.046247181 0.088616252 4294901760
0.13195653 0.078004606 0.070263624 4294901760
0.12465294 0.074608542 0.083957292 4294901760
0.1143247 0.069780409 0.095021144 4294901760
0.10171312 0.063866727 0.1026611 4294901760
0.087723389 0.057291955 0.10632879 4294901760
0.073359594 0.050527986 0.10576098 4294901760
0.059652686 0.044060297 0.10099842 4294901760
0.047586463 0.038353097 0.092382938 4294901760
0.11713561 0.071100526 0.093985379 4294901760
0.10687616 0.066305019 0.10512715 4294901760
0.094312161 0.060414035 0.11286243 4294901760
0.080345377 0.053850397 0.11663603 4294901760
0.065978274 0.047085203 0.1161771 4294901760
0.052242018 0.040604018 0.11151858 4294901760
0.04012252 0.034872022 0.10299484 4294901760
0.030489644 0.030300619 0.091217645 4294901760
0.097268879 0.061805397 0.11266589 4294901760
0.084753059 0.055937387 0.12049615 4294901760
0.070809893 0.04938519 0.12437548 4294901760
0.056440145 0.042619091 0.12402545 4294901760
0.042675186 0.036124717 0.11947118 4294901760
0.030502982 0.030368192 0.11103957 4294901760
0.02079718 0.025762687 0.099335767 4294901760
0.014254403 0.022638755 0.085199803 4294901760
0.073710844 0.050752938 0.12503158 4294901760
0.059791949 0.044212494 0.12901644 4294901760
0.045420241 0.03744581 0.12877534 4294901760
0.031627227 0.030938547 0.12432555 4294901760
0.01940289 0.025157765 0.11598646 4294901760
0.0096246172 0.02051837 0.1043566 4294901760
0.0029942356 0.01735335 0.090270683 4294901760
-1.2367567e-05 0.015889872 0.074739724 4294901760
0.048067644 0.038696684 0.13023934 4294901760
0.033694644 0.031929728 0.13010715 4294901760
0.019874224 0.025409888 0.12576205 4294901760
0.0075983289 0.019605121 0.11751588 4294901760
-0.0022519529 0.014932056 0.1059605 4294901760
-0.0089696273 0.011726097 0.091925301 4294901760
-0.012072541 0.01021735 0.076417625 4294901760
-0.011337985 0.010514101 0.060550533 4294901760
0.13585559 0.085564181 -0.013458843 4294901760
0.14062974 0.0847691 0.00167283 4294901760
0.14160664 0.082118236 0.017306475 4294901760
0.13871615 0.077801839 0.032320004 4294901760
0.13216573 0.072129719 0.045635838 4294901760
0.12242554 0.065508984 0.056298245 4294901760
0.11019468 0.058414835 0.063541941 4294901760
0.096350983 0.051356446 0.066847026 4294901760
0.1427149 0.083202958 0.014423449 4294901760
0.14379075 0.080597624 0.030058252 4294901760
0.14099753 0.076320343 0.045101359 4294901760
0.13453573 0.070678115 0.058473069 4294901760
0.12486913 0.064075902 0.069213644 4294901760
0.11269154 0.056987572 0.076552182 4294901760
0.098876998 0.049921881 0.079961978 4294901760
0.08441703 0.043385964 0.079198286 4294901760
0.14278448 0.077625558 0.042688899 4294901760
0.14008868 0.073387593 0.057760876 4294901760
0.13371578 0.067775525 0.071187831 4294901760
0.12412322 0.06119214 0.082006067 4294901760
0.11199948 0.054109965 0.089439102 4294901760
0.098214738 0.047037303 0.092953451 4294901760
0.083758377 0.040481798 0.092296861 4294901760
0.06966798 0.034913957 0.087516472 4294901760
0.13605957 0.069212236 0.069410414 4294901760
0.1297759 0.063630581 0.082891986 4294901760
0.12025782 0.05706634 0.093787372 4294901760
0.10818852 0.049990647 0.10131455 4294901760
0.094434217 0.042911354 0.10493328 4294901760
0.079982139 0.036336567 0.10438383 4294901760
0.065869562 0.030738186 0.099705637 4294901760
0.0531094 0.026518032 0.09123446 4294901760
0.12299867 0.0585366 0.092766173 4294901760
0.11355554 0.051991805 0.1037382 4294901760
0.10154121 0.044922929 0.11135917 4294901760
0.087818019 0.037837334 0.11508211 4294901760
0.073370904 0.031243576 0.11463983 4294901760
0.05923681 0.025614921 0.11006404 4294901760
0.046430189 0.021355355 0.10168318 4294901760
0.035870224 0.018770607 0.090098768 4294901760
0.10449225 0.046326496 0.11116382 4294901760
0.092533477 0.039264768 0.11887823 4294901760
0.078842014 0.032173205 0.12270522 4294901760
0.064400546 0.025560789 0.12237011 4294901760
0.050245598 0.019902121 0.11789694 4294901760
0.037393123 0.015603349 0.10960679 4294901760
0.026765594 0.012973009 0.098094657 4294901760
0.019125789 0.012199892 0.084186815 4294901760
0.081802025 0.033414386 0.12334903 4294901760
0.068142951 0.026317187 0.12727988 4294901760
0.053707808 0.019686421 0.12705196 4294901760
0.039532673 0.01399801 0.12268164 4294901760
0.026634948 0.00966023 0.11448257 4294901760
0.015940351 0.006984422 0.10304326 4294901760
0.0082164779 0.0061626383 0.089184739 4294901760
0.0040177009 0.0072538629 0.073901683 4294901760
0.056475006 0.020680599 0.12849104 4294901760
0.042046867 0.014031798 0.12837033 4294901760
0.027852211 0.0083139073 0.12410305 4294901760
0.014909841 0.0039373254 0.11599547 4294901760
0.0041486812 0.0012161747 0.10462951 4294901760
-0.0036588965 0.00034576363 0.090820946 4294901760
-0.0079525122 0.0013885648 0.075560883 4294901760
-0.0084239971 0.0042697322 0.059944581 4294901760
0.13367283 0.09032812 -0.012015778 4294901760
0.13957414 0.087073021 0.0023707189 4294901760
0.14170358 0.081906654 0.017242385 4294901760
0.13990833 0.07519985 0.031531826 4294901760
0.13431723 0.067433968 0.044213425 4294901760
0.1253316 0.059166402 0.054376986 4294901760
0.11359634 0.050990544 0.061293021 4294901760
0.099953771 0.043493208 0.064465143 4294901760
0.1426032 0.083446749 0.014497298 4294901760
0.14483199 0.078325085 0.029369868 4294901760
0.14313649 0.07165201 0.043687254 4294901760
0.13763838 0.063906461 0.056421839 4294901760
0.12873229 0.055644386 0.066659614 4294901760
0.11705746 0.047458772 0.073665775 4294901760
0.10345182 0.039937139 0.076937459 4294901760
0.088891909 0.033619344 0.076239839 4294901760
0.14475144 0.073332585 0.041388497 4294901760
0.14315575 0.066693544 0.055733155 4294901760
0.13775089 0.0589687 0.068520121 4294901760
0.12892479 0.0507125 0.078831635 4294901760
0.11731093 0.04251752 0.085927591 4294901760
0.10374286 0.034971941 0.08929868 4294901760
0.089194439 0.028617349 0.088702954 4294901760
0.074709862 0.023909828 0.084183171 4294901760
0.13997109 0.060675181 0.066824421 4294901760
0.13465974 0.052971404 0.079663172 4294901760
0.12591402 0.044721469 0.090047933 4294901760
0.11436166 0.036517505 0.097233348 4294901760
0.10083181 0.028948337 0.10070369 4294901760
0.086295567 0.022557242 0.10020988 4294901760
0.071796253 0.01780293 0.095787361 4294901760
0.058374539 0.015026635 0.087753557 4294901760
0.12858807 0.046337504 0.089070894 4294901760
0.11992315 0.038094223 0.099528417 4294901760
0.10843284 0.029881658 0.10680296 4294901760
0.094941847 0.022289259 0.11037239 4294901760
0.080418468 0.015861964 0.10998052 4294901760
0.065905102 0.011061082 0.10565547 4294901760
0.052443434 0.0082311919 0.097707681 4294901760
0.040999655 0.0075754076 0.086707585 4294901760
0.11137844 0.031297076 0.10661119 4294901760
0.099950731 0.023076298 0.11397451 4294901760
0.086499222 0.015461024 0.11764286 4294901760
0.07198938 0.0089978287 0.11735295 4294901760
0.057462648 0.004150603 0.11312559 4294901760
0.043961652 0.0012672507 0.10526418 4294901760
0.032455418 0.00055472134 0.094332978 4294901760
0.023769792 0.0020641559 0.081116557 4294901760
0.089515537 0.016579321 0.11824945 4294901760
0.076104149 0.0089415265 0.12201655 4294901760
0.061608542 0.0024427376 0.12182861 4294901760
0.047069117 -0.0024506042 0.11769912 4294901760
0.033529434 -0.0053872839 0.10992447 4294901760
0.021961285 -0.0061565246 0.099062681 4294901760
0.013194961 -0.0047031152 0.085893348 4294901760
0.0078596575 -0.0011313723 0.071361676 4294901760
0.064489938 0.0031876694 0.12319219 4294901760
0.050009236 -0.0033464085 0.12310623 4294901760
0.035457809 -0.0082856361 0.11907481 4294901760
0.021880072 -0.011275505 0.11138729 4294901760
0.010250553 -0.012101421 0.10059542 4294901760
0.0014039446 -0.010704105 0.087473787 4294901760
-0.0040247953 -0.007183847 0.072964177 4294901760
-0.0056460248 -0.001793311 0.058107998 4294901760
0.13166839 0.0947937 -0.0096529871 4294901760
0.13860475 0.089232638 0.0035134007 4294901760
0.1417926 0.081708334 0.017137449 4294901760
0.14100312 0.07276082 0.030241307 4294901760
0.13629299 0.063032314 0.04188446 4294901760
0.12800026 0.053221051 0.051231228 4294901760
0.11672015 0.044031233 0.057610765 4294901760
0.10326226 0.036122445 0.060565181 4294901760
0.14250062 0.08367528 0.014618214 4294901760
0.14578816 0.076194882 0.02824275 4294901760
0.1451007 0.067276046 0.041371882 4294901760
0.14048758 0.057558917 0.053063277 4294901760
0.13227989 0.047740929 0.062477801 4294901760
0.12106674 0.038526759 0.068939738 4294901760
0.10765295 0.030577742 0.071985289 4294901760
0.093001254 0.02446441 0.071395859 4294901760
0.14655773 0.069308475 0.039259292 4294901760
0.14597231 0.06041874 0.05241308 4294901760
0.14145641 0.05071345 0.064152174 4294901760
0.13333414 0.040889196 0.073634006 4294901760
0.12218849 0.031651106 0.080178037 4294901760
0.10881942 0.023662234 0.083314575 4294901760
0.094186462 0.017495967 0.082818501 4294901760
0.079339899 0.013594887 0.078725412 4294901760
0.14356309 0.0526728 0.062590264 4294901760
0.13914463 0.042979807 0.074376501 4294901760
0.13110818 0.033149753 0.083925202 4294901760
0.12003054 0.023888178 0.090551026 4294901760
0.10670681 0.015859824 0.093778402 4294901760
0.092093274 0.0096409135 0.093375698 4294901760
0.07723882 0.0056778044 0.089371815 4294901760
0.063209593 0.0042549442 0.082054123 4294901760
0.13372089 0.034902439 0.083020464 4294901760
0.12577061 0.025067044 0.092635587 4294901760
0.11476152 0.01578242 0.099342883 4294901760
0.10148377 0.0077149607 0.10266095 4294901760
0.086890347 0.0014436984 0.10235164 4294901760
0.072028689 -0.0025812532 0.098437153 4294901760
0.05796548 -0.0040710075 0.091198437 4294901760
0.045710083 -0.0029186395 0.081155054 4294901760
0.11770213 0.017208945 0.099156998 4294901760
0.1067621 0.0079017077 0.10594546 4294901760
0.093530938 -0.00020447643 0.10935406 4294901760
0.078958318 -0.0065277959 0.10913816 4294901760
0.06409017 -0.010614401 0.10531325 4294901760
0.049993627 -0.01217098 0.098153852 4294901760
0.037680466 -0.011085811 0.088173836 4294901760
0.028034447 -0.0074367812 0.076089501 4294901760
0.096598968 0.00079862907 0.1098997 4294901760
0.083415031 -0.007345899 0.11339868 4294901760
0.068863891 -0.013720978 0.11327619 4294901760
0.053989943 -0.017869044 0.10954104 4294901760
0.03986074 -0.019492375 0.1024613 4294901760
0.027490394 -0.018474456 0.092545122 4294901760
0.017766774 -0.014888349 0.080504216 4294901760
0.011387781 -0.0089914417 0.067202821 4294901760
0.071850158 -0.013209681 0.11451616 4294901760
0.057321187 -0.019636221 0.1144871 4294901760
0.042442139 -0.023845553 0.11084188 4294901760
0.028280936 -0.025535559 0.10384212 4294901760
0.015853988 -0.024584938 0.093990244 4294901760
0.0060532237 -0.021061921 0.081993341 4294901760
-0.00041791608 -0.015219371 0.068712488 4294901760
-0.0030949733 -0.0074766274 0.055100888 4294901760
0.12990783 0.098814785 -0.0064477907 4294901760
0.13775332 0.0911773 0.0050634835 4294901760
0.14187078 0.081529751 0.0169951 4294901760
0.1419647 0.070564575 0.028490681 4294901760
0.13802835 0.059068784 0.038725141 4294901760
0.13034423 0.047867484 0.046963915 4294901760
0.11946386 0.037764631 0.052615676 4294901760
0.10616819 0.029485349 0.05527477 4294901760
0.14241053 0.083881058 0.014782241 4294901760
0.14662801 0.074276708 0.026713779 4294901760
0.14682592 0.063335657 0.038231008 4294901760
0.14299011 0.051843189 0.048507284 4294901760
0.13539584 0.040624164 0.056805044 4294901760
0.1245882 0.030483814 0.062528729 4294901760
0.11134289 0.022149952 0.065267518 4294901760
0.096610598 0.016220734 0.064824842 4294901760
0.14814423 0.065684922 0.036370967 4294901760
0.14844616 0.05476851 0.047909297 4294901760
0.14471105 0.043279905 0.058226909 4294901760
0.13720699 0.032043681 0.066583268 4294901760
0.12647259 0.021866312 0.072378606 4294901760
0.11327828 0.013478263 0.075196959 4294901760
0.098571077 0.0074815815 0.07483606 4294901760
0.083406568 0.0043066698 0.071321793 4294901760
0.14671804 0.045466956 0.056846507 4294901760
0.14308383 0.03398275 0.067204967 4294901760
0.13567033 0.022729859 0.075619526 4294901760
0.12500966 0.012515946 0.081486247 4294901760
0.11186697 0.0040741069 0.084384039 4294901760
0.097185552 -0.0019897565 0.084104918 4294901760
0.082019158 -0.0052404162 0.080668926 4294901760
0.067456342 -0.0054445602 0.074322678 4294901760
0.13822918 0.024605591 0.074812874 4294901760
0.1309066 0.013336559 0.083285242 4294901760
0.12032016 0.0030865851 0.089223064 4294901760
0.10722969 -0.0054086493 0.092200153 4294901760
0.09257476 -0.011539409 0.092002839 4294901760
0.077407196 -0.014865664 0.088645279 4294901760
0.062815636 -0.015148677 0.082368456 4294901760
0.049847368 -0.012368135 0.07362289 4294901760
0.12325639 0.004523111 0.089045152 4294901760
0.11274469 -0.005762442 0.095053799 4294901760
0.099707082 -0.014310672 0.09811005 4294901760
0.085079312 -0.020508038 0.097994544 4294901760
0.069911286 -0.023909733 0.094715573 4294901760
0.05529166 -0.024271602 0.088508479 4294901760
0.042269755 -0.021567674 0.07981877 4294901760
0.031780198 -0.015992017 0.069270141 4294901760
0.10282052 -0.013411291 0.098573007 4294901760
0.089836366 -0.022012115 0.10170828 4294901760
0.075236455 -0.028275797 0.10167459 4294901760
0.060068678 -0.031752773 0.098474354 4294901760
0.045421686 -0.032193478 0.092337281 4294901760
0.032346752 -0.029566292 0.083703846 4294901760
0.021782311 -0.024059769 0.073193699 4294901760
0.01448662 -0.016069138 0.061561204 4294901760
0.078314833 -0.027974881 0.10274686 4294901760
0.063743465 -0.034304585 0.10279498 4294901760
0.048576649 -0.037856676 0.099673644 4294901760
0.033902977 -0.038376201 0.093606882 4294901760
0.020775625 -0.035825878 0.085030124 4294901760
0.010136803 -0.030388748 0.074558951 4294901760
0.0027500964 -0.022455059 0.062944934 4294901760
-0.00085432077 -0.01259424 0.05102165 4294901760
0.12844877 0.10225979 -0.0025050715 4294901760
0.13704769 0.092843361 0.0069702435 4294901760
0.14193559 0.081376746 0.016819997 4294901760
0.14276162 0.068682961 0.026337231 4294901760
0.13946652 0.055673089 0.034838859 4294901760
0.13228677 0.043280892 0.041714683 4294901760
0.1217377 0.03239581 0.046471205 4294901760
0.10857647 0.023799106 0.048767019 4294901760
0.14233586 0.084057353 0.014984009 4294901760
0.14732401 0.072633341 0.024832988 4294901760
0.14825571 0.05995978 0.034367409 4294901760
0.14506407 0.046946317 0.04290295 4294901760
0.13797817 0.03452697 0.049826976 4294901760
0.12750658 0.02359313 0.054642528 4294901760
0.11440093 0.014929558 0.057003975 4294901760
0.09960182 0.0091580749 0.056741826 4294901760
0.14945905 0.062580489 0.032818031 4294901760
0.15049635 0.049927756 0.042369187 4294901760
0.14740832 0.036911316 0.050938237 4294901760
0.14041661 0.024465404 0.057910141 4294901760
0.13002302 0.013483319 0.0627845 4294901760
0.11697354 0.0047532856 0.065211467 4294901760
0.10220481 -0.0010981084 0.065016836 4294901760
0.086776815 -0.0036508848 0.062214594 4294901760
0.14933269 0.039293449 0.049781095 4294901760
0.14634842 0.026274642 0.058383249 4294901760
0.13945121 0.013802754 0.065402701 4294901760
0.12913609 0.0027729401 0.070335642 4294901760
0.11614343 -0.0060231462 0.07282801 4294901760
0.10140575 -0.011954175 0.072700918 4294901760
0.085980847 -0.014594453 0.069963492 4294901760
0.070975818 -0.013754479 0.064812198 4294901760
0.14196539 0.015783904 0.064716697 4294901760
0.13516301 0.0032866234 0.071783371 4294901760
0.12492686 -0.0077904002 0.076774657 4294901760
0.11199161 -0.016652124 0.079332307 4294901760
0.097285695 -0.022662509 0.079272754 4294901760
0.08186461 -0.025390167 0.076600276 4294901760
0.06683518 -0.024639321 0.071506679 4294901760
0.053276129 -0.020463863 0.064357549 4294901760
0.12785946 -0.0063453051 0.076606549 4294901760
0.11770274 -0.017469017 0.081655942 4294901760
0.10482553 -0.026395964 0.084278762 4294901760
0.090152062 -0.032485422 0.084286757 4294901760
0.074735515 -0.035300329 0.081679344 4294901760
0.059682388 -0.034638647 0.076643676 4294901760
0.046073113 -0.030547868 0.069541186 4294901760
0.034884479 -0.023321602 0.060881637 4294901760
0.10797661 -0.025585448 0.084640019 4294901760
0.095158018 -0.034577198 0.087327883 4294901760
0.080517687 -0.040745445 0.087403417 4294901760
0.065106407 -0.043647468 0.084861204 4294901760
0.050030299 -0.04307498 0.079883702 4294901760
0.036371436 -0.039069071 0.072828174 4294901760
0.025110174 -0.031917259 0.06420102 4294901760
0.017054772 -0.02213286 0.054621439 4294901760
0.083672404 -0.040624768 0.088269413 4294901760
0.069065899 -0.046871509 0.088412486 4294901760
0.053660601 -0.049860515 0.085935585 4294901760
0.03856222 -0.049377248 0.081016488 4294901760
0.024854414 -0.045456398 0.074008256 4294901760
0.013521054 -0.038379379 0.065413892 4294901760
0.0053755748 -0.028654136 0.055850264 4294901760
0.0010026117 -0.016978687 0.046003774 4294901760
0.12733896 0.105016 0.0020461525 4294901760
0.13651098 0.0941763 0.0091712857 4294901760
0.14198488 0.081254341 0.016617868 4294901760
0.14336778 0.067177571 0.023851426 4294901760
0.14056043 0.052956335 0.030352782 4294901760
0.13376434 0.039611354 0.035655309 4294901760
0.12346727 0.028100444 0.039378416 4294901760
0.11040829 0.019249791 0.041254893 4294901760
0.14227907 0.084198408 0.015216919 4294901760
0.14785342 0.071318552 0.022661924 4294901760
0.14934324 0.057258889 0.029907521 4294901760
0.1466416 0.043028541 0.036433659 4294901760
0.13994238 0.02964887 0.041771937 4294901760
0.12972642 0.018080192 0.045539204 4294901760
0.11672698 0.0091528334 0.047465071 4294901760
0.10187706 0.0035075468 0.047411304 4294901760
0.15045914 0.060096767 0.028716745 4294901760
0.1520558 0.046054877 0.035974037 4294901760
0.14945996 0.03181608 0.042524654 4294901760
0.14285794 0.018402353 0.047898434 4294901760
0.13272358 0.0067764502 0.051709678 4294901760
0.1197843 -0.0022271925 0.053684842 4294901760
0.10496875 -0.0079623479 0.05368216 4294901760
0.089340337 -0.010017381 0.051701818 4294901760
0.15132149 0.034354292 0.041625235 4294901760
0.14883158 0.020107718 0.048200022 4294901760
0.14232707 0.0066605629 0.053609051 4294901760
0.13227479 -0.0050220187 0.057464097 4294901760
0.11939625 -0.014101522 0.059488468 4294901760
0.10461579 -0.019926276 0.059536863 4294901760
0.08899425 -0.022078216 0.057605814 4294901760
0.073652856 -0.020402886 0.053833917 4294901760
0.14480729 0.0087260539 0.053062312 4294901760
0.1384006 -0.004753896 0.05850634 4294901760
0.12843087 -0.016492607 0.062405001 4294901760
0.1156137 -0.025647543 0.064478487 4294901760
0.100869 -0.031561624 0.064577959 4294901760
0.085255072 -0.033810366 0.062696286 4294901760
0.069892585 -0.032232374 0.058968529 4294901760
0.055884168 -0.026940905 0.053662233 4294901760
0.13136072 -0.015040656 0.062248219 4294901760
0.12147401 -0.026834942 0.066190317 4294901760
0.10871881 -0.036064886 0.068312809 4294901760
0.094010569 -0.042068012 0.068463363 4294901760
0.078404985 -0.044413455 0.066631161 4294901760
0.063022129 -0.042932872 0.062947713 4294901760
0.04896608 -0.037732534 0.057677396 4294901760
0.037245702 -0.029185686 0.051198479 4294901760
0.1118985 -0.035325464 0.068556666 4294901760
0.099205859 -0.044629976 0.070728078 4294901760
