# .PCD v0.7 - Point Cloud Data file format
VERSION 0.7
FIELDS x y z rgb
SIZE 4 4 4 4
TYPE F F F F
COUNT 1 1 1 1
WIDTH 962
HEIGHT 1
VIEWPOINT 0 0 0 1 0 0 0
POINTS 962
DATA ascii
0.091744147 0.059039962 0.1128227 2.3418052e-38
0.07996399 0.056098305 0.11519337 2.3418052e-38
0.068090737 0.052627318 0.11503975 2.3418052e-38
0.056641139 0.048778061 0.11236852 2.3418052e-38
0.04611351 0.044718068 0.10729596 2.3418052e-38
0.03696603 0.040624034 0.10004283 2.3418052e-38
0.029596824 0.036674142 0.090924785 2.3418052e-38
0.10499848 0.061751116 0.10714736 2.3418052e-38
0.094950102 0.060243927 0.11420455 2.3418052e-38
0.083797723 0.057977837 0.11905581 2.3418052e-38
0.072026715 0.055051476 0.12148999 2.3418052e-38
0.060149387 0.051592201 0.12140118 2.3418052e-38
0.048682656 0.047750574 0.11879321 2.3418052e-38
0.038125586 0.043693781 0.11377961 2.3418052e-38
0.028937645 0.03959839 0.10657857 2.3418052e-38
0.021518713 0.035642639 0.097503498 2.3418052e-38
0.016191674 0.03199869 0.086949363 2.3418052e-38
0.085987106 0.058523711 0.11861098 2.3418052e-38
0.074857019 0.056275897 0.12352159 2.3418052e-38
0.063095495 0.053364914 0.12601924 2.3418052e-38
0.051214423 0.049917452 0.12599522 2.3418052e-38
0.039730888 0.046083555 0.12345059 2.3418052e-38
0.029144682 0.042030081 0.11849609 2.3418052e-38
0.019916538 0.03793345 0.11134735 2.3418052e-38
0.012448088 0.033971954 0.10231551 2.3418052e-38
0.0070643737 0.030318005 0.091793634 2.3418052e-38
0.0039997068 0.027130634 0.080239676 2.3418052e-38
0.065303773 0.05400724 0.12603156 2.3418052e-38
0.053552072 0.051111713 0.1285926 2.3418052e-38
0.041667596 0.047676165 0.12863338 2.3418052e-38
0.03016758 0.043850109 0.12615216 2.3418052e-38
0.019552536 0.03980007 0.1212569 2.3418052e-38
0.010284454 0.035702318 0.11416067 2.3418052e-38
0.0027666986 0.031735186 0.10517231 2.3418052e-38
-0.0026735386 0.02807134 0.094682999 2.3418052e-38
-0.0057994868 0.024870237 0.083149269 2.3418052e-38
-0.006475098 0.022271195 0.0710731 2.3418052e-38
0.043803487 0.048388388 0.12910233 2.3418052e-38
0.031915944 0.044964846 0.12920794 2.3418052e-38
0.020399777 0.041146748 0.12679018 2.3418052e-38
0.0097561991 0.037100259 0.12195431 2.3418052e-38
0.00044843994 0.033001497 0.11491079 2.3418052e-38
-0.0071184053 0.029028846 0.10596616 2.3418052e-38
-0.012615011 0.025355207 0.095509715 2.3418052e-38
-0.015802152 0.022140464 0.083996549 2.3418052e-38
-0.016541118 0.01952453 0.071927734 2.3418052e-38
-0.014799746 0.017621255 0.059828535 2.3418052e-38
0.14732338 0.054827239 -0.011742987 2.3418052e-38
0.15034413 0.056286521 0.00016461879 2.3418052e-38
0.15091202 0.057065457 0.012498161 2.3418052e-38
0.1490023 0.057130139 0.024720857 2.3418052e-38
0.14469811 0.056477755 0.036300749 2.3418052e-38
0.13818678 0.055136699 0.046733849 2.3418052e-38
0.1297517 0.053165335 0.055566091 2.3418052e-38
0.11975996 0.050649464 0.062413074 2.3418052e-38
0.10864644 0.04769858 0.066976801 2.3418052e-38
0.096894838 0.044441111 0.069058657 2.3418052e-38
0.15127462 0.05705566 0.010227117 2.3418052e-38
0.15190585 0.057852507 0.022556433 2.3418052e-38
0.15005879 0.057935584 0.034788642 2.3418052e-38
0.14581381 0.057301279 0.046391368 2.3418052e-38
0.13935566 0.055977192 0.056859639 2.3418052e-38
0.13096543 0.054020956 0.065737844 2.3418052e-38
0.12100825 0.05151771 0.072639592 2.3418052e-38
0.10991752 0.0485764 0.077264495 2.3418052e-38
0.098175906 0.045325037 0.079411283 2.3418052e-38
0.086294442 0.041905127 0.078986503 2.3418052e-38
0.15085512 0.058055695 0.032634426 2.3418052e-38
0.14907074 0.058157165 0.044875797 2.3418052e-38
0.14488509 0.057540953 0.056501031 2.3418052e-38
0.13848031 0.056233879 0.067004167 2.3418052e-38
0.13013516 0.054292824 0.075928085 2.3418052e-38
0.12021285 0.051802274 0.082884401 2.3418052e-38
0.10914521 0.048870619 0.087570354 2.3418052e-38
0.097413927 0.045625456 0.089782007 2.3418052e-38
0.085529573 0.042208012 0.089423098 2.3418052e-38
0.074009389 0.038767032 0.086509258 2.3418052e-38
0.14608222 0.057786006 0.054552689 2.3418052e-38
0.14195602 0.057187904 0.0662001 2.3418052e-38
0.13560478 0.055897877 0.076737806 2.3418052e-38
0.12730497 0.053972062 0.08570718 2.3418052e-38
0.11741778 0.051494278 0.092717864 2.3418052e-38
0.10637355 0.048572361 0.097464733 2.3418052e-38
0.094652928 0.045333486 0.099741191 2.3418052e-38
0.082766034 0.041918613 0.099448167 2.3418052e-38
0.07123021 0.038476359 0.096598409 2.3418052e-38
0.060547519 0.035156548 0.091315947 2.3418052e-38
0.13715324 0.05625774 0.07507588 2.3418052e-38
0.13085574 0.054984789 0.085647851 2.3418052e-38
0.12260149 0.05307427 0.094662435 2.3418052e-38
0.11274973 0.050609324 0.10172728 2.3418052e-38
0.10172921 0.047697231 0.10653494 2.3418052e-38
0.090019584 0.044464737 0.10887614 2.3418052e-38
0.078130484 0.041052524 0.108649 2.3418052e-38
0.066579349 0.0376091 0.10586341 2.3418052e-38
0.055868905 0.034284331 0.10064059 2.3418052e-38
0.046465296 0.031222917 0.093207873 2.3418052e-38
0.12443726 0.053534068 0.093355618 2.3418052e-38
0.1162288 0.051638894 0.10241514 2.3418052e-38
0.10641273 0.049186856 0.10953397 2.3418052e-38
0.095416248 0.046284668 0.11440226 2.3418052e-38
0.083717957 0.043058649 0.11680814 2.3418052e-38
0.071826994 0.039649196 0.11664689 2.3418052e-38
0.06026087 0.036204696 0.11392555 2.3418052e-38
0.049522974 0.032875065 0.10876254 2.3418052e-38
0.040080648 0.029805211 0.10138258 2.3418052e-38
0.032344837 0.027128745 0.092106842 2.3418052e-38
0.10845993 0.049727581 0.10863629 2.3418052e-38
0.098679818 0.047288518 0.11580888 2.3418052e-38
0.087707691 0.044396322 0.12073767 2.3418052e-38
0.07602106 0.041176867 0.12320816 2.3418052e-38
0.064128563 0.037770271 0.12311282 2.3418052e-38
0.052547786 0.034324795 0.12045579 2.3418052e-38
0.041782748 0.030990396 0.11535273 2.3418052e-38
0.03230197 0.027912192 0.10802573 2.3418052e-38
0.024518076 0.025224155 0.098793671 2.3418052e-38
0.018769838 0.023043273 0.088058352 2.3418052e-38
0.089881688 0.044995628 0.12028623 2.3418052e-38
0.078934215 0.042113502 0.12527539 2.3418052e-38
0.06725958 0.038900703 0.12781042 2.3418052e-38
0.05536589 0.035497062 0.12778097 2.3418052e-38
0.043770786 0.032050706 0.12518835 2.3418052e-38
0.032978915 0.028711632 0.12014539 2.3418052e-38
0.023459954 0.025625166 0.11287155 2.3418052e-38
0.015628198 0.022925634 0.10368343 2.3418052e-38
0.0098245004 0.020730527 0.092980906 2.3418052e-38
0.0063014496 0.01913538 0.081229769 2.3418052e-38
0.06947051 0.039533813 0.12782387 2.3418052e-38
0.057808205 0.036327761 0.13042337 2.3418052e-38
0.045913663 0.032927167 0.13045983 2.3418052e-38
0.034304563 0.029480033 0.12793168 2.3418052e-38
0.023486158 0.026136382 0.12294895 2.3418052e-38
0.013929291 0.023041738 0.1157285 2.3418052e-38
0.0060498961 0.020330789 0.10658457 2.3418052e-38
0.00019090282 0.018121518 0.095915139 2.3418052e-38
-0.0033926924 0.016510081 0.08418455 2.3418052e-38
-0.0045449235 0.01556661 0.071903363 2.3418052e-38
0.048070136 0.033567905 0.13093764 2.3418052e-38
0.03617508 0.030170461 0.13104001 2.3418052e-38
0.024552314 0.026722642 0.1285764 2.3418052e-38
0.013707687 0.023374509 0.12365405 2.3418052e-38
0.004113182 0.020271776 0.11648718 2.3418052e-38
-0.0038136279 0.017549487 0.10738771 2.3418052e-38
-0.009727749 0.015326117 0.096751675 2.3418052e-38
-0.013371787 0.013698434 0.08504197 2.3418052e-38
-0.014587144 0.012737278 0.072768234 2.3418052e-38
-0.013320927 0.012484481 0.060464647 2.3418052e-38
0.14616731 0.05889478 -0.011648235 2.3418052e-38
0.14964966 0.058729935 0.0002215374 2.3418052e-38
0.15069321 0.0578353 0.012516094 2.3418052e-38
0.1492525 0.056249801 0.024700349 2.3418052e-38
0.14539027 0.054042451 0.036244016 2.3418052e-38
0.13927461 0.05130931 0.046644691 2.3418052e-38
0.13117166 0.048169337 0.055449713 2.3418052e-38
0.12143411 0.044759192 0.062275864 2.3418052e-38
0.11048573 0.041227285 0.06682606 2.3418052e-38
0.098803043 0.037727337 0.068902262 2.3418052e-38
0.15096867 0.05813209 0.010252193 2.3418052e-38
0.15207547 0.057255726 0.022542533 2.3418052e-38
0.15069784 0.055687122 0.034736264 2.3418052e-38
0.14689577 0.05349455 0.046302691 2.3418052e-38
0.14083467 0.050773438 0.056738418 2.3418052e-38
0.13277841 0.047642212 0.065589257 2.3418052e-38
0.12307756 0.044237148 0.072469994 2.3418052e-38
0.11215433 0.040706448 0.077081174 2.3418052e-38
0.10048416 0.03720377 0.079222098 2.3418052e-38
0.088574916 0.03388156 0.078799598 2.3418052e-38
0.15141197 0.05609652 0.032588787 2.3418052e-38
0.15009744 0.054544855 0.04479165 2.3418052e-38
0.1463556 0.052367128 0.056380507 2.3418052e-38
0.14034928 0.04965812 0.06685099 2.3418052e-38
0.13233991 0.046535727 0.075747386 2.3418052e-38
0.12267604 0.043135848 0.08268252 2.3418052e-38
0.1117783 0.039606452 0.087354548 2.3418052e-38
0.10012095 0.036101144 0.089560144 2.3418052e-38
0.088211365 0.032772485 0.089203306 2.3418052e-38
0.076567873 0.029765345 0.086299561 2.3418052e-38
0.14747883 0.052872211 0.054438226 2.3418052e-38
0.14379735 0.050709389 0.066049181 2.3418052e-38
0.13784596 0.048012558 0.07655412 2.3418052e-38
0.12988371 0.044899091 0.08549583 2.3418052e-38
0.1202571 0.041504491 0.092485152 2.3418052e-38
0.10938513 0.0379765 0.097217903 2.3418052e-38
0.097740956 0.034468662 0.099488102 2.3418052e-38
0.085831366 0.031133646 0.099196933 2.3418052e-38
0.074174687 0.028116604 0.096357077 2.3418052e-38
0.063278243 0.02554884 0.091092132 2.3418052e-38
0.13933189 0.048592445 0.074897319 2.3418052e-38
0.13343561 0.04590787 0.085436404 2.3418052e-38
0.12552071 0.042803414 0.094423175 2.3418052e-38
0.11593163 0.03941419 0.1014665 2.3418052e-38
0.10508575 0.035887703 0.10625984 2.3418052e-38
0.093455069 0.032377437 0.10859457 2.3418052e-38
0.081545807 0.029036161 0.10836908 2.3418052e-38
0.069876276 0.026009301 0.10559319 2.3418052e-38
0.058954351 0.023428587 0.10038771 2.3418052e-38
0.049255386 0.021406341 0.0929792 2.3418052e-38
0.12730789 0.043434132 0.093120344 2.3418052e-38
0.11944056 0.040338777 0.10215192 2.3418052e-38
0.10988929 0.036955025 0.10924903 2.3418052e-38
0.099069797 0.033430148 0.11410282 2.3418052e-38
0.087452956 0.029917547 0.11650202 2.3418052e-38
0.075544365 0.026570108 0.11634222 2.3418052e-38
0.063862301 0.023533516 0.11363038 2.3418052e-38
0.052915208 0.020939928 0.10848451 2.3418052e-38
0.043179523 0.018902224 0.10112859 2.3418052e-38
0.035078958 0.01750909 0.09188275 2.3418052e-38
0.11190387 0.037610509 0.10835402 2.3418052e-38
0.10239068 0.034232326 0.11550474 2.3418052e-38
0.091597892 0.030709151 0.12041883 2.3418052e-38
0.079995215 0.027194321 0.12288244 2.3418052e-38
0.06808763 0.023840811 0.12278833 2.3418052e-38
0.056393381 0.020794572 0.12014061 2.3418052e-38
0.045421425 0.018188184 0.11505451 2.3418052e-38
0.035649292 0.01613508 0.10775138 2.3418052e-38
0.02750228 0.014724618 0.09854909 2.3418052e-38
0.02133497 0.014018184 0.087848119 2.3418052e-38
0.093756586 0.031362299 0.11996865 2.3418052e-38
0.082990803 0.027840931 0.12494291 2.3418052e-38
0.071402617 0.024323972 0.12747085 2.3418052e-38
0.059496377 0.020964487 0.12744245 2.3418052e-38
0.047790267 0.017908689 0.12485892 2.3418052e-38
0.036793765 0.015289572 0.11983272 2.3418052e-38
0.026985463 0.013221127 0.1125826 2.3418052e-38
0.018792236 0.011793377 0.10342411 2.3418052e-38
0.012570677 0.011068461 0.092755832 2.3418052e-38
0.0085915597 0.011077928 0.081042074 2.3418052e-38
0.073616184 0.024947787 0.1274841 2.3418052e-38
0.062042825 0.021428796 0.1300763 2.3418052e-38
0.050138272 0.018063432 0.13011359 2.3418052e-38
0.038420636 0.014998162 0.12759432 2.3418052e-38
0.027399899 0.012366393 0.12262818 2.3418052e-38
0.017555706 0.010282665 0.11543128 2.3418052e-38
0.0093165003 0.0088376682 0.10631684 2.3418052e-38
0.0030408669 0.0080942903 0.095681556 2.3418052e-38
-0.00099806197 0.0080848858 0.083988294 2.3418052e-38
-0.002624504 0.0088098636 0.071745962 2.3418052e-38
0.05231522 0.018632127 0.13058971 2.3418052e-38
0.04041269 0.01526098 0.13069269 2.3418052e-38
0.028683864 0.012186324 0.12823778 2.3418052e-38
0.017639205 0.0095419781 0.12333182 2.3418052e-38
0.007759402 0.0074430271 0.11618833 2.3418052e-38
-0.0005255529 0.0059808232 0.10711822 2.3418052e-38
-0.0068550804 0.0052190055 0.096516229 2.3418052e-38
-0.010953706 0.0051907292 0.084843785 2.3418052e-38
-0.012643048 0.0058972249 0.072608896 2.3418052e-38
-0.011849581 0.0073077451 0.060344055 2.3418052e-38
0.14504001 0.062913112 -0.010960792 2.3418052e-38
0.14897248 0.061143793 0.0006344915 2.3418052e-38
0.15047984 0.058595829 0.012646203 2.3418052e-38
0.1494965 0.055380117 0.024551567 2.3418052e-38
0.14606522 0.051636606 0.035832435 2.3418052e-38
0.14033535 0.047528226 0.045997836 2.3418052e-38
0.13255629 0.043233782 0.054605354 2.3418052e-38
0.12306657 0.038940176 0.061280366 2.3418052e-38
0.11227923 0.034834277 0.06573236 2.3418052e-38
0.10066374 0.031094782 0.067767583 2.3418052e-38
0.15067035 0.0591955 0.010434116 2.3418052e-38
0.15224087 0.056666162 0.022441672 2.3418052e-38
0.15132099 0.053465858 0.034356259 2.3418052e-38
0.14795078 0.049733877 0.04565933 2.3418052e-38
0.14227688 0.045632634 0.055858947 2.3418052e-38
0.13454625 0.041340631 0.064511202 2.3418052e-38
0.12509534 0.037044663 0.071239524 2.3418052e-38
0.11433546 0.0329317 0.075751096 2.3418052e-38
0.10273493 0.02918075 0.077849545 2.3418052e-38
0.090798624 0.02595506 0.077443555 2.3418052e-38
0.15195493 0.054161046 0.032257672 2.3418052e-38
0.15109858 0.050976243 0.044181146 2.3418052e-38
0.14778951 0.047255892 0.055506095 2.3418052e-38
0.14217174 0.043161906 0.065739639 2.3418052e-38
0.13448976 0.038872469 0.074436381 2.3418052e-38
0.12507792 0.034574259 0.081217833 2.3418052e-38
0.11434583 0.030454352 0.085788839 2.3418052e-38
0.10276058 0.026692051 0.087950468 2.3418052e-38
0.090826385 0.023451101 0.087608635 2.3418052e-38
0.079062656 0.020872554 0.084778219 2.3418052e-38
0.14884068 0.048017859 0.053607758 2.3418052e-38
0.14559285 0.044309244 0.064954266 2.3418052e-38
0.14003135 0.04022263 0.075221442 2.3418052e-38
0.13239825 0.035935879 0.083962433 2.3418052e-38
0.12302574 0.031635553 0.090796813 2.3418052e-38
0.11232173 0.027508816 0.095427133 2.3418052e-38
0.10075211 0.02373527 0.097651869 2.3418052e-38
0.088820376 0.020479152 0.097374201 2.3418052e-38
0.077045858 0.017882172 0.094606213 2.3418052e-38
0.065940984 0.016057359 0.089468367 2.3418052e-38
0.14145631 0.041019879 0.073601827 2.3418052e-38
0.13595125 0.036940753 0.083902344 2.3418052e-38
0.12836723 0.032656807 0.092687331 2.3418052e-38
0.11903432 0.028354488 0.099574447 2.3418052e-38
0.10835871 0.024221038 0.10426394 2.3418052e-38
0.096805021 0.020436358 0.10655173 2.3418052e-38
0.084876098 0.017165164 0.10633823 2.3418052e-38
0.07309112 0.014549826 0.10363275 2.3418052e-38
0.061962981 0.012704169 0.098553017 2.3418052e-38
0.051976014 0.01170852 0.091320135 2.3418052e-38
0.13010705 0.033456381 0.091413386 2.3418052e-38
0.12257234 0.029175365 0.10024212 2.3418052e-38
0.1132793 0.024871172 0.10718177 2.3418052e-38
0.10263238 0.020731129 0.11193032 2.3418052e-38
0.091094963 0.016935419 0.11428108 2.3418052e-38
0.079169184 0.013649244 0.11413176 2.3418052e-38
0.067374073 0.011015621 0.11148886 2.3418052e-38
0.05622299 0.0091491733 0.1064674 2.3418052e-38
0.046201244 0.0081311325 0.099285915 2.3418052e-38
0.03774501 0.0080058062 0.090256967 2.3418052e-38
0.11526207 0.02564002 0.10630616 2.3418052e-38
0.10600916 0.021334076 0.11329816 2.3418052e-38
0.095391244 0.017187556 0.11810561 2.3418052e-38
0.083870426 0.013380927 0.1205193 2.3418052e-38
0.071948126 0.010079862 0.12043416 2.3418052e-38
0.060143232 0.0074280296 0.11785391 2.3418052e-38
0.048969511 0.0055408441 0.11289085 2.3418052e-38
0.038913276 0.0045004403 0.10576097 2.3418052e-38
0.03041219 0.0043520988 0.096774593 2.3418052e-38
0.023836242 0.0051022754 0.086322814 2.3418052e-38
0.097535014 0.017893897 0.11766452 2.3418052e-38
0.086946391 0.013741019 0.12253075 2.3418052e-38
0.0754425 0.0099235782 0.12500729 2.3418052e-38
0.063524023 0.0066077174 0.12498634 2.3418052e-38
0.051709678 0.0039377511 0.12246882 2.3418052e-38
0.040513642 0.0020298818 0.1175643 2.3418052e-38
0.030423196 0.00096714433 0.11048624 2.3418052e-38
0.021877501 0.00079579133 0.10154268 2.3418052e-38
0.015248484 0.0015232806 0.091122873 2.3418052e-38
0.010824652 0.0031179499 0.079680309 2.3418052e-38
0.077658653 0.010538214 0.12501895 2.3418052e-38
0.066172019 0.0067100693 0.12755828 2.3418052e-38
0.054257702 0.0033795079 0.1276015 2.3418052e-38
0.042434234 0.00069148344 0.12514679 2.3418052e-38
0.031216202 -0.0012370156 0.12030096 2.3418052e-38
0.021091837 -0.0023220566 0.1132749 2.3418052e-38
0.012501776 -0.0025164159 0.10437442 2.3418052e-38
0.0058198767 -0.0018116346 0.093986884 2.3418052e-38
0.0013369501 -0.00023838672 0.082564376 2.3418052e-38
-0.00075189659 0.0021348568 0.070604026 2.3418052e-38
0.056454618 0.0038770316 0.12806547 2.3418052e-38
0.044544797 0.00053186424 0.12817289 2.3418052e-38
0.032712549 -0.002174142 0.12578104 2.3418052e-38
0.02147284 -0.004123216 0.12099402 2.3418052e-38
0.011314844 -0.0052305292 0.11402018 2.3418052e-38
0.00268066 -0.0054478897 0.10516304 2.3418052e-38
-0.0040539312 -0.0047658365 0.094808057 2.3418052e-38
-0.0085958261 -0.003214055 0.083405927 2.3418052e-38
-0.010747352 -0.00086008146 0.071452878 2.3418052e-38
-0.010414868 0.0021936337 0.059469152 2.3418052e-38
0.14396381 0.066802606 -0.009694282 2.3418052e-38
0.14832601 0.063480258 0.0013952976 2.3418052e-38
0.15027615 0.059331976 0.01288591 2.3418052e-38
0.1497294 0.054538313 0.024277456 2.3418052e-38
0.14670955 0.049307898 0.035074152 2.3418052e-38
0.141348 0.04386837 0.044806104 2.3418052e-38
0.13387811 0.038456466 0.053049751 2.3418052e-38
0.12462501 0.033307731 0.059446312 2.3418052e-38
0.11399139 0.028646244 0.063717395 2.3418052e-38
0.10244006 0.024674883 0.065677114 2.3418052e-38
0.15038554 0.060224812 0.010769284 2.3418052e-38
0.15239877 0.056095503 0.022255853 2.3418052e-38
0.15191589 0.051315814 0.033656154 2.3418052e-38
0.14895795 0.046093777 0.044474028 2.3418052e-38
0.14365368 0.040656656 0.054238655 2.3418052e-38
0.13623393 0.035241093 0.062525049 2.3418052e-38
0.12702161 0.030082786 0.06897258 2.3418052e-38
0.11641768 0.025406232 0.07330063 2.3418052e-38
0.10488364 0.021414967 0.075320832 2.3418052e-38
0.092921481 0.018282702 0.074945264 2.3418052e-38
0.15247329 0.052287627 0.031647645 2.3418052e-38
0.15205432 0.047522053 0.04305638 2.3418052e-38
0.14915839 0.042308535 0.053895123 2.3418052e-38
0.14391154 0.036873981 0.063692145 2.3418052e-38
0.13654211 0.031454913 0.072021052 2.3418052e-38
0.12737086 0.026287179 0.078519367 2.3418052e-38
0.11679692 0.021595692 0.082904257 2.3418052e-38
0.1052805 0.017584637 0.084984884 2.3418052e-38
0.093322821 0.014428582 0.084670693 2.3418052e-38
0.081444308 0.012264887 0.081975363 2.3418052e-38
0.15014076 0.043319147 0.052077752 2.3418052e-38
0.14730692 0.038114306 0.062937051 2.3418052e-38
0.14211763 0.032682467 0.072766192 2.3418052e-38
0.13479877 0.027260048 0.081137381 2.3418052e-38
0.12566882 0.022083037 0.087686293 2.3418052e-38
0.11512517 0.017376751 0.092127897 2.3418052e-38
0.1036267 0.013346018 0.094268888 2.3418052e-38
0.091673844 0.010166265 0.09401609 2.3418052e-38
0.079786822 0.0079758819 0.091380492 2.3418052e-38
0.068482973 0.0068701985 0.086476818 2.3418052e-38
0.14348437 0.03369011 0.071215086 2.3418052e-38
0.1383528 0.028261147 0.081076063 2.3418052e-38
0.13108468 0.022835527 0.089489296 2.3418052e-38
0.12199631 0.017649386 0.096088618 2.3418052e-38
0.11148325 0.012928435 0.10058681 2.3418052e-38
0.10000306 0.0088781398 0.10278811 2.3418052e-38
0.088055365 0.0056747789 0.1025967 2.3418052e-38
0.07616017 0.0034577698 0.10002092 2.3418052e-38
0.064835168 0.0023236014 0.095172867 2.3418052e-38
0.054573264 0.0023216351 0.088263541 2.3418052e-38
0.13277927 0.023798542 0.088268571 2.3418052e-38
0.1255621 0.01836988 0.096723601 2.3418052e-38
0.11651557 0.013174755 0.10337315 2.3418052e-38
0.10603341 0.0084392717 0.1079278 2.3418052e-38
0.094571806 0.0043695294 0.11018934 2.3418052e-38
0.082629621 0.001142652 0.11005933 2.3418052e-38
0.070726588 -0.0011009199 0.10754344 2.3418052e-38
0.059380766 -0.0022635411 0.10275115 2.3418052e-38
0.049085937 -0.0022946114 0.095891051 2.3418052e-38
0.040290158 -0.0011927787 0.087261692 2.3418052e-38
0.11846798 0.014053334 0.10253327 2.3418052e-38
0.10946354 0.0088493749 0.10923284 2.3418052e-38
0.099012569 0.0040994957 0.11384384 2.3418052e-38
0.0875699 1.0422178e-05 0.11616555 2.3418052e-38
0.075633556 -0.0032398803 0.11609694 2.3418052e-38
0.063723028 -0.0055099512 0.11364101 2.3418052e-38
0.052356694 -0.0067009917 0.10890462 2.3418052e-38
0.042029239 -0.0067611653 0.10209394 2.3418052e-38
0.033190135 -0.0056878533 0.093505353 2.3418052e-38
0.026224082 -0.0035277684 0.083512671 2.3418052e-38
0.10114209 0.0048573245 0.11341951 2.3418052e-38
0.090722598 9.3183909e-05 0.1180867 2.3418052e-38
0.079299189 -0.0040151048 0.12046853 2.3418052e-38
0.067369029 -0.0072887396 0.12046133 2.3418052e-38
0.055451345 -0.0095852446 0.11806542 2.3418052e-38
0.044064824 -0.010804671 0.11338507 2.3418052e-38
0.033705033 -0.010893947 0.10662399 2.3418052e-38
0.024822852 -0.0098491861 0.098076425 2.3418052e-38
0.017804854 -0.0077158585 0.088114396 2.3418052e-38
0.012956478 -0.0045868126 0.07717146 2.3418052e-38
0.081517793 -0.0034093538 0.12047731 2.3418052e-38
0.070113957 -0.007536741 0.12291918 2.3418052e-38
0.05819032 -0.010833615 0.12297339 2.3418052e-38
0.046265818 -0.013156489 0.12063757 2.3418052e-38
0.034859437 -0.014404266 0.11601339 2.3418052e-38
0.024467608 -0.014522641 0.10930211 2.3418052e-38
0.015542603 -0.013506461 0.10079581 2.3418052e-38
0.0084728608 -0.011399953 0.090864711 2.3418052e-38
0.0035660714 -0.0082947956 0.079941019 2.3418052e-38
0.0010357897 -0.0043261335 0.068500176 2.3418052e-38
0.060406297 -0.010404982 0.1234149 2.3418052e-38
0.048489518 -0.013725001 0.12353052 2.3418052e-38
0.036558539 -0.016074179 0.12125487 2.3418052e-38
0.025132623 -0.017350271 0.11668699 2.3418052e-38
0.014709048 -0.017497743 0.1100257 2.3418052e-38
0.0057414738 -0.016510172 0.1015609 2.3418052e-38
-0.001379812 -0.014430542 0.091661006 2.3418052e-38
-0.0063448749 -0.011349361 0.08075688 2.3418052e-38
-0.0089376243 -0.0074007325 0.069323093 2.3418052e-38
-0.0090452172 -0.0027565071 0.057857271 2.3418052e-38
0.14296009 0.070486188 -0.0078738034 2.3418052e-38
0.14772305 0.065693021 0.002488879 2.3418052e-38
0.15008619 0.060029149 0.013230463 2.3418052e-38
0.14994664 0.053741079 0.023883451 2.3418052e-38
0.1473105 0.047102477 0.033984203 2.3418052e-38
0.14229247 0.040402271 0.043093108 2.3418052e-38
0.13511096 0.033932071 0.050813727 2.3418052e-38
0.12607853 0.027973475 0.056810047 2.3418052e-38
0.11558829 0.022785813 0.060821086 2.3418052e-38
0.10409679 0.018594863 0.06267228 2.3418052e-38
0.15011992 0.061199632 0.011251055 2.3418052e-38
0.15254603 0.055555053 0.021988755 2.3418052e-38
0.15247074 0.049279597 0.032649826 2.3418052e-38
0.14989732 0.042646386 0.042770281 2.3418052e-38
0.1449378 0.035944115 0.051909648 2.3418052e-38
0.13780798 0.029464476 0.059670161 2.3418052e-38
0.12881821 0.023489479 0.065714069 2.3418052e-38
0.11835972 0.018279171 0.069778331 2.3418052e-38
0.1068877 0.014060316 0.071686052 2.3418052e-38
0.094901428 0.011016527 0.07135421 2.3418052e-38
0.15295675 0.050513387 0.03077079 2.3418052e-38
0.15294573 0.044250727 0.041439645 2.3418052e-38
0.15043512 0.037623096 0.051579513 2.3418052e-38
0.14553422 0.030918945 0.06074908 2.3418052e-38
0.13845631 0.024430051 0.068549268 2.3418052e-38
0.12950945 0.018438825 0.074640594 2.3418052e-38
0.11908301 0.013206022 0.078757957 2.3418052e-38
0.10763078 0.0089593809 0.080722153 2.3418052e-38
0.095651194 0.0058837277 0.080447704 2.3418052e-38
0.083665624 0.0041129207 0.077946544 2.3418052e-38
0.15135331 0.038869195 0.049878519 2.3418052e-38
0.14890561 0.032247331 0.060037509 2.3418052e-38
0.14406347 0.025541492 0.069237016 2.3418052e-38
0.13703766 0.019043528 0.077076659 2.3418052e-38
0.12813397 0.013036243 0.083215237 2.3418052e-38
0.11773987 0.0077810907 0.08738558 2.3418052e-38
0.10630777 0.003506786 0.0894062 2.3418052e-38
0.094335213 0.00039935581 0.089189142 2.3418052e-38
0.082343258 -0.0014059575 0.086743854 2.3418052e-38
0.070853837 -0.0018305826 0.08217676 2.3418052e-38
0.14537591 0.026748385 0.067784384 2.3418052e-38
0.14059268 0.020041049 0.077013575 2.3418052e-38
0.13361917 0.013534198 0.084892444 2.3418052e-38
0.12475889 0.0075110262 0.091078095 2.3418052e-38
0.11439745 0.0022336754 0.095301308 2.3418052e-38
0.1029858 -0.002068172 0.097378284 2.3418052e-38
0.091020599 -0.0052072909 0.097218625 2.3418052e-38
0.079022609 -0.007047059 0.094829276 2.3418052e-38
0.06751401 -0.0075074062 0.090314239 2.3418052e-38
0.056995668 -0.0065682968 0.083870009 2.3418052e-38
0.13527159 0.014651999 0.083748214 2.3418052e-38
0.12835059 0.0081364475 0.091666095 2.3418052e-38
0.11953398 0.0020975599 0.09789864 2.3418052e-38
0.10920547 -0.0032018388 0.10217459 2.3418052e-38
0.097814597 -0.0075311069 0.10430788 2.3418052e-38
0.085857101 -0.010701825 0.10420562 2.3418052e-38
0.073853418 -0.012575996 0.10187229 2.3418052e-38
0.062325958 -0.013072052 0.097409427 2.3418052e-38
0.051776428 -0.012168404 0.091011278 2.3418052e-38
0.042663969 -0.009904379 0.082956292 2.3418052e-38
0.12145807 0.0030800628 0.097110115 2.3418052e-38
0.11268537 -0.0029743698 0.10338938 2.3418052e-38
0.1023901 -0.0082956664 0.10771797 2.3418052e-38
0.091020323 -0.012652231 0.10990749 2.3418052e-38
0.079070881 -0.015854457 0.10986264 2.3418052e-38
0.067061834 -0.017762978 0.10758539 2.3418052e-38
0.055515852 -0.018294729 0.10317483 2.3418052e-38
0.044935435 -0.017426567 0.09682294 2.3418052e-38
0.035781071 -0.015196278 0.088806152 2.3418052e-38
0.028451171 -0.011700926 0.079473384 2.3418052e-38
0.10450634 -0.0074890754 0.10731775 2.3418052e-38
0.094244592 -0.012832117 0.11169883 2.3418052e-38
0.08289624 -0.017215855 0.11394452 2.3418052e-38
0.07095518 -0.020449501 0.11395709 2.3418052e-38
0.058941118 -0.022392316 0.11173598 2.3418052e-38
0.047376938 -0.022959746 0.10737786 2.3418052e-38
0.036765933 -0.022127096 0.10107241 2.3418052e-38
0.02756992 -0.019930605 0.093094043 2.3418052e-38
0.020189129 -0.016465867 0.083790012 2.3418052e-38
0.014944787 -0.011883675 0.073565245 2.3418052e-38
0.085117139 -0.01661852 0.11394915 2.3418052e-38
0.073790528 -0.021029307 0.11625096 2.3418052e-38
0.061858192 -0.024294278 0.11632093 2.3418052e-38
0.049839459 -0.026271332 0.11415603 2.3418052e-38
0.038257409 -0.026874427 0.10985047 2.3418052e-38
0.027616119 -0.026077311 0.10359163 2.3418052e-38
0.01837872 -0.02391468 0.095651917 2.3418052e-38
0.010947245 -0.020480653 0.086376891 2.3418052e-38
0.0056451275 -0.015924688 0.076170221 2.3418052e-38
0.0027031284 -0.010445071 0.065476112 2.3418052e-38
0.064091951 -0.023930887 0.11673021 2.3418052e-38
0.052168678 -0.027227091 0.11685759 2.3418052e-38
0.040145617 -0.029238328 0.11474895 2.3418052e-38
0.028546028 -0.02987707 0.11049607 2.3418052e-38
0.017874755 -0.029115513 0.10428403 2.3418052e-38
0.0085962331 -0.026986802 0.096383199 2.3418052e-38
0.0011142847 -0.023583584 0.087137438 2.3418052e-38
-0.0042454582 -0.019053975 0.076949149 2.3418052e-38
-0.0072497278 -0.013595114 0.066261739 2.3418052e-38
-0.0077677718 -0.0074445815 0.055540361 2.3418052e-38
0.14204869 0.073890857 -0.0055354312 2.3418052e-38
0.14717557 0.067738242 0.0038935642 2.3418052e-38
0.1499137 0.060673535 0.013673035 2.3418052e-38
0.15014389 0.053004205 0.023377359 2.3418052e-38
0.14785616 0.045064043 0.032584179 2.3418052e-38
0.14315005 0.037198618 0.040892795 2.3418052e-38
0.13623039 0.029750252 0.047941599 2.3418052e-38
0.12739834 0.023043117 0.053423811 2.3418052e-38
0.11703828 0.017369119 0.057100832 2.3418052e-38
0.10560112 0.012975205 0.058812629 2.3418052e-38
0.14987873 0.062100641 0.011869879 2.3418052e-38
0.15267974 0.055055525 0.021645673 2.3418052e-38
0.15297455 0.047397558 0.031357218 2.3418052e-38
0.15075028 0.039460026 0.040581845 2.3418052e-38
0.14610377 0.031588394 0.04891808 2.3418052e-38
0.13923724 0.024125246 0.056003109 2.3418052e-38
0.13044953 0.017395401 0.061528578 2.3418052e-38
0.1201231 0.011691754 0.065254003 2.3418052e-38
0.10870739 0.00726254 0.06701725 2.3418052e-38
0.096699223 0.0043005296 0.066741578 2.3418052e-38
0.15339573 0.048873492 0.029644487 2.3418052e-38
0.15375511 0.041227102 0.039362978 2.3418052e-38
0.15159439 0.033292428 0.048605151 2.3418052e-38
0.14700761 0.02541481 0.056968767 2.3418052e-38
0.1401944 0.017937096 0.06408982 2.3418052e-38
0.13145128 0.011184731 0.069658391 2.3418052e-38
0.12115878 0.0054515959 0.073432118 2.3418052e-38
0.10976484 0.00098720845 0.075246766 2.3418052e-38
0.097765364 -0.0020141315 0.075023346 2.3418052e-38
0.085682586 -0.0034217986 0.072771594 2.3418052e-38
0.15245433 0.03475618 0.047053646 2.3418052e-38
0.15035722 0.026824592 0.056313101 2.3418052e-38
0.14583029 0.018941212 0.064703859 2.3418052e-38
0.1390706 0.011449141 0.071860738 2.3418052e-38
0.13037232 0.004674451 0.077472247 2.3418052e-38
0.12011404 -0.0010880089 0.081294172 2.3418052e-38
0.1087422 -0.0055874432 0.083160162 2.3418052e-38
0.096751742 -0.0086280266 0.082989015 2.3418052e-38
0.084664516 -0.010077426 0.080788173 2.3418052e-38
0.073006585 -0.0098725613 0.076653428 2.3418052e-38
0.14709343 0.020332273 0.063377716 2.3418052e-38
0.14262651 0.012443355 0.071795374 2.3418052e-38
0.13592051 0.0049371417 0.078987874 2.3418052e-38
0.12726733 -0.0018596818 0.084642164 2.3418052e-38
0.11704355 -0.0076513025 0.088512175 2.3418052e-38
0.10569414 -0.012185656 0.090429462 2.3418052e-38
0.093713045 -0.015265397 0.090310581 2.3418052e-38
0.081621721 -0.016756488 0.088160716 2.3418052e-38
0.069946401 -0.016594034 0.084073424 2.3418052e-38
0.059195217 -0.014785104 0.078226604 2.3418052e-38
0.13753463 0.0061980104 0.077941909 2.3418052e-38
0.13088255 -0.0013221325 0.085169815 2.3418052e-38
0.1222747 -0.0081408964 0.09086673 2.3418052e-38
0.11208571 -0.013961513 0.094784714 2.3418052e-38
0.10075905 -0.018530656 0.09675324 2.3418052e-38
0.088787667 -0.021649467 0.096686639 2.3418052e-38
0.076692581 -0.023182206 0.094587803 2.3418052e-38
0.065000199 -0.023062168 0.090548083 2.3418052e-38
0.054219406 -0.021294575 0.084743306 2.3418052e-38
0.044819396 -0.017956357 0.077426091 2.3418052e-38
0.12417308 -0.0070623392 0.09014418 2.3418052e-38
0.11561081 -0.01390285 0.095883556 2.3418052e-38
0.10545692 -0.019752296 0.099849403 2.3418052e-38
0.094153322 -0.024356099 0.10186911 2.3418052e-38
0.082191989 -0.02751389 0.10185479 2.3418052e-38
0.070093483 -0.029088236 0.099807046 2.3418052e-38
0.058384381 -0.029010616 0.095815018 2.3418052e-38
0.047574274 -0.027284412 0.090052441 2.3418052e-38
0.038133647 -0.023984747 0.082770117 2.3418052e-38
0.030473378 -0.019255234 0.074284986 2.3418052e-38
0.10756109 -0.018900635 0.099480137 2.3418052e-38
0.097442575 -0.024778746 0.10349373 2.3418052e-38
0.086162373 -0.029417079 0.10556456 2.3418052e-38
0.074211419 -0.032613762 0.10560252 2.3418052e-38
0.06210985 -0.034229666 0.10360593 2.3418052e-38
0.05038435 -0.034194469 0.099661708 2.3418052e-38
0.039545242 -0.032509699 0.093941495 2.3418052e-38
0.030064268 -0.029248683 0.08669427 2.3418052e-38
0.022354059 -0.024553344 0.078235425 2.3418052e-38
0.016750179 -0.018628037 0.068933129 2.3418052e-38
0.088385351 -0.028827518 0.10556385 2.3418052e-38
0.077128857 -0.033500247 0.10768575 2.3418052e-38
0.065188631 -0.036735732 0.10777598 2.3418052e-38
0.05308434 -0.038393151 0.1058306 2.3418052e-38
0.041342784 -0.038400374 0.10193429 2.3418052e-38
0.030474979 -0.036757089 0.096256614 2.3418052e-38
0.020953925 -0.033534814 0.089044683 2.3418052e-38
0.013193995 -0.028873784 0.080612384 2.3418052e-38
0.0075329184 -0.022976864 0.071326688 2.3418052e-38
0.004217078 -0.016100697 0.061591752 2.3418052e-38
0.067438535 -0.036432642 0.10814384 2.3418052e-38
0.055509374 -0.039706834 0.10828634 2.3418052e-38
0.043402698 -0.041405722 0.10639223 2.3418052e-38
0.031645413 -0.041455369 0.10254394 2.3418052e-38
0.020749228 -0.039853614 0.096908957 2.3418052e-38
0.011188365 -0.036670167 0.089732535 2.3418052e-38
0.003378934 -0.03204358 0.081327006 2.3418052e-38
-0.0023391796 -0.026175214 0.072058186 2.3418052e-38
-0.0057171118 -0.019320471 0.06232949 2.3418052e-38
-0.0066078468 -0.011777686 0.052564327 2.3418052e-38
0.1412477 0.076949149 -0.0027255057 2.3418052e-38
0.14669441 0.069575392 0.0055815168 2.3418052e-38
0.14976209 0.061252363 0.014204857 2.3418052e-38
0.15031725 0.052342303 0.022769207 2.3418052e-38
0.14833573 0.043232996 0.030901829 2.3418052e-38
0.14390375 0.034320895 0.03824877 2.3418052e-38
0.13721421 0.02599388 0.044490281 2.3418052e-38
0.12855826 0.018614359 0.04935471 2.3418052e-38
0.11831263 0.012503506 0.05263035 2.3418052e-38
0.10692322 0.0079272771 0.054174639 2.3418052e-38
0.14966676 0.062909983 0.012613495 2.3418052e-38
0.15279727 0.054606818 0.021233406 2.3418052e-38
0.15341732 0.045706991 0.029803941 2.3418052e-38
0.15149991 0.03659784 0.037952095 2.3418052e-38
0.14712851 0.027675811 0.045323238 2.3418052e-38
0.14049336 0.019329218 0.051596563 2.3418052e-38
0.13188323 0.011921318 0.056499042 2.3418052e-38
0.12167288 0.0057745222 0.05981731 2.3418052e-38
0.11030665 0.0011563516 0.061406944 2.3418052e-38
0.098279253 -0.0017322006 0.061198764 2.3418052e-38
0.15378155 0.04740043 0.028291056 2.3418052e-38
0.15446647 0.03851109 0.036867533 2.3418052e-38
0.15261324 0.029402351 0.045030985 2.3418052e-38
0.14830253 0.020470651 0.052426118 2.3418052e-38
0.14172195 0.012104715 0.058731087 2.3418052e-38
0.13315791 0.0046686484 0.063671477 2.3418052e-38
0.12298311 -0.0015139155 0.06703227 2.3418052e-38
0.1116404 -0.0061738971 0.068667211 2.3418052e-38
0.099623442 -0.0091084838 0.068505123 2.3418052e-38
0.087455228 -0.010189956 0.066553079 2.3418052e-38
0.15342197 0.03106161 0.043659113 2.3418052e-38
0.15163298 0.021953547 0.051837631 2.3418052e-38
0.14738309 0.013012427 0.059256546 2.3418052e-38
0.14085728 0.0046273875 0.065592974 2.3418052e-38
0.13233954 -0.0028366353 0.070571132 2.3418052e-38
0.12220061 -0.0090547903 0.073974364 2.3418052e-38
0.11088174 -0.01375645 0.075654559 2.3418052e-38
0.098875552 -0.016736988 0.075538576 2.3418052e-38
0.086704589 -0.017866684 0.07363148 2.3418052e-38
0.074898563 -0.01709637 0.070016257 2.3418052e-38
0.1486029 0.014568917 0.058082398 2.3418052e-38
0.14441396 0.0056186314 0.065524884 2.3418052e-38
0.13794309 -0.0027852729 0.071892589 2.3418052e-38
0.12947191 -0.010277039 0.07690838 2.3418052e-38
0.11936912 -0.016530609 0.080353945 2.3418052e-38
0.1080744 -0.021273814 0.082079343 2.3418052e-38
0.09607935 -0.024300218 0.082009472 2.3418052e-38
0.083905987 -0.025478106 0.080147378 2.3418052e-38
0.072084144 -0.024756212 0.076574095 2.3418052e-38
0.061128326 -0.022165956 0.071445145 2.3418052e-38
0.13952355 -0.0013958921 0.070964701 2.3418052e-38
0.1331078 -0.0098184226 0.077363506 2.3418052e-38
0.12468342 -0.017337719 0.082416773 2.3418052e-38
0.11461707 -0.023626527 0.085904591 2.3418052e-38
0.10334684 -0.028411141 0.087675139 2.3418052e-38
0.091363244 -0.031483326 0.087651379 2.3418052e-38
0.079187833 -0.032709371 0.085834339 2.3418052e-38
0.067350507 -0.032035917 0.082303092 2.3418052e-38
0.056366455 -0.029492276 0.077211335 2.3418052e-38
0.046713728 -0.025189152 0.070780665 2.3418052e-38
0.12655921 -0.016172882 0.081773505 2.3418052e-38
0.11818188 -0.023719495 0.086864114 2.3418052e-38
0.10815224 -0.03004336 0.090394072 2.3418052e-38
0.096906811 -0.034869246 0.092209734 2.3418052e-38
0.084935017 -0.037987124 0.092232078 2.3418052e-38
0.0727579 -0.039261293 0.090460137 2.3418052e-38
0.06090543 -0.038636301 0.08697103 2.3418052e-38
0.049893457 -0.036139343 0.081916615 2.3418052e-38
0.040201247 -0.031879101 0.075516857 2.3418052e-38
0.032250624 -0.026040984 0.068050303 2.3418052e-38
0.11024581 -0.029151214 0.090062 2.3418052e-38
0.10025317 -0.035509959 0.093633994 2.3418052e-38
0.089032866 -0.04037698 0.09549471 2.3418052e-38
0.077073216 -0.043540463 0.095563166 2.3418052e-38
0.064894743 -0.044862717 0.093836382 2.3418052e-38
0.053027466 -0.044286203 0.09038952 2.3418052e-38
0.041987885 -0.041836005 0.085372575 2.3418052e-38
0.032256465 -0.037618764 0.079003915 2.3418052e-38
0.024256742 -0.031818025 0.071560711 2.3418052e-38
0.018336877 -0.024686247 0.063366905 2.3418052e-38
0.091257676 -0.039794408 0.095487572 2.3418052e-38
0.080062807 -0.044702429 0.097393297 2.3418052e-38
0.068115644 -0.047911424 0.097507857 2.3418052e-38
0.055936154 -0.049281731 0.095826283 2.3418052e-38
0.044054411 -0.048753709 0.092421748 2.3418052e-38
0.032987535 -0.046350338 0.087442428 2.3418052e-38
0.023217186 -0.042176221 0.081105046 2.3418052e-38
0.015168588 -0.036413021 0.0736854 2.3418052e-38
0.0091920337 -0.029311569 0.065506421 2.3418052e-38
0.0055476371 -0.021180935 0.056924079 2.3418052e-38
0.070379734 -0.047662504 0.097825952 2.3418052e-38
0.058445394 -0.050916921 0.097986616 2.3418052e-38
0.046265233 -0.05233524 0.09635029 2.3418052e-38
0.034369357 -0.051855724 0.092988193 2.3418052e-38
0.023275504 -0.049499247 0.08804664 2.3418052e-38
0.013466501 -0.045368373 0.081740707 2.3418052e-38
0.0053692572 -0.039642882 0.074344836 2.3418052e-38
-0.00066381652 -0.032571957 0.066180922 2.3418052e-38
-0.0043701474 -0.024463346 0.057604268 2.3418052e-38
-0.0055884281 -0.015669951 0.048988149 2.3418052e-38
0.14057298 0.079600446 0.0005002899 2.3418052e-38
0.1462891 0.071168058 0.0075192866 2.3418052e-38
0.14963439 0.061754163 0.014815387 2.3418052e-38
0.15046328 0.051768482 0.02207105 2.3418052e-38
0.1487397 0.041645616 0.028970491 2.3418052e-38
0.14453864 0.031826131 0.035213429 2.3418052e-38
0.13804294 0.022737395 0.040528163 2.3418052e-38
0.12953533 0.014774967 0.044683382 2.3418052e-38
0.11938608 0.0082853921 0.047498241 2.3418052e-38
0.10803688 0.0035511111 0.048850227 2.3418052e-38
0.1494882 0.063611619 0.013467167 2.3418052e-38
0.15289626 0.054217827 0.020760123 2.3418052e-38
0.1537903 0.044241399 0.028020779 2.3418052e-38
0.15213136 0.03411654 0.034933139 2.3418052e-38
0.1479917 0.024283905 0.041196357 2.3418052e-38
0.14155146 0.015171429 0.046537846 2.3418052e-38
0.13309093 0.0071757096 0.050725136 2.3418052e-38
0.12297834 0.00064473768 0.053575981 2.3418052e-38
0.1116538 -0.0041372445 0.054966308 2.3418052e-38
0.099610187 -0.0069621135 0.05483561 2.3418052e-38
0.15410653 0.046123404 0.026737316 2.3418052e-38
0.15506567 0.036156517 0.034002759 2.3418052e-38
0.15347147 0.026029954 0.040927839 2.3418052e-38
0.14939331 0.016184445 0.047211159 2.3418052e-38
0.14300869 0.00704849 0.052579254 2.3418052e-38
0.13459548 -0.00098029466 0.056798495 2.3418052e-38
0.12451984 -0.0075524785 0.059685249 2.3418052e-38
0.11322028 -0.012382025 0.061113875 2.3418052e-38
0.10118859 -0.015258742 0.061022203 2.3418052e-38
0.088948414 -0.016057428 0.059414219 2.3418052e-38
0.15423706 0.027858704 0.039762188 2.3418052e-38
0.15270762 0.017730726 0.046699792 2.3418052e-38
0.1486911 0.0078726262 0.053003032 2.3418052e-38
0.14236228 -0.0012865484 0.05839758 2.3418052e-38
0.13399664 -0.0093481699 0.062648654 2.3418052e-38
0.12395824 -0.015961377 0.065571226 2.3418052e-38
0.11268398 -0.020838352 0.067038119 2.3418052e-38
0.10066455 -0.023766834 0.066985473 2.3418052e-38
0.088423058 -0.024619371 0.065415591 2.3418052e-38
0.07649228 -0.023358859 0.062396787 2.3418052e-38
0.14987442 0.009572532 0.052003376 2.3418052e-38
0.14591962 -0.00029787942 0.05832636 2.3418052e-38
0.1396468 -0.0094800126 0.063747205 2.3418052e-38
0.13132894 -0.017574241 0.068029985 2.3418052e-38
0.12132807 -0.024228286 0.070988305 2.3418052e-38
0.11007944 -0.029152548 0.072493412 2.3418052e-38
0.098072603 -0.032132711 0.072479799 2.3418052e-38
0.085830152 -0.033039078 0.070948057 2.3418052e-38
0.073884882 -0.031832192 0.067964859 2.3418052e-38
0.062756687 -0.028564587 0.063660026 2.3418052e-38
0.14119892 -0.0079792216 0.062954865 2.3418052e-38
0.13498226 -0.017184053 0.068401858 2.3418052e-38
0.12671243 -0.025310658 0.072716229 2.3418052e-38
0.11674936 -0.032005351 0.075710207 2.3418052e-38
0.10552667 -0.036976762 0.077253483 2.3418052e-38
0.093532786 -0.040008523 0.077278905 2.3418052e-38
0.081289709 -0.04096869 0.075785354 2.3418052e-38
0.06933029 -0.039815467 0.072837837 2.3418052e-38
0.058175031 -0.036599051 0.068564631 2.3418052e-38
0.048309427 -0.031459425 0.063151725 2.3418052e-38
0.12856917 -0.024071021 0.072163962 2.3418052e-38
0.12034762 -0.032229774 0.076509796 2.3418052e-38
0.11042265 -0.03896492 0.079539344 2.3418052e-38
0.099226221 -0.04398334 0.081120759 2.3418052e-38
0.087245621 -0.047066614 0.081185207 2.3418052e-38
0.075002275 -0.048080552 0.079729885 2.3418052e-38
0.063029043 -0.046981025 0.076818138 2.3418052e-38
0.051847033 -0.043815892 0.072576679 2.3418052e-38
0.041942898 -0.038722899 0.067190118 2.3418052e-38
0.033747695 -0.031923711 0.06089288 2.3418052e-38
0.11250728 -0.03803768 0.079249978 2.3418052e-38
0.10262069 -0.044813093 0.082315013 2.3418052e-38
0.09145084 -0.049878374 0.083934516 2.3418052e-38
0.079483867 -0.053013071 0.084037989 2.3418052e-38
0.067240603 -0.054080755 0.082620941 2.3418052e-38
0.055253901 -0.053034957 0.079745039 2.3418052e-38
0.044045452 -0.049921192 0.075535454 2.3418052e-38
0.034103069 -0.044874981 0.070175387 2.3418052e-38
0.025859473 -0.038115945 0.063898131 2.3418052e-38
0.019673439 -0.029938247 0.056976877 2.3418052e-38
0.093677185 -0.049301859 0.083920009 2.3418052e-38
0.082534231 -0.054413859 0.085577548 2.3418052e-38
0.070581228 -0.057599891 0.085720055 2.3418052e-38
0.058338389 -0.058721289 0.084341317 2.3418052e-38
0.046338558 -0.057729248 0.08150135 2.3418052e-38
0.035103995 -0.054666944 0.077323742 2.3418052e-38
0.02512365 -0.049667653 0.071990333 2.3418052e-38
0.016831892 -0.042948961 0.065733224 2.3418052e-38
0.010589595 -0.034803271 0.058824755 2.3418052e-38
0.0066684382 -0.025585111 0.051565588 2.3418052e-38
0.072857261 -0.057397932 0.085981004 2.3418052e-38
0.060918558 -0.060635205 0.08616253 2.3418052e-38
0.048676498 -0.061810289 0.084822148 2.3418052e-38
0.036663882 -0.060872033 0.082018189 2.3418052e-38
0.025403522 -0.057861272 0.077872694 2.3418052e-38
0.015385496 -0.05290905 0.072566085 2.3418052e-38
0.0070458129 -0.04623089 0.066329315 2.3418052e-38
0.0007474313 -0.038117442 0.059433818 2.3418052e-38
-0.0032355278 -0.028921824 0.052179705 2.3418052e-38
-0.0047297175 -0.019044247 0.044882696 2.3418052e-38
0.14003791 0.08179222 0.0040780301 2.3418052e-38
0.14596766 0.07248468 0.0096684741 2.3418052e-38
0.14953312 0.062168989 0.01549253 2.3418052e-38
0.15057909 0.051294118 0.021296721 2.3418052e-38
0.14906006 0.040333364 0.026828438 2.3418052e-38
0.14504212 0.029763764 0.031846926 2.3418052e-38
0.13870016 0.020045329 0.03613377 2.3418052e-38
0.13031019 0.011601025 0.039502397 2.3418052e-38
0.12023736 0.0047983699 0.041806199 2.3418052e-38
0.10892007 -6.6570021e-05 0.042944904 2.3418052e-38
0.14934659 0.064191647 0.014413977 2.3418052e-38
0.15297477 0.053896252 0.020235203 2.3418052e-38
0.15408607 0.043029826 0.026043069 2.3418052e-38
0.15263213 0.032065306 0.031584803 2.3418052e-38
0.14867625 0.02147989 0.03661922 2.3418052e-38
0.14239056 0.011734276 0.040927209 2.3418052e-38
0.13404867 0.0032526178 0.044321276 2.3418052e-38
0.12401361 -0.003595944 0.046653703 2.3418052e-38
0.11272213 -0.0085133454 0.047822978 2.3418052e-38
0.10066567 -0.01128557 0.047778215 2.3418052e-38
0.15436426 0.045067713 0.025014056 2.3418052e-38
0.15554085 0.034210041 0.030825432 2.3418052e-38
0.15415207 0.023242064 0.036377031 2.3418052e-38
0.15025833 0.012641132 0.041427232 2.3418052e-38
0.14402911 0.0028686184 0.045756239 2.3418052e-38
0.13573553 -0.0056501529 0.04917565 2.3418052e-38
0.12573852 -0.012544427 0.051536638 2.3418052e-38
0.11447318 -0.017514149 0.05273645 2.3418052e-38
0.10242981 -0.020343026 0.052722868 2.3418052e-38
0.090132564 -0.02090794 0.051496483 2.3418052e-38
0.15488346 0.025210932 0.035440095 2.3418052e-38
0.15355986 0.014239811 0.041001394 2.3418052e-38
0.14972839 0.0036236644 0.046067238 2.3418052e-38
0.14355582 -0.0061754705 0.050417148 2.3418052e-38
0.13531077 -0.014731114 0.053861801 2.3418052e-38
0.1253521 -0.021670904 0.056251284 2.3418052e-38
0.11411322 -0.026692806 0.057481598 2.3418052e-38
0.10208328 -0.029578255 0.0574992 2.3418052e-38
0.089785852 -0.030201672 0.056303319 2.3418052e-38
0.077756152 -0.028535921 0.053946007 2.3418052e-38
0.15088277 0.0054421285 0.045261111 2.3418052e-38
0.14711367 -0.0051889303 0.050342452 2.3418052e-38
0.1409979 -0.015014409 0.054713134 2.3418052e-38
0.13280164 -0.02360668 0.058182932 2.3418052e-38
0.12288158 -0.030591788 0.060600843 2.3418052e-38
0.11166949 -0.035665728 0.061861623 2.3418052e-38
0.099653326 -0.038607668 0.061910406 2.3418052e-38
0.087356076 -0.039289568 0.060745068 2.3418052e-38
0.075312927 -0.037681755 0.058416326 2.3418052e-38
0.064048029 -0.033854198 0.055025533 2.3418052e-38
0.14252754 -0.013421518 0.054071132 2.3418052e-38
0.13646875 -0.02327306 0.058462467 2.3418052e-38
0.1283215 -0.031901713 0.061957315 2.3418052e-38
0.11844034 -0.038931943 0.064403579 2.3418052e-38
0.10725535 -0.044057775 0.065694794 2.3418052e-38
0.095253304 -0.04705612 0.065774761 2.3418052e-38
0.082956567 -0.047796488 0.064639993 2.3418052e-38
0.070900328 -0.046246652 0.062339887 2.3418052e-38
0.05960929 -0.042474069 0.058974545 2.3418052e-38
0.049574863 -0.036642928 0.054690436 2.3418052e-38
0.13016315 -0.03060024 0.061505985 2.3418052e-38
0.12206513 -0.039265033 0.065025784 2.3418052e-38
0.11222316 -0.046340182 0.067500338 2.3418052e-38
0.10106558 -0.051517759 0.068821944 2.3418052e-38
0.089078002 -0.05457243 0.068933085 2.3418052e-38
0.076782137 -0.05537124 0.067828931 2.3418052e-38
0.064713143 -0.053879429 0.065557525 2.3418052e-38
0.053396281 -0.050161924 0.062217727 2.3418052e-38
0.043324083 -0.04438052 0.0579549 2.3418052e-38
0.034934923 -0.036786832 0.052954562 2.3418052e-38
0.11430071 -0.045383926 0.067258328 2.3418052e-38
0.10449821 -0.052503794 0.069761097 2.3418052e-38
0.093368366 -0.05773297 0.071113065 2.3418052e-38
0.081395589 -0.060843874 0.071255378 2.3418052e-38
0.069100946 -0.061701108 0.070181862 2.3418052e-38
0.057019535 -0.060267363 0.067939222 2.3418052e-38
0.04567717 -0.056605045 0.064625069 2.3418052e-38
0.035567489 -0.05087354 0.060383644 2.3418052e-38
0.027130492 -0.043322295 0.055399537 2.3418052e-38
0.020733375 -0.034279965 0.049889676 2.3418052e-38
0.095595941 -0.057161462 0.071090385 2.3418052e-38
0.084494151 -0.062442087 0.072472669 2.3418052e-38
0.072536513 -0.065609135 0.072646156 2.3418052e-38
0.060243439 -0.066524766 0.071603306 2.3418052e-38
0.048149966 -0.065149136 0.069389492 2.3418052e-38
0.036782417 -0.061542101 0.066101082 2.3418052e-38
0.026635541 -0.055860661 0.061881173 2.3418052e-38
0.018150946 -0.048352078 0.056913443 2.3418052e-38
0.011697907 -0.039343145 0.051414095 2.3418052e-38
0.0075572697 -0.029225949 0.045622464 2.3418052e-38
0.074822024 -0.065445997 0.072843745 2.3418052e-38
0.06287986 -0.068669103 0.073048398 2.3418052e-38
0.050588712 -0.069643103 0.072036244 2.3418052e-38
0.038483515 -0.068325616 0.069851331 2.3418052e-38
0.02709111 -0.064773977 0.066588745 2.3418052e-38
0.016907323 -0.059142761 0.062390484 2.3418052e-38
0.0083753765 -0.051677052 0.057439268 2.3418052e-38
0.0018665971 -0.042701773 0.051950581 2.3418052e-38
-0.0023357372 -0.032607548 0.046163309 2.3418052e-38
-0.0040487316 -0.021833705 0.040329326 2.3418052e-38
0.15142433 0.034350436 -0.0098047564 2.3418052e-38
0.15417837 0.037146829 0.0019272922 2.3418052e-38
0.15440978 0.039569814 0.01405664 2.3418052e-38
0.15210851 0.041513935 0.02605539 2.3418052e-38
0.1473747 0.042894579 0.03740133 2.3418052e-38
0.14041439 0.043651659 0.04760066 2.3418052e-38
0.13153049 0.043752223 0.056209486 2.3418052e-38
0.12110966 0.043191895 0.062853128 2.3418052e-38
0.10960545 0.041995063 0.067242436 2.3418052e-38
0.097518526 0.040213816 0.069186382 2.3418052e-38
0.15484533 0.039210021 0.011827274 2.3418052e-38
0.15514171 0.041643929 0.023953021 2.3418052e-38
0.15290429 0.043601416 0.035961669 2.3418052e-38
0.14823042 0.044997297 0.047330577 2.3418052e-38
0.14132355 0.04577082 0.05756494 2.3418052e-38
