# .PCD v0.7 - Point Cloud Data file format
VERSION 0.7
FIELDS x y z
SIZE 4 4 4
TYPE F F F
COUNT 1 1 1
WIDTH 1344
HEIGHT 1
VIEWPOINT 0 0 0 1 0 0 0
POINTS 1344
DATA ascii
0.060006469 -0.043417405 0.10384665
0.060006469 -0.043417405 0.095024221
0.060006469 -0.041445978 0.10450314
0.060006469 -0.041445978 0.094367728
0.060006469 -0.039474547 0.10506632
0.060006469 -0.039474547 0.093804546
0.060006469 -0.03750312 0.10556199
0.060006469 -0.03750312 0.093308881
0.060006469 -0.035531692 0.10600543
0.060006469 -0.035531692 0.092865437
0.060006469 -0.033560261 0.10640663
0.060006469 -0.033560261 0.092464238
0.060006469 -0.031588834 0.1067725
0.060006469 -0.031588834 0.092098363
0.060006469 -0.029617405 0.10710812
0.060006469 -0.029617405 0.091762744
0.060006469 -0.027645977 0.1074173
0.060006469 -0.027645977 0.091453567
0.060006469 -0.025674548 0.107703
0.060006469 -0.025674548 0.091167867
0.060006469 -0.023703119 0.10796759
0.060006469 -0.023703119 0.090903282
0.060006469 -0.021731691 0.10821296
0.060006469 -0.021731691 0.090657912
0.060006469 -0.019760262 0.10844069
0.060006469 -0.019760262 0.090430178
0.060006469 -0.017788833 0.1086521
0.060006469 -0.017788833 0.090218768
0.060006469 -0.015817406 0.10884828
0.060006469 -0.015817406 0.090022586
0.060006469 -0.013845976 0.10903016
0.060006469 -0.013845976 0.08984071
0.060006469 -0.011874548 0.10919855
0.060006469 -0.011874548 0.08967232
0.060006469 -0.0099031199 0.10935412
0.060006469 -0.0099031199 0.089516744
0.060006469 -0.0079316907 0.10949749
0.060006469 -0.0079316907 0.08937338
0.060006469 -0.0059602624 0.10962915
0.060006469 -0.0059602624 0.089241721
0.060006469 -0.0039888336 0.10974956
0.060006469 -0.0039888336 0.089121304
0.060006469 -0.0020174053 0.10985911
0.060006469 -0.0020174053 0.089011759
0.060006469 -4.5976696e-05 0.10995814
0.060006469 -4.5976696e-05 0.088912725
0.060006469 0.0019254519 0.11004694
0.060006469 0.0019254519 0.088823929
0.060006469 0.0038968804 0.11012577
0.060006469 0.0038968804 0.088745102
0.060006469 0.0058683092 0.11019485
0.060006469 0.0058683092 0.088676021
0.060006469 0.0078397375 0.11025435
0.060006469 0.0078397375 0.088616513
0.060006469 0.0098111657 0.11030445
0.060006469 0.0098111657 0.088566415
0.060006469 0.011782595 0.11034527
0.060006469 0.011782595 0.088525601
0.060006469 0.013754023 0.11037691
0.060006469 0.013754023 0.088493958
0.060006469 0.015725452 0.11039945
0.060006469 0.015725452 0.088471413
0.060006469 0.01769688 0.11041296
0.060006469 0.01769688 0.088457905
0.060006469 0.019668309 0.11041746
0.060006469 0.019668309 0.088453405
0.060006469 0.021639738 0.11041296
0.060006469 0.021639738 0.088457905
0.060006469 0.023611166 0.11039945
0.060006469 0.023611166 0.088471413
0.060006469 0.025582595 0.11037691
0.060006469 0.025582595 0.088493958
0.060006469 0.027554024 0.11034527
0.060006469 0.027554024 0.088525601
0.060006469 0.029525451 0.11030445
0.060006469 0.029525451 0.088566415
0.060006469 0.031496879 0.11025435
0.060006469 0.031496879 0.088616513
0.060006469 0.03346831 0.11019485
0.060006469 0.03346831 0.088676021
0.060006469 0.035439737 0.11012577
0.060006469 0.035439737 0.088745102
0.060006469 0.037411164 0.11004694
0.060006469 0.037411164 0.088823929
0.060006469 0.039382596 0.10995814
0.060006469 0.039382596 0.088912725
0.060006469 0.041354023 0.10985911
0.060006469 0.041354023 0.089011759
0.060006469 0.04332545 0.10974956
0.060006469 0.04332545 0.089121304
0.060006469 0.045296881 0.10962915
0.060006469 0.045296881 0.089241721
0.060006469 0.047268309 0.10949749
0.060006469 0.047268309 0.08937338
0.060006469 0.049239736 0.10935412
0.060006469 0.049239736 0.089516744
0.060006469 0.051211167 0.10919855
0.060006469 0.051211167 0.08967232
0.060006469 0.053182594 0.10903016
0.060006469 0.053182594 0.08984071
0.060006469 0.055154022 0.10884828
0.060006469 0.055154022 0.090022586
0.060006469 0.057125453 0.1086521
0.060006469 0.057125453 0.090218768
0.060006469 0.05909688 0.10844069
0.060006469 0.05909688 0.090430178
0.060006469 0.061068308 0.10821296
0.060006469 0.061068308 0.090657912
0.060006469 0.063039735 0.10796759
0.060006469 0.063039735 0.090903282
0.060006469 0.065011166 0.107703
0.060006469 0.065011166 0.091167867
0.060006469 0.066982597 0.1074173
0.060006469 0.066982597 0.091453567
0.060006469 0.068954021 0.10710812
0.060006469 0.068954021 0.091762744
0.060006469 0.070925452 0.1067725
0.060006469 0.070925452 0.092098363
0.060006469 0.072896883 0.10640663
0.060006469 0.072896883 0.092464238
0.060006469 0.074868307 0.10600543
0.060006469 0.074868307 0.092865437
0.060006469 0.076839738 0.10556199
0.060006469 0.076839738 0.093308881
0.060006469 0.078811169 0.10506632
0.060006469 0.078811169 0.093804546
0.060006469 0.080782592 0.10450314
0.060006469 0.080782592 0.094367728
0.060006469 0.082754023 0.10384665
0.060006469 0.082754023 0.095024221
0.060006469 0.084725454 0.1030463
0.060006469 0.084725454 0.095824569
0.060006469 0.086696878 0.10196929
0.060006469 0.086696878 0.096901581
0.061720755 -0.049331691 nan
0.061720755 -0.049331691 nan
0.061720755 -0.047360264 0.1020271
0.061720755 -0.047360264 0.096843764
0.061720755 -0.045388833 0.1030871
0.061720755 -0.045388833 0.095783763
0.061720755 -0.043417405 0.10388011
0.061720755 -0.043417405 0.09499076
0.061720755 -0.041445978 0.10453229
0.061720755 -0.041445978 0.094338574
0.061720755 -0.039474547 0.10509258
0.061720755 -0.039474547 0.09377829
0.061720755 -0.03750312 0.10558613
0.061720755 -0.03750312 0.093284741
0.061720755 -0.035531692 0.10602795
0.061720755 -0.035531692 0.092842922
0.061720755 -0.033560261 0.10642785
0.061720755 -0.033560261 0.092443019
0.061720755 -0.031588834 0.10679267
0.061720755 -0.031588834 0.092078194
0.061720755 -0.029617405 0.10712741
0.061720755 -0.029617405 0.091743454
0.061720755 -0.027645977 0.10743584
0.061720755 -0.027645977 0.091435023
0.061720755 -0.025674548 0.1077209
0.061720755 -0.025674548 0.091149963
0.061720755 -0.023703119 0.10798493
0.061720755 -0.023703119 0.090885937
0.061720755 -0.021731691 0.10822982
0.061720755 -0.021731691 0.090641044
0.061720755 -0.019760262 0.10845713
0.061720755 -0.019760262 0.090413734
0.061720755 -0.017788833 0.10866816
0.061720755 -0.017788833 0.090202704
0.061720755 -0.015817406 0.108864
0.061720755 -0.015817406 0.090006866
0.061720755 -0.013845976 0.10904559
0.061720755 -0.013845976 0.08982528
0.061720755 -0.011874548 0.10921371
0.061720755 -0.011874548 0.089657158
0.061720755 -0.0099031199 0.10936905
0.061720755 -0.0099031199 0.089501821
0.061720755 -0.0079316907 0.1095122
0.061720755 -0.0079316907 0.089358665
0.061720755 -0.0059602624 0.10964368
0.061720755 -0.0059602624 0.089227192
0.061720755 -0.0039888336 0.10976391
0.061720755 -0.0039888336 0.089106955
0.061720755 -0.0020174053 0.10987332
0.061720755 -0.0020174053 0.08899755
0.061720755 -4.5976696e-05 0.10997221
0.061720755 -4.5976696e-05 0.088898659
0.061720755 0.0019254519 0.11006089
0.061720755 0.0019254519 0.088809974
0.061720755 0.0038968804 0.11013962
0.061720755 0.0038968804 0.088731252
0.061720755 0.0058683092 0.11020861
0.061720755 0.0058683092 0.088662259
0.061720755 0.0078397375 0.11026803
0.061720755 0.0078397375 0.088602833
0.061720755 0.0098111657 0.11031807
0.061720755 0.0098111657 0.088552795
0.061720755 0.011782595 0.11035884
0.061720755 0.011782595 0.088512026
0.061720755 0.013754023 0.11039045
0.061720755 0.013754023 0.08848042
0.061720755 0.015725452 0.11041296
0.061720755 0.015725452 0.088457905
0.061720755 0.01769688 0.11042645
0.061720755 0.01769688 0.088444419
0.061720755 0.019668309 0.11043094
0.061720755 0.019668309 0.088439927
0.061720755 0.021639738 0.11042645
0.061720755 0.021639738 0.088444419
0.061720755 0.023611166 0.11041296
0.061720755 0.023611166 0.088457905
0.061720755 0.025582595 0.11039045
0.061720755 0.025582595 0.08848042
0.061720755 0.027554024 0.11035884
0.061720755 0.027554024 0.088512026
0.061720755 0.029525451 0.11031807
0.061720755 0.029525451 0.088552795
0.061720755 0.031496879 0.11026803
0.061720755 0.031496879 0.088602833
0.061720755 0.03346831 0.11020861
0.061720755 0.03346831 0.088662259
0.061720755 0.035439737 0.11013962
0.061720755 0.035439737 0.088731252
0.061720755 0.037411164 0.11006089
0.061720755 0.037411164 0.088809974
0.061720755 0.039382596 0.10997221
0.061720755 0.039382596 0.088898659
0.061720755 0.041354023 0.10987332
0.061720755 0.041354023 0.08899755
0.061720755 0.04332545 0.10976391
0.061720755 0.04332545 0.089106955
0.061720755 0.045296881 0.10964368
0.061720755 0.045296881 0.089227192
0.061720755 0.047268309 0.1095122
0.061720755 0.047268309 0.089358665
0.061720755 0.049239736 0.10936905
0.061720755 0.049239736 0.089501821
0.061720755 0.051211167 0.10921371
0.061720755 0.051211167 0.089657158
0.061720755 0.053182594 0.10904559
0.061720755 0.053182594 0.08982528
0.061720755 0.055154022 0.108864
0.061720755 0.055154022 0.090006866
0.061720755 0.057125453 0.10866816
0.061720755 0.057125453 0.090202704
0.061720755 0.05909688 0.10845713
0.061720755 0.05909688 0.090413734
0.061720755 0.061068308 0.10822982
0.061720755 0.061068308 0.090641044
0.061720755 0.063039735 0.10798493
0.061720755 0.063039735 0.090885937
0.061720755 0.065011166 0.1077209
0.061720755 0.065011166 0.091149963
0.061720755 0.066982597 0.10743584
0.061720755 0.066982597 0.091435023
0.061720755 0.068954021 0.10712741
0.061720755 0.068954021 0.091743454
0.061720755 0.070925452 0.10679267
0.061720755 0.070925452 0.092078194
0.061720755 0.072896883 0.10642785
0.061720755 0.072896883 0.092443019
0.061720755 0.074868307 0.10602795
0.061720755 0.074868307 0.092842922
0.061720755 0.076839738 0.10558613
0.061720755 0.076839738 0.093284741
0.061720755 0.078811169 0.10509258
0.061720755 0.078811169 0.09377829
0.061720755 0.080782592 0.10453229
0.061720755 0.080782592 0.094338574
0.061720755 0.082754023 0.10388011
0.061720755 0.082754023 0.09499076
0.061720755 0.084725454 0.1030871
0.061720755 0.084725454 0.095783763
0.061720755 0.086696878 0.1020271
0.061720755 0.086696878 0.096843764
0.06343504 -0.049331691 0.099435434
0.06343504 -0.049331691 0.099435434
0.06343504 -0.047360264 0.10204609
0.06343504 -0.047360264 0.09682478
0.06343504 -0.045388833 0.10310061
0.06343504 -0.045388833 0.095770262
0.06343504 -0.043417405 0.1038912
0.06343504 -0.043417405 0.094979666
0.06343504 -0.041445978 0.10454197
0.06343504 -0.041445978 0.094328895
0.06343504 -0.039474547 0.1051013
0.06343504 -0.039474547 0.093769565
0.06343504 -0.03750312 0.10559415
0.06343504 -0.03750312 0.093276717
0.06343504 -0.035531692 0.10603543
0.06343504 -0.035531692 0.092835434
0.06343504 -0.033560261 0.10643491
0.06343504 -0.033560261 0.092435956
0.06343504 -0.031588834 0.10679939
0.06343504 -0.031588834 0.092071481
0.06343504 -0.029617405 0.10713383
0.06343504 -0.029617405 0.091737039
0.06343504 -0.027645977 0.10744201
0.06343504 -0.027645977 0.091428854
0.06343504 -0.025674548 0.10772686
0.06343504 -0.025674548 0.09114401
0.06343504 -0.023703119 0.1079907
0.06343504 -0.023703119 0.090880163
0.06343504 -0.021731691 0.10823543
0.06343504 -0.021731691 0.090635434
0.06343504 -0.019760262 0.1084626
0.06343504 -0.019760262 0.090408266
0.06343504 -0.017788833 0.10867351
0.06343504 -0.017788833 0.090197355
0.06343504 -0.015817406 0.10886924
0.06343504 -0.015817406 0.090001628
0.06343504 -0.013845976 0.10905073
0.06343504 -0.013845976 0.089820139
0.06343504 -0.011874548 0.10921876
0.06343504 -0.011874548 0.089652106
0.06343504 -0.0099031199 0.10937402
0.06343504 -0.0099031199 0.089496844
0.06343504 -0.0079316907 0.1095171
0.06343504 -0.0079316907 0.08935377
0.06343504 -0.0059602624 0.10964851
0.06343504 -0.0059602624 0.089222357
0.06343504 -0.0039888336 0.1097687
0.06343504 -0.0039888336 0.089102171
0.06343504 -0.0020174053 0.10987805
0.06343504 -0.0020174053 0.088992819
0.06343504 -4.5976696e-05 0.1099769
0.06343504 -4.5976696e-05 0.088893972
0.06343504 0.0019254519 0.11006554
0.06343504 0.0019254519 0.088805325
0.06343504 0.0038968804 0.11014424
0.06343504 0.0038968804 0.088726632
0.06343504 0.0058683092 0.11021319
0.06343504 0.0058683092 0.088657677
0.06343504 0.0078397375 0.11027259
0.06343504 0.0078397375 0.088598274
0.06343504 0.0098111657 0.11032261
0.06343504 0.0098111657 0.088548258
0.06343504 0.011782595 0.11036336
0.06343504 0.011782595 0.088507503
0.06343504 0.013754023 0.11039495
0.06343504 0.013754023 0.088475913
0.06343504 0.015725452 0.11041746
0.06343504 0.015725452 0.088453405
0.06343504 0.01769688 0.11043094
0.06343504 0.01769688 0.088439927
0.06343504 0.019668309 0.11043543
0.06343504 0.019668309 0.088435434
0.06343504 0.021639738 0.11043094
0.06343504 0.021639738 0.088439927
0.06343504 0.023611166 0.11041746
0.06343504 0.023611166 0.088453405
0.06343504 0.025582595 0.11039495
0.06343504 0.025582595 0.088475913
0.06343504 0.027554024 0.11036336
0.06343504 0.027554024 0.088507503
0.06343504 0.029525451 0.11032261
0.06343504 0.029525451 0.088548258
0.06343504 0.031496879 0.11027259
0.06343504 0.031496879 0.088598274
0.06343504 0.03346831 0.11021319
0.06343504 0.03346831 0.088657677
0.06343504 0.035439737 0.11014424
0.06343504 0.035439737 0.088726632
0.06343504 0.037411164 0.11006554
0.06343504 0.037411164 0.088805325
0.06343504 0.039382596 0.1099769
0.06343504 0.039382596 0.088893972
0.06343504 0.041354023 0.10987805
0.06343504 0.041354023 0.088992819
0.06343504 0.04332545 0.1097687
0.06343504 0.04332545 0.089102171
0.06343504 0.045296881 0.10964851
0.06343504 0.045296881 0.089222357
0.06343504 0.047268309 0.1095171
0.06343504 0.047268309 0.08935377
0.06343504 0.049239736 0.10937402
0.06343504 0.049239736 0.089496844
0.06343504 0.051211167 0.10921876
0.06343504 0.051211167 0.089652106
0.06343504 0.053182594 0.10905073
0.06343504 0.053182594 0.089820139
0.06343504 0.055154022 0.10886924
0.06343504 0.055154022 0.090001628
0.06343504 0.057125453 0.10867351
0.06343504 0.057125453 0.090197355
0.06343504 0.05909688 0.1084626
0.06343504 0.05909688 0.090408266
0.06343504 0.061068308 0.10823543
0.06343504 0.061068308 0.090635434
0.06343504 0.063039735 0.1079907
0.06343504 0.063039735 0.090880163
0.06343504 0.065011166 0.10772686
0.06343504 0.065011166 0.09114401
0.06343504 0.066982597 0.10744201
0.06343504 0.066982597 0.091428854
0.06343504 0.068954021 0.10713383
0.06343504 0.068954021 0.091737039
0.06343504 0.070925452 0.10679939
0.06343504 0.070925452 0.092071481
0.06343504 0.072896883 0.10643491
0.06343504 0.072896883 0.092435956
0.06343504 0.074868307 0.10603543
0.06343504 0.074868307 0.092835434
0.06343504 0.076839738 0.10559415
0.06343504 0.076839738 0.093276717
0.06343504 0.078811169 0.1051013
0.06343504 0.078811169 0.093769565
0.06343504 0.080782592 0.10454197
0.06343504 0.080782592 0.094328895
0.06343504 0.082754023 0.1038912
0.06343504 0.082754023 0.094979666
0.06343504 0.084725454 0.10310061
0.06343504 0.084725454 0.095770262
0.06343504 0.086696878 0.10204609
0.06343504 0.086696878 0.09682478
0.06514933 -0.049331691 nan
0.06514933 -0.049331691 nan
0.06514933 -0.047360264 0.1020271
0.06514933 -0.047360264 0.096843764
0.06514933 -0.045388833 0.1030871
0.06514933 -0.045388833 0.095783763
0.06514933 -0.043417405 0.10388011
0.06514933 -0.043417405 0.09499076
0.06514933 -0.041445978 0.10453229
0.06514933 -0.041445978 0.094338574
0.06514933 -0.039474547 0.10509258
0.06514933 -0.039474547 0.09377829
0.06514933 -0.03750312 0.10558613
0.06514933 -0.03750312 0.093284741
0.06514933 -0.035531692 0.10602795
0.06514933 -0.035531692 0.092842922
0.06514933 -0.033560261 0.10642785
0.06514933 -0.033560261 0.092443019
0.06514933 -0.031588834 0.10679267
0.06514933 -0.031588834 0.092078194
0.06514933 -0.029617405 0.10712741
0.06514933 -0.029617405 0.091743454
0.06514933 -0.027645977 0.10743584
0.06514933 -0.027645977 0.091435023
0.06514933 -0.025674548 0.1077209
0.06514933 -0.025674548 0.091149963
0.06514933 -0.023703119 0.10798493
0.06514933 -0.023703119 0.090885937
0.06514933 -0.021731691 0.10822982
0.06514933 -0.021731691 0.090641044
0.06514933 -0.019760262 0.10845713
0.06514933 -0.019760262 0.090413734
0.06514933 -0.017788833 0.10866816
0.06514933 -0.017788833 0.090202704
0.06514933 -0.015817406 0.108864
0.06514933 -0.015817406 0.090006866
0.06514933 -0.013845976 0.10904559
0.06514933 -0.013845976 0.08982528
0.06514933 -0.011874548 0.10921371
0.06514933 -0.011874548 0.089657158
0.06514933 -0.0099031199 0.10936905
0.06514933 -0.0099031199 0.089501821
0.06514933 -0.0079316907 0.1095122
0.06514933 -0.0079316907 0.089358665
0.06514933 -0.0059602624 0.10964368
0.06514933 -0.0059602624 0.089227192
0.06514933 -0.0039888336 0.10976391
0.06514933 -0.0039888336 0.089106955
0.06514933 -0.0020174053 0.10987332
0.06514933 -0.0020174053 0.08899755
0.06514933 -4.5976696e-05 0.10997221
0.06514933 -4.5976696e-05 0.088898659
0.06514933 0.0019254519 0.11006089
0.06514933 0.0019254519 0.088809974
0.06514933 0.0038968804 0.11013962
0.06514933 0.0038968804 0.088731252
0.06514933 0.0058683092 0.11020861
0.06514933 0.0058683092 0.088662259
0.06514933 0.0078397375 0.11026803
0.06514933 0.0078397375 0.088602833
0.06514933 0.0098111657 0.11031807
0.06514933 0.0098111657 0.088552795
0.06514933 0.011782595 0.11035884
0.06514933 0.011782595 0.088512026
0.06514933 0.013754023 0.11039045
0.06514933 0.013754023 0.08848042
0.06514933 0.015725452 0.11041296
0.06514933 0.015725452 0.088457905
0.06514933 0.01769688 0.11042645
0.06514933 0.01769688 0.088444419
0.06514933 0.019668309 0.11043094
0.06514933 0.019668309 0.088439927
0.06514933 0.021639738 0.11042645
0.06514933 0.021639738 0.088444419
0.06514933 0.023611166 0.11041296
0.06514933 0.023611166 0.088457905
0.06514933 0.025582595 0.11039045
0.06514933 0.025582595 0.08848042
0.06514933 0.027554024 0.11035884
0.06514933 0.027554024 0.088512026
0.06514933 0.029525451 0.11031807
0.06514933 0.029525451 0.088552795
0.06514933 0.031496879 0.11026803
0.06514933 0.031496879 0.088602833
0.06514933 0.03346831 0.11020861
0.06514933 0.03346831 0.088662259
0.06514933 0.035439737 0.11013962
0.06514933 0.035439737 0.088731252
0.06514933 0.037411164 0.11006089
0.06514933 0.037411164 0.088809974
0.06514933 0.039382596 0.10997221
0.06514933 0.039382596 0.088898659
0.06514933 0.041354023 0.10987332
0.06514933 0.041354023 0.08899755
0.06514933 0.04332545 0.10976391
0.06514933 0.04332545 0.089106955
0.06514933 0.045296881 0.10964368
0.06514933 0.045296881 0.089227192
0.06514933 0.047268309 0.1095122
0.06514933 0.047268309 0.089358665
0.06514933 0.049239736 0.10936905
0.06514933 0.049239736 0.089501821
0.06514933 0.051211167 0.10921371
0.06514933 0.051211167 0.089657158
0.06514933 0.053182594 0.10904559
0.06514933 0.053182594 0.08982528
0.06514933 0.055154022 0.108864
0.06514933 0.055154022 0.090006866
0.06514933 0.057125453 0.10866816
0.06514933 0.057125453 0.090202704
0.06514933 0.05909688 0.10845713
0.06514933 0.05909688 0.090413734
0.06514933 0.061068308 0.10822982
0.06514933 0.061068308 0.090641044
0.06514933 0.063039735 0.10798493
0.06514933 0.063039735 0.090885937
0.06514933 0.065011166 0.1077209
0.06514933 0.065011166 0.091149963
0.06514933 0.066982597 0.10743584
0.06514933 0.066982597 0.091435023
0.06514933 0.068954021 0.10712741
0.06514933 0.068954021 0.091743454
0.06514933 0.070925452 0.10679267
0.06514933 0.070925452 0.092078194
0.06514933 0.072896883 0.10642785
0.06514933 0.072896883 0.092443019
0.06514933 0.074868307 0.10602795
0.06514933 0.074868307 0.092842922
0.06514933 0.076839738 0.10558613
0.06514933 0.076839738 0.093284741
0.06514933 0.078811169 0.10509258
0.06514933 0.078811169 0.09377829
0.06514933 0.080782592 0.10453229
0.06514933 0.080782592 0.094338574
0.06514933 0.082754023 0.10388011
0.06514933 0.082754023 0.09499076
0.06514933 0.084725454 0.1030871
0.06514933 0.084725454 0.095783763
0.06514933 0.086696878 0.1020271
0.06514933 0.086696878 0.096843764
0.066863611 -0.049331691 nan
0.066863611 -0.049331691 nan
0.066863611 -0.047360264 0.10196929
0.066863611 -0.047360264 0.096901581
0.066863611 -0.045388833 0.1030463
0.066863611 -0.045388833 0.095824569
0.066863611 -0.043417405 0.10384665
0.066863611 -0.043417405 0.095024221
0.066863611 -0.041445978 0.10450314
0.066863611 -0.041445978 0.094367728
0.066863611 -0.039474547 0.10506632
0.066863611 -0.039474547 0.093804546
0.066863611 -0.03750312 0.10556199
0.066863611 -0.03750312 0.093308881
0.066863611 -0.035531692 0.10600543
0.066863611 -0.035531692 0.092865437
0.066863611 -0.033560261 0.10640663
0.066863611 -0.033560261 0.092464238
0.066863611 -0.031588834 0.1067725
0.066863611 -0.031588834 0.092098363
0.066863611 -0.029617405 0.10710812
0.066863611 -0.029617405 0.091762744
0.066863611 -0.027645977 0.1074173
0.066863611 -0.027645977 0.091453567
0.066863611 -0.025674548 0.107703
0.066863611 -0.025674548 0.091167867
0.066863611 -0.023703119 0.10796759
0.066863611 -0.023703119 0.090903282
0.066863611 -0.021731691 0.10821296
0.066863611 -0.021731691 0.090657912
0.066863611 -0.019760262 0.10844069
0.066863611 -0.019760262 0.090430178
0.066863611 -0.017788833 0.1086521
0.066863611 -0.017788833 0.090218768
0.066863611 -0.015817406 0.10884828
0.066863611 -0.015817406 0.090022586
0.066863611 -0.013845976 0.10903016
0.066863611 -0.013845976 0.08984071
0.066863611 -0.011874548 0.10919855
0.066863611 -0.011874548 0.08967232
0.066863611 -0.0099031199 0.10935412
0.066863611 -0.0099031199 0.089516744
0.066863611 -0.0079316907 0.10949749
0.066863611 -0.0079316907 0.08937338
0.066863611 -0.0059602624 0.10962915
0.066863611 -0.0059602624 0.089241721
0.066863611 -0.0039888336 0.10974956
0.066863611 -0.0039888336 0.089121304
0.066863611 -0.0020174053 0.10985911
0.066863611 -0.0020174053 0.089011759
0.066863611 -4.5976696e-05 0.10995814
0.066863611 -4.5976696e-05 0.088912725
0.066863611 0.0019254519 0.11004694
0.066863611 0.0019254519 0.088823929
0.066863611 0.0038968804 0.11012577
0.066863611 0.0038968804 0.088745102
0.066863611 0.0058683092 0.11019485
0.066863611 0.0058683092 0.088676021
0.066863611 0.0078397375 0.11025435
0.066863611 0.0078397375 0.088616513
0.066863611 0.0098111657 0.11030445
0.066863611 0.0098111657 0.088566415
0.066863611 0.011782595 0.11034527
0.066863611 0.011782595 0.088525601
0.066863611 0.013754023 0.11037691
0.066863611 0.013754023 0.088493958
0.066863611 0.015725452 0.11039945
0.066863611 0.015725452 0.088471413
0.066863611 0.01769688 0.11041296
0.066863611 0.01769688 0.088457905
0.066863611 0.019668309 0.11041746
0.066863611 0.019668309 0.088453405
0.066863611 0.021639738 0.11041296
0.066863611 0.021639738 0.088457905
0.066863611 0.023611166 0.11039945
0.066863611 0.023611166 0.088471413
0.066863611 0.025582595 0.11037691
0.066863611 0.025582595 0.088493958
0.066863611 0.027554024 0.11034527
0.066863611 0.027554024 0.088525601
0.066863611 0.029525451 0.11030445
0.066863611 0.029525451 0.088566415
0.066863611 0.031496879 0.11025435
0.066863611 0.031496879 0.088616513
0.066863611 0.03346831 0.11019485
0.066863611 0.03346831 0.088676021
0.066863611 0.035439737 0.11012577
0.066863611 0.035439737 0.088745102
0.066863611 0.037411164 0.11004694
0.066863611 0.037411164 0.088823929
0.066863611 0.039382596 0.10995814
0.066863611 0.039382596 0.088912725
0.066863611 0.041354023 0.10985911
0.066863611 0.041354023 0.089011759
0.066863611 0.04332545 0.10974956
0.066863611 0.04332545 0.089121304
0.066863611 0.045296881 0.10962915
0.066863611 0.045296881 0.089241721
0.066863611 0.047268309 0.10949749
0.066863611 0.047268309 0.08937338
0.066863611 0.049239736 0.10935412
0.066863611 0.049239736 0.089516744
0.066863611 0.051211167 0.10919855
0.066863611 0.051211167 0.08967232
0.066863611 0.053182594 0.10903016
0.066863611 0.053182594 0.08984071
0.066863611 0.055154022 0.10884828
0.066863611 0.055154022 0.090022586
0.066863611 0.057125453 0.1086521
0.066863611 0.057125453 0.090218768
0.066863611 0.05909688 0.10844069
0.066863611 0.05909688 0.090430178
0.066863611 0.061068308 0.10821296
0.066863611 0.061068308 0.090657912
0.066863611 0.063039735 0.10796759
0.066863611 0.063039735 0.090903282
0.066863611 0.065011166 0.107703
0.066863611 0.065011166 0.091167867
0.066863611 0.066982597 0.1074173
0.066863611 0.066982597 0.091453567
0.066863611 0.068954021 0.10710812
0.066863611 0.068954021 0.091762744
0.066863611 0.070925452 0.1067725
0.066863611 0.070925452 0.092098363
0.066863611 0.072896883 0.10640663
0.066863611 0.072896883 0.092464238
0.066863611 0.074868307 0.10600543
0.066863611 0.074868307 0.092865437
0.066863611 0.076839738 0.10556199
0.066863611 0.076839738 0.093308881
0.066863611 0.078811169 0.10506632
0.066863611 0.078811169 0.093804546
0.066863611 0.080782592 0.10450314
0.066863611 0.080782592 0.094367728
0.066863611 0.082754023 0.10384665
0.066863611 0.082754023 0.095024221
0.066863611 0.084725454 0.1030463
0.066863611 0.084725454 0.095824569
0.066863611 0.086696878 0.10196929
0.066863611 0.086696878 0.096901581
0.068577901 -0.049331691 nan
0.068577901 -0.049331691 nan
0.068577901 -0.047360264 0.10186988
0.068577901 -0.047360264 0.097000986
0.068577901 -0.045388833 0.10297725
0.068577901 -0.045388833 0.095893614
0.068577901 -0.043417405 0.10379031
0.068577901 -0.043417405 0.095080562
0.068577901 -0.041445978 0.10445417
0.068577901 -0.041445978 0.094416693
0.068577901 -0.039474547 0.1050223
0.068577901 -0.039474547 0.093848571
0.068577901 -0.03750312 0.10552155
0.068577901 -0.03750312 0.093349315
0.068577901 -0.035531692 0.10596774
0.068577901 -0.035531692 0.09290313
0.068577901 -0.033560261 0.10637111
0.068577901 -0.033560261 0.092499755
0.068577901 -0.031588834 0.10673878
0.068577901 -0.031588834 0.092132092
0.068577901 -0.029617405 0.10707588
0.068577901 -0.029617405 0.09179499
0.068577901 -0.027645977 0.10738631
0.068577901 -0.027645977 0.091484562
0.068577901 -0.025674548 0.10767308
0.068577901 -0.025674548 0.091197789
0.068577901 -0.023703119 0.10793859
0.068577901 -0.023703119 0.09093228
0.068577901 -0.021731691 0.10818478
0.068577901 -0.021731691 0.09068609
0.068577901 -0.019760262 0.10841323
0.068577901 -0.019760262 0.090457641
0.068577901 -0.017788833 0.10862527
0.068577901 -0.017788833 0.090245597
0.068577901 -0.015817406 0.10882201
0.068577901 -0.015817406 0.090048857
0.068577901 -0.013845976 0.10900439
0.068577901 -0.013845976 0.089866482
0.068577901 -0.011874548 0.10917322
0.068577901 -0.011874548 0.089697644
0.068577901 -0.0099031199 0.10932919
0.068577901 -0.0099031199 0.089541674
0.068577901 -0.0079316907 0.10947292
0.068577901 -0.0079316907 0.089397952
0.068577901 -0.0059602624 0.1096049
0.068577901 -0.0059602624 0.089265972
0.068577901 -0.0039888336 0.10972559
0.068577901 -0.0039888336 0.089145273
0.068577901 -0.0020174053 0.10983539
0.068577901 -0.0020174053 0.089035474
0.068577901 -4.5976696e-05 0.10993464
0.068577901 -4.5976696e-05 0.088936225
0.068577901 0.0019254519 0.11002365
0.068577901 0.0019254519 0.08884722
0.068577901 0.0038968804 0.11010265
0.068577901 0.0038968804 0.088768221
0.068577901 0.0058683092 0.11017187
0.068577901 0.0058683092 0.088698998
0.068577901 0.0078397375 0.1102315
0.068577901 0.0078397375 0.088639364
0.068577901 0.0098111657 0.11028171
0.068577901 0.0098111657 0.088589162
0.068577901 0.011782595 0.11032261
0.068577901 0.011782595 0.088548258
0.068577901 0.013754023 0.11035432
0.068577901 0.013754023 0.088516548
0.068577901 0.015725452 0.11037691
0.068577901 0.015725452 0.088493958
0.068577901 0.01769688 0.11039045
0.068577901 0.01769688 0.08848042
0.068577901 0.019668309 0.11039495
0.068577901 0.019668309 0.088475913
0.068577901 0.021639738 0.11039045
0.068577901 0.021639738 0.08848042
0.068577901 0.023611166 0.11037691
0.068577901 0.023611166 0.088493958
0.068577901 0.025582595 0.11035432
0.068577901 0.025582595 0.088516548
0.068577901 0.027554024 0.11032261
0.068577901 0.027554024 0.088548258
0.068577901 0.029525451 0.11028171
0.068577901 0.029525451 0.088589162
0.068577901 0.031496879 0.1102315
0.068577901 0.031496879 0.088639364
0.068577901 0.03346831 0.11017187
0.068577901 0.03346831 0.088698998
0.068577901 0.035439737 0.11010265
0.068577901 0.035439737 0.088768221
0.068577901 0.037411164 0.11002365
0.068577901 0.037411164 0.08884722
0.068577901 0.039382596 0.10993464
0.068577901 0.039382596 0.088936225
0.068577901 0.041354023 0.10983539
0.068577901 0.041354023 0.089035474
0.068577901 0.04332545 0.10972559
0.068577901 0.04332545 0.089145273
0.068577901 0.045296881 0.1096049
0.068577901 0.045296881 0.089265972
0.068577901 0.047268309 0.10947292
0.068577901 0.047268309 0.089397952
0.068577901 0.049239736 0.10932919
0.068577901 0.049239736 0.089541674
0.068577901 0.051211167 0.10917322
0.068577901 0.051211167 0.089697644
0.068577901 0.053182594 0.10900439
0.068577901 0.053182594 0.089866482
0.068577901 0.055154022 0.10882201
0.068577901 0.055154022 0.090048857
0.068577901 0.057125453 0.10862527
0.068577901 0.057125453 0.090245597
0.068577901 0.05909688 0.10841323
0.068577901 0.05909688 0.090457641
0.068577901 0.061068308 0.10818478
0.068577901 0.061068308 0.09068609
0.068577901 0.063039735 0.10793859
0.068577901 0.063039735 0.09093228
0.068577901 0.065011166 0.10767308
0.068577901 0.065011166 0.091197789
0.068577901 0.066982597 0.10738631
0.068577901 0.066982597 0.091484562
0.068577901 0.068954021 0.10707588
0.068577901 0.068954021 0.09179499
0.068577901 0.070925452 0.10673878
0.068577901 0.070925452 0.092132092
0.068577901 0.072896883 0.10637111
0.068577901 0.072896883 0.092499755
0.068577901 0.074868307 0.10596774
0.068577901 0.074868307 0.09290313
0.068577901 0.076839738 0.10552155
0.068577901 0.076839738 0.093349315
0.068577901 0.078811169 0.1050223
0.068577901 0.078811169 0.093848571
0.068577901 0.080782592 0.10445417
0.068577901 0.080782592 0.094416693
0.068577901 0.082754023 0.10379031
0.068577901 0.082754023 0.095080562
0.068577901 0.084725454 0.10297725
0.068577901 0.084725454 0.095893614
0.068577901 0.086696878 0.10186988
0.068577901 0.086696878 0.097000986
0.070292182 -0.049331691 nan
0.070292182 -0.049331691 nan
0.070292182 -0.047360264 0.10172347
0.070292182 -0.047360264 0.097147398
0.070292182 -0.045388833 0.10287826
0.070292182 -0.045388833 0.09599261
0.070292182 -0.043417405 0.10371018
0.070292182 -0.043417405 0.095160685
0.070292182 -0.041445978 0.10438481
0.070292182 -0.041445978 0.094486058
0.070292182 -0.039474547 0.10496007
0.070292182 -0.039474547 0.093910798
0.070292182 -0.03750312 0.10546448
0.070292182 -0.03750312 0.093406387
0.070292182 -0.035531692 0.1059146
0.070292182 -0.035531692 0.092956267
0.070292182 -0.033560261 0.10632109
0.070292182 -0.033560261 0.092549779
0.070292182 -0.031588834 0.10669129
0.070292182 -0.031588834 0.092179582
0.070292182 -0.029617405 0.10703049
0.070292182 -0.029617405 0.091840379
0.070292182 -0.027645977 0.10734271
0.070292182 -0.027645977 0.091528162
0.070292182 -0.025674548 0.10763101
0.070292182 -0.025674548 0.091239862
0.070292182 -0.023703119 0.10789783
0.070292182 -0.023703119 0.090973035
0.070292182 -0.021731691 0.10814518
0.070292182 -0.021731691 0.09072569
0.070292182 -0.019760262 0.10837464
0.070292182 -0.019760262 0.090496227
0.070292182 -0.017788833 0.10858757
0.070292182 -0.017788833 0.090283297
0.070292182 -0.015817406 0.1087851
0.070292182 -0.015817406 0.090085767
0.070292182 -0.013845976 0.10896819
0.070292182 -0.013845976 0.089902677
0.070292182 -0.011874548 0.10913765
0.070292182 -0.011874548 0.089733213
0.070292182 -0.0099031199 0.10929419
0.070292182 -0.0099031199 0.089576676
0.070292182 -0.0079316907 0.10943841
0.070292182 -0.0079316907 0.089432456
0.070292182 -0.0059602624 0.10957085
0.070292182 -0.0059602624 0.089300022
0.070292182 -0.0039888336 0.10969194
0.070292182 -0.0039888336 0.089178927
0.070292182 -0.0020174053 0.1098021
0.070292182 -0.0020174053 0.08906877
0.070292182 -4.5976696e-05 0.10990167
0.070292182 -4.5976696e-05 0.088969201
0.070292182 0.0019254519 0.10999094
0.070292182 0.0019254519 0.088879928
0.070292182 0.0038968804 0.11007018
0.070292182 0.0038968804 0.088800684
0.070292182 0.0058683092 0.11013962
0.070292182 0.0058683092 0.088731252
0.070292182 0.0078397375 0.11019943
0.070292182 0.0078397375 0.088671438
0.070292182 0.0098111657 0.11024979
0.070292182 0.0098111657 0.08862108
0.070292182 0.011782595 0.11029081
0.070292182 0.011782595 0.088580057
0.070292182 0.013754023 0.11032261
0.070292182 0.013754023 0.088548258
0.070292182 0.015725452 0.11034527
0.070292182 0.015725452 0.088525601
0.070292182 0.01769688 0.11035884
0.070292182 0.01769688 0.088512026
0.070292182 0.019668309 0.11036336
0.070292182 0.019668309 0.088507503
0.070292182 0.021639738 0.11035884
0.070292182 0.021639738 0.088512026
0.070292182 0.023611166 0.11034527
0.070292182 0.023611166 0.088525601
0.070292182 0.025582595 0.11032261
0.070292182 0.025582595 0.088548258
0.070292182 0.027554024 0.11029081
0.070292182 0.027554024 0.088580057
0.070292182 0.029525451 0.11024979
0.070292182 0.029525451 0.08862108
0.070292182 0.031496879 0.11019943
0.070292182 0.031496879 0.088671438
0.070292182 0.03346831 0.11013962
0.070292182 0.03346831 0.088731252
0.070292182 0.035439737 0.11007018
0.070292182 0.035439737 0.088800684
0.070292182 0.037411164 0.10999094
0.070292182 0.037411164 0.088879928
0.070292182 0.039382596 0.10990167
0.070292182 0.039382596 0.088969201
0.070292182 0.041354023 0.1098021
0.070292182 0.041354023 0.08906877
0.070292182 0.04332545 0.10969194
0.070292182 0.04332545 0.089178927
0.070292182 0.045296881 0.10957085
0.070292182 0.045296881 0.089300022
0.070292182 0.047268309 0.10943841
0.070292182 0.047268309 0.089432456
0.070292182 0.049239736 0.10929419
0.070292182 0.049239736 0.089576676
0.070292182 0.051211167 0.10913765
0.070292182 0.051211167 0.089733213
0.070292182 0.053182594 0.10896819
0.070292182 0.053182594 0.089902677
0.070292182 0.055154022 0.1087851
0.070292182 0.055154022 0.090085767
0.070292182 0.057125453 0.10858757
0.070292182 0.057125453 0.090283297
0.070292182 0.05909688 0.10837464
0.070292182 0.05909688 0.090496227
0.070292182 0.061068308 0.10814518
0.070292182 0.061068308 0.09072569
0.070292182 0.063039735 0.10789783
0.070292182 0.063039735 0.090973035
0.070292182 0.065011166 0.10763101
0.070292182 0.065011166 0.091239862
0.070292182 0.066982597 0.10734271
0.070292182 0.066982597 0.091528162
0.070292182 0.068954021 0.10703049
0.070292182 0.068954021 0.091840379
0.070292182 0.070925452 0.10669129
0.070292182 0.070925452 0.092179582
0.070292182 0.072896883 0.10632109
0.070292182 0.072896883 0.092549779
0.070292182 0.074868307 0.1059146
0.070292182 0.074868307 0.092956267
0.070292182 0.076839738 0.10546448
0.070292182 0.076839738 0.093406387
0.070292182 0.078811169 0.10496007
0.070292182 0.078811169 0.093910798
0.070292182 0.080782592 0.10438481
0.070292182 0.080782592 0.094486058
0.070292182 0.082754023 0.10371018
0.070292182 0.082754023 0.095160685
0.070292182 0.084725454 0.10287826
0.070292182 0.084725454 0.09599261
0.070292182 0.086696878 0.10172347
0.070292182 0.086696878 0.097147398
0.072006471 -0.049331691 nan
0.072006471 -0.049331691 nan
0.072006471 -0.047360264 0.10152017
0.072006471 -0.047360264 0.097350702
0.072006471 -0.045388833 0.10274664
0.072006471 -0.045388833 0.096124232
0.072006471 -0.043417405 0.10360491
0.072006471 -0.043417405 0.095265962
0.072006471 -0.041445978 0.10429417
0.072006471 -0.041445978 0.094576694
0.072006471 -0.039474547 0.10487902
0.072006471 -0.039474547 0.093991846
0.072006471 -0.03750312 0.1053903
0.072006471 -0.03750312 0.093480572
0.072006471 -0.035531692 0.10584563
0.072006471 -0.035531692 0.093025237
0.072006471 -0.033560261 0.10625623
0.072006471 -0.033560261 0.092614636
0.072006471 -0.031588834 0.10662976
0.072006471 -0.031588834 0.092241108
0.072006471 -0.029617405 0.10697174
0.072006471 -0.029617405 0.091899127
0.072006471 -0.027645977 0.10728629
0.072006471 -0.027645977 0.091584578
0.072006471 -0.025674548 0.10757659
0.072006471 -0.025674548 0.091294281
0.072006471 -0.023703119 0.10784515
0.072006471 -0.023703119 0.091025718
0.072006471 -0.021731691 0.10809399
0.072006471 -0.021731691 0.090776876
0.072006471 -0.019760262 0.10832477
0.072006471 -0.019760262 0.090546094
0.072006471 -0.017788833 0.10853887
0.072006471 -0.017788833 0.090331994
0.072006471 -0.015817406 0.10873744
0.072006471 -0.015817406 0.090133429
0.072006471 -0.013845976 0.10892145
0.072006471 -0.013845976 0.089949422
0.072006471 -0.011874548 0.10909173
0.072006471 -0.011874548 0.089779139
0.072006471 -0.0099031199 0.109249
0.072006471 -0.0099031199 0.089621864
0.072006471 -0.0079316907 0.10939388
0.072006471 -0.0079316907 0.089476988
0.072006471 -0.0059602624 0.10952689
0.072006471 -0.0059602624 0.089343973
0.072006471 -0.0039888336 0.10964851
0.072006471 -0.0039888336 0.089222357
0.072006471 -0.0020174053 0.10975914
0.072006471 -0.0020174053 0.08911173
0.072006471 -4.5976696e-05 0.10985911
0.072006471 -4.5976696e-05 0.089011759
0.072006471 0.0019254519 0.10994875
0.072006471 0.0019254519 0.088922121
0.072006471 0.0038968804 0.1100283
0.072006471 0.0038968804 0.088842563
0.072006471 0.0058683092 0.11009801
0.072006471 0.0058683092 0.088772856
0.072006471 0.0078397375 0.11015806
0.072006471 0.0078397375 0.088712811
0.072006471 0.0098111657 0.11020861
0.072006471 0.0098111657 0.088662259
0.072006471 0.011782595 0.11024979
0.072006471 0.011782595 0.08862108
0.072006471 0.013754023 0.11028171
0.072006471 0.013754023 0.088589162
0.072006471 0.015725452 0.11030445
0.072006471 0.015725452 0.088566415
0.072006471 0.01769688 0.11031807
0.072006471 0.01769688 0.088552795
0.072006471 0.019668309 0.11032261
0.072006471 0.019668309 0.088548258
0.072006471 0.021639738 0.11031807
0.072006471 0.021639738 0.088552795
0.072006471 0.023611166 0.11030445
0.072006471 0.023611166 0.088566415
0.072006471 0.025582595 0.11028171
0.072006471 0.025582595 0.088589162
0.072006471 0.027554024 0.11024979
0.072006471 0.027554024 0.08862108
0.072006471 0.029525451 0.11020861
0.072006471 0.029525451 0.088662259
0.072006471 0.031496879 0.11015806
0.072006471 0.031496879 0.088712811
0.072006471 0.03346831 0.11009801
0.072006471 0.03346831 0.088772856
0.072006471 0.035439737 0.1100283
0.072006471 0.035439737 0.088842563
0.072006471 0.037411164 0.10994875
0.072006471 0.037411164 0.088922121
0.072006471 0.039382596 0.10985911
0.072006471 0.039382596 0.089011759
0.072006471 0.041354023 0.10975914
0.072006471 0.041354023 0.08911173
0.072006471 0.04332545 0.10964851
0.072006471 0.04332545 0.089222357
0.072006471 0.045296881 0.10952689
0.072006471 0.045296881 0.089343973
0.072006471 0.047268309 0.10939388
0.072006471 0.047268309 0.089476988
0.072006471 0.049239736 0.109249
0.072006471 0.049239736 0.089621864
0.072006471 0.051211167 0.10909173
0.072006471 0.051211167 0.089779139
0.072006471 0.053182594 0.10892145
0.072006471 0.053182594 0.089949422
0.072006471 0.055154022 0.10873744
0.072006471 0.055154022 0.090133429
0.072006471 0.057125453 0.10853887
0.072006471 0.057125453 0.090331994
0.072006471 0.05909688 0.10832477
0.072006471 0.05909688 0.090546094
0.072006471 0.061068308 0.10809399
0.072006471 0.061068308 0.090776876
0.072006471 0.063039735 0.10784515
0.072006471 0.063039735 0.091025718
0.072006471 0.065011166 0.10757659
0.072006471 0.065011166 0.091294281
0.072006471 0.066982597 0.10728629
0.072006471 0.066982597 0.091584578
0.072006471 0.068954021 0.10697174
0.072006471 0.068954021 0.091899127
0.072006471 0.070925452 0.10662976
0.072006471 0.070925452 0.092241108
0.072006471 0.072896883 0.10625623
0.072006471 0.072896883 0.092614636
0.072006471 0.074868307 0.10584563
0.072006471 0.074868307 0.093025237
0.072006471 0.076839738 0.1053903
0.072006471 0.076839738 0.093480572
0.072006471 0.078811169 0.10487902
0.072006471 0.078811169 0.093991846
0.072006471 0.080782592 0.10429417
0.072006471 0.080782592 0.094576694
0.072006471 0.082754023 0.10360491
0.072006471 0.082754023 0.095265962
0.072006471 0.084725454 0.10274664
0.072006471 0.084725454 0.096124232
0.072006471 0.086696878 0.10152017
0.072006471 0.086696878 0.097350702
0.073720753 -0.049331691 nan
0.073720753 -0.049331691 nan
0.073720753 -0.047360264 0.10124087
0.073720753 -0.047360264 0.097630002
0.073720753 -0.045388833 0.10257829
0.073720753 -0.045388833 0.096292578
0.073720753 -0.043417405 0.10347251
0.073720753 -0.043417405 0.095398359
0.073720753 -0.041445978 0.10418104
0.073720753 -0.041445978 0.094689824
0.073720753 -0.039474547 0.10477829
0.073720753 -0.039474547 0.094092578
0.073720753 -0.03750312 0.10529836
0.073720753 -0.03750312 0.093572512
0.073720753 -0.035531692 0.10576031
0.073720753 -0.035531692 0.093110554
0.073720753 -0.033560261 0.10617611
0.073720753 -0.033560261 0.092694759
0.073720753 -0.031588834 0.10655385
0.073720753 -0.031588834 0.092317015
0.073720753 -0.029617405 0.10689931
0.073720753 -0.029617405 0.091971561
0.073720753 -0.027645977 0.10721678
0.073720753 -0.027645977 0.091654085
0.073720753 -0.025674548 0.10750958
0.073720753 -0.025674548 0.091361284
0.073720753 -0.023703119 0.1077803
0.073720753 -0.023703119 0.091090567
0.073720753 -0.021731691 0.10803102
0.073720753 -0.021731691 0.090839848
0.073720753 -0.019760262 0.10826345
0.073720753 -0.019760262 0.09060742
0.073720753 -0.017788833 0.108479
0.073720753 -0.017788833 0.090391867
0.073720753 -0.015817406 0.10867886
0.073720753 -0.015817406 0.090192012
0.073720753 -0.013845976 0.108864
0.073720753 -0.013845976 0.090006866
0.073720753 -0.011874548 0.10903531
0.073720753 -0.011874548 0.089835562
0.073720753 -0.0099031199 0.10919349
0.073720753 -0.0099031199 0.089677379
0.073720753 -0.0079316907 0.10933918
0.073720753 -0.0079316907 0.08953169
0.073720753 -0.0059602624 0.10947292
0.073720753 -0.0059602624 0.089397952
0.073720753 -0.0039888336 0.10959518
0.073720753 -0.0039888336 0.089275688
0.073720753 -0.0020174053 0.10970637
0.073720753 -0.0020174053 0.089164495
0.073720753 -4.5976696e-05 0.10980687
0.073720753 -4.5976696e-05 0.089064002
0.073720753 0.0019254519 0.10989695
0.073720753 0.0019254519 0.088973917
0.073720753 0.0038968804 0.1099769
0.073720753 0.0038968804 0.088893972
0.073720753 0.0058683092 0.11004694
0.073720753 0.0058683092 0.088823929
0.073720753 0.0078397375 0.11010727
0.073720753 0.0078397375 0.088763595
0.073720753 0.0098111657 0.11015806
0.073720753 0.0098111657 0.088712811
0.073720753 0.011782595 0.11019943
0.073720753 0.011782595 0.088671438
0.073720753 0.013754023 0.1102315
0.073720753 0.013754023 0.088639364
0.073720753 0.015725452 0.11025435
0.073720753 0.015725452 0.088616513
0.073720753 0.01769688 0.11026803
0.073720753 0.01769688 0.088602833
0.073720753 0.019668309 0.11027259
0.073720753 0.019668309 0.088598274
0.073720753 0.021639738 0.11026803
0.073720753 0.021639738 0.088602833
0.073720753 0.023611166 0.11025435
0.073720753 0.023611166 0.088616513
0.073720753 0.025582595 0.1102315
0.073720753 0.025582595 0.088639364
0.073720753 0.027554024 0.11019943
0.073720753 0.027554024 0.088671438
0.073720753 0.029525451 0.11015806
0.073720753 0.029525451 0.088712811
0.073720753 0.031496879 0.11010727
0.073720753 0.031496879 0.088763595
0.073720753 0.03346831 0.11004694
0.073720753 0.03346831 0.088823929
0.073720753 0.035439737 0.1099769
0.073720753 0.035439737 0.088893972
0.073720753 0.037411164 0.10989695
0.073720753 0.037411164 0.088973917
0.073720753 0.039382596 0.10980687
0.073720753 0.039382596 0.089064002
0.073720753 0.041354023 0.10970637
0.073720753 0.041354023 0.089164495
0.073720753 0.04332545 0.10959518
0.073720753 0.04332545 0.089275688
0.073720753 0.045296881 0.10947292
0.073720753 0.045296881 0.089397952
0.073720753 0.047268309 0.10933918
0.073720753 0.047268309 0.08953169
0.073720753 0.049239736 0.10919349
0.073720753 0.049239736 0.089677379
0.073720753 0.051211167 0.10903531
0.073720753 0.051211167 0.089835562
0.073720753 0.053182594 0.108864
0.073720753 0.053182594 0.090006866
0.073720753 0.055154022 0.10867886
0.073720753 0.055154022 0.090192012
0.073720753 0.057125453 0.108479
0.073720753 0.057125453 0.090391867
0.073720753 0.05909688 0.10826345
0.073720753 0.05909688 0.09060742
0.073720753 0.061068308 0.10803102
0.073720753 0.061068308 0.090839848
0.073720753 0.063039735 0.1077803
0.073720753 0.063039735 0.091090567
0.073720753 0.065011166 0.10750958
0.073720753 0.065011166 0.091361284
0.073720753 0.066982597 0.10721678
0.073720753 0.066982597 0.091654085
0.073720753 0.068954021 0.10689931
0.073720753 0.068954021 0.091971561
0.073720753 0.070925452 0.10655385
0.073720753 0.070925452 0.092317015
0.073720753 0.072896883 0.10617611
0.073720753 0.072896883 0.092694759
0.073720753 0.074868307 0.10576031
0.073720753 0.074868307 0.093110554
0.073720753 0.076839738 0.10529836
0.073720753 0.076839738 0.093572512
0.073720753 0.078811169 0.10477829
0.073720753 0.078811169 0.094092578
0.073720753 0.080782592 0.10418104
0.073720753 0.080782592 0.094689824
0.073720753 0.082754023 0.10347251
0.073720753 0.082754023 0.095398359
0.073720753 0.084725454 0.10257829
0.073720753 0.084725454 0.096292578
0.073720753 0.086696878 0.10124087
0.073720753 0.086696878 0.097630002
0.075435042 -0.049331691 nan
0.075435042 -0.049331691 nan
0.075435042 -0.047360264 0.10084096
0.075435042 -0.047360264 0.098029904
0.075435042 -0.045388833 0.10236689
0.075435042 -0.045388833 0.096503973
0.075435042 -0.043417405 0.10331021
0.075435042 -0.043417405 0.095560662
0.075435042 -0.041445978 0.10404377
0.075435042 -0.041445978 0.094827101
0.075435042 -0.039474547 0.10465674
0.075435042 -0.039474547 0.094214126
0.075435042 -0.03750312 0.1051878
0.075435042 -0.03750312 0.093683064
0.075435042 -0.035531692 0.10565797
0.075435042 -0.035531692 0.093212895
0.075435042 -0.033560261 0.10608018
0.075435042 -0.033560261 0.092790686
0.075435042 -0.031588834 0.10646307
0.075435042 -0.031588834 0.092407793
0.075435042 -0.029617405 0.10681278
0.075435042 -0.029617405 0.092058085
0.075435042 -0.027645977 0.10713383
0.075435042 -0.027645977 0.091737039
0.075435042 -0.025674548 0.10742967
0.075435042 -0.025674548 0.091441199
0.075435042 -0.023703119 0.107703
0.075435042 -0.023703119 0.091167867
0.075435042 -0.021731691 0.107956
0.075435042 -0.021731691 0.090914868
0.075435042 -0.019760262 0.10819042
0.075435042 -0.019760262 0.09068045
0.075435042 -0.017788833 0.10840773
0.075435042 -0.017788833 0.090463139
0.075435042 -0.015817406 0.10860913
0.075435042 -0.015817406 0.090261735
0.075435042 -0.013845976 0.10879567
0.075435042 -0.013845976 0.090075202
0.075435042 -0.011874548 0.10896819
0.075435042 -0.011874548 0.089902677
0.075435042 -0.0099031199 0.10912747
0.075435042 -0.0099031199 0.089743398
0.075435042 -0.0079316907 0.10927413
0.075435042 -0.0079316907 0.089596733
0.075435042 -0.0059602624 0.10940874
0.075435042 -0.0059602624 0.089462124
0.075435042 -0.0039888336 0.10953178
0.075435042 -0.0039888336 0.089339085
0.075435042 -0.0020174053 0.10964368
0.075435042 -0.0020174053 0.089227192
0.075435042 -4.5976696e-05 0.10974477
0.075435042 -4.5976696e-05 0.089126095
0.075435042 0.0019254519 0.10983539
0.075435042 0.0019254519 0.089035474
0.075435042 0.0038968804 0.10991582
0.075435042 0.0038968804 0.088955052
0.075435042 0.0058683092 0.10998626
0.075435042 0.0058683092 0.088884607
0.075435042 0.0078397375 0.11004694
0.075435042 0.0078397375 0.088823929
0.075435042 0.0098111657 0.11009801
0.075435042 0.0098111657 0.088772856
0.075435042 0.011782595 0.11013962
0.075435042 0.011782595 0.088731252
0.075435042 0.013754023 0.11017187
0.075435042 0.013754023 0.088698998
0.075435042 0.015725452 0.11019485
0.075435042 0.015725452 0.088676021
0.075435042 0.01769688 0.11020861
0.075435042 0.01769688 0.088662259
0.075435042 0.019668309 0.11021319
0.075435042 0.019668309 0.088657677
0.075435042 0.021639738 0.11020861
0.075435042 0.021639738 0.088662259
0.075435042 0.023611166 0.11019485
0.075435042 0.023611166 0.088676021
0.075435042 0.025582595 0.11017187
0.075435042 0.025582595 0.088698998
0.075435042 0.027554024 0.11013962
0.075435042 0.027554024 0.088731252
0.075435042 0.029525451 0.11009801
0.075435042 0.029525451 0.088772856
0.075435042 0.031496879 0.11004694
0.075435042 0.031496879 0.088823929
0.075435042 0.03346831 0.10998626
0.075435042 0.03346831 0.088884607
0.075435042 0.035439737 0.10991582
0.075435042 0.035439737 0.088955052
0.075435042 0.037411164 0.10983539
0.075435042 0.037411164 0.089035474
