# .PCD v0.7 - Point Cloud Data file format
VERSION 0.7
FIELDS x y z
SIZE 4 4 4
TYPE F F F
COUNT 1 1 1
WIDTH 170
HEIGHT 1
VIEWPOINT 0 0 0 1 0 0 0
POINTS 170
DATA ascii
-0.29958591 0.13634716 0.57000005
-0.29809991 0.13634716 0.57000005
-0.29661387 0.13634716 0.57000005
-0.29512784 0.13634716 0.57000005
-0.29713425 0.13956363 0.57100004
-0.29564559 0.13956363 0.57100004
-0.29862288 0.14105226 0.57100004
-0.29713425 0.14105226 0.57100004
-0.29564559 0.14105226 0.57100004
-0.29415697 0.14105226 0.57100004
-0.30755466 0.1425409 0.57100004
-0.30606604 0.1425409 0.57100004
-0.30457741 0.1425409 0.57100004
-0.30308878 0.1425409 0.57100004
-0.30160013 0.1425409 0.57100004
-0.3001115 0.1425409 0.57100004
-0.29862288 0.1425409 0.57100004
-0.29713425 0.1425409 0.57100004
-0.29564559 0.1425409 0.57100004
-0.29415697 0.1425409 0.57100004
-0.29117969 0.1425409 0.57100004
-0.30809328 0.14577301 0.57200003
-0.30660203 0.14577301 0.57200003
-0.30511081 0.14577301 0.57200003
-0.30361959 0.14577301 0.57200003
-0.30212831 0.14577301 0.57200003
-0.3006371 0.14577301 0.57200003
-0.29765463 0.14577301 0.57200003
-0.31405824 0.14726424 0.57200003
-0.31107578 0.14726424 0.57200003
-0.30958453 0.14726424 0.57200003
-0.30809328 0.14726424 0.57200003
-0.30660203 0.14726424 0.57200003
-0.30511081 0.14726424 0.57200003
-0.30361959 0.14726424 0.57200003
-0.30212831 0.14726424 0.57200003
-0.3006371 0.14726424 0.57200003
-0.29914585 0.14726424 0.57200003
-0.29765463 0.14726424 0.57200003
-0.29616335 0.14726424 0.57200003
-0.31554949 0.14875549 0.57200003
-0.31405824 0.14875549 0.57200003
-0.312567 0.14875549 0.57200003
-0.31107578 0.14875549 0.57200003
-0.30958453 0.14875549 0.57200003
-0.30809328 0.14875549 0.57200003
-0.30660203 0.14875549 0.57200003
-0.30511081 0.14875549 0.57200003
-0.30361959 0.14875549 0.57200003
-0.30212831 0.14875549 0.57200003
-0.3006371 0.14875549 0.57200003
-0.29914585 0.14875549 0.57200003
-0.29765463 0.14875549 0.57200003
-0.29616335 0.14875549 0.57200003
-0.29467213 0.14875549 0.57200003
-0.30415037 0.15050939 0.57300001
-0.3026565 0.15050939 0.57300001
-0.30713806 0.15200324 0.57300001
-0.30564421 0.15200324 0.57300001
-0.30415037 0.15200324 0.57300001
-0.3026565 0.15200324 0.57300001
-0.30116266 0.15200324 0.57300001
-0.30713806 0.15349708 0.57300001
-0.30564421 0.15349708 0.57300001
-0.30468118 0.15376496 0.574
-0.30318469 0.15376496 0.574
-0.30116266 0.15349708 0.57300001
-0.30713806 0.15499094 0.57300001
-0.30564421 0.15499094 0.57300001
-0.30468118 0.15526143 0.574
-0.3026565 0.15499094 0.57300001
-0.30116266 0.15499094 0.57300001
-0.30796084 0.16280949 0.56900001
-0.3064774 0.16280949 0.56900001
-0.30499399 0.16280949 0.56900001
-0.30351058 0.16280949 0.56900001
-0.30202717 0.16280949 0.56900001
-0.30054373 0.16280949 0.56900001
-0.30796084 0.16429292 0.56900001
-0.3064774 0.16429292 0.56900001
-0.30445796 0.16400418 0.56800002
-0.30297717 0.16400418 0.56800002
-0.30202717 0.16429292 0.56900001
-0.30054373 0.16429292 0.56900001
-0.29906031 0.16429292 0.56900001
-0.30796084 0.16577633 0.56900001
-0.30593878 0.16548498 0.56800002
-0.30445796 0.16548498 0.56800002
-0.30297717 0.16548498 0.56800002
-0.30149636 0.16548498 0.56800002
-0.30001554 0.16548498 0.56800002
-0.29906031 0.16577633 0.56900001
-0.30796084 0.16725975 0.56900001
-0.30593878 0.1669658 0.56800002
-0.30445796 0.1669658 0.56800002
-0.30297717 0.1669658 0.56800002
-0.30149636 0.1669658 0.56800002
-0.30001554 0.1669658 0.56800002
-0.29906031 0.16725975 0.56900001
-0.30998811 0.16903974 0.57000005
-0.30796084 0.16874316 0.56900001
-0.30593878 0.1684466 0.56800002
-0.30445796 0.1684466 0.56800002
-0.30297717 0.1684466 0.56800002
-0.30149636 0.1684466 0.56800002
-0.30054373 0.16874316 0.56900001
-0.29906031 0.16874316 0.56900001
-0.29809991 0.16903974 0.57000005
-0.28323963 0.16903974 0.57000005
-0.2817536 0.16903974 0.57000005
-0.28026757 0.16903974 0.57000005
-0.27878156 0.16903974 0.57000005
-0.27729553 0.16903974 0.57000005
-0.2753256 0.16874316 0.56900001
-0.27384219 0.16874316 0.56900001
-0.27283743 0.16903974 0.57000005
-0.27135143 0.16903974 0.57000005
-0.30998811 0.17052577 0.57000005
-0.30850208 0.17052577 0.57000005
-0.3064774 0.17022659 0.56900001
-0.30499399 0.17022659 0.56900001
-0.30351058 0.17022659 0.56900001
-0.30202717 0.17022659 0.56900001
-0.30107194 0.17052577 0.57000005
-0.29958591 0.17052577 0.57000005
-0.2817536 0.17052577 0.57000005
-0.28026757 0.17052577 0.57000005
-0.27878156 0.17052577 0.57000005
-0.27729553 0.17052577 0.57000005
-0.2753256 0.17022659 0.56900001
-0.30850208 0.17201179 0.57000005
-0.30701604 0.17201179 0.57000005
-0.30553001 0.17201179 0.57000005
-0.30404401 0.17201179 0.57000005
-0.30255798 0.17201179 0.57000005
-0.2817536 0.17201179 0.57000005
-0.28026757 0.17201179 0.57000005
-0.27878156 0.17201179 0.57000005
-0.27680901 0.17171 0.56900001
-0.2753256 0.17171 0.56900001
-0.28323963 0.17349783 0.57000005
-0.2817536 0.17349783 0.57000005
-0.27977586 0.17319342 0.56900001
-0.27829245 0.17319342 0.56900001
-0.27680901 0.17319342 0.56900001
-0.28671381 0.17529084 0.57100004
-0.28522518 0.17529084 0.57100004
-0.28323963 0.17498386 0.57000005
-0.2817536 0.17498386 0.57000005
-0.27977586 0.17467685 0.56900001
-0.28671381 0.17677946 0.57100004
-0.28522518 0.17677946 0.57100004
-0.28323963 0.17646988 0.57000005
-0.2817536 0.17646988 0.57000005
-0.27977586 0.17616026 0.56900001
-0.28522518 0.1782681 0.57100004
-0.28323963 0.17795591 0.57000005
-0.2817536 0.17795591 0.57000005
-0.27977586 0.17764369 0.56900001
-0.28522518 0.17975673 0.57100004
-0.28373653 0.17975673 0.57100004
-0.29019839 0.18156278 0.57200003
-0.28870717 0.18156278 0.57200003
-0.28721595 0.18156278 0.57200003
-0.28522518 0.18124537 0.57100004
-0.28373653 0.18124537 0.57100004
-0.29019839 0.18305402 0.57200003
-0.28870717 0.18305402 0.57200003
-0.28721595 0.18305402 0.57200003
-0.28522518 0.182734 0.57100004
