# .PCD v0.7 - Point Cloud Data file format
VERSION 0.7
FIELDS x y z
SIZE 4 4 4
TYPE F F F
COUNT 1 1 1
WIDTH 178
HEIGHT 1
VIEWPOINT 0 0 0 1 0 0 0
POINTS 178
DATA ascii
-0.041451901 0.043250863 0.21900001
-0.041451901 0.043821808 0.21900001
-0.040880956 0.043821808 0.21900001
-0.032737527 0.043621708 0.21800001
-0.032169186 0.043621708 0.21800001
-0.031600848 0.043621708 0.21800001
-0.031032506 0.043621708 0.21800001
-0.030324424 0.043421607 0.21700001
-0.02975869 0.043421607 0.21700001
-0.029192958 0.043421607 0.21700001
-0.028759148 0.043621708 0.21800001
-0.04430664 0.044392757 0.21900001
-0.04373569 0.044392757 0.21900001
-0.043164741 0.044392757 0.21900001
-0.042593796 0.044392757 0.21900001
-0.04202285 0.044392757 0.21900001
-0.041451901 0.044392757 0.21900001
-0.040880956 0.044392757 0.21900001
-0.04031001 0.044392757 0.21900001
-0.039739061 0.044392757 0.21900001
-0.038989265 0.044190049 0.21800001
-0.038420927 0.044190049 0.21800001
-0.037852585 0.044190049 0.21800001
-0.036715906 0.044190049 0.21800001
-0.036147568 0.044190049 0.21800001
-0.035579223 0.044190049 0.21800001
-0.035010885 0.044190049 0.21800001
-0.034442544 0.044190049 0.21800001
-0.033874206 0.044190049 0.21800001
-0.033305865 0.044190049 0.21800001
-0.032737527 0.044190049 0.21800001
-0.032169186 0.044190049 0.21800001
-0.031455889 0.043987341 0.21700001
-0.030890156 0.043987341 0.21700001
-0.030324424 0.043987341 0.21700001
-0.02975869 0.043987341 0.21700001
-0.029192958 0.043987341 0.21700001
-0.028627224 0.043987341 0.21700001
-0.044877585 0.044963703 0.21900001
-0.04430664 0.044963703 0.21900001
-0.04373569 0.044963703 0.21900001
-0.043164741 0.044963703 0.21900001
-0.04202285 0.044963703 0.21900001
-0.041451901 0.044963703 0.21900001
-0.040880956 0.044963703 0.21900001
-0.04031001 0.044963703 0.21900001
-0.039557606 0.044758387 0.21800001
-0.038989265 0.044758387 0.21800001
-0.038420927 0.044758387 0.21800001
-0.037852585 0.044758387 0.21800001
-0.037284248 0.044758387 0.21800001
-0.036715906 0.044758387 0.21800001
-0.036147568 0.044758387 0.21800001
-0.035579223 0.044758387 0.21800001
-0.035010885 0.044758387 0.21800001
-0.034442544 0.044758387 0.21800001
-0.033874206 0.044758387 0.21800001
-0.033305865 0.044758387 0.21800001
-0.032737527 0.044758387 0.21800001
-0.032169186 0.044758387 0.21800001
-0.031455889 0.044553075 0.21700001
-0.030890156 0.044553075 0.21700001
-0.030324424 0.044553075 0.21700001
-0.02975869 0.044553075 0.21700001
-0.029192958 0.044553075 0.21700001
-0.028627224 0.044553075 0.21700001
-0.044877585 0.045534648 0.21900001
-0.04430664 0.045534648 0.21900001
-0.04373569 0.045534648 0.21900001
-0.043164741 0.045534648 0.21900001
-0.042593796 0.045534648 0.21900001
-0.04202285 0.045534648 0.21900001
-0.041451901 0.045534648 0.21900001
-0.040880956 0.045534648 0.21900001
-0.04031001 0.045534648 0.21900001
-0.039557606 0.045326728 0.21800001
-0.038989265 0.045326728 0.21800001
-0.038420927 0.045326728 0.21800001
-0.037852585 0.045326728 0.21800001
-0.037284248 0.045326728 0.21800001
-0.036715906 0.045326728 0.21800001
-0.036147568 0.045326728 0.21800001
-0.035579223 0.045326728 0.21800001
-0.035010885 0.045326728 0.21800001
-0.034442544 0.045326728 0.21800001
-0.033874206 0.045326728 0.21800001
-0.033305865 0.045326728 0.21800001
-0.032737527 0.045326728 0.21800001
-0.032169186 0.045326728 0.21800001
-0.031455889 0.045118805 0.21700001
-0.030890156 0.045118805 0.21700001
-0.030324424 0.045118805 0.21700001
-0.02975869 0.045118805 0.21700001
-0.029192958 0.045118805 0.21700001
-0.028627224 0.045118805 0.21700001
-0.028061489 0.045118805 0.21700001
-0.044877585 0.046105597 0.21900001
-0.04430664 0.046105597 0.21900001
-0.04373569 0.046105597 0.21900001
-0.043164741 0.046105597 0.21900001
-0.042593796 0.046105597 0.21900001
-0.04202285 0.046105597 0.21900001
-0.041451901 0.046105597 0.21900001
-0.040880956 0.046105597 0.21900001
-0.04031001 0.046105597 0.21900001
-0.039557606 0.045895066 0.21800001
-0.038989265 0.045895066 0.21800001
-0.038420927 0.045895066 0.21800001
-0.037852585 0.045895066 0.21800001
-0.037284248 0.045895066 0.21800001
-0.036715906 0.045895066 0.21800001
-0.036147568 0.045895066 0.21800001
-0.035579223 0.045895066 0.21800001
-0.035010885 0.045895066 0.21800001
-0.034442544 0.045895066 0.21800001
-0.033874206 0.045895066 0.21800001
-0.033305865 0.045895066 0.21800001
-0.032737527 0.045895066 0.21800001
-0.032169186 0.045895066 0.21800001
-0.031455889 0.045684539 0.21700001
-0.030890156 0.045684539 0.21700001
-0.030324424 0.045684539 0.21700001
-0.02975869 0.045684539 0.21700001
-0.029192958 0.045684539 0.21700001
-0.028627224 0.045684539 0.21700001
-0.027932173 0.045474011 0.21600001
-0.044877585 0.046676543 0.21900001
-0.04430664 0.046676543 0.21900001
-0.04373569 0.046676543 0.21900001
-0.043164741 0.046676543 0.21900001
-0.042593796 0.046676543 0.21900001
-0.04202285 0.046676543 0.21900001
-0.041451901 0.046676543 0.21900001
-0.040880956 0.046676543 0.21900001
-0.04031001 0.046676543 0.21900001
-0.039739061 0.046676543 0.21900001
-0.038989265 0.046463408 0.21800001
-0.038420927 0.046463408 0.21800001
-0.037852585 0.046463408 0.21800001
-0.037284248 0.046463408 0.21800001
-0.036715906 0.046463408 0.21800001
-0.036147568 0.046463408 0.21800001
-0.035579223 0.046463408 0.21800001
-0.035010885 0.046463408 0.21800001
-0.034442544 0.046463408 0.21800001
-0.033874206 0.046463408 0.21800001
-0.033305865 0.046463408 0.21800001
-0.032737527 0.046463408 0.21800001
-0.032021619 0.046250273 0.21700001
-0.031455889 0.046250273 0.21700001
-0.030890156 0.046250273 0.21700001
-0.030324424 0.046250273 0.21700001
-0.029621553 0.046037138 0.21600001
-0.025878316 0.045397732 0.21300001
-0.044672664 0.047031745 0.21800001
-0.04430664 0.047247488 0.21900001
-0.04373569 0.047247488 0.21900001
-0.043164741 0.047247488 0.21900001
-0.042593796 0.047247488 0.21900001
-0.04202285 0.047247488 0.21900001
-0.039557606 0.047031745 0.21800001
-0.038989265 0.047031745 0.21800001
-0.038420927 0.047031745 0.21800001
-0.037852585 0.047031745 0.21800001
-0.037284248 0.047031745 0.21800001
-0.036715906 0.047031745 0.21800001
-0.036147568 0.047031745 0.21800001
-0.035579223 0.047031745 0.21800001
-0.035010885 0.047031745 0.21800001
-0.034442544 0.047031745 0.21800001
-0.033874206 0.047031745 0.21800001
-0.033153087 0.046816003 0.21700001
-0.032587353 0.046816003 0.21700001
-0.032021619 0.046816003 0.21700001
-0.044672664 0.047600087 0.21800001
-0.043164741 0.047818437 0.21900001
-0.042593796 0.047818437 0.21900001
-0.04202285 0.047818437 0.21900001
