# .PCD v0.7 - Point Cloud Data file format
VERSION 0.7
FIELDS x y z
SIZE 4 4 4
TYPE F F F
COUNT 1 1 1
WIDTH 130
HEIGHT 1
VIEWPOINT 0 0 0 1 0 0 0
POINTS 130
DATA ascii
-0.12849565 -0.027297124 0.54400003
-0.12707742 -0.027297124 0.54400003
-0.12707742 -0.025878882 0.54400003
-0.1275446 -0.016009826 0.546
-0.11046312 -0.016009826 0.546
-0.10903966 -0.016009826 0.546
-0.13323843 -0.01458637 0.546
-0.13181497 -0.01458637 0.546
-0.13039151 -0.01458637 0.546
-0.12896806 -0.01458637 0.546
-0.1275446 -0.01458637 0.546
-0.1076162 -0.01458637 0.546
-0.10619275 -0.01458637 0.546
-0.16882484 -0.013162913 0.546
-0.16740139 -0.013162913 0.546
-0.16597793 -0.013162913 0.546
-0.13466188 -0.013162913 0.546
-0.13323843 -0.013162913 0.546
-0.13181497 -0.013162913 0.546
-0.13039151 -0.013162913 0.546
-0.12896806 -0.013162913 0.546
-0.1275446 -0.013162913 0.546
-0.11331003 -0.013162913 0.546
-0.11188658 -0.013162913 0.546
-0.11046312 -0.013162913 0.546
-0.10903966 -0.013162913 0.546
-0.1076162 -0.013162913 0.546
-0.10619275 -0.013162913 0.546
-0.10476929 -0.013162913 0.546
-0.10334583 -0.013162913 0.546
-0.10781331 -0.010334895 0.54700005
-0.10638725 -0.010334895 0.54700005
-0.17056012 -0.0089088306 0.54700005
-0.16913405 -0.0089088306 0.54700005
-0.16770799 -0.0089088306 0.54700005
-0.16628192 -0.0089088306 0.54700005
-0.1320564 -0.0089088306 0.54700005
-0.13063034 -0.0089088306 0.54700005
-0.11209151 -0.0089088306 0.54700005
-0.11066545 -0.0089088306 0.54700005
-0.10923938 -0.0089088306 0.54700005
-0.10781331 -0.0089088306 0.54700005
-0.17198618 -0.0074827666 0.54700005
-0.17056012 -0.0074827666 0.54700005
-0.16913405 -0.0074827666 0.54700005
-0.16770799 -0.0074827666 0.54700005
-0.16628192 -0.0074827666 0.54700005
-0.16485587 -0.0074827666 0.54700005
-0.1634298 -0.0074827666 0.54700005
-0.16200374 -0.0074827666 0.54700005
-0.15915161 -0.0074827666 0.54700005
-0.13490853 -0.0074827666 0.54700005
-0.13348247 -0.0074827666 0.54700005
-0.1320564 -0.0074827666 0.54700005
-0.13063034 -0.0074827666 0.54700005
-0.11494363 -0.0074827666 0.54700005
-0.11351757 -0.0074827666 0.54700005
-0.11209151 -0.0074827666 0.54700005
-0.11066545 -0.0074827666 0.54700005
-0.10923938 -0.0074827666 0.54700005
-0.10781331 -0.0074827666 0.54700005
-0.10638725 -0.0074827666 0.54700005
-0.10496119 -0.0074827666 0.54700005
-0.11229642 -0.0032104331 0.54800004
-0.13372649 -0.0017817621 0.54800004
-0.11229642 -0.0017817621 0.54800004
-0.13801251 -0.00035309116 0.54800004
-0.13658383 -0.00035309116 0.54800004
-0.13515516 -0.00035309116 0.54800004
-0.13372649 -0.00035309116 0.54800004
-0.13229781 -0.00035309116 0.54800004
-0.13086915 -0.00035309116 0.54800004
-0.11658244 -0.00035309116 0.54800004
-0.11515377 -0.00035309116 0.54800004
-0.11229642 -0.00035309116 0.54800004
-0.14542073 0.0039400985 0.54900002
-0.14398946 0.0039400985 0.54900002
-0.14255817 0.0039400985 0.54900002
-0.1411269 0.0039400985 0.54900002
-0.13826436 0.0039400985 0.54900002
-0.15400839 0.0053713764 0.54900002
-0.15114585 0.0053713764 0.54900002
-0.14971457 0.0053713764 0.54900002
-0.14828329 0.0053713764 0.54900002
-0.14685202 0.0053713764 0.54900002
-0.14542073 0.0053713764 0.54900002
-0.14398946 0.0053713764 0.54900002
-0.14255817 0.0053713764 0.54900002
-0.1411269 0.0053713764 0.54900002
-0.13969561 0.0053713764 0.54900002
-0.13826436 0.0053713764 0.54900002
-0.13683307 0.0053713764 0.54900002
-0.13540179 0.0053713764 0.54900002
-0.14998727 0.0082489308 0.55000001
-0.14855339 0.0082489308 0.55000001
-0.14711951 0.0082489308 0.55000001
-0.14568561 0.0082489308 0.55000001
-0.14425173 0.0082489308 0.55000001
-0.14281784 0.0082489308 0.55000001
-0.14138396 0.0082489308 0.55000001
-0.13995007 0.0082489308 0.55000001
-0.14425173 0.0096828155 0.55000001
-0.14281784 0.0096828155 0.55000001
-0.14138396 0.0096828155 0.55000001
-0.13995007 0.0096828155 0.55000001
-0.14855339 0.011116701 0.55000001
-0.14711951 0.011116701 0.55000001
-0.14568561 0.011116701 0.55000001
-0.14425173 0.011116701 0.55000001
-0.14281784 0.011116701 0.55000001
-0.086896323 0.011116701 0.55000001
-0.085462444 0.011116701 0.55000001
-0.084028557 0.011116701 0.55000001
-0.08259467 0.011116701 0.55000001
-0.081160791 0.011116701 0.55000001
-0.088330209 0.012550585 0.55000001
-0.086896323 0.012550585 0.55000001
-0.085462444 0.012550585 0.55000001
-0.084028557 0.012550585 0.55000001
-0.08259467 0.012550585 0.55000001
-0.081160791 0.012550585 0.55000001
-0.084181331 0.015446388 0.551
-0.11147469 0.018319372 0.551
-0.1100382 0.018319372 0.551
-0.1086017 0.018319372 0.551
-0.1071652 0.018319372 0.551
-0.10572872 0.018319372 0.551
-0.10429222 0.018319372 0.551
-0.10285573 0.018319372 0.551
-0.10141924 0.018319372 0.551
