# .PCD v0.7 - Point Cloud Data file format
VERSION 0.7
FIELDS x y z rgb
SIZE 4 4 4 4
TYPE F F F U
COUNT 1 1 1 1
WIDTH 625
HEIGHT 1
VIEWPOINT 0 0 0 1 0 0 0
POINTS 625
DATA ascii
-0.01370614 0.065535307 0.24139905 4278255360
0.0028620472 0.059275437 0.24358128 4278255360
0.018655695 0.05268386 0.23852512 4278255360
0.031041112 0.04685976 0.22707374 4278255360
0.037952952 0.042774338 0.21113673 4278255360
0.018186722 0.053293414 0.24340533 4278255360
0.033929959 0.046707314 0.23818742 4278255360
0.046209283 0.040913254 0.22660726 4278255360
0.05297704 0.036877431 0.21059594 4278255360
0.053104669 0.035272848 0.19282344 4278255360
0.047652774 0.040764399 0.23132977 4278255360
0.059824895 0.035000902 0.2196219 4278255360
0.066447958 0.031015044 0.20353772 4278255360
0.06641753 0.029471487 0.18575938 4278255360
0.059738684 0.030627633 0.16925152 4278255360
0.069552124 0.030133743 0.20727876 4278255360
0.076029897 0.026198206 0.19112317 4278255360
0.075841419 0.024715817 0.1733406 4278255360
0.069018111 0.025933776 0.1568964 4278255360
0.056697801 0.029648978 0.14453273 4278255360
0.080064774 0.023255801 0.17544761 4278255360
0.079718255 0.021834714 0.15766241 4278255360
0.072751105 0.023114376 0.14128333 4278255360
0.060325135 0.026881395 0.1290417 4278255360
0.044512458 0.032507595 0.12297887 4278255360
0.03670653 0.045965023 0.24205948 4278255360
0.052550435 0.039368447 0.23716983 4278255360
0.065043576 0.03351406 0.22585168 4278255360
0.072102636 0.029378122 0.20999242 4278255360
0.07255049 0.027650325 0.19223666 4278255360
0.066402599 0.03340036 0.23060016 4278255360
0.078790799 0.027575478 0.21915218 4278255360
0.08570642 0.023488758 0.20321713 4278255360
0.085996248 0.021821691 0.1854523 4278255360
0.079611957 0.022852268 0.16882005 4278255360
0.088744506 0.022638517 0.20701912 4278255360
0.095516063 0.018601386 0.19100973 4278255360
0.095647849 0.016995197 0.1732374 4278255360
0.089117885 0.018087795 0.15666579 4278255360
0.077015087 0.021696979 0.14405829 4278255360
0.099835038 0.015556725 0.17542969 4278255360
0.099808767 0.014011561 0.15765148 4278255360
0.093133733 0.015166078 0.14114198 4278255360
0.080923028 0.018827753 0.12865424 4278255360
0.065212868 0.024385978 0.12227067 4278255360
0.097739637 0.013390291 0.14134216 4278255360
0.090920128 0.014606624 0.12489627 4278255360
0.078602612 0.018320458 0.1125294 4278255360
0.062841132 0.023912491 0.10630383 4278255360
0.046264004 0.030450212 0.10725771 4278255360
0.082728423 0.026256844 0.22160363 4278255360
0.0953281 0.02037273 0.2104198 4278255360
0.10253372 0.016186666 0.19463979 4278255360
0.1031437 0.014396704 0.17689502 4278255360
0.097056329 0.015301333 0.16014454 4278255360
0.1055046 0.015367799 0.19850129 4278255360
0.11256743 0.011230569 0.18264404 4278255360
0.11301944 0.0095011769 0.16488853 4278255360
0.10678525 0.010468008 0.14819564 4278255360
0.094904438 0.013969836 0.13534899 4278255360
0.11716891 0.0080847796 0.16716529 4278255360
0.1174629 0.0064161117 0.14940067 4278255360
0.11108244 0.0074450565 0.13276684 4278255360
0.09909153 0.011000031 0.12003762 4278255360
0.083489709 0.016488219 0.11333569 4278255360
0.1156867 0.005678196 0.13306169 4278255360
0.10916056 0.0067691621 0.11648846 4278255360
0.097060621 0.010376961 0.10387783 4278255360
0.081404611 0.015899969 0.097332701 4278255360
0.064803272 0.022417191 0.097944528 4278255360
0.10131652 0.0085678389 0.10213935 4278255360
0.089108638 0.012228137 0.08964844 4278255360
0.073399849 0.017785465 0.083260722 4278255360
0.056809694 0.024313107 0.084041394 4278255360
0.04210468 0.030722534 0.091860257 4278255360
0.11703984 0.0095453197 0.18328497 4278255360
0.12439133 0.0053095273 0.16758572 4278255360
0.12516339 0.0034575709 0.14985362 4278255360
0.11922727 0.0042982767 0.13304563 4278255360
0.10757286 0.0076914518 0.11996458 4278255360
0.12927361 0.0020637738 0.15221399 4278255360
0.12988774 0.00027222058 0.13446952 4278255360
0.12380424 0.0011752116 0.11771756 4278255360
0.11203755 0.0046221674 0.10475158 4278255360
0.096549861 0.010038286 0.097733758 4278255360
0.12840514 -0.00058206724 0.11810697 4278255360
0.12217479 0.00038312742 0.10141253 4278255360
0.1102969 0.003883553 0.088562809 4278255360
0.09475217 0.0093354918 0.081700556 4278255360
0.078132778 0.015829798 0.081970111 4278255360
0.11458592 0.0020693222 0.086913332 4278255360
0.10259789 0.005622902 0.074181005 4278255360
0.086997516 0.011110168 0.067474954 4278255360
0.070386268 0.017616084 0.067913435 4278255360
0.055534169 0.024055747 0.075423345 4278255360
0.090226509 0.0095554488 0.064074308 4278255360
0.074571908 0.015077547 0.057525054 4278255360
0.0579703 0.021594487 0.058132436 4278255360
0.043190103 0.028019525 0.065795176 4278255360
0.032696012 0.033281248 0.079235457 4278255360
0.1341836 -0.00151161 0.13319799 4278255360
0.13511766 -0.0034253849 0.11548026 4278255360
0.12933336 -0.0026486821 0.098616354 4278255360
0.11779528 0.00068897818 0.085418418 4278255360
0.10242745 0.0060310201 0.078087308 4278255360
0.13392919 -0.0043957285 0.09910018 4278255360
0.12799697 -0.0035566627 0.082290731 4278255360
0.11634552 -0.00016490737 0.06920667 4278255360
0.10091782 0.005213941 0.062029831 4278255360
0.084286533 0.011682926 0.061957009 4278255360
0.12066607 -0.0019835751 0.067646801 4278255360
0.10890234 0.0014619693 0.054677784 4278255360
0.093416162 0.0068771392 0.047655873 4278255360
0.076789968 0.01335892 0.047752019 4278255360
0.061796289 0.019826435 0.054950189 4278255360
0.096707784 0.0053040879 0.044324413 4278255360
0.081164531 0.01075509 0.037458058 4278255360
0.064544946 0.017249083 0.037723165 4278255360
0.049620446 0.023703152 0.045075521 4278255360
0.038879786 0.029041041 0.058289077 4278255360
0.066233464 0.016196042 0.033201233 4278255360
0.049621984 0.02270166 0.033635274 4278255360
0.034768011 0.029141702 0.041141152 4278255360
0.024148542 0.03444225 0.054467216 4278255360
0.019534443 0.037719399 0.071391255 4278255360
-0.014944125 0.061205786 0.24177784 4278255360
0.0025234313 0.05809122 0.24368489 4278255360
0.019174404 0.054497905 0.23836643 4278255360
0.032232139 0.051025052 0.22670934 4278255360
0.039519172 0.048251774 0.21065751 4278255360
0.018679975 0.055018432 0.24325441 4278255360
0.035277799 0.051421024 0.23777501 4278255360
0.048223678 0.047958069 0.22599092 4278255360
0.055358812 0.045207039 0.20986719 4278255360
0.055493366 0.043626681 0.19209257 4278255360
0.049745526 0.048083246 0.23068945 4278255360
0.062578388 0.044630505 0.21877941 4278255360
0.069560975 0.041901965 0.20258524 4278255360
0.069528893 0.040352635 0.18480739 4278255360
0.062487498 0.040240869 0.16841048 4278255360
0.072833635 0.041609962 0.20627472 4278255360
0.079663046 0.038904164 0.19001155 4278255360
0.079464331 0.037385993 0.17223211 4278255360
0.072270639 0.037308615 0.15590122 4278255360
0.05928155 0.038684934 0.14374219 4278255360
0.083916947 0.036727738 0.17426898 4278255360
0.083551623 0.03524087 0.15648952 4278255360
0.076206274 0.035197888 0.14022617 4278255360
0.063105784 0.036605965 0.1281909 4278255360
0.046434749 0.039230291 0.12239071 4278255360
0.038205091 0.051205836 0.24160098 4278255360
0.054909047 0.047617063 0.23644818 4278255360
0.068080351 0.044134371 0.22492254 4278255360
0.075522602 0.041338526 0.20894602 4278255360
0.07599476 0.039695751 0.19118282 4278255360
0.06951315 0.044278674 0.22964844 4278255360
0.082573816 0.040805563 0.2179947 4278255360
0.089864835 0.038031705 0.2019448 4278255360
0.090170398 0.03641966 0.18417513 4278255360
0.083439551 0.036238242 0.16764893 4278255360
0.09306784 0.037758213 0.20569631 4278255360
0.10020698 0.035006594 0.18957447 4278255360
0.10034592 0.033425424 0.17179994 4278255360
0.093461491 0.033278376 0.15533678 4278255360
0.080701716 0.034589965 0.1429303 4278255360
0.1047604 0.032781847 0.17392269 4278255360
0.10473271 0.031231696 0.15614492 4278255360
0.097695328 0.031119026 0.13974628 4278255360
0.08482179 0.032462623 0.12746134 4278255360
0.068258837 0.035038434 0.1213387 4278255360
0.10255126 0.030217623 0.13986996 4278255360
0.095361561 0.030139342 0.12353732 4278255360
0.082375422 0.031514823 0.11137505 4278255360
0.065758355 0.0341147 0.10541125 4278255360
0.048281375 0.037505422 0.10664046 4278255360
0.08672519 0.040234447 0.22038075 4278255360
0.10000881 0.036742251 0.20898765 4278255360
0.10760557 0.033924103 0.19308797 4278255360
0.10824867 0.032249942 0.17533307 4278255360
0.10183085 0.031998944 0.15868369 4278255360
0.11073772 0.033669226 0.19690013 4278255360
0.11818394 0.030872807 0.18092556 4278255360
0.11866049 0.029229224 0.16316256 4278255360
0.11208788 0.029012555 0.1465732 4278255360
0.099562146 0.030258935 0.13392387 4278255360
0.1230352 0.028600561 0.16537039 4278255360
0.12334515 0.026987704 0.14760087 4278255360
0.11661834 0.026805386 0.13107303 4278255360
0.10397653 0.028084006 0.11854297 4278255360
0.087527804 0.030610349 0.11210016 4278255360
0.12147253 0.025912596 0.13129142 4278255360
0.11459214 0.025764642 0.11482657 4278255360
0.10183538 0.027075389 0.1024169 4278255360
0.085329518 0.029626265 0.096131809 4278255360
0.067827009 0.03299189 0.097019367 4278255360
0.1063223 0.026074208 0.10060774 4278255360
0.093451738 0.027416965 0.088319592 4278255360
0.07689023 0.029992139 0.082192779 4278255360
0.059399512 0.033370309 0.083248988 4278255360
0.043896269 0.036988135 0.091312088 4278255360
0.12289913 0.030036598 0.18149221 4278255360
0.13064967 0.027196411 0.16567086 4278255360
0.13146365 0.025491023 0.14792594 4278255360
0.12520529 0.025204819 0.13121654 4278255360
0.11291825 0.026385522 0.11832906 4278255360
0.13579698 0.024877509 0.15021805 4278255360
0.13644445 0.023202544 0.13246338 4278255360
0.13003072 0.022950644 0.11581246 4278255360
0.1176253 0.024163816 0.10304191 4278255360
0.10129689 0.026639754 0.09628132 4278255360
0.13488136 0.022066798 0.11612545 4278255360
0.12831283 0.021849228 0.099534497 4278255360
0.11579016 0.023094757 0.08688204 4278255360
0.099401616 0.025595685 0.080277972 4278255360
0.081880078 0.028934969 0.080823556 4278255360
0.12031201 0.022094753 0.085161328 4278255360
0.10767323 0.023372527 0.072628118 4278255360
0.091226019 0.025898222 0.066181161 4278255360
0.073713064 0.029250661 0.066895545 4278255360
0.058054749 0.032870803 0.074652128 4278255360
0.094630294 0.024956495 0.062726893 4278255360
0.078125916 0.027506726 0.056437641 4278255360
0.060623121 0.030872019 0.057320759 4278255360
0.045040615 0.034491189 0.065228976 4278255360
0.033976875 0.037760712 0.078843556 4278255360
0.14097351 0.022234239 0.1311205 4278255360
0.14195827 0.020497788 0.11338726 4278255360
0.13585998 0.020176401 0.096619412 4278255360
0.12369557 0.021323672 0.08361312 4278255360
0.10749353 0.023748288 0.076537251 4278255360
0.14070529 0.019301826 0.097026907 4278255360
0.13445103 0.019014718 0.080315992 4278255360
0.12216712 0.020194566 0.067425445 4278255360
0.10590196 0.022644624 0.060504846 4278255360
0.088367879 0.025956327 0.060708247 4278255360
0.1267222 0.019196112 0.06579382 4278255360
0.11431989 0.020408429 0.053020183 4278255360
0.097993083 0.022883708 0.04625548 4278255360
0.080464378 0.026209176 0.046627767 4278255360
0.064656802 0.029830292 0.054074965 4278255360
0.10146338 0.021935537 0.042869348 4278255360
0.085076407 0.024435811 0.036261152 4278255360
0.06755466 0.027774746 0.036802292 4278255360
0.051820014 0.031395551 0.044402525 4278255360
0.04049632 0.034694433 0.05779447 4278255360
0.069334835 0.027042253 0.032252312 4278255360
0.051821634 0.030394351 0.032962251 4278255360
0.036161344 0.034014516 0.040714838 4278255360
0.024965422 0.037299063 0.054217275 4278255360
0.020100854 0.039700273 0.071217954 4278255360
-0.015361543 0.056723285 0.24217001 4278255360
0.0024092584 0.056865159 0.24379215 4278255360
0.019349299 0.056376047 0.23820211 4278255360
0.032633722 0.055337518 0.22633204 4278255360
0.040047266 0.05392275 0.21016136 4278255360
0.018846286 0.0568044 0.24309815 4278255360
0.035732254 0.056301285 0.23734805 4278255360
0.048902884 0.055251803 0.22535281 4278255360
0.056161888 0.053830959 0.2091127 4278255360
0.056298777 0.052275691 0.19133589 4278255360
0.050451152 0.055660695 0.23002651 4278255360
0.063506797 0.054600354 0.21790716 4278255360
0.070610605 0.053173568 0.20159909 4278255360
0.070577972 0.051618256 0.18382178 4278255360
0.063414328 0.050193779 0.1675397 4278255360
0.073940083 0.053491674 0.2052352 4278255360
0.080888055 0.052059069 0.18886064 4278255360
0.080685891 0.050503857 0.17108443 4278255360
0.073367305 0.049085375 0.1548709 4278255360
0.060152724 0.048040166 0.14292371 4278255360
0.085215807 0.050675694 0.17304868 4278255360
0.084844135 0.049120717 0.1552752 4278255360
0.077371269 0.047708359 0.13913164 4278255360
0.064043351 0.04667414 0.12731005 4278255360
0.047082897 0.046190523 0.12178177 4278255360
0.038710367 0.05663183 0.24112627 4278255360
0.055704314 0.056157134 0.23570102 4278255360
0.069104277 0.055129942 0.22396055 4278255360
0.076675735 0.05372154 0.20786265 4278255360
0.077156089 0.052166786 0.19009174 4278255360
0.070561953 0.055541355 0.22866307 4278255360
0.083849356 0.054503117 0.21679632 4278255360
0.091266952 0.053088509 0.20062749 4278255360
0.09157782 0.051533431 0.18285285 4278255360
0.084730119 0.050097197 0.16643643 4278255360
0.094525561 0.053412143 0.20432678 4278255360
0.10178863 0.051991459 0.18808848 4278255360
0.10192998 0.050436195 0.17031169 4278255360
0.094926044 0.049005695 0.15396081 4278255360
0.081944756 0.047938515 0.14176245 4278255360
0.10642111 0.050615598 0.17236243 4278255360
0.10639293 0.049060285 0.15458512 4278255360
0.099233381 0.047635652 0.13830125 4278255360
0.086136356 0.046579264 0.12622629 4278255360
0.069285862 0.046067283 0.1203738 4278255360
0.10417362 0.04763953 0.13834575 4278255360
0.096859097 0.046220891 0.12213037 4278255360
0.083647512 0.045175396 0.1101799 4278255360
0.066741973 0.044677388 0.10448714 4278255360
0.048961584 0.044809915 0.1060014 4278255360
0.088072799 0.054705933 0.21911466 4278255360
0.10158703 0.053690176 0.2075049 4278255360
0.10931568 0.052288271 0.19148131 4278255360
0.10996994 0.050734002 0.17371592 4278255360
0.1034407 0.049286548 0.15717122 4278255360
0.11250219 0.052617315 0.19524239 4278255360
0.12007769 0.051209077 0.17914636 4278255360
0.12056251 0.049654339 0.1613756 4278255360
0.1138758 0.048212353 0.14489344 4278255360
0.10113262 0.047123589 0.13244841 4278255360
0.12501317 0.049841244 0.16351207 4278255360
0.1253285 0.04828617 0.14573751 4278255360
0.11848491 0.046849791 0.12931937 4278255360
0.10562363 0.045771625 0.11699551 4278255360
0.088889346 0.045231469 0.11082098 4278255360
0.12342338 0.046861954 0.12945859 4278255360
0.11642353 0.045431305 0.11310596 4278255360
0.10344531 0.044363838 0.10090436 4278255360
0.086652897 0.043837562 0.094888486 4278255360
0.068846539 0.043940239 0.096061513 4278255360
0.10801012 0.044199143 0.099022016 4278255360
0.094916128 0.043142471 0.08694379 4278255360
0.078067102 0.042630121 0.081087098 4278255360
0.060272738 0.042747535 0.082428589 4278255360
0.044500347 0.043475129 0.090744548 4278255360
0.12487473 0.051251911 0.17963611 4278255360
0.13275984 0.049856644 0.16368835 4278255360
0.13358794 0.048303001 0.14593016 4278255360
0.12722094 0.046850067 0.12932283 4278255360
0.11472058 0.045740128 0.11663575 4278255360
0.13799649 0.048497342 0.14815158 4278255360
0.13865522 0.046943083 0.13038635 4278255360
0.13213013 0.045495488 0.11384004 4278255360
0.11950935 0.044395946 0.10127183 4278255360
0.10289748 0.043827817 0.094777554 4278255360
0.13706498 0.045515936 0.11407392 4278255360
0.13038242 0.044073809 0.097590096 4278255360
0.11764236 0.042984765 0.085141897 4278255360
0.10096929 0.042430416 0.078805126 4278255360
0.08314357 0.042503197 0.079636492 4278255360
0.1222427 0.042827759 0.083347432 4278255360
0.10938451 0.041749313 0.071020357 4278255360
0.09265177 0.041208792 0.064841665 4278255360
0.074834779 0.041296333 0.065841682 4278255360
0.058904629 0.041997332 0.073853664 4278255360
0.096115142 0.040901717 0.061331868 4278255360
0.079324238 0.040375076 0.05531181 4278255360
0.061517589 0.040477362 0.0564804 4278255360
0.04566456 0.041191518 0.064642772 4278255360
0.034408748 0.042398456 0.078437805 4278255360
0.14326289 0.046819121 0.12896959 4278255360
0.14426476 0.045266259 0.1112203 4278255360
0.1380606 0.043807983 0.094551921 4278255360
0.12568501 0.042687472 0.08174403 4278255360
0.10920169 0.042091575 0.074932419 4278255360
0.14299002 0.043836705 0.094880387 4278255360
0.13662718 0.042383634 0.078271478 4278255360
0.12413002 0.041273419 0.065581284 4278255360
0.10758249 0.040691197 0.058925975 4278255360
0.089744009 0.040734064 0.059415367 4278255360
0.12876418 0.041124158 0.063875362 4278255360
0.11614656 0.04002434 0.051304013 4278255360
0.099536315 0.03945585 0.044805605 4278255360
0.081703298 0.03951348 0.045463793 4278255360
0.065621294 0.040187623 0.053168815 4278255360
0.10306686 0.039154641 0.041362874 4278255360
0.08639539 0.038599927 0.035021953 4278255360
0.068569459 0.038672321 0.035848878 4278255360
0.052561652 0.039359748 0.043705747 4278255360
0.041041374 0.04054758 0.057282384 4278255360
0.070380546 0.038271703 0.031269863 4278255360
0.052563302 0.038358852 0.032265447 4278255360
0.036631145 0.039059505 0.040273458 4278255360
0.025240853 0.040256821 0.053958505 4278255360
0.020291835 0.041751139 0.071038529 4278255360
-0.014944148 0.052240785 0.24256217 4278255360
0.0025234248 0.055639096 0.24389942 4278255360
0.019174414 0.058254194 0.23803778 4278255360
0.032232162 0.059649989 0.22595474 4278255360
0.039519202 0.059593726 0.20966522 4278255360
0.018679984 0.058590367 0.24294192 4278255360
0.035277825 0.061181549 0.23692109 4278255360
0.048223719 0.062545538 0.22471468 4278255360
0.055358857 0.062454887 0.2083582 4278255360
0.055493414 0.060924701 0.19057919 4278255360
0.049745567 0.063238151 0.22936358 4278255360
0.06257844 0.064570211 0.21703491 4278255360
0.069561034 0.064445175 0.20061296 4278255360
0.069528952 0.062883884 0.18283617 4278255360
0.06248755 0.060146693 0.16666894 4278255360
0.072833702 0.065373398 0.20419569 4278255360
0.079663113 0.065213986 0.18770973 4278255360
0.079464406 0.063621722 0.16993678 4278255360
0.072270699 0.060862139 0.15384056 4278255360
0.059281599 0.057395406 0.14210524 4278255360
0.083917022 0.064623654 0.17182839 4278255360
0.083551697 0.063000567 0.15406087 4278255360
0.076206341 0.060218837 0.13803712 4278255360
0.063105837 0.056742322 0.1264292 4278255360
0.046434786 0.053150762 0.12117282 4278255360
0.038205117 0.062057823 0.24065155 4278255360
0.054909091 0.064697213 0.23495387 4278255360
0.06808041 0.06612552 0.22299856 4278255360
0.075522669 0.066104561 0.20677927 4278255360
0.075994827 0.064637832 0.18900068 4278255360
0.069513209 0.066804044 0.22767772 4278255360
0.082573883 0.068200678 0.21559794 4278255360
0.089864917 0.06814532 0.1993102 4278255360
0.09017048 0.066647209 0.18153057 4278255360
0.083439626 0.063956156 0.16522393 4278255360
0.093067922 0.069066085 0.20295723 4278255360
0.10020707 0.068976335 0.1866025 4278255360
0.10034601 0.067446969 0.16882345 4278255360
0.093461573 0.064733028 0.15258485 4278255360
0.080701791 0.061287068 0.1405946 4278255360
0.1047605 0.068449356 0.17080219 4278255360
0.1047328 0.066888884 0.15302531 4278255360
0.09769541 0.064152285 0.13685624 4278255360
0.084821865 0.060695916 0.12499125 4278255360
0.068258896 0.057096139 0.11940891 4278255360
0.10255135 0.06506145 0.13682152 4278255360
0.095361643 0.062302448 0.12072342 4278255360
0.082375489 0.058835976 0.10898475 4278255360
0.065758415 0.055240087 0.10356303 4278255360
0.048281413 0.052114416 0.10536233 4278255360
0.086725265 0.069177426 0.21784857 4278255360
0.1000089 0.070638105 0.20602214 4278255360
0.10760567 0.070652455 0.18987465 4278255360
0.10824876 0.069218069 0.17209877 4278255360
0.10183094 0.066574156 0.15565875 4278255360
0.11073782 0.071565412 0.19358464 4278255360
0.11818405 0.071545362 0.17736718 4278255360
0.11866059 0.070079461 0.15958862 4278255360
0.11208798 0.06741216 0.14321367 4278255360
0.099562235 0.063988253 0.13097294 4278255360
0.12303531 0.071081936 0.16165376 4278255360
0.12334526 0.069584645 0.14387414 4278255360
0.11661845 0.066894203 0.12756571 4278255360
0.10397662 0.063459255 0.11544804 4278255360
0.087527879 0.059852596 0.1095418 4278255360
0.12147264 0.067811325 0.12762575 4278255360
0.11459225 0.06509798 0.11138535 4278255360
0.10183547 0.061652299 0.099391818 4278255360
0.085329592 0.05804887 0.093645155 4278255360
0.067827068 0.054888587 0.095103651 4278255360
0.10632239 0.062324088 0.097436287 4278255360
0.09345182 0.058867987 0.085567988 4278255360
0.076890297 0.055268113 0.079981424 4278255360
0.059399564 0.052124765 0.081608184 4278255360
0.043896303 0.049962122 0.090177014 4278255360
0.12289924 0.072467238 0.17778002 4278255360
0.13064981 0.072516888 0.16170584 4278255360
0.13146377 0.071114995 0.14393437 4278255360
0.12520541 0.068495326 0.12742911 4278255360
0.11291835 0.065094739 0.11494244 4278255360
0.1357971 0.072117187 0.14608511 4278255360
0.13644458 0.070683636 0.12830932 4278255360
0.13003084 0.068040341 0.11186762 4278255360
0.11762542 0.064628087 0.099501744 4278255360
0.10129698 0.061015885 0.093273796 4278255360
0.13488148 0.068965085 0.11202239 4278255360
0.12831295 0.066298395 0.095645696 4278255360
0.11579027 0.062874787 0.083401747 4278255360
0.099401705 0.059265152 0.077332281 4278255360
0.081880145 0.05607143 0.078449421 4278255360
0.12031211 0.063560776 0.081533529 4278255360
0.10767332 0.060126111 0.069412597 4278255360
0.091226101 0.056519374 0.063502163 4278255360
0.073713131 0.053342007 0.064787827 4278255360
0.058054797 0.051123861 0.073055193 4278255360
0.094630376 0.05684695 0.059936844 4278255360
0.078125983 0.053243432 0.054185975 4278255360
0.060623173 0.05008271 0.055640042 4278255360
0.045040652 0.047891852 0.064056575 4278255360
0.033976898 0.047036201 0.078032054 4278255360
0.14097364 0.071404018 0.1268187 4278255360
0.1419584 0.070034742 0.10905334 4278255360
0.13586012 0.067439571 0.092484429 4278255360
0.12369569 0.064051278 0.07987494 4278255360
0.10749363 0.060434874 0.073327594 4278255360
0.14070542 0.068371601 0.092733867 4278255360
0.13445117 0.065752558 0.076226965 4278255360
0.12216723 0.062352281 0.063737124 4278255360
0.10590206 0.058737785 0.057347104 4278255360
0.088367954 0.055511806 0.058122482 4278255360
0.12672232 0.063052215 0.061956912 4278255360
0.11432 0.059640262 0.049587846 4278255360
0.097993173 0.056027997 0.043355733 4278255360
0.080464453 0.052817792 0.044299819 4278255360
0.064656854 0.050544962 0.052262668 4278255360
0.10146347 0.056373753 0.0398564 4278255360
0.085076481 0.052764047 0.033782754 4278255360
0.067554712 0.049569901 0.034895461 4278255360
0.051820055 0.047323953 0.043008972 4278255360
0.040496349 0.04640073 0.056770302 4278255360
0.069334894 0.049501158 0.030287413 4278255360
0.051821679 0.046323359 0.031568643 4278255360
0.036161371 0.044104498 0.039832078 4278255360
0.024965437 0.043214578 0.053699736 4278255360
0.020100866 0.043802008 0.070859097 4278255360
-0.013706187 0.04791126 0.24294096 4278255360
0.0028620344 0.054454878 0.24400303 4278255360
0.018655714 0.060068242 0.23787908 4278255360
0.031041157 0.063815288 0.22559033 4278255360
0.037953012 0.065071166 0.209186 4278255360
0.018186741 0.060315385 0.242791 4278255360
0.033930007 0.065895267 0.23650868 4278255360
0.046209358 0.069590367 0.22409834 4278255360
0.05297713 0.070784502 0.20762946 4278255360
0.053104758 0.069278553 0.18984832 4278255360
0.047652852 0.070557006 0.22872326 4278255360
0.059824999 0.074199826 0.21619244 4278255360
0.066448078 0.075332113 0.19966048 4278255360
0.066417649 0.073765047 0.1818842 4278255360
0.059738789 0.069759943 0.16582789 4278255360
0.06955225 0.076849632 0.20319165 4278255360
0.076030038 0.07791996 0.18659811 4278255360
0.075841554 0.076291919 0.16882828 4278255360
0.06901823 0.072237 0.1528454 4278255360
0.056697901 0.066431373 0.14131469 4278255360
0.080064923 0.078095615 0.17064975 4278255360
0.079718404 0.076406747 0.15288799 4278255360
0.072751239 0.072302371 0.13697995 4278255360
0.060325243 0.066466905 0.12557842 4278255360
0.044512529 0.059873465 0.12058467 4278255360
0.036706585 0.067298643 0.24019304 4278255360
0.052550521 0.072945841 0.2342322 4278255360
0.065043688 0.076745845 0.2220694 4278255360
0.07210277 0.078064986 0.20573288 4278255360
0.072550617 0.076683275 0.18794684 4278255360
0.066402718 0.077682376 0.226726 4278255360
0.07879094 0.081430778 0.21444046 4278255360
0.085706577 0.082688287 0.19803786 4278255360
0.085996412 0.081245199 0.18025342 4278255360
0.079612099 0.077342153 0.1640528 4278255360
0.08874467 0.084185801 0.20163444 4278255360
0.095516242 0.085381567 0.18516722 4278255360
0.095648028 0.083877221 0.167386 4278255360
0.089118049 0.07992363 0.15125585 4278255360
0.077015229 0.074180074 0.13946661 4278255360
0.099835224 0.085674509 0.16929518 4278255360
0.099808954 0.084109046 0.15151875 4278255360
0.093133904 0.08010526 0.13546054 4278255360
0.08092317 0.074330807 0.12379836 4278255360
0.06521298 0.067748614 0.11847693 4278255360
0.097739823 0.081888802 0.13534932 4278255360
0.090920292 0.077835187 0.11936449 4278255360
0.078602761 0.072030358 0.1078304 4278255360
0.062841244 0.065442309 0.10267045 4278255360
0.046264082 0.059169635 0.10474508 4278255360
0.082728572 0.083155051 0.21662569 4278255360
0.095328279 0.087007657 0.20459001 4278255360
0.10253391 0.088389918 0.18832283 4278255360
0.10314389 0.087071337 0.17053682 4278255360
0.097056508 0.083271794 0.1541979 4278255360
0.1055048 0.089866869 0.19198348 4278255360
0.11256764 0.091187626 0.1756487 4278255360
0.11301965 0.089807533 0.15786265 4278255360
0.10678544 0.085956737 0.14159124 4278255360
0.094904609 0.080277376 0.12954783 4278255360
0.11716913 0.091597751 0.15985885 4278255360
0.11746312 0.090156272 0.14207435 4278255360
0.11108265 0.086254559 0.12587191 4278255360
0.099091716 0.080543257 0.11395339 4278255360
0.083489865 0.073974751 0.10830627 4278255360
0.11568692 0.088045754 0.12585548 4278255360
0.10916077 0.084093489 0.10972346 4278255360
0.0970608 0.078350753 0.097930893 4278255360
0.08140476 0.071775183 0.092444263 4278255360
0.064803392 0.065463305 0.09417849 4278255360
0.10131671 0.079830483 0.095904678 4278255360
0.089108802 0.074056834 0.084239133 4278255360
0.073399983 0.067474805 0.078913473 4278255360
0.05680979 0.061181981 0.080815785 4278255360
0.042104747 0.056227736 0.089628845 4278255360
0.11704006 0.092958547 0.17598726 4278255360
0.12439157 0.094403803 0.15979098 4278255360
0.12516363 0.093148477 0.14200668 4278255360
0.1192275 0.089401901 0.12560003 4278255360
0.10757306 0.083788842 0.11330692 4278255360
0.12927385 0.094930954 0.14408918 4278255360
0.12988798 0.093613997 0.12630318 4278255360
0.12380447 0.08981581 0.10996252 4278255360
0.11203777 0.084169768 0.097792074 4278255360
0.09655004 0.077617377 0.091821358 4278255360
0.12840538 0.091613986 0.11004087 4278255360
0.12217502 0.087764531 0.093767658 4278255360
0.11029711 0.082086019 0.081720985 4278255360
0.094752342 0.075525373 0.075909697 4278255360
0.07813292 0.069176622 0.077302866 4278255360
0.11458614 0.083586238 0.079781532 4278255360
0.10259808 0.077875763 0.067859709 4278255360
0.08699768 0.071307451 0.062208377 4278255360
0.070386395 0.064976603 0.063769937 4278255360
0.055534262 0.05993893 0.072283976 4278255360
0.09022668 0.072248019 0.058589429 4278255360
0.074572042 0.065672629 0.053098563 4278255360
0.057970401 0.059360255 0.054828364 4278255360
0.043190174 0.054363523 0.063490376 4278255360
0.032696061 0.051515669 0.077640153 4278255360
0.13418387 0.095149904 0.12474121 4278255360
0.13511793 0.093957946 0.10696033 4278255360
0.12933362 0.090264693 0.090487488 4278255360
0.1177955 0.084686004 0.078069642 4278255360
0.10242764 0.078152165 0.07177753 4278255360
0.13392945 0.092069186 0.090660594 4278255360
0.1279972 0.088323973 0.074252225 4278255360
0.11634574 0.082711786 0.061955903 4278255360
0.10091801 0.076168492 0.055822119 4278255360
0.08428669 0.06978523 0.05687372 4278255360
0.1206663 0.084231935 0.060103931 4278255360
0.10890254 0.07858675 0.047930244 4278255360
0.093416333 0.07203459 0.041955341 4278255360
0.076790109 0.065668069 0.043175567 4278255360
0.061796397 0.060548835 0.051387444 4278255360
0.096707962 0.073005222 0.038401335 4278255360
0.08116468 0.066444792 0.032585848 4278255360
0.064545058 0.060095578 0.033974588 4278255360
0.049620528 0.055016361 0.042335972 4278255360
0.038879845 0.05205413 0.056275696 4278255360
0.066233583 0.060347386 0.029338492 4278255360
0.049622066 0.054016061 0.030895621 4278255360
0.034768064 0.048977315 0.039405763 4278255360
0.024148572 0.046071399 0.053449798 4278255360
0.019534463 0.045782886 0.070685796 4278255360
