# .PCD v0.7 - Point Cloud Data file format
VERSION 0.7
FIELDS x y z rgb
SIZE 4 4 4 4
TYPE F F F U
COUNT 1 1 1 1
WIDTH 1052
HEIGHT 1
VIEWPOINT 0 0 0 1 0 0 0
POINTS 1052
DATA ascii
0.065351963 0.066100404 0.20933183 4278255360
0.066973731 0.065829434 0.20219776 4278255360
0.067409411 0.065286696 0.19490983 4278255360
0.066646777 0.064487442 0.18767256 4278255360
0.064707242 0.063454092 0.1806891 4278255360
0.047669262 0.064274557 0.23247729 4278255360
0.053924061 0.065316536 0.22881803 4278255360
0.059511177 0.066125445 0.22415668 4278255360
0.064273797 0.066678576 0.21862406 4278255360
0.068078257 0.066960402 0.21237545 4278255360
0.070817769 0.06696301 0.20558624 4278255360
0.072415449 0.06668634 0.19844696 4278255360
0.07282646 0.066138141 0.191158 4278255360
0.072039261 0.065333813 0.18392393 4278255360
0.070075944 0.064295925 0.17694779 4278255360
0.06699162 0.063053608 0.17042536 4278255360
0.058803175 0.065979652 0.2242526 4278255360
0.064374819 0.066783495 0.21957189 4278255360
0.069118969 0.067331165 0.21402287 4278255360
0.072902471 0.067607298 0.2077613 4278255360
0.075619131 0.067604132 0.20096292 4278255360
0.077192709 0.067321762 0.19381851 4278255360
0.077579044 0.06676811 0.18652861 4278255360
0.076767281 0.065958716 0.17929782 4278255360
0.074780211 0.064916305 0.17232908 4278255360
0.071673602 0.063670121 0.16581798 4278255360
0.067534648 0.062255148 0.15994726 4278255360
0.068435103 0.067201242 0.21424006 4278255360
0.073160723 0.06774345 0.20867473 4278255360
0.076923221 0.068013877 0.20240027 4278255360
0.079617001 0.068004936 0.19559279 4278255360
0.081166461 0.067716867 0.18844333 4278255360
0.081528112 0.067157768 0.18115258 4278255360
0.0806918 0.06634333 0.17392516 4278255360
0.078681 0.065296397 0.16696391 4278255360
0.075552143 0.064046368 0.16046421 4278255360
0.07139305 0.062628321 0.15460849 4278255360
0.066320457 0.061082061 0.14956109 4278255360
0.076283485 0.067903616 0.20273238 4278255360
0.080024943 0.068168342 0.19644511 4278255360
0.082695812 0.06815362 0.18962862 4278255360
0.084221132 0.067859866 0.18247421 4278255360
0.084558092 0.06729532 0.1751827 4278255360
0.083697237 0.066475838 0.16795872 4278255360
0.081662729 0.065424405 0.16100505 4278255360
0.078511663 0.064170547 0.15451683 4278255360
0.074332491 0.062749445 0.14867616 4278255360
0.069242492 0.061200984 0.14364699 4278255360
0.063384533 0.059568629 0.13957044 4278255360
0.082118906 0.068066247 0.19006597 4278255360
0.084766828 0.068045743 0.18324053 4278255360
0.086267993 0.067746304 0.17608126 4278255360
0.086580262 0.067176327 0.16878906 4278255360
0.085694879 0.066351809 0.16156863 4278255360
0.083636686 0.06529589 0.1546226 4278255360
0.080463447 0.06403821 0.14814594 4278255360
0.076264232 0.062614068 0.14232041 4278255360
0.071156897 0.061063435 0.13730951 4278255360
0.065284789 0.059429828 0.1332539 4278255360
0.058812708 0.057759099 0.13026738 4278255360
0.085770778 0.067684375 0.17661104 4278255360
0.087247767 0.067379251 0.16944697 4278255360
0.087535344 0.066803843 0.1621542 4278255360
0.086625442 0.065974303 0.15493739 4278255360
0.084543586 0.064913906 0.14799909 4278255360
0.081348218 0.063652426 0.14153406 4278255360
0.077129021 0.062225264 0.13572372 4278255360
0.072004408 0.060672469 0.13073118 4278255360
0.066118203 0.05903763 0.12669653 4278255360
0.059635628 0.057366628 0.12373303 4278255360
0.052738618 0.055706363 0.12192384 4278255360
0.0031677156 0.055497129 0.24292217 4278255360
0.010200592 0.057134293 0.24412912 4278255360
0.017354215 0.0586912 0.24411817 4278255360
0.024427807 0.060124155 0.24288963 4278255360
0.031222837 0.061392933 0.24047795 4278255360
0.037548594 0.062461931 0.23695084 4278255360
0.043227531 0.063301139 0.2324073 4278255360
0.048100263 0.063887015 0.22697484 4278255360
0.052030031 0.064203098 0.22080593 4278255360
0.054906536 0.06424053 0.21407372 4278255360
0.056649048 0.06399826 0.20696715 4278255360
0.016757309 0.058527485 0.24373266 4278255360
0.023911312 0.060082268 0.24369651 4278255360
0.030981151 0.061512232 0.24244311 4278255360
0.037768405 0.062777236 0.24000768 4278255360
0.044082575 0.063841783 0.23645854 4278255360
0.049746446 0.064675994 0.23189531 4278255360
0.054601051 0.065256447 0.22644606 4278255360
0.05851014 0.06556686 0.22026375 4278255360
0.061363999 0.06559851 0.21352187 4278255360
0.063082524 0.065350525 0.20640965 4278255360
0.06361749 0.064829856 0.19912672 4278255360
0.030326661 0.061345644 0.24216814 4278255360
0.037392665 0.062772602 0.24088994 4278255360
0.044172056 0.064033814 0.23843075 4278255360
0.050474565 0.065093897 0.23485963 4278255360
0.056123301 0.065923095 0.23027676 4278255360
0.060959723 0.066498123 0.22481079 4278255360
0.064848088 0.066802859 0.21861514 4278255360
0.067679264 0.066828735 0.21186368 4278255360
0.069373786 0.066575035 0.20474592 4278255360
0.069884107 0.066048875 0.19746161 4278255360
0.069195889 0.065265022 0.1902152 4278255360
0.043479111 0.06386923 0.23827435 4278255360
0.050250564 0.065126643 0.23579147 4278255360
0.056541339 0.066182248 0.23219839 4278255360
0.062174872 0.067006417 0.22759594 4278255360
0.06699305 0.067576021 0.22211333 4278255360
0.070860647 0.067875072 0.2159044 4278255360
0.073669106 0.067895167 0.20914344 4278255360
0.075339608 0.06763576 0.2020202 4278255360
0.075825267 0.067104116 0.1947346 4278255360
0.075112455 0.066315167 0.18749113 4278255360
0.073221169 0.065291047 0.1804931 4278255360
0.055830196 0.066024475 0.23216513 4278255360
0.062109157 0.067075588 0.22855014 4278255360
0.067727417 0.067894727 0.22392817 4278255360
0.072527297 0.068458892 0.21842895 4278255360
0.076374076 0.068752252 0.21220686 4278255360
0.079159789 0.068766572 0.20543647 4278255360
0.080806248 0.068501458 0.19830784 4278255360
0.081267245 0.067964338 0.19102105 4278255360
0.080529846 0.067170292 0.1837806 4278255360
0.078614734 0.066141613 0.17678972 4278255360
0.07557568 0.064907163 0.17024459 4278255360
0.067018867 0.067748375 0.22401904 4278255360
0.072621793 0.068562463 0.21937761 4278255360
0.077403314 0.069121189 0.21386187 4278255360
0.081229232 0.069408856 0.20762666 4278255360
0.083992161 0.069417402 0.20084693 4278255360
0.085614555 0.069146581 0.19371301 4278255360
0.086050883 0.068603992 0.1864251 4278255360
0.085288905 0.067804866 0.17918774 4278255360
0.083349995 0.066771634 0.17220409 4278255360
0.080288574 0.065533295 0.16567014 4278255360
0.076190576 0.064124599 0.15976925 4278255360
0.076718062 0.068990536 0.21407421 4278255360
0.081481166 0.069543809 0.20854202 4278255360
0.085286178 0.069825783 0.20229375 4278255360
0.088026293 0.069828548 0.19550477 4278255360
0.089624606 0.069552027 0.18836564 4278255360
0.090036266 0.069003977 0.18107671 4278255360
0.089249708 0.068199776 0.17384255 4278255360
0.087287024 0.067162007 0.16686621 4278255360
0.084203281 0.065919794 0.16034348 4278255360
0.080085039 0.064507991 0.15445746 4278255360
0.075047888 0.062966235 0.14937332 4278255360
0.084644258 0.069714651 0.20262134 4278255360
0.088428311 0.069990933 0.19636011 4278255360
0.091145575 0.069987915 0.18956196 4278255360
0.092719793 0.069705695 0.18241769 4278255360
0.093106769 0.069152191 0.17512782 4278255360
0.092295654 0.068342932 0.16789694 4278255360
0.09030921 0.067300633 0.160928 4278255360
0.08720319 0.066054553 0.15441661 4278255360
0.083064765 0.064639665 0.14854549 4278255360
0.07801009 0.063095674 0.14347945 4278255360
0.072181024 0.061465915 0.13936067 4278255360
0.090565756 0.069899552 0.18999523 4278255360
0.093260139 0.06989076 0.18318798 4278255360
0.09481024 0.069602847 0.17603867 4278255360
0.095172532 0.06904389 0.16874795 4278255360
0.094336867 0.068229578 0.16152042 4278255360
0.092326693 0.067182772 0.15455897 4278255360
0.089198418 0.06593284 0.14805898 4278255360
0.085039854 0.064514875 0.14220285 4278255360
0.079967722 0.062968671 0.13715498 4278255360
0.074124359 0.061337624 0.13305701 4278255360
0.067673787 0.059667509 0.130024 4278255360
0.094309464 0.069539838 0.17656496 4278255360
0.095835418 0.069246233 0.16941068 4278255360
0.096173033 0.068681829 0.16211918 4278255360
0.095312819 0.067862481 0.15489513 4278255360
0.093278937 0.066811167 0.14794125 4278255360
0.090128459 0.065557405 0.14145271 4278255360
0.085949808 0.064136386 0.13561165 4278255360
0.080860265 0.062587984 0.130582 4278255360
0.075002685 0.060955662 0.12650491 4278255360
0.068541452 0.059285235 0.12349483 4278255360
0.061657932 0.057623584 0.12163622 4278255360
0.095765941 0.068646014 0.16272311 4278255360
0.096078865 0.068076178 0.15543094 4278255360
0.095194124 0.067251794 0.14821041 4278255360
0.093136549 0.066195995 0.14126419 4278255360
0.089963898 0.064938419 0.1347872 4278255360
0.085765213 0.063514352 0.12896128 4278255360
0.080658332 0.061963774 0.1239499 4278255360
0.074786589 0.060330201 0.11989373 4278255360
0.068314791 0.058659479 0.11690661 4278255360
0.061424565 0.056998502 0.11507238 4278255360
0.054309309 0.055393886 0.11444253 4278255360
0.024655571 0.060070444 0.24170879 4278255360
0.031808719 0.061629511 0.24172369 4278255360
0.038886074 0.063065514 0.24052064 4278255360
0.045689002 0.064338148 0.23813339 4278255360
0.05202657 0.065411702 0.23462895 4278255360
0.0577209 0.066256039 0.23010565 4278255360
0.062612176 0.066847458 0.2246905 4278255360
0.066563115 0.067169368 0.21853542 4278255360
0.069462828 0.067212731 0.21181321 4278255360
0.071229935 0.066976331 0.20471251 4278255360
0.071814828 0.066466801 0.19743264 4278255360
0.038233571 0.062898949 0.24024096 4278255360
0.04530726 0.064331979 0.23901306 4278255360
0.052102495 0.065600857 0.23660201 4278255360
0.058428556 0.066669971 0.23307548 4278255360
0.064107887 0.067509316 0.22853246 4278255360
0.068981096 0.068095326 0.22310044 4278255360
0.072911412 0.068411566 0.21693189 4278255360
0.075788513 0.068449147 0.21019992 4278255360
0.077531651 0.068207026 0.20309351 4278255360
0.078091912 0.067691997 0.19581208 4278255360
0.077453561 0.066918507 0.18855999 4278255360
0.051410731 0.065436095 0.23644064 4278255360
0.058198188 0.066701196 0.23400582 4278255360
0.064512663 0.067765862 0.23045726 4278255360
0.070176937 0.0686002 0.22589456 4278255360
0.075032018 0.069180794 0.22044575 4278255360
0.078941651 0.069491357 0.21426378 4278255360
0.081796102 0.069523163 0.20752215 4278255360
0.083515264 0.069275327 0.2004101 4278255360
0.084050879 0.0687548 0.1931272 4278255360
0.083387919 0.067976192 0.18587787 4278255360
0.08154498 0.066961356 0.1788656 4278255360
0.063801862 0.067607716 0.23041894 4278255360
0.070104674 0.068667911 0.22684838 4278255360
0.075753808 0.069497235 0.22226603 4278255360
0.08059071 0.070072412 0.21680051 4278255360
0.084479623 0.070377298 0.2106052 4278255360
0.087311395 0.070403323 0.20385399 4278255360
0.089006551 0.070149772 0.19673637 4278255360
0.089517519 0.069623761 0.1894521 4278255360
0.088829949 0.068840042 0.18220562 4278255360
0.086963147 0.067820616 0.17520031 4278255360
0.083969496 0.066594101 0.16863281 4278255360
0.075044744 0.069350332 0.22235185 4278255360
0.080678679 0.070174634 0.21774992 4278255360
0.085497335 0.07074438 0.21226774 4278255360
0.089365475 0.071043573 0.20605917 4278255360
0.092174537 0.071063831 0.19929846 4278255360
0.093845673 0.070804566 0.19217536 4278255360
0.09433198 0.070273072 0.18488981 4278255360
0.093619816 0.069484249 0.17764625 4278255360
0.091729164 0.068460256 0.17064802 4278255360
0.08871308 0.067229815 0.16409153 4278255360
0.084656231 0.065827467 0.15816078 4278255360
0.084810734 0.070613004 0.21247521 4278255360
0.089611091 0.071177311 0.20697643 4278255360
0.093458422 0.071470827 0.20075467 4278255360
0.09624473 0.071485296 0.19398454 4278255360
0.097891822 0.071220331 0.18685605 4278255360
0.098353468 0.070683353 0.17956929 4278255360
0.097616717 0.069889449 0.17232876 4278255360
0.095702231 0.068860888 0.16533767 4278255360
0.092663765 0.067626543 0.15879226 4278255360
0.088586576 0.066221051 0.15287621 4278255360
0.083585113 0.064683877 0.14775558 4278255360
0.092814349 0.07135883 0.20107771 4278255360
0.096640818 0.071646646 0.19484283 4278255360
0.099404342 0.07165534 0.18806335 4278255360
0.10102738 0.071384668 0.18092957 4278255360
0.10146435 0.070842229 0.1736417 4278255360
0.10070302 0.070043236 0.16640426 4278255360
0.098764732 0.069010124 0.15942042 4278255360
0.095703907 0.067771882 0.15288615 4278255360
0.091606438 0.066363275 0.14698489 4278255360
0.086587325 0.064823821 0.14188224 4278255360
0.08078745 0.063196741 0.13772142 4278255360
0.09882164 0.071565993 0.18849254 4278255360
0.10156235 0.071568906 0.18170381 4278255360
0.10316131 0.071292534 0.17456479 4278255360
0.10357361 0.070744626 0.16727589 4278255360
0.1027877 0.069940567 0.16004165 4278255360
0.10082564 0.068902917 0.15306512 4278255360
0.09774249 0.067660801 0.1465421 4278255360
0.093624778 0.06624908 0.14065568 4278255360
0.088588089 0.064707384 0.13557106 4278255360
0.082773775 0.06307897 0.13143097 4278255360
0.076345026 0.061409552 0.12835158 4278255360
0.10265699 0.071228445 0.17508757 4278255360
0.10423184 0.07094638 0.16794343 4278255360
0.10461947 0.070393011 0.16065358 4278255360
0.103809 0.069583885 0.15342261 4278255360
0.10182318 0.068541713 0.14645348 4278255360
0.098717742 0.06729573 0.13994178 4278255360
0.094579846 0.065880924 0.13407029 4278255360
0.089525633 0.064336993 0.12900376 4278255360
0.083696954 0.062707268 0.12488444 4278255360
0.077257395 0.061037496 0.12182792 4278255360
0.070387691 0.059374537 0.11991998 4278255360
0.1042083 0.070356056 0.16125466 4278255360
0.10457125 0.069797248 0.15396395 4278255360
0.10373622 0.068983071 0.14673635 4278255360
0.10172667 0.067936376 0.1397747 4278255360
0.098598987 0.066686548 0.13327441 4278255360
0.094440952 0.065268666 0.12741789 4278255360
0.089369275 0.063722521 0.12236953 4278255360
0.083526291 0.062091503 0.11827102 4278255360
0.077076003 0.060421396 0.11523739 4278255360
0.070199437 0.058759075 0.11335379 4278255360
0.063089602 0.057151191 0.11267307 4278255360
0.1034302 0.068974331 0.14739817 4278255360
0.10257065 0.06815511 0.14017402 4278255360
0.10053738 0.067103915 0.13321993 4278255360
0.097387485 0.065850258 0.1267311 4278255360
0.093209364 0.064429313 0.12088964 4278255360
0.088120282 0.062880971 0.11585951 4278255360
0.082263067 0.061248682 0.11178187 4278255360
0.075802125 0.059578262 0.10877118 4278255360
0.068918779 0.057916593 0.10691193 4278255360
0.061806224 0.056310311 0.10625631 4278255360
0.054664087 0.0548045 0.10682271 4278255360
0.045725059 0.064241074 0.23693405 4278255360
0.052806087 0.065680109 0.2357565 4278255360
0.05961683 0.066956587 0.23339371 4278255360
0.065966129 0.068034679 0.22991197 4278255360
0.071675785 0.068884127 0.225409 4278255360
0.076585539 0.069481097 0.2200112 4278255360
0.080557607 0.069808826 0.21387005 4278255360
0.083480492 0.069858111 0.20715792 4278255360
0.085272163 0.069627583 0.20006318 4278255360
0.085882336 0.0691237 0.19278499 4278255360
0.085293882 0.068360619 0.18552759 4278255360
0.058926281 0.066791654 0.23322739 4278255360
0.065729409 0.068064384 0.23084077 4278255360
0.072067283 0.069138058 0.2273369 4278255360
0.077762008 0.069982521 0.22281414 4278255360
0.082653753 0.07057409 0.21739942 4278255360
0.086605236 0.070896149 0.2112447 4278255360
0.089505546 0.07093966 0.20452274 4278255360
0.091273278 0.07070341 0.19742221 4278255360
0.091858827 0.070194021 0.19014236 4278255360
0.091245741 0.069425799 0.18288755 4278255360
0.089451246 0.068420291 0.17586137 4278255360
0.071356848 0.068979546 0.22729349 4278255360
0.07768321 0.070048772 0.22376755 4278255360
0.083362937 0.070888251 0.21922505 4278255360
0.088236623 0.071474403 0.21379347 4278255360
0.092167482 0.071790792 0.20762527 4278255360
0.095045179 0.071828529 0.20089357 4278255360
0.09678895 0.071586557 0.19378729 4278255360
0.097349852 0.071071669 0.1865059 4278255360
0.09671215 0.070298314 0.17925374 4278255360
0.094893739 0.069288202 0.17223439 4278255360
0.091945656 0.068069674 0.16564482 4278255360
0.082653388 0.070740797 0.21930581 4278255360
0.088318057 0.071575269 0.21474361 4278255360
0.093173616 0.072156005 0.20929524 4278255360
0.0970838 0.072466716 0.20311363 4278255360
0.099938847 0.072498679 0.19637227 4278255360
0.10165864 0.072250992 0.18926035 4278255360
0.10219491 0.071730606 0.1819775 4278255360
0.10153259 0.070952132 0.1747281 4278255360
0.099690281 0.069937415 0.16771562 4278255360
0.09671969 0.068714939 0.16113691 4278255360
0.092704192 0.067319013 0.15517658 4278255360
0.092485696 0.072023921 0.20949784 4278255360
0.097323075 0.07259924 0.20403275 4278255360
0.10121253 0.072904266 0.19783778 4278255360
0.10404491 0.072930448 0.19108683 4278255360
0.1057407 0.072677046 0.18396936 4278255360
0.10625231 0.072151177 0.17668512 4278255360
0.10556538 0.071367592 0.16943857 4278255360
0.10369921 0.070348293 0.16243309 4278255360
0.10070615 0.069121875 0.15586528 4278255360
0.096670225 0.067722775 0.14991951 4278255360
0.091704696 0.06619025 0.14476265 4278255360
0.10056634 0.072791405 0.19815627 4278255360
0.10443503 0.073090754 0.19194804 4278255360
0.10724469 0.073111162 0.18518758 4278255360
0.10891646 0.072852045 0.17806463 4278255360
0.10940342 0.072320692 0.17077911 4278255360
0.10869189 0.071532011 0.16353548 4278255360
0.10680187 0.07050813 0.15653706 4278255360
0.10378639 0.069277801 0.14998026 4278255360
0.099730067 0.067875534 0.14404912 4278255360
0.094746776 0.066340707 0.13891011 4278255360
0.088976368 0.064716384 0.13470745 4278255360
0.10665913 0.073020831 0.18561265 4278255360
0.10944603 0.073035456 0.17884277 4278255360
0.11109376 0.072770633 0.17171443 4278255360
0.11155606 0.072233804 0.16442768 4278255360
0.11081995 0.071440034 0.15718707 4278255360
0.1089061 0.070411593 0.15019581 4278255360
0.10586821 0.069177344 0.1436501 4278255360
0.10179156 0.067771941 0.13773367 4278255360
0.096790567 0.06623482 0.13261256 4278255360
0.091005579 0.064609125 0.12843052 4278255360
0.084598966 0.062940486 0.12530492 4278255360
0.11058594 0.07270547 0.17223364 4278255360
0.1122096 0.072434947 0.16509999 4278255360
0.11264724 0.071892649 0.15781215 4278255360
0.11188655 0.07109379 0.15057464 4278255360
0.10994889 0.070060797 0.1435906 4278255360
0.10688864 0.068822667 0.13705604 4278255360
0.1027917 0.067414135 0.13115439 4278255360
0.09777306 0.065874748 0.12605126 4278255360
0.091973566 0.064247698 0.1218899 4278255360
0.085555993 0.062578663 0.11878708 4278255360
0.078700453 0.060914487 0.11682991 4278255360
0.11223199 0.071854562 0.15841036 4278255360
0.11264496 0.071306795 0.15112147 4278255360
0.11185969 0.07050287 0.14388715 4278255360
0.10989825 0.069465332 0.13691042 4278255360
0.10681569 0.06822332 0.13038711 4278255360
0.10269851 0.066811681 0.1245003 4278255360
0.097662285 0.065270044 0.11941521 4278255360
0.091848351 0.063641667 0.11527456 4278255360
0.085419886 0.061972257 0.11219457 4278255360
0.07855732 0.060308669 0.11026169 4278255360
0.071453251 0.058697596 0.10953015 4278255360
0.11154918 0.070492961 0.14454685 4278255360
0.11073936 0.069683969 0.13731579 4278255360
0.10875416 0.068641908 0.13034646 4278255360
0.10564931 0.067396037 0.12383447 4278255360
0.10151195 0.065981306 0.11796258 4278255360
0.096458189 0.064437427 0.11289559 4278255360
0.090629883 0.062807739 0.10877571 4278255360
0.084190607 0.061137978 0.10571858 4278255360
0.07732109 0.059475005 0.10381 4278255360
0.070214137 0.057865497 0.10310354 4278255360
0.063069209 0.056354623 0.10361903 4278255360
0.10855745 0.068660483 0.13104838 4278255360
0.10654852 0.067613907 0.12408654 4278255360
0.10342142 0.066364184 0.11758593 4278255360
0.099263914 0.064946383 0.11172903 4278255360
0.094192691 0.063400291 0.10668018 4278255360
0.088350087 0.06176931 0.10258113 4278255360
0.081900075 0.060099211 0.099546902 4278255360
0.075023696 0.058436871 0.097662657 4278255360
0.067913935 0.056828946 0.09698128 4278255360
0.06077034 0.055320565 0.097521901 4278255360
0.053793412 0.053954057 0.099269338 4278255360
0.065809511 0.067896843 0.22872639 4278255360
0.072627977 0.069177151 0.22638807 4278255360
0.078988925 0.070259765 0.22292908 4278255360
0.084713832 0.071114324 0.21844648 4278255360
0.089642011 0.071716823 0.21306612 4278255360
0.093635149 0.072050363 0.20693895 4278255360
0.096581168 0.072105587 0.20023699 4278255360
0.098397389 0.071880929 0.19314831 4278255360
0.099032827 0.071382709 0.18587188 4278255360
0.09846966 0.070624903 0.17861193 4278255360
0.096723691 0.069628783 0.17157221 4278255360
0.078278907 0.070100904 0.22288059 4278255360
0.0846285 0.071179114 0.21939944 4278255360
0.090338551 0.072028689 0.21489699 4278255360
0.095248781 0.072625801 0.20949963 4278255360
0.099221386 0.072953679 0.20335883 4278255360
0.10214486 0.073003121 0.19664696 4278255360
0.10393716 0.072772741 0.18955238 4278255360
0.10454798 0.072269008 0.18227424 4278255360
0.10396018 0.071506053 0.17501678 4278255360
0.10219025 0.070505299 0.16798368 4278255360
0.099287875 0.069294825 0.16137238 4278255360
0.089628555 0.071880698 0.21497269 4278255360
0.095323674 0.072725296 0.21045046 4278255360
0.1002159 0.073317006 0.20503618 4278255360
0.10416792 0.073639214 0.19888182 4278255360
0.10706883 0.073682874 0.19216011 4278255360
0.10883719 0.07344678 0.18505973 4278255360
0.10942338 0.072937533 0.17777993 4278255360
0.10881095 0.072169445 0.17052504 4278255360
0.10701708 0.071164064 0.16349868 4278255360
0.10409213 0.069949612 0.15689808 4278255360
0.10011818 0.068560168 0.15090846 4278255360
0.099526696 0.073184207 0.20523387 4278255360
0.10440085 0.073770508 0.19980274 4278255360
0.10833225 0.074087046 0.1936349 4278255360
0.11121054 0.074124932 0.18690345 4278255360
0.11295494 0.073883109 0.17979732 4278255360
0.1135165 0.073368371 0.17251597 4278255360
0.11287945 0.072595149 0.16526374 4278255360
0.11106166 0.071585156 0.15824421 4278255360
0.10811417 0.070366733 0.15165435 4278255360
0.1041197 0.068974085 0.14567915 4278255360
0.099190347 0.067446291 0.14048629 4278255360
0.10768398 0.073973328 0.19394879 4278255360
0.1115947 0.074284188 0.18776752 4278255360
0.11445034 0.0743163 0.18102641 4278255360
0.11617077 0.074068762 0.17391464 4278255360
0.11670768 0.073548526 0.16663182 4278255360
0.11604601 0.072770186 0.15938236 4278255360
0.11420434 0.071755596 0.15236971 4278255360
0.11123434 0.070533223 0.1457907 4278255360
0.10721938 0.06913738 0.13982998 4278255360
0.10227215 0.067607239 0.13465485 4278255360
0.096531488 0.065985754 0.13041057 4278255360
0.11386196 0.074224994 0.18144734 4278255360
0.11669492 0.074251324 0.17469664 4278255360
0.11839134 0.073998079 0.16757931 4278255360
0.11890361 0.073472351 0.1602951 4278255360
0.11821733 0.0726889 0.15304847 4278255360
0.11635178 0.07166972 0.14604281 4278255360
0.11335932 0.070443407 0.13947472 4278255360
0.10932393 0.069044389 0.13352856 4278255360
0.10435887 0.067511924 0.12837122 4278255360
0.098603487 0.065889031 0.12414745 4278255360
0.09221933 0.064221248 0.12097579 4278255360
0.11788003 0.073931843 0.16809496 4278255360
0.11955243 0.073672876 0.16097215 4278255360
0.12004004 0.073141672 0.15368666 4278255360
0.11932917 0.072353117 0.14644295 4278255360
0.11743977 0.071329363 0.13944434 4278255360
0.11442487 0.07009913 0.13288726 4278255360
0.11036909 0.068696953 0.12695573 4278255360
0.10538626 0.067162178 0.12181625 4278255360
0.099616244 0.065537892 0.11761305 4278255360
0.093220964 0.063869677 0.1144641 4278255360
0.086379923 0.062204354 0.11245778 4278255360
0.11962076 0.073102444 0.15428196 4278255360
0.1200837 0.072565757 0.14699526 4278255360
0.11934824 0.071772113 0.13975456 4278255360
0.11743502 0.070743792 0.1327631 4278255360
0.11439772 0.069509655 0.1262171 4278255360
0.1103216 0.068104334 0.12030028 4278255360
0.10532107 0.066567272 0.1151787 4278255360
0.099536471 0.064941615 0.11099612 4278255360
0.093130149 0.063272983 0.10786992 4278255360
0.086281911 0.061608218 0.10588785 4278255360
0.079183966 0.059994034 0.10510553 4278255360
0.11903325 0.071761049 0.14041212 4278255360
0.11827321 0.070962325 0.13317452 4278255360
0.11633617 0.069929451 0.12619029 4278255360
0.11327652 0.068691418 0.11965545 4278255360
0.10918012 0.067282967 0.1137534 4278255360
0.10416193 0.06574364 0.1086498 4278255360
0.098362818 0.064116627 0.10448789 4278255360
0.091945529 0.062447608 0.10138448 4278255360
0.085090183 0.060783409 0.099426664 4278255360
0.077989176 0.059170753 0.098669402 4278255360
0.070841812 0.057654891 0.099133939 4278255360
0.11613467 0.069946863 0.12689087 4278255360
0.11417386 0.068909451 0.11991396 4278255360
0.11109188 0.067667536 0.11339035 4278255360
0.10697524 0.066255979 0.10750315 4278255360
0.10193947 0.064714402 0.10241758 4278255360
0.096125916 0.063086055 0.098276384 4278255360
0.089697734 0.06141666 0.0951958 4278255360
0.082835354 0.059753057 0.09326227 4278255360
0.075731367 0.058141943 0.092530072 4278255360
0.068585165 0.056628533 0.093019761 4278255360
0.061597314 0.055255309 0.094717585 4278255360
0.11100976 0.067712918 0.11411348 4278255360
0.10790549 0.066467144 0.10760119 4278255360
0.10376866 0.065052494 0.10172889 4278255360
0.098715365 0.063508682 0.096661426 4278255360
0.092887439 0.061879024 0.092541002 4278255360
0.086448446 0.060209271 0.089483276 4278255360
0.079579115 0.058546282 0.087574057 4278255360
0.07247223 0.05693673 0.086866938 4278255360
0.065327272 0.055425793 0.087381765 4278255360
0.05834477 0.054055877 0.089104079 4278255360
0.051720697 0.052865431 0.091985554 4278255360
0.084368743 0.070939437 0.21730654 4278255360
0.090741269 0.072026573 0.21387033 4278255360
0.096481353 0.072886221 0.20940818 4278255360
0.10142789 0.073494248 0.2040453 4278255360
0.10544205 0.0738336 0.19793221 4278255360
0.10841116 0.073894747 0.1912405 4278255360
0.11025191 0.073675968 0.18415798 4278255360
0.11091261 0.073183417 0.17688341 4278255360
0.11037474 0.072430901 0.16962099 4278255360
0.10865337 0.071439549 0.16257453 4278255360
0.10579684 0.07023719 0.15594181 4278255360
0.095770948 0.072737694 0.20947883 4278255360
0.10149624 0.07359238 0.20499676 4278255360
0.10642489 0.07419502 0.19961683 4278255360
0.11041857 0.074528717 0.19349004 4278255360
0.11336518 0.074584082 0.18678834 4278255360
0.11518203 0.074359581 0.17969982 4278255360
0.11581812 0.073861502 0.17242344 4278255360
0.1152556 0.07310383 0.16516341 4278255360
0.11351026 0.072107837 0.15812352 4278255360
0.11063109 0.070901461 0.15150133 4278255360
0.10669888 0.069518574 0.1454827 4278255360
0.10573443 0.074061528 0.19980963 4278255360
0.11064514 0.074658781 0.19441271 4278255360
0.11461828 0.074986801 0.18827228 4278255360
0.11754236 0.075036399 0.18156067 4278255360
0.11933529 0.074806169 0.17446625 4278255360
0.11994676 0.074302576 0.16718814 4278255360
0.1193596 0.073539764 0.1599306 4278255360
0.1175903 0.072539128 0.15289734 4278255360
0.11468852 0.071328759 0.14628576 4278255360
0.11073568 0.069942631 0.14028141 4278255360
0.10584275 0.068419643 0.13505283 4278255360
0.11396796 0.07487224 0.18858159 4278255360
0.11792052 0.075194597 0.18242759 4278255360
0.12082201 0.075238414 0.17570615 4278255360
0.12259101 0.075002462 0.16860591 4278255360
0.12317785 0.074493371 0.16132616 4278255360
0.12256607 0.07372541 0.1540712 4278255360
0.12077282 0.072720155 0.14704466 4278255360
0.11784846 0.0715058 0.14044376 4278255360
0.11387506 0.070116445 0.13445376 4278255360
0.10896412 0.068591073 0.12924278 4278255360
0.1032535 0.066972502 0.12495705 4278255360
0.12023082 0.075146131 0.17612292 4278255360
0.12310971 0.075184174 0.16939172 4278255360
0.12485474 0.074942507 0.16228575 4278255360
0.12541695 0.074427903 0.15500444 4278255360
0.12478054 0.073654823 0.14775215 4278255360
0.12296339 0.072644949 0.14073242 4278255360
0.12001649 0.07142663 0.13414228 4278255360
0.11602255 0.070034064 0.12816671 4278255360
0.11109367 0.06850633 0.12297338 4278255360
0.10536819 0.066886313 0.11870808 4278255360
0.099006794 0.065219477 0.11549052 4278255360
0.12433998 0.074875198 0.16279781 4278255360
0.12606102 0.074627817 0.15568618 4278255360
0.12659858 0.074107721 0.14840341 4278255360
0.12593757 0.073329516 0.14115386 4278255360
0.12409652 0.072315045 0.13414103 4278255360
0.12112711 0.071092777 0.12756173 4278255360
0.11711269 0.069697015 0.12160064 4278255360
0.11216593 0.068166934 0.11642504 4278255360
0.10642566 0.066545486 0.11218022 4278255360
0.10005299 0.064878173 0.10898528 4278255360
0.093226783 0.063211791 0.10692993 4278255360
0.12617528 0.074067362 0.14899577 4278255360
0.1266882 0.073541775 0.14171161 4278255360
0.12600257 0.072758466 0.1344649 4278255360
0.12413765 0.071739405 0.12745905 4278255360
0.12114577 0.070513196 0.12089068 4278255360
0.11711092 0.06911426 0.11494415 4278255360
0.11214633 0.067581855 0.10978634 4278255360
0.10639133 0.065958999 0.10556202 4278255360
0.10000747 0.064291231 0.10238977 4278255360
0.093173899 0.062625356 0.1003586 4278255360
0.086082429 0.061008144 0.099525534 4278255360
0.1256831 0.072746232 0.13512029 4278255360
0.12497288 0.071957819 0.12787651 4278255360
0.12308411 0.070934176 0.12087771 4278255360
0.1200698 0.069704048 0.11432034 4278255360
0.11601456 0.068301953 0.10838842 4278255360
0.1110322 0.066767246 0.10324847 4278255360
0.10526256 0.065142989 0.099044725 4278255360
0.098867573 0.063474789 0.095895179 4278255360
0.092026725 0.06180945 0.093888223 4278255360
0.084932014 0.060193721 0.093080193 4278255360
0.077782564 0.05867295 0.093493767 4278255360
0.12287782 0.070950426 0.12157693 4278255360
0.12096523 0.069922224 0.11458527 4278255360
0.11792852 0.068688191 0.10803898 4278255360
0.11385294 0.067282952 0.10212177 4278255360
0.10885287 0.06574595 0.096999727 4278255360
0.10306865 0.06412033 0.092816606 4278255360
0.096662618 0.062451709 0.089689806 4278255360
0.089814566 0.060786925 0.087707087 4278255360
0.082716711 0.059172701 0.086924113 4278255360
0.075568244 0.057654344 0.087362841 4278255360
0.068569817 0.056274466 0.089010961 4278255360
0.11784144 0.068732448 0.1087616 4278255360
0.11478238 0.067494519 0.10222647 4278255360
0.11068651 0.066086151 0.096324027 4278255360
0.10566879 0.064546883 0.091219954 4278255360
0.099870056 0.062919907 0.087057501 4278255360
0.093453057 0.061250892 0.083953485 4278255360
0.086597897 0.059586681 0.081995033 4278255360
0.079496965 0.057973981 0.081237115 4278255360
0.072349578 0.05645806 0.081700988 4278255360
0.065356322 0.055081457 0.083373651 4278255360
0.058713488 0.053882811 0.08620815 4278255360
0.11072119 0.066157125 0.097048931 4278255360
0.10660508 0.06474565 0.09116134 4278255360
0.10156978 0.063204125 0.086075298 4278255360
0.095756598 0.061575823 0.081933558 4278255360
0.089328706 0.059906431 0.07885237 4278255360
0.082466505 0.058242813 0.0769182 4278255360
0.0753626 0.056631658 0.076185346 4278255360
0.068216361 0.055118185 0.076674372 4278255360
0.061228376 0.053744875 0.078371547 4278255360
0.054594755 0.052550267 0.081229247 4278255360
0.048501693 0.051567893 0.085167259 4278255360
0.10090362 0.073287025 0.20298165 4278255360
0.1066588 0.074151754 0.19853997 4278255360
0.11162364 0.074765302 0.19319466 4278255360
0.11565877 0.075110458 0.18709573 4278255360
0.11865095 0.075177528 0.18041435 4278255360
0.12051619 0.074964635 0.17333806 4278255360
0.12120215 0.074477747 0.16606545 4278255360
0.12068957 0.073730536 0.15880065 4278255360
0.11899284 0.072743967 0.15174755 4278255360
0.11615959 0.071545735 0.14510411 4278255360
0.11226932 0.070169471 0.13905679 4278255360
0.11093196 0.07463111 0.19338255 4278255360
0.11587897 0.075239286 0.18802013 4278255360
0.11989366 0.075578786 0.1819074 4278255360
0.12286337 0.075640082 0.17521596 4278255360
0.12470475 0.07542146 0.16813359 4278255360
0.12536611 0.074929044 0.16085908 4278255360
0.12482888 0.074176669 0.15359658 4278255360
0.12310814 0.073185436 0.14654996 4278255360
0.12025221 0.071983181 0.13991696 4278255360
0.11634122 0.070603639 0.13388377 4278255360
0.11148494 0.069085531 0.1286197 4278255360
0.11924131 0.075463377 0.1822121 4278255360
0.12323552 0.075797215 0.17608567 4278255360
0.12618273 0.075852737 0.16938423 4278255360
0.12800021 0.075628385 0.16229586 4278255360
0.12863694 0.075130455 0.15501954 4278255360
0.12807508 0.074372917 0.14775944 4278255360
0.12633036 0.073377043 0.14071937 4278255360
0.12345178 0.072170779 0.13409691 4278255360
0.11952013 0.070787974 0.12807791 4278255360
0.11464573 0.069267444 0.12283131 4278255360
0.10896541 0.067651868 0.11850439 4278255360
0.12558877 0.075759485 0.16979682 4278255360
0.12851344 0.075809233 0.16308546 4278255360
0.13030699 0.075579159 0.1559912 4278255360
0.13091911 0.075075708 0.14871314 4278255360
0.1303326 0.07431303 0.14145553 4278255360
0.12856394 0.073312514 0.13442211 4278255360
0.12566274 0.072102256 0.12781024 4278255360
0.12171046 0.07071621 0.12180552 4278255360
0.116818 0.069193281 0.11657646 4278255360
0.11112269 0.067576215 0.11226985 4278255360
0.10478438 0.065910399 0.10900654 4278255360
0.12978879 0.075510785 0.15649964 4278255360
0.13155842 0.075274989 0.14939955 4278255360
0.1321459 0.074766032 0.14211984 4278255360
0.13153477 0.073998213 0.13486482 4278255360
0.12974216 0.072993077 0.1278381 4278255360
0.12681839 0.071778834 0.12123693 4278255360
0.12284552 0.070389561 0.11524654 4278255360
0.11793506 0.068864249 0.11003509 4278255360
0.11222482 0.067245714 0.10574884 4278255360
0.10587508 0.065579385 0.10250809 4278255360
0.099064037 0.063912027 0.10040379 4278255360
0.13171859 0.074724548 0.14270926 4278255360
0.13228144 0.074210092 0.13542798 4278255360
0.13164568 0.073437139 0.12817562 4278255360
0.12982917 0.072427392 0.12115572 4278255360
0.12688285 0.071209177 0.1145653 4278255360
0.12288945 0.069816694 0.10858933 4278255360
0.11796105 0.068289027 0.10339554 4278255360
0.11223596 0.066669047 0.099129707 4278255360
0.10587486 0.065002218 0.095911548 4278255360
0.099056289 0.063335329 0.09383139 4278255360
0.091971636 0.06171516 0.092947617 4278255360
0.13132177 0.073423743 0.12882878 4278255360
0.1306614 0.072645679 0.12157917 4278255360
0.12882099 0.071631327 0.11456615 4278255360
0.12585217 0.070409156 0.10798658 4278255360
0.12183829 0.069013484 0.1020251 4278255360
0.11689199 0.06748347 0.096849039 4278255360
0.11115211 0.06586206 0.092603669 4278255360
0.10477974 0.064194754 0.089408144 4278255360
0.097953722 0.062528357 0.087352149 4278255360
0.090865657 0.06090964 0.086493388 4278255360
0.08371447 0.059384026 0.08685597 4278255360
0.12860993 0.071646415 0.11526398 4278255360
0.12674563 0.070627473 0.10825794 4278255360
0.12375435 0.069401368 0.10168928 4278255360
0.11972003 0.068002522 0.09574236 4278255360
0.11475591 0.066470176 0.090584084 4278255360
0.1090013 0.06484735 0.086359225 4278255360
0.10261773 0.063179597 0.083186373 4278255360
0.095784359 0.061513714 0.08115457 4278255360
0.088692971 0.059896458 0.080320843 4278255360
0.081542596 0.058373224 0.080708593 4278255360
0.074533924 0.056986764 0.082306929 4278255360
0.12366233 0.069444507 0.10241136 4278255360
0.12064861 0.068214476 0.095853694 4278255360
0.1165939 0.066812463 0.0899214 4278255360
0.11161201 0.065277815 0.084780976 4278255360
0.10584275 0.063653603 0.080576688 4278255360
0.099448062 0.061985407 0.077426545 4278255360
0.092607401 0.060320057 0.075418949 4278255360
0.08551278 0.058704291 0.074610263 4278255360
0.078363299 0.057183452 0.075023174 4278255360
0.071359642 0.055800233 0.07664609 4278255360
0.064698368 0.054593451 0.079433471 4278255360
0.1166236 0.066882379 0.090646625 4278255360
0.11254856 0.065477222 0.084729031 4278255360
0.10754895 0.063940287 0.079606511 4278255360
0.10176512 0.0623147 0.075422846 4278255360
0.09535937 0.060646091 0.07229545 4278255360
0.088511512 0.058981292 0.070312098 4278255360
0.081413738 0.057367031 0.069528453 4278255360
0.074265249 0.05584861 0.069966525 4278255360
0.06726668 0.054468647 0.071613997 4278255360
0.060614463 0.053265873 0.074424647 4278255360
0.054495297 0.052274045 0.078319579 4278255360
0.10769951 0.064034939 0.08031369 4278255360
0.10268226 0.062495731 0.075209141 4278255360
0.0968839 0.060868792 0.071046144 4278255360
0.090467185 0.059199788 0.067941532 4278255360
0.083612211 0.057535563 0.065982439 4278255360
0.076511361 0.055922821 0.065223858 4278255360
0.069363944 0.054406833 0.065687075 4278255360
0.06237055 0.053030144 0.06735909 4278255360
0.055727474 0.051831394 0.07019297 4278255360
0.049621154 0.05084423 0.074109189 4278255360
0.044222973 0.050096352 0.078997828 4278255360
0.11496941 0.074876457 0.18613699 4278255360
0.11995248 0.075495526 0.1808093 4278255360
0.12400854 0.075846478 0.17472461 4278255360
0.12702373 0.075919479 0.16805364 4278255360
0.12891346 0.075712465 0.16098368 4278255360
0.12962466 0.075231254 0.15371312 4278255360
0.12913738 0.074489355 0.14644603 4278255360
0.12746531 0.073507585 0.13938637 4278255360
0.12465537 0.072313495 0.1327323 4278255360
0.12078641 0.070940606 0.12667055 4278255360
0.11596704 0.069427453 0.12137127 4278255360
0.12335419 0.075730234 0.17502467 4278255360
0.12738986 0.076075539 0.1689261 4278255360
0.13038263 0.076142758 0.16224499 4278255360
0.13224849 0.075930014 0.15516886 4278255360
0.13293511 0.075443275 0.1478963 4278255360
0.13242318 0.074696198 0.14063145 4278255360
0.13072708 0.073709756 0.13357818 4278255360
0.12789442 0.072511628 0.12693447 4278255360
0.12400469 0.071135446 0.12088677 4278255360
0.11916708 0.069619842 0.11560483 4278255360
0.11351735 0.068007335 0.11123691 4278255360
0.12978593 0.076048546 0.1626534 4278255360
0.13275622 0.076109998 0.15596221 4278255360
0.13459823 0.075891517 0.14888 4278255360
0.13526022 0.07539925 0.14160554 4278255360
0.13472365 0.074647009 0.13434298 4278255360
0.13300355 0.073655903 0.12729619 4278255360
0.1301482 0.072453752 0.12066292 4278255360
0.12623776 0.0710743 0.11462935 4278255360
0.12138197 0.069556251 0.10936483 4278255360
0.11571711 0.067942224 0.1050171 4278255360
0.10940218 0.066277511 0.10170821 4278255360
0.1340766 0.075822085 0.1493848 4278255360
0.1358947 0.07559789 0.1422966 4278255360
0.1365321 0.075100102 0.1350203 4278255360
0.13597088 0.074342698 0.12776016 4278255360
0.1342268 0.07334695 0.12071991 4278255360
0.1313488 0.072140783 0.11409716 4278255360
0.12741768 0.070758067 0.10807779 4278255360
0.12254377 0.069237605 0.10283075 4278255360
0.11686385 0.067622066 0.098503277 4278255360
0.11053734 0.065956801 0.095216863 4278255360
0.1037418 0.064288542 0.09306372 4278255360
0.1361008 0.075057484 0.13560674 4278255360
0.13671356 0.074554183 0.12832871 4278255360
0.13612771 0.073791638 0.12107105 4278255360
0.13435967 0.072791249 0.11403744 4278255360
0.13145907 0.071581088 0.10742529 4278255360
0.12750733 0.070195124 0.10142019 4278255360
0.12261535 0.068672262 0.096190676 4278255360
0.11692043 0.06705524 0.091883525 4278255360
0.11058242 0.065389439 0.088619627 4278255360
0.10377919 0.063721612 0.086490579 4278255360
0.096701689 0.06209857 0.085556135 4278255360
0.13579936 0.07377708 0.12172197 4278255360
0.13518888 0.073009394 0.11446688 4278255360
0.13339689 0.072004378 0.10743999 4278255360
0.13047372 0.070790239 0.10083853 4278255360
0.1265014 0.069401048 0.094847761 4278255360
0.12159141 0.067875803 0.089635849 4278255360
0.11588156 0.066257313 0.085349061 4278255360
0.10953212 0.064590991 0.082107715 4278255360
0.10272128 0.062923618 0.080002777 4278255360
0.095640205 0.061301988 0.079093337 4278255360
0.088487633 0.059771609 0.079404913 4278255360
0.13318108 0.072018303 0.10813638 4278255360
0.13136519 0.071008675 0.10111629 4278255360
0.12841947 0.069790564 0.094525591 4278255360
0.12442662 0.06839817 0.088549241 4278255360
0.11949868 0.066870563 0.083354987 4278255360
0.11377398 0.06525062 0.079088613 4278255360
0.10741318 0.063583806 0.075869858 4278255360
0.10059481 0.061916903 0.073789068 4278255360
0.09351024 0.060296696 0.072904631 4278255360
0.086358309 0.058768664 0.073241383 4278255360
0.07933975 0.057375684 0.074789867 4278255360
0.12832251 0.069832571 0.095247082 4278255360
0.12535429 0.068610512 0.088667221 4278255360
0.12134095 0.067214921 0.082705356 4278255360
0.11639512 0.065684967 0.077528827 4278255360
0.11065562 0.064063594 0.07328292 4278255360
0.10428355 0.062396303 0.0700868 4278255360
0.097457729 0.060729895 0.068030164 4278255360
0.090369754 0.059111137 0.067170754 4278255360
0.083218545 0.057585459 0.067532673 4278255360
0.076204829 0.056195691 0.069105767 4278255360
0.069525436 0.054980829 0.071845889 4278255360
0.12136566 0.067283779 0.083430871 4278255360
0.11733188 0.065885007 0.077483565 4278255360
0.11236822 0.064352728 0.07232482 4278255360
0.106614 0.06272994 0.068099424 4278255360
0.10023072 0.061062194 0.064925976 4278255360
0.093397543 0.0593963 0.062893532 4278255360
0.086306244 0.057779007 0.062059149 4278255360
0.079155847 0.056255709 0.062446237 4278255360
0.072147049 0.054869164 0.064043932 4278255360
0.065476559 0.053658281 0.066807389 4278255360
0.059331592 0.052657053 0.070659056 4278255360
0.11251389 0.064446419 0.073033147 4278255360
0.10753246 0.062911831 0.067892246 4278255360
0.1017636 0.061287653 0.063687421 4278255360
0.09536919 0.059619471 0.060536679 4278255360
0.088528723 0.057954106 0.058528449 4278255360
0.081434183 0.056338299 0.057719104 4278255360
0.074284688 0.054817401 0.058131352 4278255360
0.067280896 0.053434093 0.059753623 4278255360
0.06061938 0.052227207 0.06254039 4278255360
0.054487109 0.051230613 0.066413432 4278255360
0.049056195 0.050472278 0.071264051 4278255360
0.10202597 0.061403446 0.064357854 4278255360
0.09624251 0.059777897 0.060173642 4278255360
0.089837059 0.058109298 0.057045642 4278255360
0.082989387 0.056444485 0.055061653 4278255360
0.075891696 0.054830182 0.054277353 4278255360
0.068743177 0.053311698 0.054714758 4278255360
0.061744474 0.051931649 0.05636159 4278255360
0.055092018 0.050728768 0.059171624 4278255360
0.048972517 0.04973682 0.063065998 4278255360
0.043557726 0.048983645 0.067935407 4278255360
0.038999617 0.048490375 0.073643185 4278255360
0.12618783 0.075664997 0.1672256 4278255360
0.13026476 0.076021746 0.16115519 4278255360
0.13330294 0.07610067 0.15449475 4278255360
0.13521712 0.075899541 0.14743118 4278255360
0.13595356 0.075424016 0.14016277 4278255360
0.13549159 0.074687436 0.13289349 4278255360
0.1338442 0.073710471 0.12582737 4278255360
0.13105759 0.072520547 0.11916273 4278255360
0.12721001 0.071151055 0.11308664 4278255360
0.12240941 0.069640435 0.10776962 4278255360
0.11679055 0.068031088 0.1033609 4278255360
0.13270353 0.076005496 0.15489893 4278255360
0.13571931 0.076078646 0.14822824 4278255360
0.13760966 0.075871781 0.14115843 4278255360
0.13832152 0.075390719 0.13388793 4278255360
0.13783489 0.074648954 0.12662078 4278255360
0.13616346 0.073667303 0.11956096 4278255360
0.1333541 0.072473325 0.11290661 4278255360
0.1294857 0.071100526 0.1068445 4278255360
0.1246668 0.069587432 0.10154476 4278255360
0.11903267 0.067976519 0.097156145 4278255360
0.11274144 0.066312999 0.093801826 4278255360
0.13708466 0.075801291 0.14165956 4278255360
0.13895117 0.075588696 0.13458359 4278255360
0.13963841 0.075102106 0.12731108 4278255360
0.13912714 0.074355163 0.12004616 4278255360
0.13743167 0.07336884 0.11299273 4278255360
0.13459961 0.072170824 0.10634874 4278255360
0.13071042 0.070794731 0.10030067 4278255360
0.1258733 0.069279186 0.095018283 4278255360
0.12022397 0.067666724 0.090649821 4278255360
0.113921 0.0660026 0.087317891 4278255360
0.1071413 0.064333528 0.085116021 4278255360
0.13920316 0.075058363 0.12789449 4278255360
0.13986582 0.074566238 0.12062008 4278255360
0.13932988 0.073814131 0.11335747 4278255360
0.13761042 0.072823152 0.10631049 4278255360
0.13475567 0.071621105 0.099676952 4278255360
0.13084577 0.070241734 0.09364301 4278255360
0.12599047 0.068723753 0.088378027 4278255360
0.120326 0.067109764 0.084029771 4278255360
0.11401137 0.065445065 0.080720283 4278255360
0.10722382 0.063776389 0.078542449 4278255360
0.10015383 0.062150553 0.077557392 4278255360
0.13899712 0.073798411 0.11400612 4278255360
0.13843654 0.073041148 0.1067459 4278255360
0.13669309 0.07204552 0.09970548 4278255360
0.13381571 0.070839465 0.093082458 4278255360
0.12988512 0.069456831 0.087062709 4278255360
0.12501168 0.067936428 0.081815198 4278255360
0.11933216 0.066320933 0.0774872 4278255360
0.11300596 0.064655684 0.074200191 4278255360
0.10621062 0.06298741 0.072046421 4278255360
0.099136882 0.061362948 0.07108634 4278255360
0.091983281 0.059827883 0.071346894 4278255360
0.13647254 0.072058283 0.1004004 4278255360
0.13470513 0.071058013 0.093366615 4278255360
0.13180512 0.069847964 0.086754188 4278255360
0.12785392 0.068462089 0.080748715 4278255360
0.12296242 0.066939287 0.075518742 4278255360
0.11726789 0.065322302 0.071211055 4278255360
0.11093017 0.063656509 0.067946553 4278255360
0.10412715 0.061988674 0.065816872 4278255360
0.097049743 0.060365599 0.064881779 4278255360
0.089896604 0.058832835 0.065167509 4278255360
0.082868494 0.057433408 0.066666059 4278255360
0.13170321 0.069888838 0.087475069 4278255360
0.12878063 0.068674803 0.080873325 4278255360
0.12480886 0.067285702 0.074882187 4278255360
0.11989934 0.065760516 0.069669813 4278255360
0.11418989 0.064142063 0.065382488 4278255360
0.10784074 0.062475756 0.062140543 4278255360
0.1010301 0.060808372 0.060034975 4278255360
0.093949117 0.059186701 0.059124876 4278255360
0.08679653 0.057656262 0.059435789 4278255360
0.079773091 0.056260012 0.060958989 4278255360
0.073075913 0.05503713 0.063651726 4278255360
0.12482858 0.067353494 0.075607955 4278255360
0.12083627 0.065961182 0.069631234 4278255360
0.11590879 0.064433634 0.06443651 4278255360
0.11018448 0.062813729 0.0601696 4278255360
0.10382398 0.061146926 0.056950253 4278255360
0.097005814 0.059480011 0.054868821 4278255360
0.089921333 0.057859767 0.053983729 4278255360
0.082769386 0.056331672 0.054319818 4278255360
0.075750694 0.054938611 0.05586765 4278255360
0.069062255 0.053719681 0.058583789 4278255360
0.062891789 0.052709095 0.062392 4278255360
0.11604958 0.064526357 0.065145954 4278255360
0.11110423 0.062996469 0.059968956 4278255360
0.10536512 0.06137513 0.055722509 4278255360
0.098993339 0.059707854 0.052525789 4278255360
0.09216772 0.058041431 0.050468523 4278255360
0.085079834 0.056422632 0.04960845 4278255360
0.077928603 0.054896895 0.049969707 4278255360
0.070914753 0.053507041 0.051542159 4278255360
0.064235136 0.052292075 0.054281667 4278255360
0.058077212 0.051286101 0.058111347 4278255360
0.052613828 0.05051735 0.062923707 4278255360
0.10562285 0.061490081 0.056394883 4278255360
0.09986902 0.059867334 0.052168947 4278255360
0.093486033 0.058199599 0.048994899 4278255360
0.086653046 0.056533687 0.046961822 4278255360
0.07956183 0.054916356 0.046126775 4278255360
0.072411411 0.053392995 0.0465132 4278255360
0.065402485 0.052006364 0.048110247 4278255360
0.058731757 0.05079538 0.050873093 4278255360
0.052586459 0.049794026 0.054724198 4278255360
0.047139063 0.049030412 0.059555471 4278255360
0.042542465 0.04852597 0.065231316 4278255360
0.093853168 0.058333412 0.049610551 4278255360
0.087459058 0.056665242 0.046459213 4278255360
0.080618784 0.054999862 0.044450346 4278255360
0.073524326 0.053384017 0.043640338 4278255360
0.066374801 0.051863052 0.044051927 4278255360
0.059370879 0.050479662 0.045673549 4278255360
0.052709129 0.049272671 0.048459701 4278255360
0.046576522 0.048275951 0.052332185 4278255360
0.041145183 0.047517482 0.057182308 4278255360
0.03656755 0.047018554 0.062873945 4278255360
0.032972105 0.046793163 0.069247358 4278255360
0.13425715 0.075631425 0.1467561 4278255360
0.13731828 0.075716272 0.14010625 4278255360
0.13925689 0.075521037 0.13304918 4278255360
0.14001857 0.075051196 0.125783 4278255360
0.13958192 0.074319944 0.1185116 4278255360
0.13795921 0.073347807 0.11143911 4278255360
0.13519599 0.072162054 0.10476401 4278255360
0.13136981 0.070795976 0.098673642 4278255360
0.12658805 0.069287919 0.093338944 4278255360
0.12098493 0.067680195 0.088909648 4278255360
0.1147177 0.066017941 0.085510068 4278255360
0.13872853 0.075449489 0.13354661 4278255360
0.14064333 0.075248517 0.12648322 4278255360
