# .PCD v0.7 - Point Cloud Data file format
VERSION 0.7
FIELDS x y z rgb
SIZE 4 4 4 4
TYPE F F F U
COUNT 1 1 1 1
WIDTH 81
HEIGHT 1
VIEWPOINT 0 0 0 1 0 0 0
POINTS 81
DATA ascii
0.036104683 0.052054856 0.24199794 4278255360
0.051588137 0.048640307 0.23346527 4278255360
0.06226125 0.045561396 0.21929459 4278255360
0.066503048 0.04544786 0.22635141 4278255360
0.076995723 0.042387947 0.21204254 4278255360
0.080827378 0.040200431 0.19458584 4278255360
0.087556735 0.039450832 0.19927181 4278255360
0.091168605 0.037296731 0.18176417 4278255360
0.087468617 0.036394648 0.1641659 4278255360
0.085164562 0.041808221 0.22150536 4278255360
0.096021079 0.038710319 0.20747887 4278255360
0.10029615 0.036456175 0.19013397 4278255360
0.10690688 0.035742003 0.19499122 4278255360
0.11096346 0.033520557 0.1775897 4278255360
0.10771011 0.032534204 0.15990791 4278255360
0.11567793 0.031308003 0.1615856 4278255360
0.11220387 0.030363159 0.14394356 4278255360
0.10200811 0.030822264 0.12910986 4278255360
0.12209675 0.032086108 0.1831217 4278255360
0.12659538 0.029798781 0.16583778 4278255360
0.12379081 0.028728805 0.14808412 4278255360
0.13171645 0.027527859 0.14996734 4278255360
0.12869015 0.026499068 0.13224769 4278255360
0.1188705 0.026871137 0.11715997 4278255360
0.12680641 0.025363846 0.11556189 4278255360
0.11680033 0.025778903 0.1005983 4278255360
0.10173441 0.027525997 0.090894245 4278255360
0.036455683 0.055126838 0.24172917 4278255360
0.052140389 0.053473651 0.2330424 4278255360
0.062952228 0.051608887 0.2187655 4278255360
0.067249157 0.051977888 0.2257801 4278255360
0.077878214 0.050111599 0.2113668 4278255360
0.081759676 0.048359964 0.19387197 4278255360
0.088576496 0.048375878 0.19849096 4278255360
0.092235312 0.046632655 0.18094738 4278255360
0.08848723 0.04530967 0.16338593 4278255360
0.086153232 0.05046114 0.22074832 4278255360
0.097150855 0.048598249 0.20661379 4278255360
0.1014815 0.046830431 0.18922634 4278255360
0.10817815 0.046868276 0.19401778 4278255360
0.11228745 0.045108296 0.17657591 4278255360
0.10899182 0.043751851 0.1589265 4278255360
0.11706321 0.043432053 0.16052487 4278255360
0.11354399 0.042092007 0.14291742 4278255360
0.10321572 0.041391268 0.1281852 4278255360
0.12356546 0.044940345 0.18199709 4278255360
0.12812255 0.043164771 0.16466841 4278255360
0.12528153 0.041775756 0.14694266 4278255360
0.13331018 0.04147641 0.14874701 4278255360
0.13024455 0.040103354 0.13105747 4278255360
0.12029728 0.039358366 0.11606748 4278255360
0.12833634 0.038753845 0.11439042 4278255360
0.1182002 0.038030632 0.099526413 4278255360
0.10293844 0.038063865 0.089972302 4278255360
0.036455695 0.058218658 0.24145868 4278255360
0.052140404 0.058338206 0.23261681 4278255360
0.062952243 0.05769543 0.218233 4278255360
0.067249179 0.058550082 0.22520511 4278255360
0.077878237 0.057885122 0.21068671 4278255360
0.081759691 0.056572184 0.1931535 4278255360
0.088576518 0.057358555 0.19770509 4278255360
0.092235342 0.056028865 0.18012533 4278255360
0.088487253 0.054282259 0.16260093 4278255360
0.086153254 0.059169929 0.21998639 4278255360
0.097150885 0.058550026 0.20574312 4278255360
0.10148153 0.057271671 0.18831286 4278255360
0.10817818 0.05806639 0.19303808 4278255360
0.11228748 0.056770861 0.17555557 4278255360
0.10899185 0.055041932 0.15793875 4278255360
0.11706324 0.055634387 0.15945731 4278255360
0.11354402 0.053896591 0.14188465 4278255360
0.10321574 0.052028514 0.12725456 4278255360
0.1235655 0.057877582 0.18086524 4278255360
0.12812258 0.056617066 0.16349149 4278255360
0.12528157 0.054906949 0.14579383 4278255360
0.13331021 0.055515025 0.14751878 4278255360
0.13024458 0.053795487 0.12985957 4278255360
0.12029731 0.051926225 0.11496793 4278255360
0.12833637 0.052230302 0.11321138 4278255360
0.11820023 0.050361473 0.098447599 4278255360
0.10293847 0.048669774 0.089044407 4278255360
