# .PCD v0.7 - Point Cloud Data file format
VERSION 0.7
FIELDS x y z rgb
SIZE 4 4 4 4
TYPE F F F U
COUNT 1 1 1 1
WIDTH 625
HEIGHT 1
VIEWPOINT 0 0 0 1 0 0 0
POINTS 625
DATA ascii
-0.034559086 0.078077577 0.23179328 4278255360
-0.021462796 0.072010621 0.23877665 4278255360
-0.0071809595 0.064844266 0.24010356 4278255360
0.0063637644 0.057543259 0.23559533 4278255360
0.017347943 0.051090498 0.22585891 4278255360
-0.0085678138 0.065718137 0.24200901 4278255360
0.005718336 0.058538988 0.2432148 4278255360
0.019227926 0.051245715 0.23859015 4278255360
0.030142255 0.04482016 0.22875766 4278255360
0.036992002 0.040127356 0.215041 4278255360
0.018585626 0.051780619 0.24096063 4278255360
0.032059304 0.044495493 0.23621982 4278255360
0.042903151 0.038097523 0.22629182 4278255360
0.049657341 0.033448022 0.21251316 4278255360
0.051412605 0.031172916 0.19673879 4278255360
0.043095432 0.038218483 0.22879507 4278255360
0.053868175 0.031848468 0.21877213 4278255360
0.060526416 0.027242534 0.20493229 4278255360
0.062173806 0.025020752 0.18913868 4278255360
0.058588568 0.025482224 0.1735175 4278255360
0.061526328 0.026932595 0.20721744 4278255360
0.068088241 0.0223705 0.19331719 4278255360
0.069627658 0.020202171 0.17750528 4278255360
0.065937355 0.020719511 0.16191034 4278255360
0.057514116 0.023852881 0.14863181 4278255360
0.0076139038 0.05754232 0.24287076 4278255360
0.021890458 0.050389525 0.24432187 4278255360
0.035470426 0.043081027 0.23993342 4278255360
0.046525631 0.036600724 0.23029618 4278255360
0.053567789 0.031821009 0.21670756 4278255360
0.034795143 0.043631632 0.24229109 4278255360
0.048340779 0.036330432 0.23778594 4278255360
0.059326787 0.029876957 0.22805205 4278255360
0.066274196 0.025139991 0.21439984 4278255360
0.068247721 0.022757243 0.1986672 4278255360
0.059484661 0.03001559 0.23055679 4278255360
0.070400834 0.023589317 0.22072682 4278255360
0.077253096 0.018895375 0.20701179 4278255360
0.07911896 0.016565681 0.19125809 4278255360
0.075747252 0.016913861 0.17558651 4278255360
0.078221999 0.018602608 0.20931251 4278255360
0.084978707 0.013951962 0.19553548 4278255360
0.086736813 0.011675455 0.17976162 4278255360
0.08325962 0.012079557 0.16411445 4278255360
0.075015247 0.015109867 0.15070044 4278255360
0.088380948 0.010992319 0.18153587 4278255360
0.090031177 0.0087691322 0.16574275 4278255360
0.086448707 0.0092291329 0.1501209 4278255360
0.078115813 0.012310394 0.13677335 4278255360
0.066154301 0.017598107 0.127497 4278255360
0.049978677 0.035401084 0.23670961 4278255360
0.063593067 0.028085539 0.23244117 4278255360
0.074718624 0.021578088 0.22290371 4278255360
0.081857607 0.016754786 0.20938118 4278255360
0.084048927 0.014264958 0.19369403 4278255360
0.074842058 0.021734362 0.22540934 4278255360
0.085899077 0.015253358 0.21577466 4278255360
0.092943721 0.010472521 0.20218772 4278255360
0.095027626 0.0080354661 0.18647765 4278255360
0.091870241 0.0082702739 0.17075938 4278255360
0.093881398 0.010196994 0.20450346 4278255360
0.10083131 0.0054589007 0.19085291 4278255360
0.10280766 0.0030747573 0.17512085 4278255360
0.099544413 0.0033655241 0.15942515 4278255360
0.091480859 0.0062920572 0.14587884 4278255360
0.10442816 0.0024060444 0.17692213 4278255360
0.10629686 7.4951276e-05 0.16116896 4278255360
0.10292793 0.00042166025 0.14549676 4278255360
0.094774894 0.0033994964 0.13201533 4278255360
0.082935356 0.0086075738 0.1225396 4278255360
0.10500411 -0.0005465112 0.14653112 4278255360
0.1015297 -0.00014388018 0.13088329 4278255360
0.093287654 0.0028850867 0.11746754 4278255360
0.081387572 0.0081326207 0.10808993 4278255360
0.067431457 0.014892283 0.10401291 4278255360
0.087067932 0.014511267 0.21410494 4278255360
0.098263167 0.0079770656 0.20466782 4278255360
0.10549853 0.0031104684 0.19121219 4278255360
0.10779998 0.00056662981 0.17554949 4278255360
0.10485768 0.00068800937 0.15978827 4278255360
0.10640475 0.0028522457 0.19354241 4278255360
0.11354621 -0.001972171 0.18002158 4278255360
0.11574036 -0.0044633853 0.16433504 4278255360
0.11269183 -0.0042860229 0.14859454 4278255360
0.10481101 -0.0014639605 0.13491914 4278255360
0.11733682 -0.0051175174 0.16616294 4278255360
0.11942355 -0.0075559639 0.15045346 4278255360
0.11626896 -0.0073226285 0.1347346 4278255360
0.10829773 -0.0044489237 0.1211225 4278255360
0.096582957 0.0006782834 0.11144964 4278255360
0.11833192 -0.0082809869 0.135804 4278255360
0.11507145 -0.0079916921 0.1201077 4278255360
0.10701025 -0.0050665117 0.10655968 4278255360
0.09523356 0.00010075908 0.096983828 4278255360
0.081326775 0.0068144859 0.092669263 4278255360
0.10925055 -0.0061947736 0.10672068 4278255360
0.10109986 -0.0032182855 0.093237534 4278255360
0.089261927 0.00198875 0.083759233 4278255360
0.075330384 0.0087253461 0.079561777 4278255360
0.061180748 0.016084602 0.081210233 4278255360
0.11409517 -0.0024312374 0.17797396 4278255360
0.12142649 -0.0073408335 0.16458605 4278255360
0.1238379 -0.0099385278 0.14894874 4278255360
0.1210048 -0.0098746121 0.13316719 4278255360
0.11330859 -0.0071576899 0.11936593 4278255360
0.12540996 -0.010577924 0.15080284 4278255360
0.12771423 -0.013123145 0.13514076 4278255360
0.12477472 -0.013003239 0.119379 4278255360
0.11698717 -0.010234348 0.10563944 4278255360
0.10539995 -0.0051892269 0.095771745 4278255360
0.12682395 -0.013951558 0.12048316 4278255360
0.12377821 -0.013775668 0.10474211 4278255360
0.11589977 -0.010954967 0.091065049 4278255360
0.10424926 -0.0058691851 0.081293218 4278255360
0.0903951 0.00079701404 0.076742135 4278255360
0.11813895 -0.012079291 0.091264531 4278255360
0.11017008 -0.0092069432 0.077650756 4278255360
0.098456956 -0.0040807948 0.06797535 4278255360
0.084576413 0.0026090578 0.063540861 4278255360
0.070397101 0.0099620055 0.064944267 4278255360
0.10057224 -0.0052235415 0.067242205 4278255360
0.088797167 -5.7321548e-05 0.057663787 4278255360
0.074891046 0.0066557983 0.053346146 4278255360
0.060725961 0.014012077 0.054870531 4278255360
0.048208859 0.021021191 0.062031727 4278255360
-0.037934661 0.069559701 0.23253851 4278255360
-0.023825813 0.066047825 0.23929834 4278255360
-0.0084397504 0.061667848 0.24038145 4278255360
0.0061522056 0.057009418 0.23564203 4278255360
0.017985644 0.052699663 0.22571813 4278255360
-0.0099338321 0.062271148 0.24231058 4278255360
0.0054568746 0.057879221 0.24327253 4278255360
0.020010982 0.053221665 0.23841728 4278255360
0.031769168 0.048925493 0.22839849 4278255360
0.039148517 0.045569073 0.2145649 4278255360
0.01931902 0.053631254 0.24079871 4278255360
0.033834435 0.048974842 0.23582792 4278255360
0.045516696 0.044692505 0.22571483 4278255360
0.052793097 0.041360743 0.2118209 4278255360
0.054684073 0.039428089 0.19601655 4278255360
0.045723844 0.044850979 0.2282148 4278255360
0.057329498 0.04058272 0.21800798 4278255360
0.064502537 0.03727581 0.20405449 4278255360
0.066277295 0.035375431 0.18823276 4278255360
0.062414855 0.035137426 0.17267278 4278255360
0.06557975 0.037160952 0.20632258 4278255360
0.07264901 0.033879083 0.19231032 4278255360
0.074307457 0.032011095 0.17647213 4278255360
0.070331827 0.031808458 0.16094019 4278255360
0.061257333 0.033298459 0.14780542 4278255360
0.0074990015 0.057252377 0.24289612 4278255360
0.022879371 0.052884933 0.24410355 4278255360
0.037509296 0.048225883 0.2394833 4278255360
0.049419254 0.043902446 0.22965737 4278255360
0.05700589 0.040496655 0.21594854 4278255360
0.036781803 0.04864474 0.24185249 4278255360
0.051374741 0.043986291 0.23711614 4278255360
0.063210152 0.039676182 0.22719473 4278255360
0.070694707 0.036294654 0.21342394 4278255360
0.072820827 0.034296941 0.19765761 4278255360
0.063380234 0.039845616 0.22969677 4278255360
0.075140409 0.035549086 0.21968047 4278255360
0.082522459 0.032192018 0.20584849 4278255360
0.084532589 0.030226354 0.19006293 4278255360
0.080900192 0.029916715 0.17444889 4278255360
0.083566278 0.032088283 0.20813267 4278255360
0.090845399 0.02875587 0.19424032 4278255360
0.092739426 0.02682237 0.17843643 4278255360
0.088993393 0.026548073 0.16284861 4278255360
0.080111593 0.02796991 0.14957532 4278255360
0.094510682 0.026460005 0.18018262 4278255360
0.096288502 0.024558777 0.16436134 4278255360
0.092429049 0.024319839 0.14880063 4278255360
0.083451889 0.025775356 0.13559532 4278255360
0.070565552 0.028729385 0.12652314 4278255360
0.053139277 0.043376498 0.23601185 4278255360
0.067806281 0.038717113 0.23151104 4278255360
0.079792038 0.034380257 0.22178367 4278255360
0.087482974 0.030949768 0.20813929 4278255360
0.089843728 0.028887467 0.19241472 4278255360
0.079925008 0.034560613 0.22428718 4278255360
0.091836922 0.030236829 0.21446377 4278255360
0.09942624 0.026830401 0.20075659 4278255360
0.10167126 0.024799915 0.18501095 4278255360
0.098269761 0.024418719 0.16934657 4278255360
0.10043641 0.026737813 0.20305634 4278255360
0.10792366 0.023355646 0.18928716 4278255360
0.11005282 0.021357089 0.17352135 4278255360
0.10653727 0.021011198 0.15788135 4278255360
0.097850271 0.022364536 0.14447267 4278255360
0.11179861 0.021004535 0.17529498 4278255360
0.11381179 0.019038025 0.15950991 4278255360
0.11018239 0.018727457 0.14389521 4278255360
0.10139899 0.020114642 0.13055295 4278255360
0.088644058 0.023012828 0.12127931 4278255360
0.1124191 0.01816435 0.14489414 4278255360
0.10867605 0.017889123 0.1293056 4278255360
0.099796765 0.019310072 0.11603054 4278255360
0.086976603 0.022235902 0.10685606 4278255360
0.07194145 0.026272733 0.10301726 4278255360
0.093096144 0.02972278 0.2127741 4278255360
0.10515697 0.025372768 0.20314589 4278255360
0.11295174 0.021917788 0.18956678 4278255360
0.11543113 0.019822961 0.17386478 4278255360
0.11226133 0.019370299 0.15815377 4278255360
0.11392803 0.021836368 0.19188152 4278255360
0.12162164 0.018405249 0.17823879 4278255360
0.12398543 0.016342113 0.16251479 4278255360
0.12070119 0.015924707 0.14682633 4278255360
0.11221106 0.017209224 0.13328543 4278255360
0.12570533 0.015999451 0.16431545 4278255360
0.12795341 0.013968126 0.14857034 4278255360
0.12455491 0.013586001 0.13290533 4278255360
0.11596736 0.01490452 0.11942929 4278255360
0.10334685 0.01774618 0.1099564 4278255360
0.12677737 0.013030124 0.13393952 4278255360
0.1232648 0.012683303 0.11829887 4278255360
0.11458035 0.014035748 0.10488845 4278255360
0.10189312 0.01690539 0.095513612 4278255360
0.086911105 0.020905908 0.091436423 4278255360
0.11699385 0.013344567 0.10501121 4278255360
0.10821299 0.01473086 0.09166719 4278255360
0.095459774 0.017628318 0.082390949 4278255360
0.080451094 0.021646874 0.078431293 4278255360
0.065207459 0.02624554 0.080321267 4278255360
0.12221304 0.018053286 0.17618179 4278255360
0.13011119 0.014574026 0.16266875 4278255360
0.13270906 0.012446799 0.14699028 4278255360
0.12965691 0.01195798 0.13125709 4278255360
0.12136564 0.013173372 0.11758719 4278255360
0.13440266 0.012114111 0.14881754 4278255360
0.13688508 0.010018452 0.13311613 4278255360
0.13371831 0.0095648626 0.11740454 4278255360
0.12532865 0.010814406 0.10379791 4278255360
0.11284555 0.013598865 0.094127998 4278255360
0.13592596 0.009016348 0.11847373 4278255360
0.13264474 0.0085980147 0.10278466 4278255360
0.12415717 0.0098816361 0.089242078 4278255360
0.11160588 0.012694407 0.07966911 4278255360
0.096680567 0.016657665 0.075354509 4278255360
0.12656948 0.0091941739 0.089403346 4278255360
0.11798448 0.0105118 0.075925589 4278255360
0.10536573 0.013352721 0.066450119 4278255360
0.090411998 0.017334485 0.062252551 4278255360
0.075136393 0.021921054 0.063897982 4278255360
0.10764457 0.012622666 0.065680861 4278255360
0.094959088 0.015491573 0.056303434 4278255360
0.079977788 0.019491613 0.052223157 4278255360
0.064717509 0.024084289 0.053989328 4278255360
0.051232625 0.028651319 0.061364178 4278255360
-0.039652735 0.060563426 0.23332557 4278255360
-0.025028521 0.059750136 0.23984931 4278255360
-0.0090804398 0.058313034 0.24067496 4278255360
0.006044528 0.056445591 0.23569137 4278255360
0.018310215 0.054399204 0.22556944 4278255360
-0.010629097 0.058630563 0.2426291 4278255360
0.0053237979 0.057182398 0.24333349 4278255360
0.020409534 0.055308588 0.2382347 4278255360
0.032597221 0.053261392 0.22801915 4278255360
0.040246122 0.051316414 0.21406208 4278255360
0.019692298 0.055585831 0.24062771 4278255360
0.03473793 0.053705763 0.23541403 4278255360
0.046846915 0.051657878 0.22510545 4278255360
0.054389108 0.049717866 0.21108975 4278255360
0.056349155 0.048146896 0.19525376 4278255360
0.04706163 0.05185597 0.22760193 4278255360
0.059091214 0.049807515 0.21720092 4278255360
0.066526264 0.047872581 0.20312738 4278255360
0.068365857 0.046311662 0.18727596 4278255360
0.064362332 0.04533489 0.17178062 4278255360
0.06764283 0.047963765 0.20537746 4278255360
0.074970312 0.046034023 0.19124691 4278255360
0.07668934 0.044483244 0.17538096 4278255360
0.072568484 0.043520197 0.15991554 4278255360
0.063162521 0.043274526 0.14693263 4278255360
0.0074405195 0.056946151 0.24292292 4278255360
0.023382699 0.05552049 0.24387297 4278255360
0.038547024 0.053659692 0.23900791 4278255360
0.050892025 0.051614258 0.22898266 4278255360
0.058755785 0.049659554 0.21514688 4278255360
0.037792955 0.053939398 0.24138927 4278255360
0.052918945 0.052072123 0.23640873 4278255360
0.065186672 0.050025761 0.22628926 4278255360
0.072944626 0.048075799 0.21239322 4278255360
0.075148404 0.046484746 0.19659132 4278255360
0.065362968 0.050227728 0.22878845 4278255360
0.077552721 0.04818055 0.21857536 4278255360
0.085204422 0.046235442 0.20461985 4278255360
0.087287977 0.044654254 0.18880065 4278255360
0.083522893 0.043649852 0.17324741 4278255360
0.086286366 0.046331357 0.20688656 4278255360
0.093831375 0.044391215 0.19287239 4278255360
0.095794588 0.042819981 0.17703682 4278255360
0.091911718 0.041829187 0.16151169 4278255360
0.082705483 0.041552212 0.14838703 4278255360
0.097630545 0.042796403 0.17875338 4278255360
0.099473305 0.04123522 0.16290234 4278255360
0.095472872 0.040258087 0.14740621 4278255360
0.086167797 0.039996553 0.13435112 4278255360
0.072810754 0.040485829 0.12549458 4278255360
0.054747935 0.05179983 0.2352749 4278255360
0.069950692 0.04994579 0.23052865 4278255360
0.08237426 0.047901437 0.22060072 4278255360
0.090346135 0.045941982 0.20682763 4278255360
0.092793114 0.044331223 0.19106357 4278255360
0.082512088 0.048107225 0.22310202 4278255360
0.094859116 0.046061818 0.21307926 4278255360
0.10272565 0.04410699 0.1992451 4278255360
0.10505268 0.042505909 0.18346187 4278255360
0.10152693 0.041474111 0.16785443 4278255360
0.10377272 0.044207618 0.20152792 4278255360
0.11153347 0.042257529 0.18763345 4278255360
0.11374041 0.040666215 0.17183203 4278255360
0.11009644 0.039647911 0.15625085 4278255360
0.10109212 0.039339695 0.14298753 4278255360
0.11554996 0.040647574 0.17357643 4278255360
0.11763668 0.039066125 0.15775768 4278255360
0.1138747 0.038061365 0.1422037 4278255360
0.10477047 0.037768561 0.12900843 4278255360
0.09154962 0.038227126 0.11994823 4278255360
0.11619312 0.03792607 0.1431652 4278255360
0.11231334 0.036934916 0.12763932 4278255360
0.10310972 0.036657535 0.11451283 4278255360
0.089821264 0.037131269 0.10555288 4278255360
0.074236907 0.038292345 0.10196567 4278255360
0.096164338 0.04578862 0.21136852 4278255360
0.10866571 0.043745466 0.2015385 4278255360
0.11674522 0.041781388 0.18782893 4278255360
0.11931517 0.04016079 0.17208545 4278255360
0.11602959 0.039101847 0.15642749 4278255360
0.11775716 0.041886698 0.19012734 4278255360
0.12573181 0.039927129 0.17635587 4278255360
0.12818195 0.038316112 0.16059232 4278255360
0.12477774 0.037270535 0.14495881 4278255360
0.11597747 0.036931153 0.13156 4278255360
0.12996466 0.038302414 0.16236418 4278255360
0.13229485 0.036701076 0.14658147 4278255360
0.12877221 0.035668924 0.13097334 4278255360
0.11987099 0.035344917 0.11764099 4278255360
0.10678948 0.035772666 0.10837928 4278255360
0.13107584 0.035538133 0.13197032 4278255360
0.12743498 0.034519471 0.11638845 4278255360
0.11843331 0.034210853 0.10312336 4278255360
0.10528264 0.03465382 0.093960829 4278255360
0.089753374 0.035788748 0.090134345 4278255360
0.12093498 0.033981297 0.10320573 4278255360
0.11183336 0.033688087 0.090008646 4278255360
0.098614305 0.034146253 0.08094582 4278255360
0.083057396 0.035294116 0.077237315 4278255360
0.067256942 0.03697715 0.079382375 4278255360
0.12634481 0.039688282 0.17428897 4278255360
0.13453145 0.037719693 0.16064377 4278255360
0.13722423 0.036089357 0.14492182 4278255360
0.13406059 0.035016757 0.12923969 4278255360
0.12546647 0.034646291 0.11570855 4278255360
0.13897969 0.036080603 0.14672074 4278255360
0.14155279 0.034459755 0.13097779 4278255360
0.13827033 0.033400461 0.1153192 4278255360
0.12957422 0.033045322 0.10185296 4278255360
0.11663514 0.033442155 0.092391938 4278255360
0.14055865 0.033274204 0.11635145 4278255360
0.13715756 0.032228272 0.10071729 4278255360
0.12835996 0.031888489 0.087316729 4278255360
0.11535019 0.032300588 0.077953793 4278255360
0.099879697 0.0334091 0.073888943 4278255360
0.13086037 0.031662423 0.08743763 4278255360
0.12196179 0.03133801 0.074103527 4278255360
0.10888211 0.031765357 0.064839222 4278255360
0.093382142 0.032886937 0.060891889 4278255360
0.077548556 0.034551758 0.062792942 4278255360
0.11124418 0.03147117 0.064031832 4278255360
0.098095328 0.031913742 0.054866683 4278255360
0.082566798 0.033048328 0.051037099 4278255360
0.066749088 0.034722187 0.053058632 4278255360
0.052771635 0.036709979 0.060659137 4278255360
-0.039652757 0.051405795 0.23412676 4278255360
-0.025028538 0.053339489 0.24041016 4278255360
-0.0090804491 0.054898046 0.24097373 4278255360
0.0060445266 0.055871651 0.23574159 4278255360
0.018310221 0.056129228 0.22541808 4278255360
-0.010629107 0.054924682 0.24295332 4278255360
0.0053237961 0.056473076 0.24339554 4278255360
0.020409539 0.057432946 0.23804884 4278255360
0.032597233 0.057675064 0.227633 4278255360
0.040246136 0.057166841 0.21355024 4278255360
0.019692304 0.057575464 0.24045365 4278255360
0.034737941 0.058521543 0.2349927 4278255360
0.046846934 0.058748186 0.22448513 4278255360
0.05438913 0.058224887 0.21034548 4278255360
0.056349181 0.057022091 0.19447728 4278255360
0.047061648 0.058986612 0.22697809 4278255360
0.05909124 0.059197769 0.21637937 4278255360
0.066526294 0.058659427 0.20218366 4278255360
0.068365887 0.057444051 0.18630201 4278255360
0.064362355 0.055715267 0.17087245 4278255360
0.06764286 0.058960341 0.20441538 4278255360
0.074970342 0.058406983 0.19016442 4278255360
0.07668937 0.057179105 0.17427021 4278255360
0.072568521 0.055442002 0.15887251 4278255360
0.06316255 0.053429533 0.14604419 4278255360
0.0074405186 0.05663443 0.24295019 4278255360
0.023382707 0.058203321 0.24363825 4278255360
0.038547039 0.059190962 0.23852398 4278255360
0.050892048 0.059464391 0.22829586 4278255360
0.058755808 0.058986805 0.21433087 4278255360
0.037792969 0.059329029 0.24091774 4278255360
0.052918967 0.060302991 0.23568861 4278255360
0.065186702 0.060560979 0.22536755 4278255360
0.072944656 0.060068253 0.21134402 4278255360
0.075148441 0.058891155 0.1955059 4278255360
0.065362997 0.06079606 0.22786385 4278255360
0.077552751 0.061038584 0.21745043 4278255360
0.08520446 0.060530756 0.20336917 4278255360
0.087288015 0.059340943 0.18751574 4278255360
0.083522931 0.057629313 0.17202437 4278255360
0.086286403 0.060829904 0.20561811 4278255360
0.093831412 0.060307 0.19147995 4278255360
0.095794633 0.059104536 0.17561211 4278255360
0.091911763 0.05738439 0.16015078 4278255360
0.08270552 0.055378132 0.14717741 4278255360
0.09763059 0.05942582 0.17729849 4278255360
0.09947335 0.058210779 0.16141717 4278255360
0.095472917 0.056482214 0.14598678 4278255360
0.086167835 0.05447283 0.13308461 4278255360
0.072810784 0.052453142 0.12444758 4278255360
0.054747958 0.060374252 0.23452474 4278255360
0.069950722 0.061375871 0.22952865 4278255360
0.082374297 0.061665136 0.21939656 4278255360
0.090346172 0.061203107 0.20549245 4278255360
0.092793159 0.060051985 0.18968818 4278255360
0.082512125 0.061896816 0.22189558 4278255360
0.09485916 0.062170655 0.21166992 4278255360
0.1027257 0.061693463 0.19770648 4278255360
0.10505273 0.060529485 0.18188502 4278255360
0.10152698 0.058835421 0.16633551 4278255360
0.10377277 0.061990771 0.19997209 4278255360
0.11153352 0.061498445 0.1859501 4278255360
0.11374046 0.060321681 0.17011239 4278255360
0.11009648 0.058618899 0.15459111 4278255360
0.10109217 0.056619331 0.14147577 4278255360
0.11555001 0.060642943 0.17182706 4278255360
0.11763674 0.059453461 0.15597403 4278255360
0.11387476 0.057742059 0.14048187 4278255360
0.10477052 0.055739131 0.12743621 4278255360
0.091549665 0.053714316 0.11859328 4278255360
0.11619317 0.058042251 0.14140527 4278255360
0.11231339 0.056322325 0.12594314 4278255360
0.10310976 0.054316152 0.11296791 4278255360
0.089821301 0.052293807 0.10422633 4278255360
0.074236937 0.050527543 0.10089523 4278255360
0.096164383 0.062142625 0.20993774 4278255360
0.10866576 0.062447708 0.19990227 4278255360
0.11674527 0.062001269 0.18605992 4278255360
0.11931522 0.060863409 0.1702742 4278255360
0.11602964 0.059187308 0.15467024 4278255360
0.11775722 0.062296666 0.18834171 4278255360
0.12573186 0.061835036 0.17443918 4278255360
0.12818201 0.060684253 0.15863536 4278255360
0.12477779 0.058999237 0.14305779 4278255360
0.11597753 0.057006828 0.1298036 4278255360
0.12996472 0.061005417 0.16037793 4278255360
0.13229492 0.059841778 0.14455692 4278255360
0.12877227 0.058147941 0.12900667 4278255360
0.11987104 0.056151941 0.11582061 4278255360
0.10678952 0.054122481 0.10677388 4278255360
0.13107592 0.058449861 0.12996581 4278255360
0.12743504 0.056747306 0.11444377 4278255360
0.11843336 0.054747827 0.10132661 4278255360
0.10528269 0.052720599 0.092380188 4278255360
0.089753412 0.050938535 0.088808909 4278255360
0.12093503 0.054988183 0.10136786 4278255360
0.11183342 0.05298534 0.08832036 4278255360
0.09861435 0.050960463 0.07947477 4278255360
0.083057433 0.049186144 0.076021917 4278255360
0.067256972 0.047901247 0.078426637 4278255360
0.12634487 0.061711337 0.17236221 4278255360
0.13453153 0.061280511 0.15858246 4278255360
0.13722429 0.060155984 0.14281628 4278255360
0.13406065 0.058489133 0.12718613 4278255360
0.12546651 0.056504361 0.11379622 4278255360
0.13897975 0.06047697 0.14458634 4278255360
0.14155285 0.059339453 0.12880111 4278255360
0.13827039 0.057663586 0.11319645 4278255360
0.12957428 0.055674989 0.099873126 4278255360
0.1166352 0.053641364 0.090624735 4278255360
0.1405587 0.05796716 0.11419109 4278255360
0.13715762 0.056282379 0.09861283 4278255360
0.12836002 0.054290067 0.085356846 4278255360
0.11535025 0.052258439 0.076207712 4278255360
0.099879742 0.050460998 0.072397098 4278255360
0.13086043 0.054533675 0.085436657 4278255360
0.12196185 0.052537769 0.072248794 4278255360
0.10888216 0.050508253 0.063199431 4278255360
0.093382187 0.048718348 0.059506822 4278255360
0.077548586 0.047409017 0.061668079 4278255360
0.11124423 0.050657757 0.062353224 4278255360
0.098095372 0.048630469 0.05340416 4278255360
0.082566835 0.046848204 0.049829766 4278255360
0.066749118 0.04555089 0.052111246 4278255360
0.052771658 0.044913184 0.059941448 4278255360
-0.037934732 0.042409517 0.23491384 4278255360
-0.023825863 0.047041796 0.24096115 4278255360
-0.0084397774 0.051543228 0.24126723 4278255360
0.006152201 0.05530782 0.23579091 4278255360
0.017985657 0.057828773 0.22526939 4278255360
-0.0099338619 0.05128409 0.24327183 4278255360
0.005456869 0.055776253 0.24345651 4278255360
0.020010998 0.059519872 0.23786625 4278255360
0.031769205 0.06201097 0.22725366 4278255360
0.039148562 0.062914185 0.21304742 4278255360
0.019319037 0.059530038 0.24028264 4278255360
0.033834476 0.063252464 0.2345788 4278255360
0.045516752 0.06571357 0.22387573 4278255360
0.052793164 0.066582017 0.20961432 4278255360
0.05468414 0.065740906 0.19371448 4278255360
0.0457239 0.06599161 0.22636522 4278255360
0.057329573 0.068422571 0.21557231 4278255360
0.064502619 0.069256209 0.20125657 4278255360
0.066277385 0.068380296 0.18534522 4278255360
0.062414937 0.065912746 0.16998029 4278255360
0.065579839 0.069763161 0.20347026 4278255360
0.072649106 0.070561938 0.189101 4278255360
0.074307553 0.069651268 0.17317905 4278255360
0.070331916 0.067153752 0.15784787 4278255360
0.061257411 0.063405611 0.14517139 4278255360
0.0074989991 0.056328204 0.24297698 4278255360
0.022879392 0.060838882 0.24340767 4278255360
0.037509341 0.064624771 0.23804858 4278255360
0.049419317 0.067176215 0.22762117 4278255360
0.057005964 0.068149716 0.21352921 4278255360
0.036781844 0.064623691 0.24045452 4278255360
0.051374808 0.068388835 0.23498119 4278255360
0.063210234 0.070910566 0.22446208 4278255360
0.070694804 0.071849413 0.21031331 4278255360
0.072820924 0.071078971 0.1944396 4278255360
0.063380316 0.071178183 0.22695552 4278255360
0.075140513 0.073670067 0.21634531 4278255360
0.082522571 0.074574195 0.20214052 4278255360
0.084532708 0.073768854 0.18625346 4278255360
0.080900304 0.071362466 0.17082287 4278255360
0.083566397 0.075072989 0.204372 4278255360
0.090845525 0.07594236 0.19011202 4278255360
0.092739552 0.075102165 0.1742125 4278255360
0.088993512 0.07266552 0.15881386 4278255360
0.080111697 0.068960451 0.14598912 4278255360
0.094510816 0.075762235 0.17586924 4278255360
0.096288636 0.074887238 0.15995817 4278255360
0.092429176 0.072420478 0.14459237 4278255360
0.083452001 0.06869404 0.13184042 4278255360
0.070565648 0.064209595 0.12341903 4278255360
0.053139344 0.068797596 0.23378779 4278255360
0.067806371 0.072604559 0.22854628 4278255360
0.079792142 0.075186327 0.2182136 4278255360
0.087483093 0.076195337 0.20418081 4278255360
0.089843854 0.075495757 0.18833703 4278255360
0.07992512 0.075443439 0.22071041 4278255360
0.091837049 0.077995658 0.21028543 4278255360
0.099426374 0.078970067 0.19619496 4278255360
0.10167141 0.0782355 0.18033595 4278255360
0.098269895 0.075890832 0.16484335 4278255360
0.10043655 0.079460591 0.1984437 4278255360
0.10792381 0.080400348 0.1842964 4278255360
0.11005298 0.079630829 0.16842306 4278255360
0.10653742 0.077255629 0.15296061 4278255360
0.097850405 0.073594503 0.13999063 4278255360
0.11179876 0.080286004 0.17010853 4278255360
0.11381195 0.079481579 0.15422179 4278255360
0.11018254 0.077075988 0.13879037 4278255360
0.10139913 0.073393069 0.12589169 4278255360
0.088644177 0.068928629 0.1172622 4278255360
0.11241926 0.077803992 0.13967635 4278255360
0.1086762 0.075368136 0.12427685 4278255360
0.099796906 0.071663633 0.1114502 4278255360
0.086976722 0.067189187 0.10292315 4278255360
0.071941547 0.06254717 0.099843651 4278255360
0.093096279 0.078208484 0.20853215 4278255360
0.10515711 0.080820426 0.19829486 4278255360
0.1129519 0.081864886 0.18432209 4278255360
0.11543129 0.081201255 0.16849488 4278255360
0.1122615 0.078918874 0.15294395 4278255360
0.11392819 0.082347013 0.18658753 4278255360
0.12162181 0.083356939 0.17255625 4278255360
0.12398561 0.082658276 0.15671287 4278255360
0.12070137 0.080345087 0.14119028 4278255360
0.11221121 0.076728776 0.12807816 4278255360
0.12570551 0.083308399 0.15842667 4278255360
0.12795359 0.082574748 0.14256805 4278255360
0.12455509 0.080230892 0.12707467 4278255360
0.11596753 0.076592356 0.11403231 4278255360
0.10334699 0.072148986 0.10519677 4278255360
0.12677754 0.08095789 0.12799661 4278255360
0.12326498 0.078583494 0.11253335 4278255360
0.11458051 0.074922949 0.099561512 4278255360
0.10189326 0.070469052 0.090827405 4278255360
0.086911224 0.065821394 0.087506831 4278255360
0.11699402 0.075624935 0.099562384 4278255360
0.10821314 0.071942583 0.086661816 4278255360
0.095459908 0.067478411 0.07802964 4278255360
0.080451205 0.062833399 0.074827939 4278255360
0.065207548 0.058632869 0.077487744 4278255360
0.12221322 0.083346359 0.17046939 4278255360
0.13011138 0.084426202 0.15655749 4278255360
0.13270925 0.083798565 0.14074782 4278255360
0.12965709 0.081547931 0.12516876 4278255360
0.12136582 0.0779773 0.11191759 4278255360
0.13440286 0.084443487 0.14248954 4278255360
0.13688529 0.08378078 0.12666278 4278255360
0.13371849 0.081499204 0.11111111 4278255360
0.12532882 0.077905931 0.097928166 4278255360
0.1128457 0.073484674 0.088888675 4278255360
0.13592617 0.08222504 0.11206881 4278255360
0.13264494 0.079912663 0.09654545 4278255360
0.12415735 0.07629694 0.083431497 4278255360
0.11160604 0.071864642 0.074492387 4278255360
0.096680701 0.067212448 0.070931539 4278255360
0.12656966 0.077001952 0.083470941 4278255360
0.11798465 0.073363997 0.070426732 4278255360
0.10536588 0.06892091 0.061588533 4278255360
0.090412125 0.064270817 0.05814616 4278255360
0.07513649 0.060039733 0.060563035 4278255360
0.10764472 0.06950628 0.060704194 4278255360
0.094959214 0.065052651 0.051967405 4278255360
0.0799779 0.06040493 0.048643708 4278255360
0.064717591 0.056188799 0.051180549 4278255360
0.051232688 0.052971851 0.059236407 4278255360
