# .PCD v0.7 - Point Cloud Data file format
VERSION 0.7
FIELDS x y z rgb
SIZE 4 4 4 4
TYPE F F F U
COUNT 1 1 1 1
WIDTH 256
HEIGHT 1
VIEWPOINT 0 0 0 1 0 0 0
POINTS 256
DATA ascii
-0.034559086 0.078077577 0.23179328 4278255360
-0.017929135 0.070285991 0.23965923 4278255360
-0.00019714098 0.061148003 0.23855886 4278255360
0.0149308 0.052573521 0.22872216 4278255360
-0.0017383812 0.062307119 0.24282481 4278255360
0.015976783 0.053161193 0.24153556 4278255360
0.031014714 0.044618253 0.23153476 4278255360
0.04023239 0.038463823 0.21491264 4278255360
0.031400446 0.044829339 0.23619565 4278255360
0.046347011 0.036318708 0.22603168 4278255360
0.055419479 0.030229267 0.20930606 4278255360
0.056721646 0.027833749 0.18951456 4278255360
0.057648271 0.029446404 0.21334796 4278255360
0.066574708 0.023422502 0.19652034 4278255360
0.06770806 0.02111128 0.17670846 4278255360
0.060811441 0.022995798 0.1580531 4278255360
0.018405829 0.052046679 0.24295379 4278255360
0.036153432 0.042917702 0.24204737 4278255360
0.051372331 0.034311656 0.23237999 4278255360
0.060881682 0.02802725 0.21597219 4278255360
0.051677994 0.03456391 0.23704478 4278255360
0.066808283 0.025988609 0.2272124 4278255360
0.076174125 0.019768059 0.21069807 4278255360
0.077817999 0.017202398 0.19095339 4278255360
0.07833457 0.019023912 0.21478415 4278255360
0.087556057 0.01286778 0.19816478 4278255360
0.089031368 0.01038597 0.17839608 4278255360
0.082452141 0.012097194 0.15960984 4278255360
0.092576608 0.0088073015 0.18101455 4278255360
0.093883216 0.0064095664 0.16122362 4278255360
0.08714705 0.0082063954 0.1425011 4278255360
0.073775999 0.013822241 0.12876013 4278255360
0.069505736 0.024623174 0.22732696 4278255360
0.084814146 0.015986377 0.21782984 4278255360
0.09446989 0.0096370252 0.20153292 4278255360
0.096454859 0.0069021722 0.18184237 4278255360
0.096561193 0.0089318668 0.20566165 4278255360
0.10607431 0.0026457892 0.18925668 4278255360
0.10789103 -5.689692e-06 0.16953851 4278255360
0.10163164 0.0015316065 0.15062836 4278255360
0.11139321 -0.0015559362 0.17223087 4278255360
0.11304151 -0.0041238014 0.15248685 4278255360
0.10662399 -0.0025005953 0.13363698 4278255360
0.093481943 0.002974422 0.11962099 4278255360
0.11077518 -0.0045586843 0.13430724 4278255360
0.10420009 -0.0028497151 0.11551934 4278255360
0.090944417 0.0026950585 0.10163843 4278255360
0.073778667 0.010916743 0.095565699 4278255360
0.10849956 0.0013030873 0.18804464 4278255360
0.11830079 -0.0051106084 0.17186014 4278255360
0.12045824 -0.0079307733 0.15219979 4278255360
0.114521 -0.0065679746 0.13317274 4278255360
0.12391606 -0.0094520235 0.15496504 4278255360
0.12590545 -0.012189067 0.13527524 4278255360
0.11980895 -0.010740086 0.11630499 4278255360
0.10690077 -0.0054079252 0.1020192 4278255360
0.12395099 -0.012785742 0.11706404 4278255360
0.11769577 -0.011250708 0.098152325 4278255360
0.10467157 -0.0058477968 0.083999023 4278255360
0.087600522 0.0022937502 0.077562273 4278255360
0.10859674 -0.0079728393 0.08258675 4278255360
0.095457703 -0.0024996647 0.068567231 4278255360
0.078339122 0.00568181 0.062309831 4278255360
0.060818907 0.014861605 0.065122396 4278255360
-0.038522959 0.067343302 0.23273242 4278255360
-0.020383151 0.063640445 0.24024065 4278255360
-0.0010412442 0.05886215 0.23875885 4278255360
0.015460184 0.054007109 0.22859673 4278255360
-0.0027224161 0.059642326 0.24305795 4278255360
0.016601132 0.054851949 0.24138764 4278255360
0.033004377 0.050006319 0.23106337 4278255360
0.043058939 0.046118204 0.21424298 4278255360
0.033425134 0.050312247 0.23571597 4278255360
0.049728718 0.045476463 0.22523047 4278255360
0.059624888 0.041617632 0.2083097 4278255360
0.061045282 0.039542273 0.1884902 4278255360
0.062056035 0.041382752 0.21230365 4278255360
0.071792915 0.037553556 0.19528404 4278255360
0.073029168 0.035520986 0.17544776 4278255360
0.065506391 0.035709865 0.15694076 4278255360
0.019250715 0.054334655 0.24275361 4278255360
0.03860965 0.049569208 0.24146543 4278255360
0.055210292 0.044704963 0.23147069 4278255360
0.065583013 0.04075858 0.21485834 4278255360
0.055543706 0.045032371 0.2361289 4278255360
0.072047696 0.040177088 0.22597106 4278255360
0.082263879 0.036259279 0.20925528 4278255360
0.084056996 0.034097791 0.18947524 4278255360
0.084620476 0.036046311 0.21329488 4278255360
0.094679192 0.032157429 0.19647714 4278255360
0.096288443 0.030038346 0.17667672 4278255360
0.089111887 0.030131968 0.158032 4278255360
0.10015557 0.029331332 0.17921893 4278255360
0.10158081 0.027254848 0.1593999 4278255360
0.094233051 0.027395485 0.14082228 4278255360
0.079648025 0.029723849 0.12736891 4278255360
0.074990056 0.039474867 0.22602761 4278255360
0.091688342 0.034601882 0.21620119 4278255360
0.10222074 0.030626547 0.19969657 4278255360
0.10438593 0.028379731 0.17996332 4278255360
0.10450192 0.03043557 0.20378032 4278255360
0.11487874 0.02648844 0.18717073 4278255360
0.1168604 0.024283631 0.16741347 4278255360
0.11003271 0.02428196 0.14863797 4278255360
0.12068056 0.023594452 0.17003049 4278255360
0.12247851 0.021431848 0.15025102 4278255360
0.11547833 0.021477208 0.1315392 4278255360
0.1011431 0.023721045 0.11780589 4278255360
0.12000641 0.020439751 0.13212016 4278255360
0.11283436 0.020532135 0.1134737 4278255360
0.098375186 0.022817792 0.099877924 4278255360
0.079650939 0.026819009 0.09417443 4278255360
0.11752419 0.025742026 0.1859065 4278255360
0.12821528 0.021738114 0.16951118 4278255360
0.13056861 0.019448394 0.14980443 4278255360
0.12409233 0.019351432 0.13090508 4278255360
0.13434038 0.018777305 0.15249529 4278255360
0.13651039 0.016529385 0.1327627 4278255360
0.12986037 0.016479447 0.11392359 4278255360
0.11578024 0.018637929 0.099915452 4278255360
0.13437848 0.015452175 0.11459354 4278255360
0.12755534 0.015449267 0.095816381 4278255360
0.11334865 0.017649975 0.081943236 4278255360
0.094727695 0.021594338 0.075873688 4278255360
0.1176302 0.016489998 0.080446534 4278255360
0.10329824 0.018732734 0.06670963 4278255360
0.084625445 0.022705337 0.060820464 4278255360
0.065514542 0.027577512 0.064009897 4278255360
-0.039868932 0.055984613 0.23372617 4278255360
-0.021216437 0.05660833 0.24085587 4278255360
-0.0013278683 0.056443326 0.23897046 4278255360
0.015639942 0.055524085 0.22846401 4278255360
-0.0030565553 0.056822523 0.24330465 4278255360
0.016813137 0.056641057 0.24123111 4278255360
0.033679992 0.055707812 0.23056455 4278255360
0.044018727 0.054217834 0.21353434 4278255360
0.034112636 0.056114092 0.23520836 4278255360
0.050877009 0.055166923 0.22438267 4278255360
0.061052877 0.053668454 0.20725539 4278255360
0.062513418 0.051931877 0.18740626 4278255360
0.063552737 0.054013435 0.21119861 4278255360
0.073564813 0.052506607 0.19397581 4278255360
0.074836001 0.050768901 0.17411375 4278255360
0.067100614 0.049163502 0.15576372 4278255360
0.019537605 0.056755722 0.2425418 4278255360
0.039443683 0.056607626 0.24084966 4278255360
0.056513514 0.055702846 0.23050851 4278255360
0.067179397 0.054230493 0.2136797 4278255360
0.056856349 0.056109779 0.23515975 4278255360
0.073826797 0.05519091 0.22465752 4278255360
0.084331714 0.053709786 0.20772855 4278255360
0.086175516 0.05197598 0.18791109 4278255360
0.086754918 0.054058898 0.21171898 4278255360
0.097097926 0.052569147 0.19469136 4278255360
0.098752663 0.050833896 0.17485735 4278255360
0.091373272 0.049215816 0.15636238 4278255360
0.10272908 0.051049236 0.17731886 4278255360
0.1041946 0.049312692 0.15747009 4278255360
0.096639179 0.047700796 0.13904579 4278255360
0.081641935 0.046550449 0.12589678 4278255360
0.076852314 0.055190474 0.22465268 4278255360
0.094022542 0.054300245 0.21447781 4278255360
0.10485262 0.052837022 0.19775341 4278255360
0.107079 0.051106628 0.17797498 4278255360
0.10719828 0.053190134 0.20178956 4278255360
0.11786838 0.051718011 0.18496343 4278255360
0.11990605 0.049985852 0.16516483 4278255360
0.11288539 0.048355695 0.14653179 4278255360
0.12383417 0.050207827 0.16770212 4278255360
0.12568295 0.048474062 0.14788513 4278255360
0.11848491 0.046849791 0.12931937 4278255360
0.10374452 0.045674492 0.11588521 4278255360
0.12314097 0.046892338 0.12980586 4278255360
0.11576623 0.045274097 0.11130906 4278255360
0.10089839 0.044111062 0.098015003 4278255360
0.081644922 0.043646306 0.092702232 4278255360
0.1205886 0.051602568 0.183644 4278255360
0.13158184 0.050148617 0.16702558 4278255360
0.13400169 0.048420198 0.14726973 4278255360
0.12734237 0.046778563 0.12850551 4278255360
0.13788006 0.048648722 0.14988188 4278255360
0.1401114 0.046918377 0.13010401 4278255360
0.13327344 0.04528233 0.11140367 4278255360
0.11879536 0.044082522 0.097689345 4278255360
0.13791923 0.045332681 0.11197934 4278255360
0.13090326 0.043702371 0.093344554 4278255360
0.11629504 0.042514604 0.07976786 4278255360
0.0971478 0.042017631 0.074086882 4278255360
0.1206976 0.042375829 0.078181818 4278255360
0.10596058 0.041200213 0.064743988 4278255360
0.086760029 0.040719118 0.059244465 4278255360
0.067108989 0.0410331 0.062832691 4278255360
-0.038523018 0.044625919 0.23471993 4278255360
-0.020383189 0.049576212 0.2414711 4278255360
-0.0010412571 0.054024503 0.23918208 4278255360
0.015460191 0.057041064 0.22833128 4278255360
-0.002722431 0.054002717 0.24355134 4278255360
0.016601142 0.058430169 0.24107458 4278255360
0.033004411 0.061409306 0.23006573 4278255360
0.043058984 0.062317472 0.21282572 4278255360
0.033425163 0.061915942 0.23470077 4278255360
0.04972877 0.064857386 0.22353487 4278255360
0.059624951 0.065719284 0.20620108 4278255360
0.061045345 0.064321488 0.1863223 4278255360
0.062056102 0.066644125 0.21009357 4278255360
0.071792997 0.067459673 0.19266759 4278255360
0.07302925 0.066016823 0.17277972 4278255360
0.065506466 0.062617153 0.15458667 4278255360
0.019250728 0.059176791 0.24232998 4278255360
0.038609687 0.063646048 0.24023387 4278255360
0.055210352 0.066700742 0.22954631 4278255360
0.06558308 0.067702413 0.21250106 4278255360
0.055543765 0.06718719 0.23419061 4278255360
0.072047777 0.070204735 0.22334398 4278255360
0.082263969 0.071160309 0.20620184 4278255360
0.084057093 0.069854185 0.18634696 4278255360
0.084620573 0.0720715 0.21014309 4278255360
0.094679303 0.072980881 0.19290556 4278255360
0.096288554 0.071629457 0.17303798 4278255360
0.089111991 0.068299673 0.15469277 4278255360
0.10015568 0.072767161 0.17541879 4278255360
0.10158093 0.071370549 0.15554027 4278255360
0.094233155 0.068006121 0.1372693 4278255360
0.079648115 0.06337706 0.12442464 4278255360
0.074990138 0.070906095 0.22327773 4278255360
0.091688447 0.073998623 0.21275443 4278255360
0.10222086 0.075047508 0.19581024 4278255360
0.10438605 0.07383354 0.17598663 4278255360
0.10450204 0.075944714 0.19979879 4278255360
0.11487888 0.0769476 0.18275613 4278255360
0.11686054 0.075688094 0.16291617 4278255360
0.11003285 0.072429441 0.1444256 4278255360
0.1206807 0.076821223 0.16537376 4278255360
0.12247866 0.075516291 0.14551924 4278255360
0.11547846 0.072222389 0.12709956 4278255360
0.10114321 0.067627952 0.11396454 4278255360
0.12000655 0.073344938 0.12749155 4278255360
0.1128345 0.070016079 0.10914442 4278255360
0.098375298 0.065404341 0.096152082 4278255360
0.079651028 0.06047361 0.091230035 4278255360
0.11752433 0.077463128 0.18138149 4278255360
0.12821543 0.078559138 0.16453999 4278255360
0.13056876 0.077392019 0.14473502 4278255360
0.12409247 0.074205711 0.12610595 4278255360
0.13434054 0.078520156 0.14726847 4278255360
0.13651055 0.077307388 0.12744533 4278255360
0.12986054 0.074085228 0.10888375 4278255360
0.11578038 0.069527127 0.095463231 4278255360
0.13437863 0.075213209 0.10936514 4278255360
0.12755549 0.071955487 0.090872727 4278255360
0.11334878 0.067379244 0.077592492 4278255360
0.094727807 0.062440939 0.072300076 4278255360
0.11763033 0.068261676 0.075917102 4278255360
0.10329836 0.063667707 0.062778339 4278255360
0.084625542 0.058732908 0.057668462 4278255360
0.065514609 0.054488696 0.061655477 4278255360
