# .PCD v0.7 - Point Cloud Data file format
VERSION 0.7
FIELDS x y z rgb
SIZE 4 4 4 4
TYPE F F F U
COUNT 1 1 1 1
WIDTH 1021
HEIGHT 1
VIEWPOINT 0 0 0 1 0 0 0
POINTS 1021
DATA ascii
0.1140496 -0.053311165 0.13201889 4278190335
0.11132009 -0.051924661 0.12536865 4278190335
0.10763907 -0.050054815 0.11932281 4278190335
0.10310984 -0.047754105 0.11405108 4278190335
0.097859524 -0.045087107 0.1097014 4278190335
0.09203548 -0.042128675 0.10639586 4278190335
0.085801177 -0.038961835 0.10422722 4278190335
0.079331577 -0.035675481 0.10325637 4278190335
0.11545952 -0.054027367 0.13973872 4278190335
0.11481158 -0.053698234 0.1324538 4278190335
0.11308845 -0.052822933 0.12539242 4278190335
0.11033848 -0.051426031 0.11875279 4278190335
0.10663886 -0.049546737 0.11272125 4278190335
0.10209341 -0.047237795 0.10746709 4278190335
0.096829735 -0.044564005 0.10313778 4278190335
0.09099555 -0.041600417 0.099854819 4278190335
0.084754594 -0.038430206 0.097710364 4278190335
0.078282043 -0.035142351 0.096764587 4278190335
0.071759559 -0.031829126 0.097044036 4278190335
0.11290026 -0.052727334 0.12609039 4278190335
0.11115538 -0.051840991 0.11903574 4278190335
0.10838497 -0.050433714 0.1124068 4278190335
0.1046668 -0.048544992 0.10638963 4278190335
0.1001052 -0.046227843 0.10115312 4278190335
0.094828218 -0.043547299 0.096844226 4278190335
0.088983953 -0.040578593 0.093583897 4278190335
0.08273644 -0.037405044 0.091463625 4278190335
0.076261014 -0.034115728 0.090542935 4278190335
0.069739424 -0.030802961 0.090847664 4278190335
0.063354708 -0.027559722 0.092369244 4278190335
0.10830554 -0.050393362 0.11313052 4278190335
0.10551473 -0.048975717 0.10651236 4278190335
0.10177805 -0.047077596 0.10050964 4278190335
0.097200349 -0.044752266 0.095290832 4278190335
0.091910124 -0.042064995 0.091002412 4278190335
0.086055852 -0.039091207 0.087764747 4278190335
0.079801843 -0.035914361 0.085668698 4278190335
0.073323622 -0.032623623 0.084773101 4278190335
0.066803008 -0.029311353 0.085103095 4278190335
0.06042302 -0.026070515 0.08664941 4278190335
0.054362714 -0.022992067 0.089368649 4278190335
0.10180969 -0.047093667 0.10123797 4278190335
0.098054528 -0.045186166 0.095249757 4278190335
0.093460791 -0.042852685 0.090048723 4278190335
0.088157393 -0.040158723 0.085780829 4278190335
0.082293183 -0.037179884 0.082565859 4278190335
0.07603275 -0.033999778 0.080494061 4278190335
0.069551811 -0.030707661 0.079623573 4278190335
0.063032255 -0.027395926 0.079978824 4278190335
0.056657065 -0.024157526 0.081549853 4278190335
0.05060517 -0.021083349 0.084292553 4278190335
0.04504643 -0.01825968 0.08812996 4278190335
0.092853025 -0.042543959 0.207389 4278190335
0.098103523 -0.045211051 0.20303959 4278190335
0.10263297 -0.047511872 0.19776809 4278190335
0.10631425 -0.049381848 0.19172245 4278190335
0.10904403 -0.050768495 0.18507235 4278190335
0.11074571 -0.051632892 0.17800443 4278190335
0.11137152 -0.051950783 0.17071706 4278190335
0.11090389 -0.051713243 0.16341478 4278190335
0.10935596 -0.050926942 0.15630253 4278190335
0.10677116 -0.049613941 0.14957994 4278190335
0.10322204 -0.047811102 0.14343567 4278190335
0.10200195 -0.047191333 0.19794357 4278190335
0.10651514 -0.049483892 0.19265455 4278190335
0.11017777 -0.051344398 0.18659468 4278190335
0.11288706 -0.052720632 0.17993404 4278190335
0.11456696 -0.05357397 0.17285956 4278190335
0.11517031 -0.053880457 0.16556981 4278190335
0.1146802 -0.053631496 0.15826939 4278190335
0.11311037 -0.052834067 0.15116319 4278190335
0.11050488 -0.051510561 0.14445065 4278190335
0.10693686 -0.049698118 0.13832018 4278190335
0.10250646 -0.047447607 0.13294384 4278190335
0.10958263 -0.051042084 0.18688816 4278190335
0.11322658 -0.052893098 0.18081413 4278190335
0.11591534 -0.054258902 0.17414303 4278190335
0.11757343 -0.055101167 0.16706209 4278190335
0.11815433 -0.055396248 0.15977006 4278190335
0.11764174 -0.055135865 0.15247157 4278190335
0.11605003 -0.054327324 0.1453715 4278190335
0.11342388 -0.052993324 0.13866909 4278190335
0.109837 -0.051171299 0.13255247 4278190335
0.10539006 -0.048912391 0.12719333 4278190335
0.10020787 -0.046279997 0.12274206 4278190335
0.11537345 -0.053983647 0.17454593 4278190335
0.11804165 -0.055339009 0.16786446 4278190335
0.11967793 -0.056170188 0.16077714 4278190335
0.12023637 -0.056453858 0.15348288 4278190335
0.1197013 -0.056182057 0.14618643 4278190335
0.11808773 -0.055362415 0.13909256 4278190335
0.11544096 -0.054017935 0.13240038 4278190335
0.11183526 -0.052186351 0.1262977 4278190335
0.10737184 -0.049919073 0.12095582 4278190335
0.10217597 -0.04727973 0.11652465 4278190335
0.096393481 -0.044342402 0.11312857 4278190335
0.11920516 -0.055930037 0.16127768 4278190335
0.12081961 -0.056750122 0.15418406 4278190335
0.12135558 -0.057022378 0.14688769 4278190335
0.12079804 -0.056739166 0.13959335 4278190335
0.11916263 -0.055908427 0.13250577 4278190335
0.11649526 -0.054553486 0.12582389 4278190335
0.11287078 -0.052712366 0.11973522 4278190335
0.10839094 -0.050436743 0.11441066 4278190335
0.10318145 -0.047790486 0.10999965 4278190335
0.097388543 -0.044847865 0.106626 4278190335
0.091174789 -0.041691467 0.10438439 4278190335
0.12096574 -0.056824356 0.14747125 4278190335
0.12147924 -0.057085194 0.14017284 4278190335
0.12089923 -0.056790568 0.13288072 4278190335
0.11924201 -0.055948749 0.12579952 4278190335
0.11655407 -0.054583363 0.119128 4278190335
0.11291087 -0.052732728 0.11305341 4278190335
0.10841465 -0.050448786 0.10774624 4278190335
0.10319161 -0.047795642 0.10335544 4278190335
0.097388342 -0.04484776 0.10000426 4278190335
0.091167718 -0.041687876 0.097786732 4278190335
0.08470434 -0.038404677 0.096765116 4278190335
0.12060372 -0.056640461 0.13353023 4278190335
0.12000126 -0.056334428 0.12624039 4278190335
0.11832224 -0.055481534 0.11916565 4278190335
0.11561377 -0.054105718 0.11250459 4278190335
0.11195188 -0.052245591 0.10644415 4278190335
0.10743934 -0.04995336 0.10115443 4278190335
0.10220281 -0.047293361 0.096783906 4278190335
0.096389256 -0.044340257 0.093455218 4278190335
0.090161838 -0.041176919 0.091261812 4278190335
0.083695352 -0.037892144 0.090265244 4278190335
0.077171274 -0.034578115 0.090493478 4278190335
0.11812969 -0.055383727 0.11986213 4278190335
0.11642888 -0.054519773 0.11279394 4278190335
0.11369992 -0.05313354 0.10614341 4278190335
0.11001939 -0.051263943 0.10009721 4278190335
0.10549058 -0.04896345 0.094825007 4278190335
0.10024062 -0.04629663 0.090474792 4278190335
0.094416849 -0.043338332 0.087168656 4278190335
0.088182718 -0.040171586 0.08499939 4278190335
0.081713192 -0.036885269 0.084027879 4278190335
0.075189866 -0.033571616 0.084281392 4278190335
0.068795808 -0.030323634 0.085752808 4278190335
0.11361597 -0.053090896 0.10686651 4278190335
0.11086653 -0.051694266 0.1002266 4278190335
0.1071674 -0.049815223 0.09419468 4278190335
0.10262238 -0.047506496 0.088940054 4278190335
0.097359054 -0.044832885 0.084610209 4278190335
0.091525137 -0.041869432 0.081326656 4278190335
0.08528436 -0.03869931 0.079181559 4278190335
0.078811884 -0.035411492 0.078235127 4278190335
0.07228937 -0.032098256 0.078513913 4278190335
0.065899886 -0.028852597 0.080010094 4278190335
0.059822761 -0.025765603 0.082681686 4278190335
0.10719449 -0.049828984 0.094923243 4278190335
0.1034768 -0.047940511 0.088905692 4278190335
0.098915637 -0.045623578 0.083668716 4278190335
0.093639001 -0.042943213 0.079359286 4278190335
0.087794997 -0.039974637 0.07609836 4278190335
0.081547655 -0.036801178 0.073977455 4278190335
0.075072303 -0.033511899 0.073056102 4278190335
0.068550691 -0.030199122 0.07336016 4278190335
0.062165853 -0.026955821 0.074881099 4278190335
0.05609699 -0.023873026 0.07757622 4278190335
0.050514434 -0.021037258 0.081369884 4278190335
0.099052981 -0.045693349 0.084381446 4278190335
0.094475709 -0.043368235 0.079162173 4278190335
0.089185834 -0.040681142 0.074873216 4278190335
0.083331831 -0.037707485 0.071634956 4278190335
0.077077985 -0.034530725 0.069538273 4278190335
0.070599839 -0.031240026 0.068642013 4278190335
0.064079203 -0.027927741 0.068971336 4278190335
0.057699084 -0.024686839 0.070517004 4278190335
0.051638559 -0.021608278 0.073235624 4278190335
0.046067722 -0.018778466 0.077050902 4278190335
0.041142926 -0.016276821 0.081855752 4278190335
0.10568535 -0.049062382 0.19074696 4278190335
0.11023143 -0.051371656 0.18549351 4278190335
0.1139318 -0.053251326 0.17946255 4278190335
0.11668258 -0.054648645 0.17282334 4278190335
0.11840659 -0.055524386 0.16576223 4278190335
0.11905543 -0.055853974 0.1584774 4278190335
0.11861089 -0.055628162 0.15117331 4278190335
0.11708544 -0.054853283 0.14405495 4278190335
0.11452191 -0.053551089 0.13732211 4278190335
0.11099224 -0.051758125 0.13116378 4278190335
0.10659549 -0.049524713 0.12575278 4278190335
0.11333483 -0.052948087 0.17975135 4278190335
0.1170166 -0.054818314 0.17370608 4278190335
0.11974692 -0.056205232 0.16705625 4278190335
0.12144917 -0.057069924 0.15998851 4278190335
0.12207557 -0.057388116 0.1527012 4278190335
0.12160853 -0.057150874 0.14539887 4278190335
0.12006117 -0.056364864 0.13828647 4278190335
0.11747693 -0.055052143 0.13156362 4278190335
0.1139283 -0.053249553 0.12541899 4278190335
0.10951492 -0.051007692 0.12002506 4278190335
0.10436064 -0.048389472 0.11553321 4278190335
0.11920255 -0.055928707 0.16745488 4278190335
0.12191238 -0.057305217 0.16079453 4278190335
0.12359285 -0.058158841 0.15372021 4278190335
0.12419679 -0.05846563 0.14643054 4278190335
0.12370727 -0.058216967 0.13913006 4278190335
0.12213802 -0.057419833 0.13202369 4278190335
0.11953307 -0.056096602 0.1253109 4278190335
0.11596555 -0.054284412 0.11918005 4278190335
0.11153558 -0.052034121 0.11380326 4278190335
0.10636749 -0.049408894 0.10933141 4278190335
0.10060634 -0.046482407 0.10589001 4278190335
0.12311696 -0.057917111 0.15421703 4278190335
0.12477564 -0.058759667 0.14713627 4278190335
0.12535714 -0.059055045 0.13984428 4278190335
0.12484512 -0.058794964 0.13254575 4278190335
0.12325399 -0.057986718 0.12544551 4278190335
0.12062839 -0.056652989 0.11874284 4278190335
0.11704201 -0.054831218 0.11262587 4278190335
0.1125955 -0.05257253 0.10726626 4278190335
0.10741367 -0.049940322 0.10281447 4278190335
0.10164195 -0.047008466 0.099395409 4278190335
0.09544234 -0.043859255 0.097105063 4278190335
0.12496366 -0.058855176 0.14042477 4278190335
0.12552269 -0.059139147 0.13313058 4278190335
0.12498821 -0.058867648 0.12583406 4278190335
0.12337522 -0.058048297 0.11874004 4278190335
0.12072899 -0.056704093 0.11204758 4278190335
0.11712379 -0.054872762 0.10594454 4278190335
0.1126608 -0.0526057 0.10060219 4278190335
0.10746529 -0.049966544 0.0961705 4278190335
0.10168308 -0.047029357 0.092773832 4278190335
0.095476449 -0.043876581 0.090507522 4278190335
0.089019604 -0.040596701 0.089435183 4278190335
0.12468866 -0.058715481 0.12648125 4278190335
0.12413171 -0.058432568 0.11918686 4278190335
0.12249687 -0.057602126 0.11209911 4278190335
0.11983005 -0.056247458 0.10541695 4278190335
0.11620607 -0.054406587 0.099327907 4278190335
0.11172666 -0.052131183 0.094002895 4278190335
0.10651753 -0.049485106 0.089591354 4278190335
0.10072489 -0.046542626 0.086217113 4278190335
0.094511315 -0.043386322 0.083974861 4278190335
0.088051207 -0.040104784 0.082927547 4278190335
0.08152587 -0.036790114 0.083104551 4278190335
0.12229999 -0.057502113 0.11279406 4278190335
0.12064334 -0.056660585 0.1057127 4278190335
0.11795595 -0.055295471 0.099040903 4278190335
0.11431324 -0.053445086 0.092965946 4278190335
0.10981745 -0.051161364 0.087658316 4278190335
0.10459476 -0.048508402 0.083266988 4278190335
0.098791763 -0.045560658 0.079915211 4278190335
0.092571326 -0.042400863 0.077697054 4278190335
0.086108021 -0.039117709 0.076674774 4278190335
0.079583272 -0.035803333 0.076877065 4278190335
0.073180191 -0.032550767 0.078298248 4278190335
0.11786748 -0.055250533 0.099763319 4278190335
0.11515956 -0.053874992 0.093101978 4278190335
0.11149815 -0.052015115 0.087041169 4278190335
0.10698605 -0.0497231 0.081750996 4278190335
0.10174987 -0.047063284 0.077379927 4278190335
0.095936581 -0.044110313 0.074050657 4278190335
0.089709349 -0.040947068 0.07185661 4278190335
0.083242938 -0.037662331 0.07085938 4278190335
0.076718844 -0.034348294 0.071086951 4278190335
0.070320182 -0.031097969 0.072532937 4278190335
0.06422653 -0.028002581 0.075156748 4278190335
0.1115207 -0.052026566 0.087769926 4278190335
0.10784066 -0.050157215 0.08172334 4278190335
0.10331228 -0.047856942 0.076450676 4278190335
0.098062672 -0.045190301 0.072099924 4278190335
0.092239171 -0.042232141 0.0687932 4278190335
0.086005211 -0.039065484 0.066623293 4278190335
0.079535775 -0.035779204 0.065651126 4278190335
0.073012419 -0.032465544 0.065903977 4278190335
0.066618249 -0.0292175 0.067374744 4278190335
0.060532711 -0.026126236 0.070022151 4278190335
0.054926619 -0.023278512 0.073771894 4278190335
0.10344518 -0.047924452 0.077164471 4278190335
0.098900594 -0.045615941 0.07190939 4278190335
0.093637615 -0.042942509 0.067579009 4278190335
0.08780396 -0.03997919 0.06429486 4278190335
0.081563361 -0.036809158 0.062149126 4278190335
0.07509096 -0.03352138 0.061202031 4278190335
0.068568431 -0.030208131 0.061480153 4278190335
0.062178824 -0.026962409 0.062975682 4278190335
0.056101479 -0.023875305 0.065646656 4278190335
0.050506968 -0.021033466 0.069418103 4278190335
0.045552306 -0.01851665 0.074184172 4278190335
0.09387698 -0.043064099 0.068256974 4278190335
0.088600695 -0.040383909 0.063947007 4278190335
0.082756959 -0.037415471 0.060685486 4278190335
0.076509789 -0.034242097 0.058563948 4278190335
0.070034511 -0.030952858 0.057641935 4278190335
0.063512877 -0.027640065 0.05794533 4278190335
0.057127912 -0.024396703 0.059465609 4278190335
0.051058833 -0.021313796 0.062160116 4278190335
0.045475971 -0.018477874 0.065953217 4278190335
0.040536016 -0.01596853 0.07073845 4278190335
0.036377624 -0.013856194 0.076381519 4278190335
0.11591998 -0.054261267 0.17197627 4278190335
0.1196394 -0.056150611 0.16596006 4278190335
0.12241115 -0.057558578 0.15933183 4278190335
0.12415747 -0.058445655 0.15227762 4278190335
0.12482933 -0.05878694 0.14499541 4278190335
0.12440788 -0.058572855 0.13768959 4278190335
0.12290495 -0.057809412 0.13056521 4278190335
0.12036271 -0.056518037 0.12382223 4278190335
0.11685253 -0.054734971 0.1176499 4278190335
0.11247291 -0.052510262 0.11222145 4278190335
0.1073468 -0.049906351 0.10768925 4278190335
0.1218643 -0.057280794 0.15972617 4278190335
0.12461562 -0.058678385 0.15308726 4278190335
0.12634021 -0.059554417 0.14602631 4278190335
0.12698963 -0.059884306 0.13874155 4278190335
0.12654568 -0.059658796 0.13143741 4278190335
0.12502082 -0.058884211 0.1243189 4278190335
0.12245783 -0.057582293 0.11758581 4278190335
0.11892866 -0.055789579 0.11142711 4278190335
0.11453235 -0.053556394 0.10601567 4278190335
0.1093923 -0.050945405 0.10150335 4278190335
0.10365277 -0.0480299 0.098016806 4278190335
0.12586124 -0.059311118 0.14651939 4278190335
0.12756406 -0.060176097 0.13945182 4278190335
0.12819105 -0.060494591 0.13216458 4278190335
0.1277246 -0.060257651 0.1248622 4278190335
0.12617782 -0.059471931 0.11774964 4278190335
0.12359411 -0.058159489 0.11102652 4278190335
0.120046 -0.056357153 0.10488153 4278190335
0.11563305 -0.054115511 0.099487156 4278190335
0.11047913 -0.051497478 0.094994776 4278190335
0.10472889 -0.048576534 0.091530494 4278190335
0.098543726 -0.045434661 0.089191534 4278190335
0.12779397 -0.060292885 0.13274196 4278190335
0.12839851 -0.060599972 0.12545232 4278190335
0.12790957 -0.06035161 0.11815181 4278190335
0.1263409 -0.059554771 0.11104528 4278190335
0.1237365 -0.058231816 0.10433221 4278190335
0.12016948 -0.056419875 0.098201014 4278190335
0.11573993 -0.054169808 0.092823759 4278190335
0.11057221 -0.051544763 0.088351384 4278190335
0.10481134 -0.048618417 0.084909402 4278190335
0.098619007 -0.045472901 0.082594417 4278190335
0.092169009 -0.042196501 0.081471406 4278190335
0.12760599 -0.060197398 0.11879661 4278190335
0.12709458 -0.059937615 0.11149803 4278190335
0.12550402 -0.059129663 0.10439762 4278190335
0.12287896 -0.05779621 0.097694688 4278190335
0.11929307 -0.055974688 0.091577344 4278190335
0.114847 -0.053716224 0.086217284 4278190335
0.10966554 -0.051084198 0.081764959 4278190335
0.10389409 -0.048152484 0.078345321 4278190335
0.097694665 -0.045003366 0.076054342 4278190335
0.091241248 -0.041725229 0.074956328 4278190335
0.084714964 -0.038410079 0.075082101 4278190335
0.12530281 -0.059027448 0.10509101 4278190335
0.12369038 -0.058208391 0.097996809 4278190335
0.1210447 -0.056864459 0.091304086 4278190335
0.11743999 -0.055033378 0.085200675 4278190335
0.11297743 -0.052766539 0.079857878 4278190335
0.10778228 -0.050127566 0.075425655 4278190335
0.10200035 -0.047190517 0.072028391 4278190335
0.095793903 -0.044037834 0.069761455 4278190335
0.08933714 -0.040757999 0.068688452 4278190335
0.082811281 -0.037443064 0.068839513 4278190335
0.07639949 -0.034186069 0.070210382 4278190335
0.12095173 -0.056817234 0.092025787 4278190335
0.11828544 -0.055462845 0.085343353 4278190335
0.11466195 -0.053622223 0.079253942 4278190335
0.11018297 -0.05134704 0.073928468 4278190335
0.1049742 -0.048701145 0.069516398 4278190335
0.099181838 -0.045758802 0.066141568 4278190335
0.092968442 -0.042602591 0.063898683 4278190335
0.086508416 -0.039321095 0.062850706 4278190335
0.079983063 -0.036006417 0.063027054 4278190335
0.073575534 -0.032751586 0.064422764 4278190335
0.067465656 -0.029647958 0.066998668 4278190335
0.11467995 -0.053631369 0.079982854 4278190335
0.11103773 -0.051781233 0.073907524 4278190335
0.10654238 -0.049497731 0.06859944 4278190335
0.10132005 -0.046844948 0.064207576 4278190335
0.095517322 -0.043897342 0.060855206 4278190335
0.089297064 -0.04073764 0.058636416 4278190335
0.082833849 -0.037454527 0.057613477 4278190335
0.076309077 -0.034140144 0.057815101 4278190335
0.069905877 -0.030887516 0.059235629 4278190335
0.063803971 -0.027787935 0.061835196 4278190335
0.058174614 -0.024928395 0.065540835 4278190335
0.10667082 -0.049562972 0.069314264 4278190335
0.10215914 -0.047271181 0.064023621 4278190335
0.096923314 -0.044611543 0.059652027 4278190335
0.091110297 -0.041658707 0.056322157 4278190335
0.084883243 -0.038495556 0.054127481 4278190335
0.078416914 -0.035210859 0.053129591 4278190335
0.071892805 -0.031896811 0.053356495 4278190335
0.065494016 -0.028646426 0.054801825 4278190335
0.059400156 -0.025550932 0.057425018 4278190335
0.053782243 -0.022697205 0.061152447 4278190335
0.048797961 -0.020165343 0.065879494 4278190335
0.097158439 -0.04473098 0.060331859 4278190335
0.091909185 -0.042064518 0.055980574 4278190335
0.086085945 -0.039106492 0.05267325 4278190335
0.079852164 -0.035939924 0.050502714 4278190335
0.073382802 -0.032653686 0.049529884 4278190335
0.066859432 -0.029340014 0.049782068 4278190335
0.060465138 -0.026091911 0.051252183 4278190335
0.054379389 -0.023000536 0.053898968 4278190335
0.048772994 -0.02015266 0.057648145 4278190335
0.043803297 -0.017628208 0.062394477 4278190335
0.03960979 -0.015498034 0.068004757 4278190335
0.086420886 -0.039276633 0.053298224 4278190335
0.080587499 -0.036313448 0.050013483 4278190335
0.074347071 -0.033143505 0.047867112 4278190335
0.067874752 -0.029855765 0.046919357 4278190335
0.061352193 -0.026542507 0.047196813 4278190335
0.054962467 -0.023296721 0.048691694 4278190335
0.048884906 -0.020209508 0.051362049 4278190335
0.04329009 -0.017367514 0.055132922 4278190335
0.038335044 -0.014850502 0.059898484 4278190335
0.034158837 -0.012729119 0.06552498 4278190335
0.030878685 -0.011062902 0.071854495 4278190335
0.12328169 -0.058000784 0.15158173 4278190335
0.12607439 -0.059419386 0.14496458 4278190335
0.12784299 -0.060317785 0.13791735 4278190335
0.12853786 -0.06067076 0.13063785 4278190335
0.12813951 -0.060468409 0.12333041 4278190335
0.12665911 -0.059716407 0.1162001 4278190335
0.1241382 -0.058435868 0.10944705 4278190335
0.12064755 -0.056662723 0.1032608 4278190335
0.11628512 -0.054446746 0.09781497 4278190335
0.11117336 -0.051850125 0.093262412 4278190335
0.10545573 -0.048945744 0.089730889 4278190335
0.12736095 -0.060072925 0.13840665 4278190335
0.12910785 -0.060960293 0.13135262 4278190335
0.12978029 -0.061301876 0.12407048 4278190335
0.12935944 -0.061088093 0.11676462 4278190335
0.12785707 -0.060324945 0.10964009 4278190335
0.1253154 -0.059033845 0.10289685 4278190335
0.12180571 -0.057251032 0.09672416 4278190335
0.11742654 -0.055026546 0.091295265 4278190335
0.11230078 -0.052422822 0.086762533 4278190335
0.10657231 -0.04951293 0.08325319 4278190335
0.10040189 -0.046378549 0.080865718 4278190335
0.12937962 -0.061098345 0.12464473 4278190335
0.13002963 -0.061428536 0.11736003 4278190335
0.12958628 -0.061203323 0.11005584 4278190335
0.12806199 -0.060429033 0.10293718 4278190335
0.12549955 -0.05912739 0.096203826 4278190335
0.12197088 -0.057334933 0.090044767 4278190335
0.11757501 -0.055101968 0.084632874 4278190335
0.11243533 -0.052491166 0.080120027 4278190335
0.10669607 -0.049575802 0.076632902 4278190335
0.10051834 -0.046437703 0.074269354 4278190335
0.094075508 -0.043164942 0.073095731 4278190335
0.12927867 -0.06104707 0.11069825 4278190335
0.12881282 -0.060810432 0.10339583 4278190335
0.12726662 -0.060025007 0.096283108 4278190335
0.12468345 -0.05871284 0.089559726 4278190335
0.12113583 -0.056910757 0.083414383 4278190335
0.11672332 -0.054669339 0.078019552 4278190335
0.11156977 -0.052051492 0.073526651 4278190335
0.10581981 -0.049130689 0.070061781 4278190335
0.099634834 -0.045988914 0.067722186 4278190335
0.093188427 -0.042714335 0.06657353 4278190335
0.086661525 -0.039398868 0.066648059 4278190335
0.12706108 -0.059920598 0.096974902 4278190335
0.12549298 -0.059124053 0.089868218 4278190335
0.12288912 -0.057801373 0.08315488 4278190335
0.11932259 -0.055989686 0.07702332 4278190335
0.11489349 -0.053739838 0.071645617 4278190335
0.10972613 -0.051114976 0.067172714 4278190335
0.10396554 -0.048188772 0.063730143 4278190335
0.097773388 -0.045043353 0.061414529 4278190335
0.091323487 -0.041767001 0.060290858 4278190335
0.084796846 -0.038451668 0.060390677 4278190335
0.078376651 -0.035190407 0.061711177 4278190335
0.12279165 -0.05775186 0.083875835 4278190335
0.12016713 -0.056418687 0.07717263 4278190335
0.11658174 -0.054597415 0.071054921 4278190335
0.1121361 -0.05233917 0.065694414 4278190335
0.10695499 -0.049707327 0.061241556 4278190335
0.10118383 -0.046775755 0.05782133 4278190335
0.094984591 -0.043626729 0.055529721 4278190335
0.088531263 -0.040348638 0.054431051 4278190335
0.082004972 -0.037033483 0.054556154 4278190335
0.075588882 -0.033774309 0.055901524 4278190335
0.069463082 -0.030662589 0.058429398 4278190335
0.11659519 -0.054604247 0.07178396 4278190335
0.11299098 -0.05277342 0.065680183 4278190335
0.10852885 -0.0505068 0.060336933 4278190335
0.10333406 -0.047868006 0.055904176 4278190335
0.097552404 -0.044931099 0.052506328 4278190335
0.091346137 -0.041778509 0.050238755 4278190335
0.084889464 -0.038498718 0.049165096 4278190335
0.078363597 -0.035183776 0.049315486 4278190335
0.071951695 -0.031926729 0.050685707 4278190335
0.06583371 -0.028818982 0.0532373 4278190335
0.060181368 -0.025947763 0.05689865 4278190335
0.10865283 -0.050569776 0.061052743 4278190335
0.10417428 -0.048294809 0.055726815 4278190335
0.098965868 -0.045649096 0.051314216 4278190335
0.09317378 -0.042706892 0.04793879 4278190335
0.086960569 -0.039550774 0.045695275 4278190335
0.080500625 -0.036269322 0.044646639 4278190335
0.073975258 -0.032954637 0.044822317 4278190335
0.067567617 -0.029699748 0.046217375 4278190335
0.061457526 -0.026596013 0.048792657 4278190335
0.05581649 -0.023730541 0.052475888 4278190335
0.050802827 -0.021183753 0.057163686 4278190335
0.099196747 -0.045766376 0.051995877 4278190335
0.093974777 -0.043113776 0.047603484 4278190335
0.088172324 -0.040166307 0.044250522 4278190335
0.081952237 -0.037006695 0.042031094 4278190335
0.075489104 -0.033723623 0.041007496 4278190335
0.068964317 -0.030409234 0.041208457 4278190335
0.062561005 -0.027156549 0.042628333 4278190335
0.05645889 -0.024056859 0.045227274 4278190335
0.050829232 -0.021197166 0.04893234 4278190335
0.045830037 -0.018657729 0.053639539 4278190335
0.041601617 -0.016509822 0.059216756 4278190335
0.088503353 -0.040334459 0.04487811 4278190335
0.082690604 -0.037381765 0.041547649 4278190335
0.076463729 -0.034218699 0.039352339 4278190335
0.069997482 -0.030934045 0.03835379 4278190335
0.063473351 -0.02761999 0.038580026 4278190335
0.05707445 -0.024369545 0.040024705 4278190335
0.050980374 -0.021273943 0.042647276 4278190335
0.04536216 -0.018420063 0.046374131 4278190335
0.040377494 -0.015888005 0.051100675 4278190335
0.036166277 -0.013748836 0.056694243 4278190335
0.032846704 -0.012062595 0.062997848 4278190335
0.076885238 -0.034432814 0.039907504 4278190335
0.070651628 -0.031266335 0.037736334 4278190335
0.064182349 -0.027980138 0.036762845 4278190335
0.057658955 -0.024666455 0.037014361 4278190335
0.051264543 -0.02141829 0.038483825 4278190335
0.045178581 -0.018326808 0.041129991 4278190335
0.039571878 -0.015478777 0.044878595 4278190335
0.0346018 -0.012954129 0.049624421 4278190335
0.030407835 -0.010823725 0.055234272 4278190335
0.027107695 -0.0091473553 0.061550703 4278190335
0.024794005 -0.0079720719 0.068396427 4278190335
-0.036292661 0.01837023 0.23650849 4278190335
-0.030380271 0.015977509 0.2401025 4278190335
-0.023994679 0.013393285 0.24258128 4278190335
-0.017315105 0.010690087 0.24387528 4278190335
-0.010529021 0.0079437867 0.24394815 4278190335
-0.0038268906 0.0052314615 0.24279787 4278190335
0.0026031802 0.002629237 0.24045672 4278190335
0.0085807228 0.00021014952 0.23699039 4278190335
0.013937967 -0.0019579059 0.23249619 4278190335
0.018524554 -0.0038140796 0.22710024 4278190335
0.022211755 -0.0053062751 0.22095399 4278190335
-0.024411535 0.013561985 0.24200727 4278190335
-0.018018043 0.010974565 0.24446224 4278190335
-0.011334364 0.0082697058 0.24573134 4278190335
-0.0045480886 0.0055233273 0.24577892 4278190335
0.0021503179 0.0028125087 0.24460366 4278190335
0.0085728532 0.00021333406 0.24223857 4278190335
0.01453926 -0.002201247 0.23874998 4278190335
0.019882081 -0.0043634651 0.23423584 4278190335
0.024451362 -0.006212635 0.22882283 4278190335
0.028118858 -0.0076968563 0.22266288 4278190335
0.030781638 -0.0087744724 0.21592888 4278190335
-0.01183577 0.0084726233 0.24524231 4278190335
-0.0051480676 0.0057661366 0.24648649 4278190335
0.0016383203 0.0030197122 0.24650878 4278190335
0.0083329231 0.00031043289 0.24530858 4278190335
0.014747847 -0.0022856612 0.24291955 4278190335
0.020703046 -0.004695707 0.23940875 4278190335
0.026031381 -0.0068520624 0.23487473 4278190335
0.0305833 -0.0086942064 0.22944473 4278190335
0.034231048 -0.010170436 0.22327115 4278190335
0.036872249 -0.011239318 0.21652725 4278190335
0.038432766 -0.011870855 0.20940235 4278190335
0.0010670237 0.0032509135 0.24611905 4278190335
0.0078534428 0.00050447683 0.24611606 4278190335
0.014544162 -0.0022032307 0.24489091 4278190335
0.020951398 -0.0047962135 0.24247798 4278190335
0.026895318 -0.0072016949 0.23894502 4278190335
0.032209102 -0.0093521615 0.23439117 4278190335
0.036743607 -0.011187257 0.22894423 4278190335
0.040371563 -0.012655478 0.22275709 4278190335
0.04299115 -0.013715615 0.2160034 4278190335
0.044528846 -0.014337913 0.20887272 4278190335
0.044941489 -0.014504909 0.20156518 4278190335
0.013919675 -0.0019505032 0.24461186 4278190335
0.02060643 -0.0046566068 0.24336179 4278190335
0.027005902 -0.0072464473 0.240925 4278190335
0.032938473 -0.0096473359 0.23736989 4278190335
0.038237642 -0.011791888 0.23279627 4278190335
0.042754676 -0.013619914 0.22733246 4278190335
0.046362802 -0.015080107 0.22113185 4278190335
0.048960745 -0.016131485 0.21436843 4278190335
0.050475597 -0.016744539 0.20723207 4278190335
0.050864838 -0.016902063 0.19992302 4278190335
0.050117541 -0.016599637 0.19264646 4278190335
0.026346477 -0.006979581 0.24076478 4278190335
0.032738104 -0.0095662475 0.23830417 4278190335
0.03865926 -0.011962514 0.23472698 4278190335
0.043943752 -0.014101127 0.23013362 4278190335
0.048443262 -0.015922062 0.22465302 4278190335
0.05203151 -0.01737421 0.218439 4278190335
0.054607779 -0.018416818 0.21166594 4278190335
0.056099769 -0.019020619 0.20452398 4278190335
0.0564656 -0.019168671 0.19721353 4278190335
0.055695008 -0.018856814 0.18993978 4278190335
0.05380962 -0.018093806 0.1829069 4278190335
0.037984174 -0.011689311 0.23469029 4278190335
0.043893836 -0.014080928 0.23109107 4278190335
0.049163587 -0.016213575 0.22647804 4278190335
0.053645521 -0.018027397 0.2209807 4278190335
0.05721385 -0.019471483 0.21475334 4278190335
0.059768416 -0.020505307 0.20797074 4278190335
0.061237525 -0.021099849 0.20082325 4278190335
0.061579946 -0.021238426 0.19351147 4278190335
0.060786065 -0.020917146 0.18624064 4278190335
0.058878168 -0.020145027 0.17921482 4278190335
0.055909798 -0.01894374 0.1726312 4278190335
0.048492577 -0.01594202 0.22656596 4278190335
0.053747524 -0.018068677 0.22193332 4278190335
0.05821183 -0.019875363 0.21641931 4278190335
0.061760191 -0.021311371 0.21017869 4278190335
0.064293027 -0.022336397 0.2033866 4278190335
0.065739237 -0.022921674 0.19623367 4278190335
0.066058241 -0.023050774 0.18892068 4278190335
0.065241084 -0.022720074 0.18165284 4278190335
0.063310698 -0.021938855 0.17463417 4278190335
0.060321264 -0.020729043 0.16806166 4278190335
0.056356683 -0.019124592 0.16211975 4278190335
0.057564508 -0.019613393 0.21662925 4278190335
0.062011126 -0.021412922 0.21109864 4278190335
0.065539487 -0.022840835 0.20484482 4278190335
0.068050556 -0.023857053 0.19804333 4278190335
0.069473855 -0.024433058 0.19088507 4278190335
0.069769435 -0.024552679 0.18357092 4278190335
0.068929009 -0.024212562 0.17630619 4278190335
0.06697616 -0.023422252 0.16929474 4278190335
0.063965693 -0.02220393 0.16273341 4278190335
0.059982114 -0.02059179 0.15680631 4278190335
0.055137217 -0.018631078 0.15167981 4278190335
0.064934775 -0.022596112 0.20517065 4278190335
0.068443082 -0.024015911 0.19890372 4278190335
0.070932359 -0.02502331 0.19209291 4278190335
0.072332725 -0.025590032 0.18492939 4278190335
0.072604887 -0.025700174 0.17761418 4278190335
0.071741201 -0.025350645 0.17035262 4278190335
0.069765911 -0.024551254 0.16334851 4278190335
0.066734456 -0.023324436 0.15679842 4278190335
0.062731914 -0.021704623 0.15088621 4278190335
0.05787063 -0.019737281 0.14577779 4278190335
0.052287038 -0.017477622 0.14161655 4278190335
0.070387937 -0.024802983 0.1925251 4278190335
0.072855383 -0.025801549 0.18570507 4278190335
0.074232802 -0.026358986 0.17853636 4278190335
0.074481539 -0.026459647 0.17122018 4278190335
0.0735946 -0.02610071 0.16396187 4278190335
0.071596898 -0.025292246 0.15696517 4278190335
0.068544485 -0.024056945 0.15042642 4278190335
0.064523034 -0.022429481 0.14452915 4278190335
0.059645418 -0.02045553 0.13943888 4278190335
0.054048538 -0.018190494 0.13529849 4278190335
0.047889471 -0.015697945 0.13222416 4278190335
-0.016757546 0.010464446 0.24283251 4278190335
-0.010380139 0.0078835348 0.2453357 4278190335
-0.0037048589 0.0051820753 0.24665524 4278190335
0.0030809422 0.0024358889 0.24675407 4278190335
0.0097868107 -0.00027794941 0.24562943 4278190335
0.016224535 -0.0028832711 0.24331288 4278190335
0.022213431 -0.0053069536 0.23986943 4278190335
0.027585413 -0.0074809729 0.23539574 4278190335
0.032189704 -0.0093443124 0.23001738 4278190335
0.035897084 -0.010844673 0.22388528 4278190335
0.038603492 -0.011939946 0.21717155 4278190335
-0.0042030788 0.0053837034 0.24616244 4278190335
0.0024763865 0.0026805501 0.24745709 4278190335
0.0092624631 -6.5748325e-05 0.24753062 4278190335
0.015964691 -0.0027781129 0.246381 4278190335
0.022394959 -0.0053804168 0.24404047 4278190335
0.028372793 -0.0077996226 0.24057473 4278190335
0.033730417 -0.009967831 0.23608106 4278190335
0.038317457 -0.011824189 0.23068556 4278190335
0.042005178 -0.013316594 0.22453968 4278190335
0.044690069 -0.01440316 0.21781591 4278190335
0.046296783 -0.01505339 0.21070296 4278190335
0.00869371 0.00016442403 0.24713659 4278190335
0.015479982 -0.0025819533 0.24718484 4278190335
0.022178488 -0.0052928119 0.24601024 4278190335
0.028601222 -0.0078920675 0.24364577 4278190335
0.034567922 -0.010306767 0.24015777 4278190335
0.039911125 -0.012469139 0.23564416 4278190335
0.04448086 -0.014318494 0.2302316 4278190335
0.048148878 -0.015802925 0.22407201 4278190335
0.050812222 -0.016880771 0.21733826 4278190335
0.052396148 -0.01752178 0.21021937 4278190335
0.052856199 -0.017707959 0.20291512 4278190335
0.021555826 -0.005040823 0.2457265 4278190335
0.02825053 -0.0077501433 0.24452694 4278190335
0.034665655 -0.010346319 0.24213853 4278190335
0.04062115 -0.012756485 0.23862833 4278190335
0.045949865 -0.014912995 0.23409483 4278190335
0.050502244 -0.016755324 0.22866526 4278190335
0.054150511 -0.018231763 0.22249204 4278190335
0.056792278 -0.019300876 0.21574841 4278190335
0.058353398 -0.019932656 0.20862366 4278190335
0.058790058 -0.020109368 0.20131774 4278190335
0.058089994 -0.019826056 0.19403571 4278190335
0.034007285 -0.01007988 0.24197336 4278190335
0.040414724 -0.012672945 0.23956107 4278190335
0.046358943 -0.015078546 0.23602867 4278190335
0.051673111 -0.01722917 0.23147534 4278190335
0.056208074 -0.019064451 0.22602884 4278190335
0.059836555 -0.020532882 0.21984208 4278190335
0.062456708 -0.021593248 0.21308865 4278190335
0.063995004 -0.022215791 0.20595811 4278190335
0.064408265 -0.022383034 0.1986506 4278190335
0.063684888 -0.022090288 0.19137122 4278190335
0.06184518 -0.021345764 0.18432426 4278190335
0.045684114 -0.014805446 0.23598689 4278190335
0.051616989 -0.017206457 0.23243238 4278190335
0.056916542 -0.019351164 0.22785926 4278190335
0.061434038 -0.021179376 0.22239591 4278190335
0.065042682 -0.022639781 0.21619564 4278190335
0.067641199 -0.02369139 0.20943248 4278190335
0.069156647 -0.024304688 0.20229626 4278190335
0.069546506 -0.024462461 0.19498727 4278190335
0.068799824 -0.024160281 0.18771061 4278190335
0.066937558 -0.02340663 0.18067056 4278190335
0.064011984 -0.02222266 0.17406468 4278190335
0.056244977 -0.019079385 0.22794209 4278190335
0.061529856 -0.021218155 0.22334927 4278190335
0.066029832 -0.023039276 0.2178691 4278190335
0.069618598 -0.024491636 0.21165542 4278190335
0.072195441 -0.025534473 0.20488264 4278190335
0.07368803 -0.02613852 0.19774081 4278190335
0.07405448 -0.02628682 0.19043039 4278190335
0.073284499 -0.025975212 0.18315658 4278190335
0.071399704 -0.025212443 0.1761235 4278190335
0.068452992 -0.024019919 0.16952856 4278190335
0.064527065 -0.022431113 0.16355686 4278190335
0.065381162 -0.022776762 0.21807414 4278190335
0.069863558 -0.02459077 0.21257725 4278190335
0.073432408 -0.02603507 0.20635024 4278190335
0.075987548 -0.027069125 0.19956787 4278190335
0.077457257 -0.027663911 0.19242053 4278190335
0.077800296 -0.027802737 0.1851088 4278190335
0.077007025 -0.027481705 0.17783788 4278190335
0.075099722 -0.026709825 0.17081188 4278190335
0.072131909 -0.025508763 0.16422796 4278190335
0.068186879 -0.023912227 0.15827093 4278190335
0.063375369 -0.021965025 0.15310797 4278190335
0.072825596 -0.025789496 0.20667148 4278190335
0.076374486 -0.027225718 0.2004312 4278190335
0.078907892 -0.028250977 0.19363937 4278190335
0.080354705 -0.028836498 0.18648657 4278190335
0.080674328 -0.028965846 0.1791736 4278190335
0.079857782 -0.028635394 0.17190571 4278190335
0.077927992 -0.027854413 0.16488685 4278190335
0.074939109 -0.026644826 0.15831403 4278190335
0.070975028 -0.025040578 0.15237173 4278190335
0.066147014 -0.023086699 0.14722674 4278190335
0.060590558 -0.020838024 0.14302345 4278190335
0.078360677 -0.028029522 0.19406742 4278190335
0.08087232 -0.029045971 0.18726619 4278190335
0.082296222 -0.02962222 0.18010806 4278190335
0.08259242 -0.02974209 0.17279394 4278190335
0.081752606 -0.029402221 0.16552912 4278190335
0.079800345 -0.02861215 0.15851749 4278190335
0.076790437 -0.027394051 0.15195586 4278190335
0.072807357 -0.025782114 0.14602837 4278190335
0.067962892 -0.023821577 0.14090139 4278190335
0.06239301 -0.021567469 0.13671882 4278190335
0.05625404 -0.019083053 0.13359807 4278190335
0.081824601 -0.029431356 0.18063042 4278190335
0.083225571 -0.029998323 0.17346703 4278190335
0.083498351 -0.030108716 0.16615185 4278190335
0.082635276 -0.029759433 0.1588902 4278190335
0.080660574 -0.02896028 0.1518859 4278190335
0.077629671 -0.027733685 0.14533551 4278190335
0.073627628 -0.026114075 0.13942291 4278190335
0.068766773 -0.024146907 0.13431402 4278190335
0.063183531 -0.021887392 0.13015224 4278190335
0.057034608 -0.019398946 0.12705436 4278190335
0.050492581 -0.016751412 0.12510736 4278190335
0.0034730146 0.0022772185 0.24562702 4278190335
0.010143916 -0.00042246858 0.24697207 4278190335
0.016929349 -0.0031685065 0.24709685 4278190335
0.023638872 -0.0058838236 0.24599786 4278190335
0.030084169 -0.0084922099 0.24370596 4278190335
0.036084346 -0.010920458 0.24028544 4278190335
0.041470997 -0.013100414 0.23583233 4278190335
0.046092935 -0.014970894 0.2304716 4278190335
0.049820442 -0.016479401 0.22435372 4278190335
0.052548897 -0.017583596 0.21765038 4278190335
0.054201726 -0.018252488 0.21054974 4278190335
0.016363166 -0.0029393747 0.24669853 4278190335
0.02314896 -0.0056855581 0.24679802 4278190335
0.029854922 -0.0083994344 0.24567404 4278190335
0.036292844 -0.011004835 0.24335812 4278190335
0.04228203 -0.013428635 0.23991527 4278190335
0.047654387 -0.015602808 0.23544212 4278190335
0.052259132 -0.017466329 0.2300642 4278190335
0.055967025 -0.0189669 0.22393246 4278190335
0.058674 -0.020062402 0.217219 4278190335
0.060304079 -0.020722087 0.21011223 4278190335
0.060811512 -0.020927444 0.20281163 4278190335
0.029234117 -0.0081481971 0.24538559 4278190335
0.035936441 -0.010860601 0.24423662 4278190335
0.042366907 -0.013462985 0.24189672 4278190335
0.048345033 -0.015882308 0.23843157 4278190335
0.053703032 -0.018050671 0.23393841 4278190335
0.05829053 -0.019907212 0.22854337 4278190335
0.061978769 -0.021399828 0.22239785 4278190335
0.06466423 -0.022486622 0.21567434 4278190335
0.066271536 -0.023137094 0.20856154 4278190335
0.066755593 -0.023332989 0.20125911 4278190335
0.066102795 -0.023068806 0.19397196 4278190335
0.041709624 -0.013196986 0.24172658 4278190335
0.048132561 -0.015796322 0.23936272 4278190335
0.054099556 -0.018211141 0.23587531 4278190335
0.059443135 -0.020373667 0.23136222 4278190335
0.064013332 -0.022223206 0.22595011 4278190335
0.067681864 -0.023707848 0.21979088 4278190335
0.070345774 -0.024785923 0.2130574 4278190335
0.071930304 -0.025427174 0.20593867 4278190335
0.072390966 -0.025613604 0.19863445 4278190335
0.071714841 -0.025339978 0.19134979 4278190335
0.069920905 -0.024613978 0.18428911 4278190335
0.053425014 -0.017938156 0.23582843 4278190335
0.059380803 -0.020348441 0.2323188 4278190335
0.064709902 -0.022505106 0.22778583 4278190335
0.069262736 -0.02434762 0.22235672 4278190335
0.072911523 -0.025824271 0.21618386 4278190335
0.075553864 -0.026893614 0.20944048 4278190335
0.07711558 -0.027525635 0.20231588 4278190335
0.077552855 -0.027702598 0.19501001 4278190335
0.076853409 -0.027419534 0.1877279 4278190335
0.075036868 -0.026684389 0.18067396 4278190335
0.072154231 -0.025517795 0.17404614 4278190335
0.064037815 -0.022233116 0.22786359 4278190335
0.069352366 -0.024383893 0.22331077 4278190335
0.073887788 -0.026219361 0.21786474 4278190335
0.077516787 -0.027688002 0.21167831 4278190335
0.080137514 -0.0287486 0.20492513 4278190335
0.081676409 -0.029371385 0.19779475 4278190335
0.082090288 -0.029538879 0.19048728 4278190335
0.081367522 -0.029246379 0.18320782 4278190335
0.079528406 -0.028502097 0.17616069 4278190335
0.076624557 -0.027326921 0.16954367 4278190335
0.072737478 -0.025753835 0.16354246 4278190335
0.073237807 -0.025956316 0.21806486 4278190335
0.077755764 -0.027784714 0.21260194 4278190335
0.08136493 -0.02924533 0.20640203 4278190335
0.083964013 -0.030297169 0.19963914 4278190335
0.085480072 -0.03091071 0.19250306 4278190335
0.085870542 -0.031068733 0.1851941 4278190335
0.08512447 -0.030766802 0.17791739 4278190335
0.083262801 -0.030013392 0.17087714 4278190335
0.080337778 -0.028829647 0.16427098 4278190335
0.076431505 -0.027248792 0.15828431 4278190335
0.071653612 -0.025315197 0.15308514 4278190335
0.080756053 -0.028998919 0.2067187 4278190335
0.084345341 -0.030451491 0.20050538 4278190335
0.086922757 -0.031494562 0.19373283 4278190335
0.088415951 -0.032098848 0.18659115 4278190335
0.088783018 -0.032247398 0.17928077 4278190335
0.088013649 -0.031936038 0.17200688 4278190335
0.086129442 -0.03117351 0.16497362 4278190335
0.083183289 -0.029981213 0.15837839 4278190335
0.079257861 -0.028392609 0.15240631 4278190335
0.074463345 -0.026452286 0.14722498 4278190335
0.068934307 -0.024214705 0.14297983 4278190335
0.086372778 -0.031271987 0.19415675 4278190335
0.088928491 -0.032306273 0.18737464 4278190335
0.090398803 -0.032901302 0.18022744 4278190335
0.090742454 -0.033040378 0.17291574 4278190335
0.089949802 -0.032719593 0.16564475 4278190335
0.088043086 -0.031947955 0.15861855 4278190335
0.085075825 -0.030747116 0.15203436 4278190335
0.081131302 -0.029150782 0.14607693 4278190335
0.076320224 -0.027203757 0.1409135 4278190335
0.070777617 -0.024960687 0.13668898 4278190335
0.064659052 -0.022484528 0.13352193 4278190335
0.089923806 -0.032709073 0.18074623 4278190335
0.091371223 -0.033294838 0.1735936 4278190335
0.091691457 -0.033424437 0.16628066 4278190335
0.090875529 -0.033094231 0.15901266 4278190335
0.08894632 -0.032313488 0.15199362 4278190335
0.085957997 -0.031104125 0.14542051 4278190335
0.081994422 -0.029500082 0.13947782 4278190335
0.077166833 -0.027546378 0.13433236 4278190335
0.071610734 -0.025297847 0.13012852 4278190335
0.065482065 -0.022817597 0.1269843 4278190335
0.058952827 -0.020175241 0.12498794 4278190335
0.091305323 -0.033268169 0.16687915 4278190335
0.091602139 -0.033388287 0.15956506 4278190335
0.090762936 -0.033048667 0.15230016 4278190335
0.088811271 -0.032258835 0.14528835 4278190335
0.085801914 -0.031040959 0.13872641 4278190335
0.081819326 -0.029429223 0.13279854 4278190335
0.076975293 -0.027468862 0.12767109 4278190335
0.071405768 -0.025214896 0.12348798 4278190335
0.065267064 -0.022730587 0.12036662 4278190335
0.058731474 -0.020085659 0.1183946 4278190335
0.051982429 -0.017354349 0.11762729 4278190335
0.023854913 -0.0059712548 0.24481684 4278190335
0.030639894 -0.0087171094 0.24496756 4278190335
0.037352987 -0.011433871 0.24389425 4278190335
0.043805774 -0.01404529 0.24162701 4278190335
0.049817156 -0.016478071 0.23822947 4278190335
0.055218406 -0.018663935 0.23379698 4278190335
0.059857935 -0.020541534 0.22845398 4278190335
0.063605525 -0.02205817 0.22235039 4278190335
0.066355996 -0.023171274 0.21565753 4278190335
0.068032146 -0.023849607 0.20856325 4278190335
0.068586938 -0.024074128 0.20126666 4278190335
0.036734067 -0.011183397 0.24360111 4278190335
0.043443684 -0.013898752 0.24250279 4278190335
0.049889173 -0.016507216 0.24021152 4278190335
0.055889636 -0.01893558 0.2367916 4278190335
0.061276663 -0.021115689 0.23233901 4278190335
0.065899052 -0.022986351 0.22697873 4278190335
0.069627076 -0.024495067 0.22086121 4278190335
0.072356097 -0.025599491 0.21415815 4278190335
0.074009523 -0.026268626 0.20705767 4278190335
0.07454095 -0.026483692 0.19975905 4278190335
0.073935457 -0.02623865 0.19246715 4278190335
0.049233012 -0.016241672 0.2400364 4278190335
0.055671129 -0.018847151 0.23772112 4278190335
0.061660606 -0.021271069 0.23427884 4278190335
0.067033343 -0.023445392 0.22980621 4278190335
0.071638539 -0.025309099 0.22442874 4278190335
0.075346947 -0.026809877 0.21829738 4278190335
0.078054488 -0.027905608 0.21158418 4278190335
0.079685166 -0.028565537 0.20447758 4278190335
0.080193214 -0.028771142 0.19717702 4278190335
0.079564378 -0.028516654 0.18988743 4278190335
0.0778163 -0.027809212 0.18281338 4278190335
0.060986385 -0.020998213 0.23422688 4278190335
0.066964805 -0.023417655 0.2307623 4278190335
0.072323181 -0.025586171 0.22626968 4278190335
0.076911137 -0.027442897 0.22087508 4278190335
0.080599889 -0.028935721 0.21472992 4278190335
0.083285913 -0.030022746 0.20800668 4278190335
0.08489383 -0.030673461 0.20089404 4278190335
0.085378498 -0.030869603 0.19359164 4278190335
0.084726319 -0.03060567 0.18630444 4278190335
0.082955591 -0.029889066 0.17923695 4278190335
0.080116026 -0.028739905 0.17258753 4278190335
0.071650609 -0.025313983 0.22634237 4278190335
0.076994568 -0.027476663 0.2218298 4278190335
0.081565224 -0.029326387 0.21641813 4278190335
0.085234277 -0.030811239 0.21025927 4278190335
0.087898754 -0.031889543 0.20352605 4278190335
0.08948388 -0.032531038 0.19640747 4278190335
0.08994516 -0.032717716 0.18910331 4278190335
0.089269653 -0.032444339 0.18181857 4278190335
0.087476306 -0.031718582 0.17475772 4278190335
0.084615469 -0.03056081 0.16811892 4278190335
0.080767423 -0.02900352 0.16208853 4278190335
0.080913953 -0.029062822 0.21661335 4278190335
0.085467249 -0.030905522 0.2111847 4278190335
0.089116558 -0.032382384 0.20501219 4278190335
0.091759458 -0.033451956 0.19826908 4278190335
0.093321785 -0.034084219 0.19114463 4278190335
0.093759671 -0.034261432 0.1838388 4278190335
0.093060836 -0.033978615 0.17655662 4278190335
0.091244891 -0.033243712 0.1695025 4278190335
0.088362813 -0.032077346 0.1628744 4278190335
0.084495477 -0.030512249 0.15685838 4278190335
0.079751432 -0.028592354 0.15162326 4278190335
0.088505641 -0.032135148 0.20532425 4278190335
0.092135161 -0.033604 0.19913818 4278190335
0.094756454 -0.034664828 0.19238526 4278190335
0.096295953 -0.035287857 0.18525502 4278190335
0.096710443 -0.035455599 0.1779476 4278190335
0.095988296 -0.035163347 0.17066808 4278190335
0.094149776 -0.034419306 0.16362076 4278190335
0.091246478 -0.033244357 0.15700345 4278190335
0.087359905 -0.031671472 0.15100187 4278190335
0.082599126 -0.029744804 0.14578447 4278190335
0.077097766 -0.027518425 0.14149766 4278190335
0.09420374 -0.034441147 0.19280502 4278190335
0.096803397 -0.035493214 0.18604237 4278190335
0.098320052 -0.036107 0.17890644 4278190335
0.09871114 -0.036265273 0.17159753 4278190335
0.09796568 -0.035963587 0.16432072 4278190335
0.096104607 -0.035210419 0.15728031 4278190335
0.093180142 -0.034026898 0.15067385 4278190335
0.089274369 -0.03244625 0.14468679 4278190335
0.084496915 -0.03051283 0.13948716 4278190335
0.078981854 -0.028280908 0.13522089 4278190335
0.072883986 -0.025813127 0.13200772 4278190335
0.097841695 -0.035913412 0.17942163 4278190335
0.099335492 -0.036517944 0.1722801 4278190335
0.09970317 -0.036666743 0.16496977 4278190335
0.098934419 -0.03635563 0.1576958 4278190335
0.097050808 -0.035593342 0.15066235 4278190335
0.094105206 -0.034401268 0.14406684 4278190335
0.090180285 -0.032812867 0.13809437 4278190335
0.085386202 -0.030872723 0.13291258 4278190335
0.079857521 -0.028635286 0.12866688 4278190335
0.073749401 -0.026163355 0.12547645 4278190335
0.067233279 -0.023526305 0.12343083 4278190335
0.099313162 -0.036508907 0.16556534 4278190335
0.099657431 -0.036648232 0.15825367 4278190335
0.09886539 -0.036327694 0.1509826 4278190335
0.096959263 -0.035556294 0.14395623 4278190335
0.093992561 -0.034355681 0.13737173 4278190335
0.090048537 -0.032759551 0.13141392 4278190335
0.08523789 -0.030812703 0.12625001 4278190335
0.079695642 -0.028569777 0.12202495 4278190335
0.073577344 -0.026093725 0.11885731 4278190335
0.067054711 -0.02345404 0.11683599 4278190335
0.060310811 -0.020724813 0.11601773 4278190335
0.098575123 -0.036210224 0.15164115 4278190335
0.097759798 -0.035880268 0.14437307 4278190335
0.095831186 -0.035099767 0.13735384 4278190335
0.092843413 -0.033890627 0.13078044 4278190335
0.088880338 -0.032286786 0.12483737 4278190335
0.084053189 -0.030333256 0.11969142 4278190335
0.07849744 -0.028084869 0.11548704 4278190335
0.072369032 -0.025604727 0.11234222 4278190335
0.065839969 -0.02296244 0.11034521 4278190335
0.05909349 -0.020232167 0.10955209 4278190335
0.052318949 -0.017490538 0.1099851 4278190335
0.043839976 -0.01405913 0.24042377 4278190335
