# .PCD v0.7 - Point Cloud Data file format
VERSION 0.7
FIELDS x y z rgb
SIZE 4 4 4 4
TYPE F F F U
COUNT 1 1 1 1
WIDTH 81
HEIGHT 1
VIEWPOINT 0 0 0 1 0 0 0
POINTS 81
DATA ascii
0.036104653 -0.0046356069 0.2444063 4278190335
0.051588111 -0.0072934898 0.23560849 4278190335
0.062261224 -0.0091256322 0.2212234 4278190335
0.066503018 -0.0098537765 0.22824347 4278190335
0.076995701 -0.011654945 0.21372236 4278190335
0.080827355 -0.012312686 0.19614144 4278190335
0.087556712 -0.013467845 0.20074424 4278190335
0.09116859 -0.014087857 0.1831155 4278190335
0.087468602 -0.013452719 0.16550556 4278190335
0.08516454 -0.013057204 0.22309865 4278190335
0.096021056 -0.014920829 0.20885554 4278190335
0.10029614 -0.015654689 0.19138019 4278190335
0.10690685 -0.016789481 0.1961567 4278190335
0.11096344 -0.017485833 0.1786278 4278190335
0.10771009 -0.016927365 0.16092733 4278190335
0.11567792 -0.018295119 0.16249175 4278190335
0.11220387 -0.017698765 0.1448345 4278190335
0.10200811 -0.015948566 0.13009727 4278190335
0.12209674 -0.01939697 0.18401372 4278190335
0.12659536 -0.0201692 0.16659623 4278190335
0.1237908 -0.019687772 0.14881687 4278190335
0.13171643 -0.021048281 0.15058826 4278190335
0.12869014 -0.02052879 0.13284637 4278190335
0.1188705 -0.018843155 0.11784849 4278190335
0.12680641 -0.020205431 0.11612511 4278190335
0.11680033 -0.018487791 0.10125464 4278190335
0.10173441 -0.015901582 0.091739781 4278190335
0.036455654 -0.001551888 0.2444063 4278190335
0.052140359 -0.0024416824 0.23560849 4278190335
0.062952198 -0.0030550386 0.2212234 4278190335
0.067249134 -0.0032988037 0.22824347 4278190335
0.077878192 -0.0039017911 0.21372236 4278190335
0.081759654 -0.0041219867 0.19614144 4278190335
0.088576473 -0.0045087053 0.20074424 4278190335
0.092235297 -0.0047162706 0.1831155 4278190335
0.088487215 -0.0045036417 0.16550556 4278190335
0.086153209 -0.0043712333 0.22309865 4278190335
0.097150832 -0.0049951291 0.20885554 4278190335
0.10148149 -0.0052408073 0.19138019 4278190335
0.10817813 -0.0056207082 0.1961567 4278190335
0.11228744 -0.0058538299 0.1786278 4278190335
0.10899181 -0.0056668683 0.16092733 4278190335
0.11706319 -0.0061247586 0.16249175 4278190335
0.11354399 -0.0059251138 0.1448345 4278190335
0.10321571 -0.0053391899 0.13009727 4278190335
0.12356544 -0.0064936318 0.18401372 4278190335
0.12812254 -0.0067521557 0.16659623 4278190335
0.12528153 -0.0065909852 0.14881687 4278190335
0.13331017 -0.0070464504 0.15058826 4278190335
0.13024455 -0.0068725375 0.13284637 4278190335
0.12029728 -0.0063082282 0.11784849 4278190335
0.12833633 -0.0067642843 0.11612511 4278190335
0.1182002 -0.0061892606 0.10125464 4278190335
0.10293845 -0.0053234613 0.091739781 4278190335
0.036455661 0.0015517428 0.2444063 4278190335
0.052140374 0.002441454 0.23560849 4278190335
0.06295222 0.0030547529 0.2212234 4278190335
0.067249149 0.0032984952 0.22824347 4278190335
0.077878214 0.003901426 0.21372236 4278190335
0.081759676 0.0041216011 0.19614144 4278190335
0.088576503 0.0045082835 0.20074424 4278190335
0.092235319 0.0047158292 0.1831155 4278190335
0.088487245 0.0045032203 0.16550556 4278190335
0.086153232 0.004370824 0.22309865 4278190335
0.097150862 0.004994662 0.20885554 4278190335
0.10148151 0.005240317 0.19138019 4278190335
0.10817816 0.0056201825 0.1961567 4278190335
0.11228747 0.0058532823 0.1786278 4278190335
0.10899184 0.0056663384 0.16092733 4278190335
0.11706323 0.0061241859 0.16249175 4278190335
0.11354402 0.0059245597 0.1448345 4278190335
0.10321574 0.0053386902 0.13009727 4278190335
0.12356548 0.0064930241 0.18401372 4278190335
0.12812257 0.0067515243 0.16659623 4278190335
0.12528156 0.0065903687 0.14881687 4278190335
0.13331021 0.0070457915 0.15058826 4278190335
0.13024458 0.0068718945 0.13284637 4278190335
0.12029731 0.0063076383 0.11784849 4278190335
0.12833637 0.0067636515 0.11612511 4278190335
0.11820023 0.0061886818 0.10125464 4278190335
0.10293848 0.005322963 0.091739781 4278190335
