# .PCD v0.7 - Point Cloud Data file format
VERSION 0.7
FIELDS x y z rgb
SIZE 4 4 4 4
TYPE F F F U
COUNT 1 1 1 1
WIDTH 256
HEIGHT 1
VIEWPOINT 0 0 0 1 0 0 0
POINTS 256
DATA ascii
-0.013706202 -0.047911137 0.24294096 4284769380
0.0083497781 -0.056480441 0.24273357 4284769380
0.027434792 -0.062820122 0.2302631 4284769380
0.037952907 -0.065071322 0.209186 4284769380
0.028550124 -0.064069025 0.23957455 4284769380
0.047493428 -0.070331432 0.22685151 4284769380
0.057765059 -0.072475083 0.20564207 4284769380
0.056353264 -0.069871433 0.18216506 4284769380
0.063364603 -0.075275794 0.21273489 4284769380
0.0733881 -0.077311553 0.19139649 4284769380
0.071697548 -0.07460203 0.1679499 4284769380
0.058788635 -0.067941688 0.14926991 4284769380
0.080064744 -0.078095987 0.17064975 4284769380
0.078095712 -0.075281024 0.14723735 4284769380
0.064961217 -0.06854894 0.12874122 4284769380
0.044512451 -0.059873652 0.12058467 4284769380
0.05292286 -0.073117152 0.23452996 4284769380
0.072150134 -0.079535082 0.22232077 4284769380
0.082919464 -0.081896283 0.20138304 4284769380
0.08207316 -0.079508416 0.17785595 4284769380
0.088342249 -0.084641919 0.20863299 4284769380
0.098866828 -0.086895943 0.18755943 4284769380
0.097741358 -0.084401384 0.16405512 4284769380
0.085295841 -0.077889673 0.14501177 4284769380
0.10603416 -0.087886579 0.16698594 4284769380
0.1046297 -0.085285723 0.1435082 4284769380
0.091954447 -0.078700118 0.12464262 4284769380
0.071724929 -0.070060737 0.11592082 4284769380
0.10057507 -0.081856474 0.12235588 4284769380
0.087672122 -0.075198032 0.1036711 4284769380
0.06733273 -0.066540219 0.095227554 4284769380
0.045520622 -0.058421601 0.099500991 4284769380
0.10729017 -0.09048333 0.19107732 4284769380
0.11830889 -0.092954129 0.1702825 4284769380
0.11774924 -0.090676174 0.14673595 4284769380
0.10577532 -0.084317386 0.12734179 4284769380
0.12596218 -0.09415032 0.14989582 4284769380
0.12512323 -0.09176527 0.12636818 4284769380
0.11291557 -0.085330486 0.10714558 4284769380
0.092918612 -0.07673271 0.097864278 4284769380
0.12158128 -0.088525005 0.10509437 4284769380
0.10914183 -0.082015254 0.08604639 4284769380
0.089028448 -0.073396236 0.077040471 4284769380
0.067138597 -0.065195143 0.080717243 4284769380
0.095490426 -0.075331837 0.070406981 4284769380
0.075263843 -0.066692963 0.061677877 4284769380
0.05341056 -0.058531899 0.065649435 4284769380
0.036338203 -0.053241566 0.081157148 4284769380
0.1341836 -0.095150568 0.12474121 4284769380
0.1339107 -0.092982903 0.10117919 4284769380
0.12217867 -0.086703174 0.081612207 4284769380
0.10242746 -0.078152664 0.07177753 4284769380
0.13088375 -0.089933746 0.079797879 4284769380
0.11891601 -0.08357697 0.060399257 4284769380
0.099041894 -0.075002432 0.050836887 4284769380
0.077088714 -0.066724271 0.053914573 4284769380
0.10565583 -0.077012435 0.044377577 4284769380
0.085661978 -0.068415232 0.035089053 4284769380
0.063738249 -0.060174428 0.038462669 4284769380
0.046312906 -0.054706316 0.053509243 4284769380
0.066233501 -0.060347687 0.029338492 4284769380
0.044342738 -0.052145563 0.033007499 4284769380
0.027090173 -0.046764743 0.048282906 4284769380
0.019534459 -0.045782939 0.070685796 4284769380
-0.015175789 -0.053725325 0.24243228 4284769380
0.0083014369 -0.056671694 0.24271683 4284769380
0.028616253 -0.058145862 0.23067203 4284769380
0.039812136 -0.057715584 0.20982955 4284769380
0.029803455 -0.059110418 0.24000837 4284769380
0.049967431 -0.060543444 0.22770785 4284769380
0.060900945 -0.060068455 0.2067275 4284769380
0.059398174 -0.057824723 0.18321902 4284769380
0.066861309 -0.061441623 0.21394522 4284769380
0.077530704 -0.060922001 0.19283038 4284769380
0.075731218 -0.058643464 0.16934609 4284769380
0.061990477 -0.05527411 0.15037818 4284769380
0.084637582 -0.060004298 0.17223257 4284769380
0.082541667 -0.057691321 0.14877623 4284769380
0.068560816 -0.054307733 0.12998717 4284769380
0.046794362 -0.050845634 0.12137452 4284769380
0.055746727 -0.061944984 0.2355074 4284769380
0.076212965 -0.063461132 0.22372706 4284769380
0.087676249 -0.063076809 0.20302953 4284769380
0.086775415 -0.060904704 0.17948356 4284769380
0.093448475 -0.064439967 0.21040043 4284769380
0.10465124 -0.064010866 0.18956162 4284769380
0.10345324 -0.061803229 0.1660322 4284769380
0.090205759 -0.058464371 0.14671127 4284769380
0.11228041 -0.06317427 0.169148 4284769380
0.11078545 -0.060931463 0.14563891 4284769380
0.097293437 -0.057577275 0.12649062 4284769380
0.075760365 -0.054095194 0.11731762 4284769380
0.10646956 -0.058535896 0.12439617 4284769380
0.092735164 -0.055166923 0.10542359 4284769380
0.071085133 -0.051694419 0.096526392 4284769380
0.047867499 -0.04913656 0.10031333 4284769380
0.11361736 -0.06545081 0.19326739 4284769380
0.12534611 -0.065112509 0.17271832 4284769380
0.1247504 -0.062977232 0.14915928 4284769380
0.1120049 -0.059671067 0.12949806 4284769380
0.13349256 -0.064357579 0.15250236 4284769380
0.13259955 -0.062186413 0.128956 4284769380
0.11960524 -0.058863837 0.10946111 4284769380
0.098319732 -0.055364069 0.099733792 4284769380
0.12882936 -0.059849128 0.10760318 4284769380
0.11558834 -0.056510676 0.08827775 4284769380
0.094178885 -0.053019349 0.078823216 4284769380
0.070878491 -0.050398838 0.082011752 4284769380
0.10105726 -0.053307541 0.072333857 4284769380
0.079527318 -0.049825214 0.063153617 4284769380
0.056265846 -0.047235407 0.066637747 4284769380
0.038093381 -0.046297483 0.081764676 4284769380
0.14224376 -0.063261867 0.12753111 4284769380
0.14195326 -0.061163776 0.103963 4284769380
0.12946524 -0.057875 0.084134348 4284769380
0.10844131 -0.054359846 0.073859133 4284769380
0.13873127 -0.058886308 0.082514182 4284769380
0.12599234 -0.055580579 0.06284862 4284769380
0.10483758 -0.052072726 0.052842978 4284769380
0.081469774 -0.049391292 0.055431012 4284769380
0.1118777 -0.052396581 0.046531182 4284769380
0.090595491 -0.048896596 0.036796711 4284769380
0.067259036 -0.046245009 0.039681338 4284769380
0.048710834 -0.045219295 0.054339249 4284769380
0.069915079 -0.04578213 0.030612813 4284769380
0.046613712 -0.043160815 0.033793561 4284769380
0.028249426 -0.042178348 0.048684165 4284769380
0.020206837 -0.043122791 0.07091853 4284769380
-0.015175804 -0.059720989 0.24190773 4284769380
0.008301436 -0.056868918 0.24269958 4284769380
0.028616266 -0.053325698 0.23109375 4284769380
0.039812155 -0.050130241 0.21049318 4284769380
0.029803468 -0.053997036 0.24045573 4284769380
0.049967457 -0.05044993 0.22859092 4284769380
0.060900979 -0.047274563 0.20784682 4284769380
0.059398208 -0.045401994 0.18430586 4284769380
0.066861346 -0.047175631 0.21519333 4284769380
0.077530749 -0.044020865 0.19430904 4284769380
0.075731263 -0.042186771 0.17078586 4284769380
0.061990511 -0.042211127 0.15152104 4284769380
0.084637634 -0.041347895 0.1738648 4284769380
0.082541712 -0.039552573 0.15036318 4284769380
0.068560854 -0.039621998 0.131272 4284769380
0.046794388 -0.041535817 0.12218902 4284769380
0.055746756 -0.050424088 0.23651534 4284769380
0.07621301 -0.046885449 0.22517724 4284769380
0.087676302 -0.043669909 0.20472741 4284769380
0.086775459 -0.041720297 0.18116198 4284769380
0.093448535 -0.043607432 0.21222304 4284769380
0.1046513 -0.040411454 0.1916263 4284769380
0.10345331 -0.038499705 0.16807099 4284769380
0.090205811 -0.038432732 0.1484638 4284769380
0.11228048 -0.037690595 0.17137752 4284769380
0.11078552 -0.035817016 0.14783613 4284769380
0.097293496 -0.035795111 0.12839632 4284769380
0.075760402 -0.037631307 0.11875802 4284769380
0.10646962 -0.0344874 0.12650013 4284769380
0.092735216 -0.034510572 0.10723078 4284769380
0.071085177 -0.036385227 0.097865775 4284769380
0.047867525 -0.039561696 0.10115102 4284769380
0.11361743 -0.039636932 0.19552581 4284769380
0.12534618 -0.036401849 0.17523018 4284769380
0.12475047 -0.034413703 0.15165827 4284769380
0.11200497 -0.034255441 0.13172165 4284769380
0.13349265 -0.033634894 0.15519023 4284769380
0.13259962 -0.031684287 0.13162458 4284769380
0.11960532 -0.031571068 0.11184891 4284769380
0.098319791 -0.033328429 0.10166166 4284769380
0.12882943 -0.030278172 0.1101903 4284769380
0.1155884 -0.030210011 0.090578757 4284769380
0.094178945 -0.032006424 0.08066161 4284769380
0.070878536 -0.035140682 0.083346665 4284769380
0.10105733 -0.030595783 0.074320875 4284769380
0.079527363 -0.032430962 0.064675413 4284769380
0.056265879 -0.035586312 0.067656912 4284769380
0.038093399 -0.039136652 0.082391173 4284769380
0.14224383 -0.030377798 0.13040809 4284769380
0.14195335 -0.028351454 0.1068337 4284769380
0.12946533 -0.028146993 0.086735211 4284769380
0.10844138 -0.029824365 0.076005705 4284769380
0.13873136 -0.026869761 0.085315265 4284769380
0.12599242 -0.026710315 0.065374441 4284769380
0.10483764 -0.028427303 0.054911681 4284769380
0.081469826 -0.031517286 0.056994785 4284769380
0.11187777 -0.027012376 0.04875201 4284769380
0.090595543 -0.028768707 0.038557675 4284769380
0.067259073 -0.031880796 0.040938042 4284769380
0.04871086 -0.035436146 0.055195164 4284769380
0.069915116 -0.030761926 0.031926911 4284769380
0.046613734 -0.033895623 0.034604162 4284769380
0.028249439 -0.037448794 0.049097944 4284769380
0.020206843 -0.04037961 0.071158528 4284769380
-0.013706248 -0.06553518 0.24139905 4284769380
0.0083497763 -0.057060171 0.24268284 4284769380
0.02743483 -0.048651431 0.2315027 4284769380
0.037952967 -0.042774491 0.21113673 4284769380
0.028550163 -0.049038425 0.24088955 4284769380
0.047493506 -0.040661924 0.22944726 4284769380
0.05776516 -0.034867916 0.20893227 4284769380
0.05635336 -0.03335527 0.18535981 4284769380
0.063364714 -0.033341438 0.21640366 4284769380
0.073388234 -0.027631287 0.19574295 4284769380
0.071697682 -0.026228184 0.17218205 4284769380
0.058788735 -0.029543532 0.15262932 4284769380
0.080064893 -0.023256177 0.17544761 4284769380
0.078095853 -0.021962842 0.15190208 4284769380
0.064961337 -0.02538077 0.13251795 4284769380
0.044512525 -0.032507785 0.12297887 4284769380
0.052922953 -0.039251905 0.23749278 4284769380
0.07215026 -0.030811477 0.22658353 4284769380
0.082919613 -0.024850411 0.2063739 4284769380
0.082073309 -0.023116557 0.18278959 4284769380
0.088342413 -0.023405451 0.21399048 4284769380
0.098867014 -0.017526345 0.19362848 4284769380
0.097741544 -0.015901525 0.17004807 4284769380
0.085295998 -0.019007403 0.15016331 4284769380
0.10603436 -0.012978251 0.17353958 4284769380
0.1046299 -0.011462725 0.14996687 4284769380
0.091954619 -0.014672243 0.13024433 4284769380
0.071725056 -0.021665741 0.12015483 4284769380
0.10057526 -0.011166796 0.12854043 4284769380
0.087672286 -0.014479438 0.10898328 4284769380
0.067332849 -0.021539409 0.099164613 4284769380
0.045520697 -0.030276645 0.10196336 4284769380
0.10729037 -0.01460438 0.19771586 4284769380
0.11830911 -0.0085601918 0.17766599 4284769380
0.11774946 -0.006714724 0.15408161 4284769380
0.10577552 -0.0096090892 0.13387792 4284769380
0.12596242 -0.00384211 0.15779676 4284769380
0.12512347 -0.0021053902 0.1342124 4284769380
0.11291578 -0.0051043862 0.11416444 4284769380
0.092918791 -0.01195976 0.10353117 4284769380
0.1215815 -0.001602258 0.11269911 4284769380
0.10914204 -0.0047054039 0.092810117 4284769380
0.089028612 -0.011629513 0.082444355 4284769380
0.067138717 -0.020344358 0.084641173 4284769380
0.095490605 -0.0085714571 0.076247752 4284769380
0.075263977 -0.01556319 0.06615115 4284769380
0.053410649 -0.024289805 0.068645231 4284769380
0.036338259 -0.032192562 0.0829987 4284769380
0.13418385 0.0015109462 0.13319799 4284769380
0.13391095 0.0034677153 0.10961752 4284769380
0.1221789 0.00068121759 0.089257345 4284769380
0.10242765 -0.0060315155 0.078087308 4284769380
0.13088401 0.0041777198 0.08803156 4284769380
0.11891624 0.0012861146 0.067823805 4284769380
0.09904208 -0.0054975706 0.056917772 4284769380
0.077088855 -0.014184285 0.058511224 4284769380
0.10565602 -0.0023964923 0.050905619 4284769380
0.085662141 -0.009250042 0.040265333 4284769380
0.063738361 -0.017951356 0.042156707 4284769380
0.04631298 -0.025949113 0.05602517 4284769380
0.06623362 -0.016196346 0.033201233 4284769380
0.044342808 -0.024910863 0.035390224 4284769380
0.02709021 -0.032862391 0.049499203 4284769380
0.019534482 -0.037719455 0.071391255 4284769380
