# .PCD v0.7 - Point Cloud Data file format
VERSION 0.7
FIELDS x y z rgb
SIZE 4 4 4 4
TYPE F F F U
COUNT 1 1 1 1
WIDTH 625
HEIGHT 1
VIEWPOINT 0 0 0 1 0 0 0
POINTS 625
DATA ascii
-0.013706202 -0.047911137 0.24294096 4284769380
0.0028619845 -0.054454844 0.24400303 4284769380
0.018655635 -0.060068291 0.23787908 4284769380
0.031041058 -0.0638154 0.22559033 4284769380
0.037952907 -0.065071322 0.209186 4284769380
0.01818666 -0.060315434 0.242791 4284769380
0.033929899 -0.065895401 0.23650868 4284769380
0.046209227 -0.069590561 0.22409834 4284769380
0.052976996 -0.07078474 0.20762946 4284769380
0.053104628 -0.069278784 0.18984832 4284769380
0.047652718 -0.070557214 0.22872326 4284769380
0.059824847 -0.074200094 0.21619244 4284769380
0.066447921 -0.075332418 0.19966048 4284769380
0.0664175 -0.073765352 0.1818842 4284769380
0.059738658 -0.069760211 0.16582789 4284769380
0.069552079 -0.076849952 0.20319165 4284769380
0.076029859 -0.077920318 0.18659811 4284769380
0.07584139 -0.076292276 0.16882828 4284769380
0.069018088 -0.072237313 0.1528454 4284769380
0.056697786 -0.066431627 0.14131469 4284769380
0.080064744 -0.078095987 0.17064975 4284769380
0.07971824 -0.07640712 0.15288799 4284769380
0.07275109 -0.072302707 0.13697995 4284769380
0.060325127 -0.066467181 0.12557842 4284769380
0.044512451 -0.059873652 0.12058467 4284769380
0.036706466 -0.067298792 0.24019304 4284769380
0.052550375 -0.072946072 0.2342322 4284769380
0.065043524 -0.076746143 0.2220694 4284769380
0.072102591 -0.078065321 0.20573288 4284769380
0.072550453 -0.076683611 0.18794684 4284769380
0.066402547 -0.077682681 0.226726 4284769380
0.078790747 -0.08143115 0.21444046 4284769380
0.085706376 -0.082688697 0.19803786 4284769380
0.085996218 -0.081245609 0.18025342 4284769380
0.079611927 -0.077342525 0.1640528 4284769380
0.088744462 -0.084186226 0.20163444 4284769380
0.095516026 -0.085382022 0.18516722 4284769380
0.095647819 -0.083877683 0.167386 4284769380
0.08911787 -0.079924054 0.15125585 4284769380
0.077015072 -0.074180432 0.13946661 4284769380
0.099835008 -0.085674986 0.16929518 4284769380
0.099808753 -0.08410953 0.15151875 4284769380
0.093133718 -0.080105707 0.13546054 4284769380
0.080923021 -0.074331187 0.12379836 4284769380
0.065212861 -0.067748912 0.11847693 4284769380
0.097739629 -0.081889279 0.13534932 4284769380
0.09092012 -0.077835627 0.11936449 4284769380
0.078602612 -0.072030731 0.1078304 4284769380
0.062841132 -0.065442592 0.10267045 4284769380
0.046264008 -0.059169833 0.10474508 4284769380
0.082728371 -0.083155438 0.21662569 4284769380
0.095328055 -0.087008111 0.20459001 4284769380
0.10253368 -0.08839041 0.18832283 4284769380
0.10314367 -0.087071836 0.17053682 4284769380
0.097056307 -0.083272263 0.1541979 4284769380
0.10550456 -0.089867383 0.19198348 4284769380
0.1125674 -0.091188177 0.1756487 4284769380
0.11301941 -0.089808092 0.15786265 4284769380
0.10678522 -0.085957259 0.14159124 4284769380
0.094904423 -0.08027783 0.12954783 4284769380
0.11716888 -0.091598324 0.15985885 4284769380
0.11746288 -0.090156846 0.14207435 4284769380
0.11108243 -0.086255103 0.12587191 4284769380
0.099091522 -0.080543734 0.11395339 4284769380
0.083489709 -0.073975146 0.10830627 4284769380
0.11568669 -0.08804632 0.12585548 4284769380
0.10916056 -0.084094018 0.10972346 4284769380
0.097060621 -0.078351222 0.097930893 4284769380
0.081404619 -0.071775571 0.092444263 4284769380
0.06480328 -0.065463603 0.09417849 4284769380
0.10131652 -0.079830974 0.095904678 4284769380
0.089108646 -0.074057259 0.084239133 4284769380
0.073399864 -0.067475148 0.078913473 4284769380
0.056809705 -0.061182234 0.080815785 4284769380
0.042104688 -0.056227911 0.089628845 4284769380
0.11703981 -0.092959121 0.17598726 4284769380
0.1243913 -0.094404414 0.15979098 4284769380
0.12516338 -0.093149096 0.14200668 4284769380
0.11922726 -0.089402489 0.12560003 4284769380
0.10757285 -0.083789364 0.11330692 4284769380
0.12927358 -0.094931588 0.14408918 4284769380
0.12988773 -0.093614638 0.12630318 4284769380
0.12380423 -0.089816414 0.10996252 4284769380
0.11203756 -0.084170312 0.097792074 4284769380
0.096549869 -0.077617839 0.091821358 4284769380
0.12840512 -0.091614619 0.11004087 4284769380
0.1221748 -0.087765135 0.093767658 4284769380
0.11029691 -0.082086556 0.081720985 4284769380
0.094752185 -0.075525828 0.075909697 4284769380
0.078132786 -0.069176987 0.077302866 4284769380
0.11458594 -0.083586797 0.079781532 4284769380
0.10259791 -0.077876262 0.067859709 4284769380
0.086997539 -0.07130786 0.062208377 4284769380
0.070386291 -0.064976931 0.063769937 4284769380
0.055534184 -0.059939176 0.072283976 4284769380
0.090226531 -0.072248444 0.058589429 4284769380
0.074571937 -0.065672979 0.053098563 4284769380
0.057970326 -0.059360515 0.054828364 4284769380
0.043190125 -0.054363705 0.063490376 4284769380
0.032696027 -0.051515795 0.077640153 4284769380
0.1341836 -0.095150568 0.12474121 4284769380
0.13511766 -0.093958616 0.10696033 4284769380
0.12933338 -0.090265326 0.090487488 4284769380
0.11779529 -0.084686577 0.078069642 4284769380
0.10242746 -0.078152664 0.07177753 4284769380
0.13392921 -0.092069849 0.090660594 4284769380
0.12799698 -0.088324606 0.074252225 4284769380
0.11634554 -0.082712352 0.061955903 4284769380
0.10091785 -0.076168977 0.055822119 4284769380
0.084286556 -0.069785625 0.05687372 4284769380
0.12066609 -0.084232524 0.060103931 4284769380
0.10890236 -0.078587279 0.047930244 4284769380
0.093416192 -0.072035037 0.041955341 4284769380
0.076789998 -0.065668426 0.043175567 4284769380
0.061796315 -0.060549114 0.051387444 4284769380
0.096707813 -0.073005691 0.038401335 4284769380
0.081164569 -0.066445172 0.032585848 4284769380
0.064544976 -0.060095873 0.033974588 4284769380
0.049620476 -0.055016577 0.042335972 4284769380
0.038879808 -0.05205429 0.056275696 4284769380
0.066233501 -0.060347687 0.029338492 4284769380
0.049622018 -0.054016277 0.030895621 4284769380
0.034768041 -0.048977453 0.039405763 4284769380
0.024148569 -0.046071477 0.053449798 4284769380
0.019534459 -0.045782939 0.070685796 4284769380
-0.014944186 -0.052240659 0.24256217 4284769380
0.0025233689 -0.055639062 0.24389942 4284769380
0.019174343 -0.058254246 0.23803778 4284769380
0.032232083 -0.059650112 0.22595474 4284769380
0.039519127 -0.059593886 0.20966522 4284769380
0.018679913 -0.05859042 0.24294192 4284769380
0.035277739 -0.061181691 0.23692109 4284769380
0.048223626 -0.062545747 0.22471468 4284769380
0.055358764 -0.062455133 0.2083582 4284769380
0.055493329 -0.060924951 0.19057919 4284769380
0.04974547 -0.063238367 0.22936358 4284769380
0.062578335 -0.064570494 0.21703491 4284769380
0.06956093 -0.064445496 0.20061296 4284769380
0.069528863 -0.062884204 0.18283617 4284769380
0.062487472 -0.060146976 0.16666894 4284769380
0.072833598 -0.065373734 0.20419569 4284769380
0.079663008 -0.065214358 0.18770973 4284769380
0.079464301 -0.063622102 0.16993678 4284769380
0.072270617 -0.060862474 0.15384056 4284769380
0.059281532 -0.057395671 0.14210524 4284769380
0.083916917 -0.064624049 0.17182839 4284769380
0.083551601 -0.063000962 0.15406087 4284769380
0.076206259 -0.060219191 0.13803712 4284769380
0.063105777 -0.056742609 0.1264292 4284769380
0.046434741 -0.053150959 0.12117282 4284769380
0.038205028 -0.062057976 0.24065155 4284769380
0.054908987 -0.064697459 0.23495387 4284769380
0.068080299 -0.066125832 0.22299856 4284769380
0.075522557 -0.066104911 0.20677927 4284769380
0.075994723 -0.06463819 0.18900068 4284769380
0.069513097 -0.066804364 0.22767772 4284769380
0.082573764 -0.068201065 0.21559794 4284769380
0.089864798 -0.068145752 0.1993102 4284769380
0.090170369 -0.066647634 0.18153057 4284769380
0.083439521 -0.063956551 0.16522393 4284769380
0.093067795 -0.069066532 0.20295723 4284769380
0.10020694 -0.06897682 0.1866025 4284769380
0.10034589 -0.067447454 0.16882345 4284769380
0.093461469 -0.064733475 0.15258485 4284769380
0.080701701 -0.061287448 0.1405946 4284769380
0.10476037 -0.06844987 0.17080219 4284769380
0.10473268 -0.06688939 0.15302531 4284769380
0.097695313 -0.064152755 0.13685624 4284769380
0.084821783 -0.060696319 0.12499125 4284769380
0.068258829 -0.057096452 0.11940891 4284769380
0.10255124 -0.065061942 0.13682152 4284769380
0.095361553 -0.062302906 0.12072342 4284769380
0.082375415 -0.058836363 0.10898475 4284769380
0.065758362 -0.055240385 0.10356303 4284769380
0.048281375 -0.052114625 0.10536233 4284769380
0.086725138 -0.069177836 0.21784857 4284769380
0.10000876 -0.07063859 0.20602214 4284769380
0.10760553 -0.070652977 0.18987465 4284769380
0.10824864 -0.069218598 0.17209877 4284769380
0.10183083 -0.066574655 0.15565875 4284769380
0.11073768 -0.071565956 0.19358464 4284769380
0.11818391 -0.071545936 0.17736718 4284769380
0.11866046 -0.070080042 0.15958862 4284769380
0.11208786 -0.067412712 0.14321367 4284769380
0.099562138 -0.06398873 0.13097294 4284769380
0.12303518 -0.07108254 0.16165376 4284769380
0.12334513 -0.069585256 0.14387414 4284769380
0.11661834 -0.066894777 0.12756571 4284769380
0.10397653 -0.063459754 0.11544804 4284769380
0.087527804 -0.059853014 0.1095418 4284769380
0.12147252 -0.067811921 0.12762575 4284769380
0.11459213 -0.065098539 0.11138535 4284769380
0.10183538 -0.061652791 0.099391818 4284769380
0.085329518 -0.058049273 0.093645155 4284769380
0.067827016 -0.0548889 0.095103651 4284769380
0.1063223 -0.062324606 0.097436287 4284769380
0.093451746 -0.058868434 0.085567988 4284769380
0.076890245 -0.05526847 0.079981424 4284769380
0.059399527 -0.052125033 0.081608184 4284769380
0.043896277 -0.049962308 0.090177014 4284769380
0.12289909 -0.072467841 0.17778002 4284769380
0.13064966 -0.072517529 0.16170584 4284769380
0.13146363 -0.071115643 0.14393437 4284769380
0.12520529 -0.068495944 0.12742911 4284769380
0.11291825 -0.065095291 0.11494244 4284769380
0.13579695 -0.072117858 0.14608511 4284769380
0.13644443 -0.070684314 0.12830932 4284769380
0.13003072 -0.068040982 0.11186762 4284769380
0.11762531 -0.064628661 0.099501744 4284769380
0.1012969 -0.061016373 0.093273796 4284769380
0.13488136 -0.068965755 0.11202239 4284769380
0.12831283 -0.066299029 0.095645696 4284769380
0.11579017 -0.062875353 0.083401747 4284769380
0.09940163 -0.059265632 0.077332281 4284769380
0.081880085 -0.056071818 0.078449421 4284769380
0.12031201 -0.063561365 0.081533529 4284769380
0.10767324 -0.060126632 0.069412597 4284769380
0.091226041 -0.05651981 0.063502163 4284769380
0.073713087 -0.05334235 0.064787827 4284769380
0.058054768 -0.051124122 0.073055193 4284769380
0.094630316 -0.056847401 0.059936844 4284769380
0.078125939 -0.053243797 0.054185975 4284769380
0.060623147 -0.050082982 0.055640042 4284769380
0.045040637 -0.047892042 0.064056575 4284769380
0.03397689 -0.047036331 0.078032054 4284769380
0.14097349 -0.071404718 0.1268187 4284769380
0.14195827 -0.070035443 0.10905334 4284769380
0.13586 -0.067440249 0.092484429 4284769380
0.12369559 -0.064051889 0.07987494 4284769380
0.10749355 -0.060435396 0.073327594 4284769380
0.14070529 -0.068372294 0.092733867 4284769380
0.13445105 -0.065753222 0.076226965 4284769380
0.12216714 -0.062352881 0.063737124 4284769380
0.10590199 -0.058738295 0.057347104 4284769380
0.088367902 -0.055512227 0.058122482 4284769380
0.12672223 -0.063052841 0.061956912 4284769380
0.11431992 -0.059640821 0.049587846 4284769380
0.097993113 -0.05602847 0.043355733 4284769380
0.080464408 -0.052818168 0.044299819 4284769380
0.064656824 -0.050545257 0.052262668 4284769380
0.10146341 -0.056374241 0.0398564 4284769380
0.085076436 -0.052764449 0.033782754 4284769380
0.06755469 -0.04957021 0.034895461 4284769380
0.051820043 -0.047324177 0.043008972 4284769380
0.040496342 -0.046400897 0.056770302 4284769380
0.069334872 -0.049501479 0.030287413 4284769380
0.051821671 -0.046323586 0.031568643 4284769380
0.036161378 -0.044104639 0.039832078 4284769380
0.024965446 -0.043214664 0.053699736 4284769380
0.020100871 -0.043802068 0.070859097 4284769380
-0.015361604 -0.056723155 0.24217001 4284769380
0.002409196 -0.056865122 0.24379215 4284769380
0.01934924 -0.056376103 0.23820211 4284769380
0.032633666 -0.055337641 0.22633204 4284769380
0.040047217 -0.053922914 0.21016136 4284769380
0.018846225 -0.056804452 0.24309815 4284769380
0.035732199 -0.056301426 0.23734805 4284769380
0.048902832 -0.055252016 0.22535281 4284769380
0.05616184 -0.053831208 0.2091127 4284769380
0.05629874 -0.052275941 0.19133589 4284769380
0.050451096 -0.055660915 0.23002651 4284769380
0.063506745 -0.054600645 0.21790716 4284769380
0.07061056 -0.053173892 0.20159909 4284769380
0.070577934 -0.05161858 0.18382178 4284769380
0.063414305 -0.050194066 0.1675397 4284769380
0.073940039 -0.053492021 0.2052352 4284769380
0.080888018 -0.052059449 0.18886064 4284769380
0.080685861 -0.050504237 0.17108443 4284769380
0.07336729 -0.049085718 0.1548709 4284769380
0.060152709 -0.048040438 0.14292371 4284769380
0.085215777 -0.050676096 0.17304868 4284769380
0.084844112 -0.049121119 0.1552752 4284769380
0.077371255 -0.047708724 0.13913164 4284769380
0.064043343 -0.046674434 0.12731005 4284769380
0.04708289 -0.046190724 0.12178177 4284769380
0.038710307 -0.056631986 0.24112627 4284769380
0.055704255 -0.056157384 0.23570102 4284769380
0.069104224 -0.055130262 0.22396055 4284769380
0.076675683 -0.053721897 0.20786265 4284769380
0.077156052 -0.052167147 0.19009174 4284769380
0.070561901 -0.055541683 0.22866307 4284769380
0.083849303 -0.054503512 0.21679632 4284769380
0.091266915 -0.053088944 0.20062749 4284769380
0.091577791 -0.051533867 0.18285285 4284769380
0.084730089 -0.0500976 0.16643643 4284769380
0.094525516 -0.053412598 0.20432678 4284769380
0.1017886 -0.051991951 0.18808848 4284769380
0.10192996 -0.050436687 0.17031169 4284769380
0.094926022 -0.049006153 0.15396081 4284769380
0.081944741 -0.047938898 0.14176245 4284769380
0.10642108 -0.050616115 0.17236243 4284769380
0.10639291 -0.049060803 0.15458512 4284769380
0.099233367 -0.047636129 0.13830125 4284769380
0.086136349 -0.046579674 0.12622629 4284769380
0.069285855 -0.046067603 0.1203738 4284769380
0.1041736 -0.047640037 0.13834575 4284769380
0.096859097 -0.046221357 0.12213037 4284769380
0.083647512 -0.045175791 0.1101799 4284769380
0.066741973 -0.044677693 0.10448714 4284769380
0.048961584 -0.044810127 0.1060014 4284769380
0.088072747 -0.054706354 0.21911466 4284769380
0.10158698 -0.053690664 0.2075049 4284769380
0.10931564 -0.052288804 0.19148131 4284769380
0.10996991 -0.050734539 0.17371592 4284769380
0.10344068 -0.049287047 0.15717122 4284769380
0.11250216 -0.052617867 0.19524239 4284769380
0.12007766 -0.051209666 0.17914636 4284769380
0.12056248 -0.049654927 0.1613756 4284769380
0.11387578 -0.048212908 0.14489344 4284769380
0.1011326 -0.047124077 0.13244841 4284769380
0.12501314 -0.049841858 0.16351207 4284769380
0.12532848 -0.048286788 0.14573751 4284769380
0.11848491 -0.046850368 0.12931937 4284769380
0.10562363 -0.045772139 0.11699551 4284769380
0.088889346 -0.045231894 0.11082098 4284769380
0.12342337 -0.046862561 0.12945859 4284769380
0.11642353 -0.045431875 0.11310596 4284769380
0.10344531 -0.044364341 0.10090436 4284769380
0.086652905 -0.043837976 0.094888486 4284769380
0.068846546 -0.043940555 0.096061513 4284769380
0.10801013 -0.044199668 0.099022016 4284769380
0.094916135 -0.043142926 0.08694379 4284769380
0.078067116 -0.04263049 0.081087098 4284769380
0.06027275 -0.042747807 0.082428589 4284769380
0.044500358 -0.043475315 0.090744548 4284769380
0.1248747 -0.051252525 0.17963611 4284769380
0.13275981 -0.0498573 0.16368835 4284769380
0.13358793 -0.048303664 0.14593016 4284769380
0.12722093 -0.046850696 0.12932283 4284769380
0.11472058 -0.045740686 0.11663575 4284769380
0.13799648 -0.048498023 0.14815158 4284769380
0.1386552 -0.046943773 0.13038635 4284769380
0.13213013 -0.04549614 0.11384004 4284769380
0.11950936 -0.044396531 0.10127183 4284769380
0.10289748 -0.043828312 0.094777554 4284769380
0.13706498 -0.045516614 0.11407392 4284769380
0.13038242 -0.04407445 0.097590096 4284769380
0.11764237 -0.042985342 0.085141897 4284769380
0.10096931 -0.042430904 0.078805126 4284769380
0.083143584 -0.042503592 0.079636492 4284769380
0.1222427 -0.042828359 0.083347432 4284769380
0.10938452 -0.041749846 0.071020357 4284769380
0.092651792 -0.041209236 0.064841665 4284769380
0.074834801 -0.04129668 0.065841682 4284769380
0.058904644 -0.041997593 0.073853664 4284769380
0.096115164 -0.040902179 0.061331868 4284769380
0.07932426 -0.040375449 0.05531181 4284769380
0.061517615 -0.040477641 0.0564804 4284769380
0.045664582 -0.041191712 0.064642772 4284769380
0.034408763 -0.042398591 0.078437805 4284769380
0.14326288 -0.046819832 0.12896959 4284769380
0.14426476 -0.045266975 0.1112203 4284769380
0.1380606 -0.043808665 0.094551921 4284769380
0.12568502 -0.04268809 0.08174403 4284769380
0.10920171 -0.042092107 0.074932419 4284769380
0.14299002 -0.043837417 0.094880387 4284769380
0.1366272 -0.042384308 0.078271478 4284769380
0.12413004 -0.04127403 0.065581284 4284769380
0.10758252 -0.040691722 0.058925975 4284769380
0.089744031 -0.040734489 0.059415367 4284769380
0.1287642 -0.041124795 0.063875362 4284769380
0.11614659 -0.04002491 0.051304013 4284769380
0.099536344 -0.03945633 0.044805605 4284769380
0.081703328 -0.039513864 0.045463793 4284769380
0.065621316 -0.040187925 0.053168815 4284769380
0.10306689 -0.039155137 0.041362874 4284769380
0.086395428 -0.038600337 0.035021953 4284769380
0.068569496 -0.038672633 0.035848878 4284769380
0.052561682 -0.039359979 0.043705747 4284769380
0.041041397 -0.040547751 0.057282384 4284769380
0.070380583 -0.038272027 0.031269863 4284769380
0.052563339 -0.038359083 0.032265447 4284769380
0.036631174 -0.03905965 0.040273458 4284769380
0.025240878 -0.040256906 0.053958505 4284769380
0.020291852 -0.041751198 0.071038529 4284769380
-0.014944211 -0.061205659 0.24177784 4284769380
0.0025233624 -0.058091186 0.24368489 4284769380
0.019174354 -0.054497957 0.23836643 4284769380
0.032232106 -0.051025175 0.22670934 4284769380
0.039519157 -0.048251934 0.21065751 4284769380
0.018679922 -0.055018481 0.24325441 4284769380
0.035277765 -0.051421162 0.23777501 4284769380
0.048223663 -0.047958277 0.22599092 4284769380
0.055358812 -0.045207284 0.20986719 4284769380
0.055493373 -0.043626931 0.19209257 4284769380
0.049745511 -0.048083462 0.23068945 4284769380
0.062578395 -0.044630788 0.21877941 4284769380
0.06956099 -0.041902289 0.20258524 4284769380
0.069528922 -0.040352955 0.18480739 4284769380
0.062487524 -0.040241152 0.16841048 4284769380
0.072833657 -0.041610297 0.20627472 4284769380
0.079663083 -0.038904537 0.19001155 4284769380
0.079464376 -0.037386365 0.17223211 4284769380
0.072270676 -0.03730895 0.15590122 4284769380
0.059281584 -0.038685203 0.14374219 4284769380
0.083916992 -0.036728136 0.17426898 4284769380
0.083551675 -0.035241265 0.15648952 4284769380
0.076206326 -0.035198245 0.14022617 4284769380
0.063105829 -0.036606252 0.1281909 4284769380
0.046434779 -0.039230488 0.12239071 4284769380
0.038205057 -0.051205993 0.24160098 4284769380
0.054909032 -0.047617305 0.23644818 4284769380
0.068080358 -0.044134684 0.22492254 4284769380
0.075522624 -0.04133888 0.20894602 4284769380
0.07599479 -0.039696105 0.19118282 4284769380
0.069513157 -0.044278994 0.22964844 4284769380
0.082573839 -0.040805951 0.2179947 4284769380
0.089864872 -0.038032133 0.2019448 4284769380
0.090170451 -0.036420088 0.18417513 4284769380
0.083439596 -0.036238637 0.16764893 4284769380
0.093067877 -0.03775866 0.20569631 4284769380
0.10020703 -0.035007078 0.18957447 4284769380
0.10034598 -0.033425909 0.17179994 4284769380
0.093461551 -0.033278823 0.15533678 4284769380
0.080701768 -0.034590345 0.1429303 4284769380
0.10476047 -0.032782353 0.17392269 4284769380
0.10473278 -0.031232204 0.15614492 4284769380
0.097695395 -0.031119496 0.13974628 4284769380
0.084821858 -0.032463025 0.12746134 4284769380
0.068258889 -0.035038747 0.1213387 4284769380
0.10255133 -0.030218119 0.13986996 4284769380
0.095361635 -0.0301398 0.12353732 4284769380
0.082375489 -0.031515211 0.11137505 4284769380
0.065758415 -0.034114998 0.10541125 4284769380
0.048281416 -0.037505627 0.10664046 4284769380
0.086725213 -0.04023486 0.22038075 4284769380
0.10000885 -0.036742736 0.20898765 4284769380
0.10760563 -0.033924624 0.19308797 4284769380
0.10824873 -0.032250468 0.17533307 4284769380
0.10183092 -0.031999435 0.15868369 4284769380
0.11073778 -0.033669766 0.19690013 4284769380
0.11818402 -0.030873384 0.18092556 4284769380
0.11866057 -0.029229805 0.16316256 4284769380
0.11208797 -0.029013103 0.1465732 4284769380
0.099562228 -0.030259414 0.13392387 4284769380
0.12303529 -0.028601164 0.16537039 4284769380
0.12334525 -0.026988311 0.14760087 4284769380
0.11661844 -0.026805956 0.13107303 4284769380
0.10397662 -0.028084509 0.11854297 4284769380
0.087527879 -0.030610766 0.11210016 4284769380
0.12147263 -0.025913192 0.13129142 4284769380
0.11459224 -0.025765201 0.11482657 4284769380
0.10183547 -0.027075883 0.1024169 4284769380
0.0853296 -0.029626669 0.096131809 4284769380
0.067827076 -0.032992203 0.097019367 4284769380
0.1063224 -0.026074724 0.10060774 4284769380
0.093451835 -0.027417412 0.088319592 4284769380
0.076890312 -0.0299925 0.082192779 4284769380
0.059399575 -0.033370573 0.083248988 4284769380
0.043896314 -0.036988322 0.091312088 4284769380
0.12289921 -0.030037202 0.18149221 4284769380
0.13064978 -0.027197056 0.16567086 4284769380
0.13146375 -0.025491673 0.14792594 4284769380
0.1252054 -0.025205433 0.13121654 4284769380
0.11291835 -0.026386073 0.11832906 4284769380
0.13579708 -0.024878182 0.15021805 4284769380
0.13644457 -0.02320322 0.13246338 4284769380
0.13003084 -0.022951286 0.11581246 4284769380
0.11762542 -0.024164392 0.10304191 4284769380
0.10129699 -0.026640244 0.09628132 4284769380
0.13488148 -0.022067467 0.11612545 4284769380
0.12831295 -0.02184986 0.099534497 4284769380
0.11579028 -0.023095323 0.08688204 4284769380
0.09940172 -0.025596164 0.080277972 4284769380
0.08188016 -0.028935356 0.080823556 4284769380
0.12031212 -0.022095343 0.085161328 4284769380
0.10767334 -0.023373051 0.072628118 4284769380
0.091226123 -0.025898658 0.066181161 4284769380
0.073713146 -0.029251004 0.066895545 4284769380
0.058054816 -0.032871064 0.074652128 4284769380
0.094630398 -0.024956947 0.062726893 4284769380
0.078126006 -0.027507093 0.056437641 4284769380
0.060623199 -0.030872291 0.057320759 4284769380
0.045040671 -0.034491379 0.065228976 4284769380
0.033976912 -0.037760846 0.078843556 4284769380
0.14097363 -0.022234939 0.1311205 4284769380
0.1419584 -0.020498492 0.11338726 4284769380
0.13586012 -0.020177074 0.096619412 4284769380
0.1236957 -0.021324281 0.08361312 4284769380
0.10749365 -0.023748809 0.076537251 4284769380
0.14070542 -0.019302525 0.097026907 4284769380
0.13445118 -0.019015383 0.080315992 4284769380
0.12216725 -0.020195166 0.067425445 4284769380
0.10590208 -0.022645136 0.060504846 4284769380
0.088367976 -0.025956748 0.060708247 4284769380
0.12672234 -0.019196736 0.06579382 4284769380
0.11432002 -0.020408988 0.053020183 4284769380
0.097993203 -0.022884179 0.04625548 4284769380
0.080464482 -0.026209554 0.046627767 4284769380
0.064656876 -0.029830586 0.054074965 4284769380
0.10146351 -0.021936027 0.042869348 4284769380
0.085076511 -0.024436215 0.036261152 4284769380
0.06755475 -0.027775055 0.036802292 4284769380
0.051820084 -0.031395774 0.044402525 4284769380
0.040496372 -0.034694597 0.05779447 4284769380
0.069334932 -0.027042573 0.032252312 4284769380
0.051821712 -0.030394576 0.032962251 4284769380
0.036161404 -0.034014661 0.040714838 4284769380
0.024965463 -0.037299149 0.054217275 4284769380
0.020100882 -0.039700333 0.071217954 4284769380
-0.013706248 -0.06553518 0.24139905 4284769380
0.002861972 -0.059275404 0.24358128 4284769380
0.018655654 -0.052683912 0.23852512 4284769380
0.031041102 -0.046859875 0.22707374 4284769380
0.037952967 -0.042774491 0.21113673 4284769380
0.018186679 -0.053293463 0.24340533 4284769380
0.033929948 -0.046707444 0.23818742 4284769380
0.046209302 -0.040913451 0.22660726 4284769380
0.052977085 -0.036877666 0.21059594 4284769380
0.053104721 -0.035273083 0.19282344 4284769380
0.047652796 -0.040764604 0.23132977 4284769380
0.059824951 -0.035001174 0.2196219 4284769380
0.06644804 -0.031015348 0.20353772 4284769380
0.06641762 -0.029471792 0.18575938 4284769380
0.059738759 -0.030627901 0.16925152 4284769380
0.069552206 -0.030134065 0.20727876 4284769380
0.076030001 -0.02619856 0.19112317 4284769380
0.075841524 -0.024716171 0.1733406 4284769380
0.069018207 -0.025934093 0.1568964 4284769380
0.056697883 -0.029649232 0.14453273 4284769380
0.080064893 -0.023256177 0.17544761 4284769380
0.079718381 -0.021835089 0.15766241 4284769380
0.072751224 -0.023114713 0.14128333 4284769380
0.060325231 -0.026881667 0.1290417 4284769380
0.044512525 -0.032507785 0.12297887 4284769380
0.036706526 -0.045965169 0.24205948 4284769380
0.052550465 -0.039368678 0.23716983 4284769380
0.065043636 -0.033514354 0.22585168 4284769380
0.072102726 -0.029378455 0.20999242 4284769380
0.07255058 -0.027650662 0.19223666 4284769380
0.066402666 -0.033400666 0.23060016 4284769380
0.078790888 -0.027575847 0.21915218 4284769380
0.085706539 -0.023489164 0.20321713 4284769380
0.085996374 -0.021822099 0.1854523 4284769380
0.079612076 -0.022852642 0.16882005 4284769380
0.088744625 -0.022638939 0.20701912 4284769380
0.095516205 -0.018601844 0.19100973 4284769380
0.095647998 -0.016995657 0.1732374 4284769380
0.089118034 -0.01808822 0.15666579 4284769380
0.077015214 -0.021697339 0.14405829 4284769380
0.099835195 -0.015557206 0.17542969 4284769380
0.099808939 -0.014012042 0.15765148 4284769380
0.093133889 -0.015166524 0.14114198 4284769380
0.080923162 -0.018828133 0.12865424 4284769380
0.06521298 -0.024386276 0.12227067 4284769380
0.097739808 -0.013390761 0.14134216 4284769380
0.090920284 -0.014607058 0.12489627 4284769380
0.078602761 -0.018320827 0.1125294 4284769380
0.062841244 -0.023912776 0.10630383 4284769380
0.046264082 -0.030450409 0.10725771 4284769380
0.082728527 -0.026257236 0.22160363 4284769380
0.095328234 -0.020373188 0.2104198 4284769380
0.10253388 -0.016187161 0.19463979 4284769380
0.10314386 -0.014397203 0.17689502 4284769380
0.097056486 -0.015301799 0.16014454 4284769380
0.10550476 -0.01536831 0.19850129 4284769380
0.11256761 -0.011231119 0.18264404 4284769380
0.11301962 -0.0095017282 0.16488853 4284769380
0.10678542 -0.010468526 0.14819564 4284769380
0.094904602 -0.013970291 0.13534899 4284769380
0.1171691 -0.0080853533 0.16716529 4284769380
0.1174631 -0.0064166868 0.14940067 4284769380
0.11108264 -0.0074455976 0.13276684 4284769380
0.099091709 -0.011000508 0.12003762 4284769380
0.083489865 -0.016488614 0.11333569 4284769380
0.11568691 -0.0056787618 0.13306169 4284769380
0.10916077 -0.006769693 0.11648846 4284769380
0.097060807 -0.010377428 0.10387783 4284769380
0.081404768 -0.015900353 0.097332701 4284769380
0.064803392 -0.022417486 0.097944528 4284769380
0.10131671 -0.0085683288 0.10213935 4284769380
0.08910881 -0.012228562 0.08964844 4284769380
0.073399998 -0.017785808 0.083260722 4284769380
0.056809802 -0.02431336 0.084041394 4284769380
0.042104755 -0.030722709 0.091860257 4284769380
0.11704003 -0.0095458925 0.18328497 4284769380
0.12439154 -0.0053101392 0.16758572 4284769380
0.12516361 -0.003458187 0.14985362 4284769380
0.11922748 -0.0042988611 0.13304563 4284769380
0.10757305 -0.0076919743 0.11996458 4284769380
0.12927383 -0.0020644115 0.15221399 4284769380
0.12988798 -0.00027286162 0.13446952 4284769380
0.12380447 -0.0011758204 0.11771756 4284769380
0.11203777 -0.0046227137 0.10475158 4284769380
0.096550047 -0.01003875 0.097733758 4284769380
0.12840538 0.00058143411 0.11810697 4284769380
0.12217503 -0.00038372751 0.10141253 4284769380
0.11029712 -0.0038840901 0.088562809 4284769380
0.094752356 -0.0093359463 0.081700556 4284769380
0.078132927 -0.015830165 0.081970111 4284769380
0.11458615 -0.0020698821 0.086913332 4284769380
0.1025981 -0.0056233979 0.074181005 4284769380
0.086997695 -0.011110581 0.067474954 4284769380
0.07038641 -0.01761641 0.067913435 4284769380
0.055534281 -0.024055995 0.075423345 4284769380
0.090226702 -0.00955588 0.064074308 4284769380
0.074572071 -0.015077895 0.057525054 4284769380
0.057970423 -0.021594746 0.058132436 4284769380
0.043190196 -0.028019708 0.065795176 4284769380
0.032696076 -0.033281375 0.079235457 4284769380
0.13418385 0.0015109462 0.13319799 4284769380
0.13511792 0.0034247162 0.11548026 4284769380
0.12933362 0.0026480439 0.098616354 4284769380
0.11779551 -0.00068955502 0.085418418 4284769380
0.10242765 -0.0060315155 0.078087308 4284769380
0.13392946 0.0043950658 0.09910018 4284769380
0.12799722 0.0035560317 0.082290731 4284769380
0.11634576 0.0001643382 0.06920667 4284769380
0.10091803 -0.0052144285 0.062029831 4284769380
0.084286712 -0.011683325 0.061957009 4284769380
0.12066633 0.001982983 0.067646801 4284769380
0.10890257 -0.001462499 0.054677784 4284769380
0.093416363 -0.0068775867 0.047655873 4284769380
0.076790139 -0.013359279 0.047752019 4284769380
0.061796423 -0.019826714 0.054950189 4284769380
0.096707992 -0.0053045531 0.044324413 4284769380
0.08116471 -0.010755473 0.037458058 4284769380
0.064545095 -0.017249377 0.037723165 4284769380
0.049620558 -0.023703367 0.045075521 4284769380
0.038879871 -0.029041199 0.058289077 4284769380
0.06623362 -0.016196346 0.033201233 4284769380
0.049622104 -0.022701876 0.033635274 4284769380
0.034768093 -0.029141838 0.041141152 4284769380
0.024148598 -0.034442328 0.054467216 4284769380
0.019534482 -0.037719455 0.071391255 4284769380
