# .PCD v0.7 - Point Cloud Data file format
VERSION 0.7
FIELDS x y z rgb
SIZE 4 4 4 4
TYPE F F F U
COUNT 1 1 1 1
WIDTH 81
HEIGHT 1
VIEWPOINT 0 0 0 1 0 0 0
POINTS 81
DATA ascii
0.036104623 -0.061290789 0.24118991 4284769380
0.051588081 -0.063171782 0.23219395 4284769380
0.062261198 -0.063743211 0.21770391 4284769380
0.066502996 -0.065080419 0.22463381 4284769380
0.076995678 -0.065609142 0.21001098 4284769380
0.08082734 -0.064732097 0.19243963 4284769380
0.08755669 -0.066284023 0.19692424 4284769380
0.091168575 -0.065365233 0.17930853 4284769380
0.087468587 -0.063197702 0.16182096 4284769380
0.08516451 -0.067823261 0.21922937 4284769380
0.096021034 -0.068438426 0.20487805 4284769380
0.10029612 -0.067646414 0.18740523 4284769380
0.10690684 -0.069193192 0.19206466 4284769380
0.11096343 -0.068359151 0.17454177 4284769380
0.10771009 -0.066260107 0.15695733 4284769380
0.11567791 -0.067759007 0.1583966 4284769380
0.11220386 -0.065625995 0.14085852 4284769380
0.1020081 -0.06259802 0.1263299 4284769380
0.12209672 -0.070732422 0.17974064 4284769380
0.12659535 -0.069983684 0.16232212 4284769380
0.12379079 -0.067954518 0.14465237 4284769380
0.13171642 -0.069464236 0.14629845 4284769380
0.12869014 -0.067400418 0.12866935 4284769380
0.1188705 -0.064414047 0.11387545 4284769380
0.12680641 -0.065620936 0.11203991 4284769380
0.11680034 -0.062613785 0.097375713 4284769380
0.10173441 -0.05920814 0.088122465 4284769380
0.036455624 -0.058218803 0.24145868 4284769380
0.052140333 -0.058338434 0.23261681 4284769380
0.062952176 -0.057695717 0.218233 4284769380
0.067249104 -0.058550391 0.22520511 4284769380
0.07787817 -0.057885487 0.21068671 4284769380
0.081759632 -0.056572568 0.1931535 4284769380
0.088576458 -0.057358976 0.19770509 4284769380
0.092235282 -0.056029305 0.18012533 4284769380
0.088487208 -0.05428268 0.16260093 4284769380
0.086153179 -0.059170339 0.21998639 4284769380
0.09715081 -0.058550496 0.20574312 4284769380
0.10148147 -0.057272162 0.18831286 4284769380
0.10817811 -0.058066916 0.19303808 4284769380
0.11228742 -0.056771409 0.17555557 4284769380
0.10899179 -0.055042461 0.15793875 4284769380
0.11706319 -0.055634957 0.15945731 4284769380
0.11354398 -0.053897142 0.14188465 4284769380
0.1032157 -0.052029014 0.12725456 4284769380
0.12356543 -0.057878189 0.18086524 4284769380
0.12812252 -0.056617696 0.16349149 4284769380
0.12528151 -0.054907568 0.14579383 4284769380
0.13331015 -0.055515684 0.14751878 4284769380
0.13024454 -0.053796127 0.12985957 4284769380
0.12029728 -0.051926814 0.11496793 4284769380
0.12833633 -0.052230936 0.11321138 4284769380
0.1182002 -0.050362054 0.098447599 4284769380
0.10293846 -0.048670273 0.089044407 4284769380
0.036455631 -0.055126984 0.24172917 4284769380
0.052140344 -0.053473879 0.2330424 4284769380
0.062952191 -0.051609173 0.2187655 4284769380
0.067249119 -0.051978197 0.2257801 4284769380
0.077878192 -0.050111964 0.2113668 4284769380
0.081759654 -0.048360351 0.19387197 4284769380
0.088576481 -0.048376299 0.19849096 4284769380
0.092235304 -0.046633098 0.18094738 4284769380
0.08848723 -0.045310091 0.16338593 4284769380
0.086153202 -0.050461549 0.22074832 4284769380
0.09715084 -0.048598718 0.20661379 4284769380
0.1014815 -0.046830919 0.18922634 4284769380
0.10817814 -0.046868801 0.19401778 4284769380
0.11228745 -0.045108844 0.17657591 4284769380
0.10899182 -0.04375238 0.1589265 4284769380
0.11706322 -0.043432623 0.16052487 4284769380
0.11354401 -0.042092562 0.14291742 4284769380
0.10321573 -0.041391768 0.1281852 4284769380
0.12356546 -0.044940952 0.18199709 4284769380
0.12812257 -0.043165401 0.16466841 4284769380
0.12528156 -0.04177637 0.14694266 4284769380
0.1333102 -0.041477069 0.14874701 4284769380
0.13024458 -0.040103998 0.13105747 4284769380
0.12029731 -0.039358955 0.11606748 4284769380
0.12833637 -0.038754478 0.11439042 4284769380
0.11820024 -0.038031213 0.099526413 4284769380
0.10293848 -0.038064364 0.089972302 4284769380
