# .PCD v0.7 - Point Cloud Data file format
VERSION 0.7
FIELDS x y z rgb
SIZE 4 4 4 4
TYPE F F F U
COUNT 1 1 1 1
WIDTH 256
HEIGHT 1
VIEWPOINT 0 0 0 1 0 0 0
POINTS 256
DATA ascii
0.083368421 0.1522774 -0.003667498 4294901760
0.080976337 0.15163969 0.029033704 4294901760
0.069734529 0.13633697 0.055772174 4294901760
0.053081233 0.11104949 0.068370119 4294901760
0.078376457 0.15007359 0.055569772 4294901760
0.067350753 0.13514386 0.082607418 4294901760
0.050785832 0.11004377 0.095687427 4294901760
0.033747986 0.082450047 0.09080936 4294901760
0.057868116 0.12211417 0.10390723 4294901760
0.04139581 0.097207926 0.11746596 4294901760
0.024295948 0.069565773 0.11310667 4294901760
0.011798416 0.047641903 0.092162624 4294901760
0.027771415 0.076480955 0.12737271 4294901760
0.010613914 0.048797451 0.12353332 4294901760
-0.0020781001 0.026603317 0.1029948 4294901760
-0.006422848 0.016686499 0.072038747 4294901760
0.079389252 0.1548509 -0.0030672599 4294901760
0.086590923 0.14800848 0.028186772 4294901760
0.082813494 0.12787822 0.053799279 4294901760
0.069212273 0.10061681 0.065936834 4294901760
0.091749139 0.14142486 0.053552572 4294901760
0.08828532 0.12160452 0.079449542 4294901760
0.074918956 0.094435789 0.092047065 4294901760
0.055738077 0.068228059 0.087492265 4294901760
0.084727213 0.10474318 0.099855669 4294901760
0.071599133 0.077674069 0.11290994 4294901760
0.052507445 0.051320117 0.10885111 4294901760
0.033291224 0.03374153 0.088920541 4294901760
0.060353186 0.05540885 0.12245791 4294901760
0.04135558 0.028915424 0.11889609 4294901760
0.022057105 0.010993989 0.099354126 4294901760
0.0083600823 0.0071257106 0.069808818 4294901760
0.075901926 0.15725362 -0.00085759803 4294901760
0.09151151 0.14461827 0.025068954 4294901760
0.094275825 0.11998084 0.046536438 4294901760
0.083349422 0.090876535 0.056979157 4294901760
0.10346888 0.13335015 0.046126634 4294901760
0.10663226 0.10896377 0.067824431 4294901760
0.096069098 0.079863675 0.078645773 4294901760
0.075010069 0.054949962 0.075281017 4294901760
0.10826638 0.088525064 0.084940635 4294901760
0.098069154 0.059436638 0.096137829 4294901760
0.077231839 0.034285396 0.093185075 4294901760
0.052127399 0.020763701 0.076985441 4294901760
0.088907667 0.035735261 0.10436504 4294901760
0.068297401 0.010352929 0.10182504 4294901760
0.043209061 -0.0035793781 0.085951686 4294901760
0.021315757 -0.0018005481 0.061599754 4294901760
0.073343769 0.15918423 0.002684389 4294901760
0.095121048 0.14189421 0.020071235 4294901760
0.10268412 0.11363522 0.03489444 4294901760
0.09371984 0.083050117 0.042620413 4294901760
0.11206599 0.12686203 0.034223191 4294901760
0.1200908 0.098806784 0.049189914 4294901760
0.11158395 0.068154819 0.057164121 4294901760
0.089147188 0.044280861 0.055706948 4294901760
0.12553371 0.075493634 0.061032508 4294901760
0.11748645 0.044782661 0.069252908 4294901760
0.095368616 0.020597808 0.068073131 4294901760
0.065944821 0.010335872 0.057854019 4294901760
0.10985403 0.019927315 0.07536298 4294901760
0.088060789 -0.0045622392 0.074460909 4294901760
0.058725245 -0.015289239 0.064468183 4294901760
0.030819496 -0.0089728944 0.048441004 4294901760
0.11376759 0.12593946 -0.0013631593 4294901760
0.11060338 0.12598136 0.031278584 4294901760
0.095443919 0.1139078 0.057734534 4294901760
0.07292562 0.093411423 0.06991329 4294901760
0.10714382 0.12515639 0.057749812 4294901760
0.092277609 0.11339352 0.084510379 4294901760
0.069880061 0.093058966 0.097173445 4294901760
0.046801329 0.070371933 0.091866091 4294901760
0.079487517 0.10308804 0.10557185 4294901760
0.057216451 0.082920514 0.11871599 4294901760
0.034054935 0.060202766 0.11392585 4294901760
0.017086778 0.041882873 0.092666492 4294901760
0.038792867 0.066113368 0.12827979 4294901760
0.015554497 0.043370713 0.1240081 4294901760
-0.0016760454 0.024836432 0.10314938 4294901760
-0.0076289019 0.016179124 0.072083138 4294901760
0.11051413 0.1293976 -0.00084031845 4294901760
0.11519399 0.12110195 0.030540859 4294901760
0.10613756 0.10254139 0.056016032 4294901760
0.086114697 0.079392582 0.067793764 4294901760
0.1180776 0.11353473 0.055992715 4294901760
0.10939415 0.095200121 0.081759699 4294901760
0.089611813 0.072085828 0.094002493 4294901760
0.064780883 0.051261228 0.088976718 4294901760
0.10144807 0.079745866 0.10204272 4294901760
0.081911318 0.056672018 0.11474743 4294901760
0.057121243 0.035685282 0.11021902 4294901760
0.034659747 0.023204332 0.089842454 4294901760
0.065432407 0.037797853 0.12399872 4294901760
0.040689524 0.016654359 0.11996882 4294901760
0.0180574 0.0038614925 0.099978156 4294901760
0.0044579306 0.003331871 0.070140742 4294901760
0.10766282 0.1325756 0.0013015129 4294901760
0.11921716 0.11661781 0.027518749 4294901760
0.1155094 0.092095777 0.048976138 4294901760
0.09767352 0.066509411 0.059111066 4294901760
0.1276599 0.10285453 0.048794731 4294901760
0.12439499 0.078480572 0.070491448 4294901760
0.1069046 0.052811731 0.081012584 4294901760
0.080538064 0.033698678 0.077140324 4294901760
0.12069418 0.05829465 0.087585531 4294901760
0.10355376 0.03254991 0.098490186 4294901760
0.077336423 0.013153962 0.095033891 4294901760
0.050060596 0.0060389433 0.078273728 4294901760
0.088779144 0.01177618 0.10646125 4294901760
0.062717721 -0.0078976993 0.10342181 4294901760
0.035351682 -0.015414267 0.08698713 4294901760
0.015050761 -0.0084746256 0.062183678 4294901760
0.10557123 0.13507493 0.0047937422 4294901760
0.1221684 0.11309129 0.022591239 4294901760
0.12238419 0.083880872 0.037497684 4294901760
0.10615259 0.056377497 0.044954035 4294901760
0.13468908 0.094455153 0.03705851 4294901760
0.13539898 0.065331548 0.052118704 4294901760
0.11958987 0.037653696 0.059832703 4294901760
0.092096873 0.019886689 0.057841226 4294901760
0.13481233 0.041424435 0.064013265 4294901760
0.11942974 0.013579182 0.071982935 4294901760
0.092165433 -0.0045656976 0.070274718 4294901760
0.061358009 -0.0074607031 0.059411064 4294901760
0.10590532 -0.0086884517 0.077866614 4294901760
0.078876682 -0.027206561 0.076442093 4294901760
0.048038039 -0.030573605 0.065805428 4294901760
0.022821216 -0.017759793 0.049209781 4294901760
0.13686812 0.093057945 0.0015136867 4294901760
0.13311976 0.093945317 0.034081459 4294901760
0.11494315 0.085949123 0.060180672 4294901760
0.087897494 0.071514949 0.071829043 4294901760
0.12900601 0.094046645 0.060471643 4294901760
0.1111824 0.086282097 0.08688239 4294901760
0.084282689 0.071977131 0.099017926 4294901760
0.056534 0.055506848 0.093166657 4294901760
0.095844612 0.079416953 0.10764287 4294901760
0.069097735 0.065244861 0.12026245 4294901760
0.041250415 0.048766047 0.11492646 4294901760
0.020819582 0.035020456 0.093266889 4294901760
0.046969373 0.053397655 0.1293923 4294901760
0.019030547 0.036914527 0.12457297 4294901760
-0.0017149912 0.023025136 0.10330786 4294901760
-0.0089223422 0.015977463 0.072100781 4294901760
0.13453366 0.097199544 0.0019767305 4294901760
0.13641369 0.088101536 0.033428106 4294901760
0.12261623 0.072336264 0.058658715 4294901760
0.09736114 0.054725438 0.069951922 4294901760
0.1368514 0.080128089 0.058915503 4294901760
0.12346414 0.064492963 0.084446304 4294901760
0.098440945 0.046858881 0.09620963 4294901760
0.069434993 0.032619111 0.09060774 4294901760
0.11160212 0.051461458 0.10451736 4294901760
0.086817212 0.03380863 0.11674778 4294901760
0.05780134 0.019402947 0.11164358 4294901760
0.033428837 0.012650304 0.090765841 4294901760
0.066084221 0.019485883 0.12560086 4294901760
0.037065856 0.004917976 0.12099566 4294901760
0.012444484 -0.0020952763 0.10049932 4294901760
-0.00024959448 0.00059108838 0.070380539 4294901760
0.13248773 0.10097653 0.0040661558 4294901760
0.13930047 0.082772247 0.030479942 4294901760
0.12934087 0.059921876 0.051791076 4294901760
0.10565503 0.039414067 0.061481673 4294901760
0.14372706 0.067434914 0.05189364 4294901760
0.1342278 0.044622138 0.073453762 4294901760
0.11084916 0.023952024 0.083537556 4294901760
0.080741353 0.0117464 0.079060949 4294901760
0.12541191 0.025967147 0.090413906 4294901760
0.10234646 0.005140021 0.10088831 4294901760
0.072306477 -0.0073750457 0.096829996 4294901760
0.044479512 -0.0077503948 0.079480179 4294901760
0.082836367 -0.011440315 0.10849249 4294901760
0.052871898 -0.02426162 0.1048535 4294901760
0.024853768 -0.025004104 0.087826163 4294901760
0.0073511521 -0.01344068 0.062618166 4294901760
0.13098693 0.10391524 0.0075199427 4294901760
0.14141808 0.078625746 0.025606673 4294901760
0.13427378 0.050262757 0.040438976 4294901760
0.11173907 0.027500924 0.047480483 4294901760
0.14877075 0.057558879 0.040286612 4294901760
0.14212357 0.029161476 0.055283271 4294901760
0.11995131 0.0061291545 0.062590823 4294901760
0.08903522 -0.0044937884 0.059974305 4294901760
0.1355422 0.006131087 0.067101121 4294901760
0.11373807 -0.017165828 0.074672855 4294901760
0.082946837 -0.028209886 0.072343379 4294901760
0.052585825 -0.023623327 0.060825154 4294901760
0.095125034 -0.035502702 0.080212623 4294901760
0.064466543 -0.046965048 0.078170784 4294901760
0.033956695 -0.042828508 0.066877626 4294901760
0.01292674 -0.024358213 0.049787086 4294901760
0.15129781 0.055586062 0.0047921487 4294901760
0.14718796 0.057434581 0.037275828 4294901760
0.12707393 0.054121748 0.062965289 4294901760
0.097107485 0.046660781 0.074003562 4294901760
0.14266439 0.058592349 0.063573584 4294901760
0.12294213 0.055420067 0.089582548 4294901760
0.093138158 0.048050582 0.10111129 4294901760
0.062367857 0.038737804 0.094633795 4294901760
0.10596775 0.052507058 0.10999724 4294901760
0.076333888 0.04523094 0.12201349 4294901760
0.04545496 0.035934981 0.11604907 4294901760
0.022775093 0.027462296 0.093928166 4294901760
0.051815219 0.039089169 0.13064417 4294901760
0.020835573 0.029812412 0.12519434 4294901760
-0.0021926239 0.021277022 0.1034608 4294901760
-0.010226335 0.016093496 0.072090626 4294901760
0.15002099 0.060169369 0.0052165473 4294901760
0.14898954 0.05096757 0.036677003 4294901760
0.13127065 0.039057087 0.06157035 4294901760
0.10228354 0.028080672 0.072283112 4294901760
0.14695536 0.043189384 0.062147319 4294901760
0.12965952 0.031307139 0.087349772 4294901760
0.10088189 0.020253479 0.098537371 4294901760
0.069423944 0.0134091 0.092288442 4294901760
0.11458617 0.02157012 0.10713258 4294901760
0.086025394 0.010442046 0.11879215 4294901760
0.054507341 0.0034403191 0.11304017 4294901760
0.029671611 0.0027063768 0.091635846 4294901760
0.062269915 0.0015607236 0.12716916 4294901760
0.030699823 -0.005596559 0.12191559 4294901760
0.0055517736 -0.0065224711 0.10088667 4294901760
-0.0054828543 -0.00093382836 0.070513956 4294901760
0.148902 0.064333454 0.0072721047 4294901760
0.15056844 0.045092076 0.033776626 4294901760
0.13494864 0.025370345 0.054814033 4294901760
0.10681981 0.011200031 0.063950151 4294901760
0.15071593 0.029195283 0.055239275 4294901760
0.13554661 0.0093997447 0.076535411 4294901760
0.10766845 -0.0050011077 0.086070701 4294901760
0.075607851 -0.0096028615 0.080928825 4294901760
0.12213931 -0.0065371096 0.09325774 4294901760
0.094518982 -0.021164816 0.10318975 4294901760
0.062440798 -0.026082156 0.098466709 4294901760
0.035715681 -0.019785194 0.080533117 4294901760
0.071432352 -0.03253511 0.1103381 4294901760
0.039344795 -0.037766781 0.10603509 4294901760
0.01233892 -0.03177923 0.088418923 4294901760
-0.0013256946 -0.016403716 0.062877402 4294901760
0.14808114 0.067556128 0.010701047 4294901760
0.15172665 0.040544905 0.028938413 4294901760
0.13764665 0.014777879 0.043543592 4294901760
0.11014742 -0.0018642595 0.050049681 4294901760
0.15347452 0.018364945 0.043715738 4294901760
0.13986512 -0.0075548571 0.058495626 4294901760
0.11264679 -0.024546174 0.065274648 4294901760
0.080144107 -0.027412314 0.061979476 4294901760
0.12767997 -0.028289897 0.070112661 4294901760
0.10074951 -0.045626044 0.077162877 4294901760
0.068260446 -0.048930235 0.074156232 4294901760
0.040149353 -0.037191901 0.062012285 4294901760
0.078153528 -0.058922607 0.082261659 4294901760
0.045686383 -0.062664002 0.079544306 4294901760
0.017317684 -0.051325977 0.067621082 4294901760
0.001723823 -0.028376194 0.050138623 4294901760
