# .PCD v0.7 - Point Cloud Data file format
VERSION 0.7
FIELDS x y z rgb
SIZE 4 4 4 4
TYPE F F F U
COUNT 1 1 1 1
WIDTH 625
HEIGHT 1
VIEWPOINT 0 0 0 1 0 0 0
POINTS 625
DATA ascii
0.083368421 0.1522774 -0.003667498 4294901760
0.082483821 0.15326391 0.021034833 4294901760
0.076301359 0.14562333 0.043736368 4294901760
0.065896951 0.13068531 0.060486443 4294901760
0.053081233 0.11104949 0.068370119 4294901760
0.081220426 0.15320085 0.041130159 4294901760
0.075178407 0.145795 0.063947 4294901760
0.064872295 0.13103446 0.080913782 4294901760
0.052095622 0.11148797 0.089077845 4294901760
0.039071858 0.090557098 0.087018415 4294901760
0.06978184 0.13896479 0.0821032 4294901760
0.059575509 0.12438386 0.099284247 4294901760
0.046839722 0.10492951 0.10772751 4294901760
0.033790834 0.083987296 0.10596365 4294901760
0.022699691 0.065201715 0.094299637 4294901760
0.050932791 0.11190915 0.11251705 4294901760
0.038239721 0.092549749 0.12123831 4294901760
0.025167586 0.071599208 0.11977028 4294901760
0.013991278 0.052703474 0.10836843 4294901760
0.0066557648 0.039150894 0.089016981 4294901760
0.027771415 0.076480955 0.12737271 4294901760
0.014677917 0.055525105 0.12620071 4294901760
0.0034180507 0.036521938 0.11506268 4294901760
-0.0040486725 0.022778498 0.095896907 4294901760
-0.006422848 0.016686499 0.072038747 4294901760
0.080356836 0.15421098 -0.0033747586 4294901760
0.084985666 0.1516576 0.020791642 4294901760
0.083703741 0.14087062 0.043016821 4294901760
0.076734163 0.12372727 0.059433021 4294901760
0.065289803 0.10321095 0.06718339 4294901760
0.088190593 0.14872563 0.040452626 4294901760
0.087079331 0.13815399 0.062790178 4294901760
0.080259696 0.12115496 0.079418063 4294901760
0.068918481 0.10068681 0.087442584 4294901760
0.055029362 0.080311552 0.085467279 4294901760
0.085588112 0.12881634 0.080566764 4294901760
0.078919411 0.11196407 0.097403936 4294901760
0.067682974 0.09154705 0.10570145 4294901760
0.053834248 0.071118377 0.10401535 4294901760
0.039783262 0.054233175 0.092639036 4294901760
0.072977141 0.097755522 0.11037424 4294901760
0.061847109 0.077392571 0.11894357 4294901760
0.04804077 0.056913432 0.11754691 4294901760
0.033960786 0.039882008 0.1064273 4294901760
0.022057442 0.029262213 0.087519869 4294901760
0.052430511 0.060648531 0.12497574 4294901760
0.038668547 0.040121872 0.12386872 4294901760
0.024561591 0.022946684 0.11300743 4294901760
0.012564621 0.012111897 0.094282016 4294901760
0.004765423 0.009503047 0.070951194 4294901760
0.077554628 0.15609342 -0.0021507274 4294901760
0.08731357 0.15009378 0.019774791 4294901760
0.090591483 0.13624367 0.040008195 4294901760
0.086817913 0.11695336 0.055028338 4294901760
0.076649576 0.095579855 0.06222133 4294901760
0.094676167 0.14436886 0.037619665 4294901760
0.098152846 0.13071519 0.05795316 4294901760
0.094577298 0.1115369 0.073163994 4294901760
0.084571749 0.090171501 0.08060509 4294901760
0.069877431 0.070337147 0.078981496 4294901760
0.10029545 0.11893646 0.074142449 4294901760
0.096918434 0.099872962 0.089541785 4294901760
0.087077118 0.078518756 0.097229913 4294901760
0.072484158 0.058590032 0.095868893 4294901760
0.055679109 0.043554906 0.08569558 4294901760
0.09348888 0.08397647 0.10141452 4294901760
0.083813213 0.062636524 0.10934857 4294901760
0.069323711 0.042616304 0.10825032 4294901760
0.052541927 0.027399855 0.098310888 4294901760
0.036388326 0.01963523 0.081260003 4294901760
0.075375199 0.045235101 0.11495328 4294901760
0.060991243 0.025126275 0.11411795 4294901760
0.04423514 0.0097306902 0.10441384 4294901760
0.028022885 0.001727582 0.087529704 4294901760
0.015175836 0.0025096992 0.066403829 4294901760
0.075160384 0.15779127 -8.2147249e-05 4294901760
0.089302562 0.14868331 0.018056341 4294901760
0.096476458 0.13207041 0.034923691 4294901760
0.095433623 0.11084363 0.047584545 4294901760
0.08635553 0.088696986 0.053835582 4294901760
0.10021754 0.14043926 0.032832038 4294901760
0.10761423 0.12400576 0.049778726 4294901760
0.10681046 0.1028619 0.062594794 4294901760
0.097946122 0.080687225 0.069049902 4294901760
0.08256384 0.061340731 0.068020701 4294901760
0.11286163 0.11002531 0.063285537 4294901760
0.11229706 0.08896739 0.076254964 4294901760
0.10364775 0.066767886 0.08291322 4294901760
0.088418908 0.04729009 0.082101591 4294901760
0.069260746 0.033923648 0.073961318 4294901760
0.1110144 0.071548454 0.086272828 4294901760
0.10258136 0.04932731 0.093133271 4294901760
0.087508157 0.029721016 0.092539318 4294901760
0.068417922 0.01614158 0.084594354 4294901760
0.048632842 0.010952178 0.070680991 4294901760
0.094979465 0.031332966 0.098015592 4294901760
0.080064073 0.011601 0.097639412 4294901760
0.061044499 -0.0021894712 0.08989089 4294901760
0.041230649 -0.0076385476 0.076118462 4294901760
0.024070641 -0.0037979481 0.058718897 4294901760
0.073343769 0.15918423 0.002684389 4294901760
0.0908117 0.14752613 0.015758069 4294901760
0.10094164 0.12864655 0.028123632 4294901760
0.10197071 0.10583106 0.03762915 4294901760
0.09371984 0.083050117 0.042620413 4294901760
0.104422 0.13721532 0.026429022 4294901760
0.11479296 0.11850119 0.038846169 4294901760
0.11609226 0.095744707 0.048459448 4294901760
0.10809381 0.072906092 0.053595897 4294901760
0.092189535 0.053959854 0.053361643 4294901760
0.1223961 0.10271439 0.04876541 4294901760
0.12396545 0.080020197 0.058485065 4294901760
0.11622056 0.057127189 0.063765965 4294901760
0.10050926 0.038019348 0.06368909 4294901760
0.079565696 0.026021928 0.058267821 4294901760
0.12431172 0.061352208 0.066022202 4294901760
0.11682153 0.038408108 0.071446791 4294901760
0.10130545 0.01914141 0.07152731 4294901760
0.080463685 0.0069050207 0.066249743 4294901760
0.057923254 0.0038283912 0.056532532 4294901760
0.10985403 0.019927315 0.07536298 4294901760
0.09453541 0.00050453818 0.075600877 4294901760
0.073798455 -0.01196906 0.070467778 4294901760
0.051251918 -0.015322747 0.060856976 4294901760
0.030819496 -0.0089728944 0.048441004 4294901760
0.10678817 0.13320598 -0.0019989153 4294901760
0.10570513 0.13437259 0.022687659 4294901760
0.097878613 0.12801428 0.045277003 4294901760
0.084670641 0.11523758 0.061837986 4294901760
0.068379737 0.098265953 0.069488563 4294901760
0.10413227 0.13456914 0.042760272 4294901760
0.096484624 0.12841634 0.065467484 4294901760
0.083402082 0.11579664 0.082246959 4294901760
0.067161337 0.098906174 0.090178639 4294901760
0.050588708 0.080684341 0.087882198 4294901760
0.089650147 0.12270567 0.083525732 4294901760
0.076694913 0.11024478 0.10052129 4294901760
0.06050666 0.093437918 0.10873292 4294901760
0.043902576 0.075209923 0.1067316 4294901760
0.029772194 0.058732934 0.094865598 4294901760
0.06572216 0.099565521 0.11359701 4294901760
0.049588736 0.082844682 0.12208743 4294901760
0.032955583 0.064613149 0.1203815 4294901760
0.0187173 0.048043679 0.10877612 4294901760
0.009351722 0.036019791 0.089290924 4294901760
0.036281265 0.068952151 0.12803142 4294901760
0.019621439 0.050719704 0.12662114 4294901760
0.0052773063 0.034060135 0.11527806 4294901760
-0.0042548813 0.021872651 0.095976159 4294901760
-0.0073162741 0.016278185 0.072074473 4294901760
0.10417337 0.13565457 -0.0017512337 4294901760
0.10787734 0.13233845 0.0224819 4294901760
0.10430571 0.12199572 0.044668209 4294901760
0.094080009 0.10642631 0.060946703 4294901760
0.07897979 0.088339679 0.068484493 4294901760
0.1101841 0.12890199 0.042187024 4294901760
0.10681757 0.11874021 0.064488716 4294901760
0.096762151 0.10328579 0.080981456 4294901760
0.081767738 0.08522822 0.088795081 4294901760
0.064443767 0.067709967 0.086569808 4294901760
0.10337389 0.10985426 0.082225777 4294901760
0.093490191 0.094517075 0.098930396 4294901760
0.078603759 0.076491155 0.10701872 4294901760
0.06130521 0.058913473 0.10508318 4294901760
0.044604953 0.044843007 0.09346059 4294901760
0.084862106 0.081642196 0.11178402 4294901760
0.070085786 0.063650519 0.12014589 4294901760
0.052815158 0.046015933 0.11850034 4294901760
0.03605577 0.031807318 0.10713378 4294901760
0.022724183 0.023497339 0.088024244 4294901760
0.057691455 0.048902888 0.12600338 4294901760
0.040451232 0.031213939 0.12464809 4294901760
0.023635123 0.016869219 0.11353915 4294901760
0.010169562 0.0083650844 0.094609834 4294901760
0.0023979093 0.0071814745 0.071154311 4294901760
0.10174036 0.13801618 -0.00056912773 4294901760
0.10989854 0.13037655 0.021499878 4294901760
0.11028597 0.11619094 0.041762631 4294901760
0.1028352 0.097928017 0.056692891 4294901760
0.088842884 0.078766003 0.063692398 4294901760
0.11581519 0.12343614 0.039451096 4294901760
0.11643212 0.10940778 0.059817374 4294901760
0.10919336 0.091219343 0.074941605 4294901760
0.09535864 0.072036117 0.08219178 4294901760
0.077335559 0.05519646 0.080306172 4294901760
0.1161435 0.097459346 0.076021515 4294901760
0.10911779 0.079348035 0.091337539 4294901760
0.09544266 0.06014635 0.098837338 4294901760
0.077497937 0.043195885 0.097215742 4294901760
0.058406476 0.031446461 0.086754963 4294901760
0.10267136 0.064355515 0.10313118 4294901760
0.08915779 0.045138143 0.11087953 4294901760
0.07129401 0.028079305 0.10952218 4294901760
0.052188788 0.016147686 0.099295355 4294901760
0.035166934 0.011419699 0.08197879 4294901760
0.077613108 0.029565791 0.11632421 4294901760
0.059832849 0.012401038 0.1152313 4294901760
0.040716622 0.00028894065 0.10523991 4294901760
0.023591155 -0.004662679 0.088088796 4294901760
0.01143672 -0.0015921108 0.066762701 4294901760
0.099661566 0.14012347 0.0014636311 4294901760
0.11162549 0.12862596 0.019811183 4294901760
0.11539558 0.11101131 0.036766175 4294901760
0.11031576 0.090344958 0.049377996 4294901760
0.097270049 0.070223369 0.055451863 4294901760
0.12062646 0.11855894 0.034746375 4294901760
0.12464693 0.1010804 0.051784493 4294901760
0.11981477 0.080452405 0.064555421 4294901760
0.1069709 0.06026474 0.070836693 4294901760
0.08835049 0.044030603 0.069535188 4294901760
0.12705404 0.086399309 0.065352604 4294901760
0.12247024 0.065812632 0.078280807 4294901760
0.10983006 0.045561813 0.084768564 4294901760
0.09133324 0.029171014 0.083686851 4294901760
0.070198692 0.019492667 0.0752239 4294901760
0.11788784 0.048930541 0.088251702 4294901760
0.10545318 0.028619472 0.094945021 4294901760
0.087082602 0.012074376 0.09408325 4294901760
0.065973073 0.0021745299 0.085816346 4294901760
0.045798194 0.0006427659 0.071582973 4294901760
0.094634458 0.012311216 0.099679828 4294901760
0.076392777 -0.0043857964 0.099038117 4294901760
0.055311304 -0.014505714 0.090968452 4294901760
0.035058755 -0.016287409 0.076875165 4294901760
0.019159609 -0.0094208186 0.059210848 4294901760
0.098084293 0.14182708 0.004202988 4294901760
0.11293578 0.12721069 0.017535491 4294901760
0.11927246 0.1068239 0.030032925 4294901760
0.11599158 0.084214509 0.039520409 4294901760
0.10366409 0.063317157 0.044346876 4294901760
0.12427697 0.11461601 0.028406264 4294901760
0.13087985 0.094348229 0.040959343 4294901760
0.12787367 0.071747981 0.050558951 4294901760
0.11578161 0.0507483 0.055534512 4294901760
0.096707977 0.035003677 0.055020142 4294901760
0.13533232 0.077457942 0.050975125 4294901760
0.13260129 0.05487008 0.060685482 4294901760
0.12074637 0.033771094 0.065809414 4294901760
0.10183065 0.017832754 0.065455236 4294901760
0.079145931 0.0098287463 0.059684582 4294901760
0.12943321 0.036460377 0.068200022 4294901760
0.11781716 0.015265123 0.073471598 4294901760
0.099062055 -0.00086464378 0.07327766 4294901760
0.076431774 -0.0091219237 0.067651957 4294901760
0.053864572 -0.0080697332 0.057573516 4294901760
0.10754926 -0.0016380666 0.077249765 4294901760
0.088957481 -0.017956937 0.077216096 4294901760
0.066384882 -0.026466299 0.071736157 4294901760
0.043759696 -0.025685301 0.061763611 4294901760
0.025019282 -0.015749857 0.049033929 4294901760
0.1263272 0.11020242 1.3694404e-05 4294901760
0.12508199 0.11158215 0.024681622 4294901760
0.1158735 0.10678311 0.047134548 4294901760
0.10030425 0.096640453 0.063465074 4294901760
0.081083708 0.082919277 0.070831262 4294901760
0.12325235 0.11209014 0.044726986 4294901760
0.11425517 0.10746089 0.067300901 4294901760
0.098834276 0.097450174 0.08385212 4294901760
0.079673313 0.083800122 0.09150029 4294901760
0.06010678 0.068886206 0.088914432 4294901760
0.10621163 0.10311203 0.085240006 4294901760
0.090941325 0.093234703 0.10200952 4294901760
0.0718427 0.079657748 0.10993857 4294901760
0.052239433 0.064743899 0.10764728 4294901760
0.035542995 0.051088572 0.095534407 4294901760
0.078005984 0.08474382 0.11489378 4294901760
0.058972459 0.0712419 0.12310257 4294901760
0.039335277 0.056330286 0.12110618 4294901760
0.022511814 0.042603977 0.10925205 4294901760
0.011429792 0.032451712 0.089603096 4294901760
0.043271448 0.060004592 0.12881425 4294901760
0.023603177 0.045097347 0.12711304 4294901760
0.0066551133 0.031302039 0.11551937 4294901760
-0.0046233376 0.021019403 0.096050806 4294901760
-0.008269432 0.016038891 0.072095409 4294901760
0.12419675 0.11308536 0.00022337452 4294901760
0.12685184 0.10918718 0.024507433 4294901760
0.12111009 0.099696934 0.046619158 4294901760
0.10797071 0.086266182 0.062710539 4294901760
0.089720286 0.071232229 0.069981247 4294901760
0.12818319 0.10541771 0.044241693 4294901760
0.12267412 0.096068338 0.066472307 4294901760
0.10971963 0.082720086 0.082780778 4294901760
0.091574132 0.067695893 0.090329006 4294901760
0.071395434 0.053610362 0.087803401 4294901760
0.11739329 0.087980971 0.084139504 4294901760
0.10462557 0.074717134 0.10066272 4294901760
0.08658763 0.059704863 0.10848737 4294901760
0.066418536 0.045556691 0.10625178 4294901760
0.047628243 0.034734767 0.094344974 4294901760
0.093600586 0.063641146 0.11335895 4294901760
0.07567279 0.048642963 0.12145891 4294901760
0.055516213 0.034434184 0.11951365 4294901760
0.036638632 0.023487516 0.10786168 4294901760
0.022325238 0.017707955 0.088530764 4294901760
0.060715772 0.036398873 0.12709737 4294901760
0.040574614 0.022131538 0.12544271 4294901760
0.021612464 0.011061696 0.11404726 4294901760
0.0071292291 0.005115788 0.094894119 4294901760
-0.00035463134 0.0053285547 0.071316428 4294901760
0.12221441 0.11585113 0.0013701211 4294901760
0.12849864 0.10688955 0.023554785 4294901760
0.12598261 0.092898771 0.043800492 4294901760
0.11510415 0.07631357 0.058583964 4294901760
0.097756408 0.06002019 0.065332487 4294901760
0.13277119 0.099016488 0.041587602 4294901760
0.13050774 0.085138835 0.061940692 4294901760
0.11984818 0.068588682 0.07692159 4294901760
0.10264756 0.052246198 0.083923221 4294901760
0.081899248 0.03895539 0.081727125 4294901760
0.12779756 0.073464893 0.078120813 4294901760
0.11735843 0.056952186 0.093296982 4294901760
0.10030742 0.040562943 0.10055071 4294901760
0.079611845 0.027149323 0.098619677 4294901760
0.058873273 0.019045647 0.087839924 4294901760
0.10811099 0.043396167 0.10496494 4294901760
0.091212034 0.02696253 0.11246973 4294901760
0.070572175 0.013428031 0.11080404 4294901760
0.049783293 0.0051480224 0.10025772 4294901760
0.032463185 0.0035634439 0.082666144 4294901760
0.076947287 0.013752582 0.11770772 4294901760
0.056366123 9.9149322e-05 0.11630761 4294901760
0.035529915 -0.0083559966 0.10599626 4294901760
0.018064706 -0.010141442 0.088568136 4294901760
0.0070098974 -0.0049464712 0.067056179 4294901760
0.12052068 0.11830372 0.0033726683 4294901760
0.1299057 0.10485208 0.02189119 4294901760
0.13014576 0.08687038 0.038878296 4294901760
0.12119906 0.06748791 0.051377788 4294901760
0.10462259 0.050077714 0.057214431 4294901760
0.13669127 0.093340084 0.036952805 4294901760
0.13720089 0.075446896 0.054027203 4294901760
0.12850215 0.056057412 0.066689774 4294901760
0.11210885 0.038545907 0.072736897 4294901760
0.090873852 0.025959836 0.071116224 4294901760
0.13668711 0.060592502 0.067610472 4294901760
0.12823756 0.041198805 0.0804343 4294901760
0.11202981 0.023588508 0.086691037 4294901760
0.090884395 0.010826267 0.085291855 4294901760
0.068481192 0.005133043 0.07648024 4294901760
0.12050888 0.025443574 0.090306602 4294901760
0.10448898 0.0077370252 0.096772052 4294901760
0.083436206 -0.0051995488 0.095594563 4294901760
0.061014276 -0.011114847 0.086979046 4294901760
0.04112519 -0.0089794518 0.072424836 4294901760
0.09081573 -0.0063294163 0.10131072 4294901760
0.069858611 -0.01943846 0.1003551 4294901760
0.047421183 -0.02557498 0.091936916 4294901760
0.027408132 -0.023671059 0.077521168 4294901760
0.013302255 -0.014058031 0.059616562 4294901760
0.11923557 0.12026933 0.0060891025 4294901760
0.13097329 0.10321917 0.019634541 4294901760
0.13330451 0.082038976 0.032201387 4294901760
0.12582353 0.06041465 0.04160269 4294901760
0.10983224 0.042109393 0.046202369 4294901760
0.13966559 0.088790774 0.030665748 4294901760
0.14227927 0.067679368 0.043292634 4294901760
0.13506828 0.046014324 0.052810423 4294901760
0.11928752 0.027565915 0.057562768 4294901760
0.097683258 0.015544649 0.056722637 4294901760
0.14343198 0.050276026 0.053353306 4294901760
0.13649201 0.028573377 0.06298621 4294901760
0.12092406 0.0099844774 0.06789054 4294901760
0.099437341 -0.0022557226 0.067212805 4294901760
0.075771108 -0.006017108 0.061070956 4294901760
0.12991567 0.011055606 0.070422716 4294901760
0.11456276 -0.0076711094 0.075478315 4294901760
0.093196683 -0.020128481 0.074963078 4294901760
0.069535688 -0.024148598 0.068966664 4294901760
0.04769741 -0.01903186 0.058532603 4294901760
0.10133828 -0.022423981 0.079068348 4294901760
0.080095924 -0.035096727 0.078715675 4294901760
0.056443576 -0.039375003 0.072865561 4294901760
0.034497377 -0.034514267 0.062536068 4294901760
0.018076526 -0.021360422 0.049524803 4294901760
0.14133123 0.084037058 0.0023029353 4294901760
0.13996553 0.085655764 0.026949955 4294901760
0.12968343 0.082640745 0.049246792 4294901760
0.11227428 0.075516693 0.06531322 4294901760
0.090767711 0.065523379 0.072353251 4294901760
0.13794038 0.086516596 0.046964448 4294901760
0.12789495 0.083630361 0.069385864 4294901760
0.11065211 0.076609448 0.0856755 4294901760
0.089212567 0.06667567 0.092998527 4294901760
0.067307346 0.055557761 0.090080552 4294901760
0.11891171 0.080840014 0.087188609 4294901760
0.10183768 0.073923245 0.10369911 4294901760
0.080468245 0.064050436 0.11130407 4294901760
0.058522239 0.052939702 0.10868005 4294901760
0.039818849 0.042524613 0.096283682 4294901760
0.087372914 0.067940362 0.11636394 4294901760
0.066076666 0.058129936 0.12424975 4294901760
0.044093031 0.047027983 0.12192005 4294901760
0.025247751 0.036566526 0.10978027 4294901760
0.012820388 0.028566137 0.089943051 4294901760
0.048507884 0.0499379 0.129695 4294901760
0.026489792 0.038846314 0.12765996 4294901760
0.0075053335 0.028340003 0.11577852 4294901760
-0.0051417025 0.020247329 0.096118361 4294901760
-0.0092504015 0.015976634 0.072100855 4294901760
0.13975647 0.087259144 0.002482943 4294901760
0.14127377 0.082979046 0.026800416 4294901760
0.13355416 0.074720956 0.048804339 4294901760
0.11794109 0.063921995 0.064665459 4294901760
0.097151607 0.052461468 0.071623527 4294901760
0.1415851 0.079059228 0.04654783 4294901760
0.13411798 0.070897602 0.068674527 4294901760
0.11869822 0.060146511 0.084755771 4294901760
0.098009288 0.048676934 0.091992997 4294901760
0.075651571 0.038484875 0.089126743 4294901760
0.12717685 0.063928939 0.086243846 4294901760
0.11195266 0.053227268 0.10254289 4294901760
0.091367237 0.041750297 0.11005824 4294901760
0.069002993 0.03149531 0.10748202 4294901760
0.048751894 0.02424695 0.095262565 4294901760
0.098899968 0.044355173 0.11504631 4294901760
0.078421026 0.032872461 0.1228387 4294901760
0.056053482 0.022556027 0.12055288 4294901760
0.035689861 0.015201206 0.10858666 4294901760
0.020873966 0.012087926 0.089022473 4294901760
0.06140219 0.023555204 0.12822108 4294901760
0.039034557 0.01317881 0.12622601 4294901760
0.018561346 0.0057185898 0.11451474 4294901760
0.0035454326 0.0024728149 0.095125355 4294901760
-0.0034000254 0.004006335 0.071432114 4294901760
0.13829118 0.09034048 0.00360208 4294901760
0.14249103 0.080419257 0.025870703 4294901760
0.13715579 0.067147136 0.046053536 4294901760
0.12321391 0.052833799 0.060638238 4294901760
0.10309166 0.039970148 0.067086697 4294901760
0.14497642 0.071927629 0.043957639 4294901760
0.13990834 0.058721051 0.064252019 4294901760
0.12618494 0.044402737 0.079037651 4294901760
0.10619442 0.031464454 0.085741445 4294901760
0.083415665 0.022157794 0.083196767 4294901760
0.13486737 0.047756594 0.080370069 4294901760
0.12136439 0.033435367 0.095354497 4294901760
0.10150848 0.020424314 0.10231267 4294901760
0.078755081 0.010987693 0.10003368 4294901760
0.057063874 0.0067677251 0.088914134 4294901760
0.10962561 0.021800276 0.10685439 4294901760
0.089907162 0.0087183248 0.11406594 4294901760
0.067182384 -0.00084689743 0.11205297 4294901760
0.045405988 -0.0052307937 0.10116579 4294901760
0.028367624 -0.0036704519 0.083299041 4294901760
0.073400028 -0.0016749933 0.1190575 4294901760
0.050707154 -0.01136744 0.11731083 4294901760
0.028848697 -0.015914632 0.10665758 4294901760
0.0116286 -0.014525241 0.088951685 4294901760
0.0020436072 -0.0074410555 0.067274429 4294901760
0.13703923 0.093062699 0.0055810371 4294901760
0.14353108 0.078157805 0.024226706 4294901760
0.14023305 0.060456011 0.041189324 4294901760
0.12771909 0.043037888 0.053516954 4294901760
0.10816693 0.028934641 0.059064265 4294901760
0.14787401 0.065627187 0.03937744 4294901760
0.14485572 0.047963627 0.056431748 4294901760
0.1325817 0.030493837 0.068926364 4294901760
0.11318792 0.016258014 0.074686892 4294901760
0.090049423 0.0077335653 0.072710864 4294901760
0.14143825 0.033469073 0.069983535 4294901760
0.12940592 0.015950132 0.082643338 4294901760
0.11017331 0.0015837852 0.088616259 4294901760
0.0870874 -0.0071298485 0.086862855 4294901760
0.064165749 -0.0086743701 0.077688269 4294901760
0.11878975 0.0018740547 0.092368729 4294901760
0.099721074 -0.012620747 0.098553181 4294901760
0.076691084 -0.021522311 0.097022668 4294901760
0.053707585 -0.023281531 0.088043526 4294901760
0.03477031 -0.017592259 0.073178381 4294901760
0.083651148 -0.023964718 0.10285365 4294901760
0.060680386 -0.033052929 0.10154624 4294901760
0.037638355 -0.035026595 0.092763849 4294901760
0.018534973 -0.029542245 0.078034841 4294901760
0.0066947248 -0.0175543 0.059922457 4294901760
0.13608931 0.095232882 0.0082795732 4294901760
0.1443202 0.076354943 0.021984925 4294901760
0.1425679 0.055121761 0.034556411 4294901760
0.13113734 0.035228457 0.043806262 4294901760
0.11201775 0.020136992 0.048124764 4294901760
0.15007254 0.060604393 0.033131808 4294901760
0.1486095 0.039387669 0.045767911 4294901760
0.13743517 0.019405479 0.055138465 4294901760
0.11849417 0.0041352445 0.059612747 4294901760
0.095082723 -0.0037656161 0.05841212 4294901760
0.14642385 0.022078874 0.055820312 4294901760
0.13550735 0.0020106738 0.065310217 4294901760
0.11674767 -0.013436128 0.069939636 4294901760
0.093409479 -0.021573387 0.068902932 4294901760
0.069554232 -0.020985009 0.062380515 4294901760
0.12574296 -0.014011387 0.072615862 4294901760
0.1071673 -0.029632533 0.077399753 4294901760
0.083905719 -0.038005017 0.076527119 4294901760
0.06000635 -0.037671812 0.070149824 4294901760
0.039628293 -0.028690903 0.059377685 4294901760
0.091429099 -0.041734375 0.080757841 4294901760
0.06824749 -0.05034088 0.080049403 4294901760
0.044307433 -0.050262898 0.073818155 4294901760
0.023775123 -0.041513994 0.063148484 4294901760
0.010223718 -0.025616711 0.049897194 4294901760
0.15129781 0.055586062 0.0047921487 4294901760
0.14985739 0.057461623 0.029416695 4294901760
0.13884598 0.056395654 0.051543009 4294901760
0.12017989 0.052573662 0.067320533 4294901760
0.097107485 0.046660781 0.074003562 4294901760
0.14770451 0.058704879 0.049397729 4294901760
0.13694723 0.057722773 0.071652554 4294901760
0.11845984 0.053972337 0.087656051 4294901760
0.095459655 0.048106246 0.094623193 4294901760
0.071949288 0.041145347 0.09134151 4294901760
0.1273251 0.056635424 0.089306302 4294901760
0.1090191 0.052957084 0.10553347 4294901760
0.086094439 0.047138624 0.11278371 4294901760
0.062540598 0.040192612 0.10979531 4294901760
0.042456571 0.033327837 0.097088322 4294901760
0.093509287 0.049717851 0.11795825 4294901760
0.070663445 0.043947864 0.12549056 4294901760
0.047069531 0.03701774 0.12279586 4294901760
0.026833497 0.030133501 0.11034311 4294901760
0.013476942 0.02449318 0.090299405 4294901760
0.051815219 0.039089169 0.13064417 4294901760
0.028184623 0.032175932 0.12824357 4294901760
0.0077994964 0.025273217 0.11604684 4294901760
-0.0057926173 0.019582283 0.096176542 4294901760
-0.010226335 0.016093496 0.072090626 4294901760
0.15033147 0.059040748 0.0049518063 4294901760
0.15066016 0.054591682 0.029284062 4294901760
0.14122123 0.047904156 0.051150575 4294901760
0.12365729 0.040141974 0.066746004 4294901760
0.10102492 0.032655958 0.073356338 4294901760
0.14994107 0.050709184 0.04902821 4294901760
0.14076594 0.044070862 0.071021631 4294901760
0.12339728 0.036320984 0.086840294 4294901760
0.1008577 0.028808227 0.093731336 4294901760
0.077069663 0.022840008 0.090495534 4294901760
0.13239695 0.038503576 0.088468343 4294901760
0.11522609 0.030767113 0.10450796 4294901760
0.092782527 0.023228696 0.11167872 4294901760
0.068972044 0.017200204 0.10873272 4294901760
0.047938272 0.013730753 0.096182644 4294901760
0.10058279 0.024430105 0.11678958 4294901760
0.07823848 0.016867112 0.12423902 4294901760
0.054408975 0.010779218 0.12158325 4294901760
0.033241224 0.0072258716 0.10928443 4294901760
0.018418964 0.0068254489 0.089482889 4294901760
0.059727721 0.010801975 0.12933688 4294901760
0.035882629 0.0046555516 0.12697171 4294901760
0.014583942 0.0010188218 0.11492593 4294901760
-0.00046181737 0.00052467 0.095295802 4294901760
-0.0066362927 0.0032590919 0.071497485 4294901760
0.1494323 0.062338505 0.0060520084 4294901760
0.15140712 0.051852103 0.028370081 4294901760
0.14343134 0.039798371 0.048446316 4294901760
0.12689291 0.028274978 0.062786922 4294901760
0.10467 0.01928729 0.068896264 4294901760
0.15202214 0.043076683 0.046481844 4294901760
0.14431916 0.031039072 0.066673949 4294901760
0.12799145 0.019471418 0.081218921 4294901760
0.10588045 0.010386795 0.087585554 4294901760
0.081834041 0.0053661633 0.084665895 4294901760
0.13711618 0.021195339 0.082693949 4294901760
0.12100153 0.0095850909 0.097441189 4294901760
0.099005632 0.00040484164 0.1040642 4294901760
0.074956343 -0.0047478066 0.1014104 4294901760
0.053038862 -0.0049761585 0.089941621 4294901760
0.10716449 0.00029101898 0.10873627 4294901760
0.085286863 -0.0089835338 0.1156147 4294901760
0.061238151 -0.014267458 0.11322715 4294901760
0.039203458 -0.01464121 0.10198911 4294901760
0.023017395 -0.01003975 0.0838563 4294901760
0.067090109 -0.016200315 0.12032834 4294901760
0.043045439 -0.021614753 0.11820738 4294901760
0.020896703 -0.022133851 0.1072017 4294901760
0.0044983621 -0.017667277 0.089226581 4294901760
-0.0032958456 -0.0089923283 0.067410156 4294901760
0.14866406 0.065245636 0.008014787 4294901760
0.15204535 0.049437031 0.026739523 4294901760
0.14531969 0.032652732 0.043621868 4294901760
0.12965748 0.017813647 0.055723853 4294901760
0.1077844 0.0075021596 0.06093942 4294901760
0.15380022 0.036348265 0.041939091 4294901760
0.14735509 0.019550916 0.058917612 4294901760
0.13191678 0.0046177087 0.071190298 4294901760
0.11017196 -0.0058525903 0.076621376 4294901760
0.085904799 -0.010037877 0.074265704 4294901760
0.14114836 0.0059372899 0.07239233 4294901760
0.12593617 -0.0090878876 0.08483395 4294901760
0.10432275 -0.01971549 0.090479761 4294901760
0.080069415 -0.02409604 0.088347249 4294901760
0.057396878 -0.021467207 0.078807533 4294901760
0.11278801 -0.020988753 0.094369024 4294901760
0.091309108 -0.031772133 0.10022876 4294901760
0.067073099 -0.036347315 0.098319724 4294901760
0.044297677 -0.033918101 0.088974133 4294901760
0.02694636 -0.024907239 0.073818378 4294901760
0.073380642 -0.040004142 0.10425696 4294901760
0.049165443 -0.044773296 0.10257167 4294901760
0.026290417 -0.042544056 0.093421564 4294901760
0.0087364102 -0.033704359 0.078398995 4294901760
-0.00044171966 -0.019792547 0.060118284 4294901760
0.14808114 0.067556128 0.010701047 4294901760
0.1525296 0.047517616 0.02450794 4294901760
0.14675245 0.026973622 0.037019126 4294901760
0.13175508 0.0094993366 0.046057332 4294901760
0.11014742 -0.0018642595 0.050049681 4294901760
0.15514933 0.031000746 0.035721868 4294901760
0.14965856 0.010420522 0.048302282 4294901760
0.13489509 -0.0071875118 0.057465117 4294901760
0.11342811 -0.018759098 0.061615802 4294901760
0.088993452 -0.022280481 0.060032006 4294901760
0.14420775 -0.0061892862 0.058293529 4294901760
0.12968026 -0.023928532 0.067579672 4294901760
0.10835706 -0.035706446 0.071888097 4294901760
0.08394891 -0.039473355 0.070469022 4294901760
0.060703482 -0.03457373 0.063569412 4294901760
0.1170548 -0.037901189 0.074706011 4294901760
0.09587843 -0.049883731 0.079171553 4294901760
0.071500309 -0.05389563 0.077917412 4294901760
0.04816287 -0.049238715 0.071161829 4294901760
0.029927427 -0.036723413 0.060080461 4294901760
0.078153528 -0.058922607 0.082261659 4294901760
0.053808942 -0.063178919 0.081172623 4294901760
0.030382847 -0.058765385 0.07456205 4294901760
0.011951991 -0.046450086 0.063580349 4294901760
0.001723823 -0.028376194 0.050138623 4294901760
