# .PCD v0.7 - Point Cloud Data file format
VERSION 0.7
FIELDS x y z rgb
SIZE 4 4 4 4
TYPE F F F U
COUNT 1 1 1 1
WIDTH 81
HEIGHT 1
VIEWPOINT 0 0 0 1 0 0 0
POINTS 81
DATA ascii
0.11066583 0.13059309 0.031768437 4294901760
0.10606664 0.12144295 0.054716155 4294901760
0.094793461 0.10663078 0.071597822 4294901760
0.10464824 0.11624605 0.074069306 4294901760
0.093595237 0.10160314 0.091241717 4294901760
0.077798903 0.083845317 0.099403262 4294901760
0.086663917 0.091432355 0.10711861 4294901760
0.070998065 0.073735543 0.11565554 4294901760
0.053309549 0.055989742 0.11373761 4294901760
0.11377542 0.12751248 0.03067198 4294901760
0.11261991 0.11495075 0.052405436 4294901760
0.10377017 0.097737722 0.068432584 4294901760
0.11414006 0.1068427 0.070722438 4294901760
0.10555801 0.089751862 0.087023579 4294901760
0.090789139 0.070976146 0.094822839 4294901760
0.10095704 0.077272445 0.10207879 4294901760
0.086377844 0.05849909 0.11023255 4294901760
0.068149701 0.041287899 0.1085049 4294901760
0.11659104 0.124632 0.028638015 4294901760
0.11855367 0.10888031 0.048118971 4294901760
0.11189828 0.089422405 0.062560961 4294901760
0.12273457 0.098050229 0.064513892 4294901760
0.11638988 0.078670494 0.079198793 4294901760
0.10255136 0.058943015 0.086325988 4294901760
0.11389896 0.064032428 0.092729732 4294901760
0.10030371 0.044252474 0.10017271 4294901760
0.081586942 0.027541155 0.098798037 4294901760
0.12237138 0.11668821 0.032984994 4294901760
0.11656921 0.10811374 0.055882346 4294901760
0.1035679 0.094645053 0.072646469 4294901760
0.11439922 0.10311544 0.075218119 4294901760
0.10163259 0.089790843 0.092275187 4294901760
0.083895087 0.073888972 0.10027435 4294901760
0.093468286 0.080455534 0.10807899 4294901760
0.075863563 0.064600103 0.11645481 4294901760
0.056344166 0.048913598 0.11435672 4294901760
0.12513247 0.11328268 0.031916965 4294901760
0.12238805 0.10093679 0.053631533 4294901760
0.11153857 0.084814034 0.069563292 4294901760
0.12282727 0.0927203 0.071958028 4294901760
0.11225466 0.076689586 0.088166416 4294901760
0.09542948 0.059662465 0.095812686 4294901760
0.10615955 0.064802155 0.10316983 4294901760
0.089519709 0.047756638 0.11117242 4294901760
0.069521151 0.032661129 0.10925967 4294901760
0.12763254 0.110108 0.029908737 4294901760
0.1276568 0.09424635 0.049399316 4294901760
0.11875575 0.075649418 0.063765973 4294901760
0.13045858 0.083029799 0.065828048 4294901760
0.12187259 0.064476416 0.080440648 4294901760
0.10587347 0.04640032 0.087423369 4294901760
0.11765105 0.050209854 0.093939081 4294901760
0.10188487 0.032054927 0.10123989 4294901760
0.081452452 0.017510347 0.09967564 4294901760
0.13245875 0.10157719 0.034307078 4294901760
0.12552501 0.093707584 0.057142757 4294901760
0.11095558 0.081764825 0.073773377 4294901760
0.12263013 0.088989615 0.076454006 4294901760
0.108307 0.077164315 0.0933799 4294901760
0.088846646 0.063321181 0.10119895 4294901760
0.099010207 0.068795398 0.10909915 4294901760
0.079683304 0.054983974 0.11729614 4294901760
0.058573276 0.041546129 0.11500131 4294901760
0.13483734 0.097887196 0.033263933 4294901760
0.13053779 0.08593116 0.054944396 4294901760
0.11782211 0.071112633 0.070762046 4294901760
0.12989067 0.077726178 0.073269881 4294901760
0.11745765 0.062968723 0.089366868 4294901760
0.098783232 0.04790635 0.096841238 4294901760
0.1099434 0.051834509 0.10430438 4294901760
0.091447718 0.036733594 0.11213684 4294901760
0.069924906 0.023936108 0.11002303 4294901760
0.1369911 0.094454944 0.031278241 4294901760
0.13507669 0.078697905 0.050759669 4294901760
0.12403952 0.061204474 0.065029778 4294901760
0.13646485 0.067249469 0.067208692 4294901760
0.12574324 0.049764674 0.081727803 4294901760
0.10778046 0.033568218 0.08854606 4294901760
0.11984303 0.036058303 0.095177218 4294901760
0.10209998 0.019757967 0.10231576 4294901760
0.080203414 0.0075561102 0.10054655 4294901760
