# .PCD v0.7 - Point Cloud Data file format
VERSION 0.7
FIELDS x y z rgb
SIZE 4 4 4 4
TYPE F F F U
COUNT 1 1 1 1
WIDTH 1034
HEIGHT 1
VIEWPOINT 0 0 0 1 0 0 0
POINTS 1034
DATA ascii
0.14221069 0.018881837 0.066041604 4294901760
0.1370203 0.011366742 0.070418671 4294901760
0.13048877 0.0044414462 0.07387621 4294901760
0.12280658 -0.001692042 0.076313369 4294901760
0.11419784 -0.0068548094 0.077659056 4294901760
0.10491367 -0.010896259 0.07787402 4294901760
0.09522488 -0.013698502 0.076951988 4294901760
0.085414089 -0.015179798 0.074919865 4294901760
0.07576748 -0.015296939 0.071836911 4294901760
0.14294472 0.020296678 0.065137461 4294901760
0.13928661 0.01240452 0.070324689 4294901760
0.13413261 0.0048771841 0.074723653 4294901760
0.12763308 -0.0020657605 0.078206025 4294901760
0.11997759 -0.0082217883 0.080670245 4294901760
0.11138948 -0.01341133 0.082044408 4294901760
0.10211924 -0.017483005 0.082288444 4294901760
0.092437297 -0.020318048 0.081395239 4294901760
0.082626067 -0.021833757 0.079390831 4294901760
0.072971731 -0.021985922 0.076333709 4294901760
0.063755915 -0.020770101 0.072313026 4294901760
0.13512458 0.0062179621 0.073964462 4294901760
0.13000707 -0.001321473 0.078385241 4294901760
0.12353967 -0.0082819331 0.081892394 4294901760
0.11591104 -0.014460384 0.084383614 4294901760
0.10734371 -0.0196766 0.085786231 4294901760
0.098087594 -0.023778427 0.086059339 4294901760
0.088412672 -0.026646214 0.085194968 4294901760
0.078601174 -0.028196307 0.083218329 4294901760
0.068939298 -0.028383492 0.080187082 4294901760
0.059708878 -0.027202308 0.076189645 4294901760
0.051179159 -0.02468721 0.071342625 4294901760
0.1247621 -0.0070523624 0.081299193 4294901760
0.11832696 -0.014030207 0.084831052 4294901760
0.11072534 -0.020230962 0.087349229 4294901760
0.10217895 -0.025473755 0.088780276 4294901760
0.092937119 -0.029605651 0.08908245 4294901760
0.083269417 -0.032506127 0.088246927 4294901760
0.073457845 -0.034090575 0.086298093 4294901760
0.063788608 -0.034312777 0.083292782 4294901760
0.05454376 -0.033166252 0.079318665 4294901760
0.045992967 -0.030684445 0.074491665 4294901760
0.038385652 -0.026939746 0.06895259 4294901760
0.11214436 -0.019146662 0.086938456 4294901760
0.10456987 -0.025369605 0.089483544 4294901760
0.0960446 -0.030638874 0.090942994 4294901760
0.086817235 -0.034800764 0.091274224 4294901760
0.077156924 -0.037733875 0.090467572 4294901760
0.06734547 -0.039352648 0.088546574 4294901760
0.057669058 -0.039609861 0.085567258 4294901760
0.048409957 -0.038498018 0.081616536 4294901760
0.039838251 -0.036049545 0.076809652 4294901760
0.032203972 -0.032335866 0.071286812 4294901760
0.025729811 -0.027465308 0.065209121 4294901760
0.097620912 -0.029729882 0.090726025 4294901760
0.089116916 -0.035025526 0.092213839 4294901760
0.079904184 -0.039217331 0.09257412 4294901760
0.070251457 -0.042183019 0.091796353 4294901760
0.060440302 -0.043836087 0.089903228 4294901760
0.050756902 -0.04412831 0.086949967 4294901760
0.041483726 -0.043051165 0.083022721 4294901760
0.032891266 -0.040636078 0.078236036 4294901760
0.025230166 -0.036953487 0.072729543 4294901760
0.018723896 -0.032110821 0.066663869 4294901760
0.013562246 -0.026249334 0.060215943 4294901760
0.12905921 0.10168567 -0.00076768332 4294901760
0.13499922 0.095544055 0.0046703611 4294901760
0.13950343 0.088467322 0.010345508 4294901760
0.14244048 0.080661915 0.016092215 4294901760
0.14372469 0.072355501 0.021742851 4294901760
0.14331861 0.063790388 0.027132588 4294901760
0.14123407 0.055216413 0.032104209 4294901760
0.13753188 0.046883676 0.036512692 4294901760
0.13232005 0.03903525 0.040229443 4294901760
0.12575057 0.031900063 0.043146048 4294901760
0.11801511 0.025686249 0.045177422 4294901760
0.1387527 0.089781977 0.0093129501 4294901760
0.14329538 0.08272665 0.014984086 4294901760
0.14627369 0.074937075 0.020731052 4294901760
0.14760076 0.066640481 0.026386211 4294901760
0.14723787 0.058078881 0.031784605 4294901760
0.1451956 0.049502008 0.036768757 4294901760
0.14153355 0.041160051 0.041193288 4294901760
0.13635851 0.033296343 0.044929132 4294901760
0.12982148 0.026140265 0.047867317 4294901760
0.12211309 0.019900562 0.049922135 4294901760
0.11345822 0.014759243 0.051033646 4294901760
0.14580333 0.076371655 0.019692386 4294901760
0.14882284 0.068598077 0.025439503 4294901760
0.15019274 0.060311459 0.031099077 4294901760
0.14987305 0.051753532 0.03650602 4294901760
0.14787312 0.043173924 0.041502614 4294901760
0.14425126 0.034822904 0.045943107 4294901760
0.13911314 0.026944064 0.049697973 4294901760
0.13260864 0.019767232 0.052657682 4294901760
0.12492748 0.013501756 0.054735903 4294901760
0.11629373 0.0083303973 0.055872004 4294901760
0.10695922 0.0044040028 0.056032859 4294901760
0.15001579 0.061826222 0.030083075 4294901760
0.15142848 0.053549744 0.035746958 4294901760
0.151152 0.044995654 0.041162349 4294901760
0.14919442 0.036413476 0.046171289 4294901760
0.14561285 0.028053548 0.05062766 4294901760
0.14051174 0.020159731 0.054401476 4294901760
0.13403989 0.012962282 0.057382654 4294901760
0.12638611 0.0066711516 0.059484236 4294901760
0.11777364 0.0014698512 0.060644913 4294901760
0.10845371 -0.0024898988 0.060830832 4294901760
0.098698169 -0.0050925934 0.06003657 4294901760
0.15127337 0.046548638 0.040197164 4294901760
0.15104011 0.03799855 0.045620903 4294901760
0.14912492 0.029413965 0.050642088 4294901760
0.14558367 0.02104529 0.055114254 4294901760
0.14051968 0.013136642 0.05890695 4294901760
0.13408063 0.0059187133 0.061909538 4294901760
0.12645437 -0.00039795024 0.06403444 4294901760
0.11786333 -0.0056290929 0.065219671 4294901760
0.10855815 -0.0096221231 0.065430649 4294901760
0.098810226 -0.012260566 0.064661235 4294901760
0.088903919 -0.013467456 0.062933862 4294901760
0.14954123 0.030962145 0.049754452 4294901760
0.14766848 0.022375315 0.054787789 4294901760
0.14416765 0.013998054 0.059275664 4294901760
0.13914084 0.006074727 0.063087165 4294901760
0.1327347 -0.0011635446 0.06611111 4294901760
0.12513611 -0.0075056218 0.068259291 4294901760
0.11656669 -0.012766507 0.06946905 4294901760
0.10727642 -0.016792743 0.069705091 4294901760
0.097536296 -0.019466881 0.068960533 4294901760
0.087630436 -0.020710921 0.067257099 4294901760
0.077847794 -0.020488573 0.064644471 4294901760
0.14486736 0.015498543 0.058490172 4294901760
0.141407 0.0071128551 0.062993668 4294901760
0.13641749 -0.00082500029 0.0668239 4294901760
0.1300444 -0.0080834767 0.069869146 4294901760
0.1224736 -0.014450847 0.072040565 4294901760
0.11392596 -0.019741375 0.073274828 4294901760
0.10465079 -0.023800738 0.073535927 4294901760
0.094918653 -0.026510524 0.072816245 4294901760
0.085013434 -0.027791688 0.07113678 4294901760
0.075224064 -0.027606864 0.068546511 4294901760
0.065836102 -0.025961436 0.065121002 4294901760
0.13738124 0.0005862267 0.066162311 4294901760
0.13242914 -0.0073660053 0.070011206 4294901760
0.1260892 -0.014644549 0.073077686 4294901760
0.11854636 -0.021037091 0.075272307 4294901760
0.11002064 -0.026357161 0.076531053 4294901760
0.10076075 -0.030449573 0.0768172 4294901760
0.091036782 -0.033194955 0.076122403 4294901760
0.08113239 -0.03451322 0.074466936 4294901760
0.071336485 -0.034365918 0.071899086 4294901760
0.061934806 -0.032757349 0.068493746 4294901760
0.053201605 -0.029734427 0.064350262 4294901760
0.12729028 -0.013361679 0.072558329 4294901760
0.12098361 -0.020660153 0.075645991 4294901760
0.11346887 -0.027077744 0.077863768 4294901760
0.10496525 -0.032427255 0.079146974 4294901760
0.095720813 -0.036552638 0.079458162 4294901760
0.086005196 -0.039333563 0.078788273 4294901760
0.076101825 -0.040688906 0.077156834 4294901760
0.066299565 -0.040579133 0.07461144 4294901760
0.056884352 -0.039007444 0.071226336 4294901760
0.048130821 -0.03601969 0.067100272 4294901760
0.040294319 -0.031703018 0.062353596 4294901760
0.11487401 -0.025958771 0.077501029 4294901760
0.1073875 -0.03240129 0.079741925 4294901760
0.098906144 -0.03778014 0.081049554 4294901760
0.089677326 -0.041938417 0.081385784 4294901760
0.079970255 -0.044754833 0.080740809 4294901760
0.070068091 -0.046147224 0.079133436 4294901760
0.060259663 -0.046074983 0.07661055 4294901760
0.050831091 -0.044540208 0.073245749 4294901760
0.042057406 -0.041587677 0.069137178 4294901760
0.034194529 -0.037303511 0.064404689 4294901760
0.027471822 -0.031812679 0.059186321 4294901760
0.1004764 -0.036856063 0.080853485 4294901760
0.092017464 -0.042264149 0.082185529 4294901760
0.082804449 -0.046455242 0.082546793 4294901760
0.07310611 -0.049307093 0.081926741 4294901760
0.063205332 -0.050736509 0.080343455 4294901760
0.053390928 -0.050701797 0.07784313 4294901760
0.043949179 -0.04920397 0.074498691 4294901760
0.035155501 -0.046286717 0.070407696 4294901760
0.027266406 -0.042035136 0.065689474 4294901760
0.020512011 -0.036573246 0.060481671 4294901760
0.015089343 -0.030060364 0.054936182 4294901760
0.14573136 0.061060626 -0.012141665 4294901760
0.14788692 0.063762121 -0.0026216374 4294901760
0.14842963 0.065948434 0.0072526145 4294901760
0.14734368 0.0675558 0.01719306 4294901760
0.14466076 0.068537325 0.026909741 4294901760
0.14045909 0.068864375 0.036119219 4294901760
0.13486128 0.068527415 0.044552859 4294901760
0.12803058 0.06753628 0.051964656 4294901760
0.12016628 0.065919869 0.0581384 4294901760
0.11149774 0.063725337 0.062894009 4294901760
0.10227783 0.061016701 0.066092767 4294901760
0.14840016 0.065576337 0.0054585258 4294901760
0.14898443 0.067776665 0.015327293 4294901760
0.14793985 0.069399461 0.025269665 4294901760
0.14529689 0.070397392 0.034995623 4294901760
0.14113265 0.070741341 0.044221468 4294901760
0.1355686 0.070421293 0.052678075 4294901760
0.12876703 0.069446564 0.060118776 4294901760
0.12092636 0.067845598 0.066326521 4294901760
0.11227528 0.065665096 0.071120225 4294901760
0.10306616 0.062968656 0.074360073 4294901760
0.09356761 0.059834935 0.075951546 4294901760
0.14819705 0.069131538 0.023475189 4294901760
0.14719386 0.070769735 0.033419296 4294901760
0.14459093 0.071784049 0.043154351 4294901760
0.14046419 0.072144896 0.052396379 4294901760
0.13493399 0.071841754 0.0608758 4294901760
0.12816168 0.07088346 0.068345256 4294901760
0.1203448 0.069297969 0.074586883 4294901760
0.11171135 0.067131534 0.0794186 4294901760
0.10251318 0.064447343 0.08269947 4294901760
0.093018591 0.061323691 0.084333792 4294901760
0.083504543 0.057851702 0.084273897 4294901760
0.14512767 0.071627721 0.041409202 4294901760
0.1425648 0.072658405 0.051153164 4294901760
0.13847563 0.073036142 0.060411204 4294901760
0.13297942 0.07274992 0.068913266 4294901760
0.1262365 0.071808077 0.076411352 4294901760
0.11844354 0.070238091 0.082686737 4294901760
0.10982789 0.06808576 0.08755637 4294901760
0.10064085 0.065413862 0.090878204 4294901760
0.091150396 0.062300347 0.092555344 4294901760
0.081633382 0.058836024 0.092538871 4294901760
0.072367407 0.055121951 0.090829261 4294901760
0.13927706 0.072995745 0.058763728 4294901760
0.13522552 0.073390365 0.068037607 4294901760
0.12976338 0.073121056 0.076562151 4294901760
0.12304997 0.072195686 0.084088713 4294901760
0.11528111 0.070641235 0.090397738 4294901760
0.1066834 0.068503052 0.095305189 4294901760
0.097507663 0.065843508 0.098667927 4294901760
0.088021539 0.062740177 0.10038786 4294901760
0.078501739 0.059283588 0.10041481 4294901760
0.069225952 0.055574566 0.098747991 4294901760
0.060464751 0.051721305 0.095436029 4294901760
0.13080727 0.0731977 0.075057991 4294901760
0.12537931 0.072945327 0.083604857 4294901760
0.11869554 0.072036438 0.091159754 4294901760
0.11095091 0.07049755 0.097502299 4294901760
0.10237133 0.068373561 0.10244748 4294901760
0.093207069 0.065726414 0.10585105 4294901760
0.083725445 0.062633336 0.10761373 4294901760
0.074203037 0.059184544 0.10768411 4294901760
0.064917609 0.05548064 0.10606012 4294901760
0.05614002 0.051629674 0.10278914 4294901760
0.048126306 0.047743969 0.097966582 4294901760
0.11995298 0.072228 0.089840576 4294901760
0.11329897 0.071335621 0.097423658 4294901760
0.10557872 0.069812328 0.1037996 4294901760
0.097017422 0.067702562 0.10878243 4294901760
0.087864816 0.065067872 0.11222677 4294901760
0.078387871 0.061985098 0.11403217 4294901760
0.068863042 0.05854417 0.11414596 4294901760
0.059568152 0.054845463 0.11256483 4294901760
0.05077434 0.050996862 0.10933489 4294901760
0.042738117 0.047110632 0.10455037 4294901760
0.035693899 0.043300133 0.098350815 4294901760
0.10701487 0.07011351 0.10270195 4294901760
0.099319145 0.06860584 0.10911118 4294901760
0.090776302 0.06651035 0.11413154 4294901760
0.08163552 0.063888155 0.11761659 4294901760
0.07216344 0.060815748 0.11946468 4294901760
0.062636361 0.057382751 0.1196219 4294901760
0.053332191 0.053689305 0.11808365 4294901760
0.044522323 0.049843147 0.11489481 4294901760
0.036463745 0.045956466 0.1101484 4294901760
0.029391522 0.042142637 0.10398287 4294901760
0.023511948 0.038512908 0.096578076 4294901760
0.092351377 0.0669128 0.11328583 4294901760
0.083827138 0.064831614 0.11834364 4294901760
0.074698359 0.062221974 0.12186933 4294901760
0.065231323 0.059159994 0.12376007 4294901760
0.055702187 0.055734992 0.1239607 4294901760
0.046388909 0.052046876 0.12246536 4294901760
0.037563156 0.048203234 0.11931769 4294901760
0.029482374 0.044316173 0.11460949 4294901760
0.02238228 0.040499087 0.10847811 4294901760
0.01646998 0.036863316 0.10110239 4294901760
0.011917936 0.033514913 0.092697486 4294901760
0.076368734 0.062714547 0.12129898 4294901760
0.067252137 0.060117505 0.12486525 4294901760
0.05779032 0.057066008 0.1267986 4294901760
0.048259303 0.053649068 0.12704265 4294901760
0.038937092 0.049966354 0.12559026 4294901760
0.030095622 0.046125297 0.12248381 4294901760
0.021992791 0.042237934 0.11781392 4294901760
0.014864961 0.038417663 0.11171679 4294901760
0.0089200484 0.034775916 0.10437029 4294901760
0.0043314639 0.031418923 0.095988713 4294901760
0.0012330574 0.028444612 0.086816542 4294901760
0.059509717 0.057635058 0.12651943 4294901760
0.05005331 0.0545941 0.12849535 4294901760
0.04052059 0.051185288 0.12878281 4294901760
0.031189628 0.04750805 0.1273734 4294901760
0.022332607 0.043669652 0.12430823 4294901760
0.014207883 0.039782058 0.11967672 4294901760
0.0070524528 0.035958674 0.11361398 4294901760
0.001075039 0.032311022 0.10629684 4294901760
-0.0035499977 0.028945506 0.097938746 4294901760
-0.0066877464 0.025960295 0.088783503 4294901760
-0.0082466789 0.02344247 0.079098172 4294901760
0.14456382 0.064288601 -0.012588604 4294901760
0.14709912 0.065940149 -0.0029232025 4294901760
0.14803363 0.067043237 0.0071010301 4294901760
0.14734009 0.067565709 0.017191689 4294901760
0.14503872 0.067492314 0.027054431 4294901760
0.14119667 0.066825189 0.036401562 4294901760
0.13592598 0.065583795 0.044960428 4294901760
0.1293804 0.063804358 0.052481368 4294901760
0.12175091 0.061538767 0.058744997 4294901760
0.11326 0.058853112 0.063568607 4294901760
0.10415538 0.05582574 0.066811495 4294901760
0.14793307 0.066867724 0.0052797236 4294901760
0.14890897 0.067985281 0.015298408 4294901760
0.14825693 0.068522826 0.025391042 4294901760
0.14599594 0.068464682 0.035263222 4294901760
0.14219199 0.06781254 0.044626981 4294901760
0.13695602 0.066585429 0.053209182 4294901760
0.13044076 0.064819135 0.060759477 4294901760
0.12283626 0.062565185 0.067057632 4294901760
0.11436436 0.059889324 0.071919926 4294901760
0.10527216 0.056869611 0.075204536 4294901760
0.09582489 0.053594127 0.076815635 4294901760
0.14844336 0.068450548 0.023569478 4294901760
0.14783283 0.069003165 0.033663895 4294901760
0.14561227 0.068960272 0.043545324 4294901760
0.14184651 0.06832312 0.052925535 4294901760
0.13664535 0.067110308 0.061530903 4294901760
0.13016051 0.065357193 0.069110416 4294901760
0.12258118 0.063114926 0.075442977 4294901760
0.11412843 0.060448911 0.080343865 4294901760
0.10504882 0.057436917 0.083670117 4294901760
0.095607214 0.054166798 0.085324727 4294901760
0.086079009 0.050733943 0.085259408 4294901760
0.14608055 0.068993226 0.041773967 4294901760
0.14390048 0.068965584 0.051664464 4294901760
0.14017296 0.068343446 0.061060946 4294901760
0.13500671 0.067144945 0.069689319 4294901760
0.12855244 0.065405056 0.077297904 4294901760
0.12099841 0.063174516 0.083664745 4294901760
0.11256497 0.060518391 0.08860413 4294901760
0.10349813 0.057514168 0.091971979 4294901760
0.094062366 0.054249477 0.093670055 4294901760
0.084532909 0.050819546 0.093648814 4294901760
0.075187743 0.047324426 0.091908887 4294901760
0.14091012 0.068480723 0.059388869 4294901760
0.13722092 0.067873597 0.06880144 4294901760
0.13208967 0.066689447 0.07745266 4294901760
0.12566608 0.064962797 0.08509016 4294901760
0.11813749 0.062744029 0.09149117 4294901760
0.10972353 0.060097851 0.096468955 4294901760
0.10066963 0.057101458 0.099878334 4294901760
0.091239884 0.053842258 0.10161985 4294901760
0.081709363 0.050415311 0.10164269 4294901760
0.07235606 0.04692059 0.099946201 4294901760
0.063452817 0.04346003 0.096579872 4294901760
0.13307527 0.066927239 0.075926185 4294901760
0.12797914 0.065757453 0.084600076 4294901760
0.12158635 0.064044088 0.092266358 4294901760
0.11408335 0.061837126 0.098701403 4294901760
0.10568903 0.059200943 0.10371751 4294901760
0.096648231 0.05621244 0.10716834 4294901760
0.087224692 0.05295879 0.10895325 4294901760
0.077693276 0.049534898 0.10902018 4294901760
0.068332024 0.046040639 0.10736717 4294901760
0.059413996 0.042577945 0.10404243 4294901760
0.051199332 0.039247815 0.099142939 4294901760
0.12279308 0.06437581 0.090927772 4294901760
0.11643121 0.062675767 0.098622687 4294901760
0.10895395 0.060480654 0.10509165 4294901760
0.10057942 0.057854522 0.11014596 4294901760
0.091551907 0.054873962 0.1136382 4294901760
0.082134746 0.051625926 0.11546648 4294901760
0.072602622 0.048205152 0.11557749 4294901760
0.063233592 0.044711426 0.11396797 4294901760
0.054300949 0.041246656 0.11068489 4294901760
0.046065256 0.037911914 0.105824 4294901760
0.038766745 0.034804471 0.099527106 4294901760
0.1103484 0.060897127 0.10397804 4294901760
0.10289702 0.058713913 0.11048079 4294901760
0.094542451 0.056097873 0.11557323 4294901760
0.085528389 0.053125318 0.11910679 4294901760
0.076117784 0.049882956 0.12097842 4294901760
0.066585138 0.046465363 0.12113349 4294901760
0.057208512 0.042972237 0.11956751 4294901760
0.048261423 0.039505463 0.11632615 4294901760
0.040004857 0.036166169 0.11150394 4294901760
0.032679651 0.033051766 0.10524158 4294901760
0.026499489 0.030253096 0.097721711 4294901760
0.096085981 0.056587551 0.11471544 4294901760
0.08775153 0.053981658 0.1198459 4294901760
0.078751095 0.051017161 0.12342072 4294901760
0.069347233 0.047780532 0.12533563 4294901760
0.059814237 0.044366188 0.12553479 4294901760
0.050430194 0.040873725 0.12401237 4294901760
0.041468829 0.037405014 0.12081279 4294901760
0.033191543 0.034061234 0.11602937 4294901760
0.025839789 0.030939927 0.10980165 4294901760
0.019628011 0.028132142 0.10231129 4294901760
0.014737405 0.025719779 0.093776785 4294901760
0.080400951 0.051566474 0.12284252 4294901760
0.071414314 0.048610095 0.12645854 4294901760
0.06201737 0.045379266 0.12841672 4294901760
0.052484211 0.041968234 0.12865995 4294901760
0.043092929 0.038476501 0.12718113 4294901760
0.034117457 0.035005916 0.12402338 4294901760
0.025819615 0.031657714 0.11927883 4294901760
0.018441446 0.028529566 0.11308587 4294901760
0.012198172 0.025712715 0.10562516 4294901760
0.0072719054 0.023289332 0.097114317 4294901760
0.0038063461 0.021330105 0.087801598 4294901760
0.063727833 0.045973003 0.12813413 4294901760
0.054337982 0.042748034 0.13013554 4294901760
0.044804845 0.039340381 0.13042283 4294901760
0.0354065 0.035849445 0.12898763 4294901760
0.026417095 0.032377049 0.12587178 4294901760
0.018098852 0.029024491 0.12116619 4294901760
0.010694411 0.025889559 0.11500812 4294901760
0.0044197585 0.023063701 0.1075772 4294901760
-0.00054207566 0.020629345 0.099090181 4294901760
-0.0040463549 0.018657502 0.089794636 4294901760
-0.0059908605 0.017205689 0.079961702 4294901760
0.14339766 0.0675475 -0.012637937 4294901760
0.14631228 0.068139032 -0.0029564891 4294901760
0.14763813 0.068148531 0.0070842984 4294901760
0.14733651 0.067575708 0.017191537 4294901760
0.14541626 0.066437289 0.027070401 4294901760
0.14193335 0.064766467 0.036432728 4294901760
0.13698941 0.06261199 0.045005415 4294901760
0.13072863 0.060036693 0.052538402 4294901760
0.12333366 0.057115704 0.058811955 4294901760
0.11502018 0.053934228 0.063643068 4294901760
0.10603071 0.050585065 0.066890828 4294901760
0.14746654 0.068171471 0.0052599874 4294901760
0.1488336 0.068195894 0.015295221 4294901760
0.14857362 0.067637801 0.025404438 4294901760
0.14669417 0.066513471 0.03529276 4294901760
0.14325006 0.064855695 0.044671744 4294901760
0.13834178 0.062712826 0.053267807 4294901760
0.1321125 0.060147386 0.060830198 4294901760
0.12474391 0.057234198 0.067138337 4294901760
0.11645095 0.054058239 0.0720082 4294901760
0.10747554 0.050712157 0.075297743 4294901760
0.098079488 0.047293551 0.076911017 4294901760
0.14868937 0.067763031 0.023579886 4294901760
0.14847103 0.067219675 0.033690892 4294901760
0.14663242 0.066109449 0.043588482 4294901760
0.14322719 0.064464748 0.052983943 4294901760
0.13835466 0.062333539 0.061603215 4294901760
0.13215697 0.059777997 0.069194876 4294901760
0.12481491 0.056872666 0.075537466 4294901760
0.11654264 0.053702287 0.08044599 4294901760
0.10758146 0.05035935 0.083777264 4294901760
0.098192766 0.046941355 0.085434102 4294901760
0.08865042 0.043548014 0.085368186 4294901760
0.14703232 0.066333495 0.04181423 4294901760
0.14523458 0.065237403 0.051720902 4294901760
0.14186828 0.063605808 0.061132666 4294901760
0.13703161 0.061486296 0.069774985 4294901760
0.13086565 0.058940705 0.07739576 4294901760
0.12355025 0.056043282 0.083772697 4294901760
0.11529882 0.052878547 0.088719778 4294901760
0.10635204 0.049538814 0.092092708 4294901760
0.096970886 0.0461215 0.093793094 4294901760
0.087429002 0.042726289 0.093771331 4294901760
0.078004733 0.039452221 0.092028059 4294901760
0.14254124 0.063922457 0.059457872 4294901760
0.13921393 0.062304001 0.068885759 4294901760
0.13441321 0.060196232 0.077550955 4294901760
0.12827908 0.057660639 0.085200705 4294901760
0.1209905 0.054771181 0.091611862 4294901760
0.11276006 0.051612146 0.096597418 4294901760
0.10382785 0.048275683 0.10001194 4294901760
0.094454415 0.044859115 0.10175584 4294901760
0.084913179 0.041462101 0.10177822 4294901760
0.075482458 0.03818373 0.10007846 4294901760
0.066437349 0.035119638 0.096706122 4294901760
0.13534059 0.060596723 0.076022014 4294901760
0.13057588 0.058500733 0.084709927 4294901760
0.12447372 0.055975188 0.092388503 4294901760
0.11721208 0.05309375 0.098833762 4294901760
0.10900279 0.049940478 0.10385769 4294901760
0.10008533 0.046607349 0.10731374 4294901760
0.090719789 0.043191589 0.10910111 4294901760
0.08117938 0.039792832 0.10916766 4294901760
0.071742386 0.036510229 0.10751144 4294901760
0.062684089 0.033439521 0.10418076 4294901760
0.054268714 0.030670289 0.099272788 4294901760
0.12562983 0.056448419 0.091047779 4294901760
0.11955973 0.053932969 0.098755032 4294901760
0.11232518 0.051059607 0.10523427 4294901760
0.1041372 0.047912158 0.11029647 4294901760
0.09523464 0.044582423 0.11379399 4294901760
0.08587718 0.041167539 0.1156248 4294901760
0.076337777 0.037767109 0.11573549 4294901760
0.066894695 0.034480326 0.11412285 4294901760
0.057823382 0.031403068 0.1108339 4294901760
0.049388453 0.028625095 0.10596459 4294901760
0.041835953 0.026227441 0.099656947 4294901760
0.11367798 0.051592473 0.10411889 4294901760
0.10647065 0.048727244 0.11063197 4294901760
0.098304138 0.045585673 0.11573236 4294901760
0.089416653 0.042259403 0.11927128 4294901760
0.080067448 0.038845453 0.12114549 4294901760
0.070529237 0.035443414 0.12130034 4294901760
0.06108024 0.032152522 0.1197313 4294901760
0.051996093 0.029068768 0.11648414 4294901760
0.04354177 0.026282109 0.11165357 4294901760
0.035963889 0.023873828 0.10538051 4294901760
0.02948349 0.021914175 0.097847946 4294901760
0.099816158 0.04616341 0.11487325 4294901760
0.091671266 0.043027781 0.12001172 4294901760
0.082799032 0.039705031 0.12359197 4294901760
0.073458262 0.036292087 0.12550956 4294901760
0.063921414 0.032888502 0.12570855 4294901760
0.054466691 0.029593561 0.12418313 4294901760
0.045369875 0.026503371 0.12097782 4294901760
0.036896322 0.023708077 0.1161861 4294901760
0.029293202 0.021289216 0.10994774 4294901760
0.0227823 0.019317346 0.10244473 4294901760
0.017553534 0.017849984 0.093895912 4294901760
0.084428385 0.040311631 0.1230129 4294901760
0.075571574 0.036992468 0.1266344 4294901760
0.066239409 0.033580594 0.12859534 4294901760
0.056704115 0.030175529 0.12883846 4294901760
0.047243837 0.0268766 0.12735672 4294901760
0.03813453 0.023780035 0.12419332 4294901760
0.029641906 0.02097616 0.11944053 4294901760
0.022013694 0.018546764 0.11323699 4294901760
0.015472411 0.016562711 0.10576367 4294901760
0.010208863 0.015081879 0.097238563 4294901760
0.0063765859 0.01414746 0.087910332 4294901760
0.067940958 0.034199253 0.12831236 4294901760
0.058617581 0.030788513 0.13031659 4294901760
0.049084023 0.027382031 0.13060385 4294901760
0.039618373 0.024079178 0.1291658 4294901760
0.030496744 0.020976294 0.12604436 4294901760
0.021985212 0.018163892 0.1213306 4294901760
0.014332054 0.015724007 0.11516201 4294901760
0.0077605145 0.013727813 0.10771853 4294901760
0.0024622825 0.012233536 0.099217281 4294901760
-0.001408093 0.011284765 0.089906238 4294901760
-0.0037377141 0.010909175 0.080057018 4294901760
0.14224835 0.070794053 -0.012289009 4294901760
0.14553681 0.070329592 -0.0027210559 4294901760
0.14724833 0.06924963 0.0072026411 4294901760
0.14733298 0.067585677 0.017192608 4294901760
0.14578833 0.065386266 0.026957441 4294901760
0.1426594 0.062715545 0.036212303 4294901760
0.13803747 0.059651431 0.044687226 4294901760
0.13205735 0.056283295 0.052135002 4294901760
0.12489352 0.052709389 0.058338381 4294901760
0.1167549 0.049033962 0.063116409 4294901760
0.10787892 0.045364231 0.066329718 4294901760
0.14700675 0.069470286 0.0053995792 4294901760
0.14875934 0.068405718 0.015317771 4294901760
0.14888574 0.066756129 0.02530968 4294901760
0.14738229 0.064569645 0.035083845 4294901760
0.14429285 0.061910037 0.044355154 4294901760
0.13970752 0.058854893 0.052853167 4294901760
0.13376006 0.055493325 0.06033 4294901760
0.12662396 0.051923394 0.066567548 4294901760
0.11850738 0.048249234 0.071383871 4294901760
0.10964707 0.044578016 0.074638471 4294901760
0.10030149 0.041016828 0.076236419 4294901760
0.14893185 0.067078121 0.023506274 4294901760
0.14910001 0.065442935 0.033499934 4294901760
0.1476378 0.063269421 0.043283246 4294901760
0.1445879 0.060620978 0.052570831 4294901760
0.14003927 0.057574861 0.061091769 4294901760
0.13412456 0.054219928 0.06859751 4294901760
0.12701635 0.050654039 0.074869111 4294901760
0.11892194 0.046981212 0.079723634 4294901760
0.11007748 0.043308578 0.083019473 4294901760
0.10074093 0.039743274 0.084660478 4294901760
0.091184661 0.036389295 0.084598795 4294901760
0.14797032 0.06368383 0.041529458 4294901760
0.14654939 0.061523329 0.051321726 4294901760
0.14353909 0.0588861 0.060625408 4294901760
0.13902722 0.055849072 0.069169112 4294901760
0.13314541 0.052500837 0.076703623 4294901760
0.12606519 0.048939057 0.083009161 4294901760
0.11799313 0.04526763 0.087901786 4294901760
0.10916468 0.041593656 0.091238797 4294901760
0.099837348 0.038024299 0.092922837 4294901760
0.090283222 0.034663677 0.092904791 4294901760
0.080780998 0.031609822 0.09118519 4294901760
0.14414878 0.059381455 0.058969822 4294901760
0.14117815 0.056755487 0.068289421 4294901760
0.13670315 0.053727604 0.076855727 4294901760
0.13085431 0.050386127 0.084418863 4294901760
0.12380225 0.046828527 0.090758212 4294901760
0.11575268 0.043158576 0.095688857 4294901760
0.1069404 0.039483327 0.099066965 4294901760
0.097622462 0.035909984 0.10079401 4294901760
0.088070676 0.032542787 0.10081961 4294901760
0.078563653 0.029479951 0.099143013 4294901760
0.069378726 0.026810821 0.095813125 4294901760
0.13757314 0.054290175 0.075344212 4294901760
0.13313508 0.051271494 0.083932959 4294901760
0.12731935 0.047936842 0.091524571 4294901760
0.12029557 0.044383485 0.097897612 4294901760
0.11226865 0.040715076 0.10286618 4294901760
0.10347272 0.037038624 0.10628533 4294901760
0.094164349 0.03346137 0.10805535 4294901760
0.084615074 0.030087657 0.10812458 4294901760
0.075103439 0.0270159 0.10649102 4294901760
0.065906905 0.024335701 0.10320231 4294901760
0.057293721 0.02212524 0.098354399 4294901760
0.12842554 0.048551045 0.090198994 4294901760
0.12264302 0.045223277 0.097818948 4294901760
0.11564766 0.041674234 0.10422556 4294901760
0.10764353 0.038007438 0.10923195 4294901760
0.098864116 0.034329854 0.11269208 4294901760
0.089565493 0.030748749 0.11450503 4294901760
0.080018915 0.027368588 0.1146179 4294901760
0.070502855 0.024287969 0.11302741 4294901760
0.061294883 0.021596752 0.10977995 4294901760
0.052663602 0.019373441 0.10497025 4294901760
0.04486078 0.017682888 0.098738603 4294901760
0.11695942 0.042323053 0.10312265 4294901760
0.10999261 0.038778391 0.10956271 4294901760
0.10201143 0.035113279 0.11460683 4294901760
0.093248695 0.031434629 0.11810787 4294901760
0.083960004 0.027849745 0.11996372 4294901760
0.074416302 0.024463199 0.12012023 4294901760
0.064895988 0.021373775 0.11857284 4294901760
0.055676758 0.018671593 0.11536668 4294901760
0.047027543 0.016435472 0.11059529 4294901760
0.039200637 0.014730641 0.10439784 4294901760
0.032424346 0.01360683 0.096955106 4294901760
0.1034924 0.035778739 0.11375713 4294901760
0.095534325 0.032115377 0.11883889 4294901760
0.086788438 0.028435735 0.12238079 4294901760
0.077509843 0.024847141 0.12427949 4294901760
0.06796921 0.021454275 0.12447964 4294901760
0.05844482 0.018356107 0.12297537 4294901760
0.049214512 0.015643008 0.11981059 4294901760
0.040547527 0.013394122 0.11507759 4294901760
0.032696679 0.011675046 0.10891445 4294901760
0.025890978 0.010535926 0.10150094 4294901760
0.020328945 0.010009989 0.093053304 4294901760
0.088397592 0.029099401 0.12180785 4294901760
0.079668716 0.025418835 0.12539051 4294901760
0.070400402 0.021826597 0.12733206 4294901760
0.060863003 0.018427476 0.12757583 4294901760
0.051334731 0.015320621 0.12611473 4294901760
0.042093515 0.01259666 0.12299137 4294901760
0.033408929 0.01033505 0.11829686 4294901760
0.025534291 0.0086017605 0.11216814 4294901760
0.018699307 0.0074473536 0.10478399 4294901760
0.013103354 0.0069055012 0.096359797 4294901760
0.0089096613 0.0069920099 0.08714129 4294901760
0.072093159 0.022470085 0.12705176 4294901760
0.062835298 0.018874273 0.12903608 4294901760
0.053301331 0.01546896 0.12932348 4294901760
0.043769348 0.012353479 0.12790556 4294901760
0.034517404 0.0096187061 0.12482369 4294901760
0.025815377 0.0073444149 0.12016776 4294901760
0.0179171 0.0055969469 0.11407359 4294901760
0.011052966 0.0044272747 0.10671894 4294901760
0.0054231999 0.003869517 0.098318346 4294901760
0.0011920214 0.0039399443 0.089116849 4294901760
-0.0015171471 0.0046365019 0.079382859 4294901760
0.14113116 0.073985174 -0.011546452 4294901760
0.14478301 0.07248275 -0.0022200271 4294901760
0.14686942 0.070331939 0.007454487 4294901760
0.14732955 0.067595474 0.017194888 4294901760
0.14614999 0.064353183 0.026717048 4294901760
0.14336514 0.060699638 0.03574321 4294901760
0.13905624 0.05674142 0.04401008 4294901760
0.13334896 0.05259398 0.05127652 4294901760
0.12640978 0.048378307 0.05733056 4294901760
0.11844115 0.044217367 0.061995614 4294901760
0.10967548 0.040232535 0.065135598 4294901760
0.1465598 0.070746921 0.0056966459 4294901760
0.14868712 0.06861195 0.015365761 4294901760
0.14918914 0.065889508 0.025108023 4294901760
0.14805119 0.062659003 0.03463925 4294901760
0.1453065 0.059014674 0.04368142 4294901760
0.14103509 0.055062827 0.051970776 4294901760
0.1353616 0.050918728 0.059265513 4294901760
0.12845148 0.046703268 0.06535285 4294901760
0.12050634 0.04253941 0.070055224 4294901760
0.11175791 0.038548607 0.07323546 4294901760
0.1024614 0.034847278 0.074800797 4294901760
0.14916754 0.066404901 0.02334962 4294901760
0.1497114 0.063696533 0.033093557 4294901760
0.14861509 0.060477883 0.042633671 4294901760
0.14591059 0.056842837 0.051691677 4294901760
0.14167678 0.052897431 0.060003359 4294901760
0.13603717 0.048756756 0.067326263 4294901760
0.12915626 0.044541586 0.07344678 4294901760
0.12123476 0.040374886 0.078186378 4294901760
0.11250374 0.036378194 0.081406809 4294901760
0.10321789 0.032668091 0.083014123 4294901760
0.093648076 0.029352801 0.08296144 4294901760
0.14888209 0.061079413 0.04092342 4294901760
0.14782745 0.057872672 0.050472241 4294901760
0.14516321 0.054246981 0.059545912 4294901760
0.14096707 0.050308097 0.067879759 4294901760
0.13536145 0.046170916 0.075230688 4294901760
0.12850986 0.041956123 0.081384271 4294901760
0.12061215 0.037786663 0.08616101 4294901760
0.11189871 0.033784151 0.089421563 4294901760
0.10262371 0.030065348 0.091070831 4294901760
0.093057677 0.026738726 0.091060698 4294901760
0.083479673 0.023901323 0.089391463 4294901760
0.14571141 0.054917984 0.057931196 4294901760
0.14308746 0.05130171 0.067020357 4294901760
0.13892908 0.047369424 0.075376213 4294901760
0.13335757 0.04323582 0.082755029 4294901760
0.12653543 0.039021481 0.088941559 4294901760
0.11866167 0.034849338 0.093755342 4294901760
0.10996597 0.030841088 0.097055964 4294901760
0.10070199 0.027113654 0.098747149 4294901760
0.091139935 0.023775762 0.098779567 4294901760
0.081558749 0.020924781 0.09715227 4294901760
0.072237901 0.018643869 0.093912721 4294901760
0.13974331 0.048091307 0.073901765 4294901760
0.13562277 0.044165689 0.082279474 4294901760
0.13008545 0.040035743 0.089686029 4294901760
0.12329289 0.035821937 0.095905386 4294901760
0.11544324 0.03164719 0.10075613 4294901760
0.10676545 0.027633276 0.10409676 4294901760
0.097512655 0.023897281 0.10582983 4294901760
0.08795476 0.020548185 0.1059048 4294901760
0.078370571 0.017683677 0.10431946 4294901760
0.069039658 0.015387317 0.10112008 4294901760
0.060234189 0.013726089 0.096399963 4294901760
0.13114314 0.040788505 0.088392697 4294901760
0.12564014 0.036662295 0.095826857 4294901760
0.1188773 0.032449104 0.10207892 4294901760
0.11105189 0.028271833 0.10696653 4294901760
0.10239217 0.024252333 0.1103471 4294901760
0.09315075 0.02050785 0.11212203 4294901760
0.083597198 0.01714761 0.11223953 4294901760
0.074010186 0.014269633 0.1106962 4294901760
0.064669371 0.011957867 0.10753704 4294901760
0.055847224 0.010279747 0.1028542 4294901760
0.047801081 0.0092842216 0.096784279 4294901760
0.12014915 0.033211894 0.10100253 4294901760
0.11341615 0.028999399 0.10728719 4294901760
0.10561513 0.024819685 0.11221156 4294901760
0.09697365 0.020794675 0.11563201 4294901760
0.087743782 0.017041774 0.11744876 4294901760
0.078194752 0.013670458 0.11760882 4294901760
0.068605103 0.010779065 0.11610751 4294901760
0.059254572 0.0084519368 0.11298863 4294901760
0.050415911 0.0067569558 0.10834315 4294901760
0.042346936 0.0057435641 0.1023066 4294901760
0.035283018 0.005441322 0.095055036 4294901760
0.10706591 0.025571374 0.11138194 4294901760
0.09928944 0.021389296 0.11634299 4294901760
0.090666361 0.017358851 0.11980325 4294901760
0.081448212 0.013597605 0.12166178 4294901760
0.071903884 0.010215274 0.12186438 4294901760
0.062311787 0.0073105204 0.12040512 4294901760
0.052951716 0.0049680746 0.11732659 4294901760
0.044096705 0.0032562655 0.11271857 4294901760
0.03600505 0.0022250265 0.10671548 4294901760
0.028912788 0.0019044382 0.099492431 4294901760
0.023026796 0.0023038525 0.09126012 4294901760
0.092255875 0.018078608 0.11924337 4294901760
0.083651364 0.014042806 0.12274338 4294901760
0.074445114 0.010273287 0.12464366 4294901760
0.064905673 0.0068800068 0.12488879 4294901760
0.055311304 0.0039619477 0.12347163 4294901760
0.045941871 0.0016042292 0.12043349 4294901760
0.03707068 -0.00012437519 0.11586301 4294901760
0.028956505 -0.001173442 0.10989351 4294901760
0.021836029 -0.0015123703 0.10269911 4294901760
0.015916958 -0.0011312736 0.094489679 4294901760
0.011371952 -4.1268304e-05 0.085504681 4294901760
0.076129332 0.010941178 0.12436904 4294901760
0.066935159 0.0071634557 0.12631103 4294901760
0.057400782 0.0037592913 0.1265987 4294901760
0.047804326 0.00082798256 0.12522364 4294901760
0.03842571 -0.0015449644 0.12222596 4294901760
0.02953851 -0.0032903312 0.11769311 4294901760
0.021401964 -0.0043572057 0.11175732 4294901760
0.014253411 -0.0047144676 0.1045917 4294901760
0.0083013754 -0.0043516955 0.096405312 4294901760
0.0037194768 -0.0032794718 0.087436929 4294901760
0.0006413674 -0.0015290724 0.07794816 4294901760
0.14006093 0.077078514 -0.01042012 4294901760
0.14406088 0.074569933 -0.0014600536 4294901760
0.14650643 0.071381077 0.0078364946 4294901760
0.14732628 0.067604966 0.017198345 4294901760
0.14649647 0.063351758 0.026352415 4294901760
0.14404124 0.058745507 0.03503168 4294901760
0.1400322 0.053920582 0.042982969 4294901760
0.13458627 0.049017724 0.049974348 4294901760
0.12786235 0.044179946 0.055801872 4294901760
0.12005654 0.039548371 0.060295559 4294901760
0.11139655 0.035258096 0.063324325 4294901760
0.14613165 0.07198444 0.0061472449 4294901760
0.14861795 0.068811864 0.015438553 4294901760
0.14947979 0.06504944 0.024802141 4294901760
0.14869198 0.060806915 0.033964876 4294901760
0.14627753 0.056208037 0.04265948 4294901760
0.14230688 0.05138696 0.050632335 4294901760
0.13689582 0.046484314 0.057650875 4294901760
0.13020222 0.041643105 0.063510373 4294901760
0.1224213 0.037004553 0.068039902 4294901760
0.11378006 0.032703962 0.071107335 4294901760
0.10453054 0.028866781 0.072623201 4294901760
0.14939332 0.06575232 0.023112003 4294901760
0.15029711 0.062003646 0.032477152 4294901760
0.14955133 0.057771884 0.041648377 4294901760
0.14717771 0.053180471 0.050358154 4294901760
0.1432455 0.048363335 0.058352422 4294901760
0.13786942 0.043460991 0.065397993 4294901760
0.13120626 0.038616445 0.071289346 4294901760
0.12345039 0.033971004 0.075854629 4294901760
0.11482806 0.029660178 0.078960672 4294901760
0.10559077 0.025809715 0.080516882 4294901760
0.096007973 0.02253193 0.080477856 4294901760
0.14975557 0.058554802 0.040004171 4294901760
0.14905182 0.054333884 0.049183711 4294901760
0.14671907 0.049750019 0.057908498 4294901760
0.14282541 0.044936918 0.065924026 4294901760
0.13748439 0.040034972 0.072996497 4294901760
0.13085179 0.035187177 0.07891959 4294901760
0.12312112 0.030534936 0.083520539 4294901760
0.11451787 0.026213961 0.086665139 4294901760
0.10529298 0.022350287 0.088261656 4294901760
0.095715553 0.019056622 0.088263527 4294901760
0.086064957 0.016429041 0.086670689 4294901760
0.14720838 0.050591286 0.056355778 4294901760
0.14491656 0.046015058 0.06509541 4294901760
0.1410615 0.04120608 0.073132046 4294901760
0.13575564 0.036304627 0.080231272 4294901760
0.12915376 0.031453673 0.086185999 4294901760
0.12144843 0.026794724 0.090822533 4294901760
0.11286441 0.022463679 0.094005622 4294901760
0.1036521 0.018586872 0.095642425 4294901760
0.094080225 0.015277389 0.095685184 4294901760
0.084427983 0.012631768 0.094132654 4294901760
0.074976936 0.010727182 0.091030136 4294901760
0.14182229 0.042082392 0.071713828 4294901760
0.13800591 0.037277628 0.079771422 4294901760
0.13273533 0.032376759 0.086897276 4294901760
0.12616427 0.027522745 0.092883527 4294901760
0.11848443 0.022857174 0.097555548 4294901760
0.10991982 0.01851614 0.10077707 4294901760
0.10072026 0.014626272 0.10245412 4294901760
0.091154113 0.011301036 0.10253777 4294901760
0.081500411 0.0086374274 0.10102558 4294901760
0.072040766 0.006713144 0.097961679 4294901760
0.063051097 0.0055843173 0.093435414 4294901760
0.13374655 0.03326384 0.085652851 4294901760
0.12851132 0.028363649 0.092805192 4294901760
0.12197123 0.023506664 0.09882284 4294901760
0.11431701 0.018834561 0.10353027 4294901760
0.10577197 0.014483623 0.10679016 4294901760
0.096585341 0.010580768 0.10850742 4294901760
0.087025106 0.0072398405 0.10863197 4294901760
0.077370137 0.004558295 0.10716015 4294901760
0.067902066 0.0026143519 0.10413492 4294901760
0.058897071 0.0014647156 0.099644512 4294901760
0.050617829 0.0011429206 0.093819909 4294901760
0.12320485 0.024379937 0.09778668 4294901760
0.11669583 0.019520074 0.10383562 4294901760
0.1090674 0.014841526 0.10857836 4294901760
0.10054208 0.010480767 0.11187656 4294901760
0.091368556 0.006564999 0.11363401 4294901760
0.081814423 0.0032084445 0.11379944 4294901760
0.072158359 0.00050901325 0.11236802 4294901760
0.06268204 -0.0014545528 0.10938152 4294901760
0.05366189 -0.0026249767 0.10492705 4294901760
0.045361023 -0.0029681174 0.099134535 4294901760
0.038021568 -0.0024739655 0.092172958 4294901760
0.11048926 0.015676798 0.10777918 4294901760
0.10288675 0.010991897 0.11255714 4294901760
0.094381325 0.0066213994 0.11589358 4294901760
0.085221082 0.0026927935 0.11769117 4294901760
0.075673223 -0.00067932456 0.11789749 4294901760
0.066016257 -0.0033965905 0.1165065 4294901760
0.056531876 -0.005379742 0.11355879 4294901760
0.04749674 -0.0065709311 0.10914034 4294901760
0.0391744 -0.0069354107 0.10338002 4294901760
0.031807616 -0.0064625493 0.096445888 4294901760
0.025611281 -0.0051661404 0.088540189 4294901760
0.095952027 0.0073955324 0.1153535 4294901760
0.087466657 0.0030153799 0.11872812 4294901760
0.07831987 -0.00092598953 0.12056584 4294901760
0.068778463 -0.0043136068 0.12081303 4294901760
0.059120778 -0.0070486553 0.1194625 4294901760
0.049628515 -0.0090513546 0.11655363 4294901760
0.040578566 -0.010263286 0.11217128 4294901760
0.032234915 -0.010649098 0.10644328 4294901760
0.024840944 -0.010197536 0.099536709 4294901760
0.018612335 -0.0089217732 0.091653042 4294901760
0.013730775 -0.0068590222 0.083022237 4294901760
0.0799959 -0.00023444249 0.12029982 4294901760
0.070862733 -0.0041885003 0.12217762 4294901760
0.061327975 -0.0075915521 0.12246569 4294901760
0.05166975 -0.010344331 0.12115563 4294901760
0.042169783 -0.01236654 0.11828566 4294901760
0.033105195 -0.013599191 0.1139395 4294901760
0.024740389 -0.014006328 0.10824392 4294901760
0.01731937 -0.013576075 0.10136506 4294901760
0.011058608 -0.012320981 0.093503572 4294901760
0.0061407262 -0.01027766 0.084888779 4294901760
0.002709179 -0.0075057116 0.075771973 4294901760
0.13905184 0.080033004 -0.0089249657 4294901760
0.14338002 0.076563425 -0.00045122224 4294901760
0.14616419 0.072383121 0.0083435923 4294901760
0.14732318 0.067614034 0.017202934 4294901760
0.14682315 0.062395282 0.02586838 4294901760
0.14467871 0.056879088 0.034087159 4294901760
0.14095239 0.051226359 0.041619528 4294901760
0.1357529 0.045601986 0.048245773 4294901760
0.12923191 0.040170029 0.05377261 4294901760
0.12157963 0.035088941 0.058038812 4294901760
0.11301928 0.030506933 0.060919948 4294901760
0.14572795 0.073166408 0.0067453948 4294901760
0.14855275 0.069002807 0.015535181 4294901760
0.14975382 0.064247087 0.024396099 4294901760
0.14929616 0.059037957 0.033069674 4294901760
0.1471931 0.053527378 0.041302901 4294901760
0.14350599 0.04787609 0.048855618 4294901760
0.1383424 0.042248938 0.055507515 4294901760
0.13185291 0.03681007 0.061064556 4294901760
0.12422685 0.031718131 0.065364644 4294901760
0.11568666 0.027121656 0.068282343 4294901760
0.10648146 0.023154721 0.069732547 4294901760
0.1496062 0.065129019 0.022796577 4294901760
0.15084936 0.060386747 0.031658899 4294901760
0.15043406 0.055187348 0.040340442 4294901760
0.14837243 0.049682491 0.048587959 4294901760
0.14472459 0.044032753 0.056160882 4294901760
0.13959697 0.038402934 0.062838301 4294901760
0.13313912 0.032957252 0.068425447 4294901760
0.12553942 0.027854562 0.07275933 4294901760
0.11701956 0.023243705 0.075713545 4294901760
0.10782807 0.019259181 0.07720191 4294901760
0.098233037 0.016017217 0.077181011 4294901760
0.15057912 0.056143507 0.038783908 4294901760
0.15020621 0.050953936 0.047473252 4294901760
0.14818604 0.045454908 0.055734906 4294901760
0.14457756 0.039806824 0.063327886 4294901760
0.13948601 0.034174439 0.070030704 4294901760
0.13305992 0.028722053 0.075647838 4294901760
0.12548673 0.023608707 0.080015443 4294901760
0.11698737 0.018983558 0.083006114 4294901760
0.10780974 0.014981521 0.084532611 4294901760
0.098221563 0.011719333 0.084550403 4294901760
0.088502519 0.0092921536 0.083058983 4294901760
0.1486198 0.046458796 0.054264486 4294901760
0.14664114 0.040965699 0.062540121 4294901760
0.14307207 0.035319377 0.070153013 4294901760
0.13801669 0.02968454 0.076881103 4294901760
0.13162248 0.02422555 0.082528122 4294901760
0.12407595 0.019101646 0.086929359 4294901760
0.11559723 0.014462293 0.089956433 4294901760
0.10643365 0.010442818 0.091521025 4294901760
0.096852511 0.0071604694 0.091577522 4294901760
0.087133273 0.0047109928 0.090124257 4294901760
0.077559471 0.0031658383 0.087203629 4294901760
0.14378248 0.036343187 0.068809442 4294901760
0.14025289 0.030698739 0.0764421 4294901760
0.13523379 0.025061553 0.083195329 4294901760
0.12887157 0.019596064 0.088872135 4294901760
0.12135185 0.014461701 0.093306921 4294901760
0.11289395 0.0098082311 0.096370332 4294901760
0.10374459 0.0057713958 0.097973004 4294901760
0.09417066 0.0024689485 0.098068185 4294901760
0.08445143 -2.7785177e-06 0.096653104 4294901760
0.0748704 -0.0015716857 0.093769044 4294901760
0.065707058 -0.0021920083 0.089500114 4294901760
0.13620119 0.02607692 0.082015827 4294901760
0.13121846 0.020437494 0.088794068 4294901760
0.12488837 0.01496561 0.094500542 4294901760
0.11739558 0.0098208832 0.098968796 4294901760
0.10895865 0.0051533859 0.10206848 4294901760
0.099823691 0.0010992668 0.1037092 4294901760
0.09025716 -0.002223216 0.10384308 4294901760
0.080538109 -0.004717146 0.10246621 4294901760
0.070950046 -0.0063097761 0.099618763 4294901760
0.061772656 -0.0069546495 0.095383793 4294901760
0.053273633 -0.0066329548 0.08988484 4294901760
0.12608597 0.015944405 0.09351778 4294901760
0.11978812 0.01046623 0.099253818 4294901760
0.11232241 0.0053112395 0.10375545 4294901760
0.10390662 0.00062980322 0.10689136 4294901760
0.094786227 -0.0034415224 0.10857009 4294901760
0.085227273 -0.0067839776 0.10874265 4294901760
0.075508595 -0.0093000634 0.10740402 4294901760
0.065913677 -0.010916386 0.10459325 4294901760
0.05672241 -0.011585797 0.10039232 4294901760
0.048202895 -0.011288771 0.094923772 4294901760
0.040603645 -0.010033973 0.08834713 4294901760
0.113717 0.0062263464 0.10299666 4294901760
0.10627853 0.0010611895 0.10753158 4294901760
0.097884029 -0.0036340966 0.11070367 4294901760
0.088778384 -0.0077225515 0.11242037 4294901760
0.079227194 -0.011084915 0.11263162 4294901760
0.069509067 -0.013623108 0.11133125 4294901760
0.059907477 -0.015263093 0.1085572 4294901760
0.050702509 -0.01595703 0.10439039 4294901760
0.042162661 -0.015684679 0.098952353 4294901760
0.034537047 -0.014453982 0.092401728 4294901760
0.028048096 -0.012300841 0.084929585 4294901760
0.099436998 -0.0028080302 0.11018987 4294901760
0.091063954 -0.0075170766 0.11339805 4294901760
0.081973225 -0.011622583 0.1151527 4294901760
0.072429977 -0.01500479 0.11540263 4294901760
0.062712587 -0.017565044 0.11414056 4294901760
0.053104516 -0.019228658 0.11140329 4294901760
0.043886021 -0.019947108 0.10727067 4294901760
0.035326004 -0.019699436 0.10186324 4294901760
0.027674165 -0.018492866 0.095338762 4294901760
0.021153703 -0.016362593 0.087887526 4294901760
0.01595482 -0.013370759 0.079726897 4294901760
0.083641537 -0.010908441 0.11489812 4294901760
0.074565895 -0.01503092 0.11669069 4294901760
0.065030776 -0.018432908 0.11697929 4294901760
0.055314314 -0.021015171 0.11575553 4294901760
0.045699932 -0.022702385 0.11305509 4294901760
0.036468085 -0.023445334 0.10895675 4294901760
0.027888067 -0.023222346 0.10358004 4294901760
0.020210149 -0.022039926 0.097081825 4294901760
0.013658299 -0.019932562 0.089651644 4294901760
0.0084236311 -0.016961731 0.08150623 4294901760
0.0046588411 -0.013214087 0.072883181 4294901760
0.1381173 0.082809433 -0.0070808325 4294901760
0.14274944 0.078436777 0.00079307664 4294901760
