# .PCD v0.7 - Point Cloud Data file format
VERSION 0.7
FIELDS x y z
SIZE 4 4 4
TYPE F F F
COUNT 1 1 1
WIDTH 489
HEIGHT 1
VIEWPOINT 0 0 0 1 0 0 0
POINTS 489
DATA ascii
-0.039624169 0.046412319 0.18400002
-0.034539327 0.046341896 0.18000001
-0.034070056 0.046341896 0.18000001
-0.033600785 0.046341896 0.18000001
-0.033131514 0.046341896 0.18000001
-0.032662243 0.046341896 0.18000001
-0.032192972 0.046341896 0.18000001
-0.041814074 0.046551105 0.17900001
-0.041347407 0.046551105 0.17900001
-0.041109126 0.046811167 0.18000001
-0.040639855 0.046811167 0.18000001
-0.039947413 0.046551105 0.17900001
-0.039701313 0.046811167 0.18000001
-0.039232042 0.046811167 0.18000001
-0.038762771 0.046811167 0.18000001
-0.038293499 0.046811167 0.18000001
-0.037824228 0.046811167 0.18000001
-0.037354957 0.046811167 0.18000001
-0.037090607 0.04707123 0.18100001
-0.036618728 0.04707123 0.18100001
-0.035947144 0.046811167 0.18000001
-0.035477869 0.046811167 0.18000001
-0.035008598 0.046811167 0.18000001
-0.034539327 0.046811167 0.18000001
-0.034070056 0.046811167 0.18000001
-0.033600785 0.046811167 0.18000001
-0.042747401 0.047017768 0.17900001
-0.042280737 0.047017768 0.17900001
-0.041814074 0.047017768 0.17900001
-0.041347407 0.047017768 0.17900001
-0.041109126 0.047280438 0.18000001
-0.040639855 0.047280438 0.18000001
-0.040170584 0.047280438 0.18000001
-0.039701313 0.047280438 0.18000001
-0.039232042 0.047280438 0.18000001
-0.038762771 0.047280438 0.18000001
-0.038293499 0.047280438 0.18000001
-0.037824228 0.047280438 0.18000001
-0.037354957 0.047280438 0.18000001
-0.036885686 0.047280438 0.18000001
-0.036416415 0.047280438 0.18000001
-0.035947144 0.047280438 0.18000001
-0.035477869 0.047280438 0.18000001
-0.035008598 0.047280438 0.18000001
-0.034539327 0.047280438 0.18000001
-0.034070056 0.047280438 0.18000001
-0.033600785 0.047280438 0.18000001
-0.042731225 0.046953883 0.177
-0.042508591 0.047219157 0.178
-0.042280737 0.047484435 0.17900001
-0.041814074 0.047484435 0.17900001
-0.041347407 0.047484435 0.17900001
-0.041109126 0.047749713 0.18000001
-0.040639855 0.047749713 0.18000001
-0.040170584 0.047749713 0.18000001
-0.039701313 0.047749713 0.18000001
-0.039232042 0.047749713 0.18000001
-0.038762771 0.047749713 0.18000001
-0.038293499 0.047749713 0.18000001
-0.037824228 0.047749713 0.18000001
-0.037354957 0.047749713 0.18000001
-0.036885686 0.047749713 0.18000001
-0.036416415 0.047749713 0.18000001
-0.035947144 0.047749713 0.18000001
-0.035008598 0.047749713 0.18000001
-0.034539327 0.047749713 0.18000001
-0.034070056 0.047749713 0.18000001
-0.033600785 0.047749713 0.18000001
-0.021595709 0.044301122 0.16700001
-0.020289572 0.044301122 0.16700001
-0.042731225 0.047415327 0.177
-0.042508591 0.047683213 0.178
-0.042044532 0.047683213 0.178
-0.041814074 0.047951095 0.17900001
-0.041347407 0.047951095 0.17900001
-0.040880743 0.047951095 0.17900001
-0.04041408 0.047951095 0.17900001
-0.040170584 0.04821898 0.18000001
-0.039701313 0.04821898 0.18000001
-0.039232042 0.04821898 0.18000001
-0.038762771 0.04821898 0.18000001
-0.038293499 0.04821898 0.18000001
-0.037824228 0.04821898 0.18000001
-0.037354957 0.04821898 0.18000001
-0.036885686 0.04821898 0.18000001
-0.036416415 0.04821898 0.18000001
-0.035947144 0.04821898 0.18000001
-0.035477869 0.04821898 0.18000001
-0.034539327 0.04821898 0.18000001
-0.034070056 0.04821898 0.18000001
-0.02060085 0.044468615 0.16600001
-0.020289572 0.044736501 0.16700001
-0.019854192 0.044736501 0.16700001
-0.019418811 0.044736501 0.16700001
-0.042948652 0.047606293 0.17600001
-0.042508591 0.048147272 0.178
-0.042280737 0.048417762 0.17900001
-0.041814074 0.048417762 0.17900001
-0.041347407 0.048417762 0.17900001
-0.040880743 0.048417762 0.17900001
-0.04041408 0.048417762 0.17900001
-0.040170584 0.048688255 0.18000001
-0.035947144 0.048688255 0.18000001
-0.035008598 0.048688255 0.18000001
-0.034539327 0.048688255 0.18000001
-0.034070056 0.048688255 0.18000001
-0.033600785 0.048688255 0.18000001
-0.025228919 0.045442373 0.16800001
-0.024352947 0.045442373 0.16800001
-0.024057312 0.045712862 0.16900001
-0.023476973 0.045442373 0.16800001
-0.02290185 0.045171879 0.16700001
-0.02246647 0.045171879 0.16700001
-0.021899167 0.04490139 0.16600001
-0.020168077 0.04490139 0.16600001
-0.019735303 0.04490139 0.16600001
-0.019418811 0.045171879 0.16700001
-0.018983433 0.045171879 0.16700001
-0.0436171 0.047792044 0.17500001
-0.043407496 0.048065141 0.17600001
-0.042948652 0.048065141 0.17600001
-0.042731225 0.048338234 0.177
-0.042044532 0.048611332 0.178
-0.041814074 0.048884429 0.17900001
-0.040880743 0.048884429 0.17900001
-0.04041408 0.048884429 0.17900001
-0.040170584 0.049157526 0.18000001
-0.039701313 0.049157526 0.18000001
-0.039232042 0.049157526 0.18000001
-0.038762771 0.049157526 0.18000001
-0.035008598 0.049157526 0.18000001
-0.025228919 0.045880362 0.16800001
-0.024790933 0.045880362 0.16800001
-0.023772608 0.045607261 0.16700001
-0.021767246 0.045061067 0.16500001
-0.021337077 0.045061067 0.16500001
-0.020476747 0.045061067 0.16500001
-0.020168077 0.045334164 0.16600001
-0.019302532 0.045334164 0.16600001
-0.018983433 0.045607261 0.16700001
-0.018548053 0.045607261 0.16700001
-0.018112672 0.045607261 0.16700001
-0.0436171 0.048248276 0.17500001
-0.043407496 0.048523981 0.17600001
-0.042948652 0.048523981 0.17600001
-0.042731225 0.048799682 0.177
-0.042044532 0.049075387 0.178
-0.040639855 0.049626797 0.18000001
-0.040170584 0.049626797 0.18000001
-0.039701313 0.049626797 0.18000001
-0.039232042 0.049626797 0.18000001
-0.038762771 0.049626797 0.18000001
-0.025794119 0.045766935 0.16600001
-0.025361348 0.045766935 0.16600001
-0.024928575 0.045766935 0.16600001
-0.024348237 0.04549123 0.16500001
-0.023918072 0.04549123 0.16500001
-0.023487907 0.04549123 0.16500001
-0.02305774 0.04549123 0.16500001
-0.022062881 0.045215525 0.164
-0.021767246 0.04549123 0.16500001
-0.021337077 0.04549123 0.16500001
-0.020906912 0.04549123 0.16500001
-0.020476747 0.04549123 0.16500001
-0.020046582 0.04549123 0.16500001
-0.019735303 0.045766935 0.16600001
-0.019302532 0.045766935 0.16600001
-0.01886976 0.045766935 0.16600001
-0.018436987 0.045766935 0.16600001
-0.018112672 0.04604264 0.16700001
-0.043160863 0.048704512 0.17500001
-0.042948652 0.048982825 0.17600001
-0.042731225 0.049261134 0.177
-0.041814074 0.04981776 0.17900001
-0.040639855 0.050096069 0.18000001
-0.039701313 0.050096069 0.18000001
-0.027092436 0.046199709 0.16600001
-0.026659664 0.046199709 0.16600001
-0.026226891 0.046199709 0.16600001
-0.025794119 0.046199709 0.16600001
-0.025361348 0.046199709 0.16600001
-0.024778401 0.045921396 0.16500001
-0.023918072 0.045921396 0.16500001
-0.023487907 0.045921396 0.16500001
-0.02305774 0.045921396 0.16500001
-0.022490438 0.045643087 0.164
-0.022062881 0.045643087 0.164
-0.021635322 0.045643087 0.164
-0.021207761 0.045643087 0.164
-0.020780204 0.045643087 0.164
-0.020476747 0.045921396 0.16500001
-0.020046582 0.045921396 0.16500001
-0.019616416 0.045921396 0.16500001
-0.019186251 0.045921396 0.16500001
-0.018756086 0.045921396 0.16500001
-0.027092436 0.04663248 0.16600001
-0.026659664 0.04663248 0.16600001
-0.026226891 0.04663248 0.16600001
-0.025794119 0.04663248 0.16600001
-0.025361348 0.04663248 0.16600001
-0.024778401 0.046351559 0.16500001
-0.024348237 0.046351559 0.16500001
-0.023918072 0.046351559 0.16500001
-0.023487907 0.046351559 0.16500001
-0.02305774 0.046351559 0.16500001
-0.022490438 0.046070643 0.164
-0.022062881 0.046070643 0.164
-0.021635322 0.046070643 0.164
-0.021207761 0.046070643 0.164
-0.020780204 0.046070643 0.164
-0.020352647 0.046070643 0.164
-0.019925088 0.046070643 0.164
-0.019616416 0.046351559 0.16500001
-0.019186251 0.046351559 0.16500001
-0.018756086 0.046351559 0.16500001
-0.027092436 0.047065254 0.16600001
-0.026659664 0.047065254 0.16600001
-0.026226891 0.047065254 0.16600001
-0.025794119 0.047065254 0.16600001
-0.025208568 0.04678173 0.16500001
-0.024778401 0.04678173 0.16500001
-0.024348237 0.04678173 0.16500001
-0.023918072 0.04678173 0.16500001
-0.022917997 0.046498202 0.164
-0.022490438 0.046498202 0.164
-0.022062881 0.046498202 0.164
-0.021635322 0.046498202 0.164
-0.021207761 0.046498202 0.164
-0.020780204 0.046498202 0.164
-0.020352647 0.046498202 0.164
-0.019925088 0.046498202 0.164
-0.019497529 0.046498202 0.164
-0.01906997 0.046498202 0.164
-0.018642412 0.046498202 0.164
-0.017787294 0.046498202 0.164
-0.027092436 0.047498025 0.16600001
-0.026659664 0.047498025 0.16600001
-0.026226891 0.047498025 0.16600001
-0.025794119 0.047498025 0.16600001
-0.025208568 0.047211893 0.16500001
-0.024778401 0.047211893 0.16500001
-0.024348237 0.047211893 0.16500001
-0.023918072 0.047211893 0.16500001
-0.023345554 0.046925757 0.164
-0.022917997 0.046925757 0.164
-0.022490438 0.046925757 0.164
-0.022062881 0.046925757 0.164
-0.021635322 0.046925757 0.164
-0.021207761 0.046925757 0.164
-0.020780204 0.046925757 0.164
-0.020352647 0.046925757 0.164
-0.019925088 0.046925757 0.164
-0.019497529 0.046925757 0.164
-0.01906997 0.046925757 0.164
-0.018528739 0.046639625 0.163
-0.018103788 0.046639625 0.163
-0.017253885 0.046639625 0.163
-0.027092436 0.047930799 0.16600001
-0.026659664 0.047930799 0.16600001
-0.026226891 0.047930799 0.16600001
-0.025638733 0.04764206 0.16500001
-0.025208568 0.04764206 0.16500001
-0.024778401 0.04764206 0.16500001
-0.024348237 0.04764206 0.16500001
-0.023918072 0.04764206 0.16500001
-0.023345554 0.04735332 0.164
-0.022917997 0.04735332 0.164
-0.022490438 0.04735332 0.164
-0.022062881 0.04735332 0.164
-0.021635322 0.04735332 0.164
-0.021078445 0.04706458 0.163
-0.020653494 0.04706458 0.163
-0.020228544 0.04706458 0.163
-0.019803593 0.04706458 0.163
-0.019378642 0.04706458 0.163
-0.01895369 0.04706458 0.163
-0.018528739 0.04706458 0.163
-0.018103788 0.04706458 0.163
-0.017678836 0.04706458 0.163
-0.017253885 0.04706458 0.163
-0.016828932 0.04706458 0.163
-0.027092436 0.04836357 0.16600001
-0.026659664 0.04836357 0.16600001
-0.026226891 0.04836357 0.16600001
-0.025794119 0.04836357 0.16600001
-0.025208568 0.048072223 0.16500001
-0.024778401 0.048072223 0.16500001
-0.024348237 0.048072223 0.16500001
-0.023773113 0.047780875 0.164
-0.023345554 0.047780875 0.164
-0.022917997 0.047780875 0.164
-0.022490438 0.047780875 0.164
-0.020228544 0.047489528 0.163
-0.019803593 0.047489528 0.163
-0.019378642 0.047489528 0.163
-0.01895369 0.047489528 0.163
-0.018528739 0.047489528 0.163
-0.018103788 0.047489528 0.163
-0.017570376 0.04719818 0.162
-0.017148033 0.04719818 0.162
-0.016725687 0.04719818 0.162
-0.016303344 0.04719818 0.162
-0.019378642 0.047914483 0.163
-0.01895369 0.047914483 0.163
-0.018415065 0.047620527 0.162
-0.01799272 0.047620527 0.162
-0.017570376 0.047620527 0.162
-0.017148033 0.047620527 0.162
-0.016725687 0.047620527 0.162
-0.019682098 0.048042867 0.162
-0.019259753 0.048042867 0.162
-0.018837409 0.048042867 0.162
-0.018415065 0.048042867 0.162
-0.01799272 0.048042867 0.162
-0.017570376 0.048042867 0.162
-0.017148033 0.048042867 0.162
-0.016725687 0.048042867 0.162
-0.016303344 0.048042867 0.162
-0.019259753 0.048465215 0.162
-0.018837409 0.048465215 0.162
-0.018415065 0.048465215 0.162
-0.01799272 0.048465215 0.162
-0.017570376 0.048465215 0.162
-0.017148033 0.048465215 0.162
-0.016725687 0.048465215 0.162
-0.016303344 0.048465215 0.162
-0.019259753 0.048887555 0.162
-0.018837409 0.048887555 0.162
-0.018415065 0.048887555 0.162
-0.01799272 0.048887555 0.162
-0.017570376 0.048887555 0.162
-0.017148033 0.048887555 0.162
-0.016725687 0.048887555 0.162
-0.016303344 0.048887555 0.162
-0.015880998 0.048887555 0.162
-0.032570861 0.04717923 0.155
-0.032166768 0.04717923 0.155
-0.031762674 0.04717923 0.155
-0.019259753 0.049309902 0.162
-0.018837409 0.049309902 0.162
-0.018415065 0.049309902 0.162
-0.01799272 0.049309902 0.162
-0.017570376 0.049309902 0.162
-0.017148033 0.049309902 0.162
-0.016725687 0.049309902 0.162
-0.016303344 0.049309902 0.162
-0.015880998 0.049309902 0.162
-0.032974958 0.047583327 0.155
-0.032570861 0.047583327 0.155
-0.032166768 0.047583327 0.155
-0.031762674 0.047583327 0.155
-0.031358577 0.047583327 0.155
-0.019259753 0.049732249 0.162
-0.018837409 0.049732249 0.162
-0.01799272 0.049732249 0.162
-0.017570376 0.049732249 0.162
-0.017148033 0.049732249 0.162
-0.016725687 0.049732249 0.162
-0.016303344 0.049732249 0.162
-0.015880998 0.049732249 0.162
-0.015458655 0.049732249 0.162
-0.033163708 0.047677826 0.15400001
-0.032762218 0.047677826 0.15400001
-0.032360729 0.047677826 0.15400001
-0.032166768 0.047987416 0.155
-0.031762674 0.047987416 0.155
-0.031358577 0.047987416 0.155
-0.030954484 0.047987416 0.155
-0.030550387 0.047987416 0.155
-0.030146291 0.047987416 0.155
-0.029742198 0.047987416 0.155
-0.018837409 0.050154593 0.162
-0.01799272 0.050154593 0.162
-0.017570376 0.050154593 0.162
-0.017148033 0.050154593 0.162
-0.016725687 0.050154593 0.162
-0.016303344 0.050154593 0.162
-0.015880998 0.050154593 0.162
-0.015458655 0.050154593 0.162
-0.033565193 0.048079316 0.15400001
-0.033163708 0.048079316 0.15400001
-0.032762218 0.048079316 0.15400001
-0.032360729 0.048079316 0.15400001
-0.032166768 0.048391514 0.155
-0.031762674 0.048391514 0.155
-0.031358577 0.048391514 0.155
-0.030954484 0.048391514 0.155
-0.030550387 0.048391514 0.155
-0.030146291 0.048391514 0.155
-0.029742198 0.048391514 0.155
-0.029338103 0.048391514 0.155
-0.018837409 0.050576936 0.162
-0.018415065 0.050576936 0.162
-0.01799272 0.050576936 0.162
-0.017570376 0.050576936 0.162
-0.017148033 0.050576936 0.162
-0.016725687 0.050576936 0.162
-0.016303344 0.050576936 0.162
-0.015880998 0.050576936 0.162
-0.033565193 0.048480801 0.15400001
-0.033163708 0.048480801 0.15400001
-0.032762218 0.048480801 0.15400001
-0.032360729 0.048480801 0.15400001
-0.031959243 0.048480801 0.15400001
-0.031762674 0.048795607 0.155
-0.031358577 0.048795607 0.155
-0.030954484 0.048795607 0.155
-0.030550387 0.048795607 0.155
-0.030146291 0.048795607 0.155
-0.029742198 0.048795607 0.155
-0.029338103 0.048795607 0.155
-0.017570376 0.05099928 0.162
-0.017148033 0.05099928 0.162
-0.016725687 0.05099928 0.162
-0.016303344 0.05099928 0.162
-0.033966683 0.048882291 0.15400001
-0.033565193 0.048882291 0.15400001
-0.033163708 0.048882291 0.15400001
-0.032762218 0.048882291 0.15400001
-0.032360729 0.048882291 0.15400001
-0.031959243 0.048882291 0.15400001
-0.031762674 0.049199704 0.155
-0.031358577 0.049199704 0.155
-0.030954484 0.049199704 0.155
-0.030550387 0.049199704 0.155
-0.030146291 0.049199704 0.155
-0.029742198 0.049199704 0.155
-0.029338103 0.049199704 0.155
-0.033565193 0.049283776 0.15400001
-0.033163708 0.049283776 0.15400001
-0.032762218 0.049283776 0.15400001
-0.032360729 0.049283776 0.15400001
-0.031959243 0.049283776 0.15400001
-0.031762674 0.049603797 0.155
-0.031358577 0.049603797 0.155
-0.030954484 0.049603797 0.155
-0.030550387 0.049603797 0.155
-0.030146291 0.049603797 0.155
-0.029742198 0.049603797 0.155
-0.029338103 0.049603797 0.155
-0.033163708 0.049685266 0.15400001
-0.032762218 0.049685266 0.15400001
-0.032360729 0.049685266 0.15400001
-0.031959243 0.049685266 0.15400001
-0.031557754 0.049685266 0.15400001
-0.031358577 0.050007895 0.155
-0.030954484 0.050007895 0.155
-0.030550387 0.050007895 0.155
-0.030146291 0.050007895 0.155
-0.029742198 0.050007895 0.155
-0.029338103 0.050007895 0.155
-0.028934008 0.050007895 0.155
-0.033565193 0.050086752 0.15400001
-0.032762218 0.050086752 0.15400001
-0.032360729 0.050086752 0.15400001
-0.031959243 0.050086752 0.15400001
-0.031557754 0.050086752 0.15400001
-0.031156268 0.050086752 0.15400001
-0.03075478 0.050086752 0.15400001
-0.030550387 0.050411984 0.155
-0.030146291 0.050411984 0.155
-0.029742198 0.050411984 0.155
-0.029338103 0.050411984 0.155
-0.028934008 0.050411984 0.155
-0.033163708 0.050488241 0.15400001
-0.032360729 0.050488241 0.15400001
-0.031959243 0.050488241 0.15400001
-0.031557754 0.050488241 0.15400001
-0.031156268 0.050488241 0.15400001
-0.03075478 0.050488241 0.15400001
-0.030353291 0.050488241 0.15400001
-0.029951803 0.050488241 0.15400001
-0.029742198 0.050816081 0.155
-0.032762218 0.050889727 0.15400001
-0.031959243 0.050889727 0.15400001
-0.031557754 0.050889727 0.15400001
-0.031156268 0.050889727 0.15400001
-0.03075478 0.050889727 0.15400001
-0.030353291 0.050889727 0.15400001
-0.029951803 0.050889727 0.15400001
-0.032150596 0.050958157 0.15300001
-0.031557754 0.051291216 0.15400001
-0.031156268 0.051291216 0.15400001
-0.03075478 0.051291216 0.15400001
-0.030353291 0.051291216 0.15400001
-0.029951803 0.051291216 0.15400001
-0.031156268 0.051692702 0.15400001
-0.017861383 0.062129568 0.17300001
-0.018312406 0.063031614 0.17300001
