# .PCD v0.7 - Point Cloud Data file format
VERSION 0.7
FIELDS x y z
SIZE 4 4 4
TYPE F F F
COUNT 1 1 1
WIDTH 397
HEIGHT 1
VIEWPOINT 0 0 0 1 0 0 0
POINTS 397
DATA ascii
0.070660144 0.039504569 0.22700001
0.071251944 0.039504569 0.22700001
0.071843743 0.039504569 0.22700001
0.069759659 0.039919738 0.22600001
0.070348859 0.039919738 0.22600001
0.070938058 0.039919738 0.22600001
0.071527258 0.039919738 0.22600001
0.066518046 0.040329691 0.22500001
0.067104638 0.040329691 0.22500001
0.067992076 0.040508933 0.22600001
0.068581268 0.040508933 0.22600001
0.069170468 0.040508933 0.22600001
0.069759659 0.040508933 0.22600001
0.070348859 0.040508933 0.22600001
0.070938058 0.040508933 0.22600001
0.071527258 0.040508933 0.22600001
0.072116449 0.040508933 0.22600001
0.072705649 0.040508933 0.22600001
0.073294841 0.040508933 0.22600001
0.07388404 0.040508933 0.22600001
0.065931454 0.040916279 0.22500001
0.066518046 0.040916279 0.22500001
0.067104638 0.040916279 0.22500001
0.067691229 0.040916279 0.22500001
0.068277813 0.040916279 0.22500001
0.069170468 0.041098129 0.22600001
0.069759659 0.041098129 0.22600001
0.070348859 0.041098129 0.22600001
0.070938058 0.041098129 0.22600001
0.071527258 0.041098129 0.22600001
0.072116449 0.041098129 0.22600001
0.07238394 0.040916279 0.22500001
0.072970524 0.040916279 0.22500001
0.073557116 0.040916279 0.22500001
0.073814183 0.040734429 0.22400001
0.06563843 0.041318409 0.22400001
0.066222414 0.041318409 0.22400001
0.066806391 0.041318409 0.22400001
0.067691229 0.041502867 0.22500001
0.068277813 0.041502867 0.22500001
0.068864405 0.041502867 0.22500001
0.069450989 0.041502867 0.22500001
0.070037581 0.041502867 0.22500001
0.070624165 0.041502867 0.22500001
0.071210764 0.041502867 0.22500001
0.071797349 0.041502867 0.22500001
0.07238394 0.041502867 0.22500001
0.072646208 0.041318409 0.22400001
0.072903275 0.041133951 0.223
0.073484652 0.041133951 0.223
0.066222414 0.041902397 0.22400001
0.066806391 0.041902397 0.22400001
0.067390375 0.041902397 0.22400001
0.067974351 0.041902397 0.22400001
0.068864405 0.042089459 0.22500001
0.069450989 0.042089459 0.22500001
0.069726303 0.041902397 0.22400001
0.07031028 0.041902397 0.22400001
0.070894271 0.041902397 0.22400001
0.072576359 0.04152827 0.22200002
0.073155127 0.04152827 0.22200002
0.073401757 0.041341204 0.22100002
0.073977925 0.041341204 0.22100002
0.064764023 0.042296708 0.223
0.065345399 0.042296708 0.223
0.065926775 0.042296708 0.223
0.066508144 0.042296708 0.223
0.067390375 0.042486377 0.22400001
0.067974351 0.042486377 0.22400001
0.068558343 0.042486377 0.22400001
0.069142319 0.042486377 0.22400001
0.069415025 0.042296708 0.223
0.069996394 0.042296708 0.223
0.070577778 0.042296708 0.223
0.071159147 0.042296708 0.223
0.071418822 0.042107038 0.22200002
0.07199759 0.042107038 0.22200002
0.072576359 0.042107038 0.22200002
0.072825603 0.041917365 0.22100002
0.073069625 0.041727692 0.22000001
0.074678712 0.041348349 0.21800001
0.075247057 0.041348349 0.21800001
0.075815395 0.041348349 0.21800001
0.064473599 0.042685807 0.22200002
0.065052375 0.042685807 0.22200002
0.065631144 0.042685807 0.22200002
0.066209905 0.042685807 0.22200002
0.066788681 0.042685807 0.22200002
0.067670897 0.04287808 0.223
0.067946218 0.042685807 0.22200002
0.068524979 0.042685807 0.22200002
0.069103755 0.042685807 0.22200002
0.069682516 0.042685807 0.22200002
0.070261285 0.042685807 0.22200002
0.070840053 0.042685807 0.22200002
0.071097113 0.042493526 0.22100002
0.071673274 0.042493526 0.22100002
0.071922518 0.042301249 0.22000001
0.072496071 0.042301249 0.22000001
0.073069625 0.042301249 0.22000001
0.073308438 0.042108968 0.21900001
0.073879384 0.042108968 0.21900001
0.074450329 0.042108968 0.21900001
0.074678712 0.041916691 0.21800001
0.075247057 0.041916691 0.21800001
0.075815395 0.041916691 0.21800001
0.076383732 0.041916691 0.21800001
0.063607022 0.043069687 0.22100002
0.064183183 0.043069687 0.22100002
0.064759344 0.043069687 0.22100002
0.065335505 0.043069687 0.22100002
0.065911666 0.043069687 0.22100002
0.066788681 0.043264572 0.22200002
0.067367442 0.043264572 0.22200002
0.067640148 0.043069687 0.22100002
0.068216309 0.043069687 0.22100002
0.06879247 0.043069687 0.22100002
0.069368631 0.043069687 0.22100002
0.069628298 0.042874802 0.22000001
0.070201851 0.042874802 0.22000001
0.070775412 0.042874802 0.22000001
0.071348958 0.042874802 0.22000001
0.071595594 0.042679917 0.21900001
0.072166547 0.042679917 0.21900001
0.072737485 0.042679917 0.21900001
0.073308438 0.042679917 0.21900001
0.073879384 0.042679917 0.21900001
0.074110374 0.042485029 0.21800001
0.074678712 0.042485029 0.21800001
0.075247057 0.042485029 0.21800001
0.076383732 0.042485029 0.21800001
0.063607022 0.043645848 0.22100002
0.064183183 0.043645848 0.22100002
0.064759344 0.043645848 0.22100002
0.065335505 0.043645848 0.22100002
0.065911666 0.043645848 0.22100002
0.066487826 0.043645848 0.22100002
0.067063987 0.043645848 0.22100002
0.067334086 0.043448355 0.22000001
0.067907639 0.043448355 0.22000001
0.068481192 0.043448355 0.22000001
0.069054745 0.043448355 0.22000001
0.069628298 0.043448355 0.22000001
0.069882751 0.043250863 0.21900001
0.070453703 0.043250863 0.21900001
0.071024649 0.043250863 0.21900001
0.071595594 0.043250863 0.21900001
0.072166547 0.043250863 0.21900001
0.072737485 0.043250863 0.21900001
0.072973698 0.04305337 0.21800001
0.073542036 0.04305337 0.21800001
0.074110374 0.04305337 0.21800001
0.077520415 0.04305337 0.21800001
0.063030861 0.044222008 0.22100002
0.063607022 0.044222008 0.22100002
0.064183183 0.044222008 0.22100002
0.064759344 0.044222008 0.22100002
0.065039873 0.044021908 0.22000001
0.065613419 0.044021908 0.22000001
0.066186979 0.044021908 0.22000001
0.066760533 0.044021908 0.22000001
0.067334086 0.044021908 0.22000001
0.067907639 0.044021908 0.22000001
0.068169914 0.043821808 0.21900001
0.06874086 0.043821808 0.21900001
0.069311805 0.043821808 0.21900001
0.069882751 0.043821808 0.21900001
0.070453703 0.043821808 0.21900001
0.071024649 0.043821808 0.21900001
0.071268678 0.043621708 0.21800001
0.071837015 0.043621708 0.21800001
0.072405353 0.043621708 0.21800001
0.072973698 0.043621708 0.21800001
0.073542036 0.043621708 0.21800001
0.074110374 0.043621708 0.21800001
0.074678712 0.043621708 0.21800001
0.075247057 0.043621708 0.21800001
0.076383732 0.043621708 0.21800001
0.07695207 0.043621708 0.21800001
0.077520415 0.043621708 0.21800001
0.078088753 0.043621708 0.21800001
0.063319206 0.044595461 0.22000001
0.063892759 0.044595461 0.22000001
0.064466313 0.044595461 0.22000001
0.065039873 0.044595461 0.22000001
0.065613419 0.044595461 0.22000001
0.066186979 0.044595461 0.22000001
0.066760533 0.044595461 0.22000001
0.067028023 0.044392757 0.21900001
0.067598969 0.044392757 0.21900001
0.068169914 0.044392757 0.21900001
0.06874086 0.044392757 0.21900001
0.069311805 0.044392757 0.21900001
0.06956365 0.044190049 0.21800001
0.070131995 0.044190049 0.21800001
0.070700333 0.044190049 0.21800001
0.071268678 0.044190049 0.21800001
0.071837015 0.044190049 0.21800001
0.072405353 0.044190049 0.21800001
0.072973698 0.044190049 0.21800001
0.073204681 0.043987341 0.21700001
0.073770419 0.043987341 0.21700001
0.074336149 0.043987341 0.21700001
0.074901886 0.043987341 0.21700001
0.075467616 0.043987341 0.21700001
0.076383732 0.044190049 0.21800001
0.07695207 0.044190049 0.21800001
0.077520415 0.044190049 0.21800001
0.078088753 0.044190049 0.21800001
0.062745653 0.045169014 0.22000001
0.063319206 0.045169014 0.22000001
0.063892759 0.045169014 0.22000001
0.064466313 0.045169014 0.22000001
0.065039873 0.045169014 0.22000001
0.065613419 0.045169014 0.22000001
0.065886125 0.044963703 0.21900001
0.06645707 0.044963703 0.21900001
0.067028023 0.044963703 0.21900001
0.067598969 0.044963703 0.21900001
0.067858636 0.044758387 0.21800001
0.068426974 0.044758387 0.21800001
0.068995319 0.044758387 0.21800001
0.06956365 0.044758387 0.21800001
0.070131995 0.044758387 0.21800001
0.070376016 0.044553075 0.21700001
0.070941754 0.044553075 0.21700001
0.071507491 0.044553075 0.21700001
0.072073221 0.044553075 0.21700001
0.072638951 0.044553075 0.21700001
0.073204681 0.044553075 0.21700001
0.073770419 0.044553075 0.21700001
0.074336149 0.044553075 0.21700001
0.074901886 0.044553075 0.21700001
0.075467616 0.044553075 0.21700001
0.076033346 0.044553075 0.21700001
0.076599076 0.044553075 0.21700001
0.077520415 0.044758387 0.21800001
0.078088753 0.044758387 0.21800001
0.078657091 0.044758387 0.21800001
0.063319206 0.045742571 0.22000001
0.063892759 0.045742571 0.22000001
0.064466313 0.045742571 0.22000001
0.065039873 0.045742571 0.22000001
0.06531518 0.045534648 0.21900001
0.065886125 0.045534648 0.21900001
0.06645707 0.045534648 0.21900001
0.067028023 0.045534648 0.21900001
0.067290291 0.045326728 0.21800001
0.067858636 0.045326728 0.21800001
0.068426974 0.045326728 0.21800001
0.068995319 0.045326728 0.21800001
0.06956365 0.045326728 0.21800001
0.069810286 0.045118805 0.21700001
0.070376016 0.045118805 0.21700001
0.070941754 0.045118805 0.21700001
0.071507491 0.045118805 0.21700001
0.072073221 0.045118805 0.21700001
0.072638951 0.045118805 0.21700001
0.073204681 0.045118805 0.21700001
0.073770419 0.045118805 0.21700001
0.074336149 0.045118805 0.21700001
0.074901886 0.045118805 0.21700001
0.075467616 0.045118805 0.21700001
0.076033346 0.045118805 0.21700001
0.076599076 0.045118805 0.21700001
0.063892759 0.046316124 0.22000001
0.064744234 0.046105597 0.21900001
0.06531518 0.046105597 0.21900001
0.065886125 0.046105597 0.21900001
0.06645707 0.046105597 0.21900001
0.066721953 0.045895066 0.21800001
0.067290291 0.045895066 0.21800001
0.067858636 0.045895066 0.21800001
0.068426974 0.045895066 0.21800001
0.068678826 0.045684539 0.21700001
0.069244549 0.045684539 0.21700001
0.069810286 0.045684539 0.21700001
0.070376016 0.045684539 0.21700001
0.070941754 0.045684539 0.21700001
0.071177959 0.045474011 0.21600001
0.072073221 0.045684539 0.21700001
0.072304212 0.045474011 0.21600001
0.072867334 0.045474011 0.21600001
0.073430464 0.045474011 0.21600001
0.073993586 0.045474011 0.21600001
0.074901886 0.045684539 0.21700001
0.075467616 0.045684539 0.21700001
0.076033346 0.045684539 0.21700001
0.076599076 0.045684539 0.21700001
0.077164814 0.045684539 0.21700001
0.063602336 0.046676543 0.21900001
0.064173281 0.046676543 0.21900001
0.064744234 0.046676543 0.21900001
0.06531518 0.046676543 0.21900001
0.065886125 0.046676543 0.21900001
0.066153616 0.046463408 0.21800001
0.066721953 0.046463408 0.21800001
0.067290291 0.046463408 0.21800001
0.067547359 0.046250273 0.21700001
0.068113089 0.046250273 0.21700001
0.068678826 0.046250273 0.21700001
0.069244549 0.046250273 0.21700001
0.069810286 0.046250273 0.21700001
0.0700517 0.046037138 0.21600001
0.071177959 0.046037138 0.21600001
0.071741082 0.046037138 0.21600001
0.072304212 0.046037138 0.21600001
0.072867334 0.046037138 0.21600001
0.073430464 0.046037138 0.21600001
0.073993586 0.046037138 0.21600001
0.074556716 0.046037138 0.21600001
0.075119838 0.046037138 0.21600001
0.076033346 0.046250273 0.21700001
0.076599076 0.046250273 0.21700001
0.077164814 0.046250273 0.21700001
0.077730544 0.046250273 0.21700001
0.068113089 0.046816003 0.21700001
0.068678826 0.046816003 0.21700001
0.069488578 0.046600264 0.21600001
0.0700517 0.046600264 0.21600001
0.07061483 0.046600264 0.21600001
0.071177959 0.046600264 0.21600001
0.071741082 0.046600264 0.21600001
0.072304212 0.046600264 0.21600001
0.072867334 0.046600264 0.21600001
0.073430464 0.046600264 0.21600001
0.073993586 0.046600264 0.21600001
0.074556716 0.046600264 0.21600001
0.075682968 0.046600264 0.21600001
0.076599076 0.046816003 0.21700001
0.067290291 0.047600087 0.21800001
0.067547359 0.047381736 0.21700001
0.068362333 0.047163386 0.21600001
0.068925455 0.047163386 0.21600001
0.069488578 0.047163386 0.21600001
0.0700517 0.047163386 0.21600001
0.07061483 0.047163386 0.21600001
0.070848435 0.046945039 0.215
0.071741082 0.047163386 0.21600001
0.072304212 0.047163386 0.21600001
0.072867334 0.047163386 0.21600001
0.073430464 0.047163386 0.21600001
0.073993586 0.047163386 0.21600001
0.074556716 0.047163386 0.21600001
0.075119838 0.047163386 0.21600001
0.075682968 0.047163386 0.21600001
0.07624609 0.047163386 0.21600001
0.077164814 0.047381736 0.21700001
0.077730544 0.047381736 0.21700001
0.066981621 0.047947474 0.21700001
0.067547359 0.047947474 0.21700001
0.068362333 0.047726516 0.21600001
0.068925455 0.047726516 0.21600001
0.069488578 0.047726516 0.21600001
0.069727391 0.047505561 0.215
0.070287913 0.047505561 0.215
0.070848435 0.047505561 0.215
0.07140895 0.047505561 0.215
0.071969472 0.047505561 0.215
0.072529987 0.047505561 0.215
0.073430464 0.047726516 0.21600001
0.073993586 0.047726516 0.21600001
0.074556716 0.047726516 0.21600001
0.075119838 0.047726516 0.21600001
0.075682968 0.047726516 0.21600001
0.07624609 0.047726516 0.21600001
0.076809213 0.047726516 0.21600001
0.066981621 0.048513204 0.21700001
0.067236081 0.048289642 0.21600001
0.067799203 0.048289642 0.21600001
0.068362333 0.048289642 0.21600001
0.068606354 0.04806608 0.215
0.069166876 0.04806608 0.215
0.069727391 0.04806608 0.215
0.070287913 0.04806608 0.215
0.070848435 0.04806608 0.215
0.07140895 0.04806608 0.215
0.071969472 0.04806608 0.215
0.072529987 0.04806608 0.215
0.073090509 0.04806608 0.215
0.073993586 0.048289642 0.21600001
0.074556716 0.048289642 0.21600001
0.075119838 0.048289642 0.21600001
0.069166876 0.048626598 0.215
0.069727391 0.048626598 0.215
0.070287913 0.048626598 0.215
0.070848435 0.048626598 0.215
0.07140895 0.048626598 0.215
0.071969472 0.048626598 0.215
0.072529987 0.048626598 0.215
0.073090509 0.048626598 0.215
0.070848435 0.049187116 0.215
0.07140895 0.049187116 0.215
0.071969472 0.049187116 0.215
0.072529987 0.049187116 0.215
0.073090509 0.049187116 0.215
0.073651023 0.049187116 0.215
