# .PCD v0.7 - Point Cloud Data file format
VERSION 0.7
FIELDS x y z
SIZE 4 4 4
TYPE F F F
COUNT 1 1 1
WIDTH 113
HEIGHT 1
VIEWPOINT 0 0 0 1 0 0 0
POINTS 113
DATA ascii
-0.11743341 0.060086496 0.55200005
-0.11455521 0.060086496 0.55200005
-0.11311611 0.060086496 0.55200005
-0.11167701 0.060086496 0.55200005
-0.11023791 0.060086496 0.55200005
-0.1087988 0.060086496 0.55200005
-0.11311611 0.061525602 0.55200005
-0.11167701 0.061525602 0.55200005
-0.11023791 0.061525602 0.55200005
-0.1087988 0.061525602 0.55200005
-0.11311611 0.0629647 0.55200005
-0.11167701 0.0629647 0.55200005
-0.11023791 0.0629647 0.55200005
-0.1087988 0.0629647 0.55200005
-0.11764614 0.065962173 0.55300003
-0.11620444 0.065962173 0.55300003
-0.11476273 0.065962173 0.55300003
-0.11332103 0.065962173 0.55300003
-0.11187932 0.065962173 0.55300003
-0.11043762 0.065962173 0.55300003
-0.1089959 0.065962173 0.55300003
-0.13230202 0.071858712 0.55400002
-0.1294134 0.071858712 0.55400002
-0.12796907 0.071858712 0.55400002
-0.12652476 0.071858712 0.55400002
-0.12508045 0.071858712 0.55400002
-0.12363613 0.071858712 0.55400002
-0.12219182 0.071858712 0.55400002
-0.13374633 0.073303021 0.55400002
-0.13230202 0.073303021 0.55400002
-0.13085771 0.073303021 0.55400002
-0.1294134 0.073303021 0.55400002
-0.12796907 0.073303021 0.55400002
-0.12652476 0.073303021 0.55400002
-0.12508045 0.073303021 0.55400002
-0.13663496 0.074747331 0.55400002
-0.13519064 0.074747331 0.55400002
-0.13374633 0.074747331 0.55400002
-0.13230202 0.074747331 0.55400002
-0.13085771 0.074747331 0.55400002
-0.1294134 0.074747331 0.55400002
-0.12796907 0.074747331 0.55400002
-0.13807927 0.076191649 0.55400002
-0.13663496 0.076191649 0.55400002
-0.13519064 0.076191649 0.55400002
-0.13350491 0.076054119 0.55300003
-0.13206321 0.076054119 0.55300003
-0.13062151 0.076054119 0.55300003
-0.1294134 0.076191649 0.55400002
-0.12796907 0.076191649 0.55400002
-0.14411618 0.077776097 0.55500001
-0.14266928 0.077776097 0.55500001
-0.14096789 0.077635959 0.55400002
-0.1395236 0.077635959 0.55400002
-0.13783003 0.077495821 0.55300003
-0.13638833 0.077495821 0.55300003
-0.13494661 0.077495821 0.55300003
-0.13350491 0.077495821 0.55300003
-0.13206321 0.077495821 0.55300003
-0.13062151 0.077495821 0.55300003
-0.1294134 0.077635959 0.55400002
-0.12796907 0.077635959 0.55400002
-0.12675314 0.077776097 0.55500001
-0.14266928 0.079223014 0.55500001
-0.14096789 0.079080269 0.55400002
-0.1395236 0.079080269 0.55400002
-0.13783003 0.078937531 0.55300003
-0.13638833 0.078937531 0.55300003
-0.13494661 0.078937531 0.55300003
-0.13350491 0.078937531 0.55300003
-0.13206321 0.078937531 0.55300003
-0.13062151 0.078937531 0.55300003
-0.1294134 0.079080269 0.55400002
-0.12820005 0.079223014 0.55500001
-0.12675314 0.079223014 0.55500001
-0.14266928 0.080669932 0.55500001
-0.14096789 0.080524586 0.55400002
-0.1395236 0.080524586 0.55400002
-0.13783003 0.080379233 0.55300003
-0.13638833 0.080379233 0.55300003
-0.13494661 0.080379233 0.55300003
-0.1332635 0.080233887 0.55200005
-0.13206321 0.080379233 0.55300003
-0.13062151 0.080379233 0.55300003
-0.1294134 0.080524586 0.55400002
-0.12820005 0.080669932 0.55500001
-0.14411618 0.082116857 0.55500001
-0.14266928 0.082116857 0.55500001
-0.14096789 0.081968896 0.55400002
-0.13927175 0.081820942 0.55300003
-0.13783003 0.081820942 0.55300003
-0.13614169 0.081672981 0.55200005
-0.13470259 0.081672981 0.55200005
-0.1332635 0.081672981 0.55200005
-0.1318244 0.081672981 0.55200005
-0.13062151 0.081820942 0.55300003
-0.14727493 0.083714344 0.55600005
-0.1458254 0.083714344 0.55600005
-0.14411618 0.083563775 0.55500001
-0.14241222 0.083413213 0.55400002
-0.14071344 0.083262645 0.55300003
-0.13927175 0.083262645 0.55300003
-0.13783003 0.083262645 0.55300003
-0.13614169 0.083112083 0.55200005
-0.13470259 0.083112083 0.55200005
-0.1458254 0.085163884 0.55600005
-0.14411618 0.0850107 0.55500001
-0.14241222 0.084857531 0.55400002
-0.14071344 0.084704362 0.55300003
-0.13927175 0.084704362 0.55300003
-0.1458254 0.086613409 0.55600005
-0.14411618 0.086457618 0.55500001
-0.14241222 0.086301841 0.55400002
