# .PCD v0.7 - Point Cloud Data file format
VERSION 0.7
FIELDS x y z
SIZE 4 4 4
TYPE F F F
COUNT 1 1 1
WIDTH 106
HEIGHT 1
VIEWPOINT 0 0 0 1 0 0 0
POINTS 106
DATA ascii
-0.14479542 -0.13752198 0.52100003
-0.14207886 -0.13752198 0.52100003
-0.14072058 -0.13752198 0.52100003
-0.13936229 -0.13752198 0.52100003
-0.138004 -0.13752198 0.52100003
-0.13664573 -0.13752198 0.52100003
-0.13528745 -0.13752198 0.52100003
-0.13392918 -0.13752198 0.52100003
-0.13257089 -0.13752198 0.52100003
-0.13121262 -0.13752198 0.52100003
-0.138004 -0.13616371 0.52100003
-0.13664573 -0.13616371 0.52100003
-0.13528745 -0.13616371 0.52100003
-0.13392918 -0.13616371 0.52100003
-0.13257089 -0.13616371 0.52100003
-0.13121262 -0.13616371 0.52100003
-0.12985434 -0.13616371 0.52100003
-0.13528745 -0.13480543 0.52100003
-0.13392918 -0.13480543 0.52100003
-0.13282534 -0.13098152 0.52200001
-0.13146447 -0.13098152 0.52200001
-0.13010357 -0.13098152 0.52200001
-0.12874268 -0.13098152 0.52200001
-0.1273818 -0.13098152 0.52200001
-0.12602091 -0.13098152 0.52200001
-0.12466002 -0.13098152 0.52200001
-0.12329914 -0.13098152 0.52200001
-0.1273818 -0.12962063 0.52200001
-0.12602091 -0.12962063 0.52200001
-0.14038795 -0.11502623 0.53000003
-0.15696889 -0.11364448 0.53000003
-0.15558714 -0.11364448 0.53000003
-0.15420541 -0.11364448 0.53000003
-0.15282366 -0.11364448 0.53000003
-0.15144192 -0.11364448 0.53000003
-0.15006016 -0.11364448 0.53000003
-0.14867842 -0.11364448 0.53000003
-0.14729668 -0.11364448 0.53000003
-0.14591493 -0.11364448 0.53000003
-0.14453319 -0.11364448 0.53000003
-0.14315145 -0.11364448 0.53000003
-0.14176971 -0.11364448 0.53000003
-0.14038795 -0.11364448 0.53000003
-0.13900623 -0.11364448 0.53000003
-0.13762447 -0.11364448 0.53000003
-0.13624273 -0.11364448 0.53000003
-0.13486098 -0.11364448 0.53000003
-0.14342153 -0.11247455 0.53100002
-0.1420372 -0.11247455 0.53100002
-0.15172765 -0.1110902 0.53100002
-0.1503433 -0.1110902 0.53100002
-0.14895894 -0.1110902 0.53100002
-0.14757459 -0.1110902 0.53100002
-0.14619024 -0.1110902 0.53100002
-0.14480589 -0.1110902 0.53100002
-0.14342153 -0.1110902 0.53100002
-0.1420372 -0.1110902 0.53100002
-0.14065284 -0.1110902 0.53100002
-0.13926849 -0.1110902 0.53100002
-0.15588069 -0.10970585 0.53100002
-0.15449636 -0.10970585 0.53100002
-0.15311199 -0.10970585 0.53100002
-0.15172765 -0.10970585 0.53100002
-0.1503433 -0.10970585 0.53100002
-0.14895894 -0.10970585 0.53100002
-0.14757459 -0.10970585 0.53100002
-0.14619024 -0.10970585 0.53100002
-0.14480589 -0.10970585 0.53100002
-0.14342153 -0.10970585 0.53100002
-0.1420372 -0.10970585 0.53100002
-0.14065284 -0.10970585 0.53100002
-0.13926849 -0.10970585 0.53100002
-0.13788414 -0.10970585 0.53100002
-0.15726505 -0.1083215 0.53100002
-0.15588069 -0.1083215 0.53100002
-0.15449636 -0.1083215 0.53100002
-0.15311199 -0.1083215 0.53100002
-0.15172765 -0.1083215 0.53100002
-0.1503433 -0.1083215 0.53100002
-0.14923947 -0.10852549 0.53200001
-0.14785251 -0.10852549 0.53200001
-0.14646554 -0.10852549 0.53200001
-0.1450786 -0.10852549 0.53200001
-0.14369163 -0.10852549 0.53200001
-0.14230467 -0.10852549 0.53200001
-0.14065284 -0.1083215 0.53100002
-0.13926849 -0.1083215 0.53100002
-0.13788414 -0.1083215 0.53100002
-0.13649979 -0.1083215 0.53100002
-0.15062642 -0.10713854 0.53200001
-0.14923947 -0.10713854 0.53200001
-0.14785251 -0.10713854 0.53200001
-0.14646554 -0.10713854 0.53200001
-0.1450786 -0.10713854 0.53200001
-0.14369163 -0.10713854 0.53200001
-0.14230467 -0.10713854 0.53200001
-0.14091772 -0.10713854 0.53200001
-0.14646554 -0.10575158 0.53200001
-0.1450786 -0.10575158 0.53200001
-0.14369163 -0.10575158 0.53200001
-0.14230467 -0.10575158 0.53200001
-0.14369163 -0.10436462 0.53200001
-0.14840835 -0.08944308 0.53400004
-0.14701618 -0.08944308 0.53400004
-0.14562401 -0.08944308 0.53400004
-0.14423184 -0.08944308 0.53400004
