# .PCD v0.7 - Point Cloud Data file format
VERSION 0.7
FIELDS x y z
SIZE 4 4 4
TYPE F F F
COUNT 1 1 1
WIDTH 1341
HEIGHT 1
VIEWPOINT 0 0 0 1 0 0 0
POINTS 1341
DATA ascii
0.014231803 -0.071511112 0.52500004
0.015600512 -0.071511112 0.52500004
0.016969219 -0.071511112 0.52500004
0.018337928 -0.071511112 0.52500004
0.019706637 -0.071511112 0.52500004
0.021075346 -0.071511112 0.52500004
0.022444053 -0.071511112 0.52500004
0.023812763 -0.071511112 0.52500004
0.02518147 -0.071511112 0.52500004
0.026550179 -0.071511112 0.52500004
0.027918888 -0.071511112 0.52500004
0.029287597 -0.071511112 0.52500004
0.030656304 -0.071511112 0.52500004
0.032025013 -0.071511112 0.52500004
0.033393722 -0.071511112 0.52500004
0.034762431 -0.071511112 0.52500004
0.03613114 -0.071511112 0.52500004
0.03742842 -0.071374901 0.52400005
0.038794521 -0.071374901 0.52400005
0.040160622 -0.071374901 0.52400005
0.041447468 -0.071238682 0.523
0.042810969 -0.071238682 0.523
0.044089999 -0.071102478 0.52200001
0.045537956 -0.071238682 0.523
0.04690145 -0.071238682 0.523
0.04835723 -0.071374901 0.52400005
0.049723331 -0.071374901 0.52400005
0.05118693 -0.071511112 0.52500004
0.052555643 -0.071511112 0.52500004
0.053924352 -0.071511112 0.52500004
0.055293057 -0.071511112 0.52500004
0.056769691 -0.071647324 0.52600002
0.058141008 -0.071647324 0.52600002
0.059625462 -0.071783535 0.52700001
0.060883641 -0.071647324 0.52600002
0.062491663 -0.071919739 0.528
0.063989162 -0.072055958 0.52900004
0.065491863 -0.07219217 0.53000003
-0.041853346 -0.067871124 0.50800002
-0.040608741 -0.068004727 0.509
-0.039281745 -0.068004727 0.509
-0.038029321 -0.068138339 0.51000005
-0.03669972 -0.068138339 0.51000005
-0.035439465 -0.068271942 0.51100004
-0.034107257 -0.068271942 0.51100004
-0.032839186 -0.068405546 0.51200002
-0.031565901 -0.06853915 0.51300001
-0.030287402 -0.068672746 0.514
-0.029003691 -0.068806358 0.51500005
-0.027714763 -0.068939961 0.51600003
-0.026471725 -0.069207169 0.51800001
-0.025169764 -0.06934078 0.51900005
-0.023862587 -0.069474384 0.52000004
-0.022550195 -0.069607988 0.52100003
-0.021273265 -0.069875188 0.523
-0.019947842 -0.070008799 0.52400005
-0.018617202 -0.070142403 0.52500004
-0.017248493 -0.070142403 0.52500004
-0.015910029 -0.070276007 0.52600002
-0.014566354 -0.070409611 0.52700001
-0.013192432 -0.070409611 0.52700001
-0.01181851 -0.070409611 0.52700001
-0.010464406 -0.070543215 0.528
-0.0090878755 -0.070543215 0.528
-0.0077113463 -0.070543215 0.528
-0.006334817 -0.070543215 0.528
-0.0049582873 -0.070543215 0.528
-0.0035749744 -0.070409611 0.52700001
-0.0022052282 -0.070543215 0.528
-0.00082869868 -0.070543215 0.528
0.00054679334 -0.070409611 0.52700001
0.0019207159 -0.070409611 0.52700001
0.0032946384 -0.070409611 0.52700001
0.0046685613 -0.070409611 0.52700001
0.0060424837 -0.070409611 0.52700001
0.0074023334 -0.070276007 0.52600002
0.0087736491 -0.070276007 0.52600002
0.010144964 -0.070276007 0.52600002
0.01151628 -0.070276007 0.52600002
0.012887596 -0.070276007 0.52600002
0.014258911 -0.070276007 0.52600002
0.015630227 -0.070276007 0.52600002
0.016969219 -0.070142403 0.52500004
0.018337928 -0.070142403 0.52500004
0.019706637 -0.070142403 0.52500004
0.021115487 -0.070276007 0.52600002
0.022486804 -0.070276007 0.52600002
0.023858121 -0.070276007 0.52600002
0.025229435 -0.070276007 0.52600002
0.026550179 -0.070142403 0.52500004
0.027918888 -0.070142403 0.52500004
0.029287597 -0.070142403 0.52500004
0.030656304 -0.070142403 0.52500004
0.032025013 -0.070142403 0.52500004
0.033393722 -0.070142403 0.52500004
0.034762431 -0.070142403 0.52500004
0.03613114 -0.070142403 0.52500004
0.037499849 -0.070142403 0.52500004
0.038794521 -0.070008799 0.52400005
0.040160622 -0.070008799 0.52400005
0.041447468 -0.069875188 0.523
0.042810969 -0.069875188 0.523
0.044089999 -0.069741592 0.52200001
0.045537956 -0.069875188 0.523
0.04690145 -0.069875188 0.523
0.04835723 -0.070008799 0.52400005
0.049818221 -0.070142403 0.52500004
0.05118693 -0.070142403 0.52500004
0.052555643 -0.070142403 0.52500004
0.054027062 -0.070276007 0.52600002
0.055398379 -0.070276007 0.52600002
0.056877617 -0.070409611 0.52700001
0.058251541 -0.070409611 0.52700001
0.059738602 -0.070543215 0.528
0.064110123 -0.07081043 0.53000003
0.065491863 -0.07081043 0.53000003
-0.045646098 -0.066284746 0.50600004
-0.044414524 -0.066415742 0.50700003
-0.043092739 -0.066415742 0.50700003
-0.041770961 -0.066415742 0.50700003
-0.040528961 -0.066546738 0.50800002
-0.039281745 -0.066677734 0.509
-0.037954751 -0.066677734 0.509
-0.03669972 -0.066808738 0.51000005
-0.035370111 -0.066808738 0.51000005
-0.034107257 -0.066939734 0.51100004
-0.032839186 -0.06707073 0.51200002
-0.031565901 -0.067201726 0.51300001
-0.030287402 -0.067332722 0.514
-0.02894737 -0.067332722 0.514
-0.027714763 -0.067594722 0.51600003
-0.026420621 -0.067725718 0.51700002
-0.025169764 -0.067987718 0.51900005
-0.023862587 -0.068118706 0.52000004
-0.022550195 -0.068249702 0.52100003
-0.02123259 -0.068380699 0.52200001
-0.019909771 -0.068511695 0.523
-0.018617202 -0.068773694 0.52500004
-0.017248493 -0.068773694 0.52500004
-0.015910029 -0.06890469 0.52600002
-0.014566354 -0.069035687 0.52700001
-0.013192432 -0.069035687 0.52700001
-0.01181851 -0.069035687 0.52700001
-0.010464406 -0.069166683 0.528
-0.0090878755 -0.069166683 0.528
-0.0077113463 -0.069166683 0.528
-0.006334817 -0.069166683 0.528
-0.0049582873 -0.069166683 0.528
-0.0035817579 -0.069166683 0.528
-0.0022052282 -0.069166683 0.528
-0.00082869868 -0.069166683 0.528
0.00054679334 -0.069035687 0.52700001
0.0019207159 -0.069035687 0.52700001
0.0032946384 -0.069035687 0.52700001
0.0046685613 -0.069035687 0.52700001
0.0060424837 -0.069035687 0.52700001
0.0074164062 -0.069035687 0.52700001
0.0087903291 -0.069035687 0.52700001
0.010164251 -0.069035687 0.52700001
0.011538174 -0.069035687 0.52700001
0.012912096 -0.069035687 0.52700001
0.014286019 -0.069035687 0.52700001
0.015659941 -0.069035687 0.52700001
0.017033864 -0.069035687 0.52700001
0.018372856 -0.06890469 0.52600002
0.019744173 -0.06890469 0.52600002
0.021115487 -0.06890469 0.52600002
0.022486804 -0.06890469 0.52600002
0.023858121 -0.06890469 0.52600002
0.025229435 -0.06890469 0.52600002
0.026550179 -0.068773694 0.52500004
0.027918888 -0.068773694 0.52500004
0.029287597 -0.068773694 0.52500004
0.030656304 -0.068773694 0.52500004
0.032025013 -0.068773694 0.52500004
0.033393722 -0.068773694 0.52500004
0.034762431 -0.068773694 0.52500004
0.03613114 -0.068773694 0.52500004
0.03742842 -0.068642698 0.52400005
0.038794521 -0.068642698 0.52400005
0.040160622 -0.068642698 0.52400005
0.041447468 -0.068511695 0.523
0.042729113 -0.068380699 0.52200001
0.044089999 -0.068380699 0.52200001
0.045450885 -0.068380699 0.52200001
0.04690145 -0.068511695 0.523
0.04835723 -0.068642698 0.52400005
0.049723331 -0.068642698 0.52400005
0.05118693 -0.068773694 0.52500004
0.052655745 -0.06890469 0.52600002
0.054027062 -0.06890469 0.52600002
0.058472611 -0.069297686 0.52900004
0.059851747 -0.069297686 0.52900004
0.061346635 -0.069428682 0.53000003
0.062728375 -0.069428682 0.53000003
0.064110123 -0.069428682 0.53000003
-0.048761562 -0.065607525 0.51100004
-0.047243718 -0.065350741 0.509
-0.045826513 -0.065222345 0.50800002
-0.044502128 -0.065222345 0.50800002
-0.043177735 -0.065222345 0.50800002
-0.041853346 -0.065222345 0.50800002
-0.040528961 -0.065222345 0.50800002
-0.039281745 -0.065350741 0.509
-0.037954751 -0.065350741 0.509
-0.03669972 -0.065479137 0.51000005
-0.035370111 -0.065479137 0.51000005
-0.034107257 -0.065607525 0.51100004
-0.032839186 -0.065735914 0.51200002
-0.031565901 -0.065864302 0.51300001
-0.030228477 -0.065864302 0.51300001
-0.02894737 -0.065992691 0.514
-0.027661053 -0.066121086 0.51500005
-0.026420621 -0.066377863 0.51700002
-0.025121264 -0.066506252 0.51800001
-0.023816697 -0.066634648 0.51900005
-0.022550195 -0.066891424 0.52100003
-0.02123259 -0.067019813 0.52200001
-0.019909771 -0.067148201 0.523
-0.018581741 -0.067276597 0.52400005
-0.017248493 -0.067404985 0.52500004
-0.015910029 -0.067533381 0.52600002
-0.014538715 -0.067533381 0.52600002
-0.013192432 -0.06766177 0.52700001
-0.01181851 -0.06766177 0.52700001
-0.010444587 -0.06766177 0.52700001
-0.0090706637 -0.06766177 0.52700001
-0.0077113463 -0.067790158 0.528
-0.006334817 -0.067790158 0.528
-0.0049582873 -0.067790158 0.528
-0.0035817579 -0.067790158 0.528
-0.0022052282 -0.067790158 0.528
-0.00082869868 -0.067790158 0.528
0.00054783089 -0.067790158 0.528
0.0019243605 -0.067790158 0.528
0.0033008901 -0.067790158 0.528
0.00467742 -0.067790158 0.528
0.0060539492 -0.067790158 0.528
0.0074304789 -0.067790158 0.528
0.0088070091 -0.067790158 0.528
0.010183537 -0.067790158 0.528
0.011560068 -0.067790158 0.528
0.012936598 -0.067790158 0.528
0.014313127 -0.067790158 0.528
0.015689656 -0.067790158 0.528
0.017066186 -0.067790158 0.528
0.018442715 -0.067790158 0.528
0.019781709 -0.06766177 0.52700001
0.021155631 -0.06766177 0.52700001
0.022529554 -0.06766177 0.52700001
0.023858121 -0.067533381 0.52600002
0.025229435 -0.067533381 0.52600002
0.02660075 -0.067533381 0.52600002
0.027918888 -0.067404985 0.52500004
0.029287597 -0.067404985 0.52500004
0.030656304 -0.067404985 0.52500004
0.032025013 -0.067404985 0.52500004
0.033393722 -0.067404985 0.52500004
0.034762431 -0.067404985 0.52500004
0.03613114 -0.067404985 0.52500004
0.037499849 -0.067404985 0.52500004
0.038868554 -0.067404985 0.52500004
0.040160622 -0.067276597 0.52400005
0.041526724 -0.067276597 0.52400005
0.042729113 -0.067019813 0.52200001
0.044089999 -0.067019813 0.52200001
0.045450885 -0.067019813 0.52200001
0.04690145 -0.067148201 0.523
0.04835723 -0.067276597 0.52400005
0.049723331 -0.067276597 0.52400005
0.05118693 -0.067404985 0.52500004
0.052655745 -0.067533381 0.52600002
0.054129772 -0.06766177 0.52700001
0.055609014 -0.067790158 0.528
0.057093475 -0.067918554 0.52900004
0.058583144 -0.068046942 0.53000003
0.059964888 -0.068046942 0.53000003
0.061346635 -0.068046942 0.53000003
0.062846735 -0.068175331 0.53100002
-0.053893883 -0.065658927 0.52200001
-0.052231085 -0.065281585 0.51900005
-0.050583925 -0.064904228 0.51600003
-0.049047831 -0.064652659 0.514
-0.047522169 -0.064401098 0.51200002
-0.046006937 -0.064149529 0.51000005
-0.044589728 -0.064023741 0.509
-0.043262728 -0.064023741 0.509
-0.041853346 -0.06389796 0.50800002
-0.040608741 -0.064023741 0.509
-0.039281745 -0.064023741 0.509
-0.037954751 -0.064023741 0.509
-0.036627755 -0.064023741 0.509
-0.035300758 -0.064023741 0.509
-0.034040511 -0.064149529 0.51000005
-0.032775048 -0.064275317 0.51100004
-0.03150437 -0.064401098 0.51200002
-0.030228477 -0.064526878 0.51300001
-0.02894737 -0.064652659 0.514
-0.027661053 -0.064778447 0.51500005
-0.026369518 -0.064904228 0.51600003
-0.025121264 -0.065155797 0.51800001
-0.023816697 -0.065281585 0.51900005
-0.022506915 -0.065407366 0.52000004
-0.021191914 -0.065533146 0.52100003
-0.019871702 -0.065658927 0.52200001
-0.018546278 -0.065784708 0.523
-0.017248493 -0.066036284 0.52500004
-0.015879784 -0.066036284 0.52500004
-0.014538715 -0.066162065 0.52600002
-0.013167399 -0.066162065 0.52600002
-0.01181851 -0.066287845 0.52700001
-0.010444587 -0.066287845 0.52700001
-0.0090706637 -0.066287845 0.52700001
-0.0077113463 -0.066413626 0.528
-0.006334817 -0.066413626 0.528
-0.0049582873 -0.066413626 0.528
-0.0035817579 -0.066413626 0.528
-0.0022052282 -0.066413626 0.528
-0.00082869868 -0.066413626 0.528
0.00054783089 -0.066413626 0.528
0.0019243605 -0.066413626 0.528
0.0033008901 -0.066413626 0.528
0.00467742 -0.066413626 0.528
0.0060539492 -0.066413626 0.528
0.0074304789 -0.066413626 0.528
0.0088236891 -0.066539414 0.52900004
0.010202826 -0.066539414 0.52900004
0.011560068 -0.066413626 0.528
0.012936598 -0.066413626 0.528
0.014313127 -0.066413626 0.528
0.015689656 -0.066413626 0.528
0.017066186 -0.066413626 0.528
0.018442715 -0.066413626 0.528
0.019819245 -0.066413626 0.528
0.021195775 -0.066413626 0.528
0.022529554 -0.066287845 0.52700001
0.023858121 -0.066162065 0.52600002
0.025229435 -0.066162065 0.52600002
0.026550179 -0.066036284 0.52500004
0.027918888 -0.066036284 0.52500004
0.029287597 -0.066036284 0.52500004
0.030656304 -0.066036284 0.52500004
0.032025013 -0.066036284 0.52500004
0.033393722 -0.066036284 0.52500004
0.034762431 -0.066036284 0.52500004
0.03613114 -0.066036284 0.52500004
0.037499849 -0.066036284 0.52500004
0.038868554 -0.066036284 0.52500004
0.040160622 -0.065910496 0.52400005
0.041526724 -0.065910496 0.52400005
0.042729113 -0.065658927 0.52200001
0.044089999 -0.065658927 0.52200001
0.045450885 -0.065658927 0.52200001
0.04690145 -0.065784708 0.523
0.04835723 -0.065910496 0.52400005
0.049818221 -0.066036284 0.52500004
0.051284429 -0.066162065 0.52600002
0.052755851 -0.066287845 0.52700001
0.054232486 -0.066413626 0.528
0.055819657 -0.066665195 0.53000003
0.0572014 -0.066665195 0.53000003
0.058693677 -0.066790976 0.53100002
0.060078029 -0.066790976 0.53100002
-0.057591792 -0.065406628 0.53100002
-0.05599574 -0.065160275 0.52900004
-0.054203618 -0.064667568 0.52500004
-0.052633632 -0.064421214 0.523
-0.050976049 -0.064051688 0.52000004
-0.049429528 -0.063805334 0.51800001
-0.047800623 -0.063435808 0.51500005
-0.046187352 -0.063066274 0.51200002
-0.044764936 -0.062943101 0.51100004
-0.043347728 -0.062819928 0.51000005
-0.041935734 -0.062696747 0.509
-0.040608741 -0.062696747 0.509
-0.039281745 -0.062696747 0.509
-0.037954751 -0.062696747 0.509
-0.036627755 -0.062696747 0.509
-0.035300758 -0.062696747 0.509
-0.034040511 -0.062819928 0.51000005
-0.032775048 -0.062943101 0.51100004
-0.03150437 -0.063066274 0.51200002
-0.030228477 -0.063189447 0.51300001
-0.02894737 -0.063312627 0.514
-0.02760734 -0.063312627 0.514
-0.026369518 -0.063558981 0.51600003
-0.025072768 -0.063682154 0.51700002
-0.023770805 -0.063805334 0.51800001
-0.022463633 -0.063928515 0.51900005
-0.021191914 -0.064174861 0.52100003
-0.019871702 -0.064298041 0.52200001
-0.018546278 -0.064421214 0.523
-0.017215639 -0.064544395 0.52400005
-0.015879784 -0.064667568 0.52500004
-0.014511075 -0.064667568 0.52500004
-0.013167399 -0.064790741 0.52600002
-0.011796084 -0.064790741 0.52600002
-0.010444587 -0.064913921 0.52700001
-0.0090706637 -0.064913921 0.52700001
-0.0076967417 -0.064913921 0.52700001
-0.0063228193 -0.064913921 0.52700001
-0.0049582873 -0.065037094 0.528
-0.0035817579 -0.065037094 0.528
-0.0022052282 -0.065037094 0.528
-0.00082869868 -0.065037094 0.528
0.00054783089 -0.065037094 0.528
0.0019243605 -0.065037094 0.528
0.0033008901 -0.065037094 0.528
0.00467742 -0.065037094 0.528
0.0060654157 -0.065160275 0.52900004
0.0074445521 -0.065160275 0.52900004
0.0088236891 -0.065160275 0.52900004
0.010202826 -0.065160275 0.52900004
0.011581963 -0.065160275 0.52900004
0.0129611 -0.065160275 0.52900004
0.014340236 -0.065160275 0.52900004
0.015719373 -0.065160275 0.52900004
0.017098509 -0.065160275 0.52900004
0.018477645 -0.065160275 0.52900004
0.019856783 -0.065160275 0.52900004
0.021195775 -0.065037094 0.528
0.022529554 -0.064913921 0.52700001
0.023858121 -0.064790741 0.52600002
0.025229435 -0.064790741 0.52600002
0.026550179 -0.064667568 0.52500004
0.027918888 -0.064667568 0.52500004
0.029287597 -0.064667568 0.52500004
0.030656304 -0.064667568 0.52500004
0.032025013 -0.064667568 0.52500004
0.033393722 -0.064667568 0.52500004
0.034762431 -0.064667568 0.52500004
0.03613114 -0.064667568 0.52500004
0.037499849 -0.064667568 0.52500004
0.038868554 -0.064667568 0.52500004
0.040160622 -0.064544395 0.52400005
0.041447468 -0.064421214 0.523
0.042647257 -0.064174861 0.52100003
0.044089999 -0.064298041 0.52200001
0.045450885 -0.064298041 0.52200001
0.04690145 -0.064421214 0.523
0.04835723 -0.064544395 0.52400005
0.049818221 -0.064667568 0.52500004
0.051381927 -0.064913921 0.52700001
0.052855957 -0.065037094 0.528
0.054437917 -0.065283448 0.53000003
0.055924978 -0.065406628 0.53100002
-0.056207441 -0.064022273 0.53100002
-0.0546166 -0.063781142 0.52900004
-0.052935548 -0.063419431 0.52600002
-0.051270138 -0.063057721 0.523
-0.049715798 -0.062816583 0.52100003
-0.04807907 -0.062454872 0.51800001
-0.046548191 -0.062213738 0.51600003
-0.04502774 -0.061972596 0.514
-0.043517716 -0.061731461 0.51200002
-0.042100515 -0.061610892 0.51100004
-0.040688526 -0.061490323 0.51000005
-0.039281745 -0.061369751 0.509
-0.037954751 -0.061369751 0.509
-0.036627755 -0.061369751 0.509
-0.035300758 -0.061369751 0.509
-0.034040511 -0.061490323 0.51000005
-0.032775048 -0.061610892 0.51100004
-0.03144284 -0.061610892 0.51100004
-0.030169554 -0.061731461 0.51200002
-0.028891053 -0.061852027 0.51300001
-0.02760734 -0.061972596 0.514
-0.026318416 -0.062093168 0.51500005
-0.025072768 -0.062334307 0.51700002
-0.023770805 -0.062454872 0.51800001
-0.022463633 -0.062575445 0.51900005
-0.021151239 -0.062696017 0.52000004
-0.019833636 -0.062816583 0.52100003
-0.018510817 -0.062937148 0.52200001
-0.017215639 -0.063178293 0.52400005
-0.015879784 -0.063298859 0.52500004
-0.014511075 -0.063298859 0.52500004
-0.013142367 -0.063298859 0.52500004
-0.011796084 -0.063419431 0.52600002
-0.010424769 -0.063419431 0.52600002
-0.0090706637 -0.063539997 0.52700001
-0.0076967417 -0.063539997 0.52700001
-0.0063228193 -0.063539997 0.52700001
-0.0049488968 -0.063539997 0.52700001
-0.0035749744 -0.063539997 0.52700001
-0.0022010517 -0.063539997 0.52700001
-0.00082869868 -0.063660562 0.528
0.00054783089 -0.063660562 0.528
0.0019243605 -0.063660562 0.528
0.0033008901 -0.063660562 0.528
0.0046862788 -0.063781142 0.52900004
0.0060654157 -0.063781142 0.52900004
0.0074445521 -0.063781142 0.52900004
0.0088236891 -0.063781142 0.52900004
0.010222113 -0.063901708 0.53000003
0.011581963 -0.063781142 0.52900004
0.012985601 -0.063901708 0.53000003
0.014367344 -0.063901708 0.53000003
0.015749088 -0.063901708 0.53000003
0.017130831 -0.063901708 0.53000003
0.018512575 -0.063901708 0.53000003
0.019856783 -0.063781142 0.52900004
0.021195775 -0.063660562 0.528
0.022529554 -0.063539997 0.52700001
0.023858121 -0.063419431 0.52600002
0.025229435 -0.063419431 0.52600002
0.026550179 -0.063298859 0.52500004
0.027918888 -0.063298859 0.52500004
0.029231811 -0.063178293 0.52400005
0.030597912 -0.063178293 0.52400005
0.032025013 -0.063298859 0.52500004
0.033393722 -0.063298859 0.52500004
0.034762431 -0.063298859 0.52500004
0.03613114 -0.063298859 0.52500004
0.037499849 -0.063298859 0.52500004
0.041209724 -0.062696017 0.52000004
0.042319831 -0.062334307 0.51700002
0.043667682 -0.062334307 0.51700002
0.045363817 -0.062816583 0.52100003
0.04690145 -0.063057721 0.523
0.04835723 -0.063178293 0.52400005
0.049818221 -0.063298859 0.52500004
0.053056173 -0.063901708 0.53000003
0.054540627 -0.064022273 0.53100002
-0.054823089 -0.062637925 0.53100002
-0.053136822 -0.062284034 0.528
-0.051564235 -0.062048115 0.52600002
-0.050002072 -0.061812192 0.52400005
-0.048450336 -0.061576266 0.52200001
-0.046818823 -0.061222382 0.51900005
-0.045290548 -0.060986456 0.51700002
-0.043687705 -0.060632564 0.514
-0.042265289 -0.060514603 0.51300001
-0.040768307 -0.060278684 0.51100004
-0.039436094 -0.060278684 0.51100004
-0.038029321 -0.060160723 0.51000005
-0.036627755 -0.060042754 0.509
-0.035300758 -0.060042754 0.509
-0.034040511 -0.060160723 0.51000005
-0.03271091 -0.060160723 0.51000005
-0.03144284 -0.060278684 0.51100004
-0.030169554 -0.060396645 0.51200002
-0.028891053 -0.060514603 0.51300001
-0.02760734 -0.060632564 0.514
-0.026318416 -0.060750533 0.51500005
-0.025024273 -0.060868494 0.51600003
-0.023724917 -0.060986456 0.51700002
-0.022420347 -0.061104413 0.51800001
-0.021110564 -0.061222382 0.51900005
-0.019833636 -0.061458305 0.52100003
-0.018475356 -0.061458305 0.52100003
-0.017182784 -0.061694223 0.523
-0.015849536 -0.061812192 0.52400005
-0.014511075 -0.061930154 0.52500004
-0.013142367 -0.061930154 0.52500004
-0.011796084 -0.062048115 0.52600002
-0.010424769 -0.062048115 0.52600002
-0.0090534529 -0.062048115 0.52600002
-0.0076967417 -0.062166076 0.52700001
-0.0063228193 -0.062166076 0.52700001
-0.0049488968 -0.062166076 0.52700001
-0.0035749744 -0.062166076 0.52700001
-0.0022010517 -0.062166076 0.52700001
-0.00082712917 -0.062166076 0.52700001
0.00054679334 -0.062166076 0.52700001
0.0019243605 -0.062284034 0.528
0.0033008901 -0.062284034 0.528
0.00467742 -0.062284034 0.528
0.0060654157 -0.062402003 0.52900004
0.0074445521 -0.062402003 0.52900004
0.0088236891 -0.062402003 0.52900004
0.010222113 -0.062519968 0.53000003
0.011603856 -0.062519968 0.53000003
0.012985601 -0.062519968 0.53000003
0.014367344 -0.062519968 0.53000003
0.015749088 -0.062519968 0.53000003
0.017130831 -0.062519968 0.53000003
0.018512575 -0.062519968 0.53000003
0.019856783 -0.062402003 0.52900004
0.021195775 -0.062284034 0.528
0.022529554 -0.062166076 0.52700001
0.023858121 -0.062048115 0.52600002
0.02518147 -0.061930154 0.52500004
0.026550179 -0.061930154 0.52500004
0.02786571 -0.061812192 0.52400005
0.029231811 -0.061812192 0.52400005
0.030597912 -0.061812192 0.52400005
0.031964015 -0.061812192 0.52400005
0.033393722 -0.061930154 0.52500004
0.034762431 -0.061930154 0.52500004
0.036199961 -0.062048115 0.52600002
0.037571274 -0.062048115 0.52600002
0.038868554 -0.061930154 0.52500004
0.043245364 -0.060396645 0.51200002
0.044841394 -0.060750533 0.51500005
0.04663242 -0.061340343 0.52000004
0.048449516 -0.061930154 0.52500004
-0.054926332 -0.061368927 0.53200001
-0.053338099 -0.06113822 0.53000003
-0.051760294 -0.060907505 0.528
-0.050288342 -0.060792152 0.52700001
-0.048728786 -0.060561445 0.52500004
-0.04708945 -0.060215376 0.52200001
-0.04555336 -0.059984669 0.52000004
-0.04402769 -0.059753958 0.51800001
-0.042430069 -0.059407894 0.51500005
-0.041007645 -0.059292536 0.514
-0.039513268 -0.059061829 0.51200002
-0.038103886 -0.058946475 0.51100004
-0.03669972 -0.058831122 0.51000005
-0.035370111 -0.058831122 0.51000005
-0.034040511 -0.058831122 0.51000005
-0.03271091 -0.058831122 0.51000005
-0.03144284 -0.058946475 0.51100004
-0.030110629 -0.058946475 0.51100004
-0.028834736 -0.059061829 0.51200002
-0.027553629 -0.059177183 0.51300001
-0.026267309 -0.059292536 0.514
-0.024975777 -0.059407894 0.51500005
-0.023724917 -0.059638605 0.51700002
-0.022420347 -0.059753958 0.51800001
-0.021069888 -0.059753958 0.51800001
-0.019795567 -0.059984669 0.52000004
-0.018475356 -0.060100023 0.52100003
-0.017149929 -0.060215376 0.52200001
-0.015819287 -0.06033073 0.523
-0.014483435 -0.060446091 0.52400005
-0.013142367 -0.060561445 0.52500004
-0.011773659 -0.060561445 0.52500004
-0.010424769 -0.060676798 0.52600002
-0.0090534529 -0.060676798 0.52600002
-0.0076821372 -0.060676798 0.52600002
-0.0063108215 -0.060676798 0.52600002
-0.0049488968 -0.060792152 0.52700001
-0.0035749744 -0.060792152 0.52700001
-0.0022010517 -0.060792152 0.52700001
-0.00082712917 -0.060792152 0.52700001
0.00054679334 -0.060792152 0.52700001
0.0019243605 -0.060907505 0.528
0.0033008901 -0.060907505 0.528
0.00467742 -0.060907505 0.528
0.0060654157 -0.061022867 0.52900004
0.0074445521 -0.061022867 0.52900004
0.0088403691 -0.06113822 0.53000003
0.010222113 -0.06113822 0.53000003
0.011603856 -0.06113822 0.53000003
0.012985601 -0.06113822 0.53000003
0.014367344 -0.06113822 0.53000003
0.015749088 -0.06113822 0.53000003
0.017130831 -0.06113822 0.53000003
0.018477645 -0.061022867 0.52900004
0.019856783 -0.061022867 0.52900004
0.021155631 -0.060792152 0.52700001
0.022486804 -0.060676798 0.52600002
0.023812763 -0.060561445 0.52500004
0.02518147 -0.060561445 0.52500004
0.026499609 -0.060446091 0.52400005
0.027812529 -0.06033073 0.523
0.029120238 -0.060215376 0.52200001
0.030422732 -0.060100023 0.52100003
0.031720016 -0.059984669 0.52000004
0.032884862 -0.059638605 0.51700002
0.034563787 -0.060215376 0.52200001
0.036199961 -0.060676798 0.52600002
0.046453059 -0.059753958 0.51800001
0.050292682 -0.06113822 0.53000003
-0.053539373 -0.059981972 0.53200001
-0.051956359 -0.059756476 0.53000003
-0.050479192 -0.059643731 0.52900004
-0.048914418 -0.059418231 0.52700001
-0.047360081 -0.059192739 0.52500004
-0.045816164 -0.058967236 0.523
-0.044197682 -0.058628999 0.52000004
-0.042677231 -0.058403499 0.51800001
-0.04108743 -0.058065258 0.51500005
-0.039590444 -0.057839759 0.51300001
-0.038178455 -0.057727013 0.51200002
-0.036771677 -0.057614263 0.51100004
-0.035370111 -0.057501517 0.51000005
-0.034040511 -0.057501517 0.51000005
-0.03271091 -0.057501517 0.51000005
-0.03144284 -0.057614263 0.51100004
-0.030110629 -0.057614263 0.51100004
-0.028834736 -0.057727013 0.51200002
-0.027553629 -0.057839759 0.51300001
-0.026267309 -0.057952505 0.514
-0.024975777 -0.058065258 0.51500005
-0.023679027 -0.058178004 0.51600003
-0.022377066 -0.05829075 0.51700002
-0.021069888 -0.058403499 0.51800001
-0.0197575 -0.058516253 0.51900005
-0.018439895 -0.058628999 0.52000004
-0.017117076 -0.058741745 0.52100003
-0.015789041 -0.058854491 0.52200001
-0.014455794 -0.058967236 0.523
-0.013117334 -0.05907999 0.52400005
-0.011773659 -0.059192739 0.52500004
-0.01040495 -0.059192739 0.52500004
-0.0090534529 -0.059305485 0.52600002
-0.0076821372 -0.059305485 0.52600002
-0.0063108215 -0.059305485 0.52600002
-0.0049395063 -0.059305485 0.52600002
-0.0035681908 -0.059305485 0.52600002
-0.0021968752 -0.059305485 0.52600002
-0.00082712917 -0.059418231 0.52700001
0.00054679334 -0.059418231 0.52700001
0.0019207159 -0.059418231 0.52700001
0.0033008901 -0.059530977 0.528
0.00467742 -0.059530977 0.528
0.0060654157 -0.059643731 0.52900004
0.0074445521 -0.059643731 0.52900004
0.0088403691 -0.059756476 0.53000003
0.010222113 -0.059756476 0.53000003
0.011603856 -0.059756476 0.53000003
0.012985601 -0.059756476 0.53000003
0.014367344 -0.059756476 0.53000003
0.015749088 -0.059756476 0.53000003
0.017098509 -0.059643731 0.52900004
0.018477645 -0.059643731 0.52900004
0.019819245 -0.059530977 0.528
0.021115487 -0.059305485 0.52600002
0.022444053 -0.059192739 0.52500004
0.023812763 -0.059192739 0.52500004
0.025133507 -0.05907999 0.52400005
0.026449034 -0.058967236 0.523
0.027759351 -0.058854491 0.52200001
0.029008668 -0.058628999 0.52000004
0.030247552 -0.058403499 0.51800001
0.031476013 -0.058178004 0.51600003
0.032503221 -0.057614263 0.51100004
0.041978408 -0.056035791 0.49700001
0.050387572 -0.059869222 0.53100002
0.051869418 -0.059981972 0.53200001
-0.055029582 -0.058705159 0.53300005
-0.053640015 -0.058705159 0.53300005
-0.052152418 -0.058595013 0.53200001
-0.050670035 -0.058484875 0.53100002
-0.049192872 -0.058374733 0.53000003
-0.047630705 -0.058154449 0.528
-0.045991372 -0.057824031 0.52500004
-0.044452667 -0.057603743 0.523
-0.042842012 -0.057273325 0.52000004
-0.041326772 -0.057053041 0.51800001
-0.039744794 -0.056722622 0.51500005
-0.03825302 -0.056502335 0.51300001
-0.036771677 -0.056282055 0.51100004
-0.035439465 -0.056282055 0.51100004
-0.034040511 -0.056171916 0.51000005
-0.03271091 -0.056171916 0.51000005
-0.031381305 -0.056171916 0.51000005
-0.030110629 -0.056282055 0.51100004
-0.028778419 -0.056282055 0.51100004
-0.02749992 -0.056392197 0.51200002
-0.026267309 -0.056612473 0.514
-0.024927277 -0.056612473 0.514
-0.023633139 -0.056722622 0.51500005
-0.022333784 -0.056832761 0.51600003
-0.021069888 -0.057053041 0.51800001
-0.019719429 -0.057053041 0.51800001
-0.018439895 -0.057273325 0.52000004
-0.017117076 -0.057383467 0.52100003
-0.015789041 -0.057493605 0.52200001
-0.014455794 -0.057603743 0.523
-0.013117334 -0.057713889 0.52400005
-0.011751233 -0.057713889 0.52400005
-0.01040495 -0.057824031 0.52500004
-0.0090362411 -0.057824031 0.52500004
-0.0076821372 -0.057934169 0.52600002
-0.0063108215 -0.057934169 0.52600002
-0.0049395063 -0.057934169 0.52600002
-0.0035681908 -0.057934169 0.52600002
-0.0021968752 -0.057934169 0.52600002
-0.00082712917 -0.058044311 0.52700001
0.00054679334 -0.058044311 0.52700001
0.0019207159 -0.058044311 0.52700001
0.0033008901 -0.058154449 0.528
0.0046862788 -0.058264595 0.52900004
0.0060654157 -0.058264595 0.52900004
0.0074445521 -0.058264595 0.52900004
0.0088403691 -0.058374733 0.53000003
0.010222113 -0.058374733 0.53000003
0.011603856 -0.058374733 0.53000003
0.012985601 -0.058374733 0.53000003
0.014367344 -0.058374733 0.53000003
0.015719373 -0.058264595 0.52900004
0.017098509 -0.058264595 0.52900004
0.018407786 -0.058044311 0.52700001
0.019781709 -0.058044311 0.52700001
0.021075346 -0.057824031 0.52500004
0.022401303 -0.057713889 0.52400005
0.023767406 -0.057713889 0.52400005
0.02508554 -0.057603743 0.523
0.02634789 -0.057383467 0.52100003
0.027599817 -0.057163186 0.51900005
0.028785523 -0.056832761 0.51600003
0.029897196 -0.056392197 0.51200002
0.031049011 -0.056061771 0.509
0.035092752 -0.05220684 0.47400004
0.04121824 -0.053748813 0.48800004
0.047170483 -0.057934169 0.52600002
0.048910938 -0.058374733 0.53000003
0.050482463 -0.058595013 0.53200001
-0.052250452 -0.057315592 0.53300005
-0.050765458 -0.057208054 0.53200001
-0.049285688 -0.05710052 0.53100002
-0.047811128 -0.056992985 0.53000003
-0.046254177 -0.056777917 0.528
-0.04462266 -0.056455318 0.52500004
-0.043006785 -0.056132715 0.52200001
-0.039899141 -0.055595044 0.51700002
-0.038327586 -0.055272441 0.514
-0.036843639 -0.055057377 0.51200002
-0.035439465 -0.054949842 0.51100004
-0.034040511 -0.054842312 0.51000005
-0.032646768 -0.05473477 0.509
-0.031319771 -0.05473477 0.509
-0.030051704 -0.054842312 0.51000005
-0.028778419 -0.054949842 0.51100004
-0.02749992 -0.055057377 0.51200002
-0.026216207 -0.055164907 0.51300001
-0.024927277 -0.055272441 0.514
-0.023633139 -0.055379979 0.51500005
-0.022333784 -0.055487514 0.51600003
-0.021029212 -0.055595044 0.51700002
-0.019719429 -0.055702578 0.51800001
-0.018404434 -0.055810116 0.51900005
-0.017084222 -0.05591765 0.52000004
-0.015758794 -0.056025181 0.52100003
-0.014428155 -0.056132715 0.52200001
-0.013092299 -0.056240246 0.523
-0.011751233 -0.056347784 0.52400005
-0.01040495 -0.056455318 0.52500004
-0.0090362411 -0.056455318 0.52500004
-0.0076675327 -0.056455318 0.52500004
-0.0063108215 -0.056562852 0.52600002
-0.0049395063 -0.056562852 0.52600002
-0.0035681908 -0.056562852 0.52600002
-0.0021968752 -0.056562852 0.52600002
-0.00082712917 -0.056670383 0.52700001
0.00054679334 -0.056670383 0.52700001
0.0019243605 -0.056777917 0.528
0.0033008901 -0.056777917 0.528
0.0046862788 -0.056885455 0.52900004
0.0060654157 -0.056885455 0.52900004
0.0074586249 -0.056992985 0.53000003
0.0088403691 -0.056992985 0.53000003
0.010222113 -0.056992985 0.53000003
0.011603856 -0.056992985 0.53000003
0.012985601 -0.056992985 0.53000003
0.014340236 -0.056885455 0.52900004
0.015689656 -0.056777917 0.528
0.017066186 -0.056777917 0.528
0.018372856 -0.056562852 0.52600002
0.019744173 -0.056562852 0.52600002
0.021075346 -0.056455318 0.52500004
0.02235855 -0.056240246 0.523
0.02367669 -0.056132715 0.52200001
0.024989612 -0.056025181 0.52100003
0.026196174 -0.055702578 0.51800001
0.027387101 -0.055379979 0.51500005
0.028450809 -0.054842312 0.51000005
0.033857007 -0.050971087 0.47400004
0.035018716 -0.050863553 0.47300002
0.036175217 -0.050756019 0.47200003
0.049095504 -0.057208054 0.53200001
-0.050860889 -0.055926025 0.53300005
-0.049471322 -0.055926025 0.53300005
-0.047991544 -0.055821095 0.53200001
-0.046429384 -0.055611245 0.53000003
-0.044792648 -0.055296462 0.52700001
-0.043253951 -0.055086609 0.52500004
-0.041645899 -0.054771826 0.52200001
-0.040053491 -0.05445705 0.51900005
-0.038476724 -0.054142267 0.51600003
-0.036987554 -0.05393241 0.514
-0.035439465 -0.053617634 0.51100004
-0.034040511 -0.053512707 0.51000005
-0.032646768 -0.053407777 0.509
-0.031319771 -0.053407777 0.509
-0.029992778 -0.053407777 0.509
-0.028722102 -0.053512707 0.51000005
-0.027446209 -0.053617634 0.51100004
-0.026165104 -0.05372256 0.51200002
-0.024927277 -0.05393241 0.514
-0.023587247 -0.05393241 0.514
-0.022290502 -0.054037344 0.51500005
-0.020988537 -0.054142267 0.51600003
-0.019681361 -0.054247193 0.51700002
-0.018368971 -0.05435212 0.51800001
-0.017051367 -0.05445705 0.51900005
-0.015728548 -0.054561976 0.52000004
-0.014400515 -0.054666903 0.52100003
-0.013067267 -0.054771826 0.52200001
-0.011728805 -0.054876752 0.523
-0.010385131 -0.054981686 0.52400005
-0.0090362411 -0.055086609 0.52500004
-0.0076675327 -0.055086609 0.52500004
-0.0062988242 -0.055086609 0.52500004
-0.0049395063 -0.055191536 0.52600002
-0.0035681908 -0.055191536 0.52600002
-0.0021968752 -0.055191536 0.52600002
-0.00082712917 -0.055296462 0.52700001
0.00054679334 -0.055296462 0.52700001
0.0019243605 -0.055401385 0.528
0.0033071421 -0.055506319 0.52900004
0.0046862788 -0.055506319 0.52900004
0.0060768812 -0.055611245 0.53000003
0.0074586249 -0.055611245 0.53000003
0.0088403691 -0.055611245 0.53000003
0.010222113 -0.055611245 0.53000003
0.011603856 -0.055611245 0.53000003
0.0129611 -0.055506319 0.52900004
0.014340236 -0.055506319 0.52900004
0.015689656 -0.055401385 0.528
0.017033864 -0.055296462 0.52700001
0.018337928 -0.055086609 0.52500004
0.019706637 -0.055086609 0.52500004
0.021035202 -0.054981686 0.52400005
0.0223158 -0.054771826 0.52200001
0.02367669 -0.054771826 0.52200001
0.024941647 -0.054561976 0.52000004
0.026095033 -0.054142267 0.51600003
0.027227564 -0.05372256 0.51200002
0.031782795 -0.0503649 0.48000002
0.032758899 -0.049945191 0.47600001
0.033857007 -0.049735341 0.47400004
0.034944683 -0.049525484 0.47200003
0.036098573 -0.049420558 0.47100002
0.047798231 -0.055926025 0.53300005
-0.048081759 -0.054536462 0.53300005
-0.046604589 -0.054434139 0.53200001
-0.045047637 -0.054229502 0.53000003
-0.043418728 -0.053922538 0.52700001
-0.041885246 -0.053717904 0.52500004
-0.040207841 -0.053308621 0.52100003
-0.038625855 -0.053001661 0.51800001
-0.037059519 -0.052694704 0.51500005
-0.035508819 -0.052387744 0.51200002
-0.034107257 -0.052285425 0.51100004
-0.032646768 -0.05208078 0.509
-0.031319771 -0.05208078 0.509
-0.029992778 -0.05208078 0.509
-0.028722102 -0.052183107 0.51000005
-0.027446209 -0.052285425 0.51100004
-0.026165104 -0.052387744 0.51200002
-0.024878781 -0.052490063 0.51300001
-0.023587247 -0.052592382 0.514
-0.022290502 -0.052694704 0.51500005
-0.020947862 -0.052694704 0.51500005
-0.019643294 -0.052797023 0.51600003
-0.01833351 -0.052899342 0.51700002
-0.017018512 -0.053001661 0.51800001
-0.015728548 -0.053206302 0.52000004
-0.014400515 -0.053308621 0.52100003
-0.013042234 -0.053308621 0.52100003
-0.01170638 -0.05341094 0.52200001
-0.010365311 -0.053513259 0.523
-0.0090190293 -0.053615585 0.52400005
-0.0076675327 -0.053717904 0.52500004
-0.0062988242 -0.053717904 0.52500004
-0.0049395063 -0.053820219 0.52600002
-0.0035681908 -0.053820219 0.52600002
-0.0021968752 -0.053820219 0.52600002
-0.00082712917 -0.053922538 0.52700001
0.00054783089 -0.054024857 0.528
0.0019243605 -0.054024857 0.528
0.0033071421 -0.054127183 0.52900004
0.0046951375 -0.054229502 0.53000003
0.0060768812 -0.054229502 0.53000003
0.0074586249 -0.054229502 0.53000003
0.0088403691 -0.054229502 0.53000003
0.010222113 -0.054229502 0.53000003
0.011603856 -0.054229502 0.53000003
0.0129611 -0.054127183 0.52900004
0.014313127 -0.054024857 0.528
0.015659941 -0.053922538 0.52700001
0.017001541 -0.053820219 0.52600002
0.018337928 -0.053717904 0.52500004
0.019669101 -0.053615585 0.52400005
0.020995056 -0.053513259 0.523
0.0223158 -0.05341094 0.52200001
0.023631332 -0.053308621 0.52100003
0.024845717 -0.053001661 0.51800001
0.025892746 -0.052387744 0.51200002
0.026961669 -0.051876146 0.50700003
0.031517938 -0.048704229 0.47600001
0.032621257 -0.048499592 0.47400004
0.033785578 -0.048397269 0.47300002
0.034944683 -0.048294954 0.47200003
0.036098573 -0.048192631 0.47100002
-0.046692196 -0.053146899 0.53300005
-0.045132633 -0.052947469 0.53100002
-0.043583509 -0.052748047 0.52900004
-0.042044807 -0.052548617 0.52700001
-0.040439364 -0.052249484 0.52400005
-0.038849559 -0.051950343 0.52100003
-0.037203439 -0.051551491 0.51700002
-0.035647523 -0.05125235 0.514
-0.034174003 -0.051052928 0.51200002
-0.03271091 -0.050853506 0.51000005
-0.031319771 -0.050753787 0.509
-0.029992778 -0.050753787 0.509
-0.028665781 -0.050753787 0.509
-0.027446209 -0.050953217 0.51100004
-0.026114 -0.050953217 0.51100004
-0.024878781 -0.051152639 0.51300001
-0.023587247 -0.05125235 0.514
-0.022247218 -0.05125235 0.514
-0.020947862 -0.051352069 0.51500005
-0.019643294 -0.05145178 0.51600003
-0.01833351 -0.051551491 0.51700002
-0.017018512 -0.051651202 0.51800001
-0.015698301 -0.051750921 0.51900005
-0.014372875 -0.051850632 0.52000004
-0.013042234 -0.051950343 0.52100003
-0.01170638 -0.052050054 0.52200001
-0.010365311 -0.052149765 0.523
-0.0090190293 -0.052249484 0.52400005
-0.0076675327 -0.052349195 0.52500004
-0.0062988242 -0.052349195 0.52500004
-0.0049395063 -0.052448906 0.52600002
-0.0035681908 -0.052448906 0.52600002
-0.0022010517 -0.052548617 0.52700001
-0.00082712917 -0.052548617 0.52700001
0.00054783089 -0.052648328 0.528
0.0019280053 -0.052748047 0.52900004
0.0033071421 -0.052748047 0.52900004
0.0046951375 -0.052847758 0.53000003
0.0060768812 -0.052847758 0.53000003
0.0074586249 -0.052847758 0.53000003
0.008857049 -0.052947469 0.53100002
0.010222113 -0.052847758 0.53000003
0.011603856 -0.052847758 0.53000003
0.0129611 -0.052748047 0.52900004
0.014313127 -0.052648328 0.528
0.015630227 -0.052448906 0.52600002
0.016969219 -0.052349195 0.52500004
0.018302999 -0.052249484 0.52400005
0.019594027 -0.052050054 0.52200001
0.020914771 -0.051950343 0.52100003
0.022273051 -0.051950343 0.52100003
0.023495259 -0.051651202 0.51800001
0.024653858 -0.05125235 0.514
0.029402012 -0.048061546 0.48200002
0.03034058 -0.047562983 0.47700003
0.031385511 -0.047263846 0.47400004
0.032552436 -0.047164131 0.47300002
0.033714149 -0.04706442 0.47200003
0.034870647 -0.046964705 0.47100002
0.036098573 -0.046964705 0.47100002
-0.045302626 -0.051757332 0.53300005
-0.043748282 -0.051563118 0.53100002
-0.042204373 -0.051368911 0.52900004
-0.04059371 -0.051077589 0.52600002
-0.038998693 -0.050786272 0.523
-0.037347361 -0.050397854 0.51900005
-0.03578623 -0.050106537 0.51600003
-0.034240745 -0.049815215 0.51300001
-0.032775048 -0.049621008 0.51100004
-0.031381305 -0.049523901 0.51000005
-0.029992778 -0.049426794 0.509
-0.028722102 -0.049523901 0.51000005
-0.027392499 -0.049523901 0.51000005
-0.026114 -0.049621008 0.51100004
-0.024830285 -0.049718112 0.51200002
-0.023541357 -0.049815215 0.51300001
-0.022247218 -0.049912319 0.514
-0.020907186 -0.049912319 0.514
-0.019605225 -0.050009429 0.51500005
-0.018298049 -0.050106537 0.51600003
-0.016985659 -0.05020364 0.51700002
-0.015668051 -0.050300743 0.51800001
-0.014345235 -0.050397854 0.51900005
-0.013017201 -0.050494958 0.52000004
-0.011683954 -0.050592061 0.52100003
-0.010345493 -0.050689168 0.52200001
-0.0090018166 -0.050786272 0.523
-0.0076529277 -0.050883383 0.52400005
-0.0062988242 -0.050980486 0.52500004
-0.0049395063 -0.051077589 0.52600002
-0.0035681908 -0.051077589 0.52600002
-0.0022010517 -0.051174697 0.52700001
-0.00082869868 -0.0512718 0.528
0.00054783089 -0.0512718 0.528
0.0019280053 -0.051368911 0.52900004
0.0033133936 -0.051466014 0.53000003
0.0046951375 -0.051466014 0.53000003
0.0060883467 -0.051563118 0.53100002
0.0074726976 -0.051563118 0.53100002
0.008857049 -0.051563118 0.53100002
0.010222113 -0.051466014 0.53000003
0.011603856 -0.051466014 0.53000003
0.0129611 -0.051368911 0.52900004
0.014313127 -0.0512718 0.528
0.015630227 -0.051077589 0.52600002
0.016936898 -0.050883383 0.52400005
0.018268067 -0.050786272 0.523
0.019556491 -0.050592061 0.52100003
0.020794339 -0.050300743 0.51800001
0.022102049 -0.05020364 0.51700002
0.023268471 -0.049815215 0.51300001
0.028145406 -0.046804942 0.48200002
0.029097013 -0.046319414 0.47700003
0.03014976 -0.046028096 0.47400004
0.031253081 -0.045833886 0.47200003
0.032483615 -0.045833886 0.47200003
0.03364272 -0.045736779 0.47100002
0.034870647 -0.045736779 0.47100002
-0.045387622 -0.050462268 0.53400004
-0.04383067 -0.050273266 0.53200001
-0.04228415 -0.050084271 0.53000003
-0.040748056 -0.049895272 0.528
-0.039147828 -0.049611777 0.52500004
-0.037563238 -0.049328282 0.52200001
-0.035994291 -0.049044788 0.51900005
-0.034440987 -0.04876129 0.51600003
-0.032903325 -0.048477791 0.51300001
-0.03150437 -0.048383296 0.51200002
-0.030110629 -0.0482888 0.51100004
-0.028722102 -0.0481943 0.51000005
-0.027446209 -0.0482888 0.51100004
-0.026114 -0.0482888 0.51100004
-0.024830285 -0.048383296 0.51200002
-0.023541357 -0.048477791 0.51300001
-0.022247218 -0.048572291 0.514
-0.020907186 -0.048572291 0.514
-0.019567154 -0.048572291 0.514
-0.018262587 -0.048666794 0.51500005
-0.016952805 -0.04876129 0.51600003
-0.015637806 -0.048855789 0.51700002
-0.014317594 -0.048950285 0.51800001
-0.012992169 -0.049044788 0.51900005
-0.011683954 -0.049233783 0.52100003
-0.010345493 -0.049328282 0.52200001
-0.0090018166 -0.049422778 0.523
-0.0076529277 -0.049517281 0.52400005
-0.0062988242 -0.049611777 0.52500004
-0.0049301158 -0.049611777 0.52500004
-0.0035681908 -0.049706277 0.52600002
-0.0022010517 -0.049800772 0.52700001
-0.00082869868 -0.049895272 0.528
0.00054783089 -0.049895272 0.528
0.0019280053 -0.049989775 0.52900004
0.0033133936 -0.050084271 0.53000003
0.0046951375 -0.050084271 0.53000003
0.0060883467 -0.05017877 0.53100002
0.0074726976 -0.05017877 0.53100002
0.008857049 -0.05017877 0.53100002
0.010241399 -0.05017877 0.53100002
0.011603856 -0.050084271 0.53000003
0.0129611 -0.049989775 0.52900004
0.014313127 -0.049895272 0.528
0.015630227 -0.049706277 0.52600002
0.016936898 -0.049517281 0.52400005
0.018233139 -0.049328282 0.52200001
0.019481419 -0.049044788 0.51900005
0.020633765 -0.048572291 0.514
0.028975012 -0.044886846 0.47500002
0.03014976 -0.04479235 0.47400004
0.031253081 -0.044603352 0.47200003
0.032483615 -0.044603352 0.47200003
0.033714149 -0.044603352 0.47200003
0.034870647 -0.044508852 0.47100002
-0.043913063 -0.048978202 0.53300005
-0.04236393 -0.048794415 0.53100002
-0.04090241 -0.048702523 0.53000003
-0.039296962 -0.048426848 0.52700001
-0.037707161 -0.048151176 0.52400005
-0.036132995 -0.047875501 0.52100003
-0.034574475 -0.047599822 0.51800001
-0.033095744 -0.047416043 0.51600003
-0.031627432 -0.047232255 0.514
-0.030228477 -0.047140367 0.51300001
-0.028834736 -0.047048476 0.51200002
-0.02749992 -0.047048476 0.51200002
-0.026165104 -0.047048476 0.51200002
-0.024878781 -0.047140367 0.51300001
-0.023541357 -0.047140367 0.51300001
-0.022203935 -0.047140367 0.51300001
-0.020907186 -0.047232255 0.514
-0.019567154 -0.047232255 0.514
-0.018227125 -0.047232255 0.514
-0.01691995 -0.047324151 0.51500005
-0.015637806 -0.047507934 0.51700002
-0.014317594 -0.047599822 0.51800001
-0.012967134 -0.047599822 0.51800001
-0.011661529 -0.047783609 0.52000004
-0.010325674 -0.047875501 0.52100003
-0.0089846049 -0.047967389 0.52200001
-0.0076529277 -0.048151176 0.52400005
-0.0062988242 -0.048243068 0.52500004
-0.0049301158 -0.048243068 0.52500004
-0.0035681908 -0.048334956 0.52600002
-0.0022010517 -0.048426848 0.52700001
-0.00082869868 -0.04851874 0.528
0.00054783089 -0.04851874 0.528
0.0019280053 -0.048610635 0.52900004
0.0033133936 -0.048702523 0.53000003
0.0046951375 -0.048702523 0.53000003
0.0060768812 -0.048702523 0.53000003
0.0074726976 -0.048794415 0.53100002
0.0088403691 -0.048702523 0.53000003
0.010222113 -0.048702523 0.53000003
0.011603856 -0.048702523 0.53000003
0.012985601 -0.048702523 0.53000003
0.014313127 -0.04851874 0.528
0.015630227 -0.048334956 0.52600002
0.016969219 -0.048243068 0.52500004
0.018268067 -0.048059281 0.523
0.019406345 -0.047507934 0.51700002
0.020513337 -0.046956584 0.51100004
0.027795048 -0.043740377 0.47600001
0.028914014 -0.043556597 0.47400004
0.03008615 -0.043464705 0.47300002
0.031253081 -0.043372814 0.47200003
0.032483615 -0.043372814 0.47200003
-0.043995447 -0.047677919 0.53400004
-0.042523496 -0.047588635 0.53300005
-0.040979583 -0.047410063 0.53100002
-0.039446097 -0.047231499 0.52900004
-0.03785108 -0.046963643 0.52600002
-0.036271699 -0.046695787 0.523
-0.033288162 -0.046338655 0.51900005
-0.031812027 -0.046160083 0.51700002
-0.030346328 -0.045981515 0.51500005
-0.02894737 -0.045892227 0.514
-0.027553629 -0.045802943 0.51300001
-0.026216207 -0.045802943 0.51300001
-0.024878781 -0.045802943 0.51300001
-0.023587247 -0.045892227 0.514
-0.022203935 -0.045802943 0.51300001
-0.02086651 -0.045802943 0.51300001
-0.019567154 -0.045892227 0.514
-0.018227125 -0.045892227 0.514
-0.01691995 -0.045981515 0.51500005
-0.015607558 -0.046070799 0.51600003
-0.014289954 -0.046160083 0.51700002
-0.012967134 -0.046249364 0.51800001
-0.011639103 -0.046338655 0.51900005
-0.010325674 -0.046517219 0.52100003
-0.0089673931 -0.046517219 0.52100003
-0.0076383222 -0.046695787 0.523
-0.0062868265 -0.046785075 0.52400005
-0.0049301158 -0.046874359 0.52500004
-0.0035614073 -0.046874359 0.52500004
-0.0021968752 -0.046963643 0.52600002
-0.00082712917 -0.047052927 0.52700001
0.00054783089 -0.047142208 0.528
0.0019280053 -0.047231499 0.52900004
0.0033133936 -0.047320779 0.53000003
0.0046951375 -0.047320779 0.53000003
0.0060768812 -0.047320779 0.53000003
0.0074586249 -0.047320779 0.53000003
0.0088403691 -0.047320779 0.53000003
0.010222113 -0.047320779 0.53000003
0.011603856 -0.047320779 0.53000003
0.012985601 -0.047320779 0.53000003
0.018233139 -0.046606503 0.52200001
0.019331273 -0.045981515 0.51500005
0.020392904 -0.04535652 0.50800002
0.026498301 -0.042410135 0.47500002
0.02761987 -0.042231563 0.47300002
0.028792012 -0.042142279 0.47200003
0.03008615 -0.042231563 0.47300002
0.031319294 -0.042231563 0.47300002
-0.044077836 -0.046372425 0.53500003
-0.042603277 -0.046285748 0.53400004
-0.041133933 -0.046199072 0.53300005
-0.039520666 -0.045939039 0.53000003
-0.037994999 -0.045765679 0.528
-0.03641041 -0.04550565 0.52500004
-0.034974955 -0.045418974 0.52400005
-0.033416435 -0.045158941 0.52100003
-0.031996626 -0.045072265 0.52000004
-0.030523101 -0.044898905 0.51800001
-0.029060008 -0.044725552 0.51600003
-0.027661053 -0.044638876 0.51500005
-0.026267309 -0.044552196 0.514
-0.024927277 -0.044552196 0.514
-0.023587247 -0.044552196 0.514
-0.022247218 -0.044552196 0.514
-0.02086651 -0.044465519 0.51300001
-0.019529087 -0.044465519 0.51300001
-0.018227125 -0.044552196 0.514
-0.016887095 -0.044552196 0.514
-0.015577312 -0.044638876 0.51500005
-0.014262314 -0.044725552 0.51600003
-0.012942102 -0.044812229 0.51700002
-0.011616676 -0.044898905 0.51800001
-0.010305855 -0.045072265 0.52000004
-0.0089673931 -0.045158941 0.52100003
-0.0076237177 -0.045245618 0.52200001
-0.0062868265 -0.045418974 0.52400005
-0.0049207252 -0.045418974 0.52400005
-0.0035614073 -0.04550565 0.52500004
-0.0021968752 -0.045592327 0.52600002
-0.00082712917 -0.045679003 0.52700001
0.00054679334 -0.045679003 0.52700001
0.0019243605 -0.045765679 0.528
0.0033071421 -0.045852363 0.52900004
0.0046862788 -0.045852363 0.52900004
0.0060768812 -0.045939039 0.53000003
0.0074586249 -0.045939039 0.53000003
0.0088403691 -0.045939039 0.53000003
0.010222113 -0.045939039 0.53000003
0.011603856 -0.045939039 0.53000003
0.012985601 -0.045939039 0.53000003
0.024122734 -0.041345134 0.47700003
0.025206769 -0.041085102 0.47400004
0.026386729 -0.040998425 0.47300002
0.027561478 -0.040911749 0.47200003
0.028792012 -0.040911749 0.47200003
0.030022545 -0.040911749 0.47200003
-0.041211106 -0.044893578 0.53400004
-0.03974437 -0.044809509 0.53300005
-0.038138922 -0.044557296 0.53000003
-0.036687821 -0.044473227 0.52900004
-0.035175193 -0.044305082 0.52700001
-0.033672992 -0.044136941 0.52500004
-0.032181218 -0.0439688 0.523
-0.030699877 -0.043800659 0.52100003
-0.027768472 -0.043464378 0.51700002
-0.026369518 -0.043380309 0.51600003
-0.024975777 -0.04329624 0.51500005
-0.023587247 -0.043212164 0.514
-0.022247218 -0.043212164 0.514
-0.02086651 -0.043128096 0.51300001
-0.019529087 -0.043128096 0.51300001
-0.018191664 -0.043128096 0.51300001
-0.016887095 -0.043212164 0.514
-0.015547063 -0.043212164 0.514
-0.014234674 -0.04329624 0.51500005
-0.012942102 -0.043464378 0.51700002
-0.011616676 -0.04354845 0.51800001
-0.010286036 -0.043632522 0.51900005
-0.0089501813 -0.043716591 0.52000004
-0.0076091131 -0.043800659 0.52100003
-0.0062628305 -0.043884732 0.52200001
-0.0049113338 -0.0439688 0.523
-0.0035546238 -0.044052873 0.52400005
-0.0021926987 -0.044136941 0.52500004
