# .PCD v0.7 - Point Cloud Data file format
VERSION 0.7
FIELDS x y z
SIZE 4 4 4
TYPE F F F
COUNT 1 1 1
WIDTH 106
HEIGHT 1
VIEWPOINT 0 0 0 1 0 0 0
POINTS 106
DATA ascii
0.077267945 -0.042188089 0.53500003
0.078662723 -0.042188089 0.53500003
0.080057502 -0.042188089 0.53500003
0.08145228 -0.042188089 0.53500003
0.082847059 -0.042188089 0.53500003
0.084241837 -0.042188089 0.53500003
0.085636616 -0.042188089 0.53500003
0.087031394 -0.042188089 0.53500003
0.088426173 -0.042188089 0.53500003
0.077267945 -0.040793311 0.53500003
0.078662723 -0.040793311 0.53500003
0.080057502 -0.040793311 0.53500003
0.081300035 -0.040717062 0.53400004
0.082692206 -0.040717062 0.53400004
0.084241837 -0.040793311 0.53500003
0.085636616 -0.040793311 0.53500003
0.087031394 -0.040793311 0.53500003
0.088426173 -0.040793311 0.53500003
0.089820951 -0.040793311 0.53500003
0.078662723 -0.039398529 0.53500003
0.080057502 -0.039398529 0.53500003
0.081300035 -0.039324887 0.53400004
0.082692206 -0.039324887 0.53400004
0.084241837 -0.039398529 0.53500003
0.085636616 -0.039398529 0.53500003
0.087031394 -0.039398529 0.53500003
0.088426173 -0.039398529 0.53500003
0.078662723 -0.03800375 0.53500003
0.080057502 -0.03800375 0.53500003
0.08145228 -0.03800375 0.53500003
0.082847059 -0.03800375 0.53500003
0.084241837 -0.03800375 0.53500003
0.085636616 -0.03800375 0.53500003
0.087031394 -0.03800375 0.53500003
0.08145228 -0.036608972 0.53500003
0.082847059 -0.036608972 0.53500003
0.084241837 -0.036608972 0.53500003
0.078809761 -0.035280012 0.53600001
0.080207139 -0.035280012 0.53600001
0.081604525 -0.035280012 0.53600001
0.083001912 -0.035280012 0.53600001
0.084399298 -0.035280012 0.53600001
0.085796684 -0.035280012 0.53600001
0.08719407 -0.035280012 0.53600001
0.084240749 -0.025878882 0.54400003
0.08565899 -0.025878882 0.54400003
0.087077238 -0.025878882 0.54400003
0.088495478 -0.025878882 0.54400003
0.089913718 -0.025878882 0.54400003
0.091331959 -0.025878882 0.54400003
0.092750207 -0.025878882 0.54400003
0.094168447 -0.025878882 0.54400003
0.095586695 -0.025878882 0.54400003
0.081404269 -0.024460638 0.54400003
0.082822509 -0.024460638 0.54400003
0.084240749 -0.024460638 0.54400003
0.08565899 -0.024460638 0.54400003
0.087077238 -0.024460638 0.54400003
0.088658147 -0.024505602 0.54500002
0.089913718 -0.024460638 0.54400003
0.09149985 -0.024505602 0.54500002
0.092750207 -0.024460638 0.54400003
0.094168447 -0.024460638 0.54400003
0.095586695 -0.024460638 0.54400003
0.097004935 -0.024460638 0.54400003
0.08581645 -0.023084754 0.54500002
0.088658147 -0.023084754 0.54500002
0.09149985 -0.023084754 0.54500002
0.084395602 -0.021663904 0.54500002
0.08581645 -0.021663904 0.54500002
0.087237298 -0.021663904 0.54500002
0.088658147 -0.021663904 0.54500002
0.090079002 -0.021663904 0.54500002
0.09149985 -0.021663904 0.54500002
0.092920698 -0.021663904 0.54500002
0.080133058 -0.020243054 0.54500002
0.081553906 -0.020243054 0.54500002
0.082974754 -0.020243054 0.54500002
0.084395602 -0.020243054 0.54500002
0.08581645 -0.020243054 0.54500002
0.087237298 -0.020243054 0.54500002
0.088658147 -0.020243054 0.54500002
0.090079002 -0.020243054 0.54500002
0.09149985 -0.020243054 0.54500002
0.065924555 -0.018822204 0.54500002
0.080133058 -0.018822204 0.54500002
0.081553906 -0.018822204 0.54500002
0.082974754 -0.018822204 0.54500002
0.084395602 -0.018822204 0.54500002
0.08581645 -0.018822204 0.54500002
0.087237298 -0.018822204 0.54500002
0.088658147 -0.018822204 0.54500002
0.090079002 -0.018822204 0.54500002
0.09149985 -0.018822204 0.54500002
0.092920698 -0.018822204 0.54500002
0.078856632 -0.01458637 0.546
0.080280088 -0.01458637 0.546
0.081703544 -0.01458637 0.546
0.078856632 -0.013162913 0.546
0.080280088 -0.013162913 0.546
0.081703544 -0.013162913 0.546
0.077433176 -0.011739456 0.546
0.078856632 -0.011739456 0.546
0.080280088 -0.011739456 0.546
0.081703544 -0.011739456 0.546
0.083126999 -0.011739456 0.546
