# .PCD v0.7 - Point Cloud Data file format
VERSION 0.7
FIELDS x y z
SIZE 4 4 4
TYPE F F F
COUNT 1 1 1
WIDTH 158
HEIGHT 1
VIEWPOINT 0 0 0 1 0 0 0
POINTS 158
DATA ascii
-0.036777098 0.055668168 0.551
-0.035340607 0.055668168 0.551
-0.033904113 0.055668168 0.551
-0.032467622 0.055668168 0.551
-0.03103113 0.055668168 0.551
-0.029594637 0.055668168 0.551
-0.028158147 0.055668168 0.551
-0.026721653 0.055668168 0.551
-0.025285162 0.055668168 0.551
-0.035340607 0.057104658 0.551
-0.033904113 0.057104658 0.551
-0.032467622 0.057104658 0.551
-0.03103113 0.057104658 0.551
-0.029594637 0.057104658 0.551
-0.028158147 0.057104658 0.551
-0.026721653 0.057104658 0.551
-0.025285162 0.057104658 0.551
0.0178096 0.057104658 0.551
0.01924609 0.057104658 0.551
0.020682584 0.057104658 0.551
0.022119075 0.057104658 0.551
0.023555567 0.057104658 0.551
-0.033904113 0.058541149 0.551
-0.032467622 0.058541149 0.551
-0.03103113 0.058541149 0.551
-0.029594637 0.058541149 0.551
-0.028158147 0.058541149 0.551
-0.026721653 0.058541149 0.551
-0.025285162 0.058541149 0.551
0.0178096 0.058541149 0.551
0.01924609 0.058541149 0.551
0.020682584 0.058541149 0.551
0.022119075 0.058541149 0.551
0.023555567 0.058541149 0.551
-0.029594637 0.059977639 0.551
-0.028158147 0.059977639 0.551
0.0178096 0.059977639 0.551
0.01924609 0.059977639 0.551
0.020682584 0.059977639 0.551
0.022119075 0.059977639 0.551
-0.038282946 0.061525602 0.55200005
-0.036843847 0.061525602 0.55200005
-0.035404749 0.061525602 0.55200005
-0.033965651 0.061525602 0.55200005
-0.032526549 0.061525602 0.55200005
-0.031087451 0.061525602 0.55200005
-0.029648352 0.061525602 0.55200005
-0.028209252 0.061525602 0.55200005
-0.018135559 0.0629647 0.55200005
-0.016696459 0.0629647 0.55200005
-0.013818259 0.0629647 0.55200005
-0.012379161 0.0629647 0.55200005
0.016402824 0.0629647 0.55200005
0.017841922 0.0629647 0.55200005
0.01928102 0.0629647 0.55200005
-0.019574657 0.064403795 0.55200005
-0.018135559 0.064403795 0.55200005
-0.016696459 0.064403795 0.55200005
-0.015257359 0.064403795 0.55200005
-0.013818259 0.064403795 0.55200005
-0.012379161 0.064403795 0.55200005
-0.018135559 0.065842897 0.55200005
-0.016696459 0.065842897 0.55200005
-0.015257359 0.065842897 0.55200005
-0.013818259 0.065842897 0.55200005
-0.012379161 0.065842897 0.55200005
-0.018135559 0.067281991 0.55200005
-0.016696459 0.067281991 0.55200005
-0.015257359 0.067281991 0.55200005
-0.013818259 0.067281991 0.55200005
-0.012379161 0.067281991 0.55200005
-0.010940062 0.067281991 0.55200005
-0.0095009618 0.067281991 0.55200005
-0.021051824 0.068845585 0.55300003
-0.019610118 0.068845585 0.55300003
-0.018135559 0.068721093 0.55200005
-0.016696459 0.068721093 0.55200005
-0.015257359 0.068721093 0.55200005
-0.013818259 0.068721093 0.55200005
-0.012379161 0.068721093 0.55200005
-0.010940062 0.068721093 0.55200005
-0.0095009618 0.068721093 0.55200005
-0.0080764676 0.068845585 0.55300003
-0.0066347611 0.068845585 0.55300003
-0.019610118 0.070287295 0.55300003
-0.018135559 0.070160195 0.55200005
-0.016696459 0.070160195 0.55200005
-0.015257359 0.070160195 0.55200005
-0.013793225 0.070033088 0.551
-0.012379161 0.070160195 0.55200005
-0.010940062 0.070160195 0.55200005
-0.0095009618 0.070160195 0.55200005
-0.0080764676 0.070287295 0.55300003
-0.0066347611 0.070287295 0.55300003
-0.019610118 0.071729004 0.55300003
-0.018135559 0.071599297 0.55200005
-0.016696459 0.071599297 0.55200005
-0.013793225 0.071469583 0.551
-0.012356734 0.071469583 0.551
-0.010940062 0.071599297 0.55200005
-0.0095009618 0.071599297 0.55200005
-0.0080618626 0.071599297 0.55200005
-0.0066347611 0.071729004 0.55300003
-0.019610118 0.073170707 0.55300003
-0.012356734 0.072906069 0.551
-0.010920241 0.072906069 0.551
-0.0095009618 0.073038392 0.55200005
-0.0080618626 0.073038392 0.55200005
-0.0066347611 0.073170707 0.55300003
-0.010940062 0.074477494 0.55200005
-0.0095009618 0.074477494 0.55200005
-0.0080764676 0.074612416 0.55300003
-0.0066347611 0.074612416 0.55300003
-0.0095009618 0.075916588 0.55200005
-0.0080764676 0.076054119 0.55300003
-0.0066347611 0.076054119 0.55300003
-0.0051930551 0.076054119 0.55300003
0.01082001 0.078616925 0.56100005
0.0078948848 0.080079488 0.56100005
0.0093741277 0.080222227 0.56200004
0.010839297 0.080222227 0.56200004
0.012304467 0.080222227 0.56200004
0.013745137 0.080079488 0.56100005
0.015234807 0.080222227 0.56200004
0.016699977 0.080222227 0.56200004
0.018132824 0.080079488 0.56100005
0.0079089571 0.081687398 0.56200004
0.0093908068 0.081832744 0.56300002
0.010858583 0.081832744 0.56300002
0.012326361 0.081832744 0.56300002
0.013769637 0.081687398 0.56200004
0.015234807 0.081687398 0.56200004
0.016699977 0.081687398 0.56200004
0.018165145 0.081687398 0.56200004
0.0064437874 0.08315257 0.56200004
0.0079230294 0.083300523 0.56300002
0.0093908068 0.083300523 0.56300002
0.01087787 0.083448477 0.56400001
0.012326361 0.083300523 0.56300002
0.013818638 0.083448477 0.56400001
0.015261914 0.083300523 0.56300002
0.016729692 0.083300523 0.56300002
0.0049786177 0.084617734 0.56200004
0.0064552529 0.084768295 0.56300002
0.0079230294 0.084768295 0.56300002
0.0094074868 0.084918864 0.56400001
0.01087787 0.084918864 0.56400001
0.012348254 0.084918864 0.56400001
0.013818638 0.084918864 0.56400001
0.015289022 0.084918864 0.56400001
0.016759407 0.084918864 0.56400001
0.0064667189 0.086389251 0.56400001
0.0079371026 0.086389251 0.56400001
0.0094241668 0.086542428 0.565
0.010897157 0.086542428 0.565
0.012370148 0.086542428 0.565
0.01384314 0.086542428 0.565
0.01531613 0.086542428 0.565
