# .PCD v0.7 - Point Cloud Data file format
VERSION 0.7
FIELDS x y z
SIZE 4 4 4
TYPE F F F
COUNT 1 1 1
WIDTH 102
HEIGHT 1
VIEWPOINT 0 0 0 1 0 0 0
POINTS 102
DATA ascii
0.20136635 -0.19307594 0.51700002
0.2027142 -0.19307594 0.51700002
0.20406206 -0.19307594 0.51700002
0.20540991 -0.19307594 0.51700002
0.2000185 -0.1917281 0.51700002
0.20136635 -0.1917281 0.51700002
0.2027142 -0.1917281 0.51700002
0.20406206 -0.1917281 0.51700002
0.20540991 -0.1917281 0.51700002
0.20675777 -0.1917281 0.51700002
0.20810562 -0.1917281 0.51700002
0.20945346 -0.1917281 0.51700002
0.21080132 -0.1917281 0.51700002
0.20175584 -0.18939801 0.51800001
0.2031063 -0.18939801 0.51800001
0.20445676 -0.18939801 0.51800001
0.20580722 -0.18939801 0.51800001
0.20715767 -0.18939801 0.51800001
0.20850815 -0.18939801 0.51800001
0.2098586 -0.18939801 0.51800001
0.20040537 -0.18804756 0.51800001
0.20175584 -0.18804756 0.51800001
0.2031063 -0.18804756 0.51800001
0.20445676 -0.18804756 0.51800001
0.20580722 -0.18804756 0.51800001
0.20715767 -0.18804756 0.51800001
0.20850815 -0.18804756 0.51800001
0.2098586 -0.18804756 0.51800001
0.21120906 -0.18804756 0.51800001
0.21255951 -0.18804756 0.51800001
0.21390997 -0.18804756 0.51800001
0.21526043 -0.18804756 0.51800001
0.21661089 -0.18804756 0.51800001
0.21796134 -0.18804756 0.51800001
0.19905493 -0.1866971 0.51800001
0.20040537 -0.1866971 0.51800001
0.20175584 -0.1866971 0.51800001
0.2031063 -0.1866971 0.51800001
0.20445676 -0.1866971 0.51800001
0.20580722 -0.1866971 0.51800001
0.20715767 -0.1866971 0.51800001
0.20850815 -0.1866971 0.51800001
0.2098586 -0.1866971 0.51800001
0.21120906 -0.1866971 0.51800001
0.21255951 -0.1866971 0.51800001
0.21390997 -0.1866971 0.51800001
0.21526043 -0.1866971 0.51800001
0.21661089 -0.1866971 0.51800001
0.21796134 -0.1866971 0.51800001
0.2193118 -0.1866971 0.51800001
0.22066227 -0.1866971 0.51800001
0.19905493 -0.18534665 0.51800001
0.20040537 -0.18534665 0.51800001
0.20175584 -0.18534665 0.51800001
0.2031063 -0.18534665 0.51800001
0.20445676 -0.18534665 0.51800001
0.20580722 -0.18534665 0.51800001
0.20715767 -0.18534665 0.51800001
0.20850815 -0.18534665 0.51800001
0.2098586 -0.18534665 0.51800001
0.21120906 -0.18534665 0.51800001
0.21255951 -0.18534665 0.51800001
0.21390997 -0.18534665 0.51800001
0.21526043 -0.18534665 0.51800001
0.21661089 -0.18534665 0.51800001
0.21796134 -0.18534665 0.51800001
0.2193118 -0.18534665 0.51800001
0.22066227 -0.18534665 0.51800001
0.22201273 -0.18534665 0.51800001
0.22336319 -0.18534665 0.51800001
0.22471364 -0.18534665 0.51800001
0.22876503 -0.18399617 0.51800001
0.21296987 -0.17893913 0.51900005
0.21432295 -0.17893913 0.51900005
0.21567601 -0.17893913 0.51900005
0.21702908 -0.17893913 0.51900005
0.2147359 -0.17386122 0.52000004
0.21609156 -0.17386122 0.52000004
0.22058196 -0.16740416 0.52100003
0.22194023 -0.16740416 0.52100003
0.22058196 -0.16604589 0.52100003
0.22194023 -0.16604589 0.52100003
0.22329852 -0.16604589 0.52100003
0.22465681 -0.16604589 0.52100003
0.22601508 -0.16604589 0.52100003
0.24095617 -0.1646876 0.52100003
0.24231446 -0.1646876 0.52100003
0.24367273 -0.1646876 0.52100003
0.24503101 -0.1646876 0.52100003
0.24638928 -0.1646876 0.52100003
0.24686219 -0.16228192 0.52200001
0.24414042 -0.16092104 0.52200001
0.24550131 -0.16092104 0.52200001
0.24686219 -0.16092104 0.52200001
0.24141864 -0.15956014 0.52200001
0.24277954 -0.15956014 0.52200001
0.24414042 -0.15956014 0.52200001
0.24550131 -0.15956014 0.52200001
0.24686219 -0.15956014 0.52200001
0.24550131 -0.15819925 0.52200001
0.24686219 -0.15819925 0.52200001
0.24460812 -0.15577532 0.523
