# .PCD v0.7 - Point Cloud Data file format
VERSION 0.7
FIELDS x y z
SIZE 4 4 4
TYPE F F F
COUNT 1 1 1
WIDTH 139
HEIGHT 1
VIEWPOINT 0 0 0 1 0 0 0
POINTS 139
DATA ascii
0.11980054 0.059977639 0.551
0.12123702 0.059977639 0.551
0.13584806 0.070160195 0.55200005
0.13728715 0.070160195 0.55200005
0.13872625 0.070160195 0.55200005
0.14016536 0.070160195 0.55200005
0.14160445 0.070160195 0.55200005
0.14304356 0.070160195 0.55200005
0.14448266 0.070160195 0.55200005
0.13296986 0.071599297 0.55200005
0.13440897 0.071599297 0.55200005
0.13584806 0.071599297 0.55200005
0.13728715 0.071599297 0.55200005
0.13847493 0.071469583 0.551
0.13991143 0.071469583 0.551
0.14134791 0.071469583 0.551
0.14304356 0.071599297 0.55200005
0.14448266 0.071599297 0.55200005
0.14592175 0.071599297 0.55200005
0.14736086 0.071599297 0.55200005
0.086718418 0.074096918 0.56
0.089638323 0.074096918 0.56
0.13032733 0.073170707 0.55300003
0.13176903 0.073170707 0.55300003
0.13321075 0.073170707 0.55300003
0.13440897 0.073038392 0.55200005
0.13584806 0.073038392 0.55200005
0.13728715 0.073038392 0.55200005
0.13847493 0.072906069 0.551
0.13991143 0.072906069 0.551
0.14134791 0.072906069 0.551
0.14304356 0.073038392 0.55200005
0.14448266 0.073038392 0.55200005
0.14592175 0.073038392 0.55200005
0.14736086 0.073038392 0.55200005
0.14879996 0.073038392 0.55200005
0.077958681 0.075556867 0.56
0.079418637 0.075556867 0.56
0.080878593 0.075556867 0.56
0.082338549 0.075556867 0.56
0.083798505 0.075556867 0.56
0.085258462 0.075556867 0.56
0.086718418 0.075556867 0.56
0.088178374 0.075556867 0.56
0.089638323 0.075556867 0.56
0.091098279 0.075556867 0.56
0.092558235 0.075556867 0.56
0.1100777 0.075556867 0.56
0.11299761 0.075556867 0.56
0.11445757 0.075556867 0.56
0.13032733 0.074612416 0.55300003
0.13176903 0.074612416 0.55300003
0.13296986 0.074477494 0.55200005
0.13440897 0.074477494 0.55200005
0.13560195 0.074342564 0.551
0.13991143 0.074342564 0.551
0.14134791 0.074342564 0.551
0.14565739 0.074342564 0.551
0.14879996 0.074477494 0.55200005
0.15023905 0.074477494 0.55200005
0.15167814 0.074477494 0.55200005
0.15916146 0.074612416 0.55300003
0.08102303 0.077154361 0.56100005
0.085562959 0.077291891 0.56200004
0.087028131 0.077291891 0.56200004
0.088493295 0.077291891 0.56200004
0.089958467 0.077291891 0.56200004
0.091423638 0.077291891 0.56200004
0.092723526 0.077154361 0.56100005
0.094018191 0.077016823 0.56
0.10569784 0.077016823 0.56
0.1071578 0.077016823 0.56
0.10861775 0.077016823 0.56
0.1100777 0.077016823 0.56
0.11153766 0.077016823 0.56
0.11299761 0.077016823 0.56
0.11445757 0.077016823 0.56
0.11591753 0.077016823 0.56
0.11737749 0.077016823 0.56
0.16060315 0.076054119 0.55300003
0.079560466 0.078616925 0.56100005
0.10881172 0.078616925 0.56100005
0.11027428 0.078616925 0.56100005
0.11173684 0.078616925 0.56100005
0.11466197 0.078616925 0.56100005
0.13032733 0.077495821 0.55300003
0.075172774 0.080079488 0.56100005
0.076635331 0.080079488 0.56100005
0.078097895 0.080079488 0.56100005
0.1075405 0.080222227 0.56200004
0.10900567 0.080222227 0.56200004
0.11047085 0.080222227 0.56200004
0.11193601 0.080222227 0.56200004
0.11340118 0.080222227 0.56200004
0.11486635 0.080222227 0.56200004
0.11633153 0.080222227 0.56200004
0.1175871 0.080079488 0.56100005
0.12911868 0.079080269 0.55400002
0.13032733 0.078937531 0.55300003
0.075306766 0.081687398 0.56200004
0.076771937 0.081687398 0.56200004
0.10461017 0.081687398 0.56200004
0.10607534 0.081687398 0.56200004
0.10773186 0.081832744 0.56300002
0.10919964 0.081832744 0.56300002
0.11066741 0.081832744 0.56300002
0.11193601 0.081687398 0.56200004
0.11340118 0.081687398 0.56200004
0.11486635 0.081687398 0.56200004
0.11633153 0.081687398 0.56200004
0.1177967 0.081687398 0.56200004
0.11904966 0.081542045 0.56100005
0.16378222 0.080524586 0.55400002
0.16522652 0.080524586 0.55400002
0.16667084 0.080524586 0.55400002
0.16811515 0.080524586 0.55400002
0.16955946 0.080524586 0.55400002
0.17100377 0.080524586 0.55400002
0.1724481 0.080524586 0.55400002
0.17389239 0.080524586 0.55400002
0.17533672 0.080524586 0.55400002
0.17678103 0.080524586 0.55400002
0.17822534 0.080524586 0.55400002
0.073841602 0.08315257 0.56200004
0.10773186 0.083300523 0.56300002
0.10939359 0.083448477 0.56400001
0.11066741 0.083300523 0.56300002
0.11213519 0.083300523 0.56300002
0.11360296 0.083300523 0.56300002
0.11507074 0.083300523 0.56300002
0.11653852 0.083300523 0.56300002
0.1177967 0.08315257 0.56200004
0.11926187 0.08315257 0.56200004
0.16667084 0.081968896 0.55400002
0.1724481 0.081968896 0.55400002
0.17533672 0.081968896 0.55400002
0.1180063 0.084768295 0.56300002
0.11926187 0.084617734 0.56200004
0.12072704 0.084617734 0.56200004
