# .PCD v0.7 - Point Cloud Data file format
VERSION 0.7
FIELDS x y z rgb
SIZE 4 4 4 4
TYPE F F F U
COUNT 1 1 1 1
WIDTH 256
HEIGHT 1
VIEWPOINT 0 0 0 1 0 0 0
POINTS 256
DATA ascii
-0.01370614 0.065535307 0.24139905 4278255360
0.0083498396 0.057060175 0.24268284 4278255360
0.027434848 0.04865133 0.2315027 4278255360
0.037952952 0.042774338 0.21113673 4278255360
0.028550185 0.049038321 0.24088955 4278255360
0.047493484 0.040661719 0.22944726 4278255360
0.057765104 0.034867655 0.20893227 4278255360
0.056353297 0.033355016 0.18535981 4278255360
0.063364647 0.033341151 0.21640366 4278255360
0.073388144 0.027630946 0.19574295 4278255360
0.071697578 0.026227852 0.17218205 4278255360
0.058788653 0.029543269 0.15262932 4278255360
0.080064774 0.023255801 0.17544761 4278255360
0.078095727 0.021962477 0.15190208 4278255360
0.064961232 0.025380474 0.13251795 4278255360
0.044512458 0.032507595 0.12297887 4278255360
0.052922919 0.039251674 0.23749278 4278255360
0.072150186 0.030811142 0.22658353 4278255360
0.082919501 0.02485002 0.2063739 4278255360
0.082073189 0.023116169 0.18278959 4278255360
0.088342302 0.02340503 0.21399048 4278255360
0.098866865 0.017525868 0.19362848 4278255360
0.097741388 0.015901053 0.17004807 4278255360
0.085295856 0.019006999 0.15016331 4278255360
0.10603419 0.012977736 0.17353958 4278255360
0.10462972 0.011462217 0.14996687 4278255360
0.091954455 0.014671803 0.13024433 4278255360
0.071724929 0.021665407 0.12015483 4278255360
0.10057508 0.01116631 0.12854043 4278255360
0.087672122 0.014479021 0.10898328 4278255360
0.067332722 0.0215391 0.099164613 4278255360
0.045520619 0.030276451 0.10196336 4278255360
0.10729021 0.01460386 0.19771586 4278255360
0.11830892 0.0085596126 0.17766599 4278255360
0.11774926 0.0067141475 0.15408161 4278255360
0.10577533 0.0096085761 0.13387792 4278255360
0.1259622 0.0038414898 0.15779676 4278255360
0.12512323 0.0021047746 0.1342124 4278255360
0.11291557 0.0051038354 0.11416444 4278255360
0.092918612 0.011959314 0.10353117 4278255360
0.12158127 0.001601661 0.11269911 4278255360
0.10914182 0.0047048726 0.092810117 4278255360
0.089028433 0.011629088 0.082444355 4278255360
0.067138582 0.020344051 0.084641173 4278255360
0.095490411 0.0085709989 0.076247752 4278255360
0.075263821 0.015562839 0.06615115 4278255360
0.053410538 0.024289571 0.068645231 4278255360
0.036338191 0.032192416 0.0829987 4278255360
0.1341836 -0.00151161 0.13319799 4278255360
0.1339107 -0.0034683777 0.10961752 4278255360
0.12217866 -0.00068181771 0.089257345 4278255360
0.10242745 0.0060310201 0.078087308 4278255360
0.13088374 -0.0041783662 0.08803156 4278255360
0.11891599 -0.0012866975 0.067823805 4278255360
0.099041864 0.0054970933 0.056917772 4278255360
0.077088691 0.014183924 0.058511224 4278255360
0.1056558 0.0023959798 0.050905619 4278255360
0.085661948 0.009249635 0.040265333 4278255360
0.063738219 0.017951066 0.042156707 4278255360
0.04631288 0.025948916 0.05602517 4278255360
0.066233464 0.016196042 0.033201233 4278255360
0.0443427 0.024910675 0.035390224 4278255360
0.027090145 0.032862294 0.049499203 4278255360
0.019534443 0.037719399 0.071391255 4278255360
-0.015175727 0.05972112 0.24190773 4278255360
0.0083014984 0.056868922 0.24269958 4278255360
0.028616311 0.053325593 0.23109375 4278255360
0.039812181 0.05013008 0.21049318 4278255360
0.029803516 0.053996928 0.24045573 4278255360
0.049967486 0.050449714 0.22859092 4278255360
0.06090099 0.047274288 0.20784682 4278255360
0.059398208 0.045401726 0.18430586 4278255360
0.066861361 0.047175325 0.21519333 4278255360
0.077530749 0.0440205 0.19430904 4278255360
0.075731248 0.042186417 0.17078586 4278255360
0.061990496 0.042210847 0.15152104 4278255360
0.084637612 0.041347492 0.1738648 4278255360
0.082541682 0.039552182 0.15036318 4278255360
0.068560824 0.039621685 0.131272 4278255360
0.04679437 0.041535616 0.12218902 4278255360
0.055746786 0.050423842 0.23651534 4278255360
0.076213017 0.046885096 0.22517724 4278255360
0.087676294 0.043669492 0.20472741 4278255360
0.086775444 0.041719884 0.18116198 4278255360
0.09344852 0.043606985 0.21222304 4278255360
0.10465127 0.040410947 0.1916263 4278255360
0.10345327 0.038499206 0.16807099 4278255360
0.090205774 0.0384323 0.1484638 4278255360
0.11228044 0.037690047 0.17137752 4278255360
0.11078548 0.035816476 0.14783613 4278255360
0.097293444 0.035794642 0.12839632 4278255360
0.075760365 0.037630953 0.11875802 4278255360
0.10646956 0.034486886 0.12650013 4278255360
0.092735164 0.034510128 0.10723078 4278255360
0.071085133 0.036384899 0.097865775 4278255360
0.047867496 0.039561491 0.10115102 4278255360
0.1136174 0.039636377 0.19552581 4278255360
0.12534614 0.036401231 0.17523018 4278255360
0.12475041 0.034413088 0.15165827 4278255360
0.11200491 0.034254897 0.13172165 4278255360
0.13349259 0.03363423 0.15519023 4278255360
0.13259956 0.031683631 0.13162458 4278255360
0.11960524 0.031570483 0.11184891 4278255360
0.098319724 0.033327956 0.10166166 4278255360
0.12882936 0.030277535 0.1101903 4278255360
0.11558833 0.030209446 0.090578757 4278255360
0.09417887 0.032005973 0.08066161 4278255360
0.070878483 0.035140354 0.083346665 4278255360
0.10105725 0.030595295 0.074320875 4278255360
0.079527296 0.032430585 0.064675413 4278255360
0.056265827 0.035586063 0.067656912 4278255360
0.038093369 0.039136499 0.082391173 4278255360
0.14224376 0.030377092 0.13040809 4278255360
0.14195326 0.02835075 0.1068337 4278255360
0.12946524 0.028146354 0.086735211 4278255360
0.10844129 0.029823838 0.076005705 4278255360
0.13873126 0.026869074 0.085315265 4278255360
0.12599233 0.026709694 0.065374441 4278255360
0.10483755 0.028426796 0.054911681 4278255360
0.081469752 0.031516902 0.056994785 4278255360
0.11187767 0.02701183 0.04875201 4278255360
0.090595454 0.028768273 0.038557675 4278255360
0.067258999 0.031880487 0.040938042 4278255360
0.048710808 0.035435937 0.055195164 4278255360
0.069915041 0.030761601 0.031926911 4278255360
0.046613675 0.033895422 0.034604162 4278255360
0.028249398 0.037448693 0.049097944 4278255360
0.020206818 0.04037955 0.071158528 4278255360
-0.015175743 0.053725451 0.24243228 4278255360
0.0083014984 0.056671698 0.24271683 4278255360
0.028616324 0.058145758 0.23067203 4278255360
0.039812203 0.05771542 0.20982955 4278255360
0.029803529 0.05911031 0.24000837 4278255360
0.049967512 0.060543224 0.22770785 4278255360
0.060901023 0.060068179 0.2067275 4278255360
0.059398241 0.057824459 0.18321902 4278255360
0.066861399 0.061441313 0.21394522 4278255360
0.077530794 0.060921635 0.19283038 4278255360
0.075731292 0.05864311 0.16934609 4278255360
0.061990533 0.055273827 0.15037818 4278255360
0.084637664 0.060003895 0.17223257 4278255360
0.082541734 0.05769093 0.14877623 4278255360
0.068560861 0.054307416 0.12998717 4278255360
0.046794396 0.050845433 0.12137452 4278255360
0.055746816 0.061944734 0.2355074 4278255360
0.076213062 0.063460775 0.22372706 4278255360
0.087676346 0.063076392 0.20302953 4278255360
0.086775497 0.060904291 0.17948356 4278255360
0.093448579 0.06443952 0.21040043 4278255360
0.10465134 0.064010359 0.18956162 4278255360
0.10345333 0.06180273 0.1660322 4278255360
0.090205833 0.058463939 0.14671127 4278255360
0.11228051 0.063173719 0.169148 4278255360
0.11078554 0.060930923 0.14563891 4278255360
0.097293504 0.057576805 0.12649062 4278255360
0.075760409 0.05409484 0.11731762 4278255360
0.10646963 0.058535382 0.12439617 4278255360
0.092735216 0.055166479 0.10542359 4278255360
0.07108517 0.051694088 0.096526392 4278255360
0.047867518 0.049136352 0.10031333 4278255360
0.11361746 0.065450251 0.19326739 4278255360
0.12534621 0.06511189 0.17271832 4278255360
0.12475049 0.062976621 0.14915928 4278255360
0.11200497 0.059670519 0.12949806 4278255360
0.13349266 0.064356916 0.15250236 4278255360
0.13259964 0.062185757 0.128956 4278255360
0.11960532 0.058863252 0.10946111 4278255360
0.098319784 0.055363592 0.099733792 4278255360
0.12882943 0.059848491 0.10760318 4278255360
0.1155884 0.056510113 0.08827775 4278255360
0.09417893 0.053018898 0.078823216 4278255360
0.070878521 0.05039851 0.082011752 4278255360
0.10105731 0.053307053 0.072333857 4278255360
0.079527341 0.049824841 0.063153617 4278255360
0.056265857 0.047235157 0.066637747 4278255360
0.038093388 0.04629733 0.081764676 4278255360
0.14224385 0.063261159 0.12753111 4278255360
0.14195335 0.061163072 0.103963 4278255360
0.12946531 0.057874363 0.084134348 4278255360
0.10844136 0.054359317 0.073859133 4278255360
0.13873135 0.058885619 0.082514182 4278255360
0.1259924 0.05557996 0.06284862 4278255360
0.10483762 0.05207222 0.052842978 4278255360
0.081469797 0.049390908 0.055431012 4278255360
0.11187774 0.052396037 0.046531182 4278255360
0.090595514 0.048896164 0.036796711 4278255360
0.067259043 0.0462447 0.039681338 4278255360
0.048710834 0.045219082 0.054339249 4278255360
0.069915079 0.045781806 0.030612813 4278255360
0.046613701 0.043160617 0.033793561 4278255360
0.028249411 0.042178243 0.048684165 4278255360
0.020206826 0.043122731 0.07091853 4278255360
-0.013706187 0.04791126 0.24294096 4278255360
0.0083498377 0.056480445 0.24273357 4278255360
0.027434887 0.062820025 0.2302631 4278255360
0.037953012 0.065071166 0.209186 4278255360
0.028550224 0.064068921 0.23957455 4278255360
0.047493562 0.070331231 0.22685151 4278255360
0.057765204 0.07247483 0.20564207 4278255360
0.056353394 0.06987118 0.18216506 4278255360
0.063364759 0.075275511 0.21273489 4278255360
0.073388271 0.077311218 0.19139649 4278255360
0.071697704 0.074601702 0.1679499 4278255360
0.058788754 0.06794142 0.14926991 4278255360
0.080064923 0.078095615 0.17064975 4278255360
0.078095868 0.075280659 0.14723735 4278255360
0.064961344 0.068548642 0.12874122 4278255360
0.044512529 0.059873465 0.12058467 4278255360
0.052923009 0.073116921 0.23452996 4278255360
0.072150312 0.079534747 0.22232077 4278255360
0.082919657 0.081895888 0.20138304 4278255360
0.082073338 0.079508029 0.17785595 4278255360
0.088342465 0.084641501 0.20863299 4278255360
0.098867051 0.086895466 0.18755943 4278255360
0.097741567 0.084400915 0.16405512 4278255360
0.085296012 0.077889264 0.14501177 4278255360
0.10603438 0.087886065 0.16698594 4278255360
0.10462991 0.085285217 0.1435082 4278255360
0.091954626 0.078699678 0.12464262 4278255360
0.071725063 0.070060402 0.11592082 4278255360
0.10057527 0.08185599 0.12235588 4278255360
0.087672286 0.075197615 0.1036711 4278255360
0.067332841 0.066539906 0.095227554 4278255360
0.045520693 0.058421407 0.099500991 4278255360
0.10729041 0.090482809 0.19107732 4278255360
0.11830914 0.092953548 0.1702825 4278255360
0.11774948 0.0906756 0.14673595 4278255360
0.10577553 0.084316872 0.12734179 4278255360
0.12596244 0.094149701 0.14989582 4278255360
0.12512347 0.091764659 0.12636818 4278255360
0.11291578 0.085329935 0.10714558 4278255360
0.092918783 0.076732263 0.097864278 4278255360
0.1215815 0.088524409 0.10509437 4278255360
0.10914203 0.082014717 0.08604639 4278255360
0.089028597 0.073395811 0.077040471 4278255360
0.067138702 0.065194838 0.080717243 4278255360
0.09549059 0.075331375 0.070406981 4278255360
0.075263955 0.066692613 0.061677877 4278255360
0.053410631 0.058531664 0.065649435 4278255360
0.036338247 0.053241421 0.081157148 4278255360
0.13418387 0.095149904 0.12474121 4278255360
0.13391095 0.09298224 0.10117919 4278255360
0.12217889 0.08670257 0.081612207 4278255360
0.10242764 0.078152165 0.07177753 4278255360
0.13088399 0.089933097 0.079797879 4278255360
0.11891621 0.083576389 0.060399257 4278255360
0.099042051 0.075001955 0.050836887 4278255360
0.077088825 0.066723906 0.053914573 4278255360
0.10565599 0.077011921 0.044377577 4278255360
0.085662104 0.06841483 0.035089053 4278255360
0.063738331 0.060174141 0.038462669 4278255360
0.046312958 0.054706119 0.053509243 4278255360
0.066233583 0.060347386 0.029338492 4278255360
0.044342775 0.052145377 0.033007499 4278255360
0.027090183 0.046764646 0.048282906 4278255360
0.019534463 0.045782886 0.070685796 4278255360
