# .PCD v0.7 - Point Cloud Data file format
VERSION 0.7
FIELDS x y z rgb
SIZE 4 4 4 4
TYPE F F F U
COUNT 1 1 1 1
WIDTH 1046
HEIGHT 1
VIEWPOINT 0 0 0 1 0 0 0
POINTS 1046
DATA ascii
0.092652373 0.0074645178 0.057603374 4278255360
0.086105086 0.0096988287 0.053484753 4278255360
0.07900203 0.012270045 0.050699517 4278255360
0.071584299 0.01509089 0.049342211 4278255360
0.064103693 0.018065615 0.049458906 4278255360
0.056814119 0.021093242 0.051045641 4278255360
0.04996302 0.024071006 0.054048553 4278255360
0.043782946 0.026897829 0.058365714 4278255360
0.038483672 0.029477758 0.063850582 4278255360
0.034245078 0.03172322 0.070316985 4278255360
0.12759507 0.0021633499 0.1552889 4278255360
0.1308534 0.00025009364 0.14817941 4278255360
0.13281944 -0.0012002141 0.14050782 4278255360
0.13342647 -0.0021383446 0.13253452 4278255360
0.13265385 -0.0025324537 0.12453014 4278255360
0.13052782 -0.0023691645 0.11676642 4278255360
0.12712057 -0.001654019 0.10950685 4278255360
0.12254772 -0.00041129225 0.10299788 4278255360
0.1169645 0.0013168328 0.097460419 4278255360
0.11056043 0.0034716972 0.09308245 4278255360
0.13238096 -0.00097816146 0.14105967 4278255360
0.13431953 -0.0024183597 0.13337918 4278255360
0.13489817 -0.0033455444 0.1254025 4278255360
0.13409726 -0.0037282438 0.11740036 4278255360
0.13194397 -0.0035534673 0.10964439 4278255360
0.12851138 -0.0028271475 0.10239787 4278255360
0.12391604 -0.0015739386 0.095906779 4278255360
0.11831389 0.00016362076 0.090391435 4278255360
0.11189512 0.0023265514 0.086039051 4278255360
0.1048776 0.0048414348 0.082997374 4278255360
0.13456653 -0.0031586955 0.12603591 4278255360
0.1351168 -0.0040749214 0.11805594 4278255360
0.1342876 -0.0044462052 0.11005615 4278255360
0.13210706 -0.004259944 0.10230807 4278255360
0.1286492 -0.0035224606 0.095074706 4278255360
0.12403142 -0.0022587876 0.088601589 4278255360
0.11841044 -0.00051181897 0.083108433 4278255360
0.11197706 0.0016591465 0.078781702 4278255360
0.10494965 0.0041804179 0.075768262 4278255360
0.097566746 0.0069664139 0.074170396 4278255360
0.13407451 -0.0043011652 0.11074874 4278255360
0.13321702 -0.0046610283 0.1027514 4278255360
0.13100928 -0.0044632852 0.095011324 4278255360
0.12752622 -0.0037146488 0.087791212 4278255360
0.12288606 -0.0024405299 0.081336163 4278255360
0.11724631 -0.00068417727 0.075865276 4278255360
0.1107984 0.0014947918 0.071564257 4278255360
0.10376121 0.0040224148 0.0685791 4278255360
0.096373603 0.0068128947 0.067011133 4278255360
0.088886328 0.0097715119 0.066913575 4278255360
0.13092229 -0.0043651825 0.095738597 4278255360
0.12868737 -0.0041559604 0.088006623 4278255360
0.12517914 -0.0033961814 0.080799878 4278255360
0.12051668 -0.0021116349 0.074362986 4278255360
0.11485825 -0.00034592379 0.068914451 4278255360
0.10839592 0.0018410174 0.064639211 4278255360
0.10134904 0.0043749553 0.061682377 4278255360
0.093956821 0.007169879 0.060144324 4278255360
0.086470172 0.010130918 0.060077257 4278255360
0.079143226 0.013157562 0.06148345 4278255360
0.12522133 -0.003348483 0.081536129 4278255360
0.12168797 -0.0025775726 0.074342854 4278255360
0.11700328 -0.0012826174 0.067924216 4278255360
0.11132625 0.00049242686 0.062498108 4278255360
0.10484958 0.0026873085 0.058248702 4278255360
0.097793125 0.0052275253 0.055320241 4278255360
0.090396404 0.0080268513 0.053812128 4278255360
0.082910486 0.010990269 0.053775553 4278255360
0.075589478 0.014017186 0.05521176 4278255360
0.068681873 0.017004861 0.058071997 4278255360
0.11717314 -0.0012870104 0.068643421 4278255360
0.11246628 1.8335073e-05 0.062243141 4278255360
0.10677072 0.0018026868 0.056839533 4278255360
0.10027982 0.0040054773 0.052616026 4278255360
0.093213886 0.0065519358 0.049715977 4278255360
0.08581277 0.0093556251 0.048237827 4278255360
0.078327693 0.012321378 0.048231743 4278255360
0.071012728 0.015348525 0.049697943 4278255360
0.064116165 0.018334314 0.052586652 4278255360
0.057872105 0.021177394 0.056799814 4278255360
0.10706227 0.0017463582 0.057516262 4278255360
0.10134828 0.0035399918 0.05213524 4278255360
0.094843231 0.0057506594 0.047937691 4278255360
0.087767921 0.0083033228 0.045066096 4278255360
0.080362521 0.011111334 0.043617927 4278255360
0.072878383 0.01407938 0.043642338 4278255360
0.065569565 0.017106712 0.045138508 4278255360
0.058684144 0.020090574 0.048055645 4278255360
0.052455839 0.02292968 0.052294731 4278255360
0.047096066 0.025527658 0.057711877 4278255360
0.095246136 0.0056443862 0.048548017 4278255360
0.088727035 0.0078628985 0.044376485 4278255360
0.081642456 0.010421731 0.041533388 4278255360
0.074232869 0.013234024 0.040115222 4278255360
0.066749796 0.01620432 0.040170129 4278255360
0.059447225 0.019231794 0.041696243 4278255360
0.052573044 0.022213684 0.044641767 4278255360
0.046360586 0.025048772 0.048906717 4278255360
0.041020729 0.027640825 0.054346319 4278255360
0.036734719 0.029901858 0.060775939 4278255360
0.082142487 0.010269269 0.042055734 4278255360
0.075048737 0.012834232 0.039241172 4278255360
0.067635082 0.015650766 0.037853029 4278255360
0.060153164 0.01862327 0.037938431 4278255360
0.052856956 0.021650841 0.039494473 4278255360
0.045994114 0.024630718 0.042468339 4278255360
0.039797593 0.027461749 0.046759088 4278255360
0.034477722 0.030047838 0.052221071 4278255360
0.030215081 0.032301202 0.058668889 4278255360
0.02715436 0.034145359 0.065883681 4278255360
-0.037934661 0.069559701 0.23253851 4278255360
-0.031165829 0.067945406 0.23658809 4278255360
-0.023825813 0.066047825 0.23929834 4278255360
-0.016163761 0.063931353 0.24057727 4278255360
-0.0084397504 0.061667848 0.24038145 4278255360
-0.0009159671 0.059334129 0.23871756 4278255360
0.0061522056 0.057009418 0.23564203 4278255360
0.012524846 0.054772619 0.2312593 4278255360
0.017985644 0.052699663 0.22571813 4278255360
0.022349237 0.050860908 0.21920659 4278255360
-0.024346912 0.066154487 0.2387853 4278255360
-0.016997699 0.064251721 0.24146684 4278255360
-0.0093317246 0.062131476 0.24271566 4278255360
-0.0016092033 0.059865735 0.24248937 4278255360
0.0059077339 0.057531398 0.24079566 4278255360
0.012963933 0.055207707 0.23769201 4278255360
0.019319881 0.052973535 0.23328377 4278255360
0.024759831 0.050904714 0.22772059 4278255360
0.029099133 0.049071472 0.22119129 4278255360
0.032190494 0.047536038 0.21391749 4278255360
-0.0099338321 0.062271148 0.24231058 4278255360
-0.0022640477 0.060147163 0.24352928 4278255360
0.0054568746 0.057879221 0.24327253 4278255360
0.012966856 0.055544302 0.24154902 4278255360
0.020010982 0.053221665 0.23841728 4278255360
0.026350144 0.050990146 0.23398361 4278255360
0.031769168 0.048925493 0.22839849 4278255360
0.036084116 0.047097791 0.22185151 4278255360
0.039148517 0.045569073 0.2145649 4278255360
0.040858354 0.044391233 0.20678601 4278255360
0.0047950451 0.058046959 0.24298973 4278255360
0.012514257 0.055776849 0.2427025 4278255360
0.020017175 0.053441379 0.24094923 4278255360
0.027049122 0.05111983 0.23778945 4278255360
0.033371408 0.048891 0.2333304 4278255360
0.038769431 0.046830542 0.22772343 4278255360
0.04305996 0.045008402 0.22115889 4278255360
0.046097357 0.043486428 0.21385957 4278255360
0.047778524 0.04231628 0.20607327 4278255360
0.048046399 0.04153768 0.19806427 4278255360
0.01931902 0.053631254 0.24079871 4278255360
0.026814768 0.051295273 0.23901571 4278255360
0.033834435 0.048974842 0.23582792 4278255360
0.040139757 0.046748731 0.23134357 4278255360
0.045516696 0.044692505 0.22571483 4278255360
0.049782746 0.042875953 0.21913281 4278255360
0.052793097 0.041360743 0.2118209 4278255360
0.054445568 0.0401983 0.2040273 4278255360
0.054684073 0.039428089 0.19601655 4278255360
0.053500507 0.039076246 0.18806058 4278255360
0.033124641 0.049180143 0.235815 4278255360
0.04013193 0.046860866 0.23259927 4278255360
0.04642019 0.044637509 0.22808966 4278255360
0.05177597 0.042585537 0.22243924 4278255360
0.056017481 0.040774606 0.21583983 4278255360
0.059000742 0.039266177 0.20851542 4278255360
0.060624495 0.038111463 0.20071465 4278255360
0.060833622 0.037349649 0.19270228 4278255360
0.059621025 0.037006602 0.18475029 4278255360
0.057027865 0.03709396 0.17712861 4278255360
0.045723844 0.044850979 0.2282148 4278255360
0.051994953 0.042630404 0.22368 4278255360
0.057329498 0.04058272 0.21800798 4278255360
0.061546404 0.038777426 0.21139129 4278255360
0.064502537 0.03727581 0.20405449 4278255360
0.066097543 0.03612883 0.19624664 4278255360
0.066277295 0.035375431 0.18823276 4278255360
0.065035686 0.03504118 0.18028489 4278255360
0.062414855 0.035137426 0.17267278 4278255360
0.058503773 0.035660896 0.16565484 4278255360
0.056671217 0.040796805 0.21826676 4278255360
0.06198445 0.038753435 0.21257322 4278255360
0.066176698 0.036953814 0.20593932 4278255360
0.069105648 0.035459023 0.19859025 4278255360
0.070671894 0.034319803 0.19077544 4278255360
0.070822261 0.033574827 0.18276016 4278255360
0.069551654 0.033249378 0.1748165 4278255360
0.066903204 0.033354502 0.1672141 4278255360
0.062966794 0.033886638 0.16021097 4278255360
0.057876058 0.034827713 0.15404487 4278255360
0.06557975 0.037160952 0.20632258 4278255360
0.069747277 0.035367023 0.19967158 4278255360
0.07264901 0.033879083 0.19231032 4278255360
0.074186467 0.032747637 0.18448867 4278255360
0.074307457 0.032011095 0.17647213 4278255360
0.073007867 0.031694453 0.1685328 4278255360
0.070331827 0.031808458 0.16094019 4278255360
0.066370152 0.032349247 0.15395199 4278255360
0.061257333 0.033298459 0.14780542 4278255360
0.055166908 0.034623872 0.14270914 4278255360
0.07213451 0.034071952 0.19280452 4278255360
0.075008988 0.032590885 0.18543118 4278255360
0.076517634 0.031467229 0.1776028 4278255360
0.076609239 0.030739129 0.16958509 4278255360
0.075280696 0.030431297 0.16165021 4278255360
0.072577097 0.030554183 0.1540675 4278255360
0.068590216 0.031103617 0.14709434 4278255360
0.063455388 0.032060947 0.14096741 4278255360
0.057346895 0.033393677 0.13589472 4278255360
0.050472096 0.035056572 0.13204841 4278255360
-0.015619871 0.063708723 0.23984052 4278255360
-0.0082894051 0.061816487 0.24258021 4278255360
-0.00063149264 0.059703927 0.24389002 4278255360
0.0070939274 0.057442743 0.24372549 4278255360
0.014624625 0.055109695 0.24209221 4278255360
0.021704979 0.05278397 0.23904562 4278255360
0.028094657 0.050544512 0.23468913 4278255360
0.033576768 0.048467342 0.22917062 4278255360
0.037965227 0.046622962 0.22267741 4278255360
0.041111074 0.045073975 0.2154299 4278255360
-0.0012306882 0.059842341 0.24348022 4278255360
0.0064312592 0.05772597 0.24475993 4278255360
0.014155306 0.055462521 0.24456494 4278255360
0.021679269 0.05312882 0.24290182 4278255360
0.028747754 0.050804082 0.23982704 4278255360
0.035120834 0.048567217 0.23544498 4278255360
0.04058218 0.046494149 0.22990438 4278255360
0.04494641 0.044655252 0.22339331 4278255360
0.04806539 0.043112945 0.21613277 4278255360
0.049833253 0.041919574 0.20836923 4278255360
0.013495472 0.055629224 0.24427691 4278255360
0.021218034 0.053363539 0.24405143 4278255360
0.028735153 0.05102922 0.24235849 4278255360
0.035791669 0.0487055 0.23925558 4278255360
0.042148057 0.046471257 0.23484802 4278255360
0.047588557 0.044402327 0.2292854 4278255360
0.051928498 0.042568941 0.22275658 4278255360
0.055020567 0.041033328 0.21548311 4278255360
0.056759804 0.039847616 0.20771194 4278255360
0.057087179 0.039052047 0.19970681 4278255360
0.028038006 0.051218316 0.24220243 4278255360
0.035548173 0.048883412 0.24047971 4278255360
0.042592615 0.046560746 0.23734871 4278255360
0.048932221 0.044329159 0.2329157 4278255360
0.054351799 0.042264398 0.22733116 4278255360
0.058667388 0.040436547 0.22078465 4278255360
0.061732497 0.038907655 0.21349838 4278255360
0.063443094 0.037729613 0.20571968 4278255360
0.063741103 0.036942411 0.19771259 4278255360
0.062616415 0.036572769 0.18974888 4278255360
0.041882802 0.046765558 0.23733012 4278255360
0.048915073 0.044443976 0.23417108 4278255360
0.055237804 0.042215075 0.22971269 4278255360
0.060636379 0.040154509 0.22410631 4278255360
0.064927556 0.038332224 0.21754222 4278255360
0.067965664 0.03681007 0.21024324 4278255360
0.069647588 0.035639718 0.20245713 4278255360
0.069916226 0.034860898 0.19444817 4278255360
0.068762474 0.034500036 0.18648823 4278255360
0.066225491 0.034569394 0.17884748 4278255360
0.054540418 0.042428356 0.22983223 4278255360
0.060846183 0.040202174 0.22534853 4278255360
0.066223681 0.038145833 0.21972038 4278255360
0.070490375 0.036329135 0.21313882 4278255360
0.073501438 0.034813747 0.20582724 4278255360
0.07515467 0.033651102 0.19803382 4278255360
0.075393945 0.032880668 0.19002312 4278255360
0.074211143 0.032528598 0.18206705 4278255360
0.071646415 0.032606836 0.17443565 4278255360
0.067786813 0.033112735 0.16738798 4278255360
0.065563373 0.038360044 0.21997383 4278255360
0.070919715 0.036307961 0.214324 4278255360
0.075161874 0.034496877 0.20772503 4278255360
0.078145847 0.032988273 0.20040096 4278255360
0.079770356 0.031833354 0.19260037 4278255360
0.079980254 0.03107132 0.18458804 4278255360
0.078768425 0.03072804 0.17663595 4278255360
0.076175988 0.030815167 0.16901402 4278255360
0.072290957 0.03132974 0.16198096 4278255360
0.067245193 0.032254297 0.15577552 4278255360
0.074561991 0.034704447 0.20810343 4278255360
0.078779548 0.032899007 0.20148718 4278255360
0.081736393 0.031397209 0.19415072 4278255360
0.083332159 0.03025003 0.18634304 4278255360
0.083512679 0.029496407 0.17832921 4278255360
0.082271829 0.029161924 0.17038122 4278255360
0.079651736 0.029257935 0.16276887 4278255360
0.075741313 0.02978118 0.15575053 4278255360
0.070673317 0.030713895 0.14956445 4278255360
0.064619765 0.032024425 0.14442061 4278255360
0.081218138 0.031590797 0.19464068 4278255360
0.084147811 0.030095829 0.18729192 4278255360
0.08571481 0.028956406 0.1794773 4278255360
0.08586596 0.028211206 0.17146207 4278255360
0.084596112 0.027885525 0.16351829 4278255360
0.081948385 0.027990418 0.15591562 4278255360
0.078012645 0.028522324 0.1489121 4278255360
0.072922491 0.029463187 0.14274549 4278255360
0.066850692 0.030781072 0.13762507 4278255360
0.060003363 0.032431245 0.13372467 4278255360
0.085296519 0.02912917 0.18006152 4278255360
0.086834729 0.027997522 0.17224005 4278255360
0.086956494 0.027260754 0.16422354 4278255360
0.085657671 0.026943881 0.15628409 4278255360
0.082982354 0.027057653 0.14869121 4278255360
0.079021342 0.027598213 0.14170262 4278255360
0.073909104 0.028547211 0.13555555 4278255360
0.067819156 0.029872432 0.13045864 4278255360
0.060958214 0.031528894 0.12658492 4278255360
0.053559169 0.033460375 0.12406585 4278255360
0.0074990015 0.057252377 0.24289612 4278255360
0.015152657 0.055143755 0.2442368 4278255360
0.022879371 0.052884933 0.24410355 4278255360
0.030416869 0.050552584 0.24250092 4278255360
0.037509296 0.048225883 0.2394833 4278255360
0.043915913 0.045983803 0.23515311 4278255360
0.049419254 0.043902446 0.22965737 4278255360
0.053832512 0.042052466 0.22318257 4278255360
0.05700589 0.040496655 0.21594854 4278255360
0.058831666 0.039287824 0.2082008 4278255360
0.022221571 0.053050585 0.24381033 4278255360
0.029947026 0.050789464 0.24364659 4278255360
0.037477899 0.04845643 0.2420141 4278255360
0.044558566 0.04613068 0.23896825 4278255360
0.050948679 0.043891158 0.23461244 4278255360
0.056431334 0.041813876 0.22909451 4278255360
0.060820431 0.039969351 0.22260177 4278255360
0.063966982 0.038420193 0.21535461 4278255360
0.065764189 0.037218984 0.207599 4278255360
0.066151045 0.036406498 0.19959824 4278255360
0.036781803 0.04864474 0.24185249 4278255360
0.044305943 0.046311054 0.24019016 4278255360
0.051374741 0.043986291 0.23711614 4278255360
0.057748258 0.041749354 0.23273475 4278255360
0.063210152 0.039676182 0.22719473 4278255360
0.067575023 0.03783714 0.22068413 4278255360
0.070694707 0.036294654 0.21342394 4278255360
0.072463326 0.035101082 0.20566058 4278255360
0.072820827 0.034296941 0.19765761 4278255360
0.071755081 0.033909522 0.18968664 4278255360
0.050664954 0.044190597 0.23709188 4278255360
0.057721786 0.04186685 0.23398972 4278255360
0.064078614 0.039632536 0.22958282 4278255360
0.069519669 0.037563499 0.22402079 4278255360
0.07386025 0.035729967 0.21749242 4278255360
0.076953024 0.034194175 0.21021929 4278255360
0.078693017 0.033008263 0.20244832 4278255360
0.079021163 0.032212473 0.19444324 4278255360
0.077926323 0.031833824 0.18647581 4278255360
0.075445659 0.031885169 0.17881645 4278255360
0.063380234 0.039845616 0.22969677 4278255360
0.069720283 0.037613958 0.22526443 4278255360
0.075140409 0.035549086 0.21968047 4278255360
0.079456642 0.033721089 0.21313442 4278255360
0.082522459 0.032192018 0.20584849 4278255360
0.084233806 0.031013776 0.19806997 4278255360
0.084532589 0.030226354 0.19006293 4278255360
0.083408669 0.029856483 0.18209913 4278255360
0.080900192 0.029916715 0.17444889 4278255360
0.077092305 0.030405009 0.16737191 4278255360
0.07447812 0.035763405 0.21992859 4278255360
0.07987725 0.033702731 0.21432278 4278255360
0.084169067 0.031880297 0.20775914 4278255360
0.087207884 0.030357966 0.20046051 4278255360
0.08889056 0.029187413 0.19267459 4278255360
0.08915998 0.028408369 0.18466568 4278255360
0.088006988 0.028047279 0.17670563 4278255360
0.085470736 0.028116399 0.16906464 4278255360
0.081637301 0.028613385 0.16200206 4278255360
0.076636806 0.029521365 0.15575765 4278255360
0.083566278 0.032088283 0.20813267 4278255360
0.087833621 0.030271439 0.20155156 4278255360
0.090845399 0.02875587 0.19424032 4278255360
0.092499383 0.027593024 0.18644708 4278255360
0.092739426 0.02682237 0.17843643 4278255360
0.091557391 0.026470065 0.17048025 4278255360
0.088993393 0.026548073 0.16284861 4278255360
0.085134462 0.027053742 0.15580055 4278255360
0.080111593 0.02796991 0.14957532 4278255360
0.074095272 0.029265476 0.14438422 4278255360
0.090323426 0.02895017 0.19472603 4278255360
0.093308121 0.027441386 0.18740228 4278255360
0.094933383 0.026286261 0.17960188 4278255360
0.095144056 0.025524007 0.17158958 4278255360
0.093932986 0.025180496 0.16363738 4278255360
0.091341279 0.025267389 0.1560152 4278255360
0.087456919 0.025781736 0.14898176 4278255360
0.082411736 0.026706075 0.14277582 4278255360
0.076376997 0.028009037 0.13760799 4278255360
0.06955754 0.029646389 0.13365373 4278255360
0.094510682 0.026460005 0.18018262 4278255360
0.096107207 0.025312621 0.17237514 4278255360
0.096288502 0.024558777 0.16436134 4278255360
0.09504842 0.024224063 0.15641324 4278255360
0.092429049 0.024319839 0.14880063 4278255360
0.088519298 0.024842855 0.14178191 4278255360
0.083451889 0.025775356 0.13559532 4278255360
0.077398814 0.027085692 0.13045086 4278255360
0.070565552 0.028729385 0.12652314 4278255360
0.063184045 0.030650638 0.1239455 4278255360
0.095980018 0.024705822 0.16501658 4278255360
0.096131936 0.0239604 0.15700138 4278255360
0.094862856 0.023634488 0.14905749 4278255360
0.092215851 0.023739146 0.14145456 4278255360
0.088280775 0.024270823 0.13445066 4278255360
0.083191201 0.025211474 0.12828353 4278255360
0.077119887 0.026529165 0.12316249 4278255360
0.070272915 0.028179171 0.1192614 4278255360
0.062882699 0.030105485 0.11671264 4278255360
0.055200085 0.032242719 0.11560276 4278255360
0.030669952 0.050400678 0.24160591 4278255360
0.038397841 0.048144251 0.24150395 4278255360
0.045942023 0.045812644 0.23993199 4278255360
0.053046416 0.043485001 0.23694338 4278255360
0.059469879 0.041240331 0.23263958 4278255360
0.064994365 0.03915482 0.22716667 4278255360
0.069432355 0.037299268 0.2207104 4278255360
0.072633207 0.035736654 0.21348995 4278255360
0.074488275 0.034520023 0.20575041 4278255360
0.074934594 0.033690665 0.19775446 4278255360
0.045247015 0.046000153 0.23976487 4278255360
0.052784685 0.043667827 0.23816302 4278255360
0.059877422 0.0413411 0.23514614 4278255360
0.06628447 0.039098952 0.23081663 4278255360
0.071788356 0.037017487 0.22532147 4278255360
0.076202251 0.035167363 0.21884716 4278255360
0.079376332 0.03361138 0.21161346 4278255360
0.081202857 0.032402348 0.20386595 4278255360
0.081619829 0.031581312 0.19586755 4278255360
0.080613099 0.031176139 0.1878898 4278255360
0.059167702 0.041544888 0.23511621 4278255360
0.066248678 0.039219111 0.23207112 4278255360
0.072639227 0.036979523 0.22771597 4278255360
0.07812243 0.034902133 0.22219864 4278255360
0.082512163 0.033057466 0.21570636 4278255360
0.085659422 0.031508129 0.20845954 4278255360
0.087457381 0.030306721 0.20070414 4278255360
0.087845013 0.029494015 0.19270344 4278255360
0.086809143 0.029097602 0.18472898 4278255360
0.084384955 0.029130934 0.17705145 4278255360
0.071939886 0.037192389 0.22782432 4278255360
0.078313842 0.034955386 0.2234436 4278255360
0.08377628 0.032882102 0.21790417 4278255360
0.088141792 0.031042917 0.21139403 4278255360
0.091262184 0.029500255 0.20413418 4278255360
0.093031555 0.028306484 0.19637103 4278255360
0.093389824 0.027502121 0.18836811 4278255360
0.092324853 0.027114471 0.18039706 4278255360
0.08987277 0.027156694 0.17272845 4278255360
0.086116828 0.027627354 0.16562256 4278255360
0.083112046 0.033096522 0.21814694 4278255360
0.088553645 0.031027377 0.21258548 4278255360
0.092894867 0.029193699 0.20605758 4278255360
0.095988356 0.027657734 0.1987848 4278255360
0.097729094 0.026471617 0.19101402 4278255360
0.098058015 0.025675608 0.183009 4278255360
0.096963942 0.025296731 0.17504147 4278255360
0.094484009 0.025347842 0.16738187 4278255360
0.090702407 0.025827207 0.1602902 4278255360
0.08574748 0.026718557 0.15400718 4278255360
0.092289217 0.029402092 0.2064262 4278255360
0.096606083 0.027573951 0.19988063 4278255360
0.099672616 0.026044702 0.19259502 4278255360
0.10138471 0.024866257 0.18481672 4278255360
0.10168427 0.024078615 0.17680971 4278255360
0.10056112 0.023708513 0.16884582 4278255360
0.098053373 0.023768513 0.16119535 4278255360
0.094246157 0.024256578 0.15411799 4278255360
0.089268707 0.02515614 0.14785397 4278255360
0.083289981 0.026436666 0.14261591 4278255360
0.099146962 0.026239699 0.19307648 4278255360
0.10218649 0.024717191 0.18577816 4278255360
0.10386992 0.023546435 0.17799243 4278255360
0.10414012 0.022767171 0.16998357 4278255360
0.10298789 0.02240585 0.16202343 4278255360
0.10045236 0.022474738 0.15438218 4278255360
0.096619599 0.022971494 0.14731923 4278255360
0.0916197 0.023879258 0.14107431 4278255360
0.085622378 0.025167216 0.13585939 4278255360
0.078831196 0.026791651 0.13185149 4278255360
0.10344285 0.023721145 0.17856967 4278255360
0.10509758 0.022558095 0.17077665 4278255360
0.1053384 0.021787219 0.16276604 4278255360
0.10415713 0.021434685 0.15480976 4278255360
0.10159386 0.021512458 0.14717786 4278255360
0.097735606 0.022017898 0.14012942 4278255360
0.092713319 0.02293385 0.13390368 4278255360
0.086697489 0.024229223 0.12871197 4278255360
0.079892308 0.025860045 0.12473051 4278255360
0.072528765 0.027770961 0.12209444 4278255360
0.10502501 0.021935463 0.16341867 4278255360
0.10523645 0.021172987 0.15540643 4278255360
0.10402615 0.020829245 0.14745413 4278255360
0.10143517 0.020915905 0.13983169 4278255360
0.097551472 0.021430021 0.13279787 4278255360
0.092506878 0.022354148 0.1265914 4278255360
0.086472623 0.023656914 0.12142297 4278255360
0.079653531 0.025294099 0.117468 4278255360
0.07228107 0.027210131 0.11486075 4278255360
0.064605489 0.029339973 0.11368971 4278255360
0.1038375 0.020945784 0.14815907 4278255360
0.10259818 0.020610839 0.14021087 4278255360
0.099979535 0.020706382 0.132598 4278255360
0.096070454 0.021229168 0.1255789 4278255360
0.091003627 0.022161456 0.11939179 4278255360
0.084951036 0.023471598 0.11424671 4278255360
0.078118138 0.025115123 0.1103183 4278255360
0.070736855 0.027036242 0.1077399 4278255360
0.06305775 0.029169749 0.10659903 4278255360
0.055341467 0.031443223 0.10693443 4278255360
0.053139277 0.043376498 0.23601185 4278255360
0.06069003 0.041045662 0.23447058 4278255360
0.067806281 0.038717113 0.23151104 4278255360
0.074246489 0.036469884 0.22723366 4278255360
0.079792038 0.034380257 0.22178367 4278255360
0.08425469 0.032519162 0.21534604 4278255360
0.087482974 0.030949768 0.20813929 4278255360
0.089367308 0.029725349 0.20040803 4278255360
0.089843728 0.028887467 0.19241472 4278255360
0.088896066 0.028464563 0.18443066 4278255360
0.067096673 0.038920376 0.23147544 4278255360
0.074201375 0.036592707 0.22848758 4278255360
0.080625266 0.03434797 0.22418445 4278255360
0.086150296 0.032262355 0.21871212 4278255360
0.09058892 0.030406661 0.21225634 4278255360
0.093790479 0.028843872 0.20503624 4278255360
0.095646292 0.02762704 0.1972969 4278255360
0.096093379 0.026797466 0.18930103 4278255360
0.095116556 0.026383309 0.18132003 4278255360
0.092748985 0.026398625 0.1736248 4278255360
0.079925008 0.034560613 0.22428718 4278255360
0.086332493 0.032318398 0.21995836 4278255360
0.091836922 0.030236829 0.21446377 4278255360
0.09625145 0.028386561 0.20798993 4278255360
0.09942624 0.026830401 0.20075659 4278255360
0.10125352 0.02562117 0.19300927 4278255360
0.10167126 0.024799915 0.18501095 4278255360
0.10066529 0.02439451 0.17703313 4278255360
0.098269761 0.024418719 0.16934657 4278255360
0.094565973 0.024871718 0.16221222 4278255360
0.09117078 0.030451335 0.21470119 4278255360
0.096654527 0.028373839 0.20918442 4278255360
0.10104489 0.026529027 0.20269263 4278255360
0.10419286 0.024979517 0.19544615 4278255360
0.10599157 0.023777908 0.18769096 4278255360
0.10637997 0.022964982 0.17969032 4278255360
0.10534488 0.022568338 0.17171577 4278255360
0.10292142 0.022601437 0.16403802 4278255360
0.099191867 0.023063155 0.15691766 4278255360
0.094282806 0.023937821 0.15059641 4278255360
0.10043641 0.026737813 0.20305634 4278255360
0.10480256 0.024898482 0.19654666 4278255360
0.10792366 0.023355646 0.18928716 4278255360
0.10969378 0.022161672 0.18152422 4278255360
0.11005282 0.021357089 0.17352135 4278255360
0.10898861 0.02096921 0.1655502 4278255360
0.10653727 0.021011198 0.15788135 4278255360
0.102782 0.021481629 0.1507751 4278255360
0.097850271 0.022364536 0.14447267 4278255360
0.091909483 0.023629947 0.13918798 4278255360
0.10739435 0.02355133 0.18976429 4278255360
0.11048854 0.022015188 0.18249185 4278255360
0.11223004 0.020828869 0.17472127 4278255360
0.11255973 0.020032642 0.16671631 4278255360
0.11146642 0.019653533 0.15874869 4278255360
0.10898723 0.019704409 0.15108885 4278255360
0.10520629 0.020183546 0.14399679 4278255360
0.10025197 0.021074679 0.13771327 4278255360
0.09429241 0.02234756 0.13245156 4278255360
0.087529913 0.023958981 0.12839027 4278255360
0.11179861 0.021004535 0.17529498 4278255360
0.11351147 0.019825887 0.16751686 4278255360
0.11381179 0.019038025 0.15950991 4278255360
0.11268941 0.018667692 0.15154591 4278255360
0.11018239 0.018727457 0.14389521 4278255360
0.10637585 0.019215293 0.13681747 4278255360
0.10139899 0.020114642 0.13055295 4278255360
0.095420755 0.021394972 0.12531428 4278255360
0.088644058 0.023012828 0.12127931 4278255360
0.081298925 0.024913292 0.11858498 4278255360
0.1134935 0.019187462 0.1601599 4278255360
0.11376446 0.018407978 0.15215109 4278255360
0.112613 0.018046426 0.14419083 4278255360
0.11007821 0.018115079 0.13654935 4278255360
0.10624611 0.018611606 0.12948602 4278255360
0.1012468 0.019519154 0.1232406 4278255360
0.095249966 0.020806918 0.11802506 4278255360
0.088459164 0.022431184 0.11401647 4278255360
0.081104897 0.02433682 0.11135087 4278255360
0.073436789 0.026459143 0.11011876 4278255360
0.1124191 0.01816435 0.14489414 4278255360
0.11123858 0.017811583 0.13693775 4278255360
0.10867605 0.017889123 0.1293056 4278255360
0.10481846 0.018394336 0.12225679 4278255360
0.099796765 0.019310072 0.11603054 4278255360
0.093781419 0.020605249 0.11083821 4278255360
0.086976603 0.022235902 0.10685606 4278255360
0.079613298 0.024146684 0.10421924 4278255360
0.07194145 0.026272733 0.10301726 4278255360
0.064221464 0.028541882 0.10329091 4278255360
0.10861339 0.017971367 0.13003734 4278255360
0.10602314 0.018057792 0.12241466 4278255360
0.10214011 0.01857168 0.11538045 4278255360
0.0970961 0.019495592 0.10917348 4278255360
0.09106233 0.020798163 0.10400443 4278255360
0.084243603 0.022435181 0.10004877 4278255360
0.076871373 0.024351079 0.097440757 4278255360
0.069195889 0.026480824 0.09626893 4278255360
0.061477672 0.028752124 0.096573055 4278255360
0.053978719 0.031087883 0.098342814 4278255360
0.074176103 0.036408309 0.2262959 4278255360
0.081304111 0.034078889 0.22336546 4278255360
0.087760955 0.031829137 0.2191146 4278255360
0.093327485 0.029735422 0.2136876 4278255360
0.097814739 0.027868809 0.20726869 4278255360
0.1010704 0.026292659 0.20007573 4278255360
0.10298397 0.025060477 0.19235291 4278255360
0.10349049 0.024214081 0.18436234 4278255360
0.10257276 0.023782205 0.17637525 4278255360
0.10026194 0.023779508 0.16866279 4278255360
0.087059833 0.032041542 0.21921171 4278255360
0.093500465 0.029794248 0.21493502 4278255360
0.099046551 0.027704516 0.20948561 4278255360
0.10350984 0.025843278 0.20304845 4278255360
0.10673883 0.02427371 0.19584206 4278255360
0.10862391 0.023049094 0.18811102 4278255360
0.1091011 0.022210993 0.18011777 4278255360
0.1081542 0.021787858 0.17213362 4278255360
0.10581536 0.021794051 0.16442961 4278255360
0.10216395 0.022229364 0.15726721 4278255360
0.098378539 0.027919095 0.20971765 4278255360
0.10390411 0.025833376 0.20424591 4278255360
0.10834336 0.023977537 0.19779059 4278255360
0.11154563 0.022414576 0.19057085 4278255360
0.1134022 0.021197543 0.18283172 4278255360
0.11385006 0.020367749 0.17483591 4278255360
0.112874 0.019953361 0.16685481 4278255360
0.11050716 0.019968446 0.15915936 4278255360
0.10682987 0.02041249 0.15201077 4278255360
0.10196697 0.02127042 0.14565165 4278255360
0.10773209 0.024186704 0.19814937 4278255360
0.11214725 0.022336293 0.19167599 4278255360
0.11532274 0.02077996 0.184443 4278255360
0.11715077 0.019570528 0.1766959 4278255360
0.11756928 0.018749053 0.16869764 4278255360
0.11656409 0.018343419 0.16071972 4278255360
0.11416929 0.018367393 0.15303294 4278255360
0.11046618 0.018820163 0.14589822 4278255360
0.10558046 0.01968636 0.13955775 4278255360
0.099677972 0.02093658 0.13422674 4278255360
0.1147898 0.02097632 0.18491581 4278255360
0.11793847 0.019426635 0.17766967 4278255360
0.11973794 0.018224822 0.16991469 4278255360
0.1201271 0.017411679 0.1619141 4278255360
0.11909278 0.017014803 0.15393947 4278255360
0.11667006 0.017047668 0.14626148 4278255360
0.11294118 0.017509157 0.13914077 4278255360
0.10803272 0.018383607 0.13281901 4278255360
0.10211129 0.019641334 0.12751083 4278255360
0.095377877 0.021239646 0.12339637 4278255360
0.11930218 0.018401435 0.17048483 4278255360
0.12107305 0.017207259 0.16272208 4278255360
0.12143287 0.016402459 0.15471928 4278255360
0.12036943 0.016014347 0.14674805 4278255360
0.11791881 0.016056102 0.13907896 4278255360
0.11416422 0.016526304 0.13197234 4278255360
0.10923309 0.017408993 0.1256694 4278255360
0.10329279 0.018674208 0.12038411 4278255360
0.096544981 0.020279001 0.11629587 4278255360
0.089218698 0.022168903 0.11354342 4278255360
0.1211097 0.016553078 0.15536658 4278255360
0.12144016 0.015756629 0.14736167 4278255360
0.12034762 0.01537729 0.13939396 4278255360
0.11786915 0.015427933 0.13173388 4278255360
0.11408889 0.015906841 0.12464146 4278255360
0.10913516 0.016797757 0.11835743 4278255360
0.1031761 0.018070443 0.11309511 4278255360
0.096413985 0.019681694 0.10903312 4278255360
0.089078344 0.021576822 0.10630934 4278255360
0.081418179 0.023691498 0.10501622 4278255360
0.12014846 0.015496592 0.14009555 4278255360
0.11902683 0.015126028 0.13213144 4278255360
0.11652055 0.015185559 0.12448049 4278255360
0.11271469 0.015673166 0.11740237 4278255360
0.10773842 0.016572298 0.11113735 4278255360
0.10176067 0.017852433 0.10589809 4278255360
0.094984345 0.01947012 0.10186242 4278255360
0.087639458 0.021370448 0.099167332 4278255360
0.079975322 0.023488913 0.097904302 4278255360
0.07225208 0.025753606 0.098116212 4278255360
0.11645245 0.015269328 0.12521157 4278255360
0.11391838 0.015337747 0.11756984 4278255360
0.11008696 0.015834047 0.11050613 4278255360
0.10508824 0.016741378 0.1042602 4278255360
0.099091887 0.018028947 0.099044055 4278255360
0.092301451 0.019653045 0.095034763 4278255360
0.084947422 0.021558546 0.092368416 4278255360
0.077279426 0.023680769 0.091135502 4278255360
0.069557734 0.025947677 0.091377892 4278255360
0.062044457 0.028282326 0.093087345 4278255360
0.11015231 0.015879318 0.11124084 4278255360
0.1062954 0.016384302 0.10419164 4278255360
0.10127429 0.017299823 0.097964883 4278255360
0.095259428 0.018594805 0.092771947 4278255360
0.088454977 0.020225292 0.088789091 4278255360
0.081091911 0.022135938 0.08615151 4278255360
0.07342016 0.024261888 0.084948741 4278255360
0.065700129 0.026530981 0.085221596 4278255360
0.058193866 0.028866194 0.086960822 4278255360
0.051156159 0.031188261 0.090107381 4278255360
0.093096144 0.02972278 0.2127741 4278255360
0.099569544 0.02747054 0.20854981 4278255360
0.10515697 0.025372768 0.20314589 4278255360
0.10966875 0.023500668 0.1967458 4278255360
0.11295174 0.021917788 0.18956678 4278255360
0.11489452 0.020677857 0.18185247 4278255360
0.11543113 0.019822961 0.17386478 4278255360
0.11454336 0.019382121 0.16587481 4278255360
0.11226133 0.019370299 0.15815377 4278255360
0.10866253 0.019787896 0.15096375 4278255360
0.10448712 0.025587408 0.20337255 4278255360
0.11005419 0.023493586 0.19794615 4278255360
0.11454207 0.021626834 0.19152771 4278255360
0.11779844 0.020050513 0.18433511 4278255360
0.11971276 0.018818129 0.17661251 4278255360
0.12022004 0.017971516 0.16862202 4278255360
0.11930308 0.01753941 0.16063486 4278255360
0.116993 0.017536478 0.15292217 4278255360
0.11336821 0.017962821 0.14574572 4278255360
0.10855176 0.018803967 0.13934915 4278255360
0.11392803 0.021836368 0.19188152 4278255360
0.11839195 0.019974988 0.18544483 4278255360
0.12162164 0.018405249 0.17823879 4278255360
0.12350747 0.017180432 0.17050797 4278255360
0.12398543 0.016342113 0.16251479 4278255360
0.12303931 0.015918748 0.15453057 4278255360
0.12070119 0.015924707 0.14682633 4278255360
0.11705048 0.016359789 0.13966358 4278255360
0.11221106 0.017209224 0.13328543 4278255360
0.10634721 0.01844418 0.12790842 4278255360
0.12108511 0.018602272 0.17870723 4278255360
0.12428807 0.017039137 0.17148784 4278255360
0.12614539 0.015821904 0.16374892 4278255360
0.12659402 0.014991892 0.15575317 4278255360
0.12561873 0.014577273 0.147772 4278255360
0.12325263 0.014592123 0.14007632 4278255360
0.11957603 0.015035938 0.13292736 4278255360
0.11471373 0.015893651 0.12656775 4278255360
0.10883076 0.017136151 0.12121341 4278255360
0.10212684 0.018721258 0.11704604 4278255360
0.12570533 0.015999451 0.16431545 4278255360
0.12753411 0.01478982 0.15656854 4278255360
0.12795341 0.013968126 0.14857034 4278255360
0.12694897 0.013562261 0.14059234 4278255360
0.12455491 0.013586001 0.13290533 4278255360
0.12085248 0.014038541 0.12577026 4278255360
0.11596736 0.01490452 0.11942929 4278255360
0.11006537 0.016154544 0.11409768 4278255360
0.10334685 0.01774618 0.1099564 4278255360
0.096039839 0.019625405 0.10714601 4278255360
0.12762538 0.014119919 0.14921492 4278255360
0.12801532 0.013306556 0.14121439 4278255360
0.12698177 0.01290945 0.13323967 4278255360
0.12455977 0.01294208 0.12556145 4278255360
0.12083157 0.01340334 0.11844036 4278255360
0.11592371 0.014277573 0.11211812 4278255360
0.11000277 0.015535102 0.10680933 4278255360
0.10326974 0.017133243 0.10269418 4278255360
0.095953166 0.01901775 0.099912375 4278255360
0.08830139 0.021124655 0.098558322 4278255360
0.12677737 0.013030124 0.13393952 4278255360
0.12571467 0.012641783 0.12596819 4278255360
0.1232648 0.012683303 0.11829887 4278255360
0.11951088 0.013153275 0.11119188 4278255360
0.11458035 0.014035748 0.10488845 4278255360
0.10864055 0.015300767 0.09960255 4278255360
0.10189312 0.01690539 0.095513612 4278255360
0.094567075 0.018795153 0.092760414 4278255360
0.086911105 0.020905908 0.091436423 4278255360
0.079185076 0.02316601 0.091586575 4278255360
0.12319126 0.012768591 0.11902924 4278255360
0.12071352 0.012819001 0.11136892 4278255360
0.11693394 0.01329768 0.10427613 4278255360
0.1119808 0.01418838 0.097991608 4278255360
0.10602223 0.015460867 0.092728689 4278255360
0.099260494 0.017071949 0.088666007 4278255360
0.091925092 0.018966941 0.085941464 4278255360
0.084265038 0.021081517 0.084647551 4278255360
0.076540329 0.0233439 0.084828183 4278255360
0.069013178 0.025677299 0.086477228 4278255360
0.11699385 0.013344567 0.10501121 4278255360
0.11318866 0.013831945 0.097932711 4278255360
0.10821299 0.01473086 0.09166719 4278255360
0.10223573 0.0160108 0.086427316 4278255360
0.095459774 0.017628318 0.082390949 4278255360
0.088115133 0.01952851 0.079695106 4278255360
0.080451094 0.021646874 0.078431293 4278255360
0.072727822 0.023911508 0.078642398 4278255360
0.065207459 0.02624554 0.080321267 4278255360
0.058145285 0.028569745 0.083410911 4278255360
0.10840423 0.014737689 0.092380986 4278255360
0.1034061 0.015644806 0.086134553 4278255360
0.097410239 0.016932178 0.080917798 4278255360
0.090620175 0.018556109 0.076907814 4278255360
0.083266385 0.020461474 0.074240707 4278255360
0.075598486 0.022583598 0.073007002 4278255360
0.067876756 0.024850449 0.073248588 4278255360
0.060363293 0.027185082 0.074957252 4278255360
0.053313144 0.02950825 0.078075007 4278255360
0.046965607 0.031741094 0.082496017 4278255360
0.10928398 0.023537373 0.19588628 4278255360
0.11489221 0.021435576 0.19050555 4278255360
0.11942845 0.019558016 0.18412438 4278255360
0.12273873 0.017968429 0.17695937 4278255360
0.12471068 0.01672077 0.16925372 4278255360
0.12527737 0.015857387 0.16126901 4278255360
0.12441956 0.015407588 0.15327626 4278255360
0.12216638 0.015386642 0.14554679 4278255360
0.1185943 0.015795259 0.13834295 4278255360
0.11382456 0.016619569 0.13190927 4278255360
0.11881168 0.019767908 0.18447319 4278255360
0.1233241 0.017895669 0.17807359 4278255360
0.12660779 0.016312616 0.17089491 4278255360
0.12855132 0.015072486 0.16318083 4278255360
0.1290887 0.014217374 0.15519321 4278255360
0.12820169 0.013776303 0.14720316 4278255360
0.12592041 0.013764247 0.13948192 4278255360
0.12232229 0.014181615 0.13229154 4278255360
0.11752946 0.01501424 0.12587611 4278255360
0.11170461 0.016233858 0.1204534 4278255360
0.1260677 0.016510293 0.17135896 4278255360
0.12932476 0.014933798 0.16416672 4278255360
0.13123983 0.013701216 0.15644433 4278255360
0.13174789 0.012854385 0.14845391 4278255360
0.1308317 0.012422049 0.14046668 4278255360
0.12852237 0.012418884 0.13275376 4278255360
0.12489825 0.012844997 0.12557696 4278255360
0.12008239 0.013685924 0.11917989 4278255360
0.11423826 0.014913121 0.11377969 4278255360
0.10756421 0.016484931 0.10955966 4278255360
0.13079549 0.013879688 0.15700722 4278255360
0.13268209 0.012654672 0.1492766 4278255360
0.13316081 0.011816135 0.1412835 4278255360
0.13221546 0.01139254 0.1332992 4278255360
0.12987807 0.011398266 0.12559474 4278255360
0.12622803 0.011833117 0.11843162 4278255360
0.12138923 0.012682335 0.11205299 4278255360
0.11552589 0.013917092 0.10667538 4278255360
0.10883705 0.015495478 0.10248131 4278255360
0.10154974 0.017363915 0.099613138 4278255360
0.13282795 0.011969094 0.14192532 4278255360
0.13327736 0.011138863 0.13392964 4278255360
0.13230284 0.010724015 0.12594838 4278255360
0.12993747 0.010738631 0.11825248 4278255360
0.12626155 0.011182216 0.11110315 4278255360
0.12139984 0.012039712 0.10474306 4278255360
0.11551739 0.013282012 0.099388108 4278255360
0.10881384 0.014866949 0.095220059 4278255360
0.10151677 0.016740723 0.092380382 4278255360
0.093873836 0.018839732 0.09096548 4278255360
0.13209321 0.010846053 0.12664644 4278255360
0.13108954 0.010439957 0.11866836 4278255360
0.12869622 0.010463465 0.11098113 4278255360
0.12499446 0.010915776 0.10384568 4278255360
0.12010995 0.011781537 0.097504221 4278255360
0.11420845 0.013031363 0.092172012 4278255360
0.10749031 0.014622828 0.08803004 4278255360
0.10018355 0.016501913 0.085218906 4278255360
0.092536204 0.018604834 0.083834022 4278255360
0.084807843 0.02086021 0.083922401 4278255360
0.12861723 0.010550268 0.11171076 4278255360
0.12619598 0.010582665 0.1040323 4278255360
0.12246846 0.011043696 0.096910842 4278255360
0.11756119 0.01191771 0.090588108 4278255360
0.11164075 0.013175042 0.08527872 4278255360
0.10490811 0.014773014 0.081162885 4278255360
0.09759178 0.016657382 0.078380324 4278255360
0.089940116 0.018764185 0.077025481 4278255360
0.08221285 0.02102191 0.07714434 4278255360
0.074672267 0.023353921 0.078732878 4278255360
0.12252292 0.011092195 0.097646244 4278255360
0.11876968 0.011561939 0.090538874 4278255360
0.11383974 0.012444194 0.084234953 4278255360
0.10790043 0.013709015 0.078948453 4278255360
0.10115338 0.015313469 0.074858822 4278255360
0.09382759 0.017203093 0.072104871 4278255360
0.086171724 0.019313747 0.070780091 4278255360
0.078445666 0.021573789 0.070929438 4278255360
0.070911653 0.023906501 0.072547846 4278255360
0.063825421 0.026232706 0.075580381 4278255360
0.11402571 0.012452676 0.084950127 4278255360
0.10907316 0.01334316 0.078665107 4278255360
0.10311509 0.014615451 0.073401578 4278255360
0.096353725 0.016226364 0.069338202 4278255360
0.089018568 0.018121218 0.066612907 4278255360
0.081358619 0.020235693 0.065318204 4278255360
0.073633872 0.022498017 0.065498032 4278255360
0.066106543 0.024831399 0.067146294 4278255360
0.059032135 0.027156632 0.07020703 4278255360
0.052650776 0.029394794 0.074576363 4278255360
0.103426 0.014583615 0.074071236 4278255360
0.097449236 0.015863359 0.068830758 4278255360
0.090673655 0.017480707 0.064793698 4278255360
0.083329253 0.019380761 0.062097099 4278255360
0.075665325 0.021499028 0.060832489 4278255360
0.067942008 0.023763603 0.061042797 4278255360
0.060421467 0.02609762 0.06272088 4278255360
0.053358976 0.028421851 0.065809779 4278255360
0.046994261 0.030657405 0.070204645 4278255360
0.041543372 0.032728396 0.075756304 4278255360
0.12221304 0.018053286 0.17618179 4278255360
0.12677369 0.016170297 0.16981962 4278255360
0.13011119 0.014574026 0.16266875 4278255360
0.13211229 0.013318656 0.15497188 4278255360
0.13270906 0.012446799 0.14699028 4278255360
0.13188124 0.01198805 0.13899489 4278255360
0.12965691 0.01195798 0.13125709 4278255360
0.1261116 0.012357608 0.12403952 4278255360
0.12136564 0.013173372 0.11758719 4278255360
0.11558013 0.014377581 0.11211911 4278255360
0.12956756 0.014772343 0.16312839 4278255360
0.13287854 0.013182583 0.15596373 4278255360
0.13485125 0.011934725 0.14825831 4278255360
0.1354187 0.011071125 0.14027369 4278255360
0.13456167 0.010621097 0.13228087 4278255360
0.13230923 0.010599917 0.12455118 4278255360
0.12873782 0.011008303 0.11734699 4278255360
0.1239687 0.011832394 0.11091282 4278255360
0.11816373 0.013044216 0.10546709 4278255360
0.11151996 0.014602636 0.10119464 4278255360
0.13440266 0.012114111 0.14881754 4278255360
0.13634694 0.010873783 0.14110368 4278255360
0.13688508 0.010018452 0.13311613 4278255360
0.13599885 0.0095771523 0.12512602 4278255360
0.13371831 0.0095648626 0.11740454 4278255360
0.13012087 0.0099820001 0.11021382 4278255360
0.12532865 0.010814406 0.10379791 4278255360
0.1195043 0.012033825 0.098374613 4278255360
0.11284555 0.013598865 0.094127998 4278255360
0.10557839 0.015456403 0.091202229 4278255360
0.1365474 0.010172567 0.13375515 4278255360
0.13705623 0.0093255183 0.1257648 4278255360
0.13614081 0.0088929525 0.1177775 4278255360
0.1338322 0.0088895531 0.11006436 4278255360
0.13020879 0.0093154358 0.10288721 4278255360
0.12539352 0.010156144 0.096489653 4278255360
0.1195499 0.011383142 0.091088854 4278255360
0.11287624 0.01295478 0.086868145 4278255360
0.1055991 0.014817711 0.083970778 4278255360
0.097965471 0.0169087 0.082495108 4278255360
0.13592596 0.009016348 0.11847373 4278255360
0.13498138 0.0085925227 0.11048935 4278255360
0.13264474 0.0085980147 0.10278466 4278255360
0.12899539 0.0090326359 0.095621191 4278255360
0.12415717 0.0098816361 0.089242078 4278255360
0.11829434 0.011116195 0.083863869 4278255360
0.11160588 0.012694407 0.07966911 4278255360
0.10431884 0.014562703 0.076800197 4278255360
0.096680567 0.016657665 0.075354509 4278255360
0.088950329 0.018908182 0.075381108 4278255360
0.13256033 0.0086863274 0.1035135 4278255360
0.13019571 0.0087007098 0.095817372 4278255360
0.12652045 0.009144065 0.088667676 4278255360
0.12165936 0.010001343 0.0823071 4278255360
0.1157774 0.011243445 0.076951548 4278255360
0.10907425 0.012828209 0.072782815 4278255360
0.10177743 0.014701843 0.069942392 4278255360
0.094134621 0.016800748 0.0685267 4278255360
0.086405247 0.019053681 0.068583786 4278255360
0.078851685 0.021384167 0.070111729 4278255360
0.12656948 0.0091941739 0.089403346 4278255360
0.1228684 0.0096462546 0.08226753 4278255360
0.11798448 0.0105118 0.075925589 4278255360
0.11208349 0.011761427 0.070592776 4278255360
0.10536573 0.013352721 0.066450119 4278255360
0.09805923 0.015231666 0.063638225 4278255360
0.090411998 0.017334485 0.062252551 4278255360
0.082683608 0.019589799 0.062340129 4278255360
0.075136393 0.021921054 0.063897982 4278255360
0.068026528 0.02424912 0.066873237 4278255360
0.11816518 0.010521933 0.076642089 4278255360
0.11325851 0.011395731 0.070318855 4278255360
0.10733857 0.012652866 0.065008864 4278255360
0.10060631 0.014250666 0.060892344 4278255360
0.093290232 0.016134895 0.058109026 4278255360
0.08563868 0.018241597 0.056753393 4278255360
0.077911384 0.020499259 0.056871455 4278255360
0.070370629 0.022831252 0.058459204 4278255360
0.063272379 0.025158416 0.061462753 4278255360
0.056857575 0.027401758 0.06578014 4278255360
0.10764457 0.012622666 0.065680861 4278255360
0.10170576 0.01388729 0.060393758 4278255360
0.094959088 0.015491573 0.056303434 4278255360
0.087633543 0.017381059 0.053548735 4278255360
0.079977788 0.019491613 0.052223157 4278255360
0.072251692 0.021751594 0.052371703 4278255360
0.064717509 0.024084289 0.053989328 4278255360
0.057630967 0.026410516 0.057021122 4278255360
0.051232625 0.028651319 0.061364178 4278255360
0.045739654 0.030730633 0.066871069 4278255360
0.095379561 0.015422106 0.056907177 4278255360
0.088618569 0.017032849 0.052843109 4278255360
0.081283659 0.018927565 0.050117061 4278255360
0.073623814 0.021041941 0.048821565 4278255360
0.065899037 0.023304205 0.049000591 4278255360
0.058371529 0.025637569 0.050648063 4278255360
0.051296804 0.02796283 0.053708062 4278255360
0.044915009 0.030201059 0.058076721 4278255360
0.039442766 0.03227628 0.063605748 4278255360
0.035065822 0.034118056 0.070107467 4278255360
0.1314628 0.013448902 0.15430154 4278255360
0.13482748 0.011845972 0.14716491 4278255360
0.1368577 0.010582913 0.13947693 4278255360
0.13748454 0.009702595 0.13149856 4278255360
0.1366867 0.0092349015 0.12350064 4278255360
0.13449128 0.0091957068 0.11575462 4278255360
0.1309728 0.0095863426 0.10852345 4278255360
0.1262507 0.010393548 0.10205258 4278255360
0.12048524 0.011589924 0.096561641 4278255360
0.11387214 0.01313486 0.092237033 4278255360
0.1364049 0.010763203 0.14003244 4278255360
0.13840674 0.0095076356 0.1323358 4278255360
0.13900428 0.0086355619 0.12435428 4278255360
0.13817723 0.0081765829 0.11635882 4278255360
0.13595365 0.0081462786 0.1086208 4278255360
0.13240902 0.0085456772 0.10140289 4278255360
0.12766367 0.0093612215 0.09495008 4278255360
0.12187868 0.01056523 0.089481413 4278255360
0.1152504 0.012116832 0.085182518 4278255360
0.10800382 0.013963361 0.082199305 4278255360
0.1386618 0.0087908246 0.12499046 4278255360
0.13923004 0.007927007 0.11700591 4278255360
0.13837376 0.0074767494 0.10901303 4278255360
0.13612206 0.007455335 0.10128312 4278255360
0.13255134 0.0078634908 0.094078563 4278255360
0.12778284 0.0086873621 0.087643921 4278255360
0.12197837 0.0098989848 0.082197607 4278255360
0.115335 0.01145723 0.077924483 4278255360
0.10807822 0.013309206 0.074969597 4278255360
0.10045434 0.01539205 0.07343325 4278255360
0.13815372 0.0076014944 0.10970739 4278255360
0.13726826 0.0071599646 0.1017172 4278255360
0.13498846 0.0071474407 0.093995512 4278255360
0.1313917 0.0075643482 0.086804435 4278255360
0.12660009 0.0083965352 0.080388047 4278255360
0.12077625 0.0096157538 0.074964151 4278255360
