# .PCD v0.7 - Point Cloud Data file format
VERSION 0.7
FIELDS x y z rgb
SIZE 4 4 4 4
TYPE F F F U
COUNT 1 1 1 1
WIDTH 625
HEIGHT 1
VIEWPOINT 0 0 0 1 0 0 0
POINTS 625
DATA ascii
-0.034559112 0.022177486 0.23650849 4278190335
-0.021462828 0.015524976 0.24293652 4278190335
-0.0071809897 0.0082702423 0.24363378 4278190335
0.0063637351 0.0013899384 0.23850639 4278190335
0.017347915 -0.0041896873 0.22824463 4278190335
-0.0085678445 0.0089747217 0.24560815 4278190335
0.0057183048 0.0017177971 0.24618365 4278190335
0.019227896 -0.0051446594 0.24094094 4278190335
0.030142227 -0.010688804 0.23058586 4278190335
0.036991976 -0.014168267 0.21651238 4278190335
0.018585596 -0.0048183911 0.24334902 4278190335
0.032059275 -0.011662604 0.23799132 4278190335
0.042903125 -0.017170947 0.22754349 4278190335
0.049657319 -0.02060187 0.21341203 4278190335
0.051412582 -0.021493491 0.19749939 4278190335
0.043095402 -0.01726862 0.23004775 4278190335
0.053868148 -0.022740843 0.21950777 4278190335
0.060526397 -0.026123026 0.20531915 4278190335
0.062173788 -0.026959851 0.18939202 4278190335
0.058588553 -0.025138663 0.17387049 4278190335
0.061526306 -0.026630949 0.2075686 4278190335
0.068088219 -0.029964199 0.19332364 4278190335
0.069627643 -0.030746181 0.17738292 4278190335
0.06593734 -0.02887162 0.1618924 4278190335
0.057514105 -0.024592876 0.14893749 4278190335
0.0076138726 0.00075490691 0.24575405 4278190335
0.021890426 -0.0064971433 0.24657623 4278190335
0.035470396 -0.01339535 0.24156751 4278190335
0.046525605 -0.019011056 0.23140214 4278190335
0.053567767 -0.022588257 0.21744867 4278190335
0.034795109 -0.013052326 0.2439642 4278190335
0.048340749 -0.019933093 0.23883985 4278190335
0.05932676 -0.025513649 0.22858055 4278190335
0.066274174 -0.029042721 0.21456744 4278190335
0.068247706 -0.030045213 0.198687 4278190335
0.059484635 -0.025593843 0.23108783 4278190335
0.070400812 -0.031138927 0.22073518 4278190335
0.077253073 -0.034619663 0.20666325 4278190335
0.079118945 -0.03556747 0.19076645 4278190335
0.075747237 -0.033854745 0.17518485 4278190335
0.078221977 -0.035111837 0.2089297 4278190335
0.084978692 -0.03854404 0.19479977 4278190335
0.086736791 -0.039437104 0.17888752 4278190335
0.083259605 -0.037670799 0.1633351 4278190335
0.075015239 -0.033482913 0.15023625 4278190335
0.088380933 -0.040272273 0.18059547 4278190335
0.090031162 -0.041110542 0.16466869 4278190335
0.086448699 -0.03929076 0.14914638 4278190335
0.078115806 -0.035057906 0.13611817 4278190335
0.066154301 -0.028981829 0.12733798 4278190335
0.049978647 -0.020765096 0.23768662 4278190335
0.063593037 -0.027680786 0.23279685 4278190335
0.074718602 -0.033332229 0.22272852 4278190335
0.081857584 -0.036958613 0.20883706 4278190335
0.084048912 -0.03807174 0.1929926 4278190335
0.074842028 -0.033394929 0.22523822 4278190335
0.085899055 -0.039011557 0.21507534 4278190335
0.092943698 -0.042590022 0.20112345 4278190335
0.095027611 -0.043648582 0.18526076 4278190335
0.091870233 -0.042044729 0.16962276 4278190335
0.093881376 -0.04306633 0.20340636 4278190335
0.10083129 -0.046596672 0.1893948 4278190335
0.10280765 -0.047600605 0.17351481 4278190335
0.099544398 -0.045942973 0.15790418 4278190335
0.091480851 -0.041846938 0.14466447 4278190335
0.10442814 -0.048423763 0.17525096 4278190335
0.10629684 -0.049373008 0.15935457 4278190335
0.10292792 -0.047661696 0.14377221 4278190335
0.094774894 -0.043520208 0.13060163 4278190335
0.082935348 -0.037506085 0.12161587 4278190335
0.1050041 -0.048716333 0.14471826 4278190335
0.10152969 -0.046951439 0.12916507 4278190335
0.093287654 -0.042764738 0.11606435 4278190335
0.081387572 -0.036719862 0.10717978 4278190335
0.067431457 -0.029630587 0.10370742 4278190335
0.087067902 -0.039605297 0.2133473 4278190335
0.098263144 -0.045292135 0.20337662 4278190335
0.10549852 -0.048967481 0.18954805 4278190335
0.10779996 -0.050136544 0.17372322 4278190335
0.10485766 -0.048641946 0.15803255 4278190335
0.10640474 -0.049427811 0.19184688 4278190335
0.11354619 -0.053055454 0.17795703 4278190335
0.11574035 -0.054170016 0.16211306 4278190335
0.11269181 -0.052621454 0.14644791 4278190335
0.104811 -0.048618242 0.1330705 4278190335
0.11733681 -0.054980971 0.16387698 4278190335
0.11942355 -0.056040969 0.14801477 4278190335
0.11626896 -0.054438535 0.13237606 4278190335
0.10829773 -0.05038939 0.11906622 4278190335
0.096582957 -0.044438653 0.10987703 4278190335
0.11833191 -0.055486448 0.13335785 4278190335
0.11507145 -0.053830232 0.1177465 4278190335
0.10701025 -0.049735397 0.10450498 4278190335
0.09523356 -0.043753199 0.09541592 4278190335
0.081326783 -0.036688983 0.091702916 4278190335
0.10925055 -0.050873399 0.10456704 4278190335
0.10109987 -0.046733104 0.091394618 4278190335
0.089261934 -0.040719796 0.0824062 4278190335
0.075330392 -0.033643 0.078811847 4278190335
0.061180755 -0.026455423 0.081095427 4278190335
0.11409516 -0.053334311 0.17587718 4278190335
0.12142647 -0.05705839 0.16211233 4278190335
0.1238379 -0.058283322 0.14630812 4278190335
0.1210048 -0.056844197 0.13059218 4278190335
0.11330859 -0.052934755 0.11708024 4278190335
0.12540996 -0.059081879 0.14809942 4278190335
0.12771423 -0.060252376 0.13227512 4278190335
0.12477472 -0.058759201 0.11658379 4278190335
0.11698717 -0.054803364 0.10313784 4278190335
0.10539996 -0.048917416 0.0937474 4278190335
0.12682395 -0.059800144 0.1176011 4278190335
0.12377821 -0.058253001 0.10193528 4278190335
0.11589977 -0.054251 0.088556096 4278190335
0.10424927 -0.0483329 0.079264708 4278190335
0.090395115 -0.041295417 0.075311936 4278190335
0.11813895 -0.055388432 0.088656835 4278190335
0.11017009 -0.051340498 0.075345203 4278190335
0.098456964 -0.045390587 0.066153385 4278190335
0.084576428 -0.038339701 0.062318828 4278190335
0.070397116 -0.031137049 0.064357743 4278190335
0.10057225 -0.046465088 0.065323427 4278190335
0.088797174 -0.040483713 0.05623173 4278190335
0.074891061 -0.033419833 0.0525156 4278190335
0.060725972 -0.026224406 0.054675322 4278190335
0.04820887 -0.019866101 0.062420148 4278190335
-0.037934691 0.01362707 0.23650849 4278190335
-0.023825843 0.0095394012 0.24293652 4278190335
-0.0084397811 0.0050816927 0.24363378 4278190335
0.0061521763 0.00085405482 0.23850639 4278190335
0.017985616 -0.0025743749 0.22824463 4278190335
-0.0099338638 0.0055145635 0.24560815 4278190335
0.0054568434 0.0010555093 0.24618365 4278190335
0.02001095 -0.0031611624 0.24094094 4278190335
0.031769142 -0.0065677906 0.23058586 4278190335
0.039148491 -0.0087057641 0.21651238 4278190335
0.01931899 -0.0029606849 0.24334902 4278190335
0.033834409 -0.0071661472 0.23799132 4278190335
0.04551667 -0.010550776 0.22754349 4278190335
0.052793074 -0.012658925 0.21341203 4278190335
0.05468405 -0.013206786 0.19749939 4278190335
0.045723815 -0.010610792 0.23004775 4278190335
0.057329472 -0.013973228 0.21950777 4278190335
0.064502515 -0.016051428 0.20531915 4278190335
0.066277273 -0.016565619 0.18939202 4278190335
0.062414844 -0.01544658 0.17387049 4278190335
0.065579727 -0.016363524 0.2075686 4278190335
0.072648987 -0.018411657 0.19332364 4278190335
0.074307442 -0.018892149 0.17738292 4278190335
0.070331812 -0.017740315 0.1618924 4278190335
0.061257321 -0.015111219 0.14893749 4278190335
0.0074989703 0.00046385644 0.24575405 4278190335
0.02287934 -0.0039922032 0.24657623 4278190335
0.037509266 -0.0082308417 0.24156751 4278190335
0.049419228 -0.01168144 0.23140214 4278190335
0.057005864 -0.013879471 0.21744867 4278190335
0.036781769 -0.0080200685 0.2439642 4278190335
0.051374711 -0.012247992 0.23883985 4278190335
0.063210122 -0.015676992 0.22858055 4278190335
0.070694685 -0.017845448 0.21456744 4278190335
0.072820805 -0.018461436 0.198687 4278190335
0.063380204 -0.015726268 0.23108783 4278190335
0.075140387 -0.019133473 0.22073518 4278190335
0.082522437 -0.021272229 0.20666325 4278190335
0.084532574 -0.021854613 0.19076645 4278190335
0.080900177 -0.020802222 0.17518485 4278190335
0.083566256 -0.02157465 0.2089297 4278190335
0.090845376 -0.023683583 0.19479977 4278190335
0.092739411 -0.02423233 0.17888752 4278190335
0.088993378 -0.023147015 0.1633351 4278190335
0.080111578 -0.020573746 0.15023625 4278190335
0.094510667 -0.024745505 0.18059547 4278190335
0.096288495 -0.025260583 0.16466869 4278190335
0.092429042 -0.024142409 0.14914638 4278190335
0.083451882 -0.021541512 0.13611817 4278190335
0.070565552 -0.017808033 0.12733798 4278190335
0.053139247 -0.01275922 0.23768662 4278190335
0.067806259 -0.017008601 0.23279685 4278190335
0.079792008 -0.02048116 0.22272852 4278190335
0.087482952 -0.022709409 0.20883706 4278190335
0.089843713 -0.023393376 0.1929926 4278190335
0.079924986 -0.020519685 0.22523822 4278190335
0.0918369 -0.02397085 0.21507534 4278190335
0.099426217 -0.026169656 0.20112345 4278190335
0.10167124 -0.026820095 0.18526076 4278190335
0.098269746 -0.0258346 0.16962276 4278190335
0.10043639 -0.026462328 0.20340636 4278190335
0.10792364 -0.028631564 0.1893948 4278190335
0.11005281 -0.029248435 0.17351481 4278190335
0.10653726 -0.028229896 0.15790418 4278190335
0.097850263 -0.025713066 0.14466447 4278190335
0.11179859 -0.029754229 0.17525096 4278190335
0.11381178 -0.030337498 0.15935457 4278190335
0.11018238 -0.029285973 0.14377221 4278190335
0.10139899 -0.026741216 0.13060163 4278190335
0.08864405 -0.023045808 0.12161587 4278190335
0.11241909 -0.029934002 0.14471826 4278190335
0.10867605 -0.028849551 0.12916507 4278190335
0.099796765 -0.026277013 0.11606435 4278190335
0.086976603 -0.022562707 0.10717978 4278190335
0.07194145 -0.018206665 0.10370742 4278190335
0.093096122 -0.024335679 0.2133473 4278190335
0.10515694 -0.027829984 0.20337662 4278190335
0.11295173 -0.030088319 0.18954805 4278190335
0.11543112 -0.030806657 0.17372322 4278190335
0.11226133 -0.029888293 0.15803255 4278190335
0.11392801 -0.030371172 0.19184688 4278190335
0.12162162 -0.032600194 0.17795703 4278190335
0.12398542 -0.033285044 0.16211306 4278190335
0.12070119 -0.032333523 0.14644791 4278190335
0.11221105 -0.029873729 0.1330705 4278190335
0.12570532 -0.033783339 0.16387698 4278190335
0.1279534 -0.034434661 0.14801477 4278190335
0.1245549 -0.033450037 0.13237606 4278190335
0.11596736 -0.03096202 0.11906622 4278190335
0.10334685 -0.027305556 0.10987703 4278190335
0.12677735 -0.034093931 0.13335785 4278190335
0.1232648 -0.033076264 0.1177465 4278190335
0.11458035 -0.030560169 0.10450498 4278190335
0.10189312 -0.026884379 0.09541592 4278190335
0.086911112 -0.022543734 0.091702916 4278190335
0.11699385 -0.031259421 0.10456704 4278190335
0.10821299 -0.028715394 0.091394618 4278190335
0.095459782 -0.025020488 0.0824062 4278190335
0.080451101 -0.020672115 0.078811847 4278190335
0.065207466 -0.016255669 0.081095427 4278190335
0.12221303 -0.032771539 0.17587718 4278190335
0.13011117 -0.035059821 0.16211233 4278190335
0.13270904 -0.035812486 0.14630812 4278190335
0.12965691 -0.03492821 0.13059218 4278190335
0.12136564 -0.032526031 0.11708024 4278190335
0.13440265 -0.036303163 0.14809942 4278190335
0.13688508 -0.037022382 0.13227512 4278190335
0.1337183 -0.036104891 0.11658379 4278190335
0.12532865 -0.033674207 0.10313784 4278190335
0.11284555 -0.030057557 0.0937474 4278190335
0.13592596 -0.036744505 0.1176011 4278190335
0.13264474 -0.035793856 0.10193528 4278190335
0.12415718 -0.033334807 0.088556096 4278190335
0.11160589 -0.029698398 0.079264708 4278190335
0.096680574 -0.02537418 0.075311936 4278190335
0.12656948 -0.034033708 0.088656835 4278190335
0.11798449 -0.031546433 0.075345203 4278190335
0.10536575 -0.027890479 0.066153385 4278190335
0.090412006 -0.023558026 0.062318828 4278190335
0.075136401 -0.01913232 0.064357743 4278190335
0.10764458 -0.028550712 0.065323427 4278190335
0.094959095 -0.024875427 0.05623173 4278190335
0.079977803 -0.020534988 0.0525156 4278190335
0.064717516 -0.016113721 0.054675322 4278190335
0.051232636 -0.012206828 0.062420148 4278190335
-0.039652761 0.0045964359 0.23650849 4278190335
-0.025028551 0.0032176576 0.24293652 4278190335
-0.0090804705 0.0017140643 0.24363378 4278190335
0.0060444986 0.00028807425 0.23850639 4278190335
0.018310189 -0.00086834136 0.22824463 4278190335
-0.010629129 0.0018600725 0.24560815 4278190335
0.0053237667 0.00035602521 0.24618365 4278190335
0.020409504 -0.0010662659 0.24094094 4278190335
0.032597195 -0.0022153277 0.23058586 4278190335
0.040246096 -0.0029364703 0.21651238 4278190335
0.019692268 -0.00099864451 0.24334902 4278190335
0.0347379 -0.0024171546 0.23799132 4278190335
0.046846889 -0.0035587964 0.22754349 4278190335
0.054389086 -0.0042698784 0.21341203 4278190335
0.056349136 -0.0044546733 0.19749939 4278190335
0.047061604 -0.0035790396 0.23004775 4278190335
0.059091188 -0.0047131954 0.21950777 4278190335
0.066526242 -0.0054141763 0.20531915 4278190335
0.068365835 -0.0055876137 0.18939202 4278190335
0.064362317 -0.0052101598 0.17387049 4278190335
0.067642808 -0.0055194465 0.2075686 4278190335
0.07497029 -0.0062102857 0.19332364 4278190335
0.076689325 -0.0063723563 0.17738292 4278190335
0.072568476 -0.0059838407 0.1618924 4278190335
0.063162513 -0.0050970418 0.14893749 4278190335
0.0074404883 0.00015645963 0.24575405 4278190335
0.023382669 -0.0013465774 0.24657623 4278190335
0.038546994 -0.002776278 0.24156751 4278190335
0.050891999 -0.0039401716 0.23140214 4278190335
0.058755759 -0.0046815709 0.21744867 4278190335
0.037792925 -0.0027051838 0.2439642 4278190335
0.052918915 -0.0041312701 0.23883985 4278190335
0.06518665 -0.0052878782 0.22858055 4278190335
0.072944604 -0.0060193026 0.21456744 4278190335
0.075148381 -0.0062270761 0.198687 4278190335
0.065362938 -0.0053044995 0.23108783 4278190335
0.077552691 -0.0064537558 0.22073518 4278190335
0.0852044 -0.007175162 0.20666325 4278190335
0.087287955 -0.0073716012 0.19076645 4278190335
0.083522879 -0.0070166276 0.17518485 4278190335
0.086286344 -0.0072771688 0.2089297 4278190335
0.093831353 -0.0079885162 0.19479977 4278190335
0.095794573 -0.0081736092 0.17888752 4278190335
0.091911703 -0.0078075309 0.1633351 4278190335
0.082705475 -0.0069395625 0.15023625 4278190335
0.097630531 -0.0083467048 0.18059547 4278190335
0.099473298 -0.0085204411 0.16466869 4278190335
0.095472865 -0.0081432788 0.14914638 4278190335
0.08616779 -0.0072659915 0.13611817 4278190335
0.072810747 -0.0060066828 0.12733798 4278190335
0.054747906 -0.0043037082 0.23768662 4278190335
0.069950663 -0.0057370323 0.23279685 4278190335
0.08237423 -0.0069083329 0.22272852 4278190335
0.090346113 -0.0076599256 0.20883706 4278190335
0.0927931 -0.0078906287 0.1929926 4278190335
0.082512066 -0.0069213277 0.22523822 4278190335
0.094859093 -0.008085412 0.21507534 4278190335
0.10272563 -0.0088270735 0.20112345 4278190335
0.10505266 -0.009046467 0.18526076 4278190335
0.10152692 -0.0087140584 0.16962276 4278190335
0.1037727 -0.0089257918 0.20340636 4278190335
0.11153345 -0.0096574789 0.1893948 4278190335
0.11374039 -0.0098655503 0.17351481 4278190335
0.11009642 -0.0095219957 0.15790418 4278190335
0.10109212 -0.0086730644 0.14466447 4278190335
0.11554994 -0.010036157 0.17525096 4278190335
0.11763667 -0.010232894 0.15935457 4278190335
0.1138747 -0.0098782126 0.14377221 4278190335
0.10477047 -0.009019861 0.13060163 4278190335
0.09154962 -0.0077733933 0.12161587 4278190335
0.11619311 -0.010096794 0.14471826 4278190335
0.11231334 -0.0097310068 0.12916507 4278190335
0.10310972 -0.0088632852 0.11606435 4278190335
0.089821264 -0.0076104426 0.10717978 4278190335
0.074236907 -0.006141142 0.10370742 4278190335
0.096164316 -0.0082084686 0.2133473 4278190335
0.10866569 -0.0093871048 0.20337662 4278190335
0.1167452 -0.010148846 0.18954805 4278190335
0.11931515 -0.010391142 0.17372322 4278190335
0.11602958 -0.010081376 0.15803255 4278190335
0.11775715 -0.010244252 0.19184688 4278190335
0.1257318 -0.010996106 0.17795703 4278190335
0.12818193 -0.011227107 0.16211306 4278190335
0.12477773 -0.010906157 0.14644791 4278190335
0.11597747 -0.010076463 0.1330705 4278190335
0.12996465 -0.011395182 0.16387698 4278190335
0.13229485 -0.011614874 0.14801477 4278190335
0.12877221 -0.011282759 0.13237606 4278190335
0.11987099 -0.010443547 0.11906622 4278190335
0.10678948 -0.009210215 0.10987703 4278190335
0.13107584 -0.011499946 0.13335785 4278190335
0.12743498 -0.011156685 0.1177465 4278190335
0.11843331 -0.010308001 0.10450498 4278190335
0.10528265 -0.0090681501 0.09541592 4278190335
0.089753382 -0.0076040425 0.091702916 4278190335
0.12093498 -0.01054386 0.10456704 4278190335
0.11183337 -0.0096857557 0.091394618 4278190335
0.098614313 -0.0084394561 0.0824062 4278190335
0.083057404 -0.0069727423 0.078811847 4278190335
0.06725695 -0.0054830671 0.081095427 4278190335
0.1263448 -0.011053901 0.17587718 4278190335
0.13453145 -0.011825742 0.16211233 4278190335
0.13722421 -0.012079617 0.14630812 4278190335
0.13406058 -0.011781349 0.13059218 4278190335
0.12546645 -0.01097109 0.11708024 4278190335
0.13897967 -0.012245123 0.14809942 4278190335
0.14155279 -0.012487718 0.13227512 4278190335
0.13827033 -0.012178246 0.11658379 4278190335
0.12957422 -0.011358372 0.10313784 4278190335
0.11663514 -0.010138469 0.0937474 4278190335
0.14055865 -0.012393989 0.1176011 4278190335
0.13715756 -0.012073333 0.10193528 4278190335
0.12835996 -0.011243891 0.088556096 4278190335
0.1153502 -0.010017324 0.079264708 4278190335
0.099879704 -0.0085587576 0.075311936 4278190335
0.13086037 -0.011479632 0.088656835 4278190335
0.1219618 -0.01064067 0.075345203 4278190335
0.10888212 -0.00940751 0.066153385 4278190335
0.093382157 -0.0079461653 0.062318828 4278190335
0.077548563 -0.0064533665 0.064357743 4278190335
0.11124419 -0.0096302079 0.065323427 4278190335
0.098095343 -0.0083905272 0.05623173 4278190335
0.082566813 -0.0069264891 0.0525156 4278190335
0.066749103 -0.0054351874 0.054675322 4278190335
0.052771647 -0.0041173855 0.062420148 4278190335
-0.039652787 -0.004596177 0.23650849 4278190335
-0.025028568 -0.0032174764 0.24293652 4278190335
-0.0090804799 -0.0017139678 0.24363378 4278190335
0.0060444972 -0.00028805804 0.23850639 4278190335
0.018310193 0.00086829247 0.22824463 4278190335
-0.010629138 -0.0018599677 0.24560815 4278190335
0.0053237649 -0.00035600518 0.24618365 4278190335
0.02040951 0.0010662059 0.24094094 4278190335
0.032597207 0.0022152031 0.23058586 4278190335
0.040246114 0.002936305 0.21651238 4278190335
0.019692272 0.00099858828 0.24334902 4278190335
0.034737915 0.0024170186 0.23799132 4278190335
0.046846908 0.0035585961 0.22754349 4278190335
0.054389108 0.0042696381 0.21341203 4278190335
0.056349158 0.0044544223 0.19749939 4278190335
0.047061622 0.0035788382 0.23004775 4278190335
0.059091214 0.0047129299 0.21950777 4278190335
0.066526271 0.0054138713 0.20531915 4278190335
0.068365864 0.0055872994 0.18939202 4278190335
0.06436234 0.0052098664 0.17387049 4278190335
0.067642838 0.0055191359 0.2075686 4278190335
0.074970327 0.006209936 0.19332364 4278190335
0.076689355 0.0063719978 0.17738292 4278190335
0.072568506 0.005983504 0.1618924 4278190335
0.063162543 0.005096755 0.14893749 4278190335
0.0074404874 -0.00015645081 0.24575405 4278190335
0.023382675 0.0013465016 0.24657623 4278190335
0.038547009 0.0027761217 0.24156751 4278190335
0.050892022 0.0039399494 0.23140214 4278190335
0.058755785 0.0046813074 0.21744867 4278190335
0.03779294 0.0027050315 0.2439642 4278190335
0.052918937 0.0041310373 0.23883985 4278190335
0.065186672 0.0052875807 0.22858055 4278190335
0.072944634 0.0060189636 0.21456744 4278190335
0.075148419 0.0062267254 0.198687 4278190335
0.065362968 0.0053042006 0.23108783 4278190335
0.077552728 0.0064533921 0.22073518 4278190335
0.085204437 0.0071747582 0.20666325 4278190335
0.087288 0.0073711863 0.19076645 4278190335
0.083522916 0.0070162327 0.17518485 4278190335
0.086286381 0.007276759 0.2089297 4278190335
0.093831398 0.0079880664 0.19479977 4278190335
0.095794618 0.0081731491 0.17888752 4278190335
0.091911748 0.0078070913 0.1633351 4278190335
0.082705513 0.0069391723 0.15023625 4278190335
0.097630575 0.0083462344 0.18059547 4278190335
0.099473342 0.0085199615 0.16466869 4278190335
0.09547291 0.0081428206 0.14914638 4278190335
0.086167827 0.0072655822 0.13611817 4278190335
0.072810784 0.0060063442 0.12733798 4278190335
0.054747928 0.0043034661 0.23768662 4278190335
0.069950692 0.0057367096 0.23279685 4278190335
0.082374267 0.0069079436 0.22272852 4278190335
0.09034615 0.0076594944 0.20883706 4278190335
0.092793137 0.0078901844 0.1929926 4278190335
0.082512103 0.0069209379 0.22523822 4278190335
0.094859138 0.0080849566 0.21507534 4278190335
0.10272568 0.0088265762 0.20112345 4278190335
0.10505271 0.0090459576 0.18526076 4278190335
0.10152697 0.0087135676 0.16962276 4278190335
0.10377275 0.0089252889 0.20340636 4278190335
0.1115335 0.009656935 0.1893948 4278190335
0.11374044 0.0098649953 0.17351481 4278190335
0.11009648 0.0095214592 0.15790418 4278190335
0.10109216 0.0086725764 0.14466447 4278190335
0.11555 0.010035591 0.17525096 4278190335
0.11763673 0.010232318 0.15935457 4278190335
0.11387475 0.0098776566 0.14377221 4278190335
0.10477051 0.0090193534 0.13060163 4278190335
0.091549665 0.0077729556 0.12161587 4278190335
0.11619316 0.010096225 0.14471826 4278190335
0.11231339 0.0097304592 0.12916507 4278190335
0.10310976 0.008862786 0.11606435 4278190335
0.089821301 0.0076100142 0.10717978 4278190335
0.074236944 0.006140796 0.10370742 4278190335
0.096164361 0.0082080066 0.2133473 4278190335
0.10866574 0.0093865767 0.20337662 4278190335
0.11674526 0.010148274 0.18954805 4278190335
0.11931521 0.010390557 0.17372322 4278190335
0.11602964 0.010080809 0.15803255 4278190335
0.1177572 0.010243676 0.19184688 4278190335
0.12573184 0.010995487 0.17795703 4278190335
0.12818199 0.011226474 0.16211306 4278190335
0.12477779 0.010905542 0.14644791 4278190335
0.11597753 0.010075896 0.1330705 4278190335
0.12996471 0.011394541 0.16387698 4278190335
0.13229491 0.01161422 0.14801477 4278190335
0.12877227 0.011282124 0.13237606 4278190335
0.11987104 0.010442958 0.11906622 4278190335
0.10678952 0.0092096962 0.10987703 4278190335
0.1310759 0.011499299 0.13335785 4278190335
0.12743504 0.011156056 0.1177465 4278190335
0.11843336 0.010307421 0.10450498 4278190335
0.10528269 0.0090676397 0.09541592 4278190335
0.089753419 0.0076036146 0.091702916 4278190335
0.12093503 0.010543266 0.10456704 4278190335
0.11183342 0.00968521 0.091394618 4278190335
0.098614357 0.0084389811 0.0824062 4278190335
0.083057441 0.0069723497 0.078811847 4278190335
0.06725698 0.0054827584 0.081095427 4278190335
0.12634486 0.011053278 0.17587718 4278190335
0.13453151 0.011825076 0.16211233 4278190335
0.13722427 0.012078937 0.14630812 4278190335
0.13406065 0.011780686 0.13059218 4278190335
0.12546651 0.010970472 0.11708024 4278190335
0.13897975 0.012244434 0.14809942 4278190335
0.14155285 0.012487015 0.13227512 4278190335
0.13827039 0.01217756 0.11658379 4278190335
0.12957428 0.011357733 0.10313784 4278190335
0.1166352 0.010137899 0.0937474 4278190335
0.1405587 0.012393291 0.1176011 4278190335
0.13715762 0.012072654 0.10193528 4278190335
0.12836002 0.011243258 0.088556096 4278190335
0.11535025 0.010016761 0.079264708 4278190335
0.099879749 0.0085582761 0.075311936 4278190335
0.13086043 0.011478986 0.088656835 4278190335
0.12196185 0.010640071 0.075345203 4278190335
0.10888217 0.0094069801 0.066153385 4278190335
0.093382195 0.0079457182 0.062318828 4278190335
0.077548601 0.0064530033 0.064357743 4278190335
0.11124425 0.0096296659 0.065323427 4278190335
0.09809538 0.0083900541 0.05623173 4278190335
0.08256685 0.0069260993 0.0525156 4278190335
0.066749133 0.0054348814 0.054675322 4278190335
0.052771669 0.0041171541 0.062420148 4278190335
-0.037934761 -0.01362682 0.23650849 4278190335
-0.023825893 -0.0095392261 0.24293652 4278190335
-0.0084398082 -0.0050815996 0.24363378 4278190335
0.0061521716 -0.00085403916 0.23850639 4278190335
0.017985631 0.0025743276 0.22824463 4278190335
-0.0099338926 -0.0055144629 0.24560815 4278190335
0.0054568378 -0.00105549 0.24618365 4278190335
0.020010967 0.0031611046 0.24094094 4278190335
0.031769175 0.00656767 0.23058586 4278190335
0.039148539 0.0087056048 0.21651238 4278190335
0.019319005 0.0029606307 0.24334902 4278190335
0.033834446 0.0071660159 0.23799132 4278190335
0.045516726 0.010550584 0.22754349 4278190335
0.052793141 0.012658693 0.21341203 4278190335
0.054684121 0.013206543 0.19749939 4278190335
0.04572387 0.010610597 0.23004775 4278190335
0.057329547 0.013972972 0.21950777 4278190335
0.064502597 0.016051134 0.20531915 4278190335
0.066277362 0.016565315 0.18939202 4278190335
0.062414926 0.015446297 0.17387049 4278190335
0.065579817 0.016363224 0.2075686 4278190335
0.072649084 0.01841132 0.19332364 4278190335
0.074307539 0.018891802 0.17738292 4278190335
0.070331909 0.017739991 0.1618924 4278190335
0.061257403 0.015110943 0.14893749 4278190335
0.0074989679 -0.00046384794 0.24575405 4278190335
0.02287936 0.00399213 0.24657623 4278190335
0.037509311 0.0082306908 0.24156751 4278190335
0.049419288 0.011681227 0.23140214 4278190335
0.057005938 0.013879216 0.21744867 4278190335
0.036781814 0.0080199214 0.2439642 4278190335
0.051374778 0.012247767 0.23883985 4278190335
0.063210204 0.015676705 0.22858055 4278190335
0.070694782 0.017845122 0.21456744 4278190335
0.072820902 0.018461097 0.198687 4278190335
0.063380286 0.015725981 0.23108783 4278190335
0.075140484 0.019133123 0.22073518 4278190335
0.082522549 0.02127184 0.20666325 4278190335
0.084532686 0.021854213 0.19076645 4278190335
0.080900289 0.02080184 0.17518485 4278190335
0.083566375 0.021574253 0.2089297 4278190335
0.090845503 0.023683149 0.19479977 4278190335
0.092739537 0.024231886 0.17888752 4278190335
0.088993505 0.023146592 0.1633351 4278190335
0.08011169 0.02057337 0.15023625 4278190335
0.094510801 0.024745053 0.18059547 4278190335
0.096288629 0.025260121 0.16466869 4278190335
0.092429169 0.024141965 0.14914638 4278190335
0.083451994 0.021541117 0.13611817 4278190335
0.070565641 0.017807707 0.12733798 4278190335
0.053139318 0.012758986 0.23768662 4278190335
0.067806348 0.01700829 0.23279685 4278190335
0.07979212 0.020480784 0.22272852 4278190335
0.087483078 0.022708993 0.20883706 4278190335
0.089843832 0.023392947 0.1929926 4278190335
0.07992509 0.020519309 0.22523822 4278190335
0.091837026 0.023970412 0.21507534 4278190335
0.099426351 0.026169177 0.20112345 4278190335
0.10167138 0.026819604 0.18526076 4278190335
0.098269887 0.025834126 0.16962276 4278190335
0.10043653 0.026461843 0.20340636 4278190335
0.10792379 0.028631039 0.1893948 4278190335
0.11005297 0.029247899 0.17351481 4278190335
0.10653741 0.028229378 0.15790418 4278190335
0.097850397 0.025712594 0.14466447 4278190335
0.11179876 0.029753685 0.17525096 4278190335
0.11381194 0.030336943 0.15935457 4278190335
0.11018254 0.029285436 0.14377221 4278190335
0.10139913 0.026740726 0.13060163 4278190335
0.088644177 0.023045385 0.12161587 4278190335
0.11241925 0.029933453 0.14471826 4278190335
0.1086762 0.028849024 0.12916507 4278190335
0.099796906 0.026276533 0.11606435 4278190335
0.086976722 0.022562293 0.10717978 4278190335
0.071941547 0.018206332 0.10370742 4278190335
0.093096249 0.024335232 0.2133473 4278190335
0.10515709 0.027829476 0.20337662 4278190335
0.11295188 0.030087767 0.18954805 4278190335
0.11543128 0.030806093 0.17372322 4278190335
0.11226148 0.029887745 0.15803255 4278190335
0.11392817 0.030370615 0.19184688 4278190335
0.12162179 0.032599598 0.17795703 4278190335
0.1239856 0.033284433 0.16211306 4278190335
0.12070136 0.032332931 0.14644791 4278190335
0.11221121 0.029873181 0.1330705 4278190335
0.1257055 0.033782721 0.16387698 4278190335
0.12795357 0.034434028 0.14801477 4278190335
0.12455508 0.033449423 0.13237606 4278190335
0.11596753 0.030961454 0.11906622 4278190335
0.10334699 0.027305057 0.10987703 4278190335
0.12677753 0.034093309 0.13335785 4278190335
0.12326498 0.033075657 0.1177465 4278190335
0.11458051 0.030559611 0.10450498 4278190335
0.10189326 0.026883885 0.09541592 4278190335
0.086911231 0.02254332 0.091702916 4278190335
0.11699402 0.031258848 0.10456704 4278190335
0.10821314 0.028714869 0.091394618 4278190335
0.095459916 0.025020029 0.0824062 4278190335
0.080451213 0.020671736 0.078811847 4278190335
0.065207556 0.016255371 0.081095427 4278190335
0.12221321 0.032770939 0.17587718 4278190335
0.13011137 0.03505918 0.16211233 4278190335
0.13270923 0.03581183 0.14630812 4278190335
0.12965709 0.034927569 0.13059218 4278190335
0.12136582 0.032525435 0.11708024 4278190335
0.13440284 0.036302499 0.14809942 4278190335
0.13688527 0.037021704 0.13227512 4278190335
0.13371849 0.036104232 0.11658379 4278190335
0.12532882 0.033673592 0.10313784 4278190335
0.1128457 0.030057007 0.0937474 4278190335
0.13592616 0.036743831 0.1176011 4278190335
0.13264494 0.0357932 0.10193528 4278190335
0.12415735 0.033334196 0.088556096 4278190335
0.11160605 0.029697854 0.079264708 4278190335
0.096680716 0.025373716 0.075311936 4278190335
0.12656966 0.034033082 0.088656835 4278190335
0.11798466 0.031545855 0.075345203 4278190335
0.10536589 0.027889969 0.066153385 4278190335
0.090412132 0.023557594 0.062318828 4278190335
0.075136505 0.019131968 0.064357743 4278190335
0.10764473 0.028550189 0.065323427 4278190335
0.094959229 0.02487497 0.05623173 4278190335
0.079977907 0.020534612 0.0525156 4278190335
0.064717606 0.016113425 0.054675322 4278190335
0.051232699 0.012206605 0.062420148 4278190335
