# .PCD v0.7 - Point Cloud Data file format
VERSION 0.7
FIELDS x y z rgb
SIZE 4 4 4 4
TYPE F F F U
COUNT 1 1 1 1
WIDTH 256
HEIGHT 1
VIEWPOINT 0 0 0 1 0 0 0
POINTS 256
DATA ascii
-0.013706171 0.0088457428 0.24498457 4278190335
0.0083498089 0.00029097387 0.24552484 4278190335
0.02743482 -0.0071114576 0.23365435 4278190335
0.03795293 -0.011191077 0.21285367 4278190335
0.028550154 -0.0075440574 0.24303922 4278190335
0.047493454 -0.014891524 0.23091039 4278190335
0.057765082 -0.018875541 0.20996849 4278190335
0.056353278 -0.018327951 0.18635389 4278190335
0.063364625 -0.021047415 0.21727842 4278190335
0.073388122 -0.02493519 0.19619864 4278190335
0.071697563 -0.024279481 0.17260511 4278190335
0.058788642 -0.019272545 0.15341572 4278190335
0.080064759 -0.027524833 0.17559922 4278190335
0.078095719 -0.026761109 0.15203056 4278190335
0.064961225 -0.021666681 0.13301809 4278190335
0.044512454 -0.013735294 0.12413647 4278190335
0.05292289 -0.016997419 0.23880242 4278190335
0.072150156 -0.024455026 0.22719903 4278190335
0.082919478 -0.028632082 0.20654677 4278190335
0.082073174 -0.028303828 0.1829011 4278190335
0.088342272 -0.030735401 0.21400842 4278190335
0.09886685 -0.034817528 0.19321151 4278190335
0.097741373 -0.034380995 0.16957922 4278190335
0.085295849 -0.029553795 0.15004082 4278190335
0.10603417 -0.037597492 0.17280266 4278190335
0.10462971 -0.037052747 0.14918756 4278190335
0.091954455 -0.032136444 0.1298198 4278190335
0.071724929 -0.024290094 0.12037823 4278190335
0.10057508 -0.035480093 0.12781686 4278190335
0.087672122 -0.030475471 0.10862286 4278190335
0.067332722 -0.022586506 0.099456877 4278190335
0.045520619 -0.014126328 0.10300647 4278190335
0.10729019 -0.038084656 0.19702868 4278190335
0.1183089 -0.042358443 0.17652832 4278190335
0.11774925 -0.042141374 0.15287283 4278190335
0.10577533 -0.037497092 0.13299827 4278190335
0.1259622 -0.045326896 0.15632348 4278190335
0.12512323 -0.045001492 0.1326775 4278190335
0.11291557 -0.040266551 0.11296722 4278190335
0.092918612 -0.032510407 0.1029719 4278190335
0.12158127 -0.043627687 0.11120223 4278190335
0.10914183 -0.038802844 0.091659375 4278190335
0.08902844 -0.031001542 0.081936531 4278190335
0.06713859 -0.022511208 0.084884547 4278190335
0.095490418 -0.033507925 0.075496979 4278190335
0.075263828 -0.025662715 0.066048175 4278190335
0.053410549 -0.017186565 0.069293343 4278190335
0.036338195 -0.010564776 0.084280968 4278190335
0.1341836 -0.048515704 0.13135175 4278190335
0.1339107 -0.048409853 0.10769048 4278190335
0.12217866 -0.043859392 0.087650642 4278190335
0.10242745 -0.036198568 0.077108167 4278190335
0.13088375 -0.047235802 0.086124778 4278190335
0.118916 -0.042593915 0.066245943 4278190335
0.099041879 -0.034885418 0.055972651 4278190335
0.077088699 -0.02637052 0.05831714 4278190335
0.10565581 -0.037450735 0.049713098 4278190335
0.085661963 -0.0296958 0.039710633 4278190335
0.063738234 -0.021192325 0.042353183 4278190335
0.046312895 -0.014433624 0.056865927 4278190335
0.066233486 -0.022160148 0.033278827 4278190335
0.044342719 -0.01366946 0.036219016 4278190335
0.02709016 -0.0069777751 0.050967328 4278190335
0.01953445 -0.0040471707 0.073199399 4278190335
-0.015175758 0.0030093491 0.24498457 4278190335
0.0083014676 9.8990218e-05 0.24552484 4278190335
0.028616283 -0.00241934 0.23365435 4278190335
0.039812159 -0.003807239 0.21285367 4278190335
0.029803485 -0.0025665117 0.24303922 4278190335
0.049967457 -0.0050661424 0.23091039 4278190335
0.060900968 -0.0064215176 0.20996849 4278190335
0.059398193 -0.0062352256 0.18635389 4278190335
0.066861339 -0.0071603954 0.21727842 4278190335
0.077530727 -0.008483029 0.19619864 4278190335
0.075731233 -0.0082599539 0.17260511 4278190335
0.061990488 -0.0065565798 0.15341572 4278190335
0.084637597 -0.0093640331 0.17559922 4278190335
0.082541674 -0.0091042118 0.15203056 4278190335
0.068560816 -0.0073710722 0.13301809 4278190335
0.046794366 -0.0046727899 0.12413647 4278190335
0.055746756 -0.0057825744 0.23880242 4278190335
0.076212995 -0.0083196759 0.22719903 4278190335
0.087676272 -0.0097407233 0.20654677 4278190335
0.08677543 -0.0096290503 0.1829011 4278190335
0.093448497 -0.010456279 0.21400842 4278190335
0.10465126 -0.011845031 0.19321151 4278190335
0.10345326 -0.01169652 0.16957922 4278190335
0.090205766 -0.010054293 0.15004082 4278190335
0.11228043 -0.012790782 0.17280266 4278190335
0.11078546 -0.012605459 0.14918756 4278190335
0.097293437 -0.010932918 0.1298198 4278190335
0.075760365 -0.0082635656 0.12037823 4278190335
0.10646956 -0.012070437 0.12781686 4278190335
0.092735164 -0.01036785 0.10862286 4278190335
0.071085133 -0.0076839994 0.099456877 4278190335
0.047867496 -0.0048058205 0.10300647 4278190335
0.11361738 -0.012956518 0.19702868 4278190335
0.12534612 -0.014410473 0.17652832 4278190335
0.12475041 -0.014336626 0.15287283 4278190335
0.1120049 -0.012756627 0.13299827 4278190335
0.13349257 -0.01542035 0.15632348 4278190335
0.13259955 -0.015309647 0.1326775 4278190335
0.11960524 -0.013698805 0.11296722 4278190335
0.098319724 -0.011060142 0.1029719 4278190335
0.12882936 -0.014842274 0.11120223 4278190335
0.11558833 -0.013200847 0.091659375 4278190335
0.094178878 -0.01054682 0.081936531 4278190335
0.070878491 -0.0076583829 0.084884547 4278190335
0.10105725 -0.0113995 0.075496979 4278190335
0.079527304 -0.0087305354 0.066048175 4278190335
0.056265838 -0.0058469228 0.069293343 4278190335
0.038093373 -0.0035941696 0.084280968 4278190335
0.14224376 -0.016505193 0.13135175 4278190335
0.14195326 -0.016469182 0.10769048 4278190335
0.12946524 -0.014921101 0.087650642 4278190335
0.1084413 -0.012314864 0.077108167 4278190335
0.13873127 -0.016069766 0.086124778 4278190335
0.12599234 -0.014490582 0.066245943 4278190335
0.10483757 -0.011868127 0.055972651 4278190335
0.081469767 -0.0089713326 0.05831714 4278190335
0.11187769 -0.012740856 0.049713098 4278190335
0.090595476 -0.010102603 0.039710633 4278190335
0.067259021 -0.0072096945 0.042353183 4278190335
0.048710823 -0.0049103634 0.056865927 4278190335
0.069915064 -0.007538951 0.033278827 4278190335
0.046613693 -0.0046503926 0.036219016 4278190335
0.028249413 -0.0023738607 0.050967328 4278190335
0.020206828 -0.0013768601 0.073199399 4278190335
-0.015175774 -0.0030092204 0.24498457 4278190335
0.0083014676 -9.8985976e-05 0.24552484 4278190335
0.028616294 0.0024192363 0.23365435 4278190335
0.039812177 0.0038070758 0.21285367 4278190335
0.0298035 0.0025664018 0.24303922 4278190335
0.049967483 0.0050659259 0.23091039 4278190335
0.060901001 0.0064212424 0.20996849 4278190335
0.059398226 0.0062349588 0.18635389 4278190335
0.066861376 0.007160089 0.21727842 4278190335
0.077530771 0.0084826658 0.19619864 4278190335
0.075731277 0.008259601 0.17260511 4278190335
0.061990522 0.006556299 0.15341572 4278190335
0.084637649 0.0093636326 0.17559922 4278190335
0.082541727 0.0091038225 0.15203056 4278190335
0.068560854 0.0073707565 0.13301809 4278190335
0.046794392 0.0046725897 0.12413647 4278190335
0.055746786 0.0057823271 0.23880242 4278190335
0.076213039 0.0083193192 0.22719903 4278190335
0.087676324 0.0097403061 0.20654677 4278190335
0.086775482 0.0096286377 0.1829011 4278190335
0.093448557 0.010455831 0.21400842 4278190335
0.10465132 0.011844523 0.19321151 4278190335
0.10345332 0.01169602 0.16957922 4278190335
0.090205818 0.010053863 0.15004082 4278190335
0.1122805 0.012790235 0.17280266 4278190335
0.11078553 0.012604919 0.14918756 4278190335
0.097293496 0.010932449 0.1298198 4278190335
0.075760409 0.0082632117 0.12037823 4278190335
0.10646962 0.012069921 0.12781686 4278190335
0.092735216 0.010367406 0.10862286 4278190335
0.07108517 0.0076836706 0.099456877 4278190335
0.047867522 0.0048056147 0.10300647 4278190335
0.11361745 0.012955964 0.19702868 4278190335
0.1253462 0.014409857 0.17652832 4278190335
0.12475048 0.014336012 0.15287283 4278190335
0.11200497 0.01275608 0.13299827 4278190335
0.13349265 0.01541969 0.15632348 4278190335
0.13259964 0.015308991 0.1326775 4278190335
0.11960532 0.013698218 0.11296722 4278190335
0.098319784 0.011059668 0.1029719 4278190335
0.12882943 0.014841639 0.11120223 4278190335
0.1155884 0.013200282 0.091659375 4278190335
0.094178937 0.010546369 0.081936531 4278190335
0.070878528 0.0076580546 0.084884547 4278190335
0.10105731 0.011399012 0.075496979 4278190335
0.079527348 0.008730161 0.066048175 4278190335
0.056265868 0.0058466722 0.069293343 4278190335
0.038093392 0.0035940157 0.084280968 4278190335
0.14224385 0.016504485 0.13135175 4278190335
0.14195335 0.016468477 0.10769048 4278190335
0.12946531 0.014920462 0.087650642 4278190335
0.10844137 0.012314337 0.077108167 4278190335
0.13873135 0.016069079 0.086124778 4278190335
0.12599242 0.014489962 0.066245943 4278190335
0.10483763 0.011867618 0.055972651 4278190335
0.081469811 0.0089709479 0.05831714 4278190335
0.11187775 0.012740311 0.049713098 4278190335
0.090595528 0.010102171 0.039710633 4278190335
0.067259058 0.0072093857 0.042353183 4278190335
0.048710849 0.0049101533 0.056865927 4278190335
0.069915101 0.0075386283 0.033278827 4278190335
0.046613719 0.0046501933 0.036219016 4278190335
0.028249426 0.0023737592 0.050967328 4278190335
0.020206835 0.0013768012 0.073199399 4278190335
-0.013706218 -0.0088456217 0.24498457 4278190335
0.008349807 -0.00029096991 0.24552484 4278190335
0.027434858 0.0071113603 0.23365435 4278190335
0.037952989 0.011190923 0.21285367 4278190335
0.028550195 0.0075439545 0.24303922 4278190335
0.047493532 0.01489132 0.23091039 4278190335
0.057765182 0.018875282 0.20996849 4278190335
0.056353375 0.0183277 0.18635389 4278190335
0.063364737 0.021047127 0.21727842 4278190335
0.073388256 0.024934849 0.19619864 4278190335
0.07169769 0.024279147 0.17260511 4278190335
0.058788747 0.019272283 0.15341572 4278190335
0.080064908 0.027524456 0.17559922 4278190335
0.078095861 0.026760742 0.15203056 4278190335
0.064961337 0.021666385 0.13301809 4278190335
0.044512529 0.013735107 0.12413647 4278190335
0.052922983 0.016997186 0.23880242 4278190335
0.07215029 0.024454692 0.22719903 4278190335
0.082919635 0.028631691 0.20654677 4278190335
0.082073323 0.028303441 0.1829011 4278190335
0.088342436 0.03073498 0.21400842 4278190335
0.098867029 0.034817051 0.19321151 4278190335
0.097741552 0.034380522 0.16957922 4278190335
0.085296005 0.029553391 0.15004082 4278190335
0.10603438 0.037596975 0.17280266 4278190335
0.1046299 0.03705224 0.14918756 4278190335
0.091954626 0.032136004 0.1298198 4278190335
0.071725056 0.024289763 0.12037823 4278190335
0.10057527 0.035479605 0.12781686 4278190335
0.087672286 0.030475054 0.10862286 4278190335
0.067332841 0.022586197 0.099456877 4278190335
0.045520693 0.014126135 0.10300647 4278190335
0.10729039 0.038084134 0.19702868 4278190335
0.11830913 0.042357866 0.17652832 4278190335
0.11774947 0.042140797 0.15287283 4278190335
0.10577552 0.037496578 0.13299827 4278190335
0.12596244 0.045326274 0.15632348 4278190335
0.12512347 0.045000877 0.1326775 4278190335
0.11291578 0.040266 0.11296722 4278190335
0.092918783 0.032509964 0.1029719 4278190335
0.12158151 0.043627091 0.11120223 4278190335
0.10914203 0.038802315 0.091659375 4278190335
0.089028604 0.031001117 0.081936531 4278190335
0.067138709 0.022510899 0.084884547 4278190335
0.095490597 0.033507466 0.075496979 4278190335
0.07526397 0.025662363 0.066048175 4278190335
0.053410638 0.017186329 0.069293343 4278190335
0.036338251 0.010564632 0.084280968 4278190335
0.13418385 0.04851504 0.13135175 4278190335
0.13391095 0.04840919 0.10769048 4278190335
0.1221789 0.043858793 0.087650642 4278190335
0.10242765 0.036198072 0.077108167 4278190335
0.13088399 0.047235154 0.086124778 4278190335
0.11891623 0.042593334 0.066245943 4278190335
0.099042065 0.034884937 0.055972651 4278190335
0.07708884 0.026370158 0.05831714 4278190335
0.10565601 0.037450224 0.049713098 4278190335
0.085662119 0.029695394 0.039710633 4278190335
0.063738346 0.021192035 0.042353183 4278190335
0.046312969 0.014433427 0.056865927 4278190335
0.066233605 0.022159845 0.033278827 4278190335
0.04434279 0.013669273 0.036219016 4278190335
0.027090197 0.0069776797 0.050967328 4278190335
0.019534472 0.0040471153 0.073199399 4278190335
