# .PCD v0.7 - Point Cloud Data file format
VERSION 0.7
FIELDS x y z rgb
SIZE 4 4 4 4
TYPE F F F U
COUNT 1 1 1 1
WIDTH 625
HEIGHT 1
VIEWPOINT 0 0 0 1 0 0 0
POINTS 625
DATA ascii
-0.013706171 0.0088457428 0.24498457 4278190335
0.002862016 0.0024195032 0.24661292 4278190335
0.018655665 -0.0037063195 0.24100152 4278190335
0.031041084 -0.0085102059 0.2290861 4278190335
0.03795293 -0.011191077 0.21285367 4278190335
0.018186692 -0.0035244206 0.24591628 4278190335
0.033929929 -0.0096306903 0.24014419 4278190335
0.046209253 -0.014393426 0.22810313 4278190335
0.052977018 -0.017018413 0.21180099 4278190335
0.053104647 -0.017067917 0.19395627 4278190335
0.047652744 -0.014953308 0.23279469 4278190335
0.059824869 -0.019674463 0.22062905 4278190335
0.066447943 -0.022243328 0.20425868 4278190335
0.066417515 -0.022231529 0.18641347 4278190335
0.05973867 -0.019641029 0.1700692 4278190335
0.069552101 -0.023447327 0.20790869 4278190335
0.076029882 -0.02595984 0.19147158 4278190335
0.075841404 -0.025886735 0.17362747 4278190335
0.069018096 -0.023240205 0.15735199 4278190335
0.056697793 -0.018461576 0.14535917 4278190335
0.080064759 -0.027524833 0.17559922 4278190335
0.079718247 -0.027390432 0.15775783 4278190335
0.072751097 -0.02468811 0.14155263 4278190335
0.060325131 -0.019868499 0.12968588 4278190335
0.044512454 -0.013735294 0.12413647 4278190335
0.0367065 -0.010707628 0.24393685 4278190335
0.052550405 -0.016852943 0.23849088 4278190335
0.065043546 -0.021698611 0.22670555 4278190335
0.072102614 -0.024436586 0.21054617 4278190335
0.072550468 -0.024610292 0.19270739 4278190335
0.066402577 -0.022225732 0.23142606 4278190335
0.078790769 -0.027030695 0.21951397 4278190335
0.085706398 -0.029713035 0.20328338 4278190335
0.085996233 -0.029825451 0.18544084 4278190335
0.079611942 -0.0273492 0.1689617 4278190335
0.088744484 -0.030891404 0.20699678 4278190335
0.095516041 -0.033517864 0.19069646 4278190335
0.095647834 -0.033568982 0.17285177 4278190335
0.089117877 -0.031036232 0.15643844 4278190335
0.07701508 -0.026341965 0.14419347 4278190335
0.099835023 -0.035193052 0.17491035 4278190335
0.09980876 -0.035182863 0.15706512 4278190335
0.093133725 -0.032593843 0.14071907 4278190335
0.080923021 -0.027857723 0.12859797 4278190335
0.065212868 -0.021764284 0.12272312 4278190335
0.097739637 -0.03438032 0.14076371 4278190335
0.09092012 -0.03173526 0.12448641 4278190335
0.078602612 -0.026957717 0.11249029 4278190335
0.062841132 -0.02084437 0.10677578 4278190335
0.046264004 -0.014414662 0.10829582 4278190335
0.082728401 -0.028557969 0.22184117 4278190335
0.095328078 -0.03344496 0.21018705 4278190335
0.1025337 -0.036239777 0.19410226 4278190335
0.10314368 -0.03647637 0.17626899 4278190335
0.097056314 -0.034115285 0.15966111 4278190335
0.10550458 -0.03739208 0.19787769 4278190335
0.11256742 -0.040131513 0.1817202 4278190335
0.11301942 -0.040306833 0.16388154 4278190335
0.10678523 -0.037888803 0.14733642 4278190335
0.09490443 -0.033280641 0.13484386 4278190335
0.1171689 -0.041916274 0.16602618 4278190335
0.11746289 -0.042030305 0.14818372 4278190335
0.11108244 -0.039555542 0.13170287 4278190335
0.09909153 -0.034904674 0.11933193 4278190335
0.083489709 -0.028853256 0.11313382 4278190335
0.11568669 -0.041341379 0.13184261 4278190335
0.10916056 -0.038810112 0.11542752 4278190335
0.097060621 -0.034116954 0.10317932 4278190335
0.081404611 -0.028044516 0.097140461 4278190335
0.06480328 -0.021605419 0.098317966 4278190335
0.10131652 -0.035767671 0.10128978 4278190335
0.089108646 -0.03103265 0.089165419 4278190335
0.073399857 -0.024939742 0.08328636 4278190335
0.056809697 -0.018504981 0.08463297 4278190335
0.042104684 -0.012801401 0.092980698 4278190335
0.11703982 -0.041866213 0.1822118 4278190335
0.12439132 -0.044717606 0.16620313 4278190335
0.12516338 -0.045017064 0.14837711 4278190335
0.11922727 -0.042714644 0.13170634 4278190335
0.10757286 -0.038194295 0.1189708 4278190335
0.12927359 -0.046611276 0.15060702 4278190335
0.12988773 -0.046849482 0.13277394 4278190335
0.12380423 -0.044489898 0.11616441 4278190335
0.11203755 -0.039926 0.10354819 4278190335
0.096549869 -0.03391885 0.097029112 4278190335
0.12840514 -0.046274431 0.11639918 4278190335
0.1221748 -0.043857895 0.099852391 4278190335
0.11029691 -0.039250862 0.087356642 4278190335
0.094752178 -0.033221584 0.080995664 4278190335
0.078132778 -0.026775483 0.081830204 4278190335
0.11458593 -0.040914427 0.085555322 4278190335
0.1025979 -0.036264677 0.07318116 4278190335
0.086997531 -0.03021382 0.066978864 4278190335
0.070386276 -0.023770876 0.067982711 4278190335
0.055534177 -0.018010247 0.076025292 4278190335
0.090226524 -0.031466238 0.063455664 4278190335
0.074571922 -0.025394347 0.057412609 4278190335
0.057970311 -0.018955143 0.058585666 4278190335
0.043190114 -0.013222404 0.066779219 4278190335
0.03269602 -0.0091520995 0.080626942 4278190335
0.1341836 -0.048515704 0.13135175 4278190335
0.13511766 -0.048877995 0.11353466 4278190335
0.12933338 -0.046634462 0.096802615 4278190335
0.11779528 -0.04215923 0.083945796 4278190335
0.10242745 -0.036198568 0.077108167 4278190335
0.13392919 -0.048417028 0.097132333 4278190335
0.12799697 -0.046116117 0.080459982 4278190335
0.11634553 -0.041596919 0.067721315 4278190335
0.10091784 -0.035613038 0.06104058 4278190335
0.084286548 -0.029162321 0.061531842 4278190335
0.12066609 -0.043272715 0.066008881 4278190335
0.10890234 -0.038709957 0.053389505 4278190335
0.093416177 -0.032703396 0.046866275 4278190335
0.076789983 -0.026254658 0.047526974 4278190335
0.061796304 -0.020439116 0.055261429 4278190335
0.096707799 -0.033980105 0.043410391 4278190335
0.081164546 -0.027951403 0.037045252 4278190335
0.064544961 -0.021505227 0.037875332 4278190335
0.049620461 -0.015716517 0.045762215 4278190335
0.038879797 -0.011550577 0.059390713 4278190335
0.066233486 -0.022160148 0.033278827 4278190335
0.049622003 -0.015717115 0.034278214 4278190335
0.034768026 -0.0099557601 0.042316813 4278190335
0.024148555 -0.0058368263 0.056054138 4278190335
0.01953445 -0.0040471707 0.073199399 4278190335
-0.014944156 0.0044996855 0.24498457 4278190335
0.0025234001 0.0012307619 0.24661292 4278190335
0.019174373 -0.0018853444 0.24100152 4278190335
0.032232109 -0.0043290029 0.2290861 4278190335
0.03951915 -0.0056927186 0.21285367 4278190335
0.018679943 -0.0017928154 0.24591628 4278190335
0.035277769 -0.0048989751 0.24014419 4278190335
0.048223652 -0.0073217014 0.22810313 4278190335
0.05535879 -0.0086569898 0.21180099 4278190335
0.055493347 -0.0086821709 0.19395627 4278190335
0.0497455 -0.007606504 0.23279469 4278190335
0.062578365 -0.010008079 0.22062905 4278190335
0.069560952 -0.01131482 0.20425868 4278190335
0.069528878 -0.011308816 0.18641347 4278190335
0.062487483 -0.0099910721 0.1700692 4278190335
0.072833613 -0.011927274 0.20790869 4278190335
0.079663031 -0.013205348 0.19147158 4278190335
0.079464316 -0.013168161 0.17362747 4278190335
0.072270624 -0.011821914 0.15735199 4278190335
0.059281539 -0.0093911029 0.14535917 4278190335
0.083916932 -0.014001435 0.17559922 4278190335
0.083551608 -0.013933067 0.15775783 4278190335
0.076206267 -0.01255844 0.14155263 4278190335
0.063105777 -0.010106781 0.12968588 4278190335
0.046434745 -0.0069869207 0.12413647 4278190335
0.038205057 -0.0054467958 0.24393685 4278190335
0.054909017 -0.0085728178 0.23849088 4278190335
0.068080321 -0.011037731 0.22670555 4278190335
0.075522579 -0.012430494 0.21054617 4278190335
0.075994745 -0.012518856 0.19270739 4278190335
0.069513127 -0.011305869 0.23142606 4278190335
0.082573786 -0.013750075 0.21951397 4278190335
0.08986482 -0.015114537 0.20328338 4278190335
0.090170383 -0.015171722 0.18544084 4278190335
0.083439536 -0.013912093 0.1689617 4278190335
0.093067817 -0.015713954 0.20699678 4278190335
0.10020696 -0.017049992 0.19069646 4278190335
0.1003459 -0.017075995 0.17285177 4278190335
0.093461476 -0.015787626 0.15643844 4278190335
0.080701709 -0.013399729 0.14419347 4278190335
0.10476039 -0.017902132 0.17491035 4278190335
0.10473269 -0.01789695 0.15706512 4278190335
0.097695321 -0.016579958 0.14071907 4278190335
0.084821783 -0.014170771 0.12859797 4278190335
0.068258837 -0.011071137 0.12272312 4278190335
0.10255125 -0.017488709 0.14076371 4278190335
0.095361553 -0.01614321 0.12448641 4278190335
0.082375415 -0.013712951 0.11249029 4278190335
0.065758355 -0.010603192 0.10677578 4278190335
0.048281375 -0.0073325038 0.10829582 4278190335
0.08672516 -0.014526973 0.22184117 4278190335
0.10000879 -0.017012905 0.21018705 4278190335
0.10760555 -0.018434584 0.19410226 4278190335
0.10824865 -0.018554935 0.17626899 4278190335
0.10183084 -0.017353889 0.15966111 4278190335
0.1107377 -0.019020742 0.19787769 4278190335
0.11818393 -0.020414248 0.1817202 4278190335
0.11866047 -0.02050343 0.16388154 4278190335
0.11208787 -0.019273417 0.14733642 4278190335
0.099562146 -0.016929319 0.13484386 4278190335
0.12303519 -0.021322126 0.16602618 4278190335
0.12334514 -0.021380132 0.14818372 4278190335
0.11661834 -0.020121261 0.13170287 4278190335
0.10397653 -0.01775544 0.11933193 4278190335
0.087527804 -0.014677182 0.11313382 4278190335
0.12147253 -0.021029687 0.13184261 4278190335
0.11459214 -0.019742072 0.11542752 4278190335
0.10183538 -0.017354738 0.10317932 4278190335
0.085329518 -0.014265789 0.097140461 4278190335
0.067827016 -0.010990325 0.098317966 4278190335
0.1063223 -0.018194433 0.10128978 4278190335
0.093451746 -0.015785804 0.089165419 4278190335
0.076890238 -0.012686441 0.08328636 4278190335
0.059399519 -0.0094131818 0.08463297 4278190335
0.043896273 -0.0065118647 0.092980698 4278190335
0.12289912 -0.021296659 0.1822118 4278190335
0.13064967 -0.022747118 0.16620313 4278190335
0.13146363 -0.022899447 0.14837711 4278190335
0.12520529 -0.021728246 0.13170634 4278190335
0.11291825 -0.019428816 0.1189708 4278190335
0.13579696 -0.023710398 0.15060702 4278190335
0.13644445 -0.023831569 0.13277394 4278190335
0.13003072 -0.022631288 0.11616441 4278190335
0.1176253 -0.020309707 0.10354819 4278190335
0.10129689 -0.017253965 0.097029112 4278190335
0.13488136 -0.02353905 0.11639918 4278190335
0.12831283 -0.022309797 0.099852391 4278190335
0.11579017 -0.019966274 0.087356642 4278190335
0.099401623 -0.016899278 0.080995664 4278190335
0.081880078 -0.013620253 0.081830204 4278190335
0.12031201 -0.020812502 0.085555322 4278190335
0.10767324 -0.01844725 0.07318116 4278190335
0.091226034 -0.015369278 0.066978864 4278190335
0.073713072 -0.012091857 0.067982711 4278190335
0.058054756 -0.0091615198 0.076025292 4278190335
0.094630301 -0.016006362 0.063455664 4278190335
0.078125931 -0.012917691 0.057412609 4278190335
0.060623135 -0.0096421726 0.058585666 4278190335
0.045040626 -0.0067260214 0.066779219 4278190335
0.033976883 -0.0046555242 0.080626942 4278190335
0.14097351 -0.024679149 0.13135175 4278190335
0.14195827 -0.024863441 0.11353466 4278190335
0.13585998 -0.023722192 0.096802615 4278190335
0.12369558 -0.021445714 0.083945796 4278190335
0.10749354 -0.018413622 0.077108167 4278190335
0.14070529 -0.024628954 0.097132333 4278190335
0.13445105 -0.023458518 0.080459982 4278190335
0.12216713 -0.021159675 0.067721315 4278190335
0.10590197 -0.018115772 0.06104058 4278190335
0.088367887 -0.014834397 0.061531842 4278190335
0.12672222 -0.022012126 0.066008881 4278190335
0.11431991 -0.019691125 0.053389505 4278190335
0.097993098 -0.016635684 0.046866275 4278190335
0.080464393 -0.013355318 0.047526974 4278190335
0.064656809 -0.010397045 0.055261429 4278190335
0.1014634 -0.017285125 0.043410391 4278190335
0.085076421 -0.014218424 0.037045252 4278190335
0.067554675 -0.010939359 0.037875332 4278190335
0.051820029 -0.0079947365 0.045762215 4278190335
0.040496331 -0.0058755903 0.059390713 4278190335
0.069334857 -0.011272507 0.033278827 4278190335
0.051821653 -0.0079950411 0.034278214 4278190335
0.036161359 -0.0050643333 0.042316813 4278190335
0.024965433 -0.0029690983 0.056054138 4278190335
0.020100864 -0.00205873 0.073199399 4278190335
-0.015361574 6.4910985e-08 0.24498457 4278190335
0.0024092272 1.7754566e-08 0.24661292 4278190335
0.01934927 -2.7197357e-08 0.24100152 4278190335
0.032633696 -6.244877e-08 0.2290861 4278190335
0.04004724 -8.2121282e-08 0.21285367 4278190335
0.018846257 -2.5862565e-08 0.24591628 4278190335
0.035732225 -7.0671007e-08 0.24014419 4278190335
0.048902858 -1.0562046e-07 0.22810313 4278190335
0.056161862 -1.2488287e-07 0.21180099 4278190335
0.056298759 -1.2524615e-07 0.19395627 4278190335
0.050451126 -1.0972892e-07 0.23279469 4278190335
0.063506775 -1.4437326e-07 0.22062905 4278190335
0.070610583 -1.6322386e-07 0.20425868 4278190335
0.070577949 -1.6313726e-07 0.18641347 4278190335
0.063414313 -1.4412791e-07 0.1700692 4278190335
0.073940061 -1.7205893e-07 0.20790869 4278190335
0.080888033 -1.90496e-07 0.19147158 4278190335
0.080685876 -1.8995955e-07 0.17362747 4278190335
0.073367298 -1.7053904e-07 0.15735199 4278190335
0.060152717 -1.3547297e-07 0.14535917 4278190335
0.085215792 -2.0198009e-07 0.17559922 4278190335
0.084844127 -2.0099384e-07 0.15775783 4278190335
0.077371262 -1.8116393e-07 0.14155263 4278190335
0.064043343 -1.457971e-07 0.12968588 4278190335
0.047082894 -1.0079102e-07 0.12413647 4278190335
0.038710337 -7.8573684e-08 0.24393685 4278190335
0.055704284 -1.2366866e-07 0.23849088 4278190335
0.069104254 -1.5922667e-07 0.22670555 4278190335
0.076675706 -1.7931821e-07 0.21054617 4278190335
0.077156067 -1.8059289e-07 0.19270739 4278190335
0.070561923 -1.6309474e-07 0.23142606 4278190335
0.083849326 -1.9835406e-07 0.21951397 4278190335
0.09126693 -2.1803733e-07 0.20328338 4278190335
0.091577806 -2.1886227e-07 0.18544084 4278190335
0.084730104 -2.0069128e-07 0.1689617 4278190335
0.094525538 -2.2668434e-07 0.20699678 4278190335
0.10178862 -2.4595758e-07 0.19069646 4278190335
0.10192998 -2.4633266e-07 0.17285177 4278190335
0.094926037 -2.2774709e-07 0.15643844 4278190335
0.081944749 -1.9330008e-07 0.14419347 4278190335
0.1064211 -2.5825025e-07 0.17491035 4278190335
0.10639292 -2.581755e-07 0.15706512 4278190335
0.099233374 -2.3917701e-07 0.14071907 4278190335
0.086136349 -2.0442288e-07 0.12859797 4278190335
0.069285862 -1.5970858e-07 0.12272312 4278190335
0.10417361 -2.5228636e-07 0.14076371 4278190335
0.096859097 -2.3287664e-07 0.12448641 4278190335
0.083647512 -1.9781852e-07 0.11249029 4278190335
0.066741973 -1.5295815e-07 0.10677578 4278190335
0.048961584 -1.0577629e-07 0.10829582 4278190335
0.088072769 -2.0956134e-07 0.22184117 4278190335
0.101587 -2.4542257e-07 0.21018705 4278190335
0.10931566 -2.6593125e-07 0.19410226 4278190335
0.10996992 -2.6766739e-07 0.17626899 4278190335
0.10344069 -2.5034149e-07 0.15966111 4278190335
0.11250218 -2.7438696e-07 0.19787769 4278190335
0.12007768 -2.9448921e-07 0.1817202 4278190335
0.12056249 -2.9577575e-07 0.16388154 4278190335
0.11387579 -2.7803196e-07 0.14733642 4278190335
0.10113261 -2.4421681e-07 0.13484386 4278190335
0.12501316 -3.0758596e-07 0.16602618 4278190335
0.1253285 -3.0842273e-07 0.14818372 4278190335
0.11848491 -2.9026268e-07 0.13170287 4278190335
0.10562363 -2.5613411e-07 0.11933193 4278190335
0.088889346 -2.1172819e-07 0.11313382 4278190335
0.12342337 -3.0336733e-07 0.13184261 4278190335
0.11642353 -2.8479263e-07 0.11542752 4278190335
0.10344531 -2.5035374e-07 0.10317932 4278190335
0.086652897 -2.0579358e-07 0.097140461 4278190335
0.068846539 -1.5854282e-07 0.098317966 4278190335
0.10801013 -2.624669e-07 0.10128978 4278190335
0.094916128 -2.277208e-07 0.089165419 4278190335
0.078067109 -1.8301041e-07 0.08328636 4278190335
0.060272742 -1.3579147e-07 0.08463297 4278190335
0.044500355 -9.3938013e-08 0.092980698 4278190335
0.12487472 -3.0721861e-07 0.1822118 4278190335
0.13275982 -3.2814245e-07 0.16620313 4278190335
0.13358793 -3.303399e-07 0.14837711 4278190335
0.12722093 -3.134445e-07 0.13170634 4278190335
0.11472058 -2.802737e-07 0.1189708 4278190335
0.13799648 -3.4203839e-07 0.15060702 4278190335
0.1386552 -3.4378638e-07 0.13277394 4278190335
0.13213013 -3.2647151e-07 0.11616441 4278190335
0.11950935 -2.9298116e-07 0.10354819 4278190335
0.10289748 -2.4890002e-07 0.097029112 4278190335
0.13706498 -3.3956658e-07 0.11639918 4278190335
0.13038242 -3.2183377e-07 0.099852391 4278190335
0.11764236 -2.8802691e-07 0.087356642 4278190335
0.1009693 -2.4378343e-07 0.080995664 4278190335
0.083143577 -1.9648128e-07 0.081830204 4278190335
0.1222427 -3.0023432e-07 0.085555322 4278190335
0.10938451 -2.6611397e-07 0.07318116 4278190335
0.092651777 -2.2171214e-07 0.066978864 4278190335
0.074834786 -1.7443317e-07 0.067982711 4278190335
0.058904637 -1.3216108e-07 0.076025292 4278190335
0.09611515 -2.3090251e-07 0.063455664 4278190335
0.079324253 -1.8634636e-07 0.057412609 4278190335
0.0615176 -1.3909481e-07 0.058585666 4278190335
0.045664571 -9.7027375e-08 0.066779219 4278190335
0.034408756 -6.7159057e-08 0.080626942 4278190335
0.14326289 -3.5601329e-07 0.13135175 4278190335
0.14426476 -3.586718e-07 0.11353466 4278190335
0.1380606 -3.4220852e-07 0.096802615 4278190335
0.12568502 -3.093688e-07 0.083945796 4278190335
0.1092017 -2.6562884e-07 0.077108167 4278190335
0.14299002 -3.5528919e-07 0.097132333 4278190335
0.1366272 -3.3840487e-07 0.080459982 4278190335
0.12413003 -3.0524251e-07 0.067721315 4278190335
0.1075825 -2.6133216e-07 0.06104058 4278190335
0.089744017 -2.1399615e-07 0.061531842 4278190335
0.1287642 -3.1753967e-07 0.066008881 4278190335
0.11614657 -2.8405771e-07 0.053389505 4278190335
0.09953633 -2.3998092e-07 0.046866275 4278190335
0.081703313 -1.9265941e-07 0.047526974 4278190335
0.065621302 -1.4998436e-07 0.055261429 4278190335
0.10306688 -2.4934954e-07 0.043410391 4278190335
0.086395405 -2.0511031e-07 0.037045252 4278190335
0.068569474 -1.5780759e-07 0.037875332 4278190335
0.052561667 -1.1532944e-07 0.045762215 4278190335
0.041041385 -8.4759336e-08 0.059390713 4278190335
0.070380561 -1.6261347e-07 0.033278827 4278190335
0.052563321 -1.1533383e-07 0.034278214 4278190335
0.036631159 -7.3056405e-08 0.042316813 4278190335
0.025240866 -4.2831235e-08 0.056054138 4278190335
0.020291843 -2.9698562e-08 0.073199399 4278190335
-0.01494418 -0.0044995579 0.24498457 4278190335
0.0025233936 -0.0012307271 0.24661292 4278190335
0.019174384 0.0018852908 0.24100152 4278190335
0.032232132 0.00432888 0.2290861 4278190335
0.03951918 0.005692557 0.21285367 4278190335
0.018679952 0.0017927645 0.24591628 4278190335
0.035277795 0.0048988364 0.24014419 4278190335
0.048223689 0.0073214937 0.22810313 4278190335
0.055358835 0.0086567439 0.21180099 4278190335
0.055493396 0.008681925 0.19395627 4278190335
0.049745541 0.0076062884 0.23279469 4278190335
0.062578417 0.010007796 0.22062905 4278190335
0.069561012 0.011314498 0.20425868 4278190335
0.069528937 0.011308496 0.18641347 4278190335
0.062487535 0.0099907881 0.1700692 4278190335
0.07283368 0.011926936 0.20790869 4278190335
0.079663098 0.013204973 0.19147158 4278190335
0.079464391 0.013167787 0.17362747 4278190335
0.072270691 0.011821579 0.15735199 4278190335
0.059281591 0.0093908366 0.14535917 4278190335
0.083917007 0.014001037 0.17559922 4278190335
0.083551683 0.013932671 0.15775783 4278190335
0.076206334 0.012558084 0.14155263 4278190335
0.063105837 0.010106495 0.12968588 4278190335
0.046434782 0.0069867228 0.12413647 4278190335
0.038205087 0.0054466417 0.24393685 4278190335
0.054909062 0.0085725747 0.23849088 4278190335
0.068080381 0.011037418 0.22670555 4278190335
0.075522646 0.012430141 0.21054617 4278190335
0.075994812 0.0125185 0.19270739 4278190335
0.069513187 0.011305548 0.23142606 4278190335
0.082573861 0.013749685 0.21951397 4278190335
0.089864895 0.015114108 0.20328338 4278190335
0.090170465 0.015171291 0.18544084 4278190335
0.083439611 0.013911699 0.1689617 4278190335
0.093067899 0.015713509 0.20699678 4278190335
0.10020705 0.017049508 0.19069646 4278190335
0.10034599 0.017075511 0.17285177 4278190335
0.093461566 0.015787177 0.15643844 4278190335
0.080701783 0.013399349 0.14419347 4278190335
0.10476048 0.017901624 0.17491035 4278190335
0.10473279 0.017896442 0.15706512 4278190335
0.097695403 0.016579486 0.14071907 4278190335
0.084821858 0.014170368 0.12859797 4278190335
0.068258896 0.011070823 0.12272312 4278190335
0.10255134 0.017488213 0.14076371 4278190335
0.095361643 0.016142752 0.12448641 4278190335
0.082375489 0.013712563 0.11249029 4278190335
0.065758415 0.010602891 0.10677578 4278190335
0.048281413 0.0073322961 0.10829582 4278190335
0.086725242 0.014526562 0.22184117 4278190335
0.10000888 0.017012423 0.21018705 4278190335
0.10760565 0.018434061 0.19410226 4278190335
0.10824875 0.018554408 0.17626899 4278190335
0.10183093 0.017353397 0.15966111 4278190335
0.1107378 0.019020202 0.19787769 4278190335
0.11818404 0.020413669 0.1817202 4278190335
0.11866058 0.020502849 0.16388154 4278190335
0.11208797 0.019272869 0.14733642 4278190335
0.099562235 0.01692884 0.13484386 4278190335
0.1230353 0.021321522 0.16602618 4278190335
0.12334526 0.021379525 0.14818372 4278190335
0.11661845 0.02012069 0.13170287 4278190335
0.10397662 0.017754935 0.11933193 4278190335
0.087527879 0.014676766 0.11313382 4278190335
0.12147264 0.021029089 0.13184261 4278190335
0.11459225 0.019741513 0.11542752 4278190335
0.10183547 0.017354246 0.10317932 4278190335
0.085329592 0.014265385 0.097140461 4278190335
0.067827068 0.010990013 0.098317966 4278190335
0.10632239 0.018193917 0.10128978 4278190335
0.093451828 0.015785355 0.089165419 4278190335
0.076890305 0.012686081 0.08328636 4278190335
0.059399568 0.0094129154 0.08463297 4278190335
0.043896306 0.0065116799 0.092980698 4278190335
0.12289923 0.021296056 0.1822118 4278190335
0.13064979 0.022746474 0.16620313 4278190335
0.13146375 0.022898799 0.14837711 4278190335
0.12520541 0.021727629 0.13170634 4278190335
0.11291835 0.019428264 0.1189708 4278190335
0.1357971 0.023709726 0.15060702 4278190335
0.13644457 0.023830893 0.13277394 4278190335
0.13003084 0.022630645 0.11616441 4278190335
0.11762542 0.020309132 0.10354819 4278190335
0.10129699 0.017253477 0.097029112 4278190335
0.13488148 0.023538381 0.11639918 4278190335
0.12831295 0.022309164 0.099852391 4278190335
0.11579027 0.019965708 0.087356642 4278190335
0.099401712 0.0168988 0.080995664 4278190335
0.081880152 0.013619866 0.081830204 4278190335
0.12031212 0.020811914 0.085555322 4278190335
0.10767333 0.018446727 0.07318116 4278190335
0.091226116 0.015368843 0.066978864 4278190335
0.073713139 0.012091515 0.067982711 4278190335
0.058054809 0.00916126 0.076025292 4278190335
0.09463039 0.016005909 0.063455664 4278190335
0.078125998 0.012917324 0.057412609 4278190335
0.060623184 0.0096418997 0.058585666 4278190335
0.04504066 0.006725831 0.066779219 4278190335
0.033976905 0.0046553919 0.080626942 4278190335
0.14097363 0.024678448 0.13135175 4278190335
0.1419584 0.024862735 0.11353466 4278190335
0.13586012 0.02372152 0.096802615 4278190335
0.12369569 0.021445105 0.083945796 4278190335
0.10749364 0.018413099 0.077108167 4278190335
0.14070542 0.024628256 0.097132333 4278190335
0.13445117 0.023457853 0.080459982 4278190335
0.12216724 0.021159075 0.067721315 4278190335
0.10590207 0.018115258 0.06104058 4278190335
0.088367969 0.014833977 0.061531842 4278190335
0.12672234 0.022011502 0.066008881 4278190335
0.11432001 0.019690568 0.053389505 4278190335
0.097993188 0.016635213 0.046866275 4278190335
0.080464467 0.013354938 0.047526974 4278190335
0.064656869 0.010396751 0.055261429 4278190335
0.1014635 0.017284635 0.043410391 4278190335
0.085076496 0.01421802 0.037045252 4278190335
0.067554735 0.010939049 0.037875332 4278190335
0.05182007 0.0079945102 0.045762215 4278190335
0.040496361 0.005875424 0.059390713 4278190335
0.069334917 0.011272187 0.033278827 4278190335
0.051821694 0.0079948138 0.034278214 4278190335
0.036161389 0.0050641894 0.042316813 4278190335
0.02496545 0.0029690142 0.056054138 4278190335
0.020100875 0.0020586716 0.073199399 4278190335
-0.013706218 -0.0088456217 0.24498457 4278190335
0.0028620032 -0.0024194701 0.24661292 4278190335
0.018655684 0.0037062687 0.24100152 4278190335
0.03104113 0.0085100885 0.2290861 4278190335
0.037952989 0.011190923 0.21285367 4278190335
0.018186711 0.0035243724 0.24591628 4278190335
0.033929978 0.0096305581 0.24014419 4278190335
0.046209332 0.014393229 0.22810313 4278190335
0.052977107 0.01701818 0.21180099 4278190335
0.05310474 0.017067682 0.19395627 4278190335
0.047652826 0.014953103 0.23279469 4278190335
0.059824973 0.019674195 0.22062905 4278190335
0.066448055 0.022243025 0.20425868 4278190335
0.066417634 0.022231223 0.18641347 4278190335
0.059738774 0.01964076 0.1700692 4278190335
0.069552228 0.023447007 0.20790869 4278190335
0.076030016 0.025959484 0.19147158 4278190335
0.075841539 0.025886381 0.17362747 4278190335
0.069018222 0.023239888 0.15735199 4278190335
0.056697894 0.018461324 0.14535917 4278190335
0.080064908 0.027524456 0.17559922 4278190335
0.079718389 0.027390057 0.15775783 4278190335
0.072751231 0.024687773 0.14155263 4278190335
0.060325235 0.019868227 0.12968588 4278190335
0.044512529 0.013735107 0.12413647 4278190335
0.036706556 0.010707482 0.24393685 4278190335
0.052550495 0.016852712 0.23849088 4278190335
0.065043665 0.021698315 0.22670555 4278190335
0.072102748 0.024436252 0.21054617 4278190335
0.072550602 0.024609957 0.19270739 4278190335
0.066402696 0.022225428 0.23142606 4278190335
0.078790918 0.027030326 0.21951397 4278190335
0.085706554 0.029712629 0.20328338 4278190335
0.085996389 0.029825043 0.18544084 4278190335
0.079612091 0.027348826 0.1689617 4278190335
0.088744648 0.030890981 0.20699678 4278190335
0.09551622 0.033517405 0.19069646 4278190335
0.095648013 0.03356852 0.17285177 4278190335
0.089118041 0.031035807 0.15643844 4278190335
0.077015221 0.026341606 0.14419347 4278190335
0.09983521 0.035192568 0.17491035 4278190335
0.099808946 0.035182383 0.15706512 4278190335
0.093133897 0.032593396 0.14071907 4278190335
0.08092317 0.027857343 0.12859797 4278190335
0.06521298 0.021763986 0.12272312 4278190335
0.097739816 0.034379847 0.14076371 4278190335
0.090920292 0.031734828 0.12448641 4278190335
0.078602761 0.026957348 0.11249029 4278190335
0.062841244 0.020844085 0.10677578 4278190335
0.046264082 0.014414465 0.10829582 4278190335
0.08272855 0.028557578 0.22184117 4278190335
0.095328256 0.033444501 0.21018705 4278190335
0.10253389 0.036239281 0.19410226 4278190335
0.10314388 0.036475871 0.17626899 4278190335
0.097056501 0.034114815 0.15966111 4278190335
0.10550477 0.037391566 0.19787769 4278190335
0.11256763 0.040130965 0.1817202 4278190335
0.11301964 0.040306281 0.16388154 4278190335
0.10678543 0.037888285 0.14733642 4278190335
0.094904609 0.033280183 0.13484386 4278190335
0.11716912 0.0419157 0.16602618 4278190335
0.11746311 0.042029727 0.14818372 4278190335
0.11108265 0.039555002 0.13170287 4278190335
0.099091709 0.034904197 0.11933193 4278190335
0.083489865 0.028852861 0.11313382 4278190335
0.11568692 0.041340813 0.13184261 4278190335
0.10916077 0.038809579 0.11542752 4278190335
0.0970608 0.034116488 0.10317932 4278190335
0.08140476 0.028044133 0.097140461 4278190335
0.064803392 0.021605125 0.098317966 4278190335
0.10131671 0.035767183 0.10128978 4278190335
0.08910881 0.031032225 0.089165419 4278190335
0.073399991 0.024939401 0.08328636 4278190335
0.056809798 0.018504728 0.08463297 4278190335
0.042104751 0.012801226 0.092980698 4278190335
0.11704005 0.041865639 0.1822118 4278190335
0.12439156 0.044716995 0.16620313 4278190335
0.12516361 0.045016449 0.14837711 4278190335
0.11922749 0.042714059 0.13170634 4278190335
0.10757306 0.038193773 0.1189708 4278190335
0.12927385 0.046610638 0.15060702 4278190335
0.12988798 0.046848841 0.13277394 4278190335
0.12380447 0.044489291 0.11616441 4278190335
0.11203777 0.039925456 0.10354819 4278190335
0.096550047 0.033918384 0.097029112 4278190335
0.12840538 0.046273798 0.11639918 4278190335
0.12217503 0.043857291 0.099852391 4278190335
0.11029711 0.039250325 0.087356642 4278190335
0.094752349 0.033221129 0.080995664 4278190335
0.078132927 0.026775118 0.081830204 4278190335
0.11458614 0.040913869 0.085555322 4278190335
0.10259809 0.036264181 0.07318116 4278190335
0.086997688 0.030213406 0.066978864 4278190335
0.070386402 0.02377055 0.067982711 4278190335
0.055534273 0.018010002 0.076025292 4278190335
0.090226687 0.031465806 0.063455664 4278190335
0.074572057 0.025394 0.057412609 4278190335
0.057970412 0.018954884 0.058585666 4278190335
0.043190185 0.013222223 0.066779219 4278190335
0.032696068 0.0091519738 0.080626942 4278190335
0.13418385 0.04851504 0.13135175 4278190335
0.13511793 0.048877325 0.11353466 4278190335
0.12933362 0.046633825 0.096802615 4278190335
0.11779551 0.042158652 0.083945796 4278190335
0.10242765 0.036198072 0.077108167 4278190335
0.13392946 0.048416365 0.097132333 4278190335
0.12799722 0.046115488 0.080459982 4278190335
0.11634576 0.041596349 0.067721315 4278190335
0.10091802 0.03561255 0.06104058 4278190335
0.084286697 0.029161921 0.061531842 4278190335
0.12066631 0.043272123 0.066008881 4278190335
0.10890255 0.038709428 0.053389505 4278190335
0.093416348 0.032702949 0.046866275 4278190335
0.076790124 0.0262543 0.047526974 4278190335
0.061796412 0.020438835 0.055261429 4278190335
0.096707977 0.033979639 0.043410391 4278190335
0.081164695 0.027951021 0.037045252 4278190335
0.064545073 0.021504933 0.037875332 4278190335
0.049620543 0.015716303 0.045762215 4278190335
0.038879856 0.011550419 0.059390713 4278190335
0.066233605 0.022159845 0.033278827 4278190335
0.049622085 0.015716901 0.034278214 4278190335
0.034768078 0.0099556241 0.042316813 4278190335
0.024148585 0.0058367462 0.056054138 4278190335
0.019534472 0.0040471153 0.073199399 4278190335
