# .PCD v0.7 - Point Cloud Data file format
VERSION 0.7
FIELDS x y z rgb
SIZE 4 4 4 4
TYPE F F F U
COUNT 1 1 1 1
WIDTH 256
HEIGHT 1
VIEWPOINT 0 0 0 1 0 0 0
POINTS 256
DATA ascii
-0.034559112 0.022177486 0.23650849 4278190335
-0.017929165 0.013729985 0.24366541 4278190335
-0.00019717103 0.0047226767 0.24177282 4278190335
0.014930772 -0.0029618528 0.23122622 4278190335
-0.0017384123 0.00550558 0.24612355 4278190335
0.015976751 -0.0034931784 0.24404208 4278190335
0.031014685 -0.011131986 0.23333478 4278190335
0.040232364 -0.015814284 0.21623953 4278190335
0.031400416 -0.011327926 0.23799634 4278190335
0.046346985 -0.018920321 0.2271293 4278190335
0.055419456 -0.023528857 0.20993659 4278190335
0.056721628 -0.024190322 0.19001164 4278190335
0.057648245 -0.024661016 0.21389487 4278190335
0.066574693 -0.029195374 0.19660629 4278190335
0.067708045 -0.029771084 0.17666835 4278190335
0.06081143 -0.026267815 0.15824823 4278190335
0.018405799 -0.004727059 0.24535778 4278190335
0.036153402 -0.013742296 0.24365918 4278190335
0.051372305 -0.02147303 0.23327853 4278190335
0.060881656 -0.026303489 0.21638544 4278190335
0.051677965 -0.021628296 0.23794755 4278190335
0.066808254 -0.029314019 0.22740521 4278190335
0.076174103 -0.03407158 0.21041156 4278190335
0.077817976 -0.034906618 0.19051841 4278190335
0.078334548 -0.03516902 0.21441723 4278190335
0.087556042 -0.039853252 0.19732456 4278190335
0.089031354 -0.040602665 0.17741479 4278190335
0.082452133 -0.037260626 0.15884918 4278190335
0.092576593 -0.042403542 0.1798857 4278190335
0.093883209 -0.043067262 0.15996112 4278190335
0.087147042 -0.039645497 0.14146644 4278190335
0.073775999 -0.032853417 0.1282672 4278190335
0.069505706 -0.030684242 0.22740033 4278190335
0.084814124 -0.038460445 0.2171866 4278190335
0.094469868 -0.043365266 0.20039831 4278190335
0.096454836 -0.044373572 0.18054433 4278190335
0.096561171 -0.044427585 0.20444989 4278190335
0.1060743 -0.049259957 0.18755947 4278190335
0.10789102 -0.050182797 0.16768524 4278190335
0.10163163 -0.047003221 0.14898103 4278190335
0.1113932 -0.051961798 0.17023224 4278190335
0.11304151 -0.052799087 0.15033954 4278190335
0.10662398 -0.049539186 0.13170287 4278190335
0.093481936 -0.042863429 0.1182174 4278190335
0.11077517 -0.051647861 0.13219121 4278190335
0.10420009 -0.048307922 0.11362376 4278190335
0.090944417 -0.041574448 0.10027892 4278190335
0.073778674 -0.032854777 0.094945855 4278190335
0.10849955 -0.050491914 0.18623501 4278190335
0.11830077 -0.055470631 0.16955312 4278190335
0.12045823 -0.056566555 0.14972179 4278190335
0.114521 -0.053550627 0.1308859 4278190335
0.12391605 -0.058323022 0.15234393 4278190335
0.12590545 -0.059333574 0.1324905 4278190335
0.11980895 -0.05623674 0.11371873 4278190335
0.10690077 -0.049679782 0.09995202 4278190335
0.12395099 -0.058340769 0.1142966 4278190335
0.11769577 -0.055163313 0.095590636 4278190335
0.10467158 -0.048547421 0.081962079 4278190335
0.087600529 -0.039875854 0.076259404 4278190335
0.10859675 -0.050541289 0.080369972 4278190335
0.09545771 -0.043867059 0.066880815 4278190335
0.078339137 -0.035171352 0.061360288 4278190335
0.060818918 -0.026271619 0.064962216 4278190335
-0.038522985 0.011402206 0.23650849 4278190335
-0.020383181 0.0070590554 0.24366541 4278190335
-0.0010412744 0.00242809 0.24177282 4278190335
0.015460156 -0.0015227899 0.23122622 4278190335
-0.002722447 0.0028306071 0.24612355 4278190335
0.016601102 -0.0017959627 0.24404208 4278190335
0.033004351 -0.0057233353 0.23333478 4278190335
0.043058917 -0.0081306649 0.21623953 4278190335
0.033425104 -0.0058240746 0.23799634 4278190335
0.049728692 -0.0097275851 0.2271293 4278190335
0.059624862 -0.012096992 0.20993659 4278190335
0.061045263 -0.012437073 0.19001164 4278190335
0.062056009 -0.012679073 0.21389487 4278190335
0.071792901 -0.015010342 0.19660629 4278190335
0.073029153 -0.015306333 0.17666835 4278190335
0.065506384 -0.013505183 0.15824823 4278190335
0.019250685 -0.0024303431 0.24535778 4278190335
0.038609616 -0.0070653846 0.24365918 4278190335
0.055210266 -0.01104002 0.23327853 4278190335
0.065582983 -0.013523525 0.21638544 4278190335
0.055543676 -0.011119847 0.23794755 4278190335
0.072047673 -0.015071341 0.22740521 4278190335
0.082263857 -0.017517366 0.21041156 4278190335
0.084056981 -0.017946688 0.19051841 4278190335
0.084620453 -0.018081598 0.21441723 4278190335
0.094679177 -0.020489924 0.19732456 4278190335
0.096288428 -0.020875221 0.17741479 4278190335
0.089111879 -0.019156964 0.15884918 4278190335
0.10015555 -0.021801114 0.1798857 4278190335
0.1015808 -0.022142354 0.15996112 4278190335
0.094233043 -0.020383107 0.14146644 4278190335
0.079648025 -0.016891066 0.1282672 4278190335
0.074990027 -0.01577582 0.22740033 4278190335
0.091688313 -0.019773832 0.2171866 4278190335
0.10222072 -0.02229557 0.20039831 4278190335
0.10438591 -0.022813972 0.18054433 4278190335
0.1045019 -0.022841744 0.20444989 4278190335
0.11487873 -0.025326231 0.18755947 4278190335
0.11686039 -0.025800694 0.16768524 4278190335
0.11003271 -0.024165966 0.14898103 4278190335
0.12068054 -0.02671534 0.17023224 4278190335
0.1224785 -0.02714582 0.15033954 4278190335
0.11547833 -0.025469791 0.13170287 4278190335
0.10114309 -0.022037556 0.1182174 4278190335
0.1200064 -0.026553933 0.13219121 4278190335
0.11283436 -0.024836756 0.11362376 4278190335
0.098375194 -0.021374848 0.10027892 4278190335
0.079650939 -0.016891764 0.094945855 4278190335
0.11752418 -0.025959622 0.18623501 4278190335
0.12821527 -0.028519351 0.16955312 4278190335
0.13056859 -0.029082803 0.14972179 4278190335
0.12409233 -0.027532211 0.1308859 4278190335
0.13434036 -0.029985864 0.15234393 4278190335
0.13651037 -0.030505423 0.1324905 4278190335
0.12986037 -0.028913235 0.11371873 4278190335
0.11578024 -0.025542079 0.09995202 4278190335
0.13437848 -0.029994987 0.1142966 4278190335
0.12755534 -0.028361348 0.095590636 4278190335
0.11334866 -0.024959892 0.081962079 4278190335
0.094727702 -0.020501543 0.076259404 4278190335
0.11763021 -0.025985008 0.080369972 4278190335
0.10329825 -0.022553558 0.066880815 4278190335
0.084625453 -0.018082796 0.061360288 4278190335
0.06551455 -0.013507139 0.064962216 4278190335
-0.039868962 1.2994353e-07 0.23650849 4278190335
-0.021216469 8.0447471e-08 0.24366541 4278190335
-0.0013278985 2.7671366e-08 0.24177282 4278190335
0.015639914 -1.7354248e-08 0.23122622 4278190335
-0.0030565863 3.2258594e-08 0.24612355 4278190335
0.016813107 -2.0467422e-08 0.24404208 4278190335
0.033679962 -6.5225137e-08 0.23333478 4278190335
0.044018701 -9.265991e-08 0.21623953 4278190335
0.034112606 -6.6373197e-08 0.23799634 4278190335
0.050876983 -1.1085898e-07 0.2271293 4278190335
0.061052855 -1.3786156e-07 0.20993659 4278190335
0.062513396 -1.4173725e-07 0.19001164 4278190335
0.063552715 -1.4449516e-07 0.21389487 4278190335
0.073564798 -1.7106312e-07 0.19660629 4278190335
0.074835986 -1.7443635e-07 0.17666835 4278190335
0.067100607 -1.5390981e-07 0.15824823 4278190335
0.019537576 -2.7697041e-08 0.24535778 4278190335
0.039443653 -8.0519605e-08 0.24365918 4278190335
0.056513485 -1.2581594e-07 0.23327853 4278190335
0.067179374 -1.5411884e-07 0.21638544 4278190335
0.056856319 -1.2672568e-07 0.23794755 4278190335
0.073826768 -1.7175829e-07 0.22740521 4278190335
0.084331691 -1.9963406e-07 0.21041156 4278190335
0.086175494 -2.0452676e-07 0.19051841 4278190335
0.086754896 -2.0606424e-07 0.21441723 4278190335
0.097097911 -2.3351035e-07 0.19732456 4278190335
0.098752648 -2.3790135e-07 0.17741479 4278190335
0.091373265 -2.1831949e-07 0.15884918 4278190335
0.10272907 -2.4845315e-07 0.1798857 4278190335
0.10419459 -2.5234203e-07 0.15996112 4278190335
0.096639171 -2.3229305e-07 0.14146644 4278190335
0.081641927 -1.9249653e-07 0.1282672 4278190335
0.076852284 -1.7978678e-07 0.22740033 4278190335
0.09402252 -2.2534952e-07 0.2171866 4278190335
0.1048526 -2.5408812e-07 0.20039831 4278190335
0.10707898 -2.5999603e-07 0.18054433 4278190335
0.10719825 -2.6031253e-07 0.20444989 4278190335
0.11786836 -2.8862661e-07 0.18755947 4278190335
0.11990604 -2.9403375e-07 0.16768524 4278190335
0.11288539 -2.7540383e-07 0.14898103 4278190335
0.12383416 -3.0445739e-07 0.17023224 4278190335
0.12568294 -3.0936329e-07 0.15033954 4278190335
0.11848491 -2.9026268e-07 0.13170287 4278190335
0.10374452 -2.5114772e-07 0.1182174 4278190335
0.12314097 -3.0261793e-07 0.13219121 4278190335
0.11576622 -2.8304839e-07 0.11362376 4278190335
0.10089839 -2.4359525e-07 0.10027892 4278190335
0.08164493 -1.9250449e-07 0.094945855 4278190335
0.12058858 -2.9584496e-07 0.18623501 4278190335
0.13158183 -3.2501654e-07 0.16955312 4278190335
0.13400169 -3.3143783e-07 0.14972179 4278190335
0.12734236 -3.1376675e-07 0.1308859 4278190335
0.13788004 -3.4172942e-07 0.15234393 4278190335
0.1401114 -3.4765051e-07 0.1324905 4278190335
0.13327344 -3.2950538e-07 0.11371873 4278190335
0.11879536 -2.9108648e-07 0.09995202 4278190335
0.13791923 -3.4183341e-07 0.1142966 4278190335
0.13090326 -3.2321589e-07 0.095590636 4278190335
0.11629505 -2.8445169e-07 0.081962079 4278190335
0.097147815 -2.3364278e-07 0.076259404 4278190335
0.1206976 -2.9613426e-07 0.080369972 4278190335
0.10596059 -2.5702826e-07 0.066880815 4278190335
0.086760044 -2.0607789e-07 0.061360288 4278190335
0.067109004 -1.5393209e-07 0.064962216 4278190335
-0.038523048 -0.011401952 0.23650849 4278190335
-0.020383218 -0.0070588989 0.24366541 4278190335
-0.0010412872 -0.0024280362 0.24177282 4278190335
0.015460164 0.0015227562 0.23122622 4278190335
-0.0027224622 -0.0028305445 0.24612355 4278190335
0.016601112 0.0017959229 0.24404208 4278190335
0.033004381 0.0057232082 0.23333478 4278190335
0.043058958 0.0081304843 0.21623953 4278190335
0.033425134 0.0058239456 0.23799634 4278190335
0.04972874 0.00972737 0.2271293 4278190335
0.059624929 0.012096724 0.20993659 4278190335
0.061045326 0.012436797 0.19001164 4278190335
0.062056076 0.012678792 0.21389487 4278190335
0.071792975 0.015010009 0.19660629 4278190335
0.073029235 0.015305994 0.17666835 4278190335
0.065506458 0.013504884 0.15824823 4278190335
0.019250698 0.0024302891 0.24535778 4278190335
0.038609657 0.0070652282 0.24365918 4278190335
0.055210322 0.011039775 0.23327853 4278190335
0.065583058 0.013523225 0.21638544 4278190335
0.055543736 0.011119601 0.23794755 4278190335
0.072047748 0.015071007 0.22740521 4278190335
0.082263947 0.017516978 0.21041156 4278190335
0.084057078 0.01794629 0.19051841 4278190335
0.08462055 0.018081198 0.21441723 4278190335
0.094679281 0.020489469 0.19732456 4278190335
0.096288539 0.020874759 0.17741479 4278190335
0.089111976 0.01915654 0.15884918 4278190335
0.10015567 0.02180063 0.1798857 4278190335
0.10158091 0.022141863 0.15996112 4278190335
0.094233148 0.020382656 0.14146644 4278190335
0.079648115 0.016890692 0.1282672 4278190335
0.074990116 0.01577547 0.22740033 4278190335
0.091688417 0.019773394 0.2171866 4278190335
0.10222084 0.022295075 0.20039831 4278190335
0.10438603 0.022813467 0.18054433 4278190335
0.10450202 0.022841237 0.20444989 4278190335
0.11487886 0.025325669 0.18755947 4278190335
0.11686052 0.025800122 0.16768524 4278190335
0.11003284 0.024165431 0.14898103 4278190335
0.12068068 0.026714748 0.17023224 4278190335
0.12247865 0.027145218 0.15033954 4278190335
0.11547846 0.025469227 0.13170287 4278190335
0.10114321 0.022037068 0.1182174 4278190335
0.12000655 0.026553344 0.13219121 4278190335
0.1128345 0.024836207 0.11362376 4278190335
0.098375306 0.021374373 0.10027892 4278190335
0.079651028 0.01689139 0.094945855 4278190335
0.11752431 0.025959047 0.18623501 4278190335
0.12821542 0.02851872 0.16955312 4278190335
0.13056876 0.029082159 0.14972179 4278190335
0.12409247 0.0275316 0.1308859 4278190335
0.13434052 0.029985199 0.15234393 4278190335
0.13651054 0.030504746 0.1324905 4278190335
0.12986052 0.028912595 0.11371873 4278190335
0.11578038 0.025541512 0.09995202 4278190335
0.13437863 0.029994322 0.1142966 4278190335
0.12755549 0.028360719 0.095590636 4278190335
0.11334879 0.024959339 0.081962079 4278190335
0.094727814 0.020501088 0.076259404 4278190335
0.11763034 0.025984433 0.080369972 4278190335
0.10329837 0.022553058 0.066880815 4278190335
0.08462555 0.018082395 0.061360288 4278190335
0.065514624 0.01350684 0.064962216 4278190335
