# .PCD v0.7 - Point Cloud Data file format
VERSION 0.7
FIELDS x y z rgb
SIZE 4 4 4 4
TYPE F F F U
COUNT 1 1 1 1
WIDTH 1021
HEIGHT 1
VIEWPOINT 0 0 0 1 0 0 0
POINTS 1021
DATA ascii
0.11564492 -0.054121543 0.17509916 4278190335
0.11906154 -0.055857081 0.16701902 4278190335
0.12094014 -0.056811351 0.15832798 4278190335
0.12120202 -0.056944378 0.14938998 4278190335
0.11983623 -0.056250602 0.14057934 4278190335
0.11689997 -0.054759067 0.13226503 4278190335
0.11251619 -0.052532241 0.12479524 4278190335
0.10686848 -0.04966338 0.11848279 4278190335
0.10019336 -0.046272624 0.11359203 4278190335
0.09277036 -0.042501971 0.11032777 4278190335
0.12063275 -0.056655206 0.15900797 4278190335
0.12247861 -0.057592846 0.1503081 4278190335
0.12270685 -0.057708785 0.14136894 4278190335
0.1213079 -0.056998163 0.13256486 4278190335
0.11834037 -0.055490743 0.12426452 4278190335
0.1139285 -0.053249653 0.11681556 4278190335
0.10825709 -0.050368749 0.11052991 4278190335
0.10156361 -0.046968669 0.1056708 4278190335
0.094128393 -0.043191809 0.10244173 4278190335
0.086262807 -0.039196331 0.10097791 4278190335
0.12253208 -0.057620008 0.14210571 4278190335
0.12272666 -0.057718851 0.13316557 4278190335
0.1212946 -0.056991402 0.12436818 4278190335
0.11829583 -0.055468123 0.11608198 4278190335
0.11385597 -0.05321281 0.10865397 4278190335
0.10816094 -0.05031991 0.10239523 4278190335
0.10144924 -0.046910573 0.097567864 4278190335
0.094001934 -0.04312757 0.094374023 4278190335
0.086130902 -0.039129328 0.092947476 4278190335
0.078165777 -0.03508329 0.093347944 4278190335
0.12126008 -0.056973867 0.1251296 4278190335
0.1197949 -0.056229603 0.11633907 4278190335
0.11676497 -0.054690495 0.10806714 4278190335
0.11229719 -0.052420996 0.10066023 4278190335
0.10657865 -0.049516156 0.094428517 4278190335
0.099848829 -0.046097614 0.089632973 4278190335
0.092389569 -0.042308539 0.086474434 4278190335
0.08451324 -0.038307607 0.085085168 4278190335
0.076549694 -0.03426237 0.085523359 4278190335
0.06883242 -0.030342232 0.087770648 4278190335
0.11687221 -0.054744963 0.10882 4278190335
0.11381117 -0.053190053 0.10056249 4278190335
0.10931554 -0.050906412 0.093176804 4278190335
0.10357359 -0.047989678 0.086972229 4278190335
0.096825786 -0.044562001 0.082208604 4278190335
0.089354701 -0.040766917 0.079085417 4278190335
0.081473209 -0.036763366 0.077733465 4278190335
0.073511384 -0.032719001 0.078209363 4278190335
0.065802641 -0.028803198 0.080493174 4278190335
0.058669809 -0.025179939 0.084489271 4278190335
0.10955985 -0.051030513 0.09388826 4278190335
0.10503646 -0.048732769 0.086523928 4278190335
0.099271208 -0.045804199 0.080346599 4278190335
0.092505522 -0.04236744 0.075614974 4278190335
0.085022748 -0.038566422 0.0725272 4278190335
0.077136241 -0.034560319 0.071212582 4278190335
0.069176279 -0.0305169 0.071726181 4278190335
0.061476201 -0.026605498 0.074046485 4278190335
0.054358475 -0.022989914 0.078076318 4278190335
0.04812118 -0.01982156 0.083646938 4278190335
0.099641927 -0.045992516 0.080985636 4278190335
0.093853474 -0.043052156 0.074835666 4278190335
0.08707004 -0.039606381 0.070136115 4278190335
0.07957571 -0.035799492 0.067083806 4278190335
0.071684323 -0.031790912 0.065806545 4278190335
0.063726358 -0.027748512 0.066357836 4278190335
0.056035087 -0.02384158 0.068714581 4278190335
0.048932597 -0.020233734 0.072778098 4278190335
0.042716328 -0.01707606 0.078378201 4278190335
0.037646603 -0.014500797 0.085280374 4278190335
0.087551013 -0.039850701 0.070674844 4278190335
0.080749951 -0.036395971 0.066007465 4278190335
0.073244192 -0.032583278 0.062990673 4278190335
0.065348074 -0.028572289 0.061750799 4278190335
0.057392258 -0.024530981 0.062339772 4278190335
0.049709924 -0.020628592 0.064732924 4278190335
0.042622793 -0.017028548 0.068830036 4278190335
0.036427658 -0.013881611 0.074459523 4278190335
0.031383965 -0.011319568 0.081385642 4278190335
0.027702926 -0.0094497139 0.089318335 4278190335
0.11171129 -0.052123379 0.18055044 4278190335
0.11660372 -0.05460858 0.17348914 4278190335
0.12011211 -0.056390736 0.16545863 4278190335
0.12208956 -0.05739522 0.15679522 4278190335
0.12245324 -0.057579961 0.1478617 4278190335
0.12118793 -0.056937221 0.13903221 4278190335
0.11834662 -0.055493925 0.13067649 4278190335
0.11404829 -0.053310506 0.12314449 4278190335
0.10847296 -0.050478406 0.11675161 4278190335
0.1018541 -0.047116227 0.11176559 4278190335
0.11968099 -0.056171745 0.16604806 4278190335
0.12315913 -0.057938531 0.15800102 4278190335
0.12510395 -0.058926437 0.14932831 4278190335
0.125434 -0.059094094 0.14039315 4278190335
0.12413546 -0.058434479 0.13156973 4278190335
0.12126273 -0.056975216 0.12322755 4278190335
0.11693609 -0.054777414 0.11571597 4278190335
0.11133673 -0.051933113 0.10934955 4278190335
0.10469916 -0.048561431 0.10439491 4278190335
0.097301334 -0.044803567 0.10105954 4278190335
0.12479138 -0.058767665 0.15000533 4278190335
0.12670353 -0.059738979 0.14132349 4278190335
0.12699994 -0.059889548 0.13238686 4278190335
0.12566821 -0.059213068 0.12356966 4278190335
0.1227641 -0.057737865 0.11524116 4278190335
0.11840922 -0.05552572 0.10775013 4278190335
0.11278595 -0.052669272 0.10141028 4278190335
0.10612979 -0.049288146 0.096487127 4278190335
0.09871947 -0.045523934 0.093186818 4278190335
0.090865336 -0.041534275 0.09164758 4278190335
0.12681958 -0.05979792 0.13312192 4278190335
0.12708235 -0.059931401 0.12418396 4278190335
0.12571743 -0.059238065 0.11537316 4278190335
0.12278198 -0.057746951 0.10705848 4278190335
0.11839894 -0.055520501 0.099588141 4278190335
0.11275186 -0.052651957 0.093274981 4278190335
0.10607722 -0.049261447 0.088383391 4278190335
0.098654553 -0.045490958 0.085118204 4278190335
0.090794697 -0.041498393 0.083616175 4278190335
0.082826801 -0.037450947 0.083940193 4278190335
0.12567711 -0.05921758 0.11613421 4278190335
0.12427903 -0.058507405 0.10732995 4278190335
0.12131231 -0.057000402 0.09902925 4278190335
0.11690119 -0.054759689 0.091579735 4278190335
0.1112304 -0.051879097 0.085293375 4278190335
0.10453741 -0.048479263 0.080433436 4278190335
0.097102508 -0.044702563 0.07720343 4278190335
0.089237064 -0.040707164 0.075738639 4278190335
0.081270464 -0.036660377 0.076100387 4278190335
0.073536336 -0.032731675 0.078273542 4278190335
0.1214138 -0.057051953 0.099783108 4278190335
0.11841586 -0.055529095 0.091496535 4278190335
0.11397673 -0.053274155 0.084067971 4278190335
0.10828233 -0.050381571 0.077808529 4278190335
0.1015711 -0.046972472 0.072980322 4278190335
0.094124109 -0.04318963 0.069785558 4278190335
0.086253218 -0.039191462 0.068358026 4278190335
0.078288056 -0.035145402 0.068757504 4278190335
0.070562176 -0.031220894 0.070967264 4278190335
0.063399121 -0.027582284 0.074894771 4278190335
0.1142156 -0.053395495 0.084781751 4278190335
0.10974856 -0.051126368 0.077374279 4278190335
0.10403063 -0.048221841 0.071141854 4278190335
0.097301289 -0.044803541 0.066345476 4278190335
0.089842342 -0.041014623 0.063186012 4278190335
0.081966147 -0.037013762 0.061795764 4278190335
0.074002557 -0.032968502 0.06223296 4278190335
0.066285066 -0.029048253 0.064479284 4278190335
0.059136864 -0.025417186 0.068440676 4278190335
0.052857306 -0.022227364 0.073951237 4278190335
0.10439647 -0.048407674 0.071784422 4278190335
0.098655134 -0.045491252 0.065579131 4278190335
0.091907799 -0.042063814 0.060814664 4278190335
0.08443702 -0.038268887 0.057690546 4278190335
0.076555669 -0.034265403 0.05633761 4278190335
0.068593793 -0.030221015 0.056812517 4278190335
0.060884822 -0.026305096 0.059095372 4278190335
0.053751595 -0.022681637 0.063090578 4278190335
0.047492839 -0.019502381 0.068630829 4278190335
0.042370651 -0.016900469 0.075484097 4278190335
0.092384644 -0.042306036 0.06135799 4278190335
0.085619427 -0.038869515 0.056625519 4278190335
0.078136958 -0.03506865 0.05353681 4278190335
0.070250586 -0.031062616 0.052221209 4278190335
0.062290568 -0.027019171 0.052733816 4278190335
0.054590262 -0.023107653 0.05505316 4278190335
0.047472138 -0.019491866 0.059082113 4278190335
0.041234292 -0.016323231 0.064651951 4278190335
0.03613795 -0.013734446 0.071529418 4278190335
0.032396536 -0.011833924 0.079426497 4278190335
0.078704022 -0.0353567 0.053957202 4278190335
0.071209989 -0.031549964 0.050903954 4278190335
0.063318729 -0.027541447 0.049625713 4278190335
0.055360716 -0.023499019 0.05017601 4278190335
0.04766921 -0.01959197 0.052531801 4278190335
0.040566314 -0.015983921 0.056594428 4278190335
0.03434949 -0.012825965 0.062193755 4278190335
0.029279083 -0.010250354 0.069095299 4278190335
0.025567433 -0.0083649494 0.077010028 4278190335
0.023369974 -0.007248708 0.085606493 4278190335
0.12190544 -0.057301693 0.15622665 4278190335
0.12544483 -0.059099592 0.14821327 4278190335
0.12745573 -0.060121067 0.13955954 4278190335
0.12785392 -0.060323339 0.13062789 4278190335
0.12662274 -0.059697933 0.12179232 4278190335
0.12381373 -0.058271047 0.11342288 4278190335
0.11954455 -0.056102432 0.10587005 4278190335
0.11399397 -0.053282905 0.099450134 4278190335
0.10739443 -0.049930543 0.094431981 4278190335
0.10002232 -0.046185739 0.091025747 4278190335
0.127138 -0.059959676 0.14023353 4278190335
0.12911631 -0.060964596 0.13157037 4278190335
0.12948088 -0.061149787 0.1226369 4278190335
0.12821645 -0.060507491 0.11380725 4278190335
0.12537597 -0.059064616 0.10545118 4278190335
0.12107839 -0.056881577 0.097918645 4278190335
0.11550368 -0.054049797 0.09152507 4278190335
0.10888532 -0.050687872 0.086538218 4278190335
0.10150044 -0.046936586 0.08316692 4278190335
0.093658343 -0.042953037 0.081552371 4278190335
0.1292949 -0.061055314 0.12337021 4278190335
0.12962584 -0.061223421 0.1144351 4278190335
0.12832819 -0.06056425 0.10561151 4278190335
0.12545627 -0.059105404 0.097268976 4278190335
0.12113037 -0.056907982 0.089756854 4278190335
0.11553165 -0.054064006 0.083389737 4278190335
0.10889457 -0.050692569 0.078434266 4278190335
0.10149708 -0.046934873 0.075097978 4278190335
0.093648963 -0.042948272 0.073520578 4278190335
0.08567889 -0.03889972 0.073768131 4278190335
0.12828206 -0.060540818 0.10637216 4278190335
0.12695119 -0.059864778 0.097554795 4278190335
0.1240479 -0.058389995 0.089225933 4278190335
0.11969376 -0.056178227 0.081734367 4278190335
0.11407112 -0.053322099 0.075393818 4278190335
0.10741545 -0.049941219 0.070469826 4278190335
0.10000546 -0.046177175 0.067168601 4278190335
0.092151478 -0.042187594 0.06562838 4278190335
0.084182411 -0.038139556 0.065913677 4278190335
0.076431982 -0.034202576 0.068012528 4278190335
0.12414363 -0.058438625 0.089980736 4278190335
0.12120901 -0.056947928 0.081665702 4278190335
0.11682671 -0.054721855 0.074194819 4278190335
0.11118025 -0.051853627 0.067880951 4278190335
0.1045061 -0.048463363 0.062988527 4278190335
0.097083747 -0.044693038 0.05972242 4278190335
0.089224041 -0.040700547 0.058219407 4278190335
0.081256121 -0.03665309 0.058542438 4278190335
0.073513664 -0.03272016 0.060677979 4278190335
0.066320919 -0.029066466 0.064536601 4278190335
0.11706012 -0.054840423 0.074910857 4278190335
0.11264974 -0.052600082 0.067460798 4278190335
0.10697956 -0.049719807 0.06117373 4278190335
0.10028706 -0.046320219 0.056312952 4278190335
0.092852481 -0.042543683 0.053082023 4278190335
0.084987178 -0.038548354 0.051616248 4278190335
0.077020548 -0.034501549 0.051977009 4278190335
0.069286205 -0.030572738 0.054149199 4278190335
0.062108044 -0.026926456 0.058041848 4278190335
0.055786684 -0.023715399 0.063491948 4278190335
0.10734048 -0.049903147 0.061819781 4278190335
0.1016467 -0.047010876 0.055559624 4278190335
0.094935946 -0.04360202 0.050730582 4278190335
0.087489277 -0.039819341 0.04753489 4278190335
0.079618528 -0.035821244 0.046106376 4278190335
0.071653321 -0.031775165 0.046504863 4278190335
0.063927226 -0.027850544 0.048713662 4278190335
0.056763783 -0.024211736 0.05264027 4278190335
0.050462995 -0.021011129 0.058120254 4278190335
0.045288723 -0.018382758 0.064924121 4278190335
0.095408633 -0.043842129 0.051278464 4278190335
0.088679768 -0.040424071 0.046481248 4278190335
0.081221126 -0.036635313 0.04332085 4278190335
0.07334508 -0.032634523 0.041929621 4278190335
0.065381445 -0.028589241 0.042365827 4278190335
0.057663728 -0.024668878 0.044611193 4278190335
0.05051513 -0.021037612 0.048571691 4278190335
0.044235028 -0.017847514 0.054081466 4278190335
0.039086413 -0.015232175 0.060909778 4278190335
0.035284899 -0.013301124 0.068770669 4278190335
0.081784964 -0.036921725 0.043746669 4278190335
0.074314497 -0.033126958 0.04062162 4278190335
0.066433273 -0.029123541 0.039267704 4278190335
0.058471356 -0.025079129 0.039741617 4278190335
0.050762158 -0.021163095 0.042023513 4278190335
0.043628536 -0.017539434 0.046017829 4278190335
0.037369229 -0.014359899 0.051557295 4278190335
0.032246366 -0.011757641 0.058409929 4278190335
0.028474478 -0.0098416386 0.066288754 4278190335
0.026211528 -0.0086921304 0.074863814 4278190335
0.067063667 -0.029443758 0.039552886 4278190335
0.059177421 -0.025437789 0.038236301 4278190335
0.051217351 -0.02139432 0.038747918 4278190335
0.043516815 -0.017482683 0.0410663 4278190335
0.036398295 -0.013866694 0.045094367 4278190335
0.030159894 -0.010697778 0.050663427 4278190335
0.025062872 -0.0081086475 0.057540257 4278190335
0.021320678 -0.0062077283 0.06543687 4278190335
0.019090028 -0.0050746268 0.074022576 4278190335
0.018464338 -0.0047567952 0.082937822 4278190335
0.12757245 -0.060180362 0.13011189 4278190335
0.12961677 -0.061218809 0.12146802 4278190335
0.13004947 -0.061438609 0.11253837 4278190335
0.12885243 -0.060830548 0.10369692 4278190335
0.12607579 -0.059420101 0.095313899 4278190335
0.12183582 -0.057266328 0.087740391 4278190335
0.11631009 -0.054459427 0.081293561 4278190335
0.10973001 -0.051116947 0.076243378 4278190335
0.10237112 -0.04737886 0.072801344 4278190335
0.094541617 -0.043401714 0.071111597 4278190335
0.1298579 -0.061341297 0.11326988 4278190335
0.13025698 -0.06154402 0.10433827 4278190335
0.12902667 -0.060919061 0.095502555 4278190335
0.1262185 -0.059492595 0.087132759 4278190335
0.12195006 -0.057324357 0.079579398 4278190335
0.11640011 -0.054505154 0.073158793 4278190335
0.10980107 -0.051153045 0.068139821 4278190335
0.1024293 -0.047408413 0.064732663 4278190335
0.094593503 -0.043428071 0.063080013 4278190335
0.086621836 -0.039378706 0.063251071 4278190335
0.12897474 -0.060892683 0.096262723 4278190335
0.12771119 -0.060250834 0.087432921 4278190335
0.12487153 -0.058808375 0.079076499 4278190335
0.1205747 -0.056625716 0.071543425 4278190335
0.11500063 -0.053794261 0.065149151 4278190335
0.10838275 -0.050432585 0.060161475 4278190335
0.10099822 -0.046681467 0.05678926 4278190335
0.093156271 -0.042698 0.055173732 4278190335
0.085185319 -0.038649 0.055382546 4278190335
0.077419169 -0.034704037 0.057406951 4278190335
0.1249615 -0.058854077 0.079832196 4278190335
0.12209041 -0.057395652 0.071489297 4278190335
0.11776526 -0.05519861 0.063976638 4278190335
0.11216716 -0.05235495 0.057608824 4278190335
0.10553057 -0.048983768 0.05265253 4278190335
0.098133415 -0.045226235 0.049315315 4278190335
0.090285458 -0.041239716 0.047736939 4278190335
0.082315363 -0.037191153 0.047983497 4278190335
0.074556902 -0.033250093 0.050044667 4278190335
0.067334987 -0.029581582 0.053834125 4278190335
0.11799321 -0.055314399 0.064694896 4278190335
0.11363981 -0.053103007 0.057202779 4278190335
0.10801779 -0.0502472 0.050861534 4278190335
0.10136261 -0.046866566 0.045936715 4278190335
0.093952946 -0.043102689 0.042634562 4278190335
0.086099118 -0.039113186 0.041093364 4278190335
0.078130029 -0.035065129 0.041377664 4278190335
0.070379391 -0.031128047 0.043475557 4278190335
0.063171804 -0.027466815 0.047299184 4278190335
0.056809105 -0.024234757 0.05268842 4278190335
0.10837378 -0.050428025 0.051511023 4278190335
0.10272795 -0.047560114 0.045196459 4278190335
0.096054278 -0.044170097 0.0403032 4278190335
0.088632256 -0.040399939 0.037036166 4278190335
0.08077269 -0.036407523 0.035532176 4278190335
0.072804742 -0.032360047 0.035854213 4278190335
0.065062076 -0.028427012 0.037988793 4278190335
0.057868946 -0.024773125 0.041846517 4278190335
0.051526587 -0.0215514 0.047265839 4278190335
0.046300605 -0.018896762 0.054019805 4278190335
0.096522763 -0.044408076 0.040855598 4278190335
0.089830741 -0.041008729 0.035993986 4278190335
0.082396477 -0.037232358 0.032762133 4278190335
0.074531332 -0.033237103 0.031295374 4278190335
0.066564657 -0.029190278 0.031655144 4278190335
0.058830097 -0.025261359 0.03382637 4278190335
0.051651556 -0.021614881 0.037718128 4278190335
0.045329653 -0.018403549 0.043167435 4278190335
0.040129144 -0.01576185 0.049946092 4278190335
0.03626781 -0.013800411 0.057770215 4278190335
0.082957044 -0.037517108 0.033193346 4278190335
0.075510688 -0.033734586 0.029996725 4278190335
0.067640088 -0.029736562 0.028567228 4278190335
0.05967484 -0.025690462 0.028964723 4278190335
0.051948521 -0.021765731 0.031172557 4278190335
0.044784691 -0.018126726 0.035098273 4278190335
0.038483363 -0.014925843 0.040577475 4278190335
0.033308413 -0.012297129 0.047380697 4278190335
0.029476566 -0.010350669 0.055223037 4278190335
0.027148291 -0.0091679767 0.063776076 4278190335
0.068268277 -0.030055664 0.028858449 4278190335
0.060392361 -0.026054941 0.027466239 4278190335
0.052428685 -0.022009637 0.02790145 4278190335
0.044710744 -0.018089162 0.030145856 4278190335
0.037561759 -0.014457697 0.034105465 4278190335
0.03128111 -0.01126732 0.039614454 4278190335
0.026131816 -0.0086516393 0.046442125 4278190335
0.022329526 -0.0067201923 0.054302543 4278190335
0.020033468 -0.0055538653 0.062866531 4278190335
0.019339798 -0.0052015022 0.071775436 4278190335
0.053097103 -0.022349175 0.028039977 4278190335
0.045135133 -0.018304739 0.028512897 4278190335
0.037425712 -0.01438859 0.030793833 4278190335
0.030291695 -0.010764729 0.03478726 4278190335
0.024031838 -0.007584915 0.040325947 4278190335
0.018908296 -0.0049823122 0.047177941 4278190335
0.015135628 -0.0030659134 0.055056296 4278190335
0.012871829 -0.001915973 0.06363108 4278190335
0.012211701 -0.0015806485 0.072543196 4278190335
0.01318289 -0.0020739825 0.081419423 4278190335
-0.036633305 0.017504968 0.23650849 4278190335
-0.029281896 0.014691127 0.24075267 4278190335
-0.021277526 0.01162736 0.24330561 4278190335
-0.012955408 0.0084419698 0.24406038 4278190335
-0.0046640513 0.0052683544 0.24298537 4278190335
0.0032493162 0.0022394189 0.24012561 4278190335
0.010453299 -0.00051799126 0.23560086 4278190335
0.016646208 -0.002888401 0.22960061 4278190335
0.021568697 -0.004772542 0.22237612 4278190335
0.02501462 -0.0060915109 0.21422996 4278190335
-0.02189512 0.011863751 0.2429262 4278190335
-0.013880756 0.0087961582 0.24544291 4278190335
-0.0055557345 0.0056096571 0.24616005 4278190335
0.0027313088 0.0024376924 0.24504757 4278190335
0.010633329 -0.00058689999 0.24215207 4278190335
0.017819405 -0.0033374564 0.23759478 4278190335
0.023988599 -0.0056987889 0.23156658 4278190335
0.028882556 -0.0075720092 0.22431991 4278190335
0.032296326 -0.0088786706 0.21615824 4278190335
0.03408695 -0.0095640533 0.20742337 4278190335
-0.006233457 0.0058690631 0.24592626 4278190335
0.0020943182 0.0026815082 0.24660575 4278190335
0.0103769 -0.00048874901 0.24545582 4278190335
0.018267434 -0.0035089443 0.24252461 4278190335
0.025435476 -0.0062525976 0.23793489 4278190335
0.031580843 -0.0086048106 0.23187885 4278190335
0.03644618 -0.010467077 0.22461011 4278190335
0.039827738 -0.011761408 0.21643308 4278190335
0.041583903 -0.012433601 0.20769019 4278190335
0.041641131 -0.012455505 0.19874758 4278190335
0.0096686073 -0.00021764134 0.24537784 4278190335
0.017946582 -0.0033861347 0.24419047 4278190335
0.025825486 -0.0064018788 0.24122362 4278190335
0.032975364 -0.0091385804 0.23660153 4278190335
0.039096799 -0.011481632 0.23051776 4278190335
0.043933433 -0.013332911 0.2232271 4278190335
0.047282714 -0.014614888 0.21503486 4278190335
0.049004387 -0.01527388 0.20628411 4278190335
0.049026351 -0.015282286 0.19734131 4278190335
0.047347683 -0.014639757 0.18858099 4278190335
0.025117513 -0.0061308942 0.24130487 4278190335
0.032984648 -0.0091421334 0.23830242 4278190335
0.040116239 -0.011871834 0.23364805 4278190335
0.046213627 -0.014205683 0.22753666 4278190335
0.051021468 -0.016045941 0.22022419 4278190335
0.054338418 -0.017315542 0.21201688 4278190335
0.056025568 -0.017961321 0.20325842 4278190335
0.056012269 -0.017956229 0.19431561 4278190335
0.054299071 -0.017300483 0.18556295 4278190335
0.050957724 -0.016021542 0.17736699 4278190335
0.039439466 -0.011612792 0.23388498 4278190335
0.046552636 -0.014335443 0.2291984 4278190335
0.052625872 -0.016660046 0.22305949 4278190335
0.057404835 -0.018489251 0.21572536 4278190335
0.060689393 -0.019746454 0.20750313 4278190335
0.062341996 -0.020379007 0.19873711 4278190335
0.062293429 -0.02036042 0.18979445 4278190335
0.060545735 -0.019691467 0.18104962 4278190335
0.057172097 -0.018400168 0.17286883 4278190335
0.052313805 -0.016540598 0.1655947 4278190335
0.052009817 -0.016424242 0.22344176 4278190335
0.058058791 -0.018739561 0.21727546 4278190335
0.062808789 -0.020557679 0.20991978 4278190335
0.066060893 -0.021802461 0.20168278 4278190335
0.067678913 -0.022421777 0.19290937 4278190335
0.067595087 -0.022389691 0.18396699 4278190335
0.065812923 -0.021707548 0.17523015 4278190335
0.062407061 -0.020403912 0.16706468 4278190335
0.057520125 -0.018533381 0.15981258 4278190335
0.051356774 -0.016174285 0.15377754 4278190335
0.062280316 -0.0203554 0.21043073 4278190335
0.067001268 -0.0221624 0.20305364 4278190335
0.070220865 -0.023394739 0.19480199 4278190335
0.071804278 -0.024000809 0.18602136 4278190335
0.071685188 -0.023955226 0.17707944 4278190335
0.069868587 -0.023259902 0.16835073 4278190335
0.066430561 -0.021943955 0.16020074 4278190335
0.06151507 -0.020062493 0.15297079 4278190335
0.055327974 -0.017694307 0.14696366 4278190335
0.048128378 -0.014938577 0.14243092 4278190335
0.069803029 -0.023234807 0.19541931 4278190335
0.07299006 -0.024454681 0.18715319 4278190335
0.074538827 -0.02504749 0.17836548 4278190335
0.074384481 -0.024988413 0.16942419 4278190335
0.072533481 -0.02427992 0.16070375 4278190335
0.069063343 -0.022951683 0.15256938 4278190335
0.064119391 -0.021059327 0.14536172 4278190335
0.057908662 -0.018682096 0.13938262 4278190335
0.050691254 -0.015919549 0.13488247 4278190335
0.042769421 -0.012887372 0.13204971 4278190335
0.074249849 -0.024936881 0.17906226 4278190335
0.075763956 -0.025516422 0.17026763 4278190335
0.075574353 -0.02544385 0.16132711 4278190335
0.073688976 -0.024722202 0.15261513 4278190335
0.070186794 -0.023381699 0.14449652 4278190335
0.065214463 -0.02147848 0.13731128 4278190335
0.058980215 -0.019092247 0.13136029 4278190335
0.051745128 -0.016322931 0.12689281 4278190335
0.043812197 -0.013286506 0.12409589 4278190335
0.035513628 -0.010110131 0.12308668 4278190335
-0.012463616 0.0082537308 0.24376269 4278190335
-0.004469655 0.0051939469 0.24635273 4278190335
0.0038493315 0.0020097559 0.24714611 4278190335
0.01214496 -0.0011654949 0.24610959 4278190335
0.020069826 -0.004198832 0.24328656 4278190335
0.027292054 -0.0069632255 0.2387953 4278190335
0.033509187 -0.0093429079 0.23282382 4278190335
0.038460869 -0.011238222 0.22562225 4278190335
0.041939728 -0.012569797 0.21749215 4278190335
0.043800078 -0.013281869 0.208774 4278190335
0.0031735022 0.0022684375 0.24690612 4278190335
0.011495543 -0.00091692264 0.24766187 4278190335
0.019787012 -0.0040905806 0.24658786 4278190335
0.027700676 -0.00711963 0.24372904 4278190335
0.034905128 -0.0098772198 0.23920515 4278190335
0.041098658 -0.012247868 0.23320563 4278190335
0.046021897 -0.014132296 0.22598173 4278190335
0.049468666 -0.015451589 0.21783598 4278190335
0.051294625 -0.016150495 0.20910949 4278190335
0.0514233 -0.016199747 0.20016773 4278190335
0.019079367 -0.0038197215 0.2465034 4278190335
0.027366525 -0.0069917301 0.24539191 4278190335
0.035268847 -0.010016438 0.24249734 4278190335
0.042455394 -0.012767175 0.23794091 4278190335
0.048625216 -0.015128747 0.23191345 4278190335
0.053519923 -0.017002255 0.22466736 4278190335
0.056934543 -0.018309241 0.21650609 4278190335
0.058726072 -0.01899497 0.20777144 4278190335
0.058819488 -0.019030726 0.19882916 4278190335
0.057210878 -0.018415011 0.19005379 4278190335
0.034560252 -0.0097452141 0.2425721 4278190335
0.042451087 -0.012765526 0.23964183 4278190335
0.049619604 -0.015509361 0.23505294 4278190335
0.055765603 -0.017861815 0.22899765 4278190335
0.060631692 -0.019724369 0.22172949 4278190335
0.0640141 -0.021019027 0.21355286 4278190335
0.06577117 -0.021691566 0.20481017 4278190335
0.065829329 -0.021713825 0.19586757 4278190335
0.064186126 -0.021084871 0.18709955 4278190335
0.060910389 -0.019831043 0.17887327 4278190335
0.048940964 -0.015249603 0.23528366 4278190335
0.056091323 -0.017986488 0.23066242 4278190335
0.062213387 -0.020329781 0.22457938 4278190335
0.067050777 -0.022181351 0.2172893 4278190335
0.070400909 -0.023463653 0.20909745 4278190335
0.07212349 -0.024122993 0.2003469 4278190335
0.072146378 -0.024131754 0.19140412 4278190335
0.070468619 -0.023489572 0.18264359 4278190335
0.06716048 -0.022223338 0.1744322 4278190335
0.06236048 -0.020386083 0.16711383 4278190335
0.061594296 -0.020092817 0.22495599 4278190335
0.067692317 -0.022426909 0.21884534 4278190335
0.072500922 -0.024267457 0.21153344 4278190335
0.075818725 -0.025537385 0.20332652 4278190335
0.077506781 -0.02618351 0.19456826 4278190335
0.077494413 -0.026178775 0.18562545 4278190335
0.07578212 -0.025523376 0.17687258 4278190335
0.072441623 -0.024244761 0.16867623 4278190335
0.067612812 -0.022396477 0.16137962 4278190335
0.061497908 -0.020055924 0.15528834 4278190335
0.071968384 -0.024063623 0.21203952 4278190335
0.07674811 -0.025893118 0.20470594 4278190335
0.080033518 -0.02715065 0.1964841 4278190335
0.081687026 -0.02778355 0.18771829 4278190335
0.081639394 -0.027765317 0.17877561 4278190335
0.079892606 -0.027096713 0.17003058 4278190335
0.076519817 -0.025805738 0.16184939 4278190335
0.071662277 -0.023946457 0.15457468 4278190335
0.065523408 -0.021596732 0.14851108 4278190335
0.05836029 -0.018854963 0.14391255 4278190335
0.079610765 -0.026988834 0.19709757 4278190335
0.082863726 -0.028233944 0.18886095 4278190335
0.084482655 -0.028853608 0.18008775 4278190335
0.084399752 -0.028821878 0.17114536 4278190335
0.082618497 -0.028140081 0.16240829 4278190335
0.079213478 -0.02683677 0.15424243 4278190335
0.074327298 -0.024966525 0.14698975 4278190335
0.068164572 -0.022607669 0.14095396 4278190335
0.060983386 -0.019858984 0.13638785 4278190335
0.053084478 -0.016835583 0.13348264 4278190335
0.084188111 -0.02874087 0.18078186 4278190335
0.085772432 -0.029347287 0.17200141 4278190335
0.085654274 -0.029302061 0.16305949 4278190335
0.083838582 -0.028607083 0.15433055 4278190335
0.080401398 -0.027291458 0.14618015 4278190335
0.07548666 -0.025410283 0.13894962 4278190335
0.06930019 -0.023042338 0.13294175 4278190335
0.062101062 -0.020286787 0.12840815 4278190335
0.054190766 -0.017259028 0.12553866 4278190335
0.045900568 -0.014085855 0.12445346 4278190335
0.085500799 -0.029243317 0.16380396 4278190335
0.085347384 -0.029184593 0.15486266 4278190335
0.083497286 -0.028476447 0.14614201 4278190335
0.08002799 -0.027148534 0.13800722 4278190335
0.075084783 -0.025256462 0.13079898 4278190335
0.06887468 -0.02287947 0.12481913 4278190335
0.061657742 -0.0201171 0.12031811 4278190335
0.053736199 -0.017085036 0.11748441 4278190335
0.045441795 -0.013910255 0.1164367 4278190335
0.037121885 -0.01072571 0.11721886 4278190335
0.012571467 -0.0013287454 0.24571291 4278190335
0.020887164 -0.0045116777 0.24654487 4278190335
0.02918691 -0.0076885042 0.24554685 4278190335
0.037123129 -0.010726186 0.24276063 4278190335
0.044363461 -0.013497511 0.2383029 4278190335
0.050604705 -0.01588642 0.23236033 4278190335
0.055585485 -0.017792873 0.2251818 4278190335
0.059097212 -0.019137029 0.21706793 4278190335
0.06099283 -0.019862598 0.2083585 4278190335
0.061192945 -0.019939195 0.19941823 4278190335
0.028479967 -0.0074179135 0.24545591 4278190335
0.036775704 -0.010593206 0.24442038 4278190335
0.044700865 -0.013626655 0.24159831 4278190335
0.051923554 -0.016391227 0.23710789 4278190335
0.05814131 -0.018771145 0.23113716 4278190335
0.063093737 -0.020666746 0.22393617 4278190335
0.066573441 -0.021998644 0.21580648 4278190335
0.068434693 -0.022711061 0.20708856 4278190335
0.068599559 -0.022774165 0.19814748 4278190335
0.067061126 -0.022185311 0.18935768 4278190335
0.043991696 -0.013355212 0.24166657 4278190335
0.051905658 -0.016384374 0.23880869 4278190335
0.059110578 -0.019142145 0.23428565 4278190335
0.065304734 -0.021513032 0.22828688 4278190335
0.070228718 -0.023397746 0.22106355 4278190335
0.073676333 -0.024717363 0.21291822 4278190335
0.0755032 -0.025416614 0.20419195 4278190335
0.075632803 -0.025466222 0.19525021 4278190335
0.074059725 -0.024864107 0.18646744 4278190335
0.070849836 -0.023635484 0.17821147 4278190335
0.058430117 -0.01888169 0.23451014 4278190335
0.065617137 -0.021632608 0.22995457 4278190335
0.071787588 -0.02399442 0.22392784 4278190335
0.076683044 -0.025868217 0.21668233 4278190335
0.08009851 -0.027175525 0.20852147 4278190335
0.081890948 -0.027861603 0.19978704 4278190335
0.081985295 -0.027897714 0.19084477 4278190335
0.080377594 -0.027282348 0.18206921 4278190335
0.077135175 -0.026041275 0.17382781 4278190335
0.072393835 -0.024226468 0.16646574 4278190335
0.07116551 -0.023756312 0.22429876 4278190335
0.077312134 -0.026109006 0.21824419 4278190335
0.08217898 -0.027971851 0.21097662 4278190335
0.085562237 -0.029266831 0.20280039 4278190335
0.087320216 -0.029939719 0.19405791 4278190335
0.087379292 -0.029962333 0.18511532 4278190335
0.085737005 -0.029333727 0.17634709 4278190335
0.082462125 -0.028080227 0.16812043 4278190335
0.077691786 -0.026254324 0.16077986 4278190335
0.071625777 -0.023932487 0.15463278 4278190335
0.081642419 -0.027766475 0.2114778 4278190335
0.086480565 -0.029618334 0.20418827 4278190335
0.089831546 -0.030900963 0.19599684 4278190335
0.091555037 -0.031560648 0.18724649 4278190335
0.091578856 -0.031569764 0.1783037 4278190335
0.089902006 -0.030927932 0.16954298 4278190335
0.086594716 -0.029662024 0.16133121 4278190335
0.081795476 -0.027825059 0.15401226 4278190335
0.075705282 -0.025493965 0.14789265 4278190335
0.068579167 -0.022766361 0.14322866 4278190335
0.089403905 -0.030737277 0.19660641 4278190335
0.092722557 -0.03200753 0.18839988 4278190335
0.09441153 -0.032654006 0.17964183 4278190335
0.094400086 -0.032649625 0.17069902 4278190335
0.092688702 -0.031994574 0.16194595 4278190335
0.089349061 -0.030716283 0.1537492 4278190335
0.084521003 -0.028868288 0.14645201 4278190335
0.078406729 -0.026527977 0.14036 4278190335
0.071262293 -0.023793358 0.13572827 4278190335
0.063386887 -0.020778952 0.13275079 4278190335
0.094111457 -0.032539148 0.18033323 4278190335
0.095765874 -0.033172395 0.17156762 4278190335
0.095719166 -0.033154517 0.16262493 4278190335
0.093973286 -0.03248626 0.15387969 4278190335
0.090601347 -0.031195613 0.1456981 4278190335
0.085744567 -0.02933662 0.1384228 4278190335
0.079606324 -0.026987135 0.13235849 4278190335
0.072443686 -0.024245551 0.1277591 4278190335
0.064556606 -0.021226676 0.12481725 4278190335
0.056275383 -0.01805694 0.12365615 4278190335
0.095559753 -0.033093501 0.16336799 4278190335
0.095477782 -0.033062123 0.15442559 4278190335
0.093697429 -0.032380674 0.14568831 4278190335
0.090293258 -0.031077689 0.13752204 4278190335
0.085407831 -0.029207731 0.13026878 4278190335
0.079245731 -0.026849115 0.12423226 4278190335
0.072065018 -0.024100611 0.11966529 4278190335
0.064166412 -0.021077326 0.11675913 4278190335
0.055880684 -0.017905865 0.11563548 4278190335
0.047554825 -0.014719043 0.11634139 4278190335
0.093685627 -0.032376155 0.14645061 4278190335
0.091870837 -0.031681523 0.13772145 4278190335
0.088434495 -0.030366223 0.12957065 4278190335
0.083520509 -0.028485335 0.12233954 4278190335
0.077334665 -0.02611763 0.11633094 4278190335
0.070136003 -0.023362258 0.11179647 4278190335
0.062226009 -0.020334613 0.10892604 4278190335
0.053935923 -0.017161483 0.10783986 4278190335
0.045612924 -0.013975756 0.10858341 4278190335
0.037605558 -0.010910842 0.11112554 4278190335
0.037467234 -0.010857897 0.24228089 4278190335
0.045770939 -0.014036239 0.24132138 4278190335
0.053718358 -0.017078208 0.23857202 4278190335
0.060976665 -0.019856412 0.23414792 4278190335
0.0672419 -0.022254504 0.22823438 4278190335
0.072251685 -0.024172058 0.22107902 4278190335
0.075796217 -0.025528772 0.21298151 4278190335
0.077727057 -0.026267825 0.20428094 4278190335
0.07796336 -0.026358271 0.19534171 4278190335
0.076495208 -0.02579632 0.18653814 4278190335
0.053008672 -0.016806567 0.23863378 4278190335
0.060945179 -0.019844359 0.2358485 4278190335
0.068185978 -0.022615861 0.23139164 4278190335
0.074427836 -0.025005007 0.22544982 4278190335
0.079409361 -0.026911745 0.21827188 4278190335
0.08292193 -0.028256223 0.21015841 4278190335
0.084818445 -0.028982138 0.2014492 4278190335
0.085019492 -0.029059092 0.19250898 4278190335
0.08351665 -0.028483858 0.18371212 4278190335
0.08037284 -0.027280528 0.17542705 4278190335
0.067503743 -0.022354729 0.23160988 4278190335
0.074726902 -0.02511948 0.22712032 4278190335
0.080945276 -0.027499637 0.22115034 4278190335
0.085898452 -0.029395523 0.21394993 4278190335
0.089378998 -0.030727744 0.20582066 4278190335
0.091241159 -0.031440508 0.19710296 4278190335
0.091406949 -0.031503964 0.18816189 4278190335
0.089869425 -0.030915461 0.17937192 4278190335
0.086692981 -0.029699638 0.17110112 4278190335
0.082010634 -0.027907412 0.16369589 4278190335
0.080320261 -0.027260404 0.22151555 4278190335
0.086515039 -0.029631527 0.21551751 4278190335
0.091439776 -0.03151653 0.20829478 4278190335
0.094888233 -0.032836471 0.20014983 4278190335
0.096716002 -0.033536069 0.19142379 4278190335
0.096846536 -0.033586033 0.18248206 4278190335
0.095274366 -0.032984264 0.17369911 4278190335
0.092065334 -0.031755969 0.16544275 4278190335
0.087353826 -0.029952584 0.15805875 4278190335
0.081337154 -0.027649632 0.15185632 4278190335
0.090899229 -0.031309631 0.20879102 4278190335
0.095795445 -0.033183713 0.20154609 4278190335
0.099211752 -0.034491349 0.19338565 4278190335
0.1010051 -0.035177771 0.1846514 4278190335
0.10110037 -0.035214238 0.17570917 4278190335
0.099493578 -0.034599219 0.1669334 4278190335
0.096252024 -0.033358473 0.15869163 4278190335
0.091511436 -0.031543959 0.151329 4278190335
0.085470363 -0.029231666 0.14515382 4278190335
0.078381777 -0.026518427 0.14042471 4278190335
0.098779261 -0.034325805 0.19399129 4278190335
0.10216336 -0.03562111 0.18581545 4278190335
0.10392225 -0.036294345 0.1770732 4278190335
0.10398225 -0.036317315 0.16813061 4278190335
0.10234088 -0.035689056 0.15936218 4278190335
0.099066846 -0.034435883 0.15113513 4278190335
0.094297275 -0.032610271 0.143794 4278190335
0.088231899 -0.030288678 0.13764618 4278190335
0.08112473 -0.027568325 0.13294917 4278190335
0.073273405 -0.024563136 0.12989967 4278190335
0.10361666 -0.036177378 0.17776182 4278190335
0.10534105 -0.03683741 0.16901168 4278190335
0.10536581 -0.036846884 0.1600689 4278190335
0.10368986 -0.036205396 0.15130797 4278190335
0.10038342 -0.034939818 0.14309581 4278190335
0.095584944 -0.033103142 0.13577628 4278190335
0.089495383 -0.030772291 0.12965596 4278190335
0.08236976 -0.028044872 0.12499112 4278190335
0.074506469 -0.025035106 0.12197714 4278190335
0.066234827 -0.021869037 0.12074021 4278190335
0.10520045 -0.036783595 0.16081046 4278190335
0.10518994 -0.036779568 0.15186764 4278190335
0.10347947 -0.036124866 0.14311437 4278190335
0.10014068 -0.034846902 0.13491723 4278190335
0.095313378 -0.032999195 0.12761948 4278190335
0.089199737 -0.030659128 0.12152673 4278190335
0.082055777 -0.027924692 0.11689414 4278190335
0.074180678 -0.024910405 0.11391573 4278190335
0.06590423 -0.021742497 0.11271622 4278190335
0.057573039 -0.018553633 0.11334583 4278190335
0.10346157 -0.036118016 0.14387654 4278190335
0.1017166 -0.035450105 0.13513108 4278190335
0.098345511 -0.034159783 0.1269491 4278190335
0.093489476 -0.032301079 0.11967323 4278190335
0.087351866 -0.029951835 0.11360818 4278190335
0.080189705 -0.027210431 0.10900794 4278190335
0.07230293 -0.024191676 0.10606515 4278190335
0.064021826 -0.021021985 0.10490306 4278190335
0.055693194 -0.017834099 0.10557035 4278190335
0.047665808 -0.014761522 0.10803904 4278190335
0.098475844 -0.034209669 0.12769862 4278190335
0.095072523 -0.032907005 0.11953194 4278190335
0.09018784 -0.031037338 0.1122781 4278190335
0.084026366 -0.028678961 0.10624085 4278190335
0.07684613 -0.025930639 0.10167303 4278190335
0.068947829 -0.022907468 0.098765925 4278190335
0.060662214 -0.019736052 0.097641289 4278190335
0.052336283 -0.016549202 0.098346211 4278190335
0.044318706 -0.013480379 0.10085117 4278190335
0.036945242 -0.010658098 0.10505127 4278190335
0.061224561 -0.019951297 0.23360436 4278190335
0.069183029 -0.022997497 0.2308919 4278190335
0.076459177 -0.025782527 0.22650152 4278190335
0.082748279 -0.028189758 0.2206171 4278190335
0.087786973 -0.030118376 0.21348505 4278190335
0.091364242 -0.031487621 0.20540406 4278190335
0.093330286 -0.032240145 0.19671255 4278190335
0.093602754 -0.032344434 0.18777448 4278190335
0.092170253 -0.031796128 0.17896418 4278190335
0.089092761 -0.030618181 0.17065062 4278190335
0.075775228 -0.025520736 0.22671351 4278190335
0.083033994 -0.028299117 0.22229028 4278190335
0.089299843 -0.030697444 0.21637748 4278190335
0.094310366 -0.032615282 0.20922272 4278190335
0.097855739 -0.033972315 0.20112562 4278190335
0.099787489 -0.034711715 0.1924253 4278190335
0.10002471 -0.034802515 0.18348609 4278190335
0.09855748 -0.034240916 0.17468235 4278190335
0.095447235 -0.033050433 0.16638276 4278190335
0.090824224 -0.03128092 0.15893489 4278190335
0.08867193 -0.030457104 0.21673694 4278190335
0.094914399 -0.032846484 0.21079586 4278190335
0.099896669 -0.034753509 0.20361853 4278190335
0.10341009 -0.036098309 0.19550547 4278190335
0.1053075 -0.036824569 0.18679649 4278190335
0.10550948 -0.036901876 0.17785628 4278190335
0.10400754 -0.036326993 0.16905926 4278190335
0.1008646 -0.035123993 0.1607738 4278190335
0.096212268 -0.033343256 0.15334691 4278190335
0.090245374 -0.031059356 0.14708959 4278190335
0.099352181 -0.034545098 0.2041098 4278190335
0.1043061 -0.03644127 0.19690999 4278190335
0.10778749 -0.037773814 0.18878113 4278190335
0.10965056 -0.038486924 0.18006365 4278190335
0.10981727 -0.038550738 0.17112261 4278190335
0.10828067 -0.037962582 0.16233245 4278190335
0.10510508 -0.036747087 0.15406127 4278190335
0.1004235 -0.034955155 0.14665549 4278190335
0.094431981 -0.032661833 0.14042519 4278190335
0.087381445 -0.029963154 0.13563132 4278190335
0.10735017 -0.037606422 0.18938279 4278190335
0.11079948 -0.038926687 0.18123826 4278190335
0.11262815 -0.039626632 0.17251244 4278190335
0.11275961 -0.039676949 0.16357072 4278190335
0.11118835 -0.039075531 0.15478759 4278190335
0.10798018 -0.037847567 0.14653085 4278190335
0.10326944 -0.036044475 0.13914628 4278190335
0.097253405 -0.033741765 0.13294314 4278190335
0.090184025 -0.031035878 0.12818119 4278190335
0.082357354 -0.028040124 0.12505987 4278190335
0.11231707 -0.039507564 0.17319824 4278190335
0.11411132 -0.040194333 0.16446421 4278190335
0.11420752 -0.040231157 0.15552199 4278190335
0.11260165 -0.039616488 0.14674602 4278190335
0.10936094 -0.038376067 0.13850386 4278190335
0.10462112 -0.036561847 0.13114066 4278190335
0.098580688 -0.034249797 0.12496477 4278190335
0.091492593 -0.031536747 0.12023483 4278190335
0.083653681 -0.028536309 0.11714892 4278190335
0.075392224 -0.025374137 0.11583626 4278190335
0.11403625 -0.040165603 0.15626201 4278190335
0.11409719 -0.040188927 0.14731942 4278190335
0.11245672 -0.039561018 0.1385508 4278190335
0.10918354 -0.03830817 0.13032337 4278190335
0.10441474 -0.036482852 0.12298165 4278190335
0.098350003 -0.034161501 0.11683313 4278190335
0.091243319 -0.031441335 0.11213528 4278190335
0.083392307 -0.028436266 0.10908483 4278190335
0.075125746 -0.025272142 0.10780954 4278190335
0.066789828 -0.022081468 0.10836281 4278190335
0.11243273 -0.039551836 0.13931277 4278190335
0.11075771 -0.038910698 0.13055165 4278190335
0.10745212 -0.037645444 0.12233908 4278190335
0.1026544 -0.035809059 0.115019 4278190335
0.09656547 -0.03347845 0.10889795 4278190335
0.089440331 -0.030751217 0.10423226 4278190335
0.081577361 -0.027741572 0.10121734 4278190335
0.073305845 -0.024575552 0.09997943 4278190335
0.064972177 -0.021385742 0.10057038 4278190335
0.056925364 -0.018305728 0.10296545 4278190335
0.10757645 -0.037693035 0.12308978 4278190335
0.10423851 -0.036415398 0.11489222 4278190335
0.099411972 -0.034567982 0.10759389 4278190335
0.093298964 -0.032228157 0.10150042 4278190335
0.086155482 -0.029493906 0.096866988 4278190335
0.078280695 -0.026479736 0.093887642 4278190335
0.070004374 -0.023311874 0.092687145 4278190335
0.061673112 -0.020122986 0.093315765 4278190335
0.053635813 -0.017046614 0.095747188 4278190335
0.046229061 -0.014211591 0.099879585 4278190335
0.099679217 -0.034670275 0.10830056 4278190335
0.094823942 -0.032811858 0.10102411 4278190335
0.088686958 -0.030462855 0.094958335 4278190335
0.081525274 -0.027721636 0.090357237 4278190335
0.073638804 -0.024702996 0.08741352 4278190335
0.065357819 -0.021533351 0.086250447 4278190335
0.057029117 -0.01834544 0.08691673 4278190335
0.049001478 -0.015272765 0.089384466 4278190335
0.041611087 -0.012444005 0.093550317 4278190335
0.035167437 -0.009977622 0.099239811 4278190335
0.082890019 -0.028244007 0.22003153 4278190335
0.090183862 -0.031035813 0.21567497 4278190335
0.096496724 -0.033452135 0.20981978 4278190335
0.10156423 -0.035391785 0.20271118 4278190335
0.10517417 -0.036773533 0.19464687 4278190335
0.10717537 -0.037539516 0.18596455 4278190335
0.10748401 -0.037657652 0.17702784 4278190335
0.10608717 -0.037122995 0.16821097 4278190335
0.10304336 -0.035957936 0.1598832 4278190335
0.098480023 -0.034211271 0.15239325 4278190335
0.095865957 -0.033210706 0.21017349 4278190335
0.10215568 -0.035618167 0.20428981 4278190335
0.10719511 -0.037547071 0.19715837 4278190335
0.11077322 -0.038916636 0.18907779 4278190335
0.11274016 -0.039669506 0.18038651 4278190335
0.11301356 -0.039774153 0.17144848 4278190335
0.11158197 -0.039226193 0.16263802 4278190335
0.10850534 -0.038048577 0.15432408 4278190335
0.10391252 -0.03629062 0.14685483 4278190335
0.09799584 -0.034025941 0.14054309 4278190335
0.10664672 -0.037337165 0.19764464 4278190335
0.11165798 -0.039255287 0.19049047 4278190335
0.11520419 -0.040612645 0.1823938 4278190335
0.11713684 -0.041352391 0.1736937 4278190335
0.117375 -0.041443545 0.16475452 4278190335
0.11590868 -0.040882293 0.15595061 4278190335
0.11279929 -0.039692141 0.14765064 4278190335
0.10817706 -0.037922926 0.14020222 4278190335
0.10223555 -0.035648741 0.13391729 4278190335
0.095223568 -0.032964822 0.12905902 4278190335
0.11476208 -0.04044342 0.18299143 4278190335
0.11827634 -0.041788545 0.17487881 4278190335
0.12017467 -0.042515151 0.16617005 4278190335
0.12037756 -0.042592812 0.15722987 4278190335
0.11887655 -0.042018279 0.14843266 4278190335
0.11573446 -0.04081561 0.14014682 4278190335
0.1110829 -0.039035168 0.13271938 4278190335
0.10511665 -0.036751516 0.12646134 4278190335
0.098085575 -0.034060292 0.12163482 4278190335
0.090284131 -0.031074192 0.11844191 4278190335
0.11985812 -0.04239399 0.16685297 4278190335
0.12172209 -0.043107446 0.1581357 4278190335
0.12188973 -0.043171614 0.14919469 4278190335
0.12035403 -0.042583808 0.14040434 4278190335
0.1171793 -0.041368641 0.13213278 4278190335
0.11249849 -0.039577007 0.12472644 4278190335
0.10650763 -0.037283931 0.11849543 4278190335
0.099457584 -0.034585442 0.11370073 4278190335
0.091643617 -0.031594552 0.11054312 4278190335
0.083392948 -0.028436512 0.10915484 4278190335
0.12171256 -0.043103799 0.14993311 4278190335
0.12184495 -0.043154474 0.1409914 4278190335
0.1202746 -0.042553402 0.13220808 4278190335
0.11706728 -0.041325763 0.12395097 4278190335
0.11235731 -0.039522965 0.11656584 4278190335
0.10634193 -0.037220504 0.11036198 4278190335
0.099273041 -0.034514807 0.10559919 4278190335
0.09144669 -0.031519175 0.10247693 4278190335
0.08319062 -0.028359069 0.10112596 4278190335
0.074850589 -0.025166821 0.10160285 4278190335
0.12024453 -0.042541891 0.13296981 4278190335
0.11863956 -0.041927572 0.12419366 4278190335
0.11539971 -0.040687483 0.11595111 4278190335
0.11066066 -0.038873553 0.10858735 4278190335
0.10462087 -0.03656175 0.10241073 4278190335
0.097533263 -0.033848885 0.09767995 4278190335
0.089694664 -0.030848568 0.094593108 4278190335
0.081433348 -0.027686451 0.093279473 4278190335
0.07309527 -0.02449495 0.093794063 4278190335
0.065029606 -0.021407723 0.096115328 4278190335
0.11551805 -0.040732775 0.11670291 4278190335
0.11224572 -0.039480254 0.10847509 4278190335
0.10747768 -0.037655227 0.10113281 4278190335
0.10141358 -0.035334121 0.094983555 4278190335
0.094307385 -0.032614142 0.090284862 4278190335
0.086456694 -0.029609196 0.087233476 4278190335
0.078190267 -0.026445121 0.085957207 4278190335
0.069854289 -0.023254426 0.086509489 4278190335
0.061797854 -0.020170731 0.088867195 4278190335
0.054358356 -0.017323174 0.092931591 4278190335
0.10773926 -0.037755355 0.1018419 4278190335
0.10294231 -0.03591926 0.094521239 4278190335
0.096854016 -0.033588894 0.088399462 4278190335
0.089729361 -0.030861847 0.083732925 4278190335
0.081866696 -0.027852321 0.080717072 4278190335
0.073595315 -0.02468635 0.079478182 4278190335
0.065261588 -0.021496518 0.080068141 4278190335
0.057214525 -0.018416408 0.082462251 4278190335
0.04979112 -0.01557501 0.086560242 4278190335
0.043302245 -0.013091317 0.092190504 4278190335
0.097247444 -0.033739485 0.089034908 4278190335
0.09113507 -0.031399898 0.082940713 4278190335
0.083992071 -0.028665833 0.078306429 4278190335
0.07611759 -0.025651781 0.075326145 4278190335
0.067841396 -0.022483969 0.074124664 4278190335
0.059510071 -0.019295055 0.074752294 4278190335
0.051472519 -0.016218586 0.077182762 4278190335
0.044065338 -0.0133834 0.081314281 4278190335
0.037598725 -0.010908226 0.086973824 4278190335
0.032343488 -0.0088967225 0.093924396 4278190335
0.10159412 -0.035403226 0.20210712 4278190335
0.10793062 -0.037828594 0.19628127 4278190335
0.11302685 -0.039779238 0.18919626 4278190335
0.11666939 -0.041173466 0.18114877 4278190335
0.1187057 -0.041952889 0.17247581 4278190335
0.11905051 -0.042084865 0.16354063 4278190335
0.11768936 -0.041563872 0.15471737 4278190335
0.11467928 -0.040411726 0.14637554 4278190335
0.11014631 -0.038676679 0.1388645 4278190335
0.10428028 -0.036431383 0.13249877 4278190335
0.11247458 -0.039567854 0.18967749 4278190335
0.11754283 -0.041507788 0.18256949 4278190335
0.12115361 -0.042889856 0.17450561 4278190335
0.12315571 -0.043656182 0.16582353 4278190335
0.12346528 -0.043774672 0.15688686 4278190335
0.12206935 -0.043240365 0.14806983 4278190335
0.1190264 -0.042075638 0.13974169 4278190335
0.11446385 -0.040329266 0.1322512 4278190335
0.10857277 -0.038074385 0.12591206 4278190335
0.10159986 -0.035405427 0.12098972 4278190335
0.12070674 -0.042718809 0.17509916 4278190335
0.12428568 -0.044088695 0.16701902 4278190335
0.12625353 -0.044841908 0.15832798 4278190335
0.12652786 -0.044946909 0.14938998 4278190335
0.12509719 -0.044399302 0.14057934 4278190335
0.12202141 -0.043222018 0.13226503 4278190335
0.11742937 -0.041464355 0.12479524 4278190335
0.11151334 -0.039199926 0.11848279 4278190335
0.1045211 -0.036523558 0.11359203 4278190335
0.096745439 -0.033547338 0.11032777 4278190335
0.12593153 -0.044718664 0.15900797 4278190335
0.12786509 -0.045458753 0.1503081 4278190335
0.12810417 -0.045550264 0.14136894 4278190335
0.12663877 -0.044989362 0.13256486 4278190335
0.12353024 -0.043799538 0.12426452 4278190335
0.11890878 -0.042030618 0.11681556 4278190335
0.11296792 -0.039756682 0.11052991 4278190335
0.10595644 -0.037072957 0.1056708 4278190335
0.098167993 -0.034091834 0.10244173 4278190335
0.089928716 -0.030938154 0.10097791 4278190335
0.1279211 -0.045480192 0.14210571 4278190335
