# .PCD v0.7 - Point Cloud Data file format
VERSION 0.7
FIELDS x y z rgb
SIZE 4 4 4 4
TYPE F F F U
COUNT 1 1 1 1
WIDTH 1027
HEIGHT 1
VIEWPOINT 0 0 0 1 0 0 0
POINTS 1027
DATA ascii
0.11058579 -0.072706014 0.17223364 4284769380
0.11220946 -0.072435498 0.16509999 4284769380
0.11264709 -0.0718932 0.15781215 4284769380
0.1118864 -0.071094342 0.15057464 4284769380
0.10994875 -0.070061333 0.1435906 4284769380
0.10688852 -0.068823181 0.13705604 4284769380
0.10279159 -0.067414634 0.13115439 4284769380
0.097772956 -0.065875217 0.12605126 4284769380
0.091973469 -0.064248137 0.1218899 4284769380
0.085555896 -0.062579073 0.11878708 4284769380
0.078700371 -0.060914855 0.11682991 4284769380
0.11223185 -0.071855105 0.15841036 4284769380
0.11264481 -0.071307346 0.15112147 4284769380
0.11185956 -0.070503414 0.14388715 4284769380
0.10989813 -0.069465868 0.13691042 4284769380
0.10681557 -0.068223841 0.13038711 4284769380
0.1026984 -0.06681218 0.1245003 4284769380
0.097662173 -0.065270513 0.11941521 4284769380
0.091848247 -0.063642107 0.11527456 4284769380
0.085419796 -0.061972663 0.11219457 4284769380
0.078557238 -0.060309038 0.11026169 4284769380
0.071453184 -0.058697928 0.10953015 4284769380
0.11154904 -0.070493504 0.14454685 4284769380
0.11073922 -0.069684505 0.13731579 4284769380
0.10875403 -0.068642437 0.13034646 4284769380
0.10564919 -0.067396544 0.12383447 4284769380
0.10151184 -0.065981798 0.11796258 4284769380
0.096458085 -0.064437896 0.11289559 4284769380
0.090629786 -0.062808171 0.10877571 4284769380
0.084190525 -0.061138377 0.10571858 4284769380
0.077321015 -0.059475366 0.10381 4284769380
0.07021407 -0.057865821 0.10310354 4284769380
0.06306915 -0.05635491 0.10361903 4284769380
0.10855732 -0.068661012 0.13104838 4284769380
0.1065484 -0.067614429 0.12408654 4284769380
0.1034213 -0.066364683 0.11758593 4284769380
0.09926381 -0.06494686 0.11172903 4284769380
0.094192594 -0.063400745 0.10668018 4284769380
0.088349998 -0.061769731 0.10258113 4284769380
0.081899993 -0.060099598 0.099546902 4284769380
0.075023621 -0.058437221 0.097662657 4284769380
0.067913868 -0.056829259 0.09698128 4284769380
0.060770284 -0.055320837 0.097521901 4284769380
0.053793363 -0.053954296 0.099269338 4284769380
0.065809384 -0.067897148 0.22872639 4284769380
0.07262785 -0.069177486 0.22638807 4284769380
0.078988798 -0.070260137 0.22292908 4284769380
0.084713697 -0.071114726 0.21844648 4284769380
0.089641869 -0.071717255 0.21306612 4284769380
0.093635 -0.072050817 0.20693895 4284769380
0.096581027 -0.072106048 0.20023699 4284769380
0.098397247 -0.071881406 0.19314831 4284769380
0.099032693 -0.071383186 0.18587188 4284769380
0.098469526 -0.07062538 0.17861193 4284769380
0.096723564 -0.069629245 0.17157221 4284769380
0.078278773 -0.070101269 0.22288059 4284769380
0.084628366 -0.071179509 0.21939944 4284769380
0.090338409 -0.072029121 0.21489699 4284769380
0.095248632 -0.072626255 0.20949963 4284769380
0.099221237 -0.072954156 0.20335883 4284769380
0.10214471 -0.073003612 0.19664696 4284769380
0.10393701 -0.072773241 0.18955238 4284769380
0.10454784 -0.072269514 0.18227424 4284769380
0.10396004 -0.07150656 0.17501678 4284769380
0.10219011 -0.07050579 0.16798368 4284769380
0.099287741 -0.069295302 0.16137238 4284769380
0.089628413 -0.071881123 0.21497269 4284769380
0.095323525 -0.072725758 0.21045046 4284769380
0.10021575 -0.073317491 0.20503618 4284769380
0.10416777 -0.073639713 0.19888182 4284769380
0.10706867 -0.073683396 0.19216011 4284769380
0.10883704 -0.073447309 0.18505973 4284769380
0.10942324 -0.07293807 0.17777993 4284769380
0.1088108 -0.072169974 0.17052504 4284769380
0.10701694 -0.071164586 0.16349868 4284769380
0.10409199 -0.069950111 0.15689808 4284769380
0.10011806 -0.068560652 0.15090846 4284769380
0.099526547 -0.073184691 0.20523387 4284769380
0.1044007 -0.073771015 0.19980274 4284769380
0.1083321 -0.074087568 0.1936349 4284769380
0.11121039 -0.074125476 0.18690345 4284769380
0.1129548 -0.07388366 0.17979732 4284769380
0.11351635 -0.073368922 0.17251597 4284769380
0.1128793 -0.072595701 0.16526374 4284769380
0.11106152 -0.0715857 0.15824421 4284769380
0.10811403 -0.070367262 0.15165435 4284769380
0.10411957 -0.068974592 0.14567915 4284769380
0.099190228 -0.067446768 0.14048629 4284769380
0.10768382 -0.073973849 0.19394879 4284769380
0.11159454 -0.074284732 0.18776752 4284769380
0.11445019 -0.074316859 0.18102641 4284769380
0.11617061 -0.074069336 0.17391464 4284769380
0.11670753 -0.073549099 0.16663182 4284769380
0.11604587 -0.072770752 0.15938236 4284769380
0.1142042 -0.071756154 0.15236971 4284769380
0.1112342 -0.07053376 0.1457907 4284769380
0.10721925 -0.069137901 0.13982998 4284769380
0.10227203 -0.067607731 0.13465485 4284769380
0.096531376 -0.065986216 0.13041057 4284769380
0.1138618 -0.074225545 0.18144734 4284769380
0.11669477 -0.074251898 0.17469664 4284769380
0.11839119 -0.073998652 0.16757931 4284769380
0.11890346 -0.073472932 0.1602951 4284769380
0.11821719 -0.072689481 0.15304847 4284769380
0.11635164 -0.071670286 0.14604281 4284769380
0.11335918 -0.070443958 0.13947472 4284769380
0.1093238 -0.069044918 0.13352856 4284769380
0.10435875 -0.06751243 0.12837122 4284769380
0.098603375 -0.0658895 0.12414745 4284769380
0.092219226 -0.064221688 0.12097579 4284769380
0.11787988 -0.073932417 0.16809496 4284769380
0.11955228 -0.073673464 0.16097215 4284769380
0.1200399 -0.07314226 0.15368666 4284769380
0.11932902 -0.072353706 0.14644295 4284769380
0.11743963 -0.071329936 0.13944434 4284769380
0.11442474 -0.070099689 0.13288726 4284769380
0.11036897 -0.06869749 0.12695573 4284769380
0.10538615 -0.067162693 0.12181625 4284769380
0.099616133 -0.065538377 0.11761305 4284769380
0.09322086 -0.063870125 0.1144641 4284769380
0.086379834 -0.062204767 0.11245778 4284769380
0.11962061 -0.073103033 0.15428196 4284769380
0.12008356 -0.072566345 0.14699526 4284769380
0.1193481 -0.071772702 0.13975456 4284769380
0.11743488 -0.070744373 0.1327631 4284769380
0.11439759 -0.069510214 0.1262171 4284769380
0.11032148 -0.068104871 0.12030028 4284769380
0.10532096 -0.066567786 0.1151787 4284769380
0.099536367 -0.064942092 0.11099612 4284769380
0.093130052 -0.06327343 0.10786992 4284769380
0.086281821 -0.061608627 0.10588785 4284769380
0.079183891 -0.059994403 0.10510553 4284769380
0.11903311 -0.07176163 0.14041212 4284769380
0.11827306 -0.070962906 0.13317452 4284769380
0.11633604 -0.069930017 0.12619029 4284769380
0.11327639 -0.068691969 0.11965545 4284769380
0.10918 -0.067283504 0.1137534 4284769380
0.10416182 -0.065744147 0.1086498 4284769380
0.098362722 -0.064117104 0.10448789 4284769380
0.09194544 -0.062448047 0.10138448 4284769380
0.085090101 -0.060783815 0.099426664 4284769380
0.077989101 -0.059171118 0.098669402 4284769380
0.070841745 -0.057655219 0.099133939 4284769380
0.11613454 -0.069947429 0.12689087 4284769380
0.11417373 -0.06891001 0.11991396 4284769380
0.11109176 -0.06766808 0.11339035 4284769380
0.10697512 -0.066256501 0.10750315 4284769380
0.10193937 -0.064714894 0.10241758 4284769380
0.096125819 -0.063086517 0.098276384 4284769380
0.089697644 -0.061417084 0.0951958 4284769380
0.082835272 -0.059753448 0.09326227 4284769380
0.075731292 -0.058142293 0.092530072 4284769380
0.068585098 -0.056628849 0.093019761 4284769380
0.061597258 -0.055255588 0.094717585 4284769380
0.11100964 -0.067713462 0.11411348 4284769380
0.10790538 -0.066467665 0.10760119 4284769380
0.10376856 -0.065053001 0.10172889 4284769380
0.098715268 -0.063509159 0.096661426 4284769380
0.092887349 -0.061879471 0.092541002 4284769380
0.086448364 -0.06020968 0.089483276 4284769380
0.07957904 -0.058546655 0.087574057 4284769380
0.07247217 -0.056937069 0.086866938 4284769380
0.06532722 -0.055426091 0.087381765 4284769380
0.058344722 -0.054056138 0.089104079 4284769380
0.051720656 -0.052865654 0.091985554 4284769380
0.084368609 -0.070939839 0.21730654 4284769380
0.090741128 -0.072027005 0.21387033 4284769380
0.096481204 -0.072886683 0.20940818 4284769380
0.10142773 -0.07349474 0.2040453 4284769380
0.1054419 -0.073834114 0.19793221 4284769380
0.10841101 -0.073895276 0.1912405 4284769380
0.11025175 -0.073676504 0.18415798 4284769380
0.11091246 -0.073183954 0.17688341 4284769380
0.11037459 -0.072431438 0.16962099 4284769380
0.10865324 -0.071440078 0.16257453 4284769380
0.10579671 -0.070237704 0.15594181 4284769380
0.095770799 -0.072738156 0.20947883 4284769380
0.10149609 -0.073592871 0.20499676 4284769380
0.10642473 -0.074195541 0.19961683 4284769380
0.11041841 -0.074529253 0.19349004 4284769380
0.11336502 -0.074584641 0.18678834 4284769380
0.11518187 -0.07436014 0.17969982 4284769380
0.11581796 -0.073862068 0.17242344 4284769380
0.11525545 -0.073104396 0.16516341 4284769380
0.11351012 -0.072108388 0.15812352 4284769380
0.11063094 -0.070902005 0.15150133 4284769380
0.10669875 -0.069519095 0.1454827 4284769380
0.10573428 -0.074062042 0.19980963 4284769380
0.11064498 -0.074659318 0.19441271 4284769380
0.11461812 -0.074987367 0.18827228 4284769380
0.11754219 -0.075036973 0.18156067 4284769380
0.11933513 -0.074806757 0.17446625 4284769380
0.1199466 -0.074303165 0.16718814 4284769380
0.11935945 -0.073540345 0.1599306 4284769380
0.11759015 -0.072539702 0.15289734 4284769380
0.11468837 -0.071329318 0.14628576 4284769380
0.11073555 -0.069943167 0.14028141 4284769380
0.10584263 -0.068420149 0.13505283 4284769380
0.11396779 -0.074872799 0.18858159 4284769380
0.11792036 -0.075195178 0.18242759 4284769380
0.12082186 -0.07523901 0.17570615 4284769380
0.12259085 -0.075003065 0.16860591 4284769380
0.12317769 -0.074493974 0.16132616 4284769380
0.12256591 -0.073726013 0.1540712 4284769380
0.12077268 -0.072720744 0.14704466 4284769380
0.11784833 -0.071506381 0.14044376 4284769380
0.11387493 -0.070117004 0.13445376 4284769380
0.108964 -0.068591602 0.12924278 4284769380
0.10325338 -0.066973008 0.12495705 4284769380
0.12023066 -0.07514672 0.17612292 4284769380
0.12310955 -0.075184777 0.16939172 4284769380
0.12485459 -0.074943118 0.16228575 4284769380
0.12541679 -0.074428521 0.15500444 4284769380
0.12478039 -0.073655434 0.14775215 4284769380
0.12296324 -0.072645552 0.14073242 4284769380
0.12001635 -0.071427219 0.13414228 4284769380
0.11602242 -0.070034631 0.12816671 4284769380
0.11109354 -0.068506874 0.12297338 4284769380
0.10536807 -0.066886827 0.11870808 4284769380
0.099006683 -0.065219954 0.11549052 4284769380
0.12433981 -0.074875809 0.16279781 4284769380
0.12606087 -0.074628435 0.15568618 4284769380
0.12659843 -0.07410834 0.14840341 4284769380
0.12593742 -0.073330134 0.14115386 4284769380
0.12409637 -0.072315656 0.13414103 4284769380
0.12112697 -0.071093366 0.12756173 4284769380
0.11711256 -0.069697589 0.12160064 4284769380
0.1121658 -0.068167485 0.11642504 4284769380
0.10642554 -0.066546008 0.11218022 4284769380
0.10005289 -0.064878657 0.10898528 4284769380
0.093226686 -0.063212238 0.10692993 4284769380
0.12617514 -0.07406798 0.14899577 4284769380
0.12668805 -0.073542401 0.14171161 4284769380
0.12600242 -0.072759084 0.1344649 4284769380
0.12413751 -0.071740016 0.12745905 4284769380
0.12114564 -0.070513792 0.12089068 4284769380
0.11711079 -0.069114834 0.11494415 4284769380
0.11214621 -0.067582406 0.10978634 4284769380
0.10639122 -0.065959513 0.10556202 4284769380
0.10000736 -0.064291708 0.10238977 4284769380
0.093173809 -0.062625803 0.1003586 4284769380
0.086082339 -0.061008554 0.099525534 4284769380
0.12568296 -0.072746851 0.13512029 4284769380
0.12497274 -0.07195843 0.12787651 4284769380
0.12308397 -0.07093478 0.12087771 4284769380
0.12006967 -0.069704637 0.11432034 4284769380
0.11601444 -0.06830252 0.10838842 4284769380
0.11103208 -0.066767782 0.10324847 4284769380
0.10526245 -0.065143503 0.099044725 4284769380
0.098867476 -0.063475266 0.095895179 4284769380
0.092026636 -0.06180989 0.093888223 4284769380
0.084931932 -0.060194124 0.093080193 4284769380
0.077782489 -0.058673315 0.093493767 4284769380
0.12287769 -0.07095103 0.12157693 4284769380
0.12096509 -0.06992282 0.11458527 4284769380
0.11792839 -0.068688765 0.10803898 4284769380
0.11385282 -0.067283504 0.10212177 4284769380
0.10885276 -0.065746479 0.096999727 4284769380
0.10306855 -0.064120829 0.092816606 4284769380
0.096662521 -0.062452175 0.089689806 4284769380
0.089814484 -0.060787354 0.087707087 4284769380
0.082716636 -0.059173092 0.086924113 4284769380
0.075568177 -0.057654697 0.087362841 4284769380
0.068569757 -0.056274783 0.089010961 4284769380
0.11784132 -0.068733029 0.1087616 4284769380
0.11478226 -0.067495078 0.10222647 4284769380
0.1106864 -0.066086695 0.096324027 4284769380
0.10566869 -0.064547397 0.091219954 4284769380
0.099869967 -0.062920392 0.087057501 4284769380
0.093452975 -0.061251339 0.083953485 4284769380
0.086597815 -0.059587091 0.081995033 4284769380
0.079496898 -0.057974357 0.081237115 4284769380
0.072349519 -0.056458395 0.081700988 4284769380
0.065356269 -0.055081755 0.083373651 4284769380
0.05871344 -0.053883076 0.08620815 4284769380
0.11072108 -0.066157661 0.097048931 4284769380
0.10660498 -0.064746171 0.09116134 4284769380
0.10156968 -0.063204616 0.086075298 4284769380
0.095756508 -0.061576281 0.081933558 4284769380
0.089328624 -0.059906855 0.07885237 4284769380
0.082466438 -0.0582432 0.0769182 4284769380
0.075362541 -0.056632008 0.076185346 4284769380
0.068216309 -0.055118497 0.076674372 4284769380
0.061228327 -0.053745151 0.078371547 4284769380
0.054594718 -0.05255051 0.081229247 4284769380
0.048501659 -0.051568106 0.085167259 4284769380
0.10090347 -0.073287509 0.20298165 4284769380
0.10665865 -0.074152268 0.19853997 4284769380
0.11162348 -0.074765846 0.19319466 4284769380
0.11565861 -0.075111024 0.18709573 4284769380
0.11865079 -0.075178109 0.18041435 4284769380
0.12051603 -0.074965224 0.17333806 4284769380
0.12120199 -0.074478343 0.16606545 4284769380
0.12068942 -0.073731132 0.15880065 4284769380
0.1189927 -0.072744556 0.15174755 4284769380
0.11615945 -0.071546309 0.14510411 4284769380
0.11226919 -0.070170023 0.13905679 4284769380
0.11093181 -0.074631654 0.19338255 4284769380
0.11587881 -0.075239852 0.18802013 4284769380
0.11989351 -0.075579375 0.1819074 4284769380
0.12286321 -0.075640686 0.17521596 4284769380
0.12470458 -0.075422071 0.16813359 4284769380
0.12536594 -0.074929662 0.16085908 4284769380
0.12482872 -0.07417728 0.15359658 4284769380
0.12310799 -0.073186047 0.14654996 4284769380
0.12025207 -0.07198377 0.13991696 4284769380
0.11634108 -0.070604213 0.13388377 4284769380
0.11148482 -0.069086075 0.1286197 4284769380
0.11924115 -0.075463966 0.1822121 4284769380
0.12323537 -0.075797819 0.17608567 4284769380
0.12618257 -0.075853363 0.16938423 4284769380
0.12800005 -0.075629018 0.16229586 4284769380
0.12863679 -0.075131088 0.15501954 4284769380
0.12807493 -0.074373551 0.14775944 4284769380
0.12633021 -0.073377669 0.14071937 4284769380
0.12345164 -0.072171383 0.13409691 4284769380
0.11951999 -0.070788562 0.12807791 4284769380
0.11464561 -0.069268011 0.12283131 4284769380
0.10896529 -0.067652404 0.11850439 4284769380
0.12558861 -0.075760104 0.16979682 4284769380
0.12851328 -0.075809866 0.16308546 4284769380
0.13030684 -0.0755798 0.1559912 4284769380
0.13091895 -0.075076357 0.14871314 4284769380
0.13033246 -0.07431367 0.14145553 4284769380
0.12856379 -0.073313147 0.13442211 4284769380
0.1256626 -0.072102875 0.12781024 4284769380
0.12171032 -0.070716806 0.12180552 4284769380
0.11681788 -0.069193855 0.11657646 4284769380
0.11112257 -0.067576759 0.11226985 4284769380
0.10478427 -0.065910906 0.10900654 4284769380
0.12978862 -0.075511426 0.15649964 4284769380
0.13155825 -0.075275637 0.14939955 4284769380
0.13214575 -0.074766688 0.14211984 4284769380
0.13153461 -0.073998861 0.13486482 4284769380
0.12974201 -0.072993718 0.1278381 4284769380
0.12681824 -0.071779452 0.12123693 4284769380
0.12284539 -0.070390165 0.11524654 4284769380
0.11793493 -0.06886483 0.11003509 4284769380
0.11222471 -0.067246266 0.10574884 4284769380
0.10587497 -0.065579899 0.10250809 4284769380
0.09906394 -0.063912503 0.10040379 4284769380
0.13171844 -0.074725196 0.14270926 4284769380
0.13228129 -0.074210748 0.13542798 4284769380
0.13164553 -0.073437795 0.12817562 4284769380
0.12982902 -0.072428033 0.12115572 4284769380
0.12688272 -0.071209803 0.1145653 4284769380
0.12288933 -0.069817297 0.10858933 4284769380
0.11796092 -0.0682896 0.10339554 4284769380
0.11223584 -0.066669591 0.099129707 4284769380
0.10587475 -0.065002732 0.095911548 4284769380
0.099056192 -0.063335806 0.09383139 4284769380
0.091971546 -0.061715603 0.092947617 4284769380
0.13132162 -0.073424391 0.12882878 4284769380
0.13066125 -0.07264632 0.12157917 4284769380
0.12882084 -0.071631961 0.11456615 4284769380
0.12585203 -0.070409782 0.10798658 4284769380
0.12183816 -0.06901408 0.1020251 4284769380
0.11689187 -0.067484044 0.096849039 4284769380
0.11115199 -0.065862596 0.092603669 4284769380
0.10477963 -0.06419526 0.089408144 4284769380
0.097953632 -0.062528834 0.087352149 4284769380
0.090865575 -0.060910072 0.086493388 4284769380
0.083714396 -0.059384424 0.08685597 4284769380
0.12860979 -0.071647048 0.11526398 4284769380
0.12674549 -0.070628099 0.10825794 4284769380
0.12375422 -0.069401979 0.10168928 4284769380
0.11971991 -0.068003103 0.09574236 4284769380
0.11475579 -0.066470735 0.090584084 4284769380
0.1090012 -0.064847887 0.086359225 4284769380
0.10261764 -0.063180096 0.083186373 4284769380
0.095784269 -0.061514173 0.08115457 4284769380
0.088692889 -0.059896883 0.080320843 4284769380
0.081542529 -0.058373611 0.080708593 4284769380
0.074533865 -0.056987111 0.082306929 4284769380
0.1236622 -0.069445111 0.10241136 4284769380
0.12064849 -0.068215072 0.095853694 4284769380
0.11659379 -0.066813037 0.0899214 4284769380
0.1116119 -0.065278359 0.084780976 4284769380
0.10584266 -0.063654117 0.080576688 4284769380
0.099447973 -0.061985888 0.077426545 4284769380
0.092607319 -0.0603205 0.075418949 4284769380
0.085512705 -0.058704697 0.074610263 4284769380
0.07836324 -0.057183821 0.075023174 4284769380
0.07135959 -0.055800565 0.07664609 4284769380
0.064698316 -0.054593746 0.079433471 4284769380
0.11662349 -0.066882953 0.090646625 4284769380
0.11254845 -0.065477774 0.084729031 4284769380
0.10754886 -0.063940808 0.079606511 4284769380
0.10176502 -0.062315192 0.075422846 4284769380
0.095359288 -0.060646549 0.07229545 4284769380
0.088511437 -0.058981713 0.070312098 4284769380
0.081413671 -0.057367414 0.069528453 4284769380
0.074265189 -0.055848952 0.069966525 4284769380
0.067266628 -0.054468956 0.071613997 4284769380
0.060614418 -0.053266145 0.074424647 4284769380
0.05449526 -0.052274287 0.078319579 4284769380
0.10769941 -0.064035468 0.08031369 4284769380
0.10268216 -0.062496226 0.075209141 4284769380
0.096883819 -0.060869258 0.071046144 4284769380
0.09046711 -0.05920022 0.067941532 4284769380
0.083612144 -0.057535958 0.065982439 4284769380
0.076511301 -0.055923179 0.065223858 4284769380
0.069363892 -0.054407153 0.065687075 4284769380
0.062370509 -0.053030428 0.06735909 4284769380
0.055727437 -0.051831644 0.07019297 4284769380
0.049621124 -0.050844442 0.074109189 4284769380
0.044222947 -0.050096538 0.078997828 4284769380
0.11496925 -0.074877016 0.18613699 4284769380
0.11995232 -0.075496107 0.1808093 4284769380
0.12400837 -0.075847089 0.17472461 4284769380
0.12702358 -0.075920105 0.16805364 4284769380
0.1289133 -0.075713098 0.16098368 4284769380
0.1296245 -0.075231895 0.15371312 4284769380
0.12913723 -0.074489988 0.14644603 4284769380
0.12746516 -0.07350821 0.13938637 4284769380
0.12465522 -0.072314106 0.1327323 4284769380
0.12078627 -0.070941202 0.12667055 4284769380
0.11596691 -0.069428019 0.12137127 4284769380
0.12335403 -0.075730838 0.17502467 4284769380
0.12738968 -0.076076165 0.1689261 4284769380
0.13038246 -0.076143406 0.16224499 4284769380
0.13224833 -0.07593067 0.15516886 4284769380
0.13293494 -0.075443931 0.1478963 4284769380
0.13242301 -0.074696854 0.14063145 4284769380
0.13072693 -0.073710404 0.13357818 4284769380
0.12789427 -0.072512262 0.12693447 4284769380
0.12400456 -0.071136057 0.12088677 4284769380
0.11916696 -0.069620423 0.11560483 4284769380
0.11351723 -0.068007894 0.11123691 4284769380
0.12978576 -0.076049186 0.1626534 4284769380
0.13275605 -0.076110654 0.15596221 4284769380
0.13459806 -0.075892188 0.14888 4284769380
0.13526006 -0.07539992 0.14160554 4284769380
0.13472348 -0.07464768 0.13434298 4284769380
0.1330034 -0.073656566 0.12729619 4284769380
0.13014805 -0.0724544 0.12066292 4284769380
0.12623763 -0.071074918 0.11462935 4284769380
0.12138184 -0.069556847 0.10936483 4284769380
0.11571699 -0.067942791 0.1050171 4284769380
0.10940207 -0.066278048 0.10170821 4284769380
0.13407643 -0.075822748 0.1493848 4284769380
0.13589455 -0.07559856 0.1422966 4284769380
0.13653193 -0.07510078 0.1350203 4284769380
0.13597071 -0.074343376 0.12776016 4284769380
0.13422665 -0.073347613 0.12071991 4284769380
0.13134867 -0.072141431 0.11409716 4284769380
0.12741755 -0.0707587 0.10807779 4284769380
0.12254365 -0.069238208 0.10283075 4284769380
0.11686374 -0.067622639 0.098503277 4284769380
0.11053723 -0.065957338 0.095216863 4284769380
0.10374171 -0.064289048 0.09306372 4284769380
0.13610065 -0.075058155 0.13560674 4284769380
0.13671342 -0.074554861 0.12832871 4284769380
0.13612756 -0.073792309 0.12107105 4284769380
0.13435952 -0.072791912 0.11403744 4284769380
0.13145894 -0.071581736 0.10742529 4284769380
0.12750719 -0.070195757 0.10142019 4284769380
0.12261523 -0.068672866 0.096190676 4284769380
0.11692031 -0.067055814 0.091883525 4284769380
0.11058231 -0.065389976 0.088619627 4284769380
0.10377909 -0.063722111 0.086490579 4284769380
0.0967016 -0.062099036 0.085556135 4284769380
0.13579921 -0.07377775 0.12172197 4284769380
0.13518873 -0.073010065 0.11446688 4284769380
0.13339676 -0.072005041 0.10743999 4284769380
0.13047358 -0.070790879 0.10083853 4284769380
0.12650126 -0.069401674 0.094847761 4284769380
0.12159129 -0.067876399 0.089635849 4284769380
0.11588145 -0.066257879 0.085349061 4284769380
0.10953201 -0.064591527 0.082107715 4284769380
0.10272118 -0.062924117 0.080002777 4284769380
0.095640123 -0.061302446 0.079093337 4284769380
0.088487558 -0.05977203 0.079404913 4284769380
0.13318095 -0.072018966 0.10813638 4284769380
0.13136505 -0.071009323 0.10111629 4284769380
0.12841934 -0.069791198 0.094525591 4284769380
0.12442649 -0.068398781 0.088549241 4284769380
0.11949857 -0.066871144 0.083354987 4284769380
0.11377387 -0.065251172 0.079088613 4284769380
0.10741308 -0.063584328 0.075869858 4284769380
0.10059472 -0.061917387 0.073789068 4284769380
0.093510158 -0.060297146 0.072904631 4284769380
0.086358234 -0.058769073 0.073241383 4284769380
0.079339683 -0.057376057 0.074789867 4284769380
0.12832238 -0.069833204 0.095247082 4284769380
0.12535416 -0.06861113 0.088667221 4284769380
0.12134083 -0.067215517 0.082705356 4284769380
0.11639501 -0.065685533 0.077528827 4284769380
0.11065552 -0.06406413 0.07328292 4284769380
0.10428345 -0.062396809 0.0700868 4284769380
0.097457647 -0.060730364 0.068030164 4284769380
0.090369679 -0.059111565 0.067170754 4284769380
0.083218485 -0.057585854 0.067532673 4284769380
0.076204769 -0.056196045 0.069105767 4284769380
0.069525383 -0.05498115 0.071845889 4284769380
0.12136554 -0.067284375 0.083430871 4284769380
0.11733177 -0.065885581 0.077483565 4284769380
0.11236812 -0.064353272 0.07232482 4284769380
0.10661391 -0.062730461 0.068099424 4284769380
0.10023064 -0.061062679 0.064925976 4284769380
0.093397468 -0.059396747 0.062893532 4284769380
0.086306177 -0.057779416 0.062059149 4284769380
0.079155788 -0.056256082 0.062446237 4284769380
0.072146997 -0.054869499 0.064043932 4284769380
0.065476514 -0.053658582 0.066807389 4284769380
0.059331551 -0.052657317 0.070659056 4284769380
0.11251379 -0.064446971 0.073033147 4284769380
0.10753237 -0.062912352 0.067892246 4284769380
0.10176351 -0.061288144 0.063687421 4284769380
0.095369115 -0.05961993 0.060536679 4284769380
0.088528655 -0.057954527 0.058528449 4284769380
0.081434123 -0.056338683 0.057719104 4284769380
0.074284635 -0.054817747 0.058131352 4284769380
0.067280851 -0.053434402 0.059753623 4284769380
0.060619343 -0.052227478 0.06254039 4284769380
0.054487076 -0.051230852 0.066413432 4284769380
0.049056165 -0.05047249 0.071264051 4284769380
0.10202588 -0.061403941 0.064357854 4284769380
0.096242435 -0.059778359 0.060173642 4284769380
0.089836992 -0.058109727 0.057045642 4284769380
0.082989328 -0.056444876 0.055061653 4284769380
0.075891644 -0.054830536 0.054277353 4284769380
0.068743132 -0.053312015 0.054714758 4284769380
0.06174444 -0.051931929 0.05636159 4284769380
0.055091988 -0.050729014 0.059171624 4284769380
0.048972491 -0.049737033 0.063065998 4284769380
0.043557703 -0.048983827 0.067935407 4284769380
0.038999598 -0.048490535 0.073643185 4284769380
0.12618767 -0.075665615 0.1672256 4284769380
0.1302646 -0.076022394 0.16115519 4284769380
0.13330278 -0.076101325 0.15449475 4284769380
0.13521695 -0.075900212 0.14743118 4284769380
0.1359534 -0.075424694 0.14016277 4284769380
0.13549145 -0.074688107 0.13289349 4284769380
0.13384405 -0.073711134 0.12582737 4284769380
0.13105746 -0.072521195 0.11916273 4284769380
0.12720986 -0.071151681 0.11308664 4284769380
0.12240928 -0.069641039 0.10776962 4284769380
0.11679042 -0.068031661 0.1033609 4284769380
0.13270336 -0.076006152 0.15489893 4284769380
0.13571915 -0.076079316 0.14822824 4284769380
0.1376095 -0.075872466 0.14115843 4284769380
0.13832135 -0.075391404 0.13388793 4284769380
0.13783474 -0.074649639 0.12662078 4284769380
0.13616329 -0.073667981 0.11956096 4284769380
0.13335396 -0.072473988 0.11290661 4284769380
0.12948556 -0.071101166 0.1068445 4284769380
0.12466667 -0.06958805 0.10154476 4284769380
0.11903255 -0.067977101 0.097156145 4284769380
0.11274133 -0.066313542 0.093801826 4284769380
0.1370845 -0.075801969 0.14165956 4284769380
0.138951 -0.075589389 0.13458359 4284769380
0.13963826 -0.075102799 0.12731108 4284769380
0.13912699 -0.074355856 0.12004616 4284769380
0.13743152 -0.073369525 0.11299273 4284769380
0.13459946 -0.072171487 0.10634874 4284769380
0.13071029 -0.070795372 0.10030067 4284769380
0.12587316 -0.069279805 0.095018283 4284769380
0.12022385 -0.067667313 0.090649821 4284769380
0.11392089 -0.066003159 0.087317891 4284769380
0.1071412 -0.06433405 0.085116021 4284769380
0.13920301 -0.075059049 0.12789449 4284769380
0.13986565 -0.074566931 0.12062008 4284769380
0.13932973 -0.073814824 0.11335747 4284769380
0.13761027 -0.07282383 0.10631049 4284769380
0.13475554 -0.071621776 0.099676952 4284769380
0.13084564 -0.070242383 0.09364301 4284769380
0.12599033 -0.068724371 0.088378027 4284769380
0.12032588 -0.067110352 0.084029771 4284769380
0.11401127 -0.065445624 0.080720283 4284769380
0.10722371 -0.06377691 0.078542449 4284769380
0.10015374 -0.062151037 0.077557392 4284769380
0.13899696 -0.073799103 0.11400612 4284769380
0.13843639 -0.073041834 0.1067459 4284769380
0.13669296 -0.072046198 0.09970548 4284769380
0.13381557 -0.070840128 0.093082458 4284769380
0.129885 -0.069457471 0.087062709 4284769380
0.12501156 -0.067937046 0.081815198 4284769380
0.11933205 -0.066321522 0.0774872 4284769380
0.11300585 -0.064656235 0.074200191 4284769380
0.10621053 -0.062987931 0.072046421 4284769380
0.0991368 -0.061363425 0.07108634 4284769380
0.091983199 -0.059828322 0.071346894 4284769380
0.13647239 -0.072058961 0.1004004 4284769380
0.13470499 -0.071058683 0.093366615 4284769380
0.13180499 -0.069848612 0.086754188 4284769380
0.1278538 -0.068462715 0.080748715 4284769380
0.1229623 -0.06693989 0.075518742 4284769380
0.11726778 -0.065322876 0.071211055 4284769380
0.11093008 -0.063657053 0.067946553 4284769380
0.10412706 -0.061989177 0.065816872 4284769380
0.097049661 -0.060366064 0.064881779 4284769380
0.08989653 -0.058833264 0.065167509 4284769380
0.082868427 -0.057433803 0.066666059 4284769380
0.13170308 -0.069889486 0.087475069 4284769380
0.12878051 -0.068675436 0.080873325 4284769380
0.12480874 -0.067286313 0.074882187 4284769380
0.11989923 -0.065761104 0.069669813 4284769380
0.11418978 -0.064142622 0.065382488 4284769380
0.10784065 -0.062476281 0.062140543 4284769380
0.10103001 -0.06080886 0.060034975 4284769380
0.093949042 -0.059187151 0.059124876 4284769380
0.086796463 -0.057656676 0.059435789 4284769380
0.079773031 -0.056260385 0.060958989 4284769380
0.073075861 -0.055037472 0.063651726 4284769380
0.12482847 -0.067354105 0.075607955 4284769380
0.12083615 -0.065961771 0.069631234 4284769380
0.1159087 -0.064434201 0.06443651 4284769380
0.11018439 -0.062814265 0.0601696 4284769380
0.1038239 -0.061147429 0.056950253 4284769380
0.097005732 -0.059480477 0.054868821 4284769380
0.089921266 -0.057860196 0.053983729 4284769380
0.082769327 -0.056332063 0.054319818 4284769380
0.075750642 -0.054938965 0.05586765 4284769380
0.069062211 -0.053719997 0.058583789 4284769380
0.062891752 -0.052709378 0.062392 4284769380
0.11604948 -0.06452693 0.065145954 4284769380
0.11110413 -0.062997006 0.059968956 4284769380
0.10536504 -0.06137564 0.055722509 4284769380
0.098993264 -0.059708331 0.052525789 4284769380
0.092167653 -0.058041871 0.050468523 4284769380
0.085079774 -0.056423038 0.04960845 4284769380
0.077928551 -0.05489726 0.049969707 4284769380
0.070914708 -0.053507369 0.051542159 4284769380
0.064235091 -0.052292369 0.054281667 4284769380
0.058077179 -0.051286362 0.058111347 4284769380
0.052613799 -0.050517581 0.062923707 4284769380
0.10562276 -0.061490592 0.056394883 4284769380
0.099868938 -0.059867814 0.052168947 4284769380
0.093485966 -0.058200046 0.048994899 4284769380
0.086652987 -0.0565341 0.046961822 4284769380
0.079561777 -0.054916728 0.046126775 4284769380
0.072411366 -0.053393334 0.0465132 4284769380
0.065402448 -0.052006666 0.048110247 4284769380
0.058731727 -0.050795641 0.050873093 4284769380
0.052586433 -0.049794257 0.054724198 4284769380
0.047139041 -0.049030613 0.059555471 4284769380
0.042542446 -0.048526146 0.065231316 4284769380
0.093853101 -0.058333863 0.049610551 4284769380
0.087458998 -0.056665659 0.046459213 4284769380
0.080618732 -0.055000242 0.044450346 4284769380
0.073524281 -0.05338436 0.043640338 4284769380
0.066374764 -0.051863357 0.044051927 4284769380
0.059370849 -0.05047993 0.045673549 4284769380
0.052709106 -0.049272902 0.048459701 4284769380
0.046576504 -0.048276152 0.052332185 4284769380
0.041145172 -0.047517654 0.057182308 4284769380
0.036567543 -0.047018699 0.062873945 4284769380
0.032972094 -0.046793289 0.069247358 4284769380
0.13425699 -0.075632095 0.1467561 4284769380
0.13731813 -0.07571695 0.14010625 4284769380
0.13925673 -0.07552173 0.13304918 4284769380
0.1400184 -0.075051896 0.125783 4284769380
0.13958175 -0.074320637 0.1185116 4284769380
0.13795906 -0.073348485 0.11143911 4284769380
0.13519585 -0.072162725 0.10476401 4284769380
0.13136967 -0.070796624 0.098673642 4284769380
0.12658793 -0.069288537 0.093338944 4284769380
0.12098481 -0.067680791 0.088909648 4284769380
0.11471759 -0.066018499 0.085510068 4284769380
0.13872837 -0.075450182 0.13354661 4284769380
0.14064316 -0.075249217 0.12648322 4284769380
0.14138027 -0.074773841 0.11921485 4284769380
0.14091896 -0.074037395 0.11194551 4284769380
0.13927218 -0.073060542 0.10487923 4284769380
0.13648619 -0.071870707 0.098214328 4284769380
0.13263915 -0.07050129 0.092137866 4284769380
0.12783904 -0.068990707 0.086820386 4284769380
0.1222206 -0.067381375 0.08241114 4284769380
0.11594149 -0.06571845 0.079033874 4284769380
0.10917797 -0.064048603 0.076783381 4284769380
0.14094107 -0.074728966 0.11979522 4284769380
0.14165358 -0.074248053 0.11252476 4284769380
0.14116761 -0.073506422 0.10525756 4284769380
0.1394968 -0.07252489 0.098197572 4284769380
0.13668805 -0.071331002 0.091542952 4284769380
0.1328202 -0.06995827 0.085480466 4284769380
0.12800179 -0.068445213 0.080180272 4284769380
0.12236807 -0.066834316 0.075791128 4284769380
0.11607716 -0.065170772 0.072436221 4284769380
0.10930561 -0.063501276 0.070209704 4284769380
0.10224349 -0.061872695 0.069174081 4284769380
0.14083043 -0.073489539 0.1059039 4284769380
0.14031981 -0.072742738 0.098638922 4284769380
0.13862498 -0.071756527 0.091585316 4284769380
0.13579352 -0.0705586 0.084941052 4284769380
0.1319049 -0.069182575 0.078892618 4284769380
0.12706825 -0.067667067 0.073609769 4284769380
0.12141933 -0.066054612 0.069240779 4284769380
0.11511668 -0.064390473 0.065908261 4284769380
0.10833719 -0.062721357 0.063705757 4284769380
0.10127115 -0.061094102 0.062695086 4284769380
0.094116867 -0.059554383 0.062904604 4284769380
0.13839968 -0.071768127 0.092278734 4284769380
0.13668084 -0.07077726 0.085231595 4284769380
0.1338267 -0.069575302 0.078597769 4284769380
0.12991735 -0.068195999 0.072563462 4284769380
0.12506253 -0.066678055 0.067298017 4284769380
0.11939847 -0.06506408 0.062949233 4284769380
0.11308417 -0.06339936 0.059639152 4284769380
0.10629682 -0.061730634 0.057460684 4284769380
0.099226944 -0.060104728 0.056474973 4284769380
0.092072949 -0.058567278 0.056709677 4284769380
0.085035644 -0.057161435 0.058158215 4284769380
0.13371986 -0.069615051 0.079318002 4284769380
0.13084307 -0.068409085 0.072694696 4284769380
0.12691306 -0.067026518 0.066674583 4284769380
0.1220401 -0.065506153 0.06142661 4284769380
0.11636098 -0.063890666 0.057098079 4284769380
0.11003508 -0.062225394 0.053810474 4284769380
0.10323996 -0.060557079 0.051656071 4284769380
0.096166328 -0.058932539 0.05069533 4284769380
0.08901272 -0.057397377 0.050955221 4284769380
0.081979908 -0.055994671 0.052428447 4284769380
0.075265281 -0.054763798 0.055073664 4284769380
0.12692779 -0.067093246 0.067400567 4284769380
0.12297715 -0.06570743 0.061394714 4284769380
0.11808612 -0.064184666 0.056164276 4284769380
0.112392 -0.062567689 0.051856052 4284769380
0.1060546 -0.060901884 0.048590962 4284769380
0.099251777 -0.059233997 0.046460647 4284769380
0.092174478 -0.057610847 0.045524891 4284769380
0.085021332 -0.056077987 0.045809966 4284769380
0.07799311 -0.05467844 0.047307864 4284769380
0.071287058 -0.053451486 0.049976546 4284769380
0.065091394 -0.052431561 0.053741112 4284769380
0.11822201 -0.064276427 0.056874793 4284769380
0.11331297 -0.062751278 0.051661953 4284769380
0.10760392 -0.06113283 0.047374092 4284769380
0.10125509 -0.059466507 0.044131555 4284769380
0.094444655 -0.057799071 0.04202535 4284769380
0.08736378 -0.056177329 0.041114595 4284769380
0.080211185 -0.05464679 0.041424844 4284769380
0.073187619 -0.053250417 0.042947397 4284769380
0.066490225 -0.052027397 0.045639515 4284769380
0.060306963 -0.051012058 0.049425643 4284769380
0.054811381 -0.050232898 0.054199517 4284769380
0.107857 -0.061246935 0.048048377 4284769380
0.10213308 -0.059627037 0.043780927 4284769380
0.095772885 -0.057960216 0.040560983 4284769380
0.088954918 -0.056293253 0.038478915 4284769380
0.081870541 -0.054672934 0.037593167 4284769380
0.074718587 -0.053144738 0.037928592 4284769380
0.067699775 -0.051751554 0.039475776 4284769380
0.061011113 -0.050532486 0.042191301 4284769380
0.054840323 -0.049521744 0.045998942 4284769380
0.049360599 -0.048747703 0.050791841 4284769380
0.044725735 -0.048232086 0.056435473 4284769380
0.096135736 -0.058093335 0.041179322 4284769380
0.08976426 -0.056426037 0.037982006 4284769380
0.082938842 -0.054759566 0.035924103 4284769380
0.075851053 -0.053140692 0.035063371 4284769380
0.068699814 -0.051614854 0.035423968 4284769380
0.061685845 -0.050224878 0.036995769 4284769380
0.055005994 -0.049009774 0.039734665 4284769380
0.04884775 -0.048003644 0.043563779 4284769380
0.043383949 -0.047234729 0.048375644 4284769380
0.038767941 -0.04672461 0.054035209 4284769380
0.035129283 -0.046487603 0.060383625 4284769380
0.083400868 -0.054907806 0.036468424 4284769380
0.076568082 -0.053241845 0.03443471 4284769380
0.069476962 -0.051624436 0.033599004 4284769380
0.062326532 -0.050100978 0.033984765 4284769380
0.055317476 -0.048714224 0.035581164 4284769380
0.048646525 -0.047503095 0.0383434 4284769380
0.042500895 -0.046501588 0.042193938 4284769380
0.037053086 -0.04573781 0.047024716 4284769380
0.032455988 -0.045233198 0.052700143 4284769380
0.028838634 -0.045001913 0.059060935 4284769380
0.026302546 -0.04505045 0.065928563 4284769380
-0.03946723 -0.049748417 0.23427175 4284769380
-0.033141356 -0.050873905 0.23778102 4284769380
-0.026309187 -0.0519672 0.24017362 4284769380
-0.019162476 -0.052997623 0.24138241 4284769380
-0.011901808 -0.053936247 0.24137345 4284769380
-0.0047309636 -0.054756735 0.24014699 4284769380
0.0021487952 -0.055436056 0.23773746 4284769380
0.008544378 -0.055955146 0.23421247 4284769380
0.014276283 -0.056299429 0.22967099 4284769380
0.019183634 -0.056459248 0.22424045 4284769380
0.023128701 -0.05643012 0.21807328 4284769380
-0.026755197 -0.051859904 0.2396068 4284769380
-0.019914575 -0.052952208 0.24197559 4284769380
-0.012763474 -0.053981025 0.24315952 4284769380
-0.0055025993 -0.054917473 0.24312536 4284769380
0.0016642608 -0.055735271 0.24187408 4284769380
0.008535957 -0.056411471 0.23944078 4284769380
0.014919626 -0.056927089 0.23589376 4284769380
0.020636098 -0.057267655 0.23133259 4284769380
0.025524933 -0.05742361 0.22588526 4284769380
0.029448917 -0.057390578 0.21970467 4284769380
0.03229792 -0.057169486 0.2129643 4284769380
-0.013299945 -0.053869519 0.24267839 4284769380
-0.0061445381 -0.054896716 0.24383745 4284769380
0.0011164561 -0.055830978 0.24377809 4284769380
0.0082792472 -0.056646079 0.24250199 4284769380
0.015142799 -0.057319146 0.24004495 4284769380
0.021514477 -0.057831287 0.23647594 4284769380
0.027215449 -0.058168132 0.23189513 4284769380
0.032085709 -0.058320221 0.22643109 4284769380
0.035988566 -0.058283288 0.22023715 4284769380
0.038814478 -0.05805837 0.21348719 4284769380
0.040484134 -0.057651777 0.20637064 4284769380
0.000505206 -0.055718523 0.24339671 4284769380
0.0077662333 -0.056650583 0.24331217 4284769380
0.014924869 -0.057462979 0.24201126 4284769380
0.021780195 -0.058132909 0.23953052 4284769380
0.028139805 -0.058641568 0.23593955 4284769380
0.033825211 -0.058974683 0.23133916 4284769380
0.038676836 -0.059122905 0.22585845 4284769380
0.042558517 -0.059082072 0.21965125 4284769380
0.045361307 -0.058853332 0.21289179 4284769380
0.047006544 -0.058443099 0.20576975 4284769380
0.047448047 -0.057862896 0.19848505 4284769380
0.014256708 -0.057352867 0.24174078 4284769380
0.021411104 -0.058162544 0.2404151 4284769380
0.028258123 -0.058829326 0.23791067 4284769380
0.034605589 -0.059334502 0.2342978 4284769380
0.040275358 -0.059663884 0.22967787 4284769380
0.045108292 -0.059808236 0.22418058 4284769380
0.048968751 -0.059763502 0.21796018 4284769380
0.051748388 -0.05953094 0.21119128 4284769380
0.053369179 -0.059117075 0.20406386 4284769380
0.053785644 -0.058533523 0.19677795 4284769380
0.052986085 -0.057796665 0.18953806 4284769380
0.02755258 -0.058724772 0.23775899 4284769380
0.034391209 -0.059388399 0.23523092 4284769380
0.040726461 -0.05989008 0.23159617 4284769380
0.046380524 -0.060215726 0.22695678 4284769380
0.051194709 -0.060356207 0.22144297 4284769380
0.0550339 -0.060307574 0.21520945 4284769380
0.057790346 -0.060071193 0.20843121 4284769380
0.059386678 -0.059653699 0.20129848 4284769380
0.059778098 -0.059066813 0.19401145 4284769380
0.058953617 -0.058327001 0.18677466 4284769380
0.056936372 -0.057455029 0.17979118 4284769380
0.040004164 -0.059794139 0.23156774 4284769380
0.046327118 -0.060292318 0.22791117 4284769380
0.051965412 -0.060614228 0.22325237 4284769380
0.056760792 -0.060750831 0.21772209 4284769380
0.06057867 -0.060698301 0.21147554 4284769380
0.06331189 -0.060458105 0.20468803 4284769380
0.064883746 -0.060036987 0.19755009 4284769380
0.065250114 -0.059446767 0.19026202 4284769380
0.064400718 -0.058704011 0.1830284 4284769380
0.062359393 -0.057829563 0.17605224 4284769380
0.05918343 -0.056847967 0.16952935 4284769380
0.051247474 -0.060529705 0.22334802 4284769380
0.056869928 -0.060847871 0.21866985 4284769380
0.061646443 -0.060980603 0.21312317 4284769380
0.065442964 -0.060924172 0.20686364 4284769380
0.068152927 -0.060680166 0.20006695 4284769380
0.069700286 -0.060255427 0.19292387 4284769380
0.070041604 -0.059661884 0.18563487 4284769380
0.069167301 -0.058916189 0.17840452 4284769380
0.067101911 -0.058039278 0.17143576 4284769380
0.063903414 -0.057055753 0.16492417 4284769380
0.059661571 -0.055993225 0.15905254 4284769380
0.060953852 -0.060909972 0.21334009 4284769380
0.065711446 -0.061038826 0.20777707 4284769380
0.069486566 -0.060978498 0.20150465 4284769380
0.072173245 -0.060730681 0.19469887 4284769380
0.073696084 -0.060302328 0.18755072 4284769380
0.074012339 -0.059705466 0.18026087 4284769380
0.073113136 -0.058956847 0.17303388 4284769380
0.071023718 -0.058077477 0.16607259 4284769380
0.06780272 -0.057092041 0.15957239 4284769380
0.063540548 -0.056028195 0.15371573 4284769380
0.058356822 -0.054915797 0.14866698 4284769380
0.068839557 -0.060923818 0.2018365 4284769380
0.072593227 -0.060859594 0.19555126 4284769380
0.075256586 -0.06060797 0.18873645 4284769380
0.07675489 -0.060176011 0.18158334 4284769380
0.077046089 -0.059575841 0.17429271 4284769380
0.076122001 -0.058824301 0.16706917 4284769380
0.074008569 -0.057942487 0.16011545 4284769380
0.070765115 -0.056955148 0.15362673 4284769380
0.066482656 -0.05588999 0.14778511 4284769380
0.061281398 -0.054776918 0.14275457 4284769380
0.055307321 -0.053647168 0.13867627 4284769380
0.074674092 -0.060570844 0.18917353 4284769380
0.077314101 -0.060315419 0.18234979 4284769380
0.078787856 -0.059879854 0.1751918 4284769380
0.079053983 -0.05927638 0.16790049 4284769380
0.078105025 -0.05852193 0.16068046 4284769380
0.07596761 -0.057637684 0.15373439 4284769380
0.07270173 -0.056648452 0.14725721 4284769380
0.068399042 -0.055582006 0.14143072 4284769380
0.063180313 -0.05446827 0.13641845 4284769380
0.057192009 -0.053338509 0.13236107 4284769380
0.050602209 -0.052224427 0.12937248 4284769380
-0.018565925 -0.052983336 0.24033691 4284769380
-0.011742515 -0.054077633 0.24275392 4284769380
-0.0046003987 -0.055109691 0.24398822 4284769380
0.0026599676 -0.056050543 0.24400511 4284769380
0.0098348111 -0.05687378 0.24280415 4284769380
0.016722759 -0.057556294 0.24041905 4284769380
0.023130491 -0.058078937 0.23691672 4284769380
0.028878164 -0.058427036 0.2323955 4284769380
0.033804458 -0.058590818 0.22698225 4284769380
0.037771113 -0.058565695 0.22082892 4284769380
0.040666796 -0.058352362 0.21410821 4284769380
-0.0051334617 -0.054998297 0.24350327 4284769380
0.0020131322 -0.056028761 0.24471271 4284769380
0.0092737935 -0.056967445 0.24470443 4284769380
0.016444741 -0.057788003 0.24347861 4284769380
0.023324711 -0.058467407 0.2410697 4284769380
0.029720606 -0.058986586 0.23754531 4284769380
0.035452917 -0.059330966 0.23300433 4284769380
0.040360756 -0.059490889 0.22757424 4284769380
0.044306375 -0.059461862 0.22140743 4284769380
0.04717904 -0.0592447 0.21467696 4284769380
0.048898119 -0.058845494 0.20757177 4284769380
0.0086652646 -0.056854967 0.24431872 4284769380
0.015926136 -0.057791471 0.24428523 4284769380
0.023093101 -0.058609344 0.24303459 4284769380
0.029965011 -0.059285626 0.24060191 4284769380
0.036348995 -0.059801333 0.23705548 4284769380
0.042065874 -0.060141999 0.23249482 4284769380
0.046955194 -0.060298055 0.22704792 4284769380
0.050879735 -0.060265124 0.22086769 4284769380
0.053729344 -0.060044132 0.21412757 4284769380
0.055424046 -0.059641283 0.20701672 4284769380
0.055916268 -0.059067875 0.19973473 4284769380
0.022426894 -0.058499072 0.24275939 4284769380
0.029589793 -0.059314243 0.24148394 4284769380
0.03645356 -0.059987396 0.23902753 4284769380
0.042825554 -0.060499627 0.23545909 4284769380
0.048526935 -0.060836568 0.2308788 4284769380
0.053397685 -0.060988761 0.22541519 4284769380
0.057301097 -0.06095193 0.21922161 4284769380
0.06012762 -0.060727112 0.21247189 4284769380
0.061797917 -0.060320616 0.20535548 4284769380
0.062265113 -0.059743851 0.19807212 4284769380
0.061516095 -0.059013005 0.19082621 4284769380
0.035749149 -0.059882551 0.23887089 4284769380
0.042604692 -0.060552564 0.23639075 4284769380
0.048964623 -0.061061315 0.23280038 4284769380
0.054650437 -0.061394528 0.2282005 4284769380
0.059502553 -0.06154285 0.22272022 4284769380
0.063384794 -0.061502121 0.21651338 4284769380
0.066188194 -0.061273478 0.20975415 4284769380
0.067834072 -0.060863346 0.20263226 4284769380
0.068276234 -0.060283229 0.19534761 4284769380
0.067502268 -0.05954941 0.18810461 4284769380
0.065533899 -0.05868249 0.18110658 4284769380
0.048242599 -0.060964964 0.23276685 4284769380
0.054590389 -0.061470229 0.22915456 4284769380
0.060260568 -0.061799712 0.22453515 4284769380
0.065093994 -0.061944164 0.21903829 4284769380
0.068955012 -0.061899535 0.21281825 4284769380
0.071735255 -0.061667074 0.20604961 4284769380
0.073356695 -0.061253302 0.19892232 4284769380
0.073773816 -0.060669839 0.19163644 4284769380
0.07297492 -0.059933059 0.18439646 4284769380
0.070982419 -0.059063639 0.17740558 4284769380
0.067852244 -0.058085985 0.17086001 4284769380
0.059542038 -0.061714672 0.22462575 4284769380
0.065196514 -0.062040418 0.21998687 4284769380
0.070011191 -0.062181 0.21447349 4284769380
0.073850945 -0.06213247 0.20824032 4284769380
0.076608002 -0.06189619 0.20146233 4284769380
0.078204982 -0.061478794 0.19432972 4284769380
0.078597054 -0.06089199 0.18704273 4284769380
0.077773228 -0.060152255 0.17980585 4284769380
0.075756624 -0.059280351 0.17282219 4284769380
0.072603829 -0.058300745 0.16628776 4284769380
0.068403348 -0.057240929 0.16038598 4284769380
0.069317162 -0.062109757 0.21468554 4284769380
0.074113041 -0.062246464 0.20915568 4284769380
0.077931479 -0.062194034 0.20290947 4284769380
0.080665313 -0.061953939 0.19612221 4284769380
0.08223781 -0.061532918 0.18898439 4284769380
0.08260484 -0.060942784 0.18169636 4284769380
0.081756093 -0.060200106 0.17446266 4284769380
0.079715401 -0.059325721 0.16748631 4284769380
0.076540038 -0.058344178 0.16096312 4284769380
0.072319113 -0.057283018 0.15507618 4284769380
0.067171112 -0.056172028 0.14999069 4284769380
0.077282228 -0.062138669 0.20323679 4284769380
0.081079312 -0.062082343 0.1969776 4284769380
0.083789892 -0.061838433 0.19018115 4284769380
0.085337892 -0.061413795 0.1830382 4284769380
0.085679866 -0.060820337 0.17574923 4284769380
0.084806219 -0.060074721 0.16851878 4284769380
0.082741469 -0.059197869 0.16154984 4284769380
0.079543561 -0.0582144 0.15503795 4284769380
0.075302258 -0.057151906 0.14916591 4284769380
0.070136592 -0.056040216 0.14409852 4284769380
0.064191543 -0.054910526 0.13997801 4284769380
0.083204411 -0.061800566 0.19061416 4284769380
0.085891701 -0.061552849 0.18380862 4284769380
0.087415189 -0.061124593 0.17666061 4284769380
0.087732106 -0.06052782 0.16937077 4284769380
0.086833559 -0.059779275 0.16214369 4284769380
0.084744774 -0.058899973 0.15518221 4284769380
0.081524365 -0.057914585 0.14868172 4284769380
0.077262722 -0.056850772 0.14282466 4284769380
0.072079465 -0.055738393 0.13777542 4284769380
0.066120051 -0.054608665 0.13367572 4284769380
0.059551757 -0.053493299 0.13064061 4284769380
0.086910583 -0.06110533 0.17718667 4284769380
0.088409536 -0.060673468 0.17003369 4284769380
0.08870139 -0.060073379 0.16274308 4284769380
0.087777957 -0.059321918 0.15551943 4284769380
0.085665159 -0.058440167 0.14856552 4284769380
0.082422286 -0.05745288 0.14207648 4284769380
0.078140363 -0.05638776 0.13623448 4284769380
0.072939567 -0.055274703 0.13120344 4284769380
0.066965863 -0.054144952 0.12712461 4284769380
0.060386915 -0.053030215 0.12411243 4284769380
0.05338737 -0.051961776 0.12225147 4284769380
0.0030794602 -0.056006175 0.24287763 4284769380
0.010216891 -0.057039857 0.24413739 4284769380
0.017476864 -0.057982918 0.24418014 4284769380
0.024655618 -0.058808893 0.24300469 4284769380
0.031551667 -0.059494596 0.24064404 4284769380
0.037971467 -0.060020786 0.23716442 4284769380
0.043734834 -0.060372695 0.23266353 4284769380
0.048680011 -0.060540441 0.22726764 4284769380
0.052668203 -0.060519319 0.22112824 4284769380
0.055587474 -0.06030992 0.21441762 4284769380
0.057355896 -0.059918128 0.20732413 4284769380
0.016871085 -0.057870422 0.24379015 4284769380
0.024131443 -0.058811326 0.2438077 4284769380
0.031306386 -0.059634633 0.2426074 4284769380
0.038194545 -0.060317233 0.24022292 4284769380
