# .PCD v0.7 - Point Cloud Data file format
VERSION 0.7
FIELDS x y z rgb
SIZE 4 4 4 4
TYPE F F F U
COUNT 1 1 1 1
WIDTH 625
HEIGHT 1
VIEWPOINT 0 0 0 1 0 0 0
POINTS 625
DATA ascii
-0.034559142 -0.033891387 0.23565905 4284769380
-0.021462858 -0.041078825 0.24148282 4284769380
-0.0071810205 -0.048366722 0.24154514 4284769380
0.0063637057 -0.05477396 0.23583761 4284769380
0.017347889 -0.059437986 0.22512861 4284769380
-0.0085678762 -0.047837 0.2435734 4284769380
0.0057182736 -0.055116467 0.24351422 4284769380
0.019227866 -0.061495882 0.23769338 4284769380
0.030142199 -0.066116422 0.22689448 4284769380
0.036991954 -0.068356059 0.21257132 4284769380
0.018585566 -0.061380729 0.24012072 4284769380
0.032059245 -0.067731947 0.2341869 4284769380
0.042903099 -0.072308742 0.22329874 4284769380
0.049657296 -0.074494973 0.20892204 4284769380
0.051412564 -0.07399632 0.19299226 4284769380
0.043095376 -0.072624303 0.22578496 4284769380
0.053868126 -0.07715708 0.21480817 4284769380
0.060526375 -0.079289779 0.20037878 4284769380
0.062173773 -0.078735277 0.1844393 4284769380
0.058588538 -0.075568229 0.16913557 4284769380
0.061526284 -0.079991817 0.20257539 4284769380
0.068088196 -0.082070857 0.18809412 4284769380
0.069627628 -0.081460536 0.1721459 4284769380
0.065937325 -0.078243025 0.15687771 4284769380
0.057514098 -0.072851464 0.14434502 4284769380
0.0076138419 -0.056038253 0.24300236 4284769380
0.021890396 -0.063334361 0.24318935 4284769380
0.035470366 -0.069769785 0.23759846 4284769380
0.046525575 -0.074478149 0.22698236 4284769380
0.053567741 -0.076825611 0.21277019 4284769380
0.034795079 -0.069636948 0.24001594 4284769380
0.048340719 -0.076044917 0.23431139 4284769380
0.059326734 -0.080710083 0.22360475 4284769380
0.066274151 -0.0830044 0.2093374 4284769380
0.068247683 -0.082619011 0.19343001 4284769380
0.059484605 -0.081008494 0.22609551 4284769380
0.070400789 -0.085630186 0.21529897 4284769380
0.077253051 -0.087871231 0.20097722 4284769380
0.079118922 -0.087429933 0.18505831 4284769380
0.075747222 -0.084365696 0.16968527 4284769380
0.078221954 -0.088559061 0.20319216 4284769380
0.08497867 -0.090746701 0.18881686 4284769380
0.086736776 -0.090249524 0.17288733 4284769380
0.083259597 -0.087134458 0.15754803 4284769380
0.075015225 -0.081820868 0.14486401 4284769380
0.088380918 -0.091230378 0.17451599 4284769380
0.090031154 -0.090677343 0.15857676 4284769380
0.086448692 -0.087511629 0.1432721 4284769380
0.078115806 -0.0821594 0.13066238 4284769380
0.066154301 -0.075341202 0.12244517 4284769380
0.049978618 -0.076773241 0.23309003 4284769380
0.063593008 -0.083236448 0.22761613 4284769380
0.074718572 -0.087988868 0.21709356 4284769380
0.081857562 -0.090390734 0.20293891 4284769380
0.08404889 -0.090118691 0.18705772 4284769380
0.074842006 -0.088270068 0.21958825 4284769380
0.085899025 -0.092979573 0.20897454 4284769380
0.092943683 -0.095328428 0.19476384 4284769380
0.095027588 -0.095000438 0.17886925 4284769380
0.091870219 -0.092039749 0.16343054 4284769380
0.093881354 -0.096001893 0.19699655 4284769380
0.10083127 -0.098297618 0.18273063 4284769380
0.10280763 -0.097913697 0.16682357 4284769380
0.099544391 -0.094901823 0.15141681 4284769380
0.091480844 -0.089667454 0.13858448 4284769380
0.10442813 -0.098885037 0.16848136 4284769380
0.10629684 -0.098445214 0.15256274 4284769380
0.10292792 -0.095382318 0.13718882 4284769380
0.094774887 -0.0901087 0.1244293 4284769380
0.082935348 -0.083334304 0.1160019 4284769380
0.10500409 -0.096515402 0.13803935 4284769380
0.10152969 -0.09340167 0.12269916 4284769380
0.093287654 -0.088089101 0.1100132 4284769380
0.081387572 -0.081292883 0.10168928 4284769380
0.067431457 -0.073927954 0.098847993 4284769380
0.08706788 -0.093420446 0.20720132 4284769380
0.09826313 -0.098216638 0.19677293 4284769380
0.1054985 -0.10067276 0.18267666 4284769380
0.10779995 -0.10045815 0.16681017 4284769380
0.10485765 -0.097601712 0.15130946 4284769380
0.10640471 -0.1013317 0.18492663 4284769380
0.11354618 -0.10373496 0.17077346 4284769380
0.11574034 -0.10346438 0.15489264 4284769380
0.1126918 -0.10055641 0.13942207 4284769380
0.10481099 -0.095402509 0.12644446 4284769380
0.1173368 -0.10442599 0.15657918 4284769380
0.11942354 -0.10409947 0.14068493 4284769380
0.11626896 -0.10114013 0.12524541 4284769380
0.10829772 -0.095946372 0.1123391 4284769380
0.096582957 -0.08921738 0.10370352 4284769380
0.1183319 -0.10226963 0.12613213 4284769380
0.11507145 -0.099259093 0.11072452 4284769380
0.10701026 -0.094025768 0.09789028 4284769380
0.095233567 -0.087274171 0.08935719 4284769380
0.081326783 -0.079913229 0.086273991 4284769380
0.10925055 -0.09516485 0.097852916 4284769380
0.10109988 -0.089892261 0.085091472 4284769380
0.089261942 -0.083118439 0.076661348 4284769380
0.075330399 -0.075755306 0.073697455 4284769380
0.061180763 -0.068794109 0.076598778 4284769380
0.11409514 -0.10383148 0.16867723 4284769380
0.12142646 -0.1063417 0.15464018 4284769380
0.12383789 -0.10618455 0.13878936 4284769380
0.1210048 -0.10338116 0.12325865 4284769380
0.11330859 -0.098308958 0.11013885 4284769380
0.12540995 -0.10713619 0.14050424 4284769380
0.12771422 -0.10692305 0.12463814 4284769380
0.12477472 -0.10406797 0.10913666 4284769380
0.11698718 -0.098955296 0.096086644 4284769380
0.10539997 -0.092273317 0.087244928 4284769380
0.12682395 -0.10519361 0.11005937 4284769380
0.12377821 -0.10228699 0.094588004 4284769380
0.11589978 -0.097134151 0.081608534 4284769380
0.10424928 -0.090428777 0.072868288 4284769380
0.090395123 -0.083073564 0.069543913 4284769380
0.11813895 -0.098276041 0.081609756 4284769380
0.1101701 -0.093083322 0.068701565 4284769380
0.098456971 -0.086354934 0.060063299 4284769380
0.084576435 -0.078996673 0.05685785 4284769380
0.070397124 -0.071999133 0.059516754 4284769380
0.10057226 -0.087353013 0.05914285 4284769380
0.088797189 -0.080602005 0.050607055 4284769380
0.074891068 -0.073241122 0.047520719 4284769380
0.060725987 -0.066261306 0.050299343 4284769380
0.048208881 -0.060602203 0.058568858 4284769380
-0.037934721 -0.042409267 0.23491384 4284769380
-0.023825873 -0.047041621 0.24096115 4284769380
-0.0084398119 -0.051543135 0.24126723 4284769380
0.006152147 -0.055307806 0.23579091 4284769380
0.01798559 -0.057828818 0.22526939 4284769380
-0.0099338945 -0.051283989 0.24327183 4284769380
0.0054568122 -0.055776235 0.24345651 4284769380
0.02001092 -0.059519932 0.23786625 4284769380
0.031769115 -0.062011089 0.22725366 4284769380
0.039148469 -0.062914349 0.21304742 4284769380
0.019318961 -0.059530094 0.24028264 4284769380
0.033834379 -0.063252598 0.2345788 4284769380
0.045516644 -0.065713763 0.22387573 4284769380
0.052793052 -0.066582248 0.20961432 4284769380
0.054684032 -0.065741152 0.19371448 4284769380
0.045723788 -0.065991804 0.22636522 4284769380
0.05732945 -0.068422832 0.21557231 4284769380
0.064502493 -0.069256507 0.20125657 4284769380
0.066277258 -0.068380594 0.18534522 4284769380
0.062414829 -0.065913029 0.16998029 4284769380
0.065579712 -0.069763467 0.20347026 4284769380
0.072648972 -0.070562273 0.189101 4284769380
0.074307427 -0.069651611 0.17317905 4284769380
0.070331804 -0.06715408 0.15784787 4284769380
0.061257314 -0.063405894 0.14517139 4284769380
0.0074989395 -0.056328196 0.24297698 4284769380
0.022879308 -0.060838956 0.24340767 4284769380
0.037509236 -0.064624928 0.23804858 4284769380
0.049419198 -0.067176424 0.22762117 4284769380
0.057005841 -0.068149969 0.21352921 4284769380
0.036781739 -0.06462384 0.24045452 4284769380
0.051374685 -0.068389058 0.23498119 4284769380
0.0632101 -0.070910856 0.22446208 4284769380
0.070694663 -0.071849741 0.21031331 4284769380
0.072820783 -0.071079314 0.1944396 4284769380
0.063380174 -0.071178466 0.22695552 4284769380
0.075140357 -0.073670417 0.21634531 4284769380
0.082522415 -0.074574582 0.20214052 4284769380
0.084532551 -0.073769256 0.18625346 4284769380
0.080900162 -0.071362846 0.17082287 4284769380
0.083566234 -0.075073384 0.204372 4284769380
0.090845361 -0.075942792 0.19011202 4284769380
0.092739396 -0.075102605 0.1742125 4284769380
0.088993363 -0.072665945 0.15881386 4284769380
0.080111571 -0.068960823 0.14598912 4284769380
0.094510652 -0.075762689 0.17586924 4284769380
0.09628848 -0.0748877 0.15995817 4284769380
0.092429027 -0.072420917 0.14459237 4284769380
0.083451875 -0.068694435 0.13184042 4284769380
0.070565544 -0.064209923 0.12341903 4284769380
0.053139221 -0.068797834 0.23378779 4284769380
0.067806229 -0.072604872 0.22854628 4284769380
0.079791985 -0.075186707 0.2182136 4284769380
0.087482929 -0.076195754 0.20418081 4284769380
0.08984369 -0.075496182 0.18833703 4284769380
0.079924956 -0.075443819 0.22071041 4284769380
0.09183687 -0.077996098 0.21028543 4284769380
0.099426195 -0.078970551 0.19619496 4284769380
0.10167123 -0.078235991 0.18033595 4284769380
0.098269731 -0.075891308 0.16484335 4284769380
0.10043637 -0.079461075 0.1984437 4284769380
0.10792363 -0.080400869 0.1842964 4284769380
0.11005279 -0.079631366 0.16842306 4284769380
0.10653725 -0.077256143 0.15296061 4284769380
0.097850256 -0.07359498 0.13999063 4284769380
0.11179858 -0.080286548 0.17010853 4284769380
0.11381177 -0.079482138 0.15422179 4284769380
0.11018237 -0.077076524 0.13879037 4284769380
0.10139898 -0.073393561 0.12589169 4284769380
0.08864405 -0.068929054 0.1172622 4284769380
0.11241908 -0.077804536 0.13967635 4284769380
0.10867604 -0.075368665 0.12427685 4284769380
0.099796765 -0.071664117 0.1114502 4284769380
0.086976603 -0.067189604 0.10292315 4284769380
0.07194145 -0.062547505 0.099843651 4284769380
0.0930961 -0.078208931 0.20853215 4284769380
0.10515692 -0.08082094 0.19829486 4284769380
0.11295171 -0.081865437 0.18432209 4284769380
0.1154311 -0.081201822 0.16849488 4284769380
0.11226131 -0.078919418 0.15294395 4284769380
0.11392799 -0.082347572 0.18658753 4284769380
0.12162161 -0.083357535 0.17255625 4284769380
0.12398541 -0.082658887 0.15671287 4284769380
0.12070118 -0.080345675 0.14119028 4284769380
0.11221105 -0.076729327 0.12807816 4284769380
0.1257053 -0.083309025 0.15842667 4284769380
0.12795338 -0.082575381 0.14256805 4284769380
0.1245549 -0.080231503 0.12707467 4284769380
0.11596736 -0.076592922 0.11403231 4284769380
0.10334685 -0.072149485 0.10519677 4284769380
0.12677735 -0.080958515 0.12799661 4284769380
0.1232648 -0.078584105 0.11253335 4284769380
0.11458035 -0.074923508 0.099561512 4284769380
0.10189313 -0.070469543 0.090827405 4284769380
0.08691112 -0.065821804 0.087506831 4284769380
0.11699386 -0.075625509 0.099562384 4284769380
0.108213 -0.071943112 0.086661816 4284769380
0.095459789 -0.067478873 0.07802964 4284769380
0.080451109 -0.062833779 0.074827939 4284769380
0.065207474 -0.058633167 0.077487744 4284769380
0.12221301 -0.083346955 0.17046939 4284769380
0.13011117 -0.084426843 0.15655749 4284769380
0.13270904 -0.083799221 0.14074782 4284769380
0.1296569 -0.081548572 0.12516876 4284769380
0.12136564 -0.077977896 0.11191759 4284769380
0.13440265 -0.08444415 0.14248954 4284769380
0.13688508 -0.083781458 0.12666278 4284769380
0.1337183 -0.081499867 0.11111111 4284769380
0.12532865 -0.077906542 0.097928166 4284769380
0.11284555 -0.073485225 0.088888675 4284769380
0.13592596 -0.08222571 0.11206881 4284769380
0.13264474 -0.079913318 0.09654545 4284769380
0.12415718 -0.076297551 0.083431497 4284769380
0.1116059 -0.071865186 0.074492387 4284769380
0.096680589 -0.067212917 0.070931539 4284769380
0.12656948 -0.07700257 0.083470941 4284769380
0.1179845 -0.073364578 0.070426732 4284769380
0.10536575 -0.068921417 0.061588533 4284769380
0.090412021 -0.064271249 0.05814616 4284769380
0.075136416 -0.060040087 0.060563035 4284769380
0.10764459 -0.069506802 0.060704194 4284769380
0.09495911 -0.065053113 0.051967405 4284769380
0.079977818 -0.060405307 0.048643708 4284769380
0.064717531 -0.056189094 0.051180549 4284769380
0.051232647 -0.052972075 0.059236407 4284769380
-0.039652791 -0.051405538 0.23412676 4284769380
-0.025028581 -0.05333931 0.24041016 4284769380
-0.0090805013 -0.054897949 0.24097373 4284769380
0.0060444693 -0.055871632 0.23574159 4284769380
0.018310161 -0.056129277 0.22541808 4284769380
-0.010629159 -0.054924574 0.24295332 4284769380
0.005323736 -0.056473058 0.24339554 4284769380
0.020409474 -0.057433005 0.23804884 4284769380
0.032597169 -0.05767519 0.227633 4284769380
0.040246073 -0.057167005 0.21355024 4284769380
0.019692237 -0.05757552 0.24045365 4284769380
0.03473787 -0.058521677 0.2349927 4284769380
0.046846863 -0.058748387 0.22448513 4284769380
0.054389063 -0.058225129 0.21034548 4284769380
0.056349117 -0.057022341 0.19447728 4284769380
0.047061574 -0.058986813 0.22697809 4284769380
0.059091162 -0.059198033 0.21637937 4284769380
0.066526219 -0.058659729 0.20218366 4284769380
0.06836582 -0.057444368 0.18630201 4284769380
0.064362302 -0.055715561 0.17087245 4284769380
0.067642786 -0.05896065 0.20441538 4284769380
0.074970275 -0.058407333 0.19016442 4284769380
0.07668931 -0.057179462 0.17427021 4284769380
0.072568461 -0.055442341 0.15887251 4284769380
0.063162506 -0.05342982 0.14604419 4284769380
0.0074404571 -0.056634422 0.24295019 4284769380
0.023382638 -0.058203399 0.24363825 4284769380
0.038546965 -0.059191119 0.23852398 4284769380
0.050891969 -0.059464615 0.22829586 4284769380
0.058755737 -0.058987066 0.21433087 4284769380
0.037792895 -0.059329182 0.24091774 4284769380
0.052918885 -0.060303222 0.23568861 4284769380
0.06518662 -0.060561277 0.22536755 4284769380
0.072944582 -0.060068592 0.21134402 4284769380
0.075148366 -0.058891505 0.1955059 4284769380
0.065362915 -0.060796358 0.22786385 4284769380
0.077552669 -0.061038949 0.21745043 4284769380
0.085204378 -0.060531162 0.20336917 4284769380
0.08728794 -0.059341356 0.18751574 4284769380
0.083522864 -0.057629708 0.17202437 4284769380
0.086286321 -0.060830314 0.20561811 4284769380
0.093831338 -0.060307451 0.19147995 4284769380
0.095794559 -0.059104998 0.17561211 4284769380
0.091911696 -0.05738483 0.16015078 4284769380
0.082705468 -0.055378523 0.14717741 4284769380
0.097630516 -0.059426289 0.17729849 4284769380
0.099473283 -0.058211256 0.16141717 4284769380
0.095472857 -0.056482673 0.14598678 4284769380
0.086167783 -0.05447324 0.13308461 4284769380
0.072810747 -0.052453481 0.12444758 4284769380
0.054747876 -0.060374495 0.23452474 4284769380
0.069950633 -0.061376195 0.22952865 4284769380
0.082374208 -0.061665524 0.21939656 4284769380
0.09034609 -0.061203539 0.20549245 4284769380
0.092793077 -0.060052428 0.18968818 4284769380
0.082512036 -0.061897207 0.22189558 4284769380
0.094859071 -0.062171109 0.21166992 4284769380
0.10272561 -0.061693959 0.19770648 4284769380
0.10505265 -0.060529996 0.18188502 4284769380
0.10152691 -0.058835912 0.16633551 4284769380
0.10377268 -0.061991271 0.19997209 4284769380
0.11153343 -0.061498988 0.1859501 4284769380
0.11374038 -0.060322236 0.17011239 4284769380
0.11009642 -0.058619436 0.15459111 4284769380
0.10109211 -0.056619819 0.14147577 4284769380
0.11554993 -0.060643509 0.17182706 4284769380
0.11763666 -0.059454039 0.15597403 4284769380
0.11387469 -0.057742614 0.14048187 4284769380
0.10477046 -0.055739637 0.12743621 4284769380
0.09154962 -0.053714752 0.11859328 4284769380
0.1161931 -0.058042817 0.14140527 4284769380
0.11231333 -0.056322873 0.12594314 4284769380
0.10310972 -0.054316651 0.11296791 4284769380
0.089821264 -0.052294236 0.10422633 4284769380
0.074236915 -0.050527889 0.10089523 4284769380
0.096164294 -0.062143087 0.20993774 4284769380
0.10866567 -0.062448237 0.19990227 4284769380
0.11674518 -0.062001839 0.18605992 4284769380
0.11931514 -0.060863994 0.1702742 4284769380
0.11602957 -0.059187874 0.15467024 4284769380
0.11775713 -0.06229724 0.18834171 4284769380
0.12573177 -0.061835654 0.17443918 4284769380
0.12818192 -0.060684886 0.15863536 4284769380
0.12477773 -0.058999851 0.14305779 4284769380
0.11597747 -0.057007395 0.1298036 4284769380
0.12996463 -0.061006058 0.16037793 4284769380
0.13229483 -0.05984243 0.14455692 4284769380
0.12877221 -0.058148578 0.12900667 4284769380
0.11987098 -0.05615253 0.11582061 4284769380
0.10678948 -0.054122999 0.10677388 4284769380
0.13107584 -0.058450509 0.12996581 4284769380
0.12743498 -0.056747932 0.11444377 4284769380
0.11843331 -0.054748408 0.10132661 4284769380
0.10528265 -0.052721109 0.092380188 4284769380
0.089753382 -0.050938964 0.088808909 4284769380
0.12093498 -0.054988775 0.10136786 4284769380
0.11183337 -0.052985884 0.08832036 4284769380
0.09861432 -0.050960939 0.07947477 4284769380
0.083057411 -0.049186535 0.076021917 4284769380
0.067256957 -0.047901556 0.078426637 4284769380
0.12634479 -0.06171196 0.17236221 4284769380
0.13453144 -0.061281178 0.15858246 4284769380
0.1372242 -0.060156662 0.14281628 4284769380
0.13406058 -0.058489796 0.12718613 4284769380
0.12546645 -0.056504976 0.11379622 4284769380
0.13897967 -0.060477659 0.14458634 4284769380
0.14155278 -0.059340153 0.12880111 4284769380
0.13827033 -0.057664271 0.11319645 4284769380
0.12957422 -0.055675626 0.099873126 4284769380
0.11663514 -0.053641934 0.090624735 4284769380
0.14055865 -0.057967857 0.11419109 4284769380
0.13715756 -0.056283057 0.09861283 4284769380
0.12835996 -0.054290701 0.085356846 4284769380
0.11535021 -0.052259002 0.076207712 4284769380
0.099879712 -0.050461479 0.072397098 4284769380
0.13086039 -0.054534324 0.085436657 4284769380
0.12196181 -0.052538369 0.072248794 4284769380
0.10888213 -0.050508782 0.063199431 4284769380
0.093382165 -0.048718795 0.059506822 4284769380
0.077548578 -0.047409378 0.061668079 4284769380
0.1112442 -0.050658297 0.062353224 4284769380
0.09809535 -0.048630942 0.05340416 4284769380
0.082566828 -0.046848591 0.049829766 4284769380
0.066749118 -0.045551196 0.052111246 4284769380
0.052771658 -0.044913415 0.059941448 4284769380
-0.039652817 -0.060563169 0.23332557 4284769380
-0.025028598 -0.059749953 0.23984931 4284769380
-0.0090805106 -0.058312938 0.24067496 4284769380
0.0060444679 -0.056445573 0.23569137 4284769380
0.018310167 -0.054399252 0.22556944 4284769380
-0.010629169 -0.058630459 0.2426291 4284769380
0.0053237341 -0.057182379 0.24333349 4284769380
0.02040948 -0.055308647 0.2382347 4284769380
0.03259718 -0.053261518 0.22801915 4284769380
0.040246088 -0.051316578 0.21406208 4284769380
0.019692242 -0.055585887 0.24062771 4284769380
0.034737885 -0.053705901 0.23541403 4284769380
0.046846882 -0.051658079 0.22510545 4284769380
0.054389086 -0.049718104 0.21108975 4284769380
0.05634914 -0.048147146 0.19525376 4284769380
0.047061592 -0.051856171 0.22760193 4284769380
0.059091188 -0.049807779 0.21720092 4284769380
0.066526249 -0.047872886 0.20312738 4284769380
0.06836585 -0.046311978 0.18727596 4284769380
0.064362325 -0.045335185 0.17178062 4284769380
0.067642815 -0.047964074 0.20537746 4284769380
0.074970305 -0.046034373 0.19124691 4284769380
0.07668934 -0.044483602 0.17538096 4284769380
0.072568499 -0.043520533 0.15991554 4284769380
0.063162535 -0.043274812 0.14693263 4284769380
0.0074404567 -0.056946144 0.24292292 4284769380
0.023382645 -0.055520568 0.24387297 4284769380
0.038546979 -0.053659849 0.23900791 4284769380
0.050891992 -0.051614478 0.22898266 4284769380
0.058755759 -0.049659818 0.21514688 4284769380
0.037792906 -0.053939551 0.24138927 4284769380
0.052918907 -0.052072357 0.23640873 4284769380
0.06518665 -0.050026059 0.22628926 4284769380
0.072944611 -0.048076138 0.21239322 4284769380
0.075148396 -0.046485096 0.19659132 4284769380
0.065362938 -0.050228026 0.22878845 4284769380
0.077552699 -0.048180915 0.21857536 4284769380
0.085204415 -0.046235844 0.20461985 4284769380
0.087287977 -0.044654667 0.18880065 4284769380
0.083522901 -0.043650247 0.17324741 4284769380
0.086286359 -0.046331767 0.20688656 4284769380
0.093831375 -0.044391662 0.19287239 4284769380
0.095794603 -0.042820442 0.17703682 4284769380
0.091911733 -0.041829627 0.16151169 4284769380
0.082705505 -0.041552603 0.14838703 4284769380
0.09763056 -0.042796873 0.17875338 4284769380
0.099473327 -0.041235697 0.16290234 4284769380
0.095472895 -0.040258545 0.14740621 4284769380
0.08616782 -0.039996963 0.13435112 4284769380
0.072810777 -0.040486164 0.12549458 4284769380
0.054747898 -0.051800072 0.2352749 4284769380
0.06995067 -0.049946114 0.23052865 4284769380
0.082374245 -0.047901824 0.22060072 4284769380
0.090346128 -0.045942415 0.20682763 4284769380
0.092793122 -0.044331666 0.19106357 4284769380
0.082512073 -0.048107613 0.22310202 4284769380
0.094859108 -0.046062272 0.21307926 4284769380
0.10272565 -0.044107489 0.1992451 4284769380
0.10505269 -0.042506419 0.18346187 4284769380
0.10152695 -0.041474603 0.16785443 4284769380
0.10377273 -0.044208121 0.20152792 4284769380
0.11153349 -0.042258073 0.18763345 4284769380
0.11374043 -0.04066677 0.17183203 4284769380
0.11009647 -0.039648443 0.15625085 4284769380
0.10109215 -0.039340183 0.14298753 4284769380
0.11554998 -0.04064814 0.17357643 4284769380
0.11763672 -0.039066702 0.15775768 4284769380
0.11387474 -0.038061924 0.1422037 4284769380
0.10477051 -0.037769068 0.12900843 4284769380
0.091549657 -0.038227562 0.11994823 4284769380
0.11619315 -0.03792664 0.1431652 4284769380
0.11231338 -0.036935464 0.12763932 4284769380
0.10310976 -0.036658034 0.11451283 4284769380
0.089821301 -0.037131697 0.10555288 4284769380
0.074236944 -0.038292687 0.10196567 4284769380
0.096164331 -0.045789082 0.21136852 4284769380
0.10866572 -0.043745995 0.2015385 4284769380
0.11674523 -0.041781958 0.18782893 4284769380
0.11931519 -0.040161375 0.17208545 4284769380
0.11602962 -0.039102413 0.15642749 4284769380
0.11775718 -0.041887276 0.19012734 4284769380
0.12573183 -0.039927747 0.17635587 4284769380
0.12818198 -0.038316745 0.16059232 4284769380
0.12477778 -0.037271149 0.14495881 4284769380
0.11597752 -0.036931723 0.13156 4284769380
0.12996471 -0.038303055 0.16236418 4284769380
0.13229489 -0.036701728 0.14658147 4284769380
0.12877227 -0.035669561 0.13097334 4284769380
0.11987104 -0.035345502 0.11764099 4284769380
0.10678952 -0.035773184 0.10837928 4284769380
0.1310759 -0.035538781 0.13197032 4284769380
0.12743504 -0.034520101 0.11638845 4284769380
0.11843336 -0.034211431 0.10312336 4284769380
0.1052827 -0.03465433 0.093960829 4284769380
0.089753427 -0.035789177 0.090134345 4284769380
0.12093504 -0.033981893 0.10320573 4284769380
0.11183342 -0.033688631 0.090008646 4284769380
0.098614365 -0.034146726 0.08094582 4284769380
0.083057448 -0.03529451 0.077237315 4284769380
0.067256987 -0.036977459 0.079382375 4284769380
0.12634484 -0.039688904 0.17428897 4284769380
0.1345315 -0.03772036 0.16064377 4284769380
0.13722427 -0.036090039 0.14492182 4284769380
0.13406064 -0.035017423 0.12923969 4284769380
0.12546651 -0.03464691 0.11570855 4284769380
0.13897973 -0.036081292 0.14672074 4284769380
0.14155285 -0.034460459 0.13097779 4284769380
0.13827039 -0.033401147 0.1153192 4284769380
0.12957428 -0.033045962 0.10185296 4284769380
0.1166352 -0.033442724 0.092391938 4284769380
0.1405587 -0.0332749 0.11635145 4284769380
0.13715762 -0.032228954 0.10071729 4284769380
0.12836002 -0.031889122 0.087316729 4284769380
0.11535026 -0.032301154 0.077953793 4284769380
0.099879757 -0.033409581 0.073888943 4284769380
0.13086045 -0.031663071 0.08743763 4284769380
0.12196187 -0.03133861 0.074103527 4284769380
0.10888218 -0.031765886 0.064839222 4284769380
0.09338221 -0.032887384 0.060891889 4284769380
0.077548608 -0.034552123 0.062792942 4284769380
0.11124425 -0.031471714 0.064031832 4284769380
0.098095395 -0.031914216 0.054866683 4284769380
0.082566857 -0.033048715 0.051037099 4284769380
0.066749148 -0.034722492 0.053058632 4284769380
0.05277168 -0.03671021 0.060659137 4284769380
-0.037934791 -0.069559447 0.23253851 4284769380
-0.023825923 -0.066047646 0.23929834 4284769380
-0.0084398389 -0.061667755 0.24038145 4284769380
0.0061521423 -0.057009399 0.23564203 4284769380
0.017985603 -0.052699707 0.22571813 4284769380
-0.0099339234 -0.062271047 0.24231058 4284769380
0.0054568066 -0.057879202 0.24327253 4284769380
0.020010937 -0.053221721 0.23841728 4284769380
0.031769149 -0.048925612 0.22839849 4284769380
0.039148513 -0.045569234 0.2145649 4284769380
0.019318976 -0.053631309 0.24079871 4284769380
0.033834416 -0.048974972 0.23582792 4284769380
0.0455167 -0.044692695 0.22571483 4284769380
0.052793119 -0.041360974 0.2118209 4284769380
0.054684103 -0.039428331 0.19601655 4284769380
0.045723844 -0.044851173 0.2282148 4284769380
0.057329521 -0.040582974 0.21800798 4284769380
0.064502575 -0.0372761 0.20405449 4284769380
0.066277348 -0.035375737 0.18823276 4284769380
0.062414911 -0.035137709 0.17267278 4284769380
0.065579794 -0.03716125 0.20632258 4284769380
0.072649069 -0.033879422 0.19231032 4284769380
0.074307524 -0.032011442 0.17647213 4284769380
0.070331894 -0.031808786 0.16094019 4284769380
0.061257392 -0.033298735 0.14780542 4284769380
0.0074989367 -0.05725237 0.24289612 4284769380
0.02287933 -0.052885007 0.24410355 4284769380
0.037509281 -0.048226036 0.2394833 4284769380
0.049419262 -0.043902662 0.22965737 4284769380
0.057005912 -0.040496908 0.21594854 4284769380
0.036781784 -0.048644885 0.24185249 4284769380
0.051374748 -0.043986514 0.23711614 4284769380
0.063210182 -0.039676469 0.22719473 4284769380
0.070694759 -0.036294982 0.21342394 4284769380
0.07282088 -0.03429728 0.19765761 4284769380
0.063380264 -0.039845902 0.22969677 4284769380
0.075140461 -0.035549436 0.21968047 4284769380
0.082522526 -0.032192409 0.20584849 4284769380
0.084532671 -0.030226754 0.19006293 4284769380
0.080900274 -0.029917097 0.17444889 4284769380
0.083566353 -0.032088678 0.20813267 4284769380
0.090845481 -0.028756304 0.19424032 4284769380
0.092739522 -0.026822813 0.17843643 4284769380
0.08899349 -0.026548497 0.16284861 4284769380
0.080111682 -0.027970286 0.14957532 4284769380
0.094510786 -0.026460458 0.18018262 4284769380
0.096288614 -0.024559241 0.16436134 4284769380
0.092429161 -0.024320282 0.14880063 4284769380
0.083451986 -0.025775751 0.13559532 4284769380
0.070565641 -0.028729711 0.12652314 4284769380
0.053139288 -0.043376729 0.23601185 4284769380
0.067806318 -0.038717426 0.23151104 4284769380
0.07979209 -0.034380633 0.22178367 4284769380
0.087483048 -0.030950183 0.20813929 4284769380
0.089843817 -0.028887896 0.19241472 4284769380
0.079925068 -0.03456099 0.22428718 4284769380
0.091836996 -0.030237267 0.21446377 4284769380
0.099426337 -0.02683088 0.20075659 4284769380
0.10167137 -0.024800407 0.18501095 4284769380
0.098269872 -0.024419192 0.16934657 4284769380
0.10043651 -0.026738297 0.20305634 4284769380
0.10792378 -0.023356169 0.18928716 4284769380
0.11005295 -0.021357626 0.17352135 4284769380
0.1065374 -0.021011716 0.15788135 4284769380
0.09785039 -0.022365006 0.14447267 4284769380
0.11179874 -0.021005079 0.17529498 4284769380
0.11381193 -0.019038582 0.15950991 4284769380
0.11018252 -0.018727994 0.14389521 4284769380
0.10139912 -0.020115132 0.13055295 4284769380
0.088644169 -0.023013251 0.12127931 4284769380
0.11241924 -0.018164897 0.14489414 4284769380
0.1086762 -0.017889652 0.1293056 4284769380
0.099796899 -0.019310553 0.11603054 4284769380
0.086976722 -0.022236316 0.10685606 4284769380
0.071941547 -0.026273066 0.10301726 4284769380
0.093096226 -0.029723225 0.2127741 4284769380
0.10515707 -0.025373278 0.20314589 4284769380
0.11295187 -0.02191834 0.18956678 4284769380
0.11543126 -0.019823525 0.17386478 4284769380
0.11226147 -0.019370846 0.15815377 4284769380
0.11392815 -0.021836925 0.19188152 4284769380
0.12162178 -0.018405845 0.17823879 4284769380
0.12398559 -0.016342722 0.16251479 4284769380
0.12070135 -0.015925299 0.14682633 4284769380
0.11221121 -0.017209772 0.13328543 4284769380
0.12570548 -0.01600007 0.16431545 4284769380
0.12795357 -0.013968756 0.14857034 4284769380
0.12455507 -0.013586614 0.13290533 4284769380
0.11596752 -0.014905088 0.11942929 4284769380
0.10334699 -0.017746681 0.1099564 4284769380
0.12677753 -0.013030749 0.13393952 4284769380
0.12326498 -0.012683908 0.11829887 4284769380
0.11458051 -0.014036308 0.10488845 4284769380
0.10189327 -0.016905883 0.095513612 4284769380
0.086911239 -0.02090632 0.091436423 4284769380
0.11699402 -0.01334514 0.10501121 4284769380
0.10821315 -0.014731387 0.09166719 4284769380
0.095459923 -0.017628776 0.082390949 4284769380
0.08045122 -0.021647254 0.078431293 4284769380
0.065207556 -0.026245838 0.080321267 4284769380
0.12221319 -0.018053886 0.17618179 4284769380
0.13011135 -0.014574668 0.16266875 4284769380
0.13270923 -0.012447456 0.14699028 4284769380
0.12965709 -0.01195862 0.13125709 4284769380
0.12136582 -0.013173969 0.11758719 4284769380
0.13440284 -0.012114776 0.14881754 4284769380
0.13688527 -0.010019131 0.13311613 4284769380
0.13371849 -0.0095655238 0.11740454 4284769380
0.12532882 -0.010815023 0.10379791 4284769380
0.11284571 -0.013599415 0.094127998 4284769380
0.13592616 -0.0090170205 0.11847373 4284769380
0.13264494 -0.0085986704 0.10278466 4284769380
0.12415735 -0.0098822461 0.089242078 4284769380
0.11160605 -0.012694951 0.07966911 4284769380
0.096680723 -0.016658129 0.075354509 4284769380
0.12656966 -0.0091947969 0.089403346 4284769380
0.11798467 -0.010512377 0.075925589 4284769380
0.1053659 -0.013353231 0.066450119 4284769380
0.090412147 -0.017334916 0.062252551 4284769380
0.075136513 -0.021921404 0.063897982 4284769380
0.10764474 -0.012623188 0.065680861 4284769380
0.094959244 -0.015492029 0.056303434 4284769380
0.079977922 -0.019491989 0.052223157 4284769380
0.064717621 -0.024084583 0.053989328 4284769380
0.05123271 -0.028651543 0.061364178 4284769380
