# .PCD v0.7 - Point Cloud Data file format
VERSION 0.7
FIELDS x y z rgb
SIZE 4 4 4 4
TYPE F F F U
COUNT 1 1 1 1
WIDTH 81
HEIGHT 1
VIEWPOINT 0 0 0 1 0 0 0
POINTS 81
DATA ascii
-0.034559142 -0.033891387 0.23565905 4284769380
-0.011955136 -0.045988027 0.24218148 4284769380
0.010391893 -0.056559138 0.23276481 4284769380
0.0096427882 -0.057032183 0.24253775 4284769380
0.03189249 -0.067526437 0.23280978 4284769380
0.04555095 -0.072558448 0.21072049 4284769380
0.050063655 -0.075574748 0.21889561 4284769380
0.063477464 -0.080466203 0.19662558 4284769380
0.063240752 -0.07804092 0.17028409 4284769380
0.036180634 -0.070191376 0.23827769 4284769380
0.058623821 -0.080839612 0.22918206 4284769380
0.072771244 -0.086153947 0.20746985 4284769380
0.077090107 -0.089083239 0.21578021 4284769380
0.090997368 -0.094258673 0.19388011 4284769380
0.091365993 -0.09213987 0.16751371 4284769380
0.099329926 -0.096524 0.17120838 4284769380
0.09939982 -0.094253764 0.1448521 4284769380
0.085849121 -0.085509516 0.1238824 4284769380
0.097399116 -0.097668774 0.19554651 4284769380
0.11179066 -0.10312477 0.17403078 4284769380
0.11276439 -0.10131387 0.14765684 4284769380
0.12063274 -0.10566949 0.15158278 4284769380
0.1213079 -0.10370647 0.12521039 4284769380
0.10825709 -0.095181815 0.10383708 4284769380
0.11687221 -0.099392354 0.10175227 4284769380
0.1035736 -0.090758614 0.080576397 4284769380
0.081473216 -0.07876981 0.072351217 4284769380
-0.039269239 -0.048372969 0.23439208 4284769380
-0.014226634 -0.052971933 0.24157047 4284769380
0.01053127 -0.05613061 0.2328023 4284769380
0.0097013488 -0.056852132 0.2425535 4284769380
0.034351427 -0.059966233 0.23347121 4284769380
0.049483407 -0.060467783 0.21177828 4284769380
0.054482959 -0.061987236 0.22008437 4284769380
0.069343902 -0.062429376 0.19820359 4284769380
0.069081642 -0.060082607 0.17185523 4284769380
0.039102189 -0.061208814 0.23906356 4284769380
0.063966624 -0.064412713 0.23061924 4284769380
0.079640321 -0.065034397 0.20931758 4284769380
0.084425122 -0.066531137 0.21775326 4284769380
0.099832743 -0.067093581 0.19625674 4284769380
0.10024114 -0.064852513 0.16990104 4284769380
0.10906425 -0.066595033 0.17382683 4284769380
0.10914168 -0.06430161 0.14747258 4284769380
0.094129086 -0.060052093 0.12610963 4284769380
0.10692513 -0.068380244 0.19810893 4284769380
0.12286929 -0.06906262 0.17701083 4284769380
0.12394806 -0.066928737 0.15066515 4284769380
0.13266528 -0.068674453 0.15481941 4284769380
0.13341327 -0.066487491 0.12846664 4284769380
0.11895449 -0.062291745 0.10671459 4284769380
0.12849905 -0.06364467 0.10487978 4284769380
0.11376574 -0.059422038 0.083317988 4284769380
0.08928109 -0.054763857 0.074451469 4284769380
-0.03926928 -0.063595742 0.23306026 4284769380
-0.014226653 -0.060313288 0.24092819 4284769380
0.010531271 -0.055680152 0.2328417 4284769380
0.0097013498 -0.056662865 0.24257006 4284769380
0.034351449 -0.052019086 0.2341665 4284769380
0.049483441 -0.0477583 0.21289022 4284769380
0.054482996 -0.047704291 0.22133397 4284769380
0.069343947 -0.043469392 0.19986238 4284769380
0.069081694 -0.041205168 0.1735068 4284769380
0.039102215 -0.051766507 0.23988965 4284769380
0.063966669 -0.047145069 0.23212995 4284769380
0.079640381 -0.042833924 0.21125987 4284769380
0.084425181 -0.04282479 0.21982731 4284769380
0.099832818 -0.038538143 0.19875503 4284769380
0.10024121 -0.036168549 0.17241056 4284769380
0.10906433 -0.035134252 0.17657928 4284769380
0.10914176 -0.03281647 0.15022717 4284769380
0.094129153 -0.033291716 0.12845086 4284769380
0.10692521 -0.03759269 0.20080249 4284769380
0.12286939 -0.033257119 0.1801434 4284769380
0.12394816 -0.03078372 0.15382743 4284769380
0.13266538 -0.029785952 0.15822172 4284769380
0.13341337 -0.027363583 0.13188952 4284769380
0.11895458 -0.027718311 0.10973937 4284769380
0.12849915 -0.026067376 0.10816737 4284769380
0.11376583 -0.026481615 0.086199902 4284769380
0.089281157 -0.029529247 0.076659203 4284769380
