# .PCD v0.7 - Point Cloud Data file format
VERSION 0.7
FIELDS x y z rgb
SIZE 4 4 4 4
TYPE F F F U
COUNT 1 1 1 1
WIDTH 256
HEIGHT 1
VIEWPOINT 0 0 0 1 0 0 0
POINTS 256
DATA ascii
-0.034559142 -0.033891387 0.23565905 4284769380
-0.017929196 -0.042930514 0.24205251 4284769380
-0.00019720118 -0.051738594 0.23938207 4284769380
0.014930745 -0.058474686 0.22820586 4284769380
-0.0017384435 -0.051337861 0.24378449 4284769380
0.015976721 -0.060120966 0.24092665 4284769380
0.031014657 -0.066797502 0.22959433 4284769380
0.040232342 -0.069972031 0.21215604 4284769380
0.031400386 -0.06739898 0.23422109 4284769380
0.046346959 -0.074015357 0.22273366 4284769380
0.055419434 -0.077107914 0.20520473 4284769380
0.056721609 -0.076030292 0.18529794 4284769380
0.057648223 -0.078580752 0.20904928 4284769380
0.06657467 -0.081591055 0.19143128 4284769380
0.06770803 -0.080426872 0.17151904 4284769380
0.060811419 -0.075331517 0.15347435 4284769380
0.018405767 -0.06146482 0.2421298 4284769380
0.036153372 -0.070297711 0.23965193 4284769380
0.051372275 -0.077094294 0.22863701 4284769380
0.060881633 -0.080434039 0.21138722 4284769380
0.051677935 -0.077655897 0.23327474 4284769380
0.066808231 -0.084393553 0.22210266 4284769380
0.07617408 -0.087651916 0.20475903 4284769380
0.077817962 -0.086749978 0.1848688 4284769380
0.078334525 -0.089094296 0.20865382 4284769380
0.087556019 -0.092270985 0.19121794 4284769380
0.089031339 -0.091282293 0.17131862 4284769380
0.082452126 -0.086334877 0.15311493 4284769380
0.092576578 -0.09329167 0.17362317 4284769380
0.093883194 -0.09221632 0.15371655 4284769380
0.087147035 -0.087195665 0.13559048 4284769380
0.073775992 -0.079279043 0.12303343 4284769380
0.069505684 -0.085758135 0.22197838 4284769380
0.084814101 -0.092614561 0.21112578 4284769380
0.094469853 -0.096037529 0.1939739 4284769380
0.096454822 -0.095311604 0.1741076 4284769380
0.096561156 -0.097448923 0.19791746 4284769380
0.10607427 -0.10079081 0.18067017 4284769380
0.107891 -0.099977985 0.16079113 4284769380
0.10163163 -0.095180333 0.14243521 4284769380
0.11139318 -0.1019722 0.16317339 4284769380
0.1130415 -0.10107254 0.14328341 4284769380
0.10662398 -0.096200757 0.12500177 4284769380
0.093481936 -0.088375069 0.11214945 4284769380
0.11077517 -0.098343968 0.12530448 4284769380
0.10420009 -0.093398482 0.10709877 4284769380
0.090944424 -0.085527547 0.094391569 4284769380
0.073778674 -0.076376252 0.089838766 4284769380
0.10849953 -0.10190264 0.17924337 4284769380
0.11830076 -0.1054085 0.16219103 4284769380
0.12045822 -0.10477183 0.14233966 4284769380
0.114521 -0.10012572 0.1238383 4284769380
0.12391604 -0.10675015 0.14479873 4284769380
0.12590544 -0.10602652 0.12493278 4284769380
0.11980895 -0.1013054 0.10650235 4284769380
0.10690077 -0.093573548 0.093359493 4284769380
0.12395099 -0.10345179 0.10689464 4284769380
0.11769578 -0.098656096 0.088536784 4284769380
0.10467158 -0.09087757 0.075536706 4284769380
0.087600537 -0.081741981 0.070611492 4284769380
0.10859676 -0.092725091 0.073776878 4284769380
0.095457725 -0.084900603 0.060920741 4284769380
0.078339145 -0.07575684 0.056179099 4284769380
0.060818929 -0.0672049 0.060542978 4284769380
-0.038523015 -0.044625666 0.23471993 4284769380
-0.020383213 -0.049576055 0.2414711 4284769380
-0.0010413044 -0.054024447 0.23918208 4284769380
0.015460128 -0.057041097 0.22833128 4284769380
-0.0027224782 -0.054002654 0.24355134 4284769380
0.016601071 -0.058430206 0.24107458 4284769380
0.033004321 -0.061409432 0.23006573 4284769380
0.043058891 -0.062317654 0.21282572 4284769380
0.033425074 -0.061916072 0.23470077 4284769380
0.049728662 -0.064857602 0.22353487 4284769380
0.05962484 -0.065719552 0.20620108 4284769380
0.061045244 -0.064321764 0.1863223 4284769380
0.062055986 -0.066644408 0.21009357 4284769380
0.071792878 -0.067460001 0.19266759 4284769380
0.073029138 -0.066017166 0.17277972 4284769380
0.065506376 -0.062617451 0.15458667 4284769380
0.019250654 -0.059176844 0.24232998 4284769380
0.038609587 -0.063646205 0.24023387 4284769380
0.055210236 -0.06670098 0.22954631 4284769380
0.065582961 -0.067702711 0.21250106 4284769380
0.05554365 -0.067187436 0.23419061 4284769380
0.072047643 -0.07020507 0.22334398 4284769380
0.082263835 -0.071160696 0.20620184 4284769380
0.084056959 -0.06985458 0.18634696 4284769380
0.084620431 -0.072071895 0.21014309 4284769380
0.094679154 -0.072981335 0.19290556 4284769380
0.096288413 -0.071629919 0.17303798 4284769380
0.089111865 -0.068300098 0.15469277 4284769380
0.10015554 -0.072767638 0.17541879 4284769380
0.10158078 -0.071371041 0.15554027 4284769380
0.094233036 -0.068006575 0.1372693 4284769380
0.079648018 -0.063377433 0.12442464 4284769380
0.074990004 -0.070906445 0.22327773 4284769380
0.09168829 -0.073999055 0.21275443 4284769380
0.1022207 -0.075048007 0.19581024 4284769380
0.10438589 -0.073834047 0.17598663 4284769380
0.10450187 -0.075945221 0.19979879 4284769380
0.11487871 -0.076948158 0.18275613 4284769380
0.11686037 -0.07568866 0.16291617 4284769380
0.1100327 -0.072429977 0.1444256 4284769380
0.12068053 -0.076821811 0.16537376 4284769380
0.12247849 -0.075516894 0.14551924 4284769380
0.11547832 -0.072222956 0.12709956 4284769380
0.10114309 -0.067628443 0.11396454 4284769380
0.1200064 -0.073345527 0.12749155 4284769380
0.11283436 -0.07001663 0.10914442 4284769380
0.098375194 -0.065404817 0.096152082 4284769380
0.079650946 -0.060473986 0.091230035 4284769380
0.11752415 -0.077463701 0.18138149 4284769380
0.12821525 -0.078559771 0.16453999 4284769380
0.13056859 -0.077392668 0.14473502 4284769380
0.12409232 -0.074206322 0.12610595 4284769380
0.13434036 -0.078520827 0.14726847 4284769380
0.13651037 -0.077308066 0.12744533 4284769380
0.12986037 -0.074085869 0.10888375 4284769380
0.11578024 -0.069527693 0.095463231 4284769380
0.13437848 -0.075213872 0.10936514 4284769380
0.12755534 -0.07195612 0.090872727 4284769380
0.11334866 -0.067379802 0.077592492 4284769380
0.094727717 -0.062441394 0.072300076 4284769380
0.11763021 -0.068262257 0.075917102 4284769380
0.10329826 -0.063668206 0.062778339 4284769380
0.084625468 -0.058733311 0.057668462 4284769380
0.065514565 -0.054488994 0.061655477 4284769380
-0.039868988 -0.055984352 0.23372617 4284769380
-0.021216499 -0.05660817 0.24085587 4284769380
-0.0013279285 -0.05644327 0.23897046 4284769380
0.015639886 -0.055524122 0.22846401 4284769380
-0.0030566175 -0.056822456 0.24330465 4284769380
0.016813077 -0.056641098 0.24123111 4284769380
0.033679932 -0.055707943 0.23056455 4284769380
0.044018678 -0.05421802 0.21353434 4284769380
0.034112576 -0.056114223 0.23520836 4284769380
0.050876956 -0.055167142 0.22438267 4284769380
0.061052833 -0.05366873 0.20725539 4284769380
0.062513381 -0.05193216 0.18740626 4284769380
0.063552685 -0.054013722 0.21119861 4284769380
0.073564775 -0.05250695 0.19397581 4284769380
0.074835971 -0.050769251 0.17411375 4284769380
0.067100592 -0.049163811 0.15576372 4284769380
0.019537544 -0.056755777 0.2425418 4284769380
0.039443623 -0.056607787 0.24084966 4284769380
0.056513458 -0.0557031 0.23050851 4284769380
0.067179345 -0.054230798 0.2136797 4284769380
0.056856293 -0.056110032 0.23515975 4284769380
0.073826745 -0.055191252 0.22465752 4284769380
0.084331669 -0.053710189 0.20772855 4284769380
0.086175479 -0.05197639 0.18791109 4284769380
0.086754873 -0.054059312 0.21171898 4284769380
0.097097889 -0.052569617 0.19469136 4284769380
0.098752633 -0.050834369 0.17485735 4284769380
0.09137325 -0.049216252 0.15636238 4284769380
0.10272905 -0.051049735 0.17731886 4284769380
0.10419458 -0.049313199 0.15747009 4284769380
0.096639164 -0.047701262 0.13904579 4284769380
0.081641927 -0.046550833 0.12589678 4284769380
0.076852262 -0.055190835 0.22465268 4284769380
0.094022498 -0.054300696 0.21447781 4284769380
0.10485259 -0.052837532 0.19775341 4284769380
0.10707897 -0.05110715 0.17797498 4284769380
0.10719823 -0.053190656 0.20178956 4284769380
0.11786835 -0.051718589 0.18496343 4284769380
0.11990602 -0.049986441 0.16516483 4284769380
0.11288538 -0.048356242 0.14653179 4284769380
0.12383414 -0.050208438 0.16770212 4284769380
0.12568292 -0.048474681 0.14788513 4284769380
0.11848491 -0.046850368 0.12931937 4284769380
0.10374452 -0.045674995 0.11588521 4284769380
0.12314096 -0.046892945 0.12980586 4284769380
0.11576622 -0.045274664 0.11130906 4284769380
0.10089839 -0.044111546 0.098015003 4284769380
0.08164493 -0.04364669 0.092702232 4284769380
0.12058856 -0.051603161 0.183644 4284769380
0.13158181 -0.050149269 0.16702558 4284769380
0.13400167 -0.048420861 0.14726973 4284769380
0.12734236 -0.046779189 0.12850551 4284769380
0.13788004 -0.048649404 0.14988188 4284769380
0.14011139 -0.046919074 0.13010401 4284769380
0.13327344 -0.04528299 0.11140367 4284769380
0.11879537 -0.044083104 0.097689345 4284769380
0.13791923 -0.045333367 0.11197934 4284769380
0.13090326 -0.043703016 0.093344554 4284769380
0.11629505 -0.042515174 0.07976786 4284769380
0.097147822 -0.042018101 0.074086882 4284769380
0.12069761 -0.042376421 0.078181818 4284769380
0.1059606 -0.041200727 0.064743988 4284769380
0.086760052 -0.040719531 0.059244465 4284769380
0.067109011 -0.041033406 0.062832691 4284769380
-0.038523074 -0.067343049 0.23273242 4284769380
-0.02038325 -0.063640289 0.24024065 4284769380
-0.0010413174 -0.058862094 0.23875885 4284769380
0.015460136 -0.054007143 0.22859673 4284769380
-0.0027224931 -0.059642263 0.24305795 4284769380
0.016601082 -0.05485199 0.24138764 4284769380
0.033004351 -0.050006445 0.23106337 4284769380
0.043058936 -0.046118382 0.21424298 4284769380
0.033425104 -0.050312374 0.23571597 4284769380
0.049728714 -0.045476679 0.22523047 4284769380
0.059624903 -0.0416179 0.2083097 4284769380
0.061045308 -0.039542548 0.1884902 4284769380
0.062056053 -0.041383035 0.21230365 4284769380
0.07179296 -0.037553888 0.19528404 4284769380
0.07302922 -0.035521325 0.17544776 4284769380
0.065506443 -0.035710163 0.15694076 4284769380
0.019250667 -0.054334708 0.24275361 4284769380
0.038609624 -0.049569365 0.24146543 4284769380
0.055210296 -0.044705208 0.23147069 4284769380
0.065583035 -0.040758882 0.21485834 4284769380
0.055543706 -0.045032617 0.2361289 4284769380
0.072047725 -0.040177424 0.22597106 4284769380
0.082263924 -0.036259666 0.20925528 4284769380
0.084057055 -0.034098189 0.18947524 4284769380
0.08462052 -0.036046714 0.21329488 4284769380
0.094679266 -0.032157883 0.19647714 4284769380
0.096288525 -0.030038809 0.17667672 4284769380
0.089111969 -0.030132392 0.158032 4284769380
0.10015565 -0.029331814 0.17921893 4284769380
0.1015809 -0.02725534 0.1593999 4284769380
0.094233148 -0.027395938 0.14082228 4284769380
0.079648107 -0.029724224 0.12736891 4284769380
0.074990086 -0.039475217 0.22602761 4284769380
0.091688395 -0.034602322 0.21620119 4284769380
0.10222082 -0.030627042 0.19969657 4284769380
0.10438602 -0.028380236 0.17996332 4284769380
0.104502 -0.030436076 0.20378032 4284769380
0.11487884 -0.026489003 0.18717073 4284769380
0.11686052 -0.024284203 0.16741347 4284769380
0.11003283 -0.024282496 0.14863797 4284769380
0.12068067 -0.023595043 0.17003049 4284769380
0.12247864 -0.02143245 0.15025102 4284769380
0.11547846 -0.021477772 0.1315392 4284769380
0.10114321 -0.023721535 0.11780589 4284769380
0.12000654 -0.02044034 0.13212016 4284769380
0.1128345 -0.020532686 0.1134737 4284769380
0.098375306 -0.022818267 0.099877924 4284769380
0.079651035 -0.026819384 0.09417443 4284769380
0.1175243 -0.025742602 0.1859065 4284769380
0.1282154 -0.021738747 0.16951118 4284769380
0.13056874 -0.019449038 0.14980443 4284769380
0.12409247 -0.019352043 0.13090508 4284769380
0.13434051 -0.018777968 0.15249529 4284769380
0.13651054 -0.016530061 0.1327627 4284769380
0.12986052 -0.016480088 0.11392359 4284769380
0.11578038 -0.018638495 0.099915452 4284769380
0.13437863 -0.01545284 0.11459354 4284769380
0.12755549 -0.015449896 0.095816381 4284769380
0.1133488 -0.017650528 0.081943236 4284769380
0.094727822 -0.021594793 0.075873688 4284769380
0.11763035 -0.016490575 0.080446534 4284769380
0.10329838 -0.018733233 0.06670963 4284769380
0.084625565 -0.022705739 0.060820464 4284769380
0.065514632 -0.027577812 0.064009897 4284769380
