# .PCD v0.7 - Point Cloud Data file format
VERSION 0.7
FIELDS x y z rgb
SIZE 4 4 4 4
TYPE F F F U
COUNT 1 1 1 1
WIDTH 256
HEIGHT 1
VIEWPOINT 0 0 0 1 0 0 0
POINTS 256
DATA ascii
0.070353426 0.1547363 -0.020337468 4294901760
0.06920664 0.16124214 0.0064907535 4294901760
0.06249458 0.15615106 0.032804698 4294901760
0.051674377 0.14056829 0.052891877 4294901760
0.066702843 0.16349484 0.028877681 4294901760
0.060119361 0.15869662 0.055278994 4294901760
0.049377628 0.14334802 0.07558737 4294901760
0.036809567 0.12078108 0.08539407 4294901760
0.05343958 0.15174635 0.07576295 4294901760
0.042777866 0.13663414 0.096289605 4294901760
0.030222947 0.11419512 0.10640191 4294901760
0.018500373 0.089300551 0.10390458 4294901760
0.03330043 0.12191503 0.11064385 4294901760
0.020760462 0.099607155 0.12106029 4294901760
0.0089829899 0.074707858 0.11888991 4294901760
0.0005247852 0.052622523 0.10460385 4294901760
0.061879292 0.15899462 -0.020200897 4294901760
0.068472758 0.16161092 0.0065025808 4294901760
0.069069013 0.15284735 0.032698743 4294901760
0.063538618 0.13460641 0.052700672 4294901760
0.072349347 0.16065744 0.028786682 4294901760
0.073106103 0.15217069 0.055069696 4294901760
0.067722462 0.1341296 0.075291723 4294901760
0.057367157 0.11045073 0.085062765 4294901760
0.072041601 0.14239869 0.075463153 4294901760
0.066805489 0.12456007 0.095902368 4294901760
0.056552831 0.10096414 0.10597757 4294901760
0.043509375 0.076733336 0.10350152 4294901760
0.061019555 0.10798596 0.11019712 4294901760
0.050871015 0.084476374 0.12057503 4294901760
0.037864916 0.06019447 0.11842444 4294901760
0.024824746 0.040411606 0.10421222 4294901760
0.053968839 0.16322774 -0.017123839 4294901760
0.067787692 0.16197751 0.0067690611 4294901760
0.075206131 0.14956319 0.030311491 4294901760
0.074613675 0.12867981 0.048392627 4294901760
0.07762026 0.15783681 0.026736369 4294901760
0.085228987 0.14568336 0.05035406 4294901760
0.084847026 0.12496572 0.068630502 4294901760
0.076557301 0.1001815 0.077598065 4294901760
0.089406259 0.13310634 0.068708546 4294901760
0.089234844 0.11255744 0.087177664 4294901760
0.081131302 0.087811455 0.096416883 4294901760
0.066854835 0.064240471 0.094420463 4294901760
0.086894862 0.094139293 0.10013198 4294901760
0.07897868 0.069435105 0.10964154 4294901760
0.064825669 0.045766942 0.10793708 4294901760
0.047508322 0.028272932 0.095388629 4294901760
0.047410347 0.16701384 -0.011412925 4294901760
0.067219712 0.1623054 0.0072636399 4294901760
0.080294363 0.14662585 0.02588083 4294901760
0.08379592 0.12337906 0.040397041 4294901760
0.081990324 0.15531404 0.022931062 4294901760
0.095279977 0.1398811 0.041602001 4294901760
0.099044867 0.11676957 0.056267504 4294901760
0.092467688 0.090996712 0.06374383 4294901760
0.10380315 0.12479527 0.056172218 4294901760
0.10783084 0.10182231 0.0709849 4294901760
0.10150912 0.076047704 0.078672573 4294901760
0.086210355 0.053066872 0.077566326 4294901760
0.10834787 0.081754856 0.081451431 4294901760
0.10228251 0.055982217 0.089349344 4294901760
0.087178618 0.032862987 0.088472888 4294901760
0.066315092 0.017416121 0.079012327 4294901760
0.10077396 0.13263975 -0.018404212 4294901760
0.10061579 0.13929789 0.0084106838 4294901760
0.092383102 0.13595103 0.034572024 4294901760
0.07786312 0.12332572 0.054400451 4294901760
0.098247506 0.14211923 0.030747861 4294901760
0.09020558 0.13902794 0.056999832 4294901760
0.075811416 0.12661298 0.077051543 4294901760
0.058189839 0.10756949 0.086549968 4294901760
0.081693642 0.13385071 0.07732866 4294901760
0.067427367 0.12164786 0.097600773 4294901760
0.049841873 0.10272655 0.1074053 4294901760
0.032754805 0.081194386 0.10461379 4294901760
0.054528158 0.10954036 0.11172652 4294901760
0.036981285 0.090743937 0.12183575 4294901760
0.019833125 0.069220573 0.11936999 4294901760
0.0068063769 0.049642764 0.10486455 4294901760
0.093507074 0.1387352 -0.018428376 4294901760
0.099986464 0.13982578 0.0084085912 4294901760
0.098020919 0.13122202 0.034590773 4294901760
0.088037148 0.11479174 0.054434281 4294901760
0.10308959 0.13805768 0.030763961 4294901760
0.10134219 0.12968655 0.057036862 4294901760
0.091542788 0.11341749 0.077103853 4294901760
0.075818732 0.092782363 0.086608589 4294901760
0.097645566 0.12047023 0.077381708 4294901760
0.08803194 0.10436474 0.097669289 4294901760
0.072420724 0.083787404 0.10748038 4294901760
0.054200951 0.063205346 0.10468511 4294901760
0.07829833 0.089601919 0.11180557 4294901760
0.062802196 0.069085345 0.12192161 4294901760
0.044600446 0.048445735 0.11945235 4294901760
0.027644493 0.032163743 0.10493384 4294901760
0.086723566 0.14468329 -0.015501361 4294901760
0.099398993 0.14034089 0.0086620776 4294901760
0.10328373 0.12660737 0.032319926 4294901760
0.097534426 0.10646413 0.050336305 4294901760
0.10760959 0.13409434 0.028813628 4294901760
0.11173802 0.12057104 0.052551169 4294901760
0.10622774 0.1005411 0.070767447 4294901760
0.092274994 0.078352809 0.07950788 4294901760
0.1125364 0.10741331 0.070956461 4294901760
0.10726594 0.087499537 0.089370005 4294901760
0.093497671 0.065306224 0.098385893 4294901760
0.074220538 0.045651313 0.09604685 4294901760
0.10048737 0.070145629 0.10223122 4294901760
0.086905561 0.047950484 0.11152125 4294901760
0.067720294 0.02817326 0.10947637 4294901760
0.047096498 0.01510739 0.096540496 4294901760
0.081099421 0.14989123 -0.0099148462 4294901760
0.098911926 0.14079191 0.0091458829 4294901760
0.10764707 0.12256692 0.027985778 4294901760
0.10540853 0.099172719 0.042514887 4294901760
0.11135709 0.13062418 0.02509121 4294901760
0.12035711 0.11258979 0.043989751 4294901760
0.11840291 0.089266919 0.058673743 4294901760
0.10591874 0.06571874 0.065955438 4294901760
0.12488227 0.095981069 0.058693208 4294901760
0.1232127 0.072732896 0.073529966 4294901760
0.1109724 0.04912468 0.081028104 4294901760
0.090818621 0.03028154 0.07955984 4294901760
0.11888412 0.053110294 0.083957583 4294901760
0.10688946 0.029445453 0.091671079 4294901760
0.086888768 0.010423307 0.090436161 4294901760
0.063223995 0.00017337363 0.08052092 4294901760
0.1252438 0.10413689 -0.015910462 4294901760
0.12608281 0.11071558 0.010911386 4294901760
0.11677536 0.10941584 0.036893621 4294901760
0.099342003 0.10051983 0.056395765 4294901760
0.1239783 0.11405893 0.03320289 4294901760
0.11491348 0.11296419 0.059280183 4294901760
0.09764646 0.10424443 0.079008594 4294901760
0.075925738 0.089792609 0.088105291 4294901760
0.10503038 0.10993386 0.079421178 4294901760
0.087932192 0.10139159 0.09937302 4294901760
0.066268541 0.087051071 0.10877677 4294901760
0.044742405 0.070025489 0.10559097 4294901760
0.072309829 0.092612855 0.11320753 4294901760
0.050706372 0.078385703 0.12291698 4294901760
0.029116262 0.061383512 0.12005567 4294901760
0.012226489 0.045297284 0.10524474 4294901760
0.11957773 0.11174177 -0.016066685 4294901760
0.12559211 0.11137418 0.010897857 4294901760
0.12117123 0.10351579 0.037014823 4294901760
0.10727479 0.089872591 0.056614488 4294901760
0.12775372 0.10899163 0.033306986 4294901760
0.1235968 0.1013096 0.059519596 4294901760
0.10991237 0.087781362 0.079346791 4294901760
0.089671172 0.071343765 0.08848428 4294901760
0.11746826 0.093239985 0.079764113 4294901760
0.10399779 0.079828657 0.09981598 4294901760
0.083873503 0.063422039 0.10926218 4294901760
0.061464183 0.047581844 0.10605203 4294901760
0.090843678 0.067737088 0.11371855 4294901760
0.070839204 0.051363811 0.12347209 4294901760
0.048427593 0.03546422 0.12058812 4294901760
0.028474182 0.023489952 0.10569272 4294901760
0.11428856 0.11909886 -0.013262947 4294901760
0.12513407 0.11201132 0.011140667 4294901760
0.12527469 0.097807996 0.034839619 4294901760
0.11467992 0.079572283 0.052689105 4294901760
0.13127802 0.10408945 0.031438794 4294901760
0.13170254 0.090034761 0.055222828 4294901760
0.12136238 0.071854733 0.07327725 4294901760
0.10250228 0.053496059 0.08168263 4294901760
0.12907879 0.07709007 0.073609479 4294901760
0.11899474 0.058968339 0.09186624 4294901760
0.10030742 0.040562943 0.10055071 4294901760
0.077073663 0.025869507 0.097777583 4294901760
0.10814469 0.043671872 0.10454744 4294901760
0.089632839 0.02522241 0.11350976 4294901760
0.066454373 0.01038949 0.11103229 4294901760
0.043641109 0.0023931945 0.097652882 4294901760
0.10990335 0.125475 -0.0077786394 4294901760
0.12475429 0.11256351 0.011615622 4294901760
0.12867683 0.092861228 0.030584766 4294901760
0.12081944 0.07064534 0.045010783 4294901760
0.13419998 0.099840879 0.02778448 4294901760
0.13842294 0.080263227 0.046818044 4294901760
0.13085549 0.058051638 0.061404809 4294901760
0.11314045 0.038028028 0.068378128 4294901760
0.138705 0.063093454 0.061570588 4294901760
0.13142858 0.040889367 0.076315999 4294901760
0.11393264 0.020751698 0.083510488 4294901760
0.090015359 0.007052124 0.08159221 4294901760
0.12248883 0.022815328 0.086608127 4294901760
0.10521449 0.0025664938 0.094022751 4294901760
0.081400231 -0.011341974 0.092340432 4294901760
0.056215886 -0.015890688 0.081926383 4294901760
0.14243765 0.070771441 -0.012991277 4294901760
0.14422841 0.077043198 0.013857425 4294901760
0.1343503 0.077982619 0.039643753 4294901760
0.11494774 0.073385768 0.058769759 4294901760
0.14250167 0.080833703 0.036109809 4294901760
0.13290489 0.081916973 0.061996542 4294901760
0.11370018 0.077453852 0.081352539 4294901760
0.0890567 0.068413243 0.089975797 4294901760
0.12218589 0.081291124 0.081927165 4294901760
0.10318182 0.076962382 0.10151036 4294901760
0.078613304 0.068017654 0.11044203 4294901760
0.053813938 0.056398761 0.10678319 4294901760
0.085682392 0.07204932 0.11500666 4294901760
0.06119239 0.06320177 0.12424544 4294901760
0.036329631 0.051621132 0.12090979 4294901760
0.016491573 0.039821438 0.10572383 4294901760
0.13867928 0.079476252 -0.013243735 4294901760
0.14390293 0.077797055 0.013835561 4294901760
0.13726613 0.071229219 0.039839618 4294901760
0.12020966 0.061198559 0.059123214 4294901760
0.14500594 0.075033493 0.036278028 4294901760
0.13866465 0.068576716 0.062383439 4294901760
0.12183632 0.05860965 0.081899062 4294901760
0.098174222 0.04729604 0.090588242 4294901760
0.13043609 0.062182728 0.082481354 4294901760
0.11383834 0.052280691 0.10222618 4294901760
0.090290904 0.040971033 0.11122644 4294901760
0.064905711 0.030708974 0.10752825 4294901760
0.097976133 0.043575637 0.11583246 4294901760
0.074546754 0.032271564 0.12514248 4294901760
0.049139086 0.021952998 0.12177023 4294901760
0.027268877 0.014859998 0.10644777 4294901760
0.13517091 0.087860107 -0.010529829 4294901760
0.14359909 0.078523122 0.014070592 4294901760
0.13998801 0.064724833 0.037734106 4294901760
0.12512158 0.04946072 0.055323604 4294901760
0.14734365 0.069447152 0.034469694 4294901760
0.14404128 0.055728342 0.058224339 4294901760
0.12943126 0.04046027 0.076023988 4294901760
0.10668527 0.026957478 0.084004521 4294901760
0.13813752 0.0437789 0.076523915 4294901760
0.123786 0.028509066 0.094531156 4294901760
0.10119173 0.014921678 0.1027941 4294901760
0.075259678 0.005966424 0.099518932 4294901760
0.10945212 0.016151838 0.10695521 4294901760
0.08701282 0.0024818154 0.11549936 4294901760
0.061096482 -0.0066212104 0.11252058 4294901760
0.037329298 -0.0091810636 0.098665528 4294901760
0.13226214 0.095087536 -0.0051200017 4294901760
0.14334719 0.07914903 0.014539097 4294901760
0.1422447 0.059117623 0.033537038 4294901760
0.12919399 0.03934193 0.047749557 4294901760
0.14928183 0.06463135 0.030865006 4294901760
0.14849901 0.044652198 0.049933698 4294901760
0.13572815 0.02481431 0.064312786 4294901760
0.1137417 0.0094242943 0.070880704 4294901760
0.1445227 0.027913582 0.064648516 4294901760
0.13203354 0.0080163553 0.079192095 4294901760
0.11022951 -0.007534585 0.085985288 4294901760
0.083844073 -0.015363286 0.083553366 4294901760
0.11896677 -0.0074892854 0.089259513 4294901760
0.097348325 -0.023198912 0.096276999 4294901760
0.071010262 -0.031254061 0.094082572 4294901760
0.045670308 -0.029906044 0.083152607 4294901760
