# .PCD v0.7 - Point Cloud Data file format
VERSION 0.7
FIELDS x y z rgb
SIZE 4 4 4 4
TYPE F F F U
COUNT 1 1 1 1
WIDTH 81
HEIGHT 1
VIEWPOINT 0 0 0 1 0 0 0
POINTS 81
DATA ascii
0.070353426 0.1547363 -0.020337468 4294901760
0.067538545 0.16083091 0.015616197 4294901760
0.055605937 0.14676011 0.047197193 4294901760
0.063251652 0.16182348 0.045273114 4294901760
0.051507317 0.14823139 0.077133112 4294901760
0.035037681 0.11960575 0.092851199 4294901760
0.040541627 0.1335537 0.10086525 4294901760
0.024117529 0.10519321 0.11710303 4294901760
0.0090704132 0.072370946 0.11127061 4294901760
0.059138965 0.16042975 -0.019492647 4294901760
0.069965683 0.15959868 0.015433352 4294901760
0.069380216 0.13976707 0.046159536 4294901760
0.076799303 0.15494549 0.044252526 4294901760
0.076522067 0.13553168 0.075248674 4294901760
0.064992696 0.10439793 0.09059459 4294901760
0.073949158 0.11659308 0.098348558 4294901760
0.062668294 0.085621424 0.11419888 4294901760
0.044366922 0.054451309 0.10861161 4294901760
0.04940239 0.16582613 -0.013578963 4294901760
0.072072968 0.15843076 0.014153457 4294901760
0.081339262 0.13313892 0.038895994 4294901760
0.08856158 0.1484264 0.037108496 4294901760
0.098240279 0.12349464 0.062057734 4294901760
0.09100011 0.089983657 0.074798524 4294901760
0.10295411 0.10051746 0.080731891 4294901760
0.096138678 0.067070894 0.093870051 4294901760
0.075011909 0.03746672 0.089998834 4294901760
0.10966461 0.12378078 -0.01762913 4294901760
0.10788375 0.13059311 0.01826174 4294901760
0.091391832 0.12096134 0.049454361 4294901760
0.10331409 0.13296878 0.047797646 4294901760
0.087139912 0.12373671 0.079276182 4294901760
0.062314715 0.10156005 0.094430037 4294901760
0.07159286 0.11319949 0.10264607 4294901760
0.046877984 0.091263637 0.11832175 4294901760
0.022702521 0.064566724 0.11195341 4294901760
0.10070122 0.13262539 -0.017060008 4294901760
0.10982369 0.12867887 0.018138565 4294901760
0.1024012 0.11009786 0.048755329 4294901760
0.11414233 0.12228405 0.047110118 4294901760
0.10713346 0.1040081 0.078006707 4294901760
0.086256862 0.077935159 0.09290985 4294901760
0.098294511 0.086851679 0.10095067 4294901760
0.077690467 0.06085946 0.11636534 4294901760
0.050913971 0.036729109 0.11016215 4294901760
0.092919067 0.14075765 -0.011385691 4294901760
0.11150798 0.12691882 0.016910475 4294901760
0.11195972 0.10010933 0.041785795 4294901760
0.12354357 0.11245987 0.040255252 4294901760
0.12449218 0.085868455 0.065349698 4294901760
0.10704382 0.056213055 0.077753156 4294901760
0.12147731 0.062625952 0.084047064 4294901760
0.10444235 0.032904077 0.096859343 4294901760
0.075407602 0.011133577 0.092302755 4294901760
0.13758105 0.082326397 -0.014002234 4294901760
0.13700508 0.08950679 0.021856435 4294901760
0.11753615 0.085490987 0.052557707 4294901760
0.13259108 0.093285434 0.051269591 4294901760
0.11353887 0.08955463 0.082266815 4294901760
0.082739942 0.076064728 0.096660659 4294901760
0.094902106 0.084355868 0.10516964 4294901760
0.064267695 0.071063846 0.12008905 4294901760
0.033283371 0.052981187 0.11296704 4294901760
0.13172872 0.093484759 -0.013635544 4294901760
0.13827169 0.087091789 0.021777073 4294901760
0.12472433 0.071785614 0.052107319 4294901760
0.139661 0.079805553 0.050826613 4294901760
0.12659295 0.064665005 0.08144889 4294901760
0.098372124 0.04625956 0.09568119 4294901760
0.112336 0.051115442 0.10407728 4294901760
0.084385619 0.032705922 0.11882853 4294901760
0.051703043 0.017861236 0.11181292 4294901760
0.12664764 0.10362586 -0.008136984 4294901760
0.1393714 0.084896959 0.020587021 4294901760
0.13096522 0.059329711 0.045353655 4294901760
0.14579922 0.067554593 0.04418407 4294901760
0.13792671 0.042044483 0.069183908 4294901760
0.11194424 0.019171633 0.080993958 4294901760
0.1274724 0.020905446 0.087697245 4294901760
0.10185232 -0.0021550327 0.09992671 4294901760
0.067695297 -0.014056937 0.094506703 4294901760
