# .PCD v0.7 - Point Cloud Data file format
VERSION 0.7
FIELDS x y z rgb
SIZE 4 4 4 4
TYPE F F F U
COUNT 1 1 1 1
WIDTH 625
HEIGHT 1
VIEWPOINT 0 0 0 1 0 0 0
POINTS 625
DATA ascii
0.070353426 0.1547363 -0.020337468 4294901760
0.069907755 0.16085944 0.00097316096 4294901760
0.065778472 0.15956452 0.022724174 4294901760
0.058543112 0.15103267 0.041873366 4294901760
0.049213663 0.13645719 0.055742428 4294901760
0.068256944 0.16338703 0.018889414 4294901760
0.064216554 0.16228364 0.040667664 4294901760
0.057049472 0.1539257 0.059918951 4294901760
0.047758121 0.13948217 0.073950686 4294901760
0.037642036 0.1209732 0.080800325 4294901760
0.059762813 0.15884441 0.057943135 4294901760
0.052664664 0.15066113 0.077294737 4294901760
0.043412268 0.13635089 0.091487855 4294901760
0.033299718 0.11791518 0.098537363 4294901760
0.023741402 0.097932532 0.097457275 4294901760
0.045999885 0.14171211 0.091633566 4294901760
0.036787298 0.12753648 0.10598675 4294901760
0.02667921 0.10917573 0.11323548 4294901760
0.017089386 0.089197911 0.11236589 4294901760
0.0093591083 0.070397206 0.10349963 4294901760
0.028797211 0.11426699 0.11548335 4294901760
0.018694516 0.095982902 0.12293062 4294901760
0.0090740677 0.07601174 0.12227162 4294901760
0.0012814315 0.057146791 0.11359851 4294901760
-0.0035934751 0.042026594 0.098124363 4294901760
0.06355577 0.15813115 -0.020468201 4294901760
0.068061046 0.16178171 0.00093764451 4294901760
0.06883543 0.15803784 0.022782966 4294901760
0.065770611 0.14742315 0.042012367 4294901760
0.059295248 0.1314223 0.055936318 4294901760
0.070520632 0.16225651 0.01893295 4294901760
0.071393885 0.15869918 0.040805701 4294901760
0.068423927 0.14824513 0.060137708 4294901760
0.062026147 0.13235649 0.07422509 4294901760
0.053095378 0.11325557 0.081097528 4294901760
0.07078702 0.15333875 0.058155153 4294901760
0.067912199 0.14304627 0.077587985 4294901760
0.06159259 0.12727135 0.091837503 4294901760
0.052712101 0.10822035 0.098910704 4294901760
0.042512797 0.08855781 0.097818293 4294901760
0.064319529 0.13256301 0.091985896 4294901760
0.058078676 0.11690325 0.10639624 4294901760
0.049249284 0.0979039 0.11366955 4294901760
0.039066274 0.078222319 0.11278856 4294901760
0.028953893 0.060611274 0.10387648 4294901760
0.051977661 0.10269033 0.11592916 4294901760
0.043200176 0.083744407 0.12340192 4294901760
0.033034399 0.064045593 0.12273243 4294901760
0.022902159 0.046349075 0.11401433 4294901760
0.014220607 0.033129975 0.098466963 4294901760
0.057012711 0.16156507 -0.018694235 4294901760
0.066283502 0.1627146 0.0014195755 4294901760
0.071777888 0.15649357 0.021985201 4294901760
0.072727397 0.1437721 0.040126227 4294901760
0.068999231 0.12632947 0.053305358 4294901760
0.072699539 0.16111298 0.018342201 4294901760
0.078302391 0.15507346 0.038932655 4294901760
0.079372354 0.14249918 0.057169348 4294901760
0.075759768 0.12514883 0.070501611 4294901760
0.067969918 0.10544914 0.077064715 4294901760
0.081398323 0.14776973 0.055278197 4294901760
0.082588635 0.13534382 0.073608883 4294901760
0.079091974 0.11808736 0.08709304 4294901760
0.071397394 0.098413959 0.093844712 4294901760
0.060581114 0.079075225 0.092919573 4294901760
0.081953011 0.12330863 0.087205067 4294901760
0.078572594 0.10614766 0.10083989 4294901760
0.070974 0.086502366 0.1077795 4294901760
0.060220022 0.06712044 0.10705332 4294901760
0.047814757 0.050712746 0.098762885 4294901760
0.074289888 0.090980455 0.10987983 4294901760
0.066787988 0.071365088 0.11700675 4294901760
0.056097299 0.051941756 0.11647958 4294901760
0.043713085 0.035427116 0.10837203 4294901760
0.031367466 0.024130985 0.093818076 4294901760
0.051142808 0.16481839 -0.015129048 4294901760
0.064688832 0.16359843 0.0023881253 4294901760
0.074417621 0.15503053 0.020381911 4294901760
0.078968465 0.14031307 0.036335606 4294901760
0.077704854 0.12150449 0.048017841 4294901760
0.074654281 0.16002959 0.017154956 4294901760
0.084500149 0.15163845 0.035168339 4294901760
0.089194395 0.13705544 0.051203758 4294901760
0.088080458 0.11832026 0.063018419 4294901760
0.081314147 0.098053269 0.068959855 4294901760
0.090917923 0.14249362 0.049496301 4294901760
0.095755145 0.12804645 0.065611966 4294901760
0.094790995 0.10938638 0.077557959 4294901760
0.088160329 0.089123324 0.083663449 4294901760
0.076790541 0.070091359 0.083074495 4294901760
0.097772345 0.11454097 0.077596918 4294901760
0.096958064 0.095957749 0.089673147 4294901760
0.090463653 0.075700477 0.095942125 4294901760
0.079197444 0.056602452 0.095527038 4294901760
0.064735197 0.041334812 0.088485956 4294901760
0.094306611 0.079886451 0.097722314 4294901760
0.087949045 0.059636842 0.10415421 4294901760
0.076787457 0.040474504 0.10391304 4294901760
0.062382959 0.02507958 0.097032547 4294901760
0.046750236 0.015605285 0.084475078 4294901760
0.04632156 0.16768299 -0.0100007 4294901760
0.063379049 0.16437665 0.0037813366 4294901760
0.076585777 0.15374231 0.018075656 4294901760
0.084094577 0.13726734 0.030882981 4294901760
0.084855229 0.117256 0.040412012 4294901760
0.076259807 0.15907565 0.015447161 4294901760
0.089590676 0.14861384 0.029753556 4294901760
0.097261742 0.13226214 0.042622551 4294901760
0.098200075 0.11230756 0.052254215 4294901760
0.09227445 0.091541074 0.057301421 4294901760
0.09873686 0.13784792 0.041179325 4294901760
0.10656947 0.12162098 0.054108802 4294901760
0.10768541 0.10172501 0.063842215 4294901760
0.10192858 0.08094275 0.069018207 4294901760
0.09010417 0.062180907 0.068912826 4294901760
0.11076557 0.10682089 0.063776068 4294901760
0.112059 0.08698535 0.073610328 4294901760
0.1064715 0.066189222 0.078914627 4294901760
0.09478458 0.047341172 0.07894706 4294901760
0.078632817 0.033077374 0.073703103 4294901760
0.11074737 0.07011798 0.080234334 4294901760
0.10532971 0.049309909 0.085666448 4294901760
0.093781352 0.030377381 0.085836694 4294901760
0.077717483 0.01596839 0.080721267 4294901760
0.059384894 0.0080982521 0.071035638 4294901760
0.095117308 0.13761532 -0.018839533 4294901760
0.095466428 0.14374746 0.0024703091 4294901760
0.090817802 0.14327079 0.024149735 4294901760
0.08182162 0.13625197 0.043166548 4294901760
0.069736123 0.12367269 0.056860961 4294901760
0.094021708 0.1465636 0.020361317 4294901760
0.089495391 0.14625877 0.0420697 4294901760
0.080596782 0.1393984 0.061189961 4294901760
0.068570487 0.12694201 0.075047843 4294901760
0.05509856 0.11063181 0.081705101 4294901760
0.084204011 0.14372793 0.059265692 4294901760
0.075403802 0.13702662 0.078487642 4294901760
0.063437805 0.12469427 0.092507713 4294901760
0.049979657 0.10845573 0.099364981 4294901760
0.036911678 0.090582192 0.098100364 4294901760
0.06696897 0.12948513 0.09270332 4294901760
0.055064384 0.11727795 0.10688429 4294901760
0.041621253 0.10111254 0.11394094 4294901760
0.0285198 0.083249897 0.11288629 4294901760
0.017592464 0.066188373 0.10386786 4294901760
0.044607069 0.10572805 0.11623043 4294901760
0.031180194 0.08963728 0.12348581 4294901760
0.018046478 0.071787164 0.12264124 4294901760
0.0070428671 0.054674312 0.11381483 4294901760
-0.0002916138 0.040692221 0.098241106 4294901760
0.089067176 0.14220779 -0.019075047 4294901760
0.0938228 0.14499509 0.0024063271 4294901760
0.09353859 0.14120552 0.024255646 4294901760
0.088254318 0.13136911 0.043416955 4294901760
0.078709051 0.11686162 0.057210252 4294901760
0.096036464 0.14503427 0.020439746 4294901760
0.095883444 0.1414098 0.04231837 4294901760
0.090720408 0.13171387 0.061584048 4294901760
0.08126948 0.11730259 0.075542182 4294901760
0.068852514 0.1001916 0.082240507 4294901760
0.094015904 0.13628003 0.059647642 4294901760
0.08897458 0.12672547 0.079015911 4294901760
0.079618864 0.11241173 0.093137592 4294901760
0.067257285 0.095340803 0.10003755 4294901760
0.053618807 0.077900328 0.098750725 4294901760
0.083274029 0.11710846 0.093338028 4294901760
0.074014381 0.10289359 0.10762196 4294901760
0.061709326 0.085864305 0.11472291 4294901760
0.048079919 0.068402417 0.11364771 4294901760
0.035032436 0.052950229 0.10454675 4294901760
0.065238394 0.090067439 0.11703355 4294901760
0.052990999 0.073081367 0.12433484 4294901760
0.039371923 0.055599675 0.12347138 4294901760
0.026285991 0.040067449 0.11456391 4294901760
0.015563478 0.02865711 0.098858304 4294901760
0.083243653 0.14679447 -0.017401937 4294901760
0.092240728 0.14624116 0.0028608586 4294901760
0.096157476 0.13914287 0.023503238 4294901760
0.094446078 0.12649241 0.04163805 4294901760
0.087345898 0.11005913 0.054728869 4294901760
0.097975761 0.14350685 0.019882582 4294901760
0.10203223 0.13656695 0.040551811 4294901760
0.10046485 0.12403903 0.058784451 4294901760
0.093492828 0.10767534 0.072030388 4294901760
0.082091324 0.089764565 0.078436978 4294901760
0.1034603 0.12884152 0.056934252 4294901760
0.10203707 0.1164373 0.075263038 4294901760
0.095193855 0.10014468 0.08866287 4294901760
0.083887786 0.082242437 0.095259577 4294901760
0.069700174 0.06523446 0.094130524 4294901760
0.098968379 0.10474741 0.088829011 4294901760
0.092254601 0.088527381 0.10238151 4294901760
0.081045002 0.070635304 0.10916773 4294901760
0.066907413 0.053573661 0.10823854 4294901760
0.051819194 0.039728783 0.099723883 4294901760
0.085096978 0.074426591 0.11132815 4294901760
0.073984884 0.056546338 0.11830326 4294901760
0.059898626 0.039432608 0.11757401 4294901760
0.044808369 0.025479013 0.1092424 4294901760
0.030824719 0.016637182 0.09447372 4294901760
0.078019261 0.15108195 -0.01392723 4294901760
0.090821423 0.14740592 0.0038048276 4294901760
0.09850692 0.13721475 0.021940636 4294901760
0.10000082 0.12193383 0.037943628 4294901760
0.095094174 0.1037004 0.049575545 4294901760
0.099715538 0.14207909 0.018725468 4294901760
0.10754842 0.13203999 0.03688303 4294901760
0.10920677 0.11686485 0.05297026 4294901760
0.10445863 0.098676093 0.064737111 4294901760
0.093968108 0.080017708 0.070537813 4294901760
0.11193304 0.12188824 0.051299095 4294901760
0.11375567 0.10682025 0.067469075 4294901760
0.10916648 0.088677846 0.079369776 4294901760
0.098807313 0.069998503 0.085336708 4294901760
0.084127069 0.053394809 0.084535293 4294901760
0.11304808 0.093192697 0.079464704 4294901760
0.10861825 0.075098306 0.091498159 4294901760
0.098391406 0.056399722 0.097630769 4294901760
0.083797917 0.03971222 0.097004786 4294901760
0.066878915 0.027369803 0.089707769 4294901760
0.10291249 0.059806034 0.099479176 4294901760
0.092818893 0.04108993 0.1057769 4294901760
0.078313515 0.024320154 0.10532641 4294901760
0.061425142 0.011842213 0.098190702 4294901760
0.044515867 0.0054013385 0.085367836 4294901760
0.073728196 0.15479596 -0.0088731982 4294901760
0.089655675 0.14841491 0.0051778494 4294901760
0.10043664 0.13554454 0.019667802 4294901760
0.10456322 0.11798497 0.032570019 4294901760
0.10145824 0.098192163 0.042079933 4294901760
0.10114451 0.14084227 0.017042423 4294901760
0.11207916 0.12811854 0.031546716 4294901760
0.11638696 0.11065023 0.044513404 4294901760
0.11346541 0.090880521 0.054128896 4294901760
0.10372312 0.071574531 0.059048321 4294901760
0.11889213 0.11586498 0.043102641 4294901760
0.12338077 0.098489515 0.056132603 4294901760
0.12064291 0.078744732 0.065852791 4294901760
0.11106149 0.059392232 0.070903689 4294901760
0.095976621 0.043138757 0.070578851 4294901760
0.12461246 0.083183467 0.065844133 4294901760
0.12205856 0.063465424 0.075668119 4294901760
0.11263889 0.044068199 0.08085002 4294901760
0.09767095 0.027704794 0.080665074 4294901760
0.079248235 0.016663877 0.075139143 4294901760
0.11754528 0.047141023 0.08224462 4294901760
0.10828824 0.027700868 0.087557048 4294901760
0.09343861 0.011229041 0.087512009 4294901760
0.075073346 2.938033e-05 0.082115792 4294901760
0.055761106 -0.0043316721 0.072123148 4294901760
0.11626291 0.11621487 -0.016967179 4294901760
0.11739469 0.12220897 0.0043547396 4294901760
0.11238813 0.12263231 0.025955422 4294901760
0.10194345 0.11742568 0.044813685 4294901760
0.087521501 0.10731731 0.058291912 4294901760
0.11620622 0.12527058 0.022224272 4294901760
0.11135113 0.12584023 0.043856144 4294901760
0.10102995 0.12077144 0.06281966 4294901760
0.086686239 0.11077314 0.076462477 4294901760
0.070326194 0.097243749 0.082876444 4294901760
0.10540582 0.12435681 0.060960498 4294901760
0.095209077 0.11942632 0.080027513 4294901760
0.080944933 0.10953902 0.093833663 4294901760
0.064608432 0.096077807 0.10044795 4294901760
0.048484489 0.08092542 0.098945253 4294901760
0.085297048 0.11359505 0.094093561 4294901760
0.071113765 0.10381965 0.10806177 4294901760
0.054802321 0.090427838 0.11487576 4294901760
0.038644105 0.075292654 0.11358248 4294901760
0.024899093 0.060530975 0.10436283 4294901760
0.058552291 0.094415464 0.11722019 4294901760
0.042267397 0.081094295 0.12423325 4294901760
0.026076397 0.0659777 0.12314951 4294901760
0.012243844 0.051179968 0.11412056 4294901760
0.0027044322 0.038770787 0.098409213 4294901760
0.11117036 0.12184601 -0.017293569 4294901760
0.11601121 0.12373877 0.0042660697 4294901760
0.11467829 0.12009995 0.0261022 4294901760
0.10735801 0.11143847 0.045160711 4294901760
0.095074244 0.098965786 0.05877598 4294901760
0.1179021 0.12339534 0.022332963 4294901760
0.11672812 0.11989457 0.044200767 4294901760
0.10955125 0.1113489 0.063365802 4294901760
0.097375304 0.09895359 0.077147558 4294901760
0.081903249 0.084442295 0.083618432 4294901760
0.11366474 0.11522443 0.061489824 4294901760
0.10663195 0.10679536 0.080759622 4294901760
0.094564937 0.094478562 0.094706587 4294901760
0.079151452 0.079996705 0.10138003 4294901760
0.062547304 0.065375313 0.099846557 4294901760
0.099021427 0.098419167 0.094973184 4294901760
0.08706446 0.086182013 0.10908408 4294901760
0.071710959 0.071730934 0.11595946 4294901760
0.055108353 0.057087138 0.1146377 4294901760
0.039578758 0.044298779 0.10530367 4294901760
0.075918205 0.075212926 0.11833319 4294901760
0.060626108 0.060793955 0.12540989 4294901760
0.044026565 0.046129111 0.12429997 4294901760
0.028441271 0.033269495 0.11515868 4294901760
0.016050065 0.024013711 0.099264562 4294901760
0.10626855 0.12743245 -0.015707931 4294901760
0.11467955 0.12525643 0.0046968381 4294901760
0.11688267 0.11758768 0.025389127 4294901760
0.11256977 0.10549878 0.043474808 4294901760
0.1023441 0.090680555 0.056424327 4294901760
0.11953446 0.121535 0.021804929 4294901760
0.12190371 0.1139961 0.042526562 4294901760
0.1177534 0.10200117 0.060712572 4294901760
0.10766401 0.087227859 0.073819362 4294901760
0.093046688 0.071742453 0.080013752 4294901760
0.12161433 0.10616453 0.05891829 4294901760
0.11762698 0.094264664 0.077202946 4294901760
0.10767481 0.079537638 0.090465806 4294901760
0.093149759 0.064043254 0.096851848 4294901760
0.076083399 0.049948633 0.095467895 4294901760
0.11223176 0.083363749 0.090699896 4294901760
0.10241772 0.068684362 0.1041176 4294901760
0.08798629 0.053182431 0.11069471 4294901760
0.07095594 0.039026126 0.10951132 4294901760
0.053708602 0.028195426 0.10073295 4294901760
0.092633672 0.056162804 0.11292607 4294901760
0.078297198 0.040654752 0.11969364 4294901760
0.061304413 0.026438072 0.11871093 4294901760
0.044032026 0.015501182 0.11011537 4294901760
0.02889584 0.009373771 0.095109202 4294901760
0.10187104 0.13261685 -0.012311694 4294901760
0.11348487 0.12666488 0.0056194887 4294901760
0.11886025 0.11525623 0.023861816 4294901760
0.11724535 0.099986576 0.039863821 4294901760
0.10886601 0.082991607 0.051387381 4294901760
0.12099887 0.11980854 0.020673946 4294901760
0.12654683 0.10852215 0.038940638 4294901760
0.1251117 0.093326189 0.055029687 4294901760
0.1168942 0.076346032 0.066690795 4294901760
0.10304368 0.059956618 0.072292984 4294901760
0.12874605 0.097756669 0.053410396 4294901760
0.12749083 0.082635798 0.069585003 4294901760
0.11943591 0.065672018 0.081382588 4294901760
0.10570791 0.04923797 0.08715307 4294901760
0.088226885 0.035632212 0.086089365 4294901760
0.124083 0.069391862 0.081547074 4294901760
0.11619142 0.052446023 0.093480043 4294901760
0.1025872 0.035968862 0.09941829 4294901760
0.0851731 0.022264967 0.098531269 4294901760
0.066384748 0.01325103 0.090943046 4294901760
0.10762944 0.038483724 0.1013447 4294901760
0.09415026 0.021964967 0.10745016 4294901760
0.07680469 0.0081641953 0.10673991 4294901760
0.058018785 -0.00098834536 0.099313267 4294901760
0.040420026 -0.0042125336 0.086208962 4294901760
0.098259151 0.13706753 -0.0073221158 4294901760
0.11250364 0.12787399 0.0069750007 4294901760
0.12048455 0.11325472 0.021617966 4294901760
0.12108563 0.095254451 0.03455874 4294901760
0.11422281 0.076390803 0.04398736 4294901760
0.12220167 0.11832641 0.019012364 4294901760
0.13036047 0.10382288 0.033672374 4294901760
0.13115545 0.085878894 0.046680678 4294901760
0.12447543 0.067004204 0.056217864 4294901760
0.11125471 0.049838722 0.060950015 4294901760
0.13460369 0.090538695 0.045318469 4294901760
0.13559251 0.072652645 0.058393102 4294901760
0.12909591 0.053768661 0.068037979 4294901760
0.11602256 0.036527935 0.07290411 4294901760
0.098200954 0.023341857 0.072310902 4294901760
0.13381703 0.057397287 0.068100199 4294901760
0.12750447 0.038505737 0.077851877 4294901760
0.11457967 0.021191366 0.082851544 4294901760
0.096850388 0.0078758523 0.082399927 4294901760
0.076796316 0.00042157082 0.076560199 4294901760
0.11994623 0.023306591 0.084329925 4294901760
0.10717119 0.005920168 0.089462668 4294901760
0.08953587 -0.0075235548 0.089152694 4294901760
0.069506824 -0.015144268 0.083443351 4294901760
0.049885429 -0.015876099 0.073133178 4294901760
0.13305607 0.091277935 -0.014785415 4294901760
0.13493124 0.09699174 0.0065610269 4294901760
0.12974055 0.09836562 0.028078545 4294901760
0.11821 0.095207423 0.046757586 4294901760
0.10195231 0.087958872 0.059985608 4294901760
0.13404028 0.10024717 0.024413601 4294901760
0.12902497 0.1017369 0.045964975 4294901760
0.11763954 0.098691508 0.064751461 4294901760
0.10147642 0.091536924 0.078145474 4294901760
0.082796261 0.081273824 0.084273674 4294901760
0.12263215 0.1014036 0.062968701 4294901760
0.11139289 0.098471284 0.081860892 4294901760
0.095325813 0.091411322 0.095419675 4294901760
0.076678149 0.081211172 0.10174865 4294901760
0.058058046 0.06929747 0.099962592 4294901760
0.10034779 0.094593532 0.095756032 4294901760
0.084378242 0.087628856 0.10947832 4294901760
0.065764785 0.077492587 0.11600748 4294901760
0.0471108 0.065602437 0.11443029 4294901760
0.03102532 0.053621426 0.10496736 4294901760
0.070148721 0.080722004 0.11841824 4294901760
0.051571198 0.070650548 0.12514699 4294901760
0.032885041 0.058785051 0.12377881 4294901760
0.016703792 0.046785075 0.11450507 4294901760
0.0052906442 0.036328997 0.098622851 4294901760
0.12909792 0.097752742 -0.015185619 4294901760
0.13385594 0.09875074 0.0064523043 4294901760
0.13152055 0.095453851 0.028258519 4294901760
0.12241844 0.088323198 0.047183096 4294901760
0.10782264 0.07835611 0.060579147 4294901760
0.13535839 0.098090991 0.024546873 4294901760
0.13320421 0.094900459 0.046387531 4294901760
0.12426269 0.087857284 0.065421112 4294901760
0.10978445 0.077946551 0.07898549 4294901760
0.091794468 0.066554435 0.085183464 4294901760
0.12905136 0.090902984 0.063617736 4294901760
0.12027127 0.083947927 0.082758576 4294901760
0.1059119 0.074094474 0.096490018 4294901760
0.087981641 0.062720776 0.10289152 4294901760
0.068988308 0.051417619 0.10106774 4294901760
0.11101499 0.077143975 0.096834578 4294901760
0.096775845 0.067348704 0.11073183 4294901760
0.078906953 0.055994473 0.11733626 4294901760
0.059907563 0.044669338 0.11572415 4294901760
0.042435024 0.034957293 0.10612097 4294901760
0.08364629 0.058642507 0.11978296 4294901760
0.065840416 0.047308784 0.12658972 4294901760
0.046836726 0.035962716 0.12518944 4294901760
0.029293166 0.02619122 0.11577796 4294901760
0.015663477 0.019360993 0.099671632 4294901760
0.12528801 0.10415125 -0.013671028 4294901760
0.1328209 0.10048901 0.0068637705 4294901760
0.1332339 0.092576399 0.027577396 4294901760
0.12646925 0.081520095 0.045572735 4294901760
0.1134731 0.068866499 0.058332864 4294901760
0.13662714 0.095960222 0.024042498 4294901760
0.13722691 0.088144571 0.044788346 4294901760
0.13063778 0.077150717 0.062886767 4294901760
0.1177813 0.064516321 0.075806424 4294901760
0.10045566 0.052008495 0.081740297 4294901760
0.13523014 0.080526099 0.061161429 4294901760
0.1288171 0.069595709 0.079361267 4294901760
0.11610149 0.056981679 0.092439257 4294901760
0.098861769 0.044448264 0.098566242 4294901760
0.079509176 0.033748459 0.096885271 4294901760
0.12128267 0.059900042 0.09275277 4294901760
0.10870909 0.047307532 0.10598788 4294901760
0.091556877 0.034749687 0.11230741 4294901760
0.072225019 0.023982907 0.11082748 4294901760
0.053417377 0.016513092 0.10175505 4294901760
0.096638314 0.036823183 0.11461812 4294901760
0.079575188 0.024242064 0.1211296 4294901760
0.060265854 0.013409305 0.11985083 4294901760
0.041411009 0.0058400356 0.11096064 4294901760
0.025647797 0.002592931 0.095702469 4294901760
0.12187006 0.11006416 -0.010338532 4294901760
0.13189235 0.10209537 0.0077691055 4294901760
0.13477097 0.089917317 0.026078749 4294901760
0.13010332 0.075233303 0.042029515 4294901760
0.11854224 0.060097091 0.053390455 4294901760
0.13776535 0.09399116 0.022932742 4294901760
0.14083576 0.081901409 0.04126972 4294901760
0.13635698 0.067256711 0.057310537 4294901760
0.12495542 0.05210536 0.06881164 4294901760
0.10822577 0.038566492 0.074164428 4294901760
0.14077322 0.070936754 0.055756904 4294901760
0.13648373 0.05633273 0.071886294 4294901760
0.12524275 0.041167628 0.083526507 4294901760
0.10862253 0.027562512 0.089049481 4294901760
0.088947639 0.017420262 0.087682754 4294901760
0.13049398 0.043964799 0.083771721 4294901760
0.11941464 0.028787345 0.095549971 4294901760
0.10290536 0.015117232 0.10124262 4294901760
0.083275251 0.0048664329 0.10005349 4294901760
0.063269854 -0.00053132226 0.092148878 4294901760
0.1082937 0.0166598 0.10325409 4294901760
0.091896914 0.0029259496 0.10911591 4294901760
0.072313376 -0.0074324552 0.10810448 4294901760
0.052282155 -0.012966635 0.10036126 4294901760
0.034604914 -0.01290255 0.086969264 4294901760
0.11906274 0.11511323 -0.0054013054 4294901760
0.13112968 0.10346704 0.0091103949 4294901760
0.13603346 0.087646715 0.023858443 4294901760
0.13308817 0.069864973 0.036780097 4294901760
0.12270578 0.052608848 0.046068072 4294901760
0.13870022 0.092309766 0.021288592 4294901760
0.14379989 0.07657034 0.036056735 4294901760
0.14105445 0.058808167 0.049049132 4294901760
0.1308479 0.041507572 0.058448598 4294901760
0.11460777 0.027088296 0.062940478 4294901760
0.14532606 0.062748358 0.047749881 4294901760
0.14278072 0.045007404 0.060811821 4294901760
0.13275094 0.027663928 0.070321918 4294901760
0.11663955 0.01314368 0.074950032 4294901760
0.096699938 0.0034775345 0.074048862 4294901760
0.13805972 0.030357616 0.070465937 4294901760
0.12820765 0.012972862 0.080085777 4294901760
0.11222646 -0.0016470215 0.0848497 4294901760
0.092351362 -0.011457223 0.084091403 4294901760
0.071362197 -0.015085635 0.077916943 4294901760
0.11786687 -0.00055781775 0.086417854 4294901760
0.10201737 -0.015275989 0.091317147 4294901760
0.082208626 -0.02522934 0.090701796 4294901760
0.061211184 -0.029025747 0.084657863 4294901760
0.04196186 -0.026134221 0.074030675 4294901760
0.14491378 0.063670285 -0.012369988 4294901760
0.14746721 0.068971276 0.0090125725 4294901760
0.14227261 0.071313232 0.030445391 4294901760
0.13005652 0.070368595 0.048930768 4294901760
0.11252753 0.066269487 0.061883237 4294901760
0.14690471 0.072362199 0.026853291 4294901760
0.1419033 0.07478565 0.048322976 4294901760
0.12984891 0.073925205 0.066918291 4294901760
0.11242754 0.069901213 0.080038413 4294901760
0.09207581 0.0632765 0.085848279 4294901760
0.13528492 0.075665191 0.065220587 4294901760
0.12339335 0.074889019 0.083924137 4294901760
0.10608118 0.070940532 0.09721069 4294901760
0.085769765 0.064371973 0.10322192 4294901760
0.065299965 0.056102056 0.10111707 4294901760
0.11159864 0.073140301 0.097632997 4294901760
0.094397277 0.069267668 0.11108477 4294901760
0.074128054 0.062755868 0.11729681 4294901760
0.053625934 0.054515678 0.11540028 4294901760
0.035758451 0.045699615 0.10566045 4294901760
0.078993738 0.065123074 0.11978301 4294901760
0.05876857 0.05866864 0.1261953 4294901760
0.038236018 0.050458938 0.12450727 4294901760
0.020267867 0.041642215 0.11495502 4294901760
0.0073772329 0.033451632 0.098874591 4294901760
0.14222743 0.070764467 -0.01282438 4294901760
0.14673741 0.070898548 0.0088891275 4294901760
0.14348069 0.068122931 0.030649737 4294901760
0.13291274 0.062825836 0.049413893 4294901760
0.11651165 0.055748135 0.062557146 4294901760
0.14779928 0.069999762 0.027004609 4294901760
0.14473969 0.067295231 0.048802748 4294901760
0.13434397 0.062054589 0.067678623 4294901760
0.11806609 0.055010807 0.080992162 4294901760
0.098182775 0.047149073 0.086881265 4294901760
0.13964154 0.064160094 0.065957509 4294901760
0.12941898 0.058976386 0.084943369 4294901760
0.11326581 0.051967174 0.098425962 4294901760
0.093441293 0.044112809 0.10451955 4294901760
0.072718188 0.036511842 0.10237186 4294901760
0.11883833 0.054021541 0.098857589 4294901760
0.10281136 0.047047548 0.112508 4294901760
0.083047457 0.039201275 0.11880552 4294901760
0.062310919 0.03158015 0.11686935 4294901760
0.043502059 0.025250096 0.10697027 4294901760
0.088154361 0.040931486 0.12133252 4294901760
0.068452902 0.03309403 0.12783338 4294901760
0.047704838 0.025453445 0.12610891 4294901760
0.028812105 0.019078381 0.11640027 4294901760
0.014417133 0.014860488 0.10006539 4294901760
0.1396417 0.077759154 -0.01136195 4294901760
0.14603496 0.072798781 0.0092864241 4294901760
0.1446435 0.06497737 0.02999207 4294901760
0.13566197 0.055388857 0.047858991 4294901760
0.12034655 0.045374345 0.060388222 4294901760
0.14866036 0.067670457 0.026517605 4294901760
0.14746985 0.059909873 0.047258638 4294901760
0.13867064 0.050350457 0.065231554 4294901760
0.12349344 0.040329237 0.077922583 4294901760
0.10406101 0.031247834 0.083556674 4294901760
0.14383499 0.052816361 0.063585788 4294901760
0.13521892 0.04328692 0.081663057 4294901760
0.12018134 0.033259913 0.094514698 4294901760
0.10082549 0.024137778 0.10034323 4294901760
0.079858556 0.017196378 0.098333433 4294901760
0.12580687 0.035170924 0.094916351 4294901760
0.1109103 0.02513906 0.10792743 4294901760
0.091632791 0.015977031 0.11394986 4294901760
0.070670612 0.0089662839 0.1121413 4294901760
0.050955635 0.0050873775 0.1027547 4294901760
0.096971869 0.017079175 0.11634554 4294901760
0.077774502 0.0078780977 0.12256131 4294901760
0.056819007 0.00079864921 0.12095415 4294901760
0.037036322 -0.0031690011 0.11174885 4294901760
0.021193355 -0.0034699175 0.096232913 4294901760
0.13732198 0.084206901 -0.0080762478 4294901760
0.14540476 0.074550435 0.010179047 4294901760
0.1456867 0.062077772 0.028514465 4294901760
0.13812836 0.048533402 0.044365525 4294901760
0.1237869 0.035811719 0.055515211 4294901760
0.14943285 0.065523289 0.025423432 4294901760
0.14991912 0.053101998 0.043789417 4294901760
0.14255218 0.03956151 0.059733626 4294901760
0.12836242 0.026795665 0.07102602 4294901760
0.10933448 0.016589964 0.076087184 4294901760
0.14759701 0.042359628 0.058257151 4294901760
0.14042217 0.028824264 0.07429304 4294901760
0.12638541 0.01601544 0.085727103 4294901760
0.10744999 0.0057246634 0.090960108 4294901760
0.08626432 -0.00060874474 0.089260139 4294901760
0.13205847 0.017794296 0.086061411 4294901760
0.118176 0.0049436726 0.097636081 4294901760
0.099334858 -0.0054312311 0.10304043 4294901760
0.078170255 -0.011879327 0.1015186 4294901760
0.057642378 -0.01349875 0.093283415 4294901760
0.10488223 -0.0049080416 0.1051411 4294901760
0.086137086 -0.015366117 0.11071631 4294901760
0.064995497 -0.021928305 0.10937274 4294901760
0.04441442 -0.023676785 0.1012983 4294901760
0.027272431 -0.020367006 0.087622337 4294901760
0.13541669 0.089695252 -0.0031774552 4294901760
0.14488715 0.076041445 0.011509895 4294901760
0.14654352 0.059609618 0.026311444 4294901760
0.14015414 0.042698007 0.03915697 4294901760
0.12661263 0.027671963 0.048249833 4294901760
0.15006733 0.06369561 0.023792081 4294901760
0.15193084 0.047307104 0.038617011 4294901760
0.1457403 0.030377906 0.05153653 4294901760
0.13236156 0.015275825 0.060743645 4294901760
0.11366585 0.0041131149 0.064950608 4294901760
0.15068696 0.033458807 0.050312463 4294901760
0.14469585 0.016513584 0.063304782 4294901760
0.13148111 0.0013368605 0.072625302 4294901760
0.11289103 -0.009948669 0.076970406 4294901760
0.091525696 -0.015764551 0.075732373 4294901760
0.13719322 0.0030032299 0.072859205 4294901760
0.1241437 -0.012246738 0.082292274 4294901760
0.10566096 -0.023654047 0.086775124 4294901760
0.084330089 -0.02962321 0.085680768 4294901760
0.063134544 -0.02931935 0.07916227 4294901760
0.1113794 -0.023623666 0.088435911 4294901760
0.093005709 -0.035151701 0.093056098 4294901760
0.071711265 -0.041273598 0.09210553 4294901760
0.050474431 -0.041133109 0.085717149 4294901760
0.032265488 -0.034749888 0.074784473 4294901760
