# .PCD v0.7 - Point Cloud Data file format
VERSION 0.7
FIELDS x y z rgb
SIZE 4 4 4 4
TYPE F F F U
COUNT 1 1 1 1
WIDTH 1034
HEIGHT 1
VIEWPOINT 0 0 0 1 0 0 0
POINTS 1034
DATA ascii
0.14127937 0.081910171 0.040643848 4294901760
0.13918249 0.081701741 0.050550163 4294901760
0.13559026 0.080770165 0.059973717 4294901760
0.13060744 0.079142638 0.068639629 4294901760
0.12437938 0.076866619 0.076295115 4294901760
0.11708776 0.07400851 0.08271686 4294901760
0.10894527 0.070651673 0.087717555 4294901760
0.10018943 0.066894032 0.091151319 4294901760
0.091075644 0.062845193 0.092918001 4294901760
0.081869759 0.058623265 0.092966057 4294901760
0.072840303 0.054351393 0.091294095 4294901760
0.13630082 0.080968641 0.058296286 4294901760
0.13274562 0.080055274 0.067735657 4294901760
0.12779665 0.078445002 0.076424152 4294901760
0.12159825 0.076184787 0.084108338 4294901760
0.11433125 0.073340558 0.090564065 4294901760
0.10620761 0.069995284 0.095603019 4294901760
0.097464308 0.066246554 0.099078216 4294901760
0.088356376 0.062203705 0.10088829 4294901760
0.0791495 0.057984676 0.10098044 4294901760
0.070112228 0.053712528 0.099351965 4294901760
0.06150819 0.049511883 0.096050382 4294901760
0.12874736 0.078764647 0.074890517 4294901760
0.12383232 0.077171654 0.08360143 4294901760
0.1176637 0.074927285 0.091314174 4294901760
0.11042146 0.072096996 0.097803757 4294901760
0.10231683 0.068763353 0.10288088 4294901760
0.093586221 0.065023601 0.10639744 4294901760
0.084484324 0.060986821 0.10825087 4294901760
0.075276628 0.056770772 0.10838711 4294901760
0.066231713 0.05249843 0.10680217 4294901760
0.057613429 0.048294421 0.10354228 4294901760
0.049673162 0.044281371 0.09870255 4294901760
0.11882822 0.075359255 0.089966819 4294901760
0.11268951 0.073130764 0.097707964 4294901760
0.10547215 0.070314467 0.10423128 4294901760
0.097386681 0.066992521 0.10934647 4294901760
0.08866895 0.063261814 0.11290433 4294901760
0.079573251 0.059231184 0.11480109 4294901760
0.070364915 0.055018194 0.11498141 4294901760
0.06131253 0.050745737 0.11344002 4294901760
0.052680165 0.046538442 0.1102219 4294901760
0.044719618 0.042519037 0.10542092 4294901760
0.037663098 0.038804762 0.099177115 4294901760
0.10681822 0.070846789 0.10310753 4294901760
0.099625893 0.068044543 0.10966445 4294901760
0.091559738 0.064734347 0.11481761 4294901760
0.082855038 0.061012767 0.11841671 4294901760
0.073765725 0.056988358 0.12035675 4294901760
0.064556912 0.052778509 0.12058115 4294901760
0.055497233 0.048506021 0.11908335 4294901760
0.046850946 0.04429552 0.11590706 4294901760
0.038870271 0.040269833 0.11114492 4294901760
0.031787999 0.036546379 0.10493583 4294901760
0.02581072 0.033233777 0.097460926 4294901760
0.093050063 0.065352276 0.11394861 4294901760
0.085003376 0.062053904 0.11913965 4294901760
0.076311879 0.058341514 0.12277991 4294901760
0.067229114 0.054323401 0.1247632 4294901760
0.058020007 0.050116774 0.12503166 4294901760
0.048953202 0.045844335 0.12357749 4294901760
0.040293165 0.041630711 0.12044308 4294901760
0.032292515 0.037598815 0.11571986 4294901760
0.025184622 0.033866256 0.10954563 4294901760
0.019176828 0.03054191 0.10210045 4294901760
0.014444377 0.02772275 0.09360154 4294901760
0.077905171 0.059027925 0.12218972 4294901760
0.069227047 0.0553248 0.12587106 4294901760
0.060151003 0.051313065 0.12789758 4294901760
0.050941784 0.047109738 0.12821011 4294901760
0.04186802 0.042837426 0.12679958 4294901760
0.0331944 0.038620763 0.12370711 4294901760
0.025173923 0.034582734 0.11902291 4294901760
0.018040547 0.03084114 0.11288363 4294901760
0.012002354 0.027505115 0.10546834 4294901760
0.0072354744 0.024671974 0.096993349 4294901760
0.0038789578 0.022424357 0.087705866 4294901760
0.061803125 0.052048948 0.12760255 4294901760
0.052733976 0.048043661 0.12967221 4294901760
0.043524813 0.043843716 0.13002883 4294901760
0.034444273 0.039571617 0.12866196 4294901760
0.025757227 0.035351988 0.1256115 4294901760
0.017717078 0.03130791 0.12096641 4294901760
0.010558356 0.027557349 0.1148622 4294901760
0.0044898777 0.024209708 0.10747693 4294901760
-0.00031133948 0.021362638 0.099026024 4294901760
-0.0037052452 0.019099187 0.08975599 4294901760
-0.0055928398 0.01748538 0.079937235 4294901760
0.13832635 0.080226198 -0.013747212 4294901760
0.14125206 0.081064619 -0.0040873652 4294901760
0.14264648 0.081189111 0.0059433612 4294901760
0.14246893 0.080596037 0.016052373 4294901760
0.14072458 0.079302706 0.02594479 4294901760
0.13746434 0.077346832 0.035332054 4294901760
0.13278329 0.074785471 0.043940343 4294901760
0.12681799 0.071693346 0.051518548 4294901760
0.11974243 0.068160638 0.057845619 4294901760
0.11176301 0.064290412 0.062736996 4294901760
0.10311249 0.060195554 0.06605 4294901760
0.14246009 0.081196927 0.0041203746 4294901760
0.14389428 0.081339769 0.014145247 4294901760
0.14375699 0.080764875 0.024255935 4294901760
0.14205219 0.07948903 0.034157511 4294901760
0.13882963 0.077549428 0.043561153 4294901760
0.1341833 0.075002663 0.05219255 4294901760
0.12824877 0.071923018 0.059799936 4294901760
0.12119909 0.068400323 0.066161394 4294901760
0.11323994 0.064537346 0.071091369 4294901760
0.10460348 0.06044675 0.074446052 4294901760
0.095541619 0.056247875 0.076127589 4294901760
0.14384829 0.080898859 0.022430615 4294901760
0.14375123 0.080342166 0.032542787 4294901760
0.14208601 0.079083823 0.042453337 4294901760
0.13890119 0.077160545 0.051873174 4294901760
0.1342897 0.07462842 0.060527522 4294901760
0.12838601 0.071561314 0.068163939 4294901760
0.12136237 0.068048701 0.074559666 4294901760
0.11342364 0.064193033 0.079528145 4294901760
0.10480139 0.060106788 0.082924448 4294901760
0.095747143 0.055909157 0.084649496 4294901760
0.086525001 0.051722582 0.084652983 4294901760
0.14245246 0.079340264 0.040676255 4294901760
0.14082685 0.078099459 0.050595585 4294901760
0.13767985 0.076192528 0.060031436 4294901760
0.13310324 0.073675089 0.068708569 4294901760
0.12723054 0.070620589 0.076373868 4294901760
0.12023306 0.067118116 0.082803741 4294901760
0.1123149 0.063269846 0.087810636 4294901760
0.10370704 0.059188019 0.09124849 4294901760
0.094660573 0.054991715 0.093017027 4294901760
0.085439369 0.050803334 0.093064658 4294901760
0.076312415 0.046745047 0.091389999 4294901760
0.13831128 0.076564319 0.058351818 4294901760
0.13520215 0.074673772 0.06780351 4294901760
0.13066053 0.072171077 0.076503262 4294901760
0.12481894 0.069129236 0.084197298 4294901760
0.11784775 0.06563697 0.090661198 4294901760
0.10995031 0.061796162 0.095706403 4294901760
0.101357 0.057718843 0.099185742 4294901760
0.092318483 0.053523943 0.10099773 4294901760
0.083098397 0.049333829 0.10108951 4294901760
0.073965706 0.04527073 0.099458411 4294901760
0.065186799 0.04145316 0.096152 4294901760
0.13153949 0.072647929 0.074967638 4294901760
0.12703297 0.070160016 0.083689846 4294901760
0.12122257 0.067130886 0.091412477 4294901760
0.1142778 0.063648902 0.097910278 4294901760
0.10640124 0.059815634 0.1029937 4294901760
0.097822644 0.05574289 0.10651446 4294901760
0.088792242 0.051549479 0.10836987 4294901760
0.07957346 0.047357716 0.10850579 4294901760
0.070435196 0.043289877 0.10691828 4294901760
0.061644018 0.039464619 0.10365362 4294901760
0.053456362 0.035993528 0.098807052 4294901760
0.12232468 0.067699581 0.090063401 4294901760
0.1165456 0.064683229 0.097814478 4294901760
0.1096274 0.06121159 0.10434605 4294901760
0.10177185 0.057385929 0.1094676 4294901760
0.093208134 0.053317845 0.11302972 4294901760
0.084186025 0.049125995 0.11492851 4294901760
0.074968711 0.044932663 0.11510857 4294901760
0.065825053 0.040860165 0.11356467 4294901760
0.057021774 0.037027292 0.11034183 4294901760
0.04881566 0.033545852 0.10553406 4294901760
0.041446082 0.030517396 0.099281609 4294901760
0.11092213 0.061856374 0.10322089 4294901760
0.10403061 0.058395144 0.10978612 4294901760
0.096196242 0.054577168 0.11494569 4294901760
0.087647557 0.050513815 0.11854909 4294901760
0.078633919 0.046323612 0.12049122 4294901760
0.069418252 0.04212879 0.12071543 4294901760
0.060269371 0.03805171 0.11921517 4294901760
0.051454153 0.034211297 0.11603421 4294901760
0.043229733 0.030719575 0.11126533 4294901760
0.035836019 0.027678398 0.10504765 4294901760
0.029488683 0.025176479 0.097562522 4294901760
0.097647734 0.055280179 0.11407561 4294901760
0.08983469 0.051469959 0.1192731 4294901760
0.081301205 0.047411419 0.12291773 4294901760
0.072296202 0.043222941 0.12490316 4294901760
0.063082352 0.039026707 0.1251715 4294901760
0.053928427 0.034945123 0.12371492 4294901760
0.045101441 0.031097239 0.1205759 4294901760
0.036858875 0.027595304 0.115846 4294901760
0.029441163 0.024541466 0.1096632 4294901760
0.02306468 0.022024807 0.10220785 4294901760
0.017915428 0.020118736 0.093697421 4294901760
0.082869232 0.048153181 0.12232684 4294901760
0.074351117 0.044099528 0.12601261 4294901760
0.065354921 0.039912857 0.12804131 4294901760
0.056143072 0.035715293 0.12835379 4294901760
0.04698427 0.031629279 0.12694091 4294901760
0.038145684 0.027774001 0.12384388 4294901760
0.029885126 0.024261918 0.11915305 4294901760
0.022443559 0.021195477 0.11300526 4294901760
0.016038053 0.018664125 0.10557982 4294901760
0.010855452 0.0167417 0.097093344 4294901760
0.0070469338 0.015484283 0.087793373 4294901760
0.066996053 0.04067282 0.12774599 4294901760
0.058008838 0.036488038 0.12981792 4294901760
0.048799161 0.032289222 0.13017452 4294901760
0.039635662 0.028198857 0.12880537 4294901760
0.030785643 0.024336256 0.12575039 4294901760
0.022507252 0.020814093 0.12109873 4294901760
0.015041972 0.017735107 0.11498605 4294901760
0.0086075617 0.015189111 0.10759068 4294901760
0.0033917138 0.013250371 0.099128313 4294901760
-0.00045342784 0.011975442 0.089845814 4294901760
-0.0028157008 0.011401512 0.080013946 4294901760
0.13690977 0.083364286 -0.013388795 4294901760
0.14029625 0.083182 -0.0038455289 4294901760
0.14216603 0.082253426 0.0060649225 4294901760
0.14246458 0.080605671 0.016053472 4294901760
0.14118318 0.078286789 0.025828758 4294901760
0.13835923 0.075364426 0.035105634 4294901760
0.13407509 0.071923822 0.043613497 4294901760
0.12845573 0.068065345 0.051104177 4294901760
0.12166505 0.063901544 0.057359166 4294901760
0.11390116 0.059553869 0.062196009 4294901760
0.10539052 0.055149149 0.065473624 4294901760
0.14189339 0.082452342 0.0042637624 4294901760
0.14380275 0.081542574 0.014168411 4294901760
0.14414169 0.079912663 0.024158599 4294901760
0.14290035 0.077610143 0.033942915 4294901760
0.14011492 0.074702188 0.043235954 4294901760
0.13586666 0.071273625 0.051766638 4294901760
0.13027948 0.067424454 0.059286129 4294901760
0.12351638 0.063266963 0.065575086 4294901760
0.11577461 0.058922417 0.07045006 4294901760
0.10728002 0.054517552 0.073768847 4294901760
0.09828037 0.05018086 0.07543464 4294901760
0.14414714 0.08023683 0.022355001 4294901760
0.14452648 0.078624792 0.032346636 4294901760
0.14332521 0.076338686 0.042139798 4294901760
0.14057836 0.073445193 0.051448822 4294901760
0.13636607 0.07002873 0.060002167 4294901760
0.13081118 0.066188939 0.067550331 4294901760
0.12407577 0.062037837 0.073873132 4294901760
0.11635628 0.057696506 0.078786142 4294901760
0.10787789 0.053291585 0.082146041 4294901760
0.09888792 0.048951562 0.083854832 4294901760
0.089648597 0.044803035 0.08386267 4294901760
0.1436086 0.076779135 0.040383734 4294901760
0.14244743 0.074509479 0.050185554 4294901760
0.1397392 0.071630508 0.059510384 4294901760
0.13556296 0.068226203 0.068086222 4294901760
0.13004048 0.064395875 0.075662911 4294901760
0.12333288 0.060251243 0.082019441 4294901760
0.1156358 0.055913206 0.086970396 4294901760
0.10717379 0.051508311 0.090371348 4294901760
0.09819366 0.047165044 0.092123099 4294901760
0.088957362 0.043010093 0.092174552 4294901760
0.079734325 0.039164662 0.090524204 4294901760
0.14029269 0.072175033 0.057850495 4294901760
0.13762316 0.069310635 0.06719096 4294901760
0.13348302 0.065918565 0.075789124 4294901760
0.12799306 0.062097766 0.0833942 4294901760
0.1213134 0.05795968 0.089784332 4294901760
0.1136389 0.053625025 0.094773136 4294901760
0.10519341 0.049220238 0.098215073 4294901760
0.096223295 0.044873808 0.10000975 4294901760
0.0869902 0.040712513 0.10010483 4294901760
0.077763461 0.036857743 0.098497517 4294901760
0.068812221 0.033421941 0.095234707 4294901760
0.13429126 0.06655208 0.074271403 4294901760
0.13018733 0.063172303 0.08289174 4294901760
0.12472998 0.059361104 0.090525046 4294901760
0.1180784 0.055229649 0.096948668 4294901760
0.1104266 0.050898455 0.10197522 4294901760
0.10199781 0.046493858 0.10545808 4294901760
0.093037874 0.042144347 0.10729566 4294901760
0.083808161 0.03797679 0.10743435 4294901760
0.074577898 0.034112755 0.10587011 4294901760
0.065616332 0.030664958 0.10264856 4294901760
0.057184864 0.027733969 0.097863682 4294901760
0.12577058 0.060066059 0.089191534 4294901760
0.12034594 0.056264531 0.096852936 4294901760
0.11372256 0.052139781 0.10330991 4294901760
0.10609363 0.04781213 0.10837413 4294901760
0.097681686 0.043407813 0.11189784 4294901760
0.088732108 0.039055303 0.11377828 4294901760
0.079505943 0.034881558 0.11396058 4294901760
0.070272334 0.031008335 0.11243944 4294901760
0.061300609 0.027548606 0.10925922 4294901760
0.052852474 0.024603296 0.10451268 4294901760
0.045174368 0.022258317 0.098338298 4294901760
0.1149667 0.052896645 0.10219755 4294901760
0.10837164 0.048778683 0.10868777 4294901760
0.10076571 0.044454657 0.11378954 4294901760
0.092370778 0.040050697 0.11735404 4294901760
0.083431728 0.035695273 0.11927731 4294901760
0.074209295 0.031515427 0.11950322 4294901760
0.064972512 0.027633082 0.11802521 4294901760
0.0559908 0.02416149 0.11488637 4294901760
0.047526162 0.021201914 0.11017827 4294901760
0.039825507 0.018840687 0.10403825 4294901760
0.033113465 0.017146682 0.0966454 4294901760
0.10217892 0.045242462 0.11292914 4294901760
0.09459614 0.040922143 0.11806837 4294901760
0.086218387 0.03651863 0.1216736 4294901760
0.077290028 0.032160372 0.12363965 4294901760
0.068071499 0.027974499 0.12390918 4294901760
0.058831714 0.024083113 0.12247431 4294901760
0.04984019 0.020599723 0.11937692 4294901760
0.041359209 0.017625939 0.11470734 4294901760
0.033636156 0.015248506 0.1086018 4294901760
0.026896317 0.013536775 0.10123838 4294901760
0.021336287 0.012540675 0.092831887 4294901760
0.087761514 0.037315555 0.12108901 4294901760
0.079401091 0.032912571 0.12473489 4294901760
0.070483595 0.028551564 0.12674367 4294901760
0.061269149 0.024359744 0.12705681 4294901760
0.052026544 0.020459387 0.12566513 4294901760
0.043025374 0.016964264 0.12260924 4294901760
0.034528207 0.013976329 0.11797828 4294901760
0.026782906 0.011582738 0.11190733 4294901760
0.020015396 0.0098533118 0.10457349 4294901760
0.014423087 0.0088384971 0.096190676 4294901760
0.010169103 0.0085678976 0.087003417 4294901760
0.072113894 0.029335525 0.12645109 4294901760
0.063207433 0.024971852 0.12850259 4294901760
0.053997245 0.020774167 0.12885933 4294901760
0.044751991 0.016864914 0.12751085 4294901760
0.035741348 0.013358127 0.12449653 4294901760
0.027228162 0.010356097 0.11990426 4294901760
0.019460756 0.0079463925 0.11386804 4294901760
0.012665708 0.0061993045 0.1065639 4294901760
0.0070412233 0.0051657958 0.098204933 4294901760
0.0027513704 0.0048760129 0.089034952 4294901760
-7.8717458e-05 0.005338409 0.079321444 4294901760
0.13553277 0.086449973 -0.012637013 4294901760
0.13936713 0.085264012 -0.0033382759 4294901760
0.141699 0.083299972 0.0063198972 4294901760
0.14246035 0.080615148 0.01605578 4294901760
0.14162897 0.077287845 0.025585379 4294901760
0.13922912 0.07341513 0.034630716 4294901760
0.13533078 0.069109961 0.042927943 4294901760
0.13004769 0.064497933 0.050235026 4294901760
0.12353396 0.059713561 0.056338824 4294901760
0.11597957 0.054896414 0.061061289 4294901760
0.10760489 0.050187007 0.06426467 4294901760
0.14134251 0.083686799 0.00456452 4294901760
0.14371374 0.081741996 0.014216996 4294901760
0.14451565 0.079074673 0.023954434 4294901760
0.1437248 0.075762637 0.033492796 4294901760
0.14136429 0.071902491 0.04255385 4294901760
0.13750297 0.067606851 0.050873283 4294901760
0.13225347 0.063000999 0.058208421 4294901760
0.12576891 0.05821931 0.0643453 4294901760
0.11823845 0.053401247 0.06910491 4294901760
0.10988176 0.048687361 0.072348408 4294901760
0.10094259 0.044215154 0.073981188 4294901760
0.14443764 0.079585858 0.022196401 4294901760
0.14528008 0.076936089 0.031935211 4294901760
0.14452979 0.073639378 0.041482154 4294901760
0.14220867 0.069791883 0.05055875 4294901760
0.13838442 0.06550584 0.058900233 4294901760
0.13316859 0.060906272 0.066263281 4294901760
0.12671335 0.056127347 0.072433129 4294901760
0.11920696 0.051308461 0.07722979 4294901760
0.11086841 0.046590183 0.080513343 4294901760
0.10194092 0.042110149 0.082188025 4294901760
0.092684902 0.037999034 0.082204968 4294901760
0.14473243 0.074260764 0.039770167 4294901760
0.14402272 0.070979439 0.049325511 4294901760
0.14174102 0.06714467 0.058417477 4294901760
0.13795394 0.062868305 0.06678085 4294901760
0.13277189 0.0582751 0.074171677 4294901760
0.12634607 0.053499032 0.080374368 4294901760
0.11886391 0.048679415 0.085207984 4294901760
0.11054365 0.043956839 0.088531539 4294901760
0.10162801 0.03946906 0.090248086 4294901760
0.092377052 0.035346989 0.090307549 4294901760
0.083060615 0.031710859 0.088708192 4294901760
0.14221871 0.067859039 0.056798965 4294901760
0.1399765 0.064037055 0.06590613 4294901760
0.13622664 0.059770465 0.074291229 4294901760
0.13107848 0.055183709 0.08170969 4294901760
0.12468221 0.050410587 0.087945111 4294901760
0.11722441 0.04559033 0.0928156 4294901760
0.10892262 0.040863544 0.09617909 4294901760
0.10001899 0.036368109 0.097937472 4294901760
0.090773247 0.032235157 0.098039448 4294901760
0.081455097 0.02858524 0.096482046 4294901760
0.072336338 0.025524832 0.093310691 4294901760
0.13696612 0.060558025 0.072811037 4294901760
0.13325354 0.056301277 0.081217714 4294901760
0.12813938 0.051721063 0.088663667 4294901760
0.12177277 0.046950977 0.094931692 4294901760
0.11433948 0.042130176 0.099838957 4294901760
0.1060563 0.03739927 0.10324232 4294901760
0.097164862 0.032896262 0.1050425 4294901760
0.087924525 0.028752508 0.10518699 4294901760
0.078604832 0.025088876 0.10367157 4294901760
0.069477633 0.022012236 0.10054045 4294901760
0.060809173 0.019612331 0.095884964 4294901760
0.12912019 0.052559998 0.087362789 4294901760
0.12404008 0.047986407 0.094836093 4294901760
0.11770328 0.043219455 0.10113661 4294901760
0.11029463 0.038398195 0.10608055 4294901760
0.10203023 0.033663258 0.10952372 4294901760
0.093151145 0.029152768 0.11136567 4294901760
0.083916388 0.02499829 0.11155267 4294901760
0.074595332 0.021321012 0.11007927 4294901760
0.06545987 0.018228196 0.10698844 4294901760
0.056776486 0.015810063 0.10237034 4294901760
0.048798464 0.014137148 0.096359693 4294901760
0.11889824 0.044086527 0.1000511 4294901760
0.11259136 0.039322797 0.10638398 4294901760
0.10520749 0.034501169 0.11136452 4294901760
0.096962012 0.029762296 0.11484742 4294901760
0.088095464 0.025244405 0.11673111 4294901760
0.078866459 0.021079283 0.11696061 4294901760
0.069544218 0.017388428 0.11552925 4294901760
0.060400672 0.014279498 0.11247876 4294901760
0.051702525 0.011843183 0.10789815 4294901760
0.043703511 0.010150548 0.10192102 4294901760
0.036636952 0.0092509678 0.09472172 4294901760
0.10658349 0.035372354 0.11052444 4294901760
0.099224545 0.030550456 0.11554147 4294901760
0.090998158 0.025807733 0.11906405 4294901760
0.082144298 0.021282528 0.12098942 4294901760
0.072921231 0.017106842 0.12126143 4294901760
0.063597985 0.01340248 0.11987213 4294901760
0.054446518 0.010277495 0.11686206 4294901760
0.045733783 0.0078230435 0.11231901 4294901760
0.037713923 0.0061107217 0.10637552 4294901760
0.030620879 0.0051904772 0.099204935 4294901760
0.024661552 0.005089154 0.091016434 4294901760
0.092517085 0.026658894 0.11849267 4294901760
0.084309943 0.021912413 0.12205485 4294901760
0.07546895 0.017379981 0.12402189 4294901760
0.066251986 0.01319381 0.12433639 4294901760
0.056927908 0.0094760107 0.12298919 4294901760
0.047768705 0.0063350303 0.12001958 4294901760
0.039041542 0.0038624899 0.11551419 4294901760
0.031000992 0.0021305135 0.10960444 4294901760
0.023881597 0.0011896226 0.10246271 4294901760
0.017891027 0.0010672625 0.094297327 4294901760
0.013204025 0.0017670026 0.085346475 4294901760
0.077088714 0.018187542 0.12373505 4294901760
0.068260752 0.013647969 0.1257437 4294901760
0.059050068 0.009451393 0.12610069 4294901760
0.049725343 0.0057202284 0.12479562 4294901760
0.040558573 0.0025633115 0.12186652 4294901760
0.031817149 7.2729046e-05 0.11739887 4294901760
0.023756063 -0.001678869 0.11152298 4294901760
0.016610449 -0.0026403889 0.10441024 4294901760
0.010588749 -0.002783783 0.096268132 4294901760
0.0058666123 -0.0021048691 0.087334163 4294901760
0.0025817822 -0.00062345056 0.077868924 4294901760
0.13421364 0.089442305 -0.011501844 4294901760
0.13847707 0.087283038 -0.0025723397 4294901760
0.14125161 0.084314853 0.0067049018 4294901760
0.14245631 0.080624327 0.016059265 4294901760
0.14205602 0.076319121 0.025217883 4294901760
0.14006244 0.071524806 0.033913605 4294901760
0.13653371 0.066381231 0.041892774 4294901760
0.13157277 0.061038446 0.048922639 4294901760
0.12532432 0.055652287 0.054798145 4294901760
0.11797063 0.050379872 0.059347898 4294901760
0.10972621 0.045374997 0.062439188 4294901760
0.14081477 0.084883906 0.0050186538 4294901760
0.14362849 0.081935383 0.01429036 4294901760
0.14487389 0.078262039 0.023646155 4294901760
0.14451462 0.073971018 0.032813132 4294901760
0.14256117 0.0691875 0.041523892 4294901760
0.13907053 0.06405101 0.049524345 4294901760
0.1341445 0.058711383 0.056581113 4294901760
0.12792678 0.053324375 0.062488362 4294901760
0.12059876 0.048047122 0.06707377 4294901760
0.11237417 0.043033559 0.070203587 4294901760
0.10349293 0.038429935 0.071786508 4294901760
0.14471593 0.078954585 0.021956921 4294901760
0.14600199 0.075298481 0.031313971 4294901760
0.14568374 0.071021743 0.04048913 4294901760
0.14377046 0.06624911 0.049214762 4294901760
0.14031796 0.061119795 0.057236344 4294901760
0.13542694 0.055783432 0.064319886 4294901760
0.1292401 0.050395675 0.070258766 4294901760
0.12193786 0.045113683 0.074879743 4294901760
0.11373327 0.040091533 0.078048021 4294901760
0.10486563 0.03547572 0.079671189 4294901760
0.095593624 0.031400882 0.0797019 4294901760
0.14580904 0.07181859 0.038843706 4294901760
0.1455318 0.067556202 0.048026875 4294901760
0.14365873 0.062794544 0.056767218 4294901760
0.14024444 0.057672512 0.064809777 4294901760
0.13538854 0.052339513 0.071919955 4294901760
0.12923266 0.046951108 0.077890351 4294901760
0.12195636 0.041664477 0.082546808 4294901760
0.11377192 0.036633834 0.085753493 4294901760
0.10491806 0.032005917 0.087416872 4294901760
0.095653035 0.027915725 0.087488435 4294901760
0.086247124 0.024482567 0.085966073 4294901760
0.1440638 0.063673623 0.05521119 4294901760
0.14223097 0.058923028 0.063966073 4294901760
0.13885495 0.053808369 0.072029456 4294901760
0.13403425 0.048478834 0.079166137 4294901760
0.12790945 0.043089889 0.085167937 4294901760
0.12065925 0.037798725 0.089859784 4294901760
0.11249511 0.032759681 0.093104817 4294901760
0.10365518 0.028119752 0.094808377 4294901760
0.094397329 0.024014279 0.094920777 4294901760
0.084991604 0.020563021 0.093438737 4294901760
0.07571236 0.017866647 0.090405494 4294901760
0.13952859 0.05474532 0.070605934 4294901760
0.13619092 0.049638133 0.078689992 4294901760
0.1314055 0.044312168 0.085853033 4294901760
0.12531191 0.038922779 0.091886118 4294901760
0.11808793 0.033627179 0.096613266 4294901760
0.10994425 0.028579835 0.099896587 4294901760
0.10111843 0.023927979 0.1016403 4294901760
0.091867916 0.019807305 0.10179354 4294901760
0.082462557 0.016338011 0.10035185 4294901760
0.073176682 0.013621298 0.097357273 4294901760
0.064281181 0.011736411 0.092897162 4294901760
0.13232903 0.045281034 0.084601447 4294901760
0.12757899 0.039958738 0.091790721 4294901760
0.12151673 0.03456901 0.097854987 4294901760
0.11431909 0.029269075 0.10261735 4294901760
0.10619603 0.024213526 0.10593888 4294901760
0.09738449 0.019549834 0.10772271 4294901760
0.088141501 0.015414036 0.10791679 4294901760
0.078736678 0.011926776 0.10651547 4294901760
0.069444358 0.0091897734 0.10355963 4294901760
0.060535602 0.007282868 0.099135473 4294901760
0.052270275 0.0062616835 0.093372062 4294901760
0.12266458 0.035542957 0.096810013 4294901760
0.11663376 0.030152995 0.10290533 4294901760
0.10946261 0.024848826 0.10770281 4294901760
0.10136032 0.019785166 0.11106251 4294901760
0.092563219 0.015109725 0.11288642 4294901760
0.083327927 0.010958884 0.11312134 4294901760
0.073923826 0.0074537219 0.11176042 4294901760
0.064625233 0.0046964833 0.10884336 4294901760
0.055703398 0.0027675971 0.10445525 4294901760
0.047418557 0.0017233278 0.098724075 4294901760
0.040012382 0.0015941369 0.091817036 4294901760
0.11080297 0.025800865 0.10689341 4294901760
0.10365845 0.020492561 0.11172591 4294901760
0.095577084 0.01542089 0.1151237 4294901760
0.086794592 0.01073379 0.11698766 4294901760
0.077567168 0.0065679834 0.11726341 4294901760
0.068163969 0.0030449862 0.11594293 4294901760
0.058859285 0.00026756374 0.1130647 4294901760
0.049924534 -0.0016832673 0.10871271 4294901760
0.04162034 -0.0027506014 0.10301389 4294901760
0.034188934 -0.0029033048 0.096134484 4294901760
0.027847087 -0.0021369229 0.088275157 4294901760
0.097072817 0.01632465 0.11457228 4294901760
0.089012526 0.011245063 0.1180081 4294901760
0.080244817 0.0065463926 0.11991207 4294901760
0.071025439 0.0023657 0.12022865 4294901760
0.061623316 -0.0011750648 0.11894861 4294901760
0.052312717 -0.0039726184 0.11610928 4294901760
0.043365221 -0.0059453566 0.1117935 4294901760
0.035041831 -0.0070357355 0.10612714 4294901760
0.027585335 -0.0072119483 0.0992755 4294901760
0.021213239 -0.0064688553 0.091438435 4294901760
0.016111417 -0.0048281322 0.082844548 4294901760
0.081854492 0.0073768366 0.11963391 4294901760
0.073101729 0.002666686 0.12157785 4294901760
0.063890569 -0.0015288129 0.12193526 4294901760
0.054489709 -0.0050872779 0.12069569 4294901760
0.045173369 -0.0079049096 0.11789531 4294901760
0.036213301 -0.0098995175 0.11361581 4294901760
0.027870873 -0.01101292 0.10798202 4294901760
0.02038943 -0.01121264 0.10115828 4294901760
0.013987204 -0.010492849 0.09334363 4294901760
0.008850948 -0.0088745458 0.084766023 4294901760
0.0051304847 -0.0064049354 0.075675666 4294901760
0.13296987 0.092301562 -0.0099983569 4294901760
0.13763787 0.089212276 -0.0015578863 4294901760
0.14082977 0.085284606 0.0072148256 4294901760
0.14245248 0.080633104 0.01606388 4294901760
0.14245868 0.075393476 0.024731152 4294901760
0.14084816 0.069718547 0.032963816 4294901760
0.13766791 0.063773856 0.040521733 4294901760
0.1330107 0.057732813 0.047184434 4294901760
0.12701239 0.051771626 0.052757569 4294901760
0.11984794 0.046064191 0.057078574 4294901760
0.11172632 0.040776983 0.060021408 4294901760
0.14031719 0.086027779 0.0056201373 4294901760
0.14354812 0.082120173 0.014387527 4294901760
0.14521165 0.077485546 0.023237849 4294901760
0.14525931 0.072259083 0.031912941 4294901760
0.14368966 0.066593245 0.040159751 4294901760
0.14054851 0.06065331 0.047737725 4294901760
0.13592748 0.054612532 0.05442581 4294901760
0.12996137 0.048647128 0.060028918 4294901760
0.1228242 0.042931102 0.064383604 4294901760
0.11472417 0.037631195 0.067362852 4294901760
0.10589756 0.032901999 0.068879746 4294901760
0.14497831 0.078351378 0.021639736 4294901760
0.14668266 0.073733702 0.030491158 4294901760
0.14677176 0.068520516 0.039173905 4294901760
0.14524302 0.062863879 0.047434706 4294901760
0.14214101 0.056928806 0.055032589 4294901760
0.13755625 0.050888412 0.06174593 4294901760
0.13162246 0.044918902 0.067378901 4294901760
0.12451272 0.039194398 0.071767196 4294901760
0.11643444 0.033881888 0.074782796 4294901760
0.10762323 0.029136334 0.076337747 4294901760
0.098336153 0.025096165 0.076386683 4294901760
0.14682412 0.069485024 0.037616644 4294901760
0.14695469 0.064285204 0.046306882 4294901760
0.14546686 0.05863788 0.054581512 4294901760
0.14240408 0.05270778 0.062199164 4294901760
0.13785566 0.046667889 0.068937637 4294901760
0.1319543 0.040694382 0.074600369 4294901760
0.12487213 0.03496151 0.079022169 4294901760
0.11681573 0.029636499 0.082074076 4294901760
0.10802011 0.024874676 0.083667047 4294901760
0.098741844 0.020814946 0.083754621 4294901760
0.08925157 0.01757573 0.082334243 4294901760
0.14580348 0.059674338 0.053108241 4294901760
0.14435662 0.054036431 0.061396543 4294901760
0.1413331 0.04811142 0.069033824 4294901760
0.13682114 0.04207214 0.075797297 4294901760
0.13095231 0.036094755 0.081489675 4294901760
0.12389784 0.030353624 0.085944913 4294901760
0.11586348 0.025016213 0.089033052 4294901760
0.10708362 0.020238213 0.090664014 4294901760
0.097814344 0.016159 0.090790227 4294901760
0.088326044 0.012897562 0.089408003 4294901760
0.078895487 0.010549036 0.086557664 4294901760
0.14194465 0.049191114 0.067685358 4294901760
0.13896047 0.043271307 0.075342111 4294901760
0.13448501 0.037232757 0.082130454 4294901760
0.12864885 0.031251606 0.087852374 4294901760
0.1216222 0.025502324 0.092340961 4294901760
0.11361005 0.020152615 0.095465288 4294901760
0.1048461 0.015358529 0.09713421 4294901760
0.095585994 0.011259911 0.097299054 4294901760
0.086099856 0.0079763131 0.095955007 4294901760
0.076664381 0.0056035211 0.093141273 4294901760
0.067554809 0.0042107468 0.088939935 4294901760
0.13535453 0.038325779 0.080944158 4294901760
0.1309157 0.032288071 0.087757245 4294901760
0.1251123 0.026303269 0.093508594 4294901760
0.11811362 0.020545945 0.098030448 4294901760
0.11012382 0.015184039 0.10119089 4294901760
0.10137595 0.010373958 0.10289775 4294901760
0.0921252 0.0062560118 0.10310122 4294901760
0.082641393 0.0029503184 0.10179537 4294901760
0.073201187 0.00055330532 0.099018298 4294901760
0.064079933 -0.00086510729 0.09485101 4294901760
0.055543713 -0.0012635445 0.089415058 4294901760
0.12621571 0.027379334 0.092517324 4294901760
0.12044519 0.021390993 0.098297998 4294901760
0.11347461 0.015625738 0.10285302 4294901760
0.10550732 0.010251738 0.10604953 4294901760
0.096775703 0.005425754 0.10779428 4294901760
0.087534472 0.0012885577 0.10803638 4294901760
0.078053191 -0.0020391692 0.10676876 4294901760
0.068608418 -0.0044603571 0.1040284 4294901760
0.059475668 -0.0059043812 0.099895246 4294901760
0.050921332 -0.0063291187 0.09448985 4294901760
0.043194946 -0.0057221809 0.087969884 4294901760
0.11478136 0.016655039 0.10208424 4294901760
0.10783902 0.01088196 0.10667235 4294901760
0.099894382 0.0054959692 0.10990487 4294901760
0.091179185 0.00065417297 0.11168748 4294901760
0.081947647 -0.0035021938 0.1119682 4294901760
0.072469063 -0.0068518906 0.11073883 4294901760
0.063019916 -0.0092972079 0.10803524 4294901760
0.053875834 -0.010766815 0.10393629 4294901760
0.04530355 -0.011217846 0.098561548 4294901760
0.037553117 -0.010637142 0.092067786 4294901760
0.03085061 -0.0090416428 0.084644437 4294901760
0.10136825 0.0064499895 0.10937987 4294901760
0.093446419 0.0010521089 0.11264832 4294901760
0.084747799 -0.0038054069 0.11446877 4294901760
0.075526148 -0.0079808645 0.1147881 4294901760
0.06605044 -0.011352468 0.11359701 4294901760
0.056597095 -0.013821867 0.11093023 4294901760
0.047441859 -0.015317031 0.10686557 4294901760
0.038851786 -0.015794344 0.10152158 4294901760
0.031077452 -0.015239886 0.095054157 4294901760
0.024345629 -0.013669829 0.087651931 4294901760
0.018852687 -0.01112997 0.079530843 4294901760
0.086347967 -0.0029530965 0.1142021 4294901760
0.077666104 -0.0078262398 0.11606034 4294901760
0.068454497 -0.012020709 0.11641828 4294901760
0.058981854 -0.015414155 0.11526549 4294901760
0.04952449 -0.01790759 0.11263559 4294901760
0.040358271 -0.019428281 0.10860529 4294901760
0.031750575 -0.01993187 0.10329216 4294901760
0.02395249 -0.019403666 0.096851178 4294901760
0.017191481 -0.017859079 0.08947023 4294901760
0.011664768 -0.015343163 0.081364617 4294901760
0.0075335614 -0.011929307 0.072770774 4294901760
0.13181798 0.094989792 -0.0081465077 4294901760
0.13686065 0.09102612 -0.00030838064 4294901760
0.14043909 0.086196348 0.0078429002 4294901760
0.14244895 0.080641359 0.016069565 4294901760
0.14283158 0.074523196 0.024131641 4294901760
0.14157583 0.068020329 0.031793959 4294901760
0.13871832 0.061322439 0.038833015 4294901760
0.13434242 0.0546249 0.045043476 4294901760
0.12857576 0.048123084 0.050244186 4294901760
0.12158655 0.042006645 0.054283444 4294901760
0.11357868 0.036454 0.057043418 4294901760
0.13985637 0.087103233 0.0063609863 4294901760
0.14347367 0.082293905 0.014507208 4294901760
0.14552447 0.076755494 0.022734938 4294901760
0.14594898 0.070649542 0.030804172 4294901760
0.14473478 0.06415417 0.038479537 4294901760
0.1419173 0.05745884 0.04553714 4294901760
0.13757874 0.050758854 0.051771112 4294901760
0.13184565 0.044249646 0.056999613 4294901760
0.12488525 0.038121097 0.061070122 4294901760
0.11690058 0.03255197 0.063863911 4294901760
0.10812455 0.027704714 0.065299481 4294901760
0.14522132 0.077784255 0.021249061 4294901760
0.14731306 0.072262518 0.029477699 4294901760
0.14777941 0.066168897 0.03755394 4294901760
0.14660679 0.059681144 0.045242202 4294901760
0.14382941 0.052988499 0.052318219 4294901760
0.13952827 0.046286188 0.058575582 4294901760
0.13382883 0.03976972 0.063831769 4294901760
0.12689738 0.033629172 0.067933463 4294901760
0.11893606 0.028043671 0.070761003 4294901760
0.11017713 0.023176137 0.072231926 4294901760
0.10087608 0.019168561 0.072303317 4294901760
0.14776424 0.067291036 0.036105264 4294901760
0.14827244 0.061209857 0.044188358 4294901760
0.14714143 0.054729845 0.051889371 4294901760
0.14440417 0.048040014 0.058983665 4294901760
0.14014053 0.041335508 0.065264307 4294901760
0.13447489 0.034811899 0.07054808 4294901760
0.12757249 0.028659476 0.074680872 4294901760
0.11963469 0.023057705 0.077542119 4294901760
0.11089301 0.018169986 0.079048365 4294901760
0.10160247 0.014138898 0.079155669 4294901760
0.092034064 0.011082023 0.077860907 4294901760
0.14741464 0.055914268 0.050518032 4294901760
0.14632525 0.04944212 0.058231648 4294901760
0.14362818 0.042755231 0.065344088 4294901760
0.13940214 0.036048662 0.071647882 4294901760
0.13377038 0.029518034 0.076959148 4294901760
0.12689717 0.02335385 0.081122957 4294901760
0.11898302 0.017735915 0.08401785 4294901760
0.11025878 0.012828106 0.08555939 4294901760
0.10097893 0.0087735821 0.085702613 4294901760
0.091414154 0.005690611 0.084443323 4294901760
0.081843466 0.0036691243 0.081818275 4294901760
0.14418222 0.043969132 0.064088076 4294901760
0.1415254 0.037285313 0.07121852 4294901760
0.13733703 0.030576803 0.077545345 4294901760
0.13173926 0.024039283 0.082883999 4294901760
0.12489539 0.017863456 0.08707875 4294901760
0.11700505 0.012229467 0.090007246 4294901760
0.1082984 0.0073016593 0.091584049 4294901760
0.099029407 0.0032237757 0.091763176 4294901760
0.089468457 0.00011476785 0.090539396 4294901760
0.079894431 -0.0019346753 0.087948412 4294901760
0.070586607 -0.0028647718 0.084065795 4294901760
0.13815653 0.03178655 0.076439455 4294901760
0.1340059 0.025076225 0.082789198 4294901760
0.12844224 0.018531939 0.088155136 4294901760
0.12162783 0.012344586 0.092380747 4294901760
0.11376145 0.0066946484 0.095342778 4294901760
0.10507256 0.0017469358 0.096954823 4294901760
0.095814608 -0.0023542286 0.097169854 4294901760
0.086257659 -0.0054892148 0.095981605 4294901760
0.076680481 -0.0075665754 0.09342473 4294901760
0.067362435 -0.0085257143 0.089573823 4294901760
0.058575336 -0.0083386535 0.084541209 4294901760
0.12950452 0.019704018 0.087230004 4294901760
0.12397506 0.013153087 0.092623129 4294901760
0.11719024 0.0069543258 0.09687952 4294901760
0.10934797 0.0012885488 0.099875033 4294901760
0.100677 -0.0036789742 0.10152228 4294901760
0.091430269 -0.0078033418 0.10177322 4294901760
0.081877507 -0.010964246 0.10062052 4294901760
0.072297357 -0.013069484 0.098097809 4294901760
0.062969267 -0.014057647 0.094278678 4294901760
0.054165352 -0.013899911 0.089274533 4294901760
0.046142407 -0.012600875 0.083231337 4294901760
0.11846586 0.0080562653 0.096160777 4294901760
0.11171076 0.0018462138 0.10044787 4294901760
0.10389274 -0.0038352958 0.10347681 4294901760
0.095239863 -0.0088225352 0.10515923 4294901760
0.086004533 -0.012970027 0.10544606 4294901760
0.07645613 -0.016156789 0.10432894 4294901760
0.066873193 -0.018289866 0.10184044 4294901760
0.057535242 -0.019307034 0.098053165 4294901760
0.048714675 -0.019178623 0.093077578 4294901760
0.040668778 -0.017908381 0.087058827 4294901760
0.033632252 -0.01553336 0.080172464 4294901760
0.10534637 -0.0028340225 0.10298437 4294901760
0.097552761 -0.008531156 0.10604667 4294901760
0.088918142 -0.013538016 0.10776423 4294901760
0.079694375 -0.017708553 0.10808696 4294901760
0.070150524 -0.020921113 0.10700542 4294901760
0.060564972 -0.023081986 0.10455119 4294901760
0.05121734 -0.024128141 0.10079584 4294901760
0.042380288 -0.024029061 0.095848911 4294901760
0.034311596 -0.022787636 0.08985471 4294901760
0.027246622 -0.020440077 0.082988091 4294901760
0.021391451 -0.017054865 0.075449347 4294901760
0.090509497 -0.012665148 0.10751173 4294901760
0.081893295 -0.017691534 0.1092644 4294901760
0.072681278 -0.021885037 0.10962301 4294901760
0.063142151 -0.025123334 0.10857709 4294901760
0.053554181 -0.027311962 0.10615717 4294901760
0.044197038 -0.028387083 0.10243381 4294901760
0.035343673 -0.028317334 0.097515635 4294901760
0.027252335 -0.02710475 0.091546111 4294901760
0.020159049 -0.024784701 0.084699355 4294901760
0.014270722 -0.021424862 0.077175096 4294901760
0.009759116 -0.017123241 0.069192819 4294901760
0.13077328 0.097471319 -0.0059708743 4294901760
0.13615574 0.092700481 0.0011595923 4294901760
0.14008477 0.087037981 0.0085807899 4294901760
0.14244574 0.080648974 0.016076243 4294901760
0.14316979 0.073719844 0.023427311 4294901760
0.1422358 0.066452697 0.030419564 4294901760
0.139671 0.059059519 0.036849041 4294901760
0.13555023 0.051755968 0.04252819 4294901760
0.12999368 0.044755094 0.047291357 4294901760
0.12316342 0.038261101 0.0509996 4294901760
0.1152587 0.032463424 0.053544752 4294901760
0.13943842 0.088095985 0.0072313673 4294901760
0.14340615 0.082454279 0.014647814 4294901760
0.14580819 0.076081581 0.022144096 4294901760
0.14657448 0.069163769 0.029501544 4294901760
0.14568266 0.061902642 0.036505546 4294901760
0.14315876 0.054510001 0.0429518 4294901760
0.13907638 0.047201492 0.048652261 4294901760
0.13355462 0.040190302 0.053440653 4294901760
0.12675454 0.033680946 0.057177298 4294901760
0.11887449 0.027863301 0.059753202 4294901760
0.11014435 0.022907065 0.061093222 4294901760
0.14544173 0.07726074 0.020790078 4294901760
0.14788479 0.070904456 0.028287044 4294901760
0.14869331 0.063998103 0.035650734 4294901760
0.14784369 0.056743134 0.042666353 4294901760
0.14536071 0.049351174 0.049129255 4294901760
0.1413168 0.042037845 0.054850921 4294901760
0.13582994 0.035016473 0.059664447 4294901760
0.12906016 0.028491877 0.063429423 4294901760
0.12120494 0.022654371 0.066036031 4294901760
0.11249341 0.017674241 0.067408234 4294901760
0.10317969 0.013696751 0.067506 4294901760
0.14861687 0.065265752 0.034329634 4294901760
0.14946759 0.058370985 0.041699428 4294901760
0.14866018 0.051122312 0.048726529 4294901760
0.14621818 0.043731168 0.05520596 4294901760
0.14221284 0.036413155 0.060948718 4294901760
0.13676096 0.029381741 0.065787286 4294901760
0.13002162 0.022842025 0.069580525 4294901760
0.12219137 0.016984776 0.072217785 4294901760
0.11349863 0.011980842 0.073622137 4294901760
0.10419695 0.007976192 0.073752627 4294901760
0.09455768 0.0050876383 0.072605431 4294901760
0.14887589 0.052443326 0.047474943 4294901760
0.1481107 0.045201082 0.054513391 4294901760
0.14570974 0.037810899 0.061009228 4294901760
0.14174302 0.030488346 0.066772968 4294901760
0.13632625 0.023447018 0.071636491 4294901760
0.12961747 0.01689231 0.075457916 4294901760
0.12181233 0.011015425 0.078125782 4294901760
0.11313853 0.0059877862 0.079562262 4294901760
0.10384908 0.0019560517 0.079725459 4294901760
0.094214961 -0.00096217479 0.078610614 4294901760
0.084517173 -0.0026817685 0.07625024 4294901760
0.14621161 0.039148685 0.059861831 4294901760
0.14385171 0.031759601 0.066373952 4294901760
0.13992369 0.024432644 0.072158568 4294901760
0.13454215 0.01738154 0.077046938 4294901760
0.12786405 0.010811965 0.080896482 4294901760
0.12008418 0.0049155555 0.083594903 4294901760
0.1114295 -0.00013569255 0.08506348 4294901760
0.10215245 -0.0041944347 0.085259393 4294901760
0.092523649 -0.0071422784 0.084176913 4294901760
0.082823962 -0.0088932356 0.081847616 4294901760
0.073336333 -0.0093962308 0.078339458 4294901760
0.14069785 0.025750142 0.071147144 4294901760
0.1368086 0.018418921 0.076952524 4294901760
0.13146238 0.011358171 0.081865661 4294901760
0.12481508 0.0047738547 0.085743241 4294901760
0.11706064 -0.0011419662 0.088472165 4294901760
0.10842523 -0.0062167277 0.089972816 4294901760
0.099160761 -0.0103024 0.09020143 4294901760
0.089537472 -0.013279805 0.089151338 4294901760
0.079836071 -0.015062093 0.086853169 4294901760
0.070339538 -0.015597273 0.083373956 4294901760
0.061324902 -0.014869736 0.078815199 4294901760
0.13248734 0.012618879 0.081018232 4294901760
0.12717652 0.0055486206 0.085956044 4294901760
0.12056017 -0.0010503131 0.089861594 4294901760
0.11283129 -0.0069854325 0.092620961 4294901760
0.10421532 -0.012083611 0.094153665 4294901760
0.09496361 -0.016196135 0.094414979 4294901760
0.085346013 -0.019203044 0.09339729 4294901760
0.075643077 -0.021016629 0.091130286 4294901760
0.066137835 -0.021583984 0.087680094 4294901760
0.057107549 -0.020888561 0.083147354 4294901760
0.048815638 -0.018950645 0.077664286 4294901760
0.12180756 0.00011867976 0.089201637 4294901760
0.11522228 -0.0064947451 0.093135081 4294901760
0.10751911 -0.01244905 0.095924854 4294901760
0.098922752 -0.017570548 0.097489566 4294901760
0.089683965 -0.021709848 0.09778358 4294901760
0.080072246 -0.024746204 0.096798316 4294901760
0.070367962 -0.02659105 0.094562523 4294901760
0.060854185 -0.027190568 0.091141418 4294901760
0.051808432 -0.026527273 0.086634785 4294901760
0.043494564 -0.024620513 0.081174083 4294901760
0.036155097 -0.021525906 0.074918605 4294901760
0.10895437 -0.011404157 0.095470652 4294901760
0.10127705 -0.017377533 0.098290764 4294901760
0.092700474 -0.022522254 0.09988746 4294901760
0.083474793 -0.02668825 0.10021416 4294901760
0.073869139 -0.029753996 0.099261351 4294901760
0.064163685 -0.031630065 0.097056806 4294901760
0.05464156 -0.032261737 0.093664847 4294901760
0.045580506 -0.031630583 0.089184411 4294901760
0.037244838 -0.029755015 0.083746187 4294901760
0.029877709 -0.026689742 0.077508807 4294901760
0.023694014 -0.022524176 0.070654221 4294901760
0.094283842 -0.021630408 0.099651597 4294901760
0.085727192 -0.026798254 0.10128025 4294901760
0.076514795 -0.030990865 0.10163964 4294901760
0.066915378 -0.034085941 0.10071929 4294901760
0.057208955 -0.035993204 0.098546043 4294901760
0.047678653 -0.036657017 0.095183291 4294901760
0.038602475 -0.036058012 0.090729132 4294901760
0.03024517 -0.034213673 0.085313484 4294901760
0.022850517 -0.031177789 0.079094328 4294901760
0.016634222 -0.027038921 0.072253071 4294901760
0.011777609 -0.021917796 0.064989276 4294901760
0.1298496 0.099713199 -0.0035003358 4294901760
0.13553251 0.094213158 0.0028265479 4294901760
0.13977149 0.087798335 0.0094186999 4294901760
0.14244291 0.080655858 0.016083827 4294901760
0.14346881 0.072994061 0.022627508 4294901760
0.1428193 0.065036446 0.028858868 4294901760
0.14051332 0.057015132 0.034596138 4294901760
0.13661811 0.049164094 0.039671957 4294901760
0.13124731 0.041712351 0.043938275 4294901760
0.12455759 0.034877267 0.047270637 4294901760
0.11674409 0.028858224 0.049571842 4294901760
0.1390689 0.088992871 0.0082197282 4294901760
0.14334646 0.082599171 0.01480748 4294901760
0.14605904 0.07547275 0.021473166 4294901760
0.14712752 0.06782148 0.028022347 4294901760
0.14652073 0.059868544 0.034263987 4294901760
0.14425638 0.051845938 0.040016014 4294901760
0.14040051 0.043987673 0.04511065 4294901760
0.1350656 0.036522977 0.049399279 4294901760
0.12840725 0.029669588 0.052756805 4294901760
0.12061971 0.023627425 0.05508529 4294901760
0.11193014 0.018572731 0.056316812 4294901760
0.14563659 0.076787777 0.02026888 4294901760
0.14839029 0.069677547 0.026934996 4294901760
0.14950132 0.06203695 0.033489551 4294901760
0.14893727 0.054088853 0.039741352 4294901760
0.1467146 0.046065111 0.045508035 4294901760
0.14289813 0.038199767 0.050621383 4294901760
0.1375992 0.030722257 0.054932244 4294901760
0.13097237 0.023850694 0.058314871 4294901760
0.12321095 0.017785525 0.060670592 4294901760
0.11454134 0.012703668 0.061930694 4294901760
0.10521642 0.0087533593 0.062058415 4294901760
0.14937073 0.063436054 0.032313317 4294901760
0.15052429 0.055806268 0.038873121 4294901760
0.15000299 0.047863159 0.045134965 4294901760
0.14782204 0.039838433 0.050916187 4294901760
0.14404504 0.031966161 0.056048155 4294901760
0.13878219 0.024475979 0.060381167 4294901760
0.13218701 0.017586375 0.063788824 4294901760
0.12445185 0.011498317 0.066171743 4294901760
0.11580236 0.0063893916 0.067460395 4294901760
0.10649084 0.0024086267 0.0676172 4294901760
0.09678892 -0.00032786044 0.066637583 4294901760
0.15016785 0.049307574 0.044019364 4294901760
0.1496893 0.041369606 0.050291128 4294901760
0.14755012 0.033344045 0.056086786 4294901760
0.14381269 0.025464997 0.061237268 4294901760
0.13858601 0.017962286 0.065592349 4294901760
0.13202259 0.011054771 0.06902498 4294901760
0.12431385 0.0049439399 0.071435042 4294901760
0.11568465 -0.00019195498 0.072752222 4294901760
0.10638672 -0.0042031007 0.072938107 4294901760
0.096691273 -0.0069724922 0.071987279 4294901760
0.086881116 -0.008419347 0.069927461 4294901760
0.14800589 0.034793757 0.055062722 4294901760
0.1459085 0.026767515 0.0608727 4294901760
0.14221069 0.018881837 0.066041604 4294901760
0.1370203 0.011366742 0.070418671 4294901760
0.13048877 0.0044414462 0.07387621 4294901760
0.12280658 -0.001692042 0.076313369 4294901760
0.11419784 -0.0068548094 0.077659056 4294901760
0.10491367 -0.010896259 0.07787402 4294901760
0.09522488 -0.013698502 0.076951988 4294901760
0.085414089 -0.015179798 0.074919865 4294901760
0.07576748 -0.015296939 0.071836911 4294901760
0.14294472 0.020296678 0.065137461 4294901760
0.13928661 0.01240452 0.070324689 4294901760
0.13413261 0.0048771841 0.074723653 4294901760
0.12763308 -0.0020657605 0.078206025 4294901760
0.11997759 -0.0082217883 0.080670245 4294901760
0.11138948 -0.01341133 0.082044408 4294901760
0.10211924 -0.017483005 0.082288444 4294901760
0.092437297 -0.020318048 0.081395239 4294901760
0.082626067 -0.021833757 0.079390831 4294901760
0.072971731 -0.021985922 0.076333709 4294901760
0.063755915 -0.020770101 0.072313026 4294901760
0.13512458 0.0062179621 0.073964462 4294901760
0.13000707 -0.001321473 0.078385241 4294901760
0.12353967 -0.0082819331 0.081892394 4294901760
0.11591104 -0.014460384 0.084383614 4294901760
0.10734371 -0.0196766 0.085786231 4294901760
0.098087594 -0.023778427 0.086059339 4294901760
0.088412672 -0.026646214 0.085194968 4294901760
0.078601174 -0.028196307 0.083218329 4294901760
0.068939298 -0.028383492 0.080187082 4294901760
0.059708878 -0.027202308 0.076189645 4294901760
0.051179159 -0.02468721 0.071342625 4294901760
0.1247621 -0.0070523624 0.081299193 4294901760
0.11832696 -0.014030207 0.084831052 4294901760
0.11072534 -0.020230962 0.087349229 4294901760
0.10217895 -0.025473755 0.088780276 4294901760
0.092937119 -0.029605651 0.08908245 4294901760
0.083269417 -0.032506127 0.088246927 4294901760
0.073457845 -0.034090575 0.086298093 4294901760
0.063788608 -0.034312777 0.083292782 4294901760
0.05454376 -0.033166252 0.079318665 4294901760
0.045992967 -0.030684445 0.074491665 4294901760
0.038385652 -0.026939746 0.06895259 4294901760
