# .PCD v0.7 - Point Cloud Data file format
VERSION 0.7
FIELDS x y z
SIZE 4 4 4
TYPE F F F
COUNT 1 1 1
WIDTH 112
HEIGHT 1
VIEWPOINT 0 0 0 1 0 0 0
POINTS 112
DATA ascii
-3.2440948 -0.21768594 1.4930313
-3.2501316 -0.20833957 1.4873052
-3.2561688 -0.19899325 1.4815793
-3.2752633 -0.18861796 1.463953
-3.2687349 -0.18913244 1.4699032
-3.2747717 -0.1797861 1.4641771
-3.2808089 -0.17043976 1.4584513
-3.2803173 -0.16160791 1.4586754
-3.2798257 -0.15277608 1.4588997
-3.2793341 -0.14394416 1.4591238
-3.298738 -0.13555014 1.4669526
-3.2723136 -0.13562681 1.4652982
-3.344667 -0.12692244 1.4763398
-3.291678 -0.12718618 1.4731617
-3.3375287 -0.11846536 1.4826176
-3.2911839 -0.11830488 1.4733872
-3.264802 -0.11847755 1.4716969
-3.337029 -0.1094852 1.4828455
-3.3105397 -0.10971594 1.4812543
-3.2841239 -0.10994094 1.4795961
-3.2577815 -0.11016016 1.4778712
-3.3298903 -0.10102811 1.4891238
-3.303441 -0.10130543 1.4874978
-3.2572899 -0.10132831 1.4780955
-3.3293905 -0.09204793 1.4893517
-3.3029437 -0.092374705 1.4877245
-3.2765703 -0.092695691 1.4860306
-3.3288908 -0.08306776 1.4895797
-3.3024468 -0.083443947 1.4879513
-3.2760758 -0.08381439 1.4862559
-3.2497778 -0.084179066 1.4844942
-3.401413 -0.068333305 1.4232566
-3.3947749 -0.068856411 1.4293067
-3.3881364 -0.069379523 1.4353569
-3.3814979 -0.069902636 1.441407
-3.3748593 -0.070425756 1.4474571
-3.3682213 -0.070948869 1.4535072
-3.3283911 -0.074087545 1.4898076
-3.3019495 -0.074513204 1.488178
-3.2755814 -0.074933074 1.4864814
-3.2492862 -0.075347193 1.4847183
-3.4141903 -0.05830691 1.4113846
-3.4075518 -0.058830015 1.4174345
-3.3806744 -0.059339665 1.4162033
-3.3740726 -0.059859894 1.42222
-3.3674707 -0.060380124 1.4282367
-3.3608689 -0.060900353 1.4342535
-3.3542671 -0.061420597 1.4402702
-3.3476653 -0.061940826 1.4462869
-3.361083 -0.062491804 1.4597852
-3.3544445 -0.063014932 1.4658356
-3.347806 -0.063538037 1.4718854
-3.3411679 -0.06406115 1.4779356
-3.3345294 -0.064584263 1.4839857
-3.3278909 -0.065107375 1.4900358
-3.3014522 -0.065582462 1.4884048
-3.2750869 -0.066051774 1.486707
-3.2487946 -0.066515349 1.4849427
-3.4136901 -0.049326725 1.4116125
-3.3867793 -0.049888678 1.410413
-3.3801775 -0.050408922 1.41643
-3.3735757 -0.050929151 1.4224467
-3.3468108 -0.0514796 1.421114
-3.3402457 -0.051996954 1.4270976
-3.3336802 -0.052514315 1.4330809
-3.347168 -0.053010084 1.4465137
-3.3405666 -0.053530313 1.4525306
-3.3339643 -0.05405055 1.4585474
-3.3273625 -0.054570779 1.4645641
-3.3207607 -0.055091009 1.4705808
-3.3141589 -0.055611245 1.4765978
-3.3075571 -0.056131482 1.4826145
-3.3009553 -0.056651719 1.4886315
-3.2745929 -0.057170488 1.4869323
-3.2483029 -0.05768349 1.4851668
-3.4131904 -0.040346541 1.4118404
-3.386282 -0.040957935 1.4106398
-3.3796802 -0.041478179 1.4166567
-3.3528819 -0.042080939 1.4153562
-3.3463163 -0.042598285 1.4213395
-3.3196278 -0.043192409 1.419939
-3.3331857 -0.043632999 1.4333065
-3.3266206 -0.044150352 1.43929
-3.3200555 -0.044667698 1.4452734
-3.3134899 -0.045185067 1.451257
-3.3069248 -0.045702413 1.4572406
-3.3003592 -0.046219766 1.4632239
-3.2937942 -0.046737112 1.4692073
-3.2872291 -0.047254466 1.4751909
-3.2806635 -0.047771819 1.4811745
-3.2543402 -0.048337139 1.4794407
-3.4126906 -0.031366356 1.4120684
-3.3857851 -0.032027192 1.4108665
-3.3589525 -0.032682292 1.4095981
-3.3523874 -0.033199638 1.4155815
-3.325665 -0.03384608 1.4142129
-3.3191361 -0.03436055 1.4201632
-3.3126073 -0.034875028 1.4261134
-3.3060784 -0.035389498 1.4320636
-3.2995501 -0.035903968 1.4380138
-3.2930212 -0.036418453 1.443964
-3.2864923 -0.036932923 1.4499142
-3.2799635 -0.037447393 1.4558642
-3.2734351 -0.037961863 1.4618144
-3.2669063 -0.03847634 1.4677646
-3.2603774 -0.038990811 1.4737148
-3.3918896 -0.02257622 1.4050765
-3.3650236 -0.023283631 1.4038401
-3.3382306 -0.023985282 1.4025371
-3.3317018 -0.024499752 1.4084871
-3.3710947 -0.013884977 1.398082
-3.3442678 -0.014638953 1.396811
