# .PCD v0.7 - Point Cloud Data file format
VERSION 0.7
FIELDS x y z
SIZE 4 4 4
TYPE F F F
COUNT 1 1 1
WIDTH 207
HEIGHT 1
VIEWPOINT 0 0 0 1 0 0 0
POINTS 207
DATA ascii
-0.036211763 0.026762038 0.253941
-0.036810625 0.027287759 0.25386959
-0.036246177 0.027323663 0.25388223
-0.035681721 0.027359575 0.25389487
-0.035117269 0.027395487 0.2539075
-0.03455282 0.027431399 0.25392014
-0.033988371 0.02746731 0.25393277
-0.033423919 0.027503215 0.25394538
-0.032859471 0.027539119 0.25395802
-0.032295018 0.027575031 0.25397065
-0.031730566 0.027610943 0.25398329
-0.031166121 0.027646855 0.25399593
-0.030601669 0.027682759 0.25400853
-0.030037217 0.027718663 0.25402117
-0.029258717 0.027381524 0.25307268
-0.03684504 0.027849376 0.25381082
-0.036035165 0.027511626 0.25286329
-0.035716135 0.0279212 0.2538361
-0.035151683 0.027957104 0.25384873
-0.034587234 0.027993008 0.25386137
-0.034022786 0.02802892 0.253874
-0.033458333 0.028064832 0.25388664
-0.032893885 0.028100744 0.25389928
-0.032329433 0.028136648 0.25391191
-0.03176498 0.028172553 0.25392452
-0.031200536 0.028208464 0.25393716
-0.030636083 0.028244376 0.25394979
-0.029854823 0.027904809 0.25300163
-0.029292975 0.027940549 0.25301421
-0.028731123 0.027976297 0.25302678
-0.027607422 0.028047785 0.25305194
-0.026282523 0.027742811 0.25211591
-0.025723275 0.027778387 0.25212842
-0.023486283 0.027920701 0.25217849
-0.022367787 0.027991854 0.25220352
-0.021808539 0.02802743 0.25221604
-0.036631271 0.028034918 0.25279224
-0.036069419 0.028070666 0.25280482
-0.035507571 0.028106406 0.25281739
-0.035186097 0.028518721 0.25378996
-0.034621648 0.028554633 0.2538026
-0.0340572 0.028590545 0.25381523
-0.033492748 0.028626457 0.25382787
-0.032928299 0.028662361 0.25384051
-0.032363847 0.028698266 0.25385314
-0.031799395 0.028734177 0.25386578
-0.03123495 0.028770089 0.25387841
-0.030670498 0.028806001 0.25389102
-0.029889077 0.02846384 0.25294313
-0.029327229 0.028499588 0.2529557
-0.028765377 0.028535329 0.25296828
-0.028203528 0.028571077 0.25298086
-0.027641676 0.028606817 0.25299343
-0.026875868 0.028263681 0.25204518
-0.02631662 0.028299257 0.2520577
-0.025757372 0.028334834 0.25207022
-0.02352038 0.028477147 0.25212029
-0.022401884 0.0285483 0.25214532
-0.021842636 0.028583877 0.25215784
-0.036665525 0.028593943 0.25273374
-0.036103673 0.02862969 0.25274631
-0.035541825 0.028665431 0.25275889
-0.035220511 0.029080331 0.25373119
-0.034656063 0.029116243 0.25374383
-0.034091614 0.029152155 0.25375646
-0.033527162 0.029188067 0.2537691
-0.032962713 0.029223971 0.25378174
-0.032398261 0.029259875 0.25379437
-0.031833809 0.029295787 0.25380701
-0.031269364 0.029331699 0.25381964
-0.030704912 0.029367611 0.25383228
-0.029923331 0.029022865 0.25288463
-0.029361483 0.029058613 0.2528972
-0.028799631 0.029094353 0.25290978
-0.028237782 0.029130101 0.25292236
-0.02767593 0.029165842 0.25293493
-0.026909966 0.028820112 0.25198698
-0.026350718 0.028855689 0.2519995
-0.02579147 0.028891265 0.25201201
-0.023554474 0.029033579 0.25206208
-0.022435978 0.029104739 0.25208712
-0.02187673 0.029140316 0.25209963
-0.036699783 0.029152982 0.25267524
-0.036137931 0.029188722 0.25268781
-0.035576083 0.02922447 0.25270039
-0.035254925 0.029641956 0.25367242
-0.034690477 0.029677868 0.25368506
-0.034126028 0.02971378 0.25369769
-0.033561576 0.029749691 0.25371033
-0.032997128 0.029785596 0.25372297
-0.032432675 0.0298215 0.2537356
-0.031868223 0.029857412 0.25374824
-0.031303778 0.029893324 0.25376087
-0.030739326 0.029929236 0.25377351
-0.029957589 0.029581904 0.25282615
-0.02939574 0.029617645 0.25283873
-0.028833888 0.029653393 0.25285131
-0.02827204 0.029689133 0.25286388
-0.027710188 0.029724881 0.25287646
-0.026944064 0.029376559 0.25192875
-0.026384816 0.029412135 0.25194126
-0.025825568 0.029447712 0.25195378
-0.023588572 0.029590026 0.25200385
-0.022470076 0.029661186 0.25202888
-0.021910828 0.029696763 0.2520414
-0.036734037 0.029712006 0.25261676
-0.036172185 0.029747747 0.25262934
-0.035610337 0.029783495 0.25264192
-0.035289336 0.030203581 0.25361368
-0.034724887 0.030239485 0.25362632
-0.034160439 0.03027539 0.25363892
-0.033595987 0.030311301 0.25365156
-0.033031538 0.030347213 0.2536642
-0.032467086 0.030383125 0.25367683
-0.031902634 0.030419037 0.25368947
-0.031338189 0.030454941 0.2537021
-0.030773737 0.030490845 0.25371474
-0.029991843 0.030140929 0.25276765
-0.029429995 0.030176669 0.25278023
-0.028868143 0.030212417 0.25279281
-0.028306294 0.030248158 0.25280538
-0.027537405 0.029897429 0.251858
-0.026978157 0.029933006 0.25187051
-0.026418909 0.029968582 0.25188303
-0.025859661 0.030004159 0.25189555
-0.023622669 0.030146472 0.25194561
-0.022504173 0.030217633 0.25197065
-0.036768291 0.030271046 0.25255826
-0.040514946 0.036038078 0.2608254
-0.040119961 0.035994448 0.26044127
-0.04054749 0.036581531 0.26073018
-0.04015252 0.036537901 0.26034606
-0.03975752 0.03649427 0.25996193
-0.03936255 0.036450639 0.25957778
-0.043115273 0.036800504 0.26181009
-0.042722151 0.036757082 0.26142776
-0.042329028 0.036713645 0.26104543
-0.041935906 0.036670223 0.26066312
-0.040580049 0.037124999 0.26063499
-0.041149661 0.036583379 0.25989848
-0.039790079 0.037037738 0.25986671
-0.039395094 0.036994107 0.25948259
-0.039000109 0.036950476 0.25909844
-0.043540791 0.037384823 0.26209763
-0.043147668 0.037341401 0.26171532
-0.042754546 0.037297979 0.26133302
-0.042361423 0.037254542 0.26095068
-0.041968301 0.03721112 0.26056835
-0.041575179 0.037167698 0.26018605
-0.041182071 0.037124276 0.25980371
-0.040788934 0.037080839 0.25942138
-0.040395826 0.037037417 0.25903907
-0.040002704 0.036993995 0.25865677
-0.043573201 0.03792572 0.26200289
-0.043180078 0.037882298 0.26162055
-0.042786956 0.037838876 0.26123825
-0.042393833 0.037795439 0.26085594
-0.042000711 0.037752017 0.26047361
-0.041607589 0.037708595 0.26009127
-0.041214466 0.037665173 0.25970897
-0.040821344 0.037621737 0.25932664
-0.040428221 0.037578315 0.25894433
-0.040035099 0.037534893 0.258562
-0.039641976 0.037491471 0.25817969
-0.043212473 0.038423195 0.26152581
-0.042819351 0.038379773 0.26114348
-0.042426229 0.038336352 0.26076117
-0.042033106 0.03829293 0.26037887
-0.041639984 0.038249493 0.25999653
-0.041246861 0.038206071 0.2596142
-0.040853739 0.038162649 0.2592319
-0.040460616 0.038119227 0.25884956
-0.040067494 0.03807579 0.25846726
-0.043637991 0.039007515 0.26181337
-0.043244869 0.038964093 0.26143107
-0.042851746 0.038920671 0.26104873
-0.042458624 0.038877234 0.26066643
-0.042065501 0.038833812 0.2602841
-0.041672379 0.03879039 0.25990179
-0.041279256 0.038746968 0.25951946
-0.040886134 0.038703531 0.25913712
-0.040493011 0.038660109 0.25875482
-0.040099889 0.038616687 0.25837252
-0.039706782 0.038573265 0.25799018
-0.040286958 0.038022608 0.25726631
-0.043277279 0.03950499 0.2613363
-0.042884156 0.039461568 0.26095399
-0.042491034 0.039418146 0.26057166
-0.042097911 0.039374724 0.26018935
-0.041704789 0.039331287 0.25980702
-0.041311666 0.039287865 0.25942472
-0.040918544 0.039244443 0.25904238
-0.041492999 0.038690612 0.25831357
-0.040132299 0.039157584 0.25827774
-0.040710479 0.03860417 0.25755253
-0.040319204 0.038560949 0.25717202
-0.043309674 0.040045887 0.26124156
-0.042916551 0.040002465 0.26085922
-0.043481529 0.039445035 0.26012179
-0.043090269 0.039401814 0.25974128
-0.042699009 0.039358594 0.25936076
-0.042307764 0.039315373 0.25898027
-0.04191649 0.039272159 0.25859976
-0.041525245 0.039228939 0.25821927
-0.04113397 0.039185718 0.25783876
-0.040742725 0.039142497 0.25745824
-0.04035145 0.039099276 0.25707772
