# .PCD v0.7 - Point Cloud Data file format
VERSION 0.7
FIELDS x y z
SIZE 4 4 4
TYPE F F F
COUNT 1 1 1
WIDTH 1232
HEIGHT 1
VIEWPOINT 0 0 0 1 0 0 0
POINTS 1232
DATA ascii
0.14460713 -0.006571997 0.34062332
0.14511882 -0.0066123195 0.34108967
0.14413399 -0.0058394931 0.34017456
0.14464566 -0.0058798119 0.3406409
0.14564574 -0.0061118044 0.34020433
0.14615549 -0.0061519742 0.34066892
0.1471498 -0.0063835271 0.34022707
0.14814025 -0.006614767 0.33978173
0.14864615 -0.0066546313 0.3402428
0.14963083 -0.0068854131 0.33979219
0.15013482 -0.0069251284 0.34025151
0.1506388 -0.0069648437 0.34071085
0.15161581 -0.0071950182 0.3402532
0.15211788 -0.0072345883 0.34071079
0.14415485 -0.0053017177 0.33882809
0.1446646 -0.0053418875 0.33929268
0.14517435 -0.0053820573 0.33975726
0.14617237 -0.0056165084 0.33931884
0.14668021 -0.0056565255 0.33978167
0.14767243 -0.0058905184 0.339338
0.14817834 -0.0059303865 0.33979911
0.1491648 -0.0061639212 0.33935019
0.14966878 -0.0062036365 0.33980951
0.15064949 -0.0064367205 0.33935529
0.15115155 -0.0064762831 0.33981287
0.15165362 -0.0065158457 0.34027046
0.15215568 -0.0065554157 0.34072804
0.15312675 -0.0067877397 0.3402651
0.10920225 -0.0013795495 0.31099921
0.10971779 -0.0014201738 0.31146905
0.11023331 -0.0014607981 0.31193888
0.11290279 -0.001829572 0.31302392
0.1144436 -0.0019509904 0.31442818
0.11487307 -0.0018264167 0.31616747
0.14368346 -0.0045719631 0.33838102
0.14419323 -0.0046121329 0.33884561
0.14519495 -0.0048494935 0.33841062
0.14570278 -0.0048895106 0.33887345
0.14621061 -0.0049295276 0.33933628
0.14720461 -0.0051662736 0.33889431
0.14771052 -0.0052061416 0.33935541
0.14869876 -0.0054424293 0.33890817
0.14920275 -0.0054821447 0.33936751
0.15018523 -0.0057179853 0.33891499
0.15068729 -0.0057575479 0.33937255
0.15118936 -0.0057971105 0.33983013
0.15216413 -0.0060323477 0.33937061
0.15266427 -0.0060717575 0.33982643
0.15316442 -0.0061111711 0.34028226
0.1541315 -0.0063457936 0.33981574
0.10831901 -0.00077053532 0.30882874
0.10883263 -0.00081100687 0.30929685
0.10934623 -0.00085147843 0.30976492
0.10985982 -0.00089194998 0.310233
0.11037344 -0.00093242526 0.3107011
0.11088704 -0.00097289681 0.31116921
0.11140065 -0.0010133684 0.31163728
0.11191425 -0.0010538436 0.31210536
0.11303702 -0.0013033487 0.31178078
0.1135487 -0.0013436712 0.3122471
0.11345506 -0.001175262 0.31350964
0.11396867 -0.0012157336 0.31397772
0.11448228 -0.0012562051 0.31444582
0.11499588 -0.0012966804 0.3149139
0.11550948 -0.001337152 0.315382
0.11542742 -0.0011696517 0.31665501
0.11594294 -0.001210276 0.31712484
0.14421751 -0.0040824786 0.33750242
0.14472535 -0.0041224957 0.33796525
0.14572498 -0.0043622963 0.33752847
0.14623089 -0.0044021606 0.33798954
0.14722475 -0.0046415105 0.33754751
0.14772873 -0.0046812259 0.33800682
0.14823271 -0.0047209412 0.33846617
0.14921892 -0.0049596876 0.33801708
0.14972098 -0.0049992502 0.33847466
0.15022305 -0.0050388128 0.33893222
0.15120152 -0.0052769482 0.33847618
0.15170166 -0.0053163581 0.33893198
0.15220179 -0.0053557716 0.3393878
0.15270193 -0.0053951815 0.33984363
0.1536708 -0.0056325644 0.33937877
0.15416901 -0.0056718253 0.33983284
0.15466723 -0.0057110861 0.34028691
0.15516545 -0.0057503469 0.34074098
0.10784408 -3.5274774e-05 0.30837828
0.1083577 -7.5750053e-05 0.30884638
0.1088713 -0.00011622161 0.30931449
0.10938489 -0.00015669316 0.30978256
0.11051714 -0.00040956214 0.30946666
0.11102882 -0.00044988468 0.30993301
0.11154051 -0.0004902035 0.31039935
0.11205219 -0.00053052604 0.31086567
0.11256386 -0.00057084858 0.31133202
0.11368454 -0.00082279742 0.31100562
0.11358723 -0.00065148994 0.31226468
0.11409891 -0.00069180876 0.31273103
0.1146106 -0.0007321313 0.31319737
0.11512227 -0.00077245384 0.31366369
0.11563396 -0.00081277266 0.31413004
0.11554816 -0.00064236671 0.31539965
0.11606176 -0.00068283826 0.31586772
0.11657536 -0.00072330981 0.3163358
0.11708897 -0.00076378509 0.3168039
0.14575073 -0.0038405918 0.33618683
0.14625472 -0.0038803071 0.33664617
0.14726269 -0.0039597377 0.33756483
0.14825259 -0.0042013898 0.33711919
0.14875466 -0.0042409524 0.33757675
0.14925672 -0.004280515 0.33803433
0.1502389 -0.0045215562 0.33758169
0.15073904 -0.004560966 0.33803752
0.15123917 -0.0046003796 0.33849335
0.15173931 -0.0046397895 0.33894914
0.15223944 -0.004679203 0.33940497
0.1532101 -0.004919339 0.33894181
0.15370831 -0.0049585961 0.33939588
0.15420653 -0.0049978569 0.33984995
0.15470475 -0.0050371177 0.34030402
0.15566576 -0.00527649 0.33983213
0.10799727 0.00048422813 0.30715257
0.10850894 0.00044390559 0.30761889
0.10902064 0.00040358678 0.30808523
0.10953231 0.00036326423 0.30855155
0.11004399 0.00032294542 0.3090179
0.11055568 0.00028262287 0.30948424
0.11106735 0.00024230033 0.30995059
0.11219366 -1.271069e-05 0.30962938
0.11270341 -5.287677e-05 0.31009394
0.11372292 -0.00013321638 0.31102312
0.11423269 -0.00017338619 0.3114877
0.11474244 -0.00021355599 0.31195229
0.1152522 -0.0002537258 0.31241688
0.11516081 -8.026883e-05 0.31368127
0.11567248 -0.00012058765 0.31414759
0.11618416 -0.00016091019 0.31461394
0.11669585 -0.00020122901 0.31508029
0.11720753 -0.00024155155 0.31554663
0.1177192 -0.00028187409 0.31601295
0.11823089 -0.00032219291 0.31647927
0.14578009 -0.0033244044 0.33484858
0.14628214 -0.0033639669 0.33530614
0.14678422 -0.0034035295 0.33576372
0.14777586 -0.0036479272 0.33531982
0.148276 -0.0036873408 0.33577561
0.14877614 -0.0037267506 0.33623144
0.14927627 -0.0037661642 0.33668727
0.14977641 -0.003805574 0.33714306
0.15075654 -0.0040490665 0.33668861
0.15125474 -0.0040883236 0.33714268
0.15175296 -0.0041275844 0.33759674
0.15225118 -0.0041668452 0.33805081
0.15274939 -0.0042061061 0.33850485
0.15324761 -0.0042453669 0.33895892
0.15374583 -0.004284624 0.33941299
0.15471055 -0.0045269057 0.33894452
0.15520684 -0.0045660175 0.33939683
0.15570313 -0.0046051256 0.33984917
0.15619943 -0.0046442337 0.34030145
0.15669572 -0.0046833418 0.34075379
0.10866374 0.00095806271 0.30639482
0.10917349 0.0009178929 0.30685937
0.10968325 0.0008777231 0.30732396
0.11019301 0.00083755329 0.30778855
0.11070277 0.00079738349 0.30825314
0.11121252 0.00075721368 0.30871773
0.11172229 0.00071704388 0.30918229
0.11223204 0.00067687407 0.30964687
0.11335436 0.00041955709 0.30932209
0.1138622 0.00037954003 0.30978492
0.11437003 0.00033952296 0.31024775
0.11487786 0.00029950216 0.31071058
0.1153857 0.0002594851 0.31117341
0.11589353 0.00021946803 0.31163624
0.11580035 0.00039568916 0.31289896
0.1163101 0.00035551935 0.31336355
0.11681986 0.00031534955 0.31382811
0.11732961 0.00027517974 0.31429273
0.11783937 0.00023500994 0.31475729
0.11834913 0.00019484013 0.31522188
0.11885889 0.00015467033 0.31568646
0.11936864 0.00011450425 0.31615105
0.14780475 -0.0031395406 0.33398134
0.14830297 -0.0031788014 0.3344354
0.14880118 -0.0032180585 0.33488947
0.1492994 -0.0032573193 0.33534354
0.14979762 -0.0032965802 0.33579761
0.15029584 -0.003335841 0.33625168
0.15079404 -0.0033751018 0.33670571
0.15129226 -0.0034143589 0.33715978
0.15179047 -0.0034536198 0.33761385
0.15228871 -0.0034928806 0.33806792
0.15325904 -0.0037382133 0.33760464
0.15375534 -0.0037773214 0.33805695
0.15425164 -0.0038164295 0.33850926
0.15474792 -0.0038555376 0.33896157
0.15524422 -0.0038946457 0.33941388
0.1557405 -0.0039337538 0.33986619
0.15669741 -0.0041780397 0.33939064
0.15719178 -0.0042169951 0.33984119
0.15768614 -0.0042559505 0.34029174
0.10870212 0.0016476437 0.30641231
0.10921188 0.0016074739 0.3068769
0.10972163 0.0015673041 0.30734146
0.1102314 0.0015271343 0.30780607
0.11074115 0.0014869645 0.30827063
0.1118691 0.0012265928 0.30795103
0.11237693 0.001186572 0.30841386
0.11288476 0.0011465549 0.30887669
0.114005 0.00088679418 0.30855012
0.11451092 0.00084692985 0.30901119
0.11501683 0.00080706179 0.30947226
0.11552274 0.00076719746 0.30993336
0.11602865 0.0007273294 0.31039441
0.11593176 0.00090644881 0.31165367
0.11643961 0.00086643174 0.3121165
0.11694744 0.00082641095 0.31257933
0.11745527 0.00078639388 0.31304216
0.11796311 0.00074637681 0.31350499
0.11847094 0.00070635974 0.31396782
0.11897877 0.00066633895 0.31443065
0.11948662 0.00062632188 0.31489348
0.14734091 -0.0025975443 0.33219397
0.14783719 -0.0026366524 0.33264625
0.14833349 -0.0026757605 0.33309859
0.14882979 -0.0027148686 0.33355087
0.14932607 -0.0027539767 0.33400321
0.14982237 -0.0027930848 0.33445549
0.15031865 -0.0028321929 0.33490783
0.15081495 -0.0028713048 0.33536014
0.15131125 -0.0029104128 0.33581245
0.15180753 -0.0029495209 0.33626476
0.15230383 -0.002988629 0.33671707
0.15280011 -0.0030277371 0.33716938
0.15329641 -0.0030668452 0.33762169
0.15379271 -0.0031059533 0.338074
0.15428901 -0.0031450614 0.33852631
0.15478529 -0.0031841695 0.33897862
0.15528159 -0.0032232814 0.33943093
0.15624025 -0.0034703165 0.33895707
0.15673463 -0.0035092756 0.33940762
0.15722901 -0.003548231 0.33985817
0.15772337 -0.0035871863 0.34030873
0.15821773 -0.0036261454 0.34075928
0.1083525 0.0021936931 0.30472869
0.10936818 0.0021136589 0.30565435
0.10987601 0.0020736419 0.30611718
0.11038384 0.0020336211 0.30658001
0.11089167 0.001993604 0.30704284
0.1113995 0.0019535869 0.30750567
0.11252537 0.0016907714 0.30718425
0.11303128 0.0016509071 0.30764532
0.11415137 0.0013885424 0.30731869
0.11465536 0.001348827 0.307778
0.11515935 0.0013091117 0.30823731
0.11566333 0.0012693964 0.30869663
0.11616732 0.0012296811 0.30915597
0.11667131 0.0011899658 0.30961531
0.1171753 0.0011502542 0.31007463
0.11707857 0.0013319738 0.31133395
0.11758448 0.0012921095 0.31179503
0.11809039 0.0012522414 0.3122561
0.1185963 0.0012123771 0.31271717
0.11910221 0.001172509 0.31317824
0.11960812 0.0011326447 0.31363934
0.12011403 0.0010927767 0.31410041
0.12061994 0.0010529086 0.31456149
0.14787322 -0.0021392852 0.33131456
0.14836758 -0.0021782443 0.33176512
0.14886196 -0.0022171997 0.33221567
0.14935634 -0.002256155 0.33266622
0.1498507 -0.0022951141 0.33311677
0.15034506 -0.0023340695 0.33356732
0.15083943 -0.0023730285 0.3340179
0.15133381 -0.0024119839 0.33446845
0.15134862 -0.0022390485 0.3358295
0.1518449 -0.0022781566 0.33628181
0.15234119 -0.0023172647 0.33673412
0.15283749 -0.0023563728 0.33718643
0.15333378 -0.0023954809 0.33763874
0.15383008 -0.002434589 0.33809105
0.15432636 -0.0024736971 0.33854336
0.15528876 -0.002723638 0.33807293
0.15578312 -0.0027625971 0.33852348
0.15627748 -0.0028015524 0.33897403
0.15677185 -0.0028405115 0.33942461
0.15726623 -0.0028794669 0.33987516
0.15776059 -0.0029184222 0.34032571
0.15825495 -0.0029573813 0.34077626
0.15920193 -0.0032060966 0.34029183
0.10737507 0.0029607117 0.30382046
0.1078829 0.0029206946 0.30428329
0.10839075 0.0028806739 0.30474612
0.10889858 0.0028406568 0.30520895
0.10940641 0.0028006397 0.30567178
0.11053982 0.002534613 0.30535734
0.11104573 0.0024947487 0.30581838
0.11155164 0.0024548806 0.30627948
0.11205755 0.0024150163 0.30674055
0.11318135 0.0021497458 0.30641735
0.11368534 0.0021100342 0.30687666
0.11480339 0.0018452182 0.30654818
0.11530545 0.0018056482 0.30700573
0.11580752 0.0017660856 0.30746329
0.11630958 0.001726523 0.30792087
0.11681165 0.0016869605 0.30837846
0.11731371 0.0016473979 0.30883601
0.11781578 0.0016078353 0.30929357
0.11831784 0.0015682727 0.30975115
0.11822122 0.0017526001 0.31101057
0.11872521 0.0017128848 0.31146991
0.1192292 0.0016731694 0.31192923
0.12023717 0.0015937388 0.31284785
0.12074116 0.0015540272 0.3133072
0.12124515 0.0015143119 0.31376651
0.12174913 0.0014745966 0.31422585
0.14742033 -0.0016086102 0.32953742
0.14741609 -0.001431562 0.33088097
0.14791045 -0.0014705174 0.33133152
0.14840481 -0.0015094765 0.3317821
0.14889918 -0.0015484318 0.33223265
0.14939356 -0.0015873909 0.33268321
0.14988792 -0.0016263463 0.33313376
0.15038228 -0.0016653016 0.33358431
0.15087666 -0.0017042607 0.33403486
0.15137103 -0.0017432161 0.33448544
0.15186539 -0.0017821714 0.33493599
0.15188228 -0.0016067885 0.33629882
0.15237856 -0.0016458966 0.33675116
0.15287486 -0.0016850047 0.33720347
0.15337116 -0.0017241128 0.33765578
0.15386745 -0.0017632209 0.33810809
0.15483162 -0.0020159148 0.33763933
0.15532598 -0.0020548701 0.33808988
0.15582035 -0.0020938292 0.33854046
0.15631472 -0.0021327846 0.33899102
0.15680908 -0.0021717399 0.33944157
0.15730345 -0.002210699 0.33989215
0.15779781 -0.0022496544 0.3403427
0.15829217 -0.0022886135 0.34079325
0.15923901 -0.0025399365 0.34030873
0.10741332 0.0036476888 0.3038379
0.10792115 0.0036076717 0.30430073
0.10842898 0.0035676509 0.30476356
0.10956609 0.0032987222 0.30445254
0.11007202 0.0032588579 0.30491364
0.11057793 0.0032189898 0.30537468
0.11170734 0.0029506683 0.30505669
0.11221133 0.002910953 0.305516
0.11271532 0.0028712377 0.30597532
0.11383708 0.002603516 0.30565026
0.11433914 0.0025639534 0.30610782
0.11545509 0.0022966824 0.30577755
0.11595523 0.0022572726 0.30623335
0.11645538 0.002217859 0.30668917
0.11695552 0.0021784492 0.307145
0.11745566 0.0021390356 0.3076008
0.11795579 0.0020996258 0.30805662
0.11845593 0.0020602122 0.30851245
0.11835565 0.0022474453 0.30976841
0.11885771 0.0022078827 0.31022596
0.11935976 0.0021683201 0.31068355
0.11986183 0.0021287575 0.31114113
0.12036389 0.002089195 0.31159869
0.12086596 0.0020496324 0.31205624
0.12136802 0.0020100623 0.31251383
0.12187009 0.0019704998 0.31297141
0.12237215 0.0019309372 0.31342897
0.14745742 -0.00094244629 0.32955432
0.14794986 -0.00098125264 0.33000314
0.1484423 -0.001020059 0.33045197
0.14893475 -0.0010588616 0.33090076
0.14942719 -0.001097668 0.33134955
0.14991964 -0.0011364743 0.33179837
0.14992514 -0.00095758215 0.33315074
0.15041952 -0.00099653751 0.3336013
0.15091388 -0.0010354966 0.33405185
0.15140826 -0.001074452 0.3345024
0.15190262 -0.0011134073 0.33495298
0.15191965 -0.00093542039 0.33631587
0.15241593 -0.00097452849 0.33676821
0.15291223 -0.0010136366 0.33722049
0.15340853 -0.0010527447 0.33767283
0.15390483 -0.0010918528 0.33812514
0.15440111 -0.0011309609 0.33857745
0.1553632 -0.001386106 0.33810687
0.15585758 -0.0014250651 0.33855742
0.15635194 -0.0014640205 0.33900797
0.15684631 -0.0015029758 0.33945855
0.15734068 -0.0015419349 0.33990911
0.15783505 -0.0015808903 0.34035966
0.15878364 -0.00183497 0.33987683
0.1592761 -0.0018737726 0.34032565
0.10745156 0.0043346733 0.30385533
0.10795939 0.0042946562 0.30431816
0.10909829 0.0040229708 0.30400884
0.10960419 0.0039831027 0.30446991
0.1101101 0.0039432384 0.30493098
0.11124131 0.0036721602 0.30461466
0.1117453 0.0036324449 0.30507398
0.11287075 0.0033618137 0.30475235
0.11337282 0.0033222511 0.30520993
0.11449248 0.0030520782 0.30488306
0.11499262 0.0030126683 0.30533892
0.11610651 0.0027429461 0.30500677
0.11660473 0.0027036853 0.30546084
0.11710295 0.0026644245 0.30591488
0.11760117 0.0026251674 0.30636895
0.11809938 0.0025859065 0.30682302
0.1185976 0.0025466457 0.30727708
0.11909582 0.0025073849 0.30773115
0.11899373 0.0026973747 0.30898544
0.11949387 0.0026579611 0.30944127
0.11999401 0.0026185513 0.30989707
0.12049416 0.0025791414 0.31035289
0.12099428 0.0025397278 0.31080872
0.12149443 0.002500318 0.31126451
0.12199457 0.0024609044 0.31172034
0.12249471 0.0024214946 0.31217617
0.12299484 0.002382081 0.31263196
0.12349498 0.0023426712 0.31308779
0.14700206 -0.00023748353 0.32912242
0.14749449 -0.00027628615 0.32957125
0.14798695 -0.0003150925 0.33002007
0.14798489 -0.00013299286 0.33136547
0.14897183 -0.00039270148 0.33091766
0.14897364 -0.00021090731 0.3322666
0.149468 -0.00024986267 0.33271715
0.14996237 -0.00028882176 0.33316773
0.15045674 -0.00032777712 0.33361828
0.15095112 -0.0003667362 0.33406883
0.15144548 -0.00040569156 0.33451939
0.15146074 -0.00022494793 0.33588064
0.15195702 -0.00026405603 0.33633292
0.1524533 -0.00030316412 0.33678526
0.1529496 -0.00034227222 0.33723754
0.15344588 -0.00038138032 0.33768988
0.15394218 -0.00042048842 0.33814216
0.15443848 -0.00045959651 0.3385945
0.15540043 -0.00071734563 0.33812386
0.1558948 -0.00075630471 0.33857441
0.15638916 -0.00079526007 0.33902496
0.15688354 -0.00083421916 0.33947551
0.1573779 -0.00087317452 0.33992609
0.15787227 -0.00091212988 0.34037665
0.15882073 -0.0011688098 0.33989376
0.15931317 -0.0012076125 0.34034258
0.10748979 0.0050216541 0.30387276
0.10863046 0.0047472119 0.30356514
0.10913637 0.0047073476 0.30402622
0.1096423 0.0046674795 0.30448729
0.11077528 0.0043936521 0.30417264
0.11127925 0.0043539368 0.30463195
0.11240649 0.0040805489 0.30431205
0.11290856 0.0040409863 0.30476961
0.11403 0.0037680604 0.30444443
0.11453013 0.0037286468 0.30490026
0.11564583 0.0034561791 0.30456981
0.11614403 0.0034169182 0.30502388
0.11664225 0.0033776574 0.30547795
0.11775023 0.0031057969 0.3051405
0.11824653 0.0030666851 0.30559283
0.11874281 0.003027577 0.30604511
0.11923909 0.0029884689 0.30649745
0.11913332 0.0031813569 0.30774826
0.11963154 0.0031420998 0.30820233
0.12012976 0.003102839 0.30865639
0.12062797 0.0030635782 0.30911046
0.12112619 0.0030243173 0.30956453
0.12162441 0.0029850565 0.3100186
0.12212262 0.0029457994 0.31047267
0.12262084 0.0029065385 0.31092674
0.12311906 0.0028672777 0.31138077
0.12361728 0.0028280169 0.31183484
0.12411548 0.0027887598 0.31228891
0.14703913 0.00042868033 0.32913935
0.14753157 0.00038987771 0.32958817
0.14752775 0.00057472661 0.3309319
0.14802212 0.00053577125 0.33138245
0.14851649 0.00049681216 0.331833
0.14901087 0.0004578568 0.33228359
0.14950523 0.00041890144 0.33273414
0.14999959 0.00037994236 0.33318469
0.15000921 0.00056374818 0.33454072
0.15050551 0.00052464008 0.33499303
0.15100181 0.00048552826 0.33544534
0.15149811 0.00044642016 0.33589768
0.15199439 0.00040731207 0.33634996
0.15249068 0.00036820397 0.3368023
0.15298697 0.00032909587 0.33725458
0.15348326 0.00028998777 0.33770692
0.15397955 0.00025087968 0.3381592
0.15447585 0.00021177158 0.33861154
0.15497214 0.00017266348 0.33906382
0.15546843 0.00013355538 0.33951616
0.15642639 -0.00012649596 0.33904195
0.15692076 -0.00016545504 0.3394925
0.15741512 -0.0002044104 0.33994305
0.1579095 -0.00024336576 0.3403936
0.15885781 -0.00050264597 0.33991069
0.10651237 0.005788669 0.30296457
0.1070202 0.0057486519 0.3034274
0.10816266 0.0054714642 0.30312145
0.10866857 0.0054315962 0.30358252
0.10980524 0.0051548555 0.30327129
0.11030923 0.005115144 0.30373061
0.11081322 0.0050754286 0.30418995
0.11194223 0.004799284 0.30387169
0.1124443 0.0047597215 0.30432928
0.11356752 0.00448405 0.3040058
0.11406766 0.0044446401 0.3044616
0.11518511 0.0041694082 0.30413288
0.11568333 0.0041301474 0.30458692
0.116795 0.0038553849 0.30425292
0.1172913 0.0038162768 0.30470523
0.1177876 0.0037771687 0.30515754
0.11828388 0.0037380569 0.30560985
0.11878018 0.0036989488 0.30606216
0.11927646 0.0036598407 0.30651447
0.11977276 0.0036207326 0.30696678
0.12026906 0.0035816245 0.30741912
0.12076536 0.0035425164 0.3078714
0.12126164 0.0035034083 0.30832374
0.12175792 0.0034643002 0.30877602
0.12166193 0.0036590248 0.31003571
0.12216014 0.0036197677 0.31048977
0.12265836 0.0035805069 0.31094384
0.12315658 0.0035412461 0.31139791
0.12365478 0.0035019852 0.31185195
0.124153 0.0034627281 0.31230602
0.12514943 0.0033842064 0.31321415
0.14658377 0.0011336543 0.32870746
0.14707622 0.0010948479 0.32915628
0.14756866 0.0010560453 0.32960507
0.14756498 0.0012434982 0.33094889
0.14805935 0.0012045428 0.33139944
0.14855371 0.0011655837 0.33184999
0.14904809 0.0011266284 0.33230054
0.14905401 0.0013133362 0.33365315
0.1495503 0.0012742281 0.33410546
0.15004659 0.00123512 0.33455777
0.15006022 0.0014212057 0.33591735
0.15055844 0.0013819449 0.33637142
0.15105666 0.001342684 0.33682549
0.15155488 0.0013034269 0.33727956
0.15205309 0.0012641661 0.33773363
0.15255131 0.0012249053 0.33818769
0.15304953 0.0011856444 0.33864176
0.15401693 0.00092225149 0.33817625
0.15451322 0.0008831434 0.33862859
0.10718893 0.0062355697 0.30221665
0.10769483 0.0061957017 0.30267775
0.10820074 0.0061558411 0.30313879
0.10933921 0.0058763474 0.30282927
0.10984319 0.0058366284 0.30328861
0.11097592 0.0055575892 0.30297381
0.11147799 0.0055180266 0.30343139
0.1126049 0.005239442 0.30311134
0.11310504 0.0052000321 0.30356717
0.11422621 0.0049218982 0.30324185
0.11472441 0.0048826374 0.30369592
0.11583979 0.0046049654 0.30336535
0.11633609 0.0045658574 0.30381766
0.11683238 0.0045267493 0.30426997
0.1179401 0.0042496733 0.30393237
0.11843446 0.004210718 0.30438292
0.11892883 0.0041717589 0.30483347
0.1194232 0.0041328035 0.30528405
0.11991757 0.0040938482 0.3057346
0.12041193 0.0040548891 0.30618519
0.12090631 0.0040159337 0.30663574
0.12140067 0.0039769746 0.30708629
0.12189505 0.0039380193 0.30753684
0.1217953 0.0041356646 0.30879307
0.12229159 0.0040965565 0.30924541
0.12278789 0.0040574484 0.30969769
0.12328418 0.0040183403 0.31015003
0.12378047 0.0039792284 0.31060231
0.12427677 0.0039401203 0.31105465
0.12477306 0.0039010122 0.31150693
0.12576564 0.003822796 0.31241158
0.14662085 0.0017998144 0.32872438
0.14711329 0.0017610081 0.32917318
0.14760575 0.0017222054 0.32962197
0.1476022 0.0019122623 0.33096588
0.14809658 0.0018733069 0.33141643
0.14859095 0.0018343478 0.33186698
0.14859508 0.0020238087 0.33321789
0.14909138 0.0019847006 0.3336702
0.14910132 0.0021736957 0.33502635
0.14959952 0.0021344386 0.33548039
0.15009774 0.0020951778 0.33593446
0.15059596 0.0020559169 0.33638853
0.1506155 0.0022441596 0.33775347
0.15111564 0.0022047497 0.3382093
0.15161578 0.0021653362 0.33866513
0.15211591 0.0021259263 0.33912092
0.15308703 0.0018596165 0.33865887
0.15358526 0.0018203557 0.33911294
0.1078652 0.0066772699 0.30146861
0.10836919 0.0066375509 0.30192795
0.1100096 0.006315887 0.30207592
0.11051166 0.0062763244 0.30253348
0.11164229 0.0059948415 0.30221689
0.11214241 0.0059554279 0.30267268
0.11326729 0.005674392 0.30235082
0.11376551 0.0056351274 0.30280489
0.11488459 0.0053545497 0.30247778
0.11538088 0.0053154416 0.30293006
0.11587717 0.0052763335 0.3033824
0.11698858 0.0049963519 0.30304825
0.11748295 0.0049573965 0.3034988
0.11797732 0.0049184375 0.30394936
0.11847168 0.0048794821 0.30439991
0.11896606 0.004840523 0.30485046
0.1200659 0.0045614615 0.30450583
0.12055835 0.0045226589 0.30495462
0.12105079 0.0044838525 0.30540341
0.12154324 0.0044450462 0.30585223
0.12143791 0.0046457388 0.30710328
0.12193227 0.0046067834 0.30755383
0.12242663 0.004567828 0.30800438
0.122921 0.0045288689 0.30845493
0.12282526 0.0047288164 0.30971473
0.12332155 0.0046897084 0.31016707
0.12381785 0.0046505965 0.31061935
0.12431413 0.0046114884 0.31107169
0.12481043 0.0045723803 0.31152397
0.12530673 0.0045332722 0.31197631
0.12580301 0.0044941641 0.31242859
0.12629931 0.004455056 0.31288093
0.12737033 0.0041782595 0.31250995
0.12786469 0.0041393004 0.31296051
0.14718941 0.001846917 0.32518452
0.14765006 0.0021954067 0.32829845
0.14764282 0.0023883693 0.3296389
0.14763944 0.0025810264 0.33098283
0.14813617 0.0027342848 0.33278263
0.14863245 0.0026951768 0.33323494
0.1486406 0.0028869249 0.33458939
0.1486526 0.0030783787 0.33594739
0.14915274 0.0030389689 0.33640319
0.14965288 0.0029995553 0.33685902
0.15015301 0.0029601455 0.33731484
0.15065315 0.0029207319 0.33777064
0.1511533 0.0028813221 0.33822647
0.15165344 0.0028419085 0.33868229
0.15215358 0.0028024986 0.33913809
0.15265371 0.0027630851 0.33959392
0.15362278 0.002494324 0.33913004
0.10803916 0.0071533173 0.30026287
0.10854122 0.0071137547 0.30072045
0.10967939 0.0068290606 0.30041081
0.11017953 0.006789647 0.3008666
0.11067966 0.0067502335 0.30132243
0.1111798 0.0067108274 0.30177826
0.11230837 0.0064268783 0.30145979
0.11280659 0.0063876212 0.30191386
0.11392938 0.0061041266 0.3015902
0.11442566 0.0060650185 0.30204248
0.11492196 0.0060259104 0.30249482
0.11603707 0.0057430342 0.30216411
0.11653143 0.0057040751 0.30261466
0.11702581 0.005665116 0.30306521
0.11752018 0.0056261644 0.30351579
0.11862564 0.0053440407 0.30317631
0.11911809 0.0053052343 0.30362511
0.11961053 0.005266428 0.30407393
0.12010299 0.0052276216 0.30452275
0.12059543 0.005188819 0.30497152
0.12108788 0.0051500127 0.30542034
0.12158032 0.0051112063 0.30586916
0.12207276 0.0050724037 0.30631796
0.12256521 0.0050335974 0.30676675
0.12246387 0.0052365921 0.30802137
0.12295823 0.0051976331 0.30847192
0.1234526 0.0051586777 0.30892247
0.12394696 0.0051197186 0.30937302
0.12444134 0.0050807633 0.30982357
0.1249357 0.0050418079 0.31027415
0.12543008 0.0050028488 0.31072471
0.12592444 0.0049638934 0.31117526
0.12641881 0.0049249344 0.31162584
0.12691317 0.004885979 0.31207639
0.12740755 0.0048470236 0.31252694
0.12790191 0.0048080646 0.31297749
0.12839629 0.0047691092 0.31342804
0.14788228 0.0012835041 0.31771743
0.1476799 0.0030545294 0.32965583
0.14767666 0.0032497905 0.33099982
0.14817354 0.0034056492 0.33279967
0.14817992 0.0036001578 0.33415243
0.14819013 0.0037943646 0.33550873
0.14869027 0.0037549511 0.33596456
0.14870626 0.003948696 0.33732611
0.14920832 0.0039091334 0.33778366
0.14971039 0.0038695708 0.33824122
0.15021245 0.0038300082 0.3386988
0.15071452 0.0037904456 0.33915639
0.15121657 0.003750883 0.33961394
0.15171865 0.0037113205 0.34007153
0.15269138 0.0034396574 0.33961108
0.15319152 0.0034002475 0.34006691
0.10871677 0.0075844526 0.29951632
0.1092169 0.0075450391 0.29997215
0.11035302 0.0072578788 0.29966065
0.11085124 0.0072186291 0.30011472
0.11134945 0.0071793646 0.30056879
0.11184767 0.0071401 0.30102286
0.11297415 0.0068537146 0.3007026
0.11347045 0.0068146065 0.30115491
0.11396673 0.0067754984 0.30160725
0.11508556 0.006489709 0.30127996
0.11557993 0.0064507499 0.30173051
0.11607429 0.0064117983 0.30218107
0.11656867 0.0063728392 0.30263162
0.11706303 0.0063338801 0.3030822
0.11817029 0.0060490072 0.30274442
0.11866273 0.0060102046 0.30319321
0.11915517 0.0059714019 0.30364203
0.11964762 0.0059325919 0.30409086
0.12014006 0.0058937892 0.30453965
0.12063251 0.0058549866 0.30498844
0.12112495 0.0058161765 0.30543727
0.12161741 0.0057773739 0.30588606
0.12210985 0.0057385713 0.30633485
0.12260228 0.0056997612 0.30678368
0.12309474 0.0056609586 0.30723247
0.12299547 0.0058664009 0.30848891
0.12348983 0.0058274418 0.30893946
0.12398419 0.0057884827 0.30939001
0.12447856 0.0057495311 0.30984056
0.12497294 0.005710572 0.31029111
0.1254673 0.0056716129 0.31074166
0.12596168 0.0056326613 0.31119224
0.12645604 0.0055936985 0.3116428
0.12695041 0.0055547431 0.31209338
0.12744477 0.0055157878 0.31254393
0.12793915 0.0054768287 0.31299448
0.12843351 0.0054378733 0.31344503
0.12892789 0.0053989142 0.31389558
0.14744292 0.0019636825 0.31730074
0.14791805 0.0019262433 0.31773376
0.14839318 0.0018888004 0.31816679
0.14886832 0.0018513612 0.31859982
0.14827305 0.0026887693 0.32344496
0.14771461 0.0041161254 0.33236438
0.14874406 0.0046278685 0.33734334
0.14876401 0.0048239268 0.33870846
0.14926802 0.0047842115 0.3391678
0.149772 0.0047444962 0.33962712
0.15027599 0.0047047809 0.34008646
0.15077996 0.0046650656 0.34054577
0.11053006 0.0077206269 0.2984581
0.11102636 0.0076815188 0.29891041
0.11152264 0.0076424107 0.29936272
0.11201894 0.0076033026 0.29981503
0.11251524 0.0075641945 0.30026734
0.11301152 0.0075250864 0.30071965
0.11413404 0.0072363839 0.30039585
0.11462842 0.0071974322 0.3008464
0.11512278 0.0071584731 0.30129695
0.11623758 0.0068703964 0.30096611
0.11673003 0.0068315864 0.30141491
0.11722247 0.0067927837 0.30186373
0.11771493 0.0067539811 0.30231255
0.11820737 0.006715171 0.30276132
0.11869982 0.0066763684 0.30321014
0.11919226 0.0066375658 0.30365896
0.12029167 0.0063506961 0.30331409
0.12078218 0.0063120425 0.30376115
0.12127271 0.0062733889 0.30420822
0.12176323 0.0062347353 0.30465525
0.12225375 0.0061960816 0.30510229
0.12274428 0.006157428 0.30554935
0.12263937 0.0063659251 0.30680057
0.12313181 0.0063271224 0.30724937
0.12362427 0.0062883124 0.30769819
0.1241167 0.0062495098 0.30814701
0.12402141 0.0064572468 0.309407
0.12451579 0.0064182952 0.30985755
0.12501016 0.0063793361 0.3103081
0.12550452 0.006340377 0.31075865
0.1259989 0.0063014254 0.3112092
0.12649326 0.0062624663 0.31165978
0.12698764 0.0062235072 0.31211033
0.127482 0.0061845556 0.31256089
0.12797637 0.0061455965 0.31301147
0.12847073 0.0061066374 0.31346202
0.12896511 0.0060676783 0.31391257
0.1460533 0.0027187541 0.31601796
0.14700356 0.0026438721 0.31688401
0.1474787 0.0026064292 0.31731704
0.14795384 0.00256899 0.31775007
0.14842896 0.0025315471 0.31818309
0.14934741 0.0026594102 0.32036701
0.14881442 0.0031018779 0.32257491
0.14829798 0.005545415 0.33826646
0.14880197 0.0055056997 0.33872578
0.14930597 0.0054659843 0.33918512
0.14980996 0.005426269 0.33964443
0.15031394 0.0053865537 0.34010375
0.15081792 0.0053468384 0.34056306
0.10972196 0.0082557648 0.29635778
0.11021632 0.0082168132 0.29680833
0.1107107 0.0081778541 0.29725891
0.11120507 0.008138895 0.29770947
0.11169943 0.0080999359 0.29816002
0.11219379 0.0080609843 0.29861057
0.11268817 0.0080220252 0.29906112
0.11318254 0.0079830661 0.29951167
0.11367691 0.0079441145 0.29996225
0.11479732 0.0076529682 0.2996366
0.11528978 0.0076141655 0.30008543
0.11578222 0.0075753629 0.30053422
0.11627467 0.0075365528 0.30098301
0.11676711 0.0074977502 0.30143183
0.11725956 0.0074589476 0.30188066
0.117752 0.0074201375 0.30232945
0.11824444 0.0073813349 0.30277824
0.11934756 0.0070915595 0.30243683
0.11983807 0.0070529059 0.30288389
0.12032861 0.0070142522 0.30333096
0.12081912 0.0069755986 0.30377799
0.12130964 0.006936945 0.30422503
0.12180017 0.0068982914 0.30467209
0.12229069 0.0068596378 0.30511916
0.1227812 0.0068209842 0.30556619
0.12327173 0.0067823306 0.30601326
0.1231689 0.0069932789 0.30726629
0.12366134 0.0069544762 0.30771512
0.12415379 0.0069156736 0.30816391
0.12464623 0.0068768635 0.3086127
0.12513867 0.0068380609 0.30906153
0.12504739 0.0070481077 0.31032509
0.12554175 0.0070091486 0.31077564
0.12661602 0.0067216456 0.31040794
0.12710845 0.006682843 0.31085673
0.12760091 0.0066440329 0.31130552
0.12809335 0.0066052303 0.31175435
0.12858579 0.0065664202 0.31220317
0.12907824 0.0065276176 0.31265196
0.12900233 0.0067364499 0.31392956
0.14608908 0.0033614933 0.31603429
0.14656422 0.0033240505 0.31646731
0.14703934 0.0032866113 0.31690034
0.14751448 0.0032491684 0.31733334
0.1479896 0.0032117292 0.31776637
0.14846474 0.0031742863 0.3181994
0.14842921 0.003379941 0.31951383
0.14833593 0.0062271878 0.33828378
0.14835814 0.0064282864 0.33965075
0.14886405 0.0063884184 0.34011185
0.14936996 0.0063485578 0.34057289
0.14987588 0.0063086897 0.341034
0.15038177 0.0062688217 0.34149507
0.11040241 0.0086683854 0.2956143
0.11025356 0.0088855773 0.29682532
0.11074792 0.0088466182 0.29727587
0.11124229 0.0088076591 0.29772645
0.11173666 0.0087687001 0.298177
0.11286463 0.0084743574 0.2978583
0.11335708 0.0084355474 0.29830712
0.11384952 0.0083967447 0.29875591
0.11434197 0.0083579421 0.29920471
0.11483441 0.008319132 0.29965353
0.11532685 0.0082803294 0.30010232
0.11581931 0.0082415268 0.30055112
0.11631174 0.0082027167 0.30099994
0.1168042 0.0081639141 0.30144876
0.11791293 0.0078710839 0.30111253
0.11840345 0.0078324303 0.30155957
0.11889398 0.0077937767 0.30200663
0.1193845 0.0077551231 0.3024537
0.11987501 0.0077164695 0.30290073
0.12036553 0.0076778159 0.3033478
0.12146083 0.0073860362 0.30299929
0.12194942 0.0073475316 0.30344456
0.12183711 0.007561855 0.30468893
0.12232763 0.0075232014 0.305136
0.12281814 0.0074845478 0.30558306
0.12330866 0.0074458942 0.30603009
0.12320597 0.0076594427 0.30728322
0.12369843 0.0076206401 0.30773202
0.12419087 0.0075818375 0.30818081
0.12468331 0.0075430274 0.30862963
0.12517576 0.0075042248 0.30907843
0.1256682 0.0074654222 0.30952722
0.12616065 0.0074266121 0.30997604
0.12665309 0.0073878095 0.31042486
0.12714553 0.0073490068 0.31087363
0.12763798 0.0073101968 0.31132245
0.12813042 0.0072713941 0.31177127
0.12862287 0.0072325841 0.31222007
0.12911531 0.0071937814 0.31266886
0.12960777 0.0071549788 0.31311768
0.14612485 0.00400424 0.31605059
0.14659998 0.0039667971 0.31648362
0.14707512 0.003929358 0.31691664
0.14755026 0.0038919151 0.31734967
0.14802539 0.0038544759 0.3177827
0.14798808 0.0040628798 0.31909543
0.14846514 0.0040252842 0.31953022
0.11043949 0.0093345493 0.2956312
0.11093193 0.0092957392 0.29607999
0.11142437 0.0092569366 0.29652882
0.11191683 0.009218134 0.29697761
0.11240926 0.0091793239 0.2974264
0.11290172 0.0091405213 0.29787523
0.11339416 0.0091017112 0.29832402
0.11388661 0.0090629086 0.29877281
0.11437905 0.009024106 0.29922163
0.11549726 0.0087279081 0.29889411
0.11598778 0.0086892545 0.29934117
0.11647831 0.0086506009 0.29978824
0.11696883 0.0086119473 0.30023527
0.11745934 0.0085732937 0.30068231
0.11794987 0.0085346401 0.30112937
0.11844039 0.0084959865 0.30157644
0.11954322 0.0082010031 0.30123487
0.12003182 0.0081625059 0.30168015
0.12052041 0.0081240013 0.30212545
0.12100902 0.0080854967 0.30257076
0.12149762 0.0080469996 0.30301607
0.12198621 0.008008495 0.30346137
0.1224748 0.0079699904 0.30390668
0.12296341 0.0079314932 0.30435196
0.12285508 0.008148104 0.3055999
0.1233456 0.0081094503 0.30604696
0.12383613 0.0080707967 0.306494
0.1237355 0.008286804 0.30774891
0.12422794 0.0082480013 0.30819774
0.12472039 0.0082091913 0.30864653
0.12521283 0.0081703886 0.30909532
0.12570529 0.008131586 0.30954415
0.12619773 0.0080927759 0.30999297
0.12669018 0.0080539733 0.31044176
0.12718262 0.0080151707 0.31089056
0.12767506 0.0079763606 0.31133938
0.12816751 0.007937558 0.31178817
0.12865995 0.0078987479 0.31223696
0.1291524 0.0078599453 0.31268579
0.12964484 0.0078211427 0.31313458
0.14616063 0.0046469793 0.31606692
0.14663577 0.0046095364 0.31649995
0.14711089 0.0045720972 0.31693298
0.14758603 0.0045346543 0.317366
0.14754695 0.0047458187 0.31867704
0.14802401 0.0047082268 0.31911182
0.14850107 0.0046706311 0.31954661
0.11013846 0.0098166615 0.29399341
0.11062898 0.0097780079 0.29444045
0.11111951 0.0097393543 0.29488748
0.11161003 0.0097007006 0.29533455
0.11210054 0.009662047 0.29578161
0.11259107 0.0096233934 0.29622865
0.11308159 0.0095847398 0.29667568
0.11357211 0.0095460862 0.29712278
0.11406264 0.0095074326 0.29756981
0.11455315 0.009468779 0.29801685
0.11504367 0.0094301254 0.29846391
0.1155342 0.0093914717 0.29891098
0.11602472 0.0093528181 0.29935801
0.11651523 0.0093141645 0.29980505
0.11700577 0.0092755109 0.30025211
0.11749628 0.0092368573 0.30069917
0.1179868 0.0091982037 0.30114621
0.11909142 0.0089004636 0.30080634
0.11958002 0.008861959 0.30125165
0.12006861 0.0088234618 0.30169696
0.12055722 0.0087849572 0.30214226
0.12104581 0.0087464526 0.30258754
0.12153441 0.0087079555 0.30303285
0.122023 0.0086694509 0.30347812
0.1225116 0.0086309463 0.30392343
0.1230002 0.0085924491 0.30436873
0.12289202 0.0088116676 0.30561674
0.12338254 0.0087730139 0.30606377
0.12387305 0.0087343603 0.30651084
0.12436359 0.0086957067 0.3069579
0.12426503 0.0089141652 0.30821466
0.12475747 0.0088753551 0.30866343
0.12524992 0.0088365525 0.30911225
0.12574236 0.0087977499 0.30956107
0.12623481 0.0087589398 0.31000987
0.12672725 0.0087201372 0.31045866
0.12721971 0.0086813346 0.31090748
0.12771215 0.0086425245 0.31135628
0.12820458 0.0086037219 0.31180507
0.12869704 0.0085649118 0.31225389
0.12918948 0.0085261092 0.31270269
0.12968193 0.0084873065 0.31315148
0.14619641 0.0052897222 0.31608322
0.14667153 0.0052522793 0.31651628
0.14714667 0.0052148402 0.31694931
0.14762181 0.0051773973 0.31738231
0.14809695 0.0051399581 0.31781533
0.14857207 0.0051025152 0.31824836
0.11066592 0.010441571 0.29445729
0.11115643 0.010402918 0.29490435
0.11164697 0.010364264 0.29535139
0.11213748 0.010325611 0.29579845
0.112628 0.010286957 0.29624552
0.11311853 0.010248303 0.29669255
0.11360905 0.01020965 0.29713959
0.11409956 0.010170996 0.29758665
0.11459009 0.010132343 0.29803371
0.11508061 0.010093689 0.29848075
0.11557113 0.010055035 0.29892781
0.11606166 0.010016382 0.29937488
0.11655217 0.0099777281 0.29982191
0.11704269 0.0099390745 0.30026895
0.11815101 0.0096384287 0.29993254
0.11863962 0.0095999315 0.30037785
0.11912821 0.0095614269 0.30082315
0.11961681 0.0095229223 0.30126843
0.1201054 0.0094844252 0.30171373
0.12059401 0.0094459206 0.30215901
0.1210826 0.009407416 0.30260432
0.1215712 0.0093689188 0.30304962
0.12205979 0.0093304142 0.30349493
0.1225484 0.0092919096 0.30394024
0.123037 0.0092534125 0.30438551
0.12352559 0.0092149079 0.30483082
0.12341948 0.0094365776 0.30608064
0.12390999 0.0093979239 0.30652767
0.12440051 0.0093592703 0.30697474
0.12489104 0.0093206167 0.3074218
0.12479456 0.009541519 0.30868036
0.125287 0.0095027164 0.30912918
0.12577945 0.0094639137 0.30957797
0.12627189 0.0094251037 0.31002676
0.12676434 0.009386301 0.31047559
0.12725678 0.0093474984 0.31092438
0.12774922 0.0093086883 0.31137317
0.12824167 0.0092698857 0.311822
0.12873411 0.0092310756 0.31227082
0.12922657 0.009192273 0.31271961
0.129719 0.0091534704 0.31316841
0.14670733 0.005895026 0.31653258
0.14718245 0.0058575869 0.31696561
0.14765759 0.0058201402 0.31739864
0.1476188 0.0060365051 0.31870979
0.14809585 0.0059989095 0.31914461
0.11070286 0.011105128 0.29447412
0.11119337 0.011066474 0.29492119
0.11168391 0.01102782 0.29536825
0.11217442 0.010989167 0.29581529
0.11330183 0.010684408 0.29549634
0.11315545 0.01091186 0.29670939
0.11427902 0.010607406 0.29638693
0.1141365 0.010834552 0.29760349
0.11462703 0.010795899 0.29805055
0.11574481 0.0104919 0.29772282
0.11623341 0.010453396 0.29816812
0.11672202 0.010414891 0.29861343
0.11721061 0.010376394 0.29905874
0.11769921 0.010337889 0.29950401
0.1181878 0.010299385 0.29994932
0.11867641 0.010260887 0.30039459
0.119165 0.010222383 0.3008399
0.1196536 0.010183878 0.30128521
0.12014219 0.010145381 0.30173051
0.1206308 0.010106876 0.30217582
0.12111939 0.010068372 0.3026211
0.12160799 0.010029875 0.3030664
0.12209658 0.0099913701 0.30351171
0.12258518 0.0099528655 0.30395699
0.12307379 0.0099143684 0.30440229
0.12296589 0.010138787 0.30565041
0.12345642 0.010100134 0.30609748
0.12394693 0.01006148 0.30654454
0.12443745 0.010022826 0.30699158
0.12492797 0.0099841729 0.30743864
0.1254185 0.0099455193 0.30788571
0.12532409 0.01016888 0.30914608
0.12581652 0.010130078 0.30959487
0.12630898 0.010091268 0.31004369
0.12680142 0.010052465 0.31049249
0.12729385 0.010013662 0.31094128
0.12778631 0.0099748522 0.3113901
0.12827875 0.0099360496 0.31183892
0.1287712 0.0098972395 0.31228772
0.12926364 0.0098584369 0.31273651
0.14721823 0.0065003261 0.31698191
0.11138423 0.011499375 0.29373193
0.11187282 0.011460871 0.2941772
0.11236143 0.011422366 0.29462251
0.11285003 0.011383869 0.29506779
0.11333862 0.011345364 0.29551309
0.11382721 0.01130686 0.2959584
0.11431581 0.011268362 0.29640371
0.11480442 0.011229858 0.29684901
0.11529301 0.011191353 0.29729432
0.11578161 0.011152856 0.2977396
0.11627021 0.011114351 0.2981849
0.11675881 0.011075847 0.29863018
0.1172474 0.01103735 0.29907548
0.117736 0.010998845 0.29952079
0.11822459 0.01096034 0.2999661
0.1187132 0.010921843 0.3004114
0.11920179 0.010883339 0.30085671
0.11969039 0.010844834 0.30130199
0.12017898 0.010806337 0.30174729
0.12066759 0.010767832 0.30219257
0.12115619 0.010729328 0.30263788
0.12164478 0.010690831 0.30308318
0.12213337 0.010652326 0.30352849
0.12262198 0.010613821 0.30397379
0.12311058 0.010575324 0.3044191
0.12300283 0.010802351 0.30566728
0.12349334 0.010763697 0.30611432
0.12398387 0.010725044 0.30656138
0.12447439 0.01068639 0.30700845
0.12496491 0.010647736 0.30745548
0.12545544 0.010609083 0.30790251
0.12536116 0.010835044 0.30916297
0.12585361 0.010796234 0.3096118
0.12634605 0.010757431 0.31006062
0.12683851 0.010718629 0.31050938
0.12733094 0.010679819 0.31095821
0.12782338 0.010641016 0.31140703
0.12831584 0.010602213 0.31185582
0.12880827 0.010563403 0.31230462
0.11239822 0.012083329 0.29463929
0.11288682 0.012044832 0.2950846
0.11337541 0.012006328 0.2955299
0.113864 0.011967823 0.29597518
0.11435261 0.011929326 0.29642048
0.11484121 0.011890821 0.29686576
0.1153298 0.011852317 0.29731107
0.1158184 0.011813819 0.29775637
0.11630699 0.011775315 0.29820168
0.1167956 0.01173681 0.29864699
0.11728419 0.011698313 0.29909229
0.11777279 0.011659808 0.29953757
0.11826138 0.011621304 0.29998288
0.11874999 0.011582807 0.30042815
0.11923859 0.011544302 0.30087346
0.11972718 0.011505798 0.30131876
0.12021577 0.0114673 0.30176407
0.12070438 0.011428796 0.30220938
0.12119298 0.011390291 0.30265468
0.12168157 0.011351794 0.30309996
0.12217017 0.011313289 0.30354527
0.12265877 0.011274785 0.30399054
0.12314737 0.011236288 0.30443585
0.12303977 0.011465907 0.30568412
0.12353028 0.011427253 0.30613118
0.1240208 0.0113886 0.30657822
0.12451133 0.011349946 0.30702528
0.12500185 0.011311293 0.30747235
0.12549236 0.011272639 0.30791938
0.1259829 0.011233985 0.30836642
0.12647341 0.011195332 0.30881348
0.12696393 0.011156678 0.30926055
0.12745446 0.011118025 0.30970758
0.12736802 0.011345975 0.31097513
0.12892602 0.011002064 0.31104875
0.11243501 0.012744278 0.29465607
0.11292361 0.012705781 0.29510137
0.1134122 0.012667276 0.29554665
0.1139008 0.012628771 0.29599196
0.11438939 0.012590274 0.29643726
0.114878 0.01255177 0.29688257
0.11536659 0.012513265 0.29732788
0.11585519 0.012474768 0.29777315
0.1163438 0.012436263 0.29821846
0.11683239 0.012397759 0.29866374
0.11732098 0.012359262 0.29910904
0.11780958 0.012320757 0.29955435
0.11829817 0.012282252 0.29999965
0.11878678 0.012243755 0.30044496
0.11927538 0.012205251 0.30089027
0.11976397 0.012166746 0.30133554
0.12025258 0.012128249 0.30178085
0.12074117 0.012089744 0.30222613
0.12122977 0.01205124 0.30267143
0.12171836 0.012012742 0.30311674
0.12220696 0.011974238 0.30356205
0.12269557 0.011935733 0.30400735
0.12318416 0.011897236 0.30445266
0.12307669 0.012129471 0.30570096
0.12356722 0.012090817 0.30614802
0.12405774 0.012052163 0.30659509
0.12454826 0.01201351 0.30704212
0.12503879 0.011974856 0.30748916
0.1255293 0.011936203 0.30793622
0.1129604 0.013366744 0.29511815
0.11344899 0.013328239 0.29556346
0.1144262 0.013251238 0.29645404
0.11491479 0.013212733 0.29689935
0.11540338 0.013174228 0.29734462
0.11589198 0.013135731 0.29778993
0.11638059 0.013097227 0.29823524
0.11686918 0.013058722 0.29868054
0.11735778 0.013020225 0.29912585
0.11784637 0.01298172 0.29957113
0.11833498 0.012943216 0.30001643
0.11882357 0.012904719 0.30046171
0.11931217 0.012866214 0.30090702
0.11980076 0.012827709 0.30135232
0.12028936 0.012789212 0.30179763
0.12077796 0.012750708 0.30224293
0.12126656 0.012712203 0.30268824
0.12175515 0.012673706 0.30313352
0.12224376 0.012635201 0.30357882
0.12273236 0.012596697 0.3040241
0.12322095 0.012558199 0.30446941
0.12370954 0.012519695 0.30491471
0.12360416 0.012754381 0.30616486
0.1245852 0.012677073 0.30705899
0.12507573 0.01263842 0.30750602
0.12556624 0.012599766 0.30795306
0.12605676 0.012561113 0.30840012
0.11983755 0.013488665 0.3013691
0.12032616 0.013450168 0.30181441
0.12081476 0.013411663 0.30225971
0.12130335 0.013373159 0.30270499
0.12179194 0.013334662 0.3031503
0.12228054 0.013296157 0.3035956
0.12325774 0.013219155 0.30448622
0.12374634 0.013180651 0.30493149
0.12364109 0.013417937 0.30618173
0.12036294 0.014111131 0.30183119
0.12085155 0.014072627 0.30227649
0.12134014 0.014034122 0.3027218
0.12182873 0.013995625 0.30316707
0.12231734 0.01395712 0.30361238
0.12280594 0.013918616 0.30405766
0.12329453 0.013880119 0.30450296
0.12378313 0.013841614 0.30494827
