# .PCD v0.7 - Point Cloud Data file format
VERSION 0.7
FIELDS x y z
SIZE 4 4 4
TYPE F F F
COUNT 1 1 1
WIDTH 1419
HEIGHT 1
VIEWPOINT 0 0 0 1 0 0 0
POINTS 1419
DATA ascii
0.077850334 -0.15729871 0.52658951
0.079062484 -0.15722162 0.52661657
0.080274619 -0.15714449 0.52664375
0.081486762 -0.15706739 0.52667081
0.082698897 -0.15699026 0.52669799
0.083911031 -0.15691316 0.52672511
0.1261012 -0.15399741 0.52663988
0.12731072 -0.15392046 0.52666694
0.12852027 -0.15384352 0.52669406
0.12972981 -0.15376657 0.52672112
0.13093933 -0.15368962 0.52674818
0.16086763 -0.15155394 0.52638847
0.1620746 -0.15147716 0.52641547
0.1632815 -0.15140037 0.52644253
0.16448846 -0.1513236 0.52646947
0.1656954 -0.15124682 0.52649653
0.16690233 -0.15117003 0.52652353
0.16810927 -0.15109324 0.52655053
0.16964453 -0.15122728 0.52761447
0.17085406 -0.15115033 0.52764153
0.17206359 -0.1510734 0.5276686
0.17360926 -0.15120676 0.52873266
0.17482141 -0.15112963 0.52875984
0.17603356 -0.15105253 0.5287869
0.17724568 -0.15097541 0.52881408
0.17845783 -0.15089831 0.5288412
0.17966995 -0.15082121 0.52886832
0.1808821 -0.15074408 0.5288955
0.18209425 -0.15066695 0.52892256
0.18294942 -0.15038086 0.52791226
0.18415898 -0.15030392 0.52793932
0.18536851 -0.15022697 0.52796638
0.18657807 -0.15015002 0.52799344
0.18778756 -0.15007307 0.5280205
0.18862718 -0.14978795 0.52700973
0.18983412 -0.14971116 0.52703679
0.19104105 -0.14963438 0.52706379
0.19224799 -0.14955761 0.52709079
0.19345492 -0.14948082 0.52711785
0.19466186 -0.14940403 0.52714479
0.19586879 -0.14932725 0.52717185
0.2039136 -0.14858375 0.52632236
0.20511791 -0.14850713 0.52634931
0.20632225 -0.14843051 0.52637625
0.20752659 -0.1483539 0.52640325
0.20873094 -0.14827728 0.52643019
0.20993525 -0.14820066 0.52645719
0.21113959 -0.14812405 0.52648413
0.21234393 -0.14804743 0.52651107
0.21354827 -0.14797081 0.52653801
0.21475261 -0.1478942 0.52656496
0.21595693 -0.14781758 0.5265919
0.21716127 -0.14774096 0.52661884
0.21836561 -0.14766435 0.52664584
0.21956995 -0.14758773 0.52667278
0.22077426 -0.14751111 0.52669978
0.2219786 -0.1474345 0.52672672
0.22318295 -0.14735788 0.52675366
0.22438729 -0.14728126 0.52678061
0.2255916 -0.14720464 0.52680755
0.22724912 -0.14733091 0.52787417
0.22845608 -0.14725412 0.52790117
0.22966298 -0.14717734 0.52792823
0.081412859 -0.15586132 0.52654469
0.082624994 -0.15578422 0.52657181
0.083837129 -0.15570709 0.52659893
0.085049272 -0.15562999 0.52662605
0.12360837 -0.15294784 0.52645981
0.12602745 -0.15279394 0.52651393
0.12723699 -0.15271699 0.52654099
0.12844652 -0.15264006 0.52656811
0.12965608 -0.15256311 0.52659518
0.1308656 -0.15248616 0.52662224
0.13207513 -0.15240921 0.52664936
0.14296097 -0.15171668 0.52689296
0.14417052 -0.15163973 0.52692002
0.14538005 -0.15156278 0.52694714
0.14658958 -0.15148583 0.5269742
0.1477991 -0.15140888 0.52700126
0.14900866 -0.15133193 0.52702832
0.15021819 -0.151255 0.52705538
0.15142775 -0.15117805 0.52708244
0.16562182 -0.15004595 0.52637088
0.16682875 -0.14996916 0.52639788
0.16836128 -0.15010077 0.52746141
0.1695708 -0.15002382 0.52748853
0.17078033 -0.14994687 0.52751559
0.17198986 -0.14986993 0.52754265
0.17319942 -0.14979298 0.52756977
0.1747475 -0.14992359 0.52863359
0.17595965 -0.14984646 0.52866077
0.17717177 -0.14976937 0.52868789
0.17838392 -0.14969224 0.52871501
0.17959607 -0.14961514 0.52874213
0.18080819 -0.14953804 0.52876925
0.18202034 -0.14946091 0.52879643
0.18323246 -0.14938381 0.52882349
0.18444461 -0.14930668 0.52885067
0.18529478 -0.1490235 0.52784044
0.18650433 -0.14894655 0.52786756
0.18771383 -0.1488696 0.52789462
0.18892339 -0.14879265 0.52792168
0.18976054 -0.14851029 0.52691114
0.19096747 -0.14843351 0.52693814
0.1921744 -0.14835674 0.52696514
0.19338134 -0.14827995 0.5269922
0.19458827 -0.14820316 0.52701914
0.19579521 -0.14812638 0.5270462
0.20745316 -0.14715561 0.5262779
0.2086575 -0.14707899 0.52630484
0.20986184 -0.14700237 0.52633178
0.21106619 -0.14692576 0.52635872
0.21227053 -0.14684914 0.52638566
0.21347484 -0.14677252 0.52641261
0.21467918 -0.14669591 0.52643955
0.21588352 -0.14661929 0.52646655
0.21708786 -0.14654267 0.52649349
0.21829221 -0.14646606 0.52652049
0.21949652 -0.14638944 0.52654743
0.22070086 -0.14631282 0.52657437
0.2219052 -0.14623621 0.52660131
0.22310951 -0.14615959 0.52662826
0.22431388 -0.14608297 0.5266552
0.2259686 -0.14620683 0.52772152
0.22717553 -0.14613004 0.52774853
0.2283825 -0.14605325 0.52777553
0.2295894 -0.14597647 0.52780259
0.084975369 -0.15442392 0.52649987
0.086187504 -0.15434682 0.52652699
0.12716323 -0.15151352 0.52641511
0.12837279 -0.15143658 0.52644217
0.12958232 -0.15135963 0.52646923
0.13079187 -0.15128268 0.52649629
0.1320014 -0.15120573 0.52652341
0.13321093 -0.15112878 0.52655047
0.13442048 -0.15105183 0.52657753
0.13563001 -0.15097488 0.52660465
0.13683954 -0.15089794 0.52663171
0.13804907 -0.15082099 0.52665877
0.13925862 -0.15074404 0.52668583
0.14046815 -0.1506671 0.52671289
0.14167771 -0.15059015 0.52673995
0.14288723 -0.1505132 0.52676702
0.14409676 -0.15043625 0.52679408
0.14530629 -0.1503593 0.52682114
0.14651585 -0.15028235 0.52684826
0.14772537 -0.1502054 0.52687532
0.14893493 -0.15012845 0.52690244
0.15014446 -0.15005152 0.5269295
0.15135399 -0.14997457 0.52695656
0.16828752 -0.14889729 0.52733552
0.16949704 -0.14882034 0.52736259
0.1707066 -0.14874339 0.52738965
0.17191613 -0.14866646 0.52741671
0.17312565 -0.14858951 0.52744383
0.17467359 -0.14871752 0.52850747
0.17588574 -0.14864042 0.52853453
0.17709786 -0.1485633 0.52856171
0.17831001 -0.1484862 0.52858883
0.17952216 -0.1484091 0.52861595
0.18073428 -0.14833197 0.52864307
0.18194643 -0.14825484 0.52867019
0.18315855 -0.14817774 0.52869737
0.1843707 -0.14810061 0.52872443
0.18522102 -0.14782003 0.52771449
0.18643057 -0.14774308 0.52774155
0.1876401 -0.14766613 0.52776867
0.18884966 -0.14758918 0.52779573
0.18968692 -0.14730941 0.52678549
0.19089389 -0.14723262 0.52681249
0.19210079 -0.14715585 0.52683949
0.19330776 -0.14707907 0.52686656
0.19451469 -0.14700228 0.5268935
0.19572163 -0.14692549 0.52692056
0.2121971 -0.14565083 0.52626032
0.21340141 -0.14557421 0.52628726
0.21460575 -0.14549761 0.52631426
0.21581009 -0.14542098 0.5263412
0.21701443 -0.14534436 0.52636814
0.21821877 -0.14526775 0.52639508
0.21942309 -0.14519113 0.52642202
0.22062743 -0.14511451 0.52644897
0.22183177 -0.14503789 0.52647591
0.22303608 -0.14496128 0.52650291
0.22468808 -0.14508271 0.52756882
0.22589502 -0.14500594 0.52759588
0.22710195 -0.14492916 0.52762288
0.22830889 -0.14485237 0.52764988
0.22951582 -0.14477558 0.52767694
0.13192764 -0.15000227 0.52639747
0.1331372 -0.14992532 0.52642453
0.13434672 -0.14984837 0.52645159
0.13555625 -0.14977142 0.52647871
0.13676581 -0.14969447 0.52650577
0.13797534 -0.14961752 0.52653283
0.13918489 -0.14954059 0.52655995
0.14039439 -0.14946364 0.52658701
0.14160395 -0.14938669 0.52661407
0.14281347 -0.14930974 0.52664113
0.14402303 -0.14923279 0.52666819
0.14523256 -0.14915584 0.52669525
0.14644209 -0.14907889 0.52672231
0.14765161 -0.14900194 0.52674937
0.14886117 -0.14892499 0.52677643
0.1500707 -0.14884806 0.52680355
0.15128025 -0.14877111 0.52683061
0.15248978 -0.14869416 0.52685773
0.15369931 -0.14861721 0.52688479
0.16821378 -0.14769383 0.52720964
0.16942331 -0.14761688 0.5272367
0.17063284 -0.14753993 0.52726376
0.17184237 -0.14746299 0.52729082
0.17305192 -0.14738604 0.52731788
0.17459971 -0.14751148 0.52838123
0.17581186 -0.14743435 0.52840841
0.17702398 -0.14735726 0.52843547
0.17823613 -0.14728013 0.52846265
0.17944825 -0.14720303 0.52848977
0.1806604 -0.14712593 0.52851689
0.18187255 -0.1470488 0.52854401
0.18308467 -0.1469717 0.52857113
0.18429682 -0.14689457 0.52859831
0.18550894 -0.14681748 0.52862537
0.18635684 -0.14653961 0.52761567
0.18756634 -0.14646266 0.52764273
0.1887759 -0.14638571 0.52766979
0.18998542 -0.14630876 0.52769685
0.19082031 -0.14603174 0.52668685
0.19202721 -0.14595497 0.52671385
0.19323418 -0.14587818 0.52674091
0.19444111 -0.1458014 0.52676785
0.21573666 -0.14422271 0.52621579
0.216941 -0.14414608 0.52624273
0.21814534 -0.14406948 0.52626967
0.21934968 -0.14399286 0.52629662
0.22055399 -0.14391623 0.52632362
0.22175834 -0.14383963 0.52635056
0.22296268 -0.14376301 0.52637756
0.22416702 -0.14368638 0.5264045
0.22582144 -0.14380506 0.52747023
0.22702837 -0.14372827 0.52749723
0.2282353 -0.14365149 0.52752423
0.22944224 -0.1435747 0.52755129
0.13548252 -0.14856794 0.52635276
0.13669208 -0.148491 0.52637982
0.13790157 -0.14841405 0.52640688
0.13911113 -0.14833711 0.52643394
0.14032066 -0.14826016 0.52646106
0.14153022 -0.14818321 0.52648813
0.14273974 -0.14810626 0.52651525
0.14394927 -0.14802931 0.52654231
0.1451588 -0.14795236 0.52656937
0.14636835 -0.14787541 0.52659643
0.14757788 -0.14779846 0.52662349
0.14878744 -0.14772151 0.52665055
0.14999697 -0.14764458 0.52667761
0.15120649 -0.14756763 0.52670467
0.15241602 -0.14749068 0.52673173
0.15362558 -0.14741373 0.52675885
0.1548351 -0.14733678 0.52678591
0.1669305 -0.1465673 0.52705663
0.16814002 -0.14649035 0.52708369
0.16934955 -0.1464134 0.52711076
0.17055911 -0.14633645 0.52713788
0.17176864 -0.14625952 0.52716494
0.17331365 -0.14638251 0.52822793
0.1745258 -0.14630541 0.52825505
0.17573795 -0.14622828 0.52828217
0.17695007 -0.14615119 0.52830935
0.17816222 -0.14607406 0.52833641
0.17937434 -0.14599696 0.52836359
0.18058649 -0.14591986 0.52839071
0.18179864 -0.14584273 0.52841783
0.18301076 -0.14576563 0.52844495
0.18422291 -0.1456885 0.52847207
0.18507352 -0.14541309 0.52746272
0.18664718 -0.14553428 0.52852631
0.18749261 -0.14525919 0.52751684
0.18870217 -0.14518224 0.5275439
0.18953976 -0.14490764 0.5265342
0.19074672 -0.14483085 0.5265612
0.19195363 -0.14475408 0.5265882
0.19316059 -0.1446773 0.5266152
0.19436753 -0.14460051 0.5266422
0.19557446 -0.14452372 0.52666926
0.22048056 -0.14271793 0.52619827
0.22212705 -0.14283451 0.52726352
0.22333398 -0.14275773 0.52729052
0.22454092 -0.14268094 0.52731752
0.22574785 -0.14260417 0.52734458
0.22695479 -0.14252739 0.52737159
0.22816172 -0.1424506 0.52739859
0.22936866 -0.14237382 0.52742559
0.1402469 -0.1470567 0.52633512
0.14145645 -0.14697975 0.52636218
0.14266598 -0.1469028 0.52638924
0.14387554 -0.14682585 0.52641636
0.14536056 -0.14695007 0.52747774
0.14629459 -0.14667195 0.52647054
0.14750412 -0.146595 0.5264976
0.14871368 -0.14651805 0.52652466
0.14992321 -0.14644112 0.52655172
0.15113276 -0.14636417 0.52657878
0.15234229 -0.14628722 0.52660584
0.15355182 -0.14621027 0.52663291
0.15476137 -0.14613332 0.52665997
0.15718043 -0.14597942 0.52671415
0.16564721 -0.14544079 0.52690363
0.16685674 -0.14536384 0.52693069
0.16806629 -0.14528689 0.52695775
0.16927582 -0.14520994 0.52698481
0.17048535 -0.14513299 0.52701193
0.17202762 -0.14525357 0.52807462
0.17323977 -0.14517647 0.52810174
0.17445189 -0.14509934 0.52812886
0.17566404 -0.14502224 0.52815598
0.17687616 -0.14494511 0.5281831
0.17808831 -0.14486802 0.52821028
0.17930046 -0.14479092 0.52823734
0.18051258 -0.14471379 0.52826452
0.18172473 -0.14463666 0.52829164
0.18293685 -0.14455956 0.52831876
0.184149 -0.14448243 0.52834594
0.18536115 -0.14440534 0.528373
0.18620935 -0.14413267 0.52736384
0.18741885 -0.14405572 0.52739096
0.18862841 -0.14397877 0.52741802
0.18983793 -0.14390182 0.52744508
0.19067314 -0.14362997 0.52643555
0.19188005 -0.1435532 0.52646255
0.19308701 -0.14347641 0.52648956
0.19429395 -0.14339963 0.52651656
0.19550088 -0.14332284 0.52654362
0.19670781 -0.14324605 0.52657062
0.2196396 -0.14178719 0.52708387
0.22084653 -0.14171042 0.52711087
0.22205347 -0.14163363 0.52713788
0.2232604 -0.14155684 0.52716488
0.22446734 -0.14148006 0.52719188
0.22567427 -0.14140329 0.52721894
0.22688121 -0.1413265 0.52724594
0.22808814 -0.14124972 0.52727294
0.22929507 -0.14117293 0.52729994
0.14528665 -0.14574403 0.52735162
0.14622086 -0.14546847 0.52634454
0.14743039 -0.14539152 0.52637166
0.14863995 -0.14531457 0.52639872
0.14984947 -0.14523764 0.52642578
0.151059 -0.14516069 0.5264529
0.15226853 -0.14508374 0.52647996
0.15347809 -0.14500679 0.52650702
0.15468761 -0.14492984 0.52653408
0.15589714 -0.14485289 0.52656114
0.1571067 -0.14477594 0.5265882
0.15831622 -0.14469899 0.52661526
0.15952575 -0.14462204 0.52664232
0.16073531 -0.14454511 0.52666938
0.16194484 -0.14446816 0.5266965
0.16315436 -0.14439121 0.52672356
0.16436392 -0.14431426 0.52675068
0.16557345 -0.14423731 0.52677774
0.166783 -0.14416036 0.5268048
0.16799253 -0.14408341 0.52683187
0.16920206 -0.14400646 0.52685893
0.17074159 -0.14412463 0.52792132
0.17195371 -0.14404753 0.52794838
0.17316586 -0.1439704 0.52797556
0.17437798 -0.1438933 0.52800268
0.17559013 -0.14381617 0.5280298
0.17680225 -0.14373907 0.52805692
0.1780144 -0.14366195 0.52808404
0.17922655 -0.14358485 0.52811122
0.18043867 -0.14350775 0.52813828
0.18165082 -0.14343062 0.52816546
0.18286294 -0.14335352 0.52819258
0.18407509 -0.14327639 0.5282197
0.18492603 -0.14300615 0.52721083
0.18613559 -0.1429292 0.52723789
0.18734512 -0.14285225 0.52726495
0.18855467 -0.1427753 0.52729207
0.1897642 -0.14269835 0.52731913
0.19097373 -0.1426214 0.52734619
0.19180647 -0.14235233 0.52633691
0.19301343 -0.14227554 0.52636391
0.19422036 -0.14219876 0.52639091
0.1954273 -0.14212197 0.52641797
0.19663423 -0.14204518 0.52644497
0.19784117 -0.14196841 0.52647197
0.21835908 -0.1406631 0.52693117
0.21956602 -0.14058633 0.52695823
0.22077295 -0.14050955 0.52698523
0.22197989 -0.14043276 0.52701223
0.22318682 -0.14035597 0.52703923
0.22439376 -0.14027919 0.52706623
0.22560069 -0.14020242 0.52709329
0.22680762 -0.14012563 0.52712029
0.22801456 -0.14004885 0.52714729
0.22922149 -0.13997206 0.52717429
0.12339427 -0.145926 0.52673709
0.12460641 -0.1458489 0.52676415
0.12581855 -0.14577177 0.52679133
0.13793993 -0.14500064 0.52706259
0.13915208 -0.14492354 0.52708972
0.14036423 -0.14484641 0.52711689
0.14157638 -0.14476931 0.52714396
0.14521277 -0.14453796 0.52722538
0.14642492 -0.14446086 0.52725255
0.14856622 -0.14411111 0.52627277
0.14977574 -0.14403418 0.52629983
0.15098527 -0.14395723 0.52632695
0.1521948 -0.14388028 0.52635401
0.15340436 -0.14380333 0.52638108
0.15461388 -0.14372638 0.5264082
0.15582341 -0.14364943 0.52643526
0.15703297 -0.14357248 0.52646232
0.15824249 -0.14349553 0.52648938
0.15945202 -0.1434186 0.52651644
0.16066158 -0.14334165 0.5265435
0.16187111 -0.1432647 0.52657056
0.16308063 -0.14318775 0.52659762
0.16429019 -0.1431108 0.52662468
0.16549972 -0.14303385 0.5266518
0.16670927 -0.1429569 0.52667886
0.1679188 -0.14287995 0.52670598
0.16945553 -0.14299569 0.52776796
0.17066768 -0.14291859 0.52779508
0.1718798 -0.14284146 0.52782226
0.17309195 -0.14276436 0.52784932
0.1743041 -0.14268723 0.5278765
0.17551625 -0.14261013 0.52790362
0.17672837 -0.142533 0.52793074
0.17794052 -0.14245591 0.52795792
0.17915264 -0.14237881 0.52798498
0.18036479 -0.14230168 0.52801216
0.18157694 -0.14222455 0.52803922
0.18278906 -0.14214745 0.5280664
0.1836428 -0.14187963 0.52705789
0.1848523 -0.14180268 0.52708495
0.18606186 -0.14172573 0.52711201
0.18727139 -0.14164878 0.52713907
0.18848094 -0.14157183 0.52716613
0.18969047 -0.14149489 0.52719319
0.1909 -0.14141794 0.52722025
0.19173288 -0.14115144 0.52621126
0.19293982 -0.14107466 0.52623826
0.19414675 -0.14099787 0.52626526
0.19535369 -0.14092109 0.52629232
0.19656065 -0.1408443 0.52631927
0.19776756 -0.14076753 0.52634633
0.19897452 -0.14069074 0.52637333
0.21707854 -0.139539 0.52677852
0.21828547 -0.13946222 0.52680552
0.21949241 -0.13938545 0.52683258
0.22069934 -0.13930866 0.52685952
0.22190627 -0.13923188 0.52688658
0.22311321 -0.13915509 0.52691358
0.22432014 -0.1390783 0.52694058
0.22552708 -0.13900153 0.52696764
0.22673401 -0.13892475 0.52699459
0.22794098 -0.13884796 0.52702165
0.22914788 -0.13877118 0.52704865
0.1208961 -0.14487419 0.52655661
0.12210824 -0.14479706 0.52658373
0.12332037 -0.14471996 0.52661085
0.12453251 -0.14464283 0.52663803
0.12574466 -0.14456573 0.52666509
0.12695679 -0.1444886 0.52669227
0.12816894 -0.1444115 0.52671939
0.13180533 -0.14418015 0.52680075
0.13301748 -0.14410305 0.52682793
0.13422963 -0.14402592 0.52685499
0.13544175 -0.14394882 0.52688217
0.1366539 -0.14387169 0.52690929
0.13786602 -0.1437946 0.52693641
0.13907817 -0.14371747 0.52696359
0.14029032 -0.14364037 0.52699065
0.14150247 -0.14356324 0.52701783
0.14271459 -0.14348614 0.52704489
0.14392674 -0.14340901 0.52707207
0.14513886 -0.14333192 0.52709919
0.14635101 -0.14325479 0.52712631
0.14756313 -0.14317769 0.52715349
0.14877528 -0.14310056 0.52718055
0.14998743 -0.14302346 0.52720773
0.15119955 -0.14294633 0.52723485
0.1524117 -0.14286923 0.52726197
0.15362382 -0.14279211 0.52728909
0.15483597 -0.14271501 0.52731621
0.15574968 -0.14244595 0.52630931
0.15695921 -0.142369 0.52633637
0.15847239 -0.14248365 0.52739763
0.15937829 -0.14221512 0.52639055
0.16089666 -0.14232942 0.52745187
0.16179734 -0.14206122 0.52644467
0.1630069 -0.14198427 0.52647173
0.16421643 -0.14190732 0.52649879
0.16542599 -0.14183037 0.52652586
0.16663551 -0.14175342 0.52655292
0.16784507 -0.14167647 0.52657998
0.16938162 -0.14178964 0.52764177
0.17059377 -0.14171252 0.52766895
0.17180589 -0.14163542 0.52769601
0.17301804 -0.14155829 0.52772319
0.17423019 -0.14148119 0.52775025
0.17544234 -0.14140406 0.52777743
0.17665446 -0.14132696 0.52780455
0.17786661 -0.14124984 0.52783167
0.17907873 -0.14117274 0.52785885
0.18029088 -0.14109564 0.52788591
0.18150303 -0.14101851 0.52791309
0.18235949 -0.14075311 0.52690488
0.18356904 -0.14067616 0.52693194
0.18477857 -0.14059921 0.526959
0.18598813 -0.14052226 0.52698612
0.18719763 -0.14044531 0.52701318
0.18840718 -0.14036836 0.52704024
0.18961671 -0.14029141 0.5270673
0.19082627 -0.14021446 0.52709436
0.19203579 -0.14013751 0.52712142
0.1952801 -0.1397202 0.52616668
0.19648707 -0.13964342 0.52619362
0.19769397 -0.13956665 0.52622068
0.19890094 -0.13948986 0.52624768
0.20010784 -0.13941307 0.52627468
0.21700495 -0.13833812 0.52665287
0.21821189 -0.13826133 0.52667987
0.21941882 -0.13818456 0.52670693
0.22062576 -0.13810778 0.52673388
0.22183269 -0.13803099 0.52676094
0.22303963 -0.13795421 0.52678794
0.22424656 -0.13787742 0.52681494
0.2254535 -0.13780065 0.526842
0.22666043 -0.13772386 0.52686894
0.22786739 -0.13764708 0.526896
0.2290743 -0.13757029 0.526923
0.1208222 -0.14366812 0.52643043
0.12203433 -0.14359099 0.52645755
0.12324647 -0.14351389 0.52648467
0.1244586 -0.14343676 0.52651179
0.12567076 -0.14335966 0.52653897
0.12688288 -0.14328253 0.52656603
0.12809503 -0.14320543 0.52659321
0.12930715 -0.14312831 0.52662033
0.1305193 -0.14305121 0.52664745
0.13173145 -0.14297408 0.52667463
0.13294357 -0.14289698 0.52670169
0.13415572 -0.14281985 0.52672887
0.13536787 -0.14274275 0.52675593
0.13658002 -0.14266562 0.52678311
0.13779214 -0.14258853 0.52681023
0.13900429 -0.1425114 0.52683735
0.14021641 -0.1424343 0.52686453
0.14142856 -0.14235717 0.52689159
0.14264068 -0.14228007 0.52691877
0.14385283 -0.14220294 0.52694589
0.14506495 -0.14212584 0.52697301
0.14627713 -0.14204872 0.52700013
0.14748925 -0.14197162 0.52702725
0.14870137 -0.14189449 0.52705443
0.14991352 -0.14181739 0.52708149
0.15112567 -0.14174026 0.52710867
0.15233782 -0.14166316 0.52713579
0.15354994 -0.14158604 0.52716291
0.15476209 -0.14150894 0.52719003
0.15597421 -0.14143181 0.52721715
0.15718636 -0.14135471 0.52724433
0.15839848 -0.14127758 0.52727139
0.15961063 -0.14120048 0.52729857
0.16082275 -0.14112335 0.52732569
0.1620349 -0.14104626 0.52735281
0.16324705 -0.14096913 0.52737993
0.16445917 -0.14089203 0.52740705
0.16567132 -0.1408149 0.52743423
0.16688344 -0.1407378 0.52746129
0.16809562 -0.14066067 0.52748847
0.16930774 -0.14058357 0.52751559
0.17051989 -0.14050645 0.52754271
0.17173201 -0.14042935 0.52756989
0.17294416 -0.14035222 0.52759695
0.17415628 -0.14027512 0.52762413
0.17536843 -0.14019799 0.52765125
0.17658055 -0.14012089 0.52767837
0.1777927 -0.14004377 0.52770549
0.17900485 -0.13996667 0.52773261
0.18021697 -0.13988957 0.52775979
0.18107623 -0.13962658 0.52675188
0.18228576 -0.13954964 0.52677894
0.18349531 -0.13947269 0.526806
0.18470481 -0.13939574 0.52683306
0.18591437 -0.13931879 0.52686018
0.18712389 -0.13924184 0.52688724
0.18833345 -0.13916489 0.5269143
0.18954298 -0.13908795 0.52694142
0.19075251 -0.139011 0.52696848
0.19196203 -0.13893406 0.52699554
0.19317159 -0.13885711 0.5270226
0.19438112 -0.13878016 0.52704966
0.19559067 -0.13870321 0.52707672
0.1968002 -0.13862626 0.52710378
0.20003426 -0.13821219 0.52614903
0.20124123 -0.1381354 0.5261761
0.2145175 -0.13729081 0.52647316
0.21572444 -0.13721402 0.52650023
0.21693137 -0.13713723 0.52652723
0.21813831 -0.13706045 0.52655423
0.21934524 -0.13698368 0.52658129
0.22055218 -0.13690689 0.52660823
0.22175911 -0.13683011 0.52663529
0.22296605 -0.13675332 0.52666229
0.22417298 -0.13667654 0.52668929
0.22537991 -0.13659976 0.52671635
0.22658685 -0.13652298 0.52674329
0.22779381 -0.13644619 0.52677035
0.22900072 -0.13636941 0.52679735
0.11953616 -0.14253917 0.52627707
0.1207483 -0.14246204 0.52630424
0.12196043 -0.14238495 0.52633137
0.12317257 -0.14230782 0.52635849
0.1243847 -0.14223072 0.52638561
0.12559685 -0.14215359 0.52641273
0.12680899 -0.14207649 0.52643991
0.12802112 -0.14199936 0.52646697
0.12923327 -0.14192227 0.52649415
0.13044542 -0.14184514 0.52652127
0.13165754 -0.14176804 0.52654839
0.13286969 -0.14169091 0.52657557
0.13408184 -0.14161381 0.52660263
0.13529396 -0.14153668 0.52662981
0.13650611 -0.14145958 0.52665687
0.13771823 -0.14138246 0.52668405
0.13893038 -0.14130536 0.52671117
0.1401425 -0.14122823 0.52673829
0.14135465 -0.14115113 0.52676547
0.14256677 -0.141074 0.52679253
0.14405102 -0.14118531 0.52785265
0.14526576 -0.14110804 0.52787983
0.1464805 -0.14103076 0.52790701
0.14769524 -0.14095348 0.52793419
0.14890999 -0.1408762 0.52796137
0.15012473 -0.14079893 0.52798855
0.15133947 -0.14072165 0.52801573
0.15255421 -0.14064437 0.52804291
0.15376896 -0.14056709 0.52807009
0.1549837 -0.14048982 0.52809727
0.15619841 -0.14041254 0.52812445
0.15741315 -0.14033525 0.52815163
0.1586279 -0.14025797 0.52817887
0.15953672 -0.13999441 0.52717233
0.16074884 -0.13991731 0.52719951
0.16196099 -0.13984019 0.52722663
0.16317314 -0.13976309 0.52725375
0.16438526 -0.13968596 0.52728093
0.16559741 -0.13960886 0.52730799
0.16680953 -0.13953173 0.52733517
0.16802171 -0.13945463 0.52736223
0.16923383 -0.1393775 0.52738941
0.17044598 -0.13930041 0.52741653
0.1716581 -0.13922328 0.52744365
0.17287025 -0.13914618 0.52747083
0.17408237 -0.13906905 0.52749789
0.17529452 -0.13899195 0.52752507
0.17650664 -0.13891482 0.52755219
0.17771879 -0.13883772 0.52757931
0.17893094 -0.13876063 0.52760643
0.17979294 -0.13850005 0.52659893
0.18100247 -0.1384231 0.52662599
0.182212 -0.13834617 0.52665305
0.18342155 -0.13826922 0.52668011
0.18463108 -0.13819227 0.52670717
0.18584064 -0.13811532 0.52673423
0.18705013 -0.13803837 0.52676129
0.18825969 -0.13796142 0.52678835
0.18946922 -0.13788447 0.52681541
0.19067878 -0.13780752 0.52684253
0.1918883 -0.13773058 0.5268696
0.19309783 -0.13765363 0.52689672
0.19430736 -0.13757668 0.52692378
0.19551691 -0.13749973 0.52695084
0.19672644 -0.13742279 0.5269779
0.21323699 -0.13616671 0.52632058
0.21444392 -0.13608994 0.52634752
0.21565086 -0.13601315 0.52637458
0.21685779 -0.13593636 0.52640158
0.21849811 -0.13603772 0.52746516
0.21970767 -0.13596077 0.52749223
0.2209172 -0.13588382 0.52751935
0.22212672 -0.13580687 0.52754641
0.22289246 -0.13555245 0.52653664
0.2240994 -0.13547567 0.52656364
0.22530633 -0.13539889 0.5265907
0.22651327 -0.13532211 0.52661765
0.22772023 -0.13524532 0.52664471
0.22892714 -0.13516854 0.52667171
0.1243108 -0.14102465 0.52625942
0.12552294 -0.14094755 0.5262866
0.12673509 -0.14087042 0.52631366
0.12794723 -0.14079332 0.52634084
0.12915936 -0.1407162 0.5263679
0.13037151 -0.1406391 0.52639508
0.13158363 -0.14056197 0.5264222
0.13279578 -0.14048487 0.52644932
0.13400793 -0.14040774 0.5264765
0.13522005 -0.14033064 0.52650356
0.1364322 -0.14025351 0.52653074
0.13764432 -0.14017642 0.52655786
0.13885647 -0.14009929 0.52658498
0.14006862 -0.14002219 0.5266121
0.1415475 -0.14013124 0.52767181
0.14276221 -0.14005396 0.52769899
0.14397696 -0.13997668 0.52772617
0.1451917 -0.13989939 0.52775335
0.14640644 -0.13982211 0.52778053
0.14762118 -0.13974483 0.52780771
0.1491183 -0.13985272 0.52886784
0.15005067 -0.13959028 0.52786207
0.15126541 -0.139513 0.52788925
0.15277031 -0.13962038 0.52894956
0.15398768 -0.13954294 0.5289768
0.15490964 -0.13928117 0.52797085
0.15612435 -0.13920388 0.52799803
0.1573391 -0.1391266 0.52802521
0.15855384 -0.13904932 0.52805239
0.15976858 -0.13897204 0.52807963
0.16098332 -0.13889477 0.52810681
0.16219807 -0.13881749 0.52813399
0.16309923 -0.13855702 0.52712756
0.16431138 -0.13847992 0.52715468
0.16552353 -0.13840279 0.52718186
0.16673565 -0.13832569 0.52720892
0.1679478 -0.13824856 0.5272361
0.16915992 -0.13817146 0.52726322
0.17037207 -0.13809434 0.52729034
0.17158419 -0.13801724 0.52731746
0.17279634 -0.13794011 0.52734458
0.17400849 -0.13786301 0.52737176
0.17522064 -0.13778588 0.52739882
0.17643276 -0.13770878 0.527426
0.17764491 -0.13763165 0.52745312
0.17850965 -0.13737354 0.52644587
0.17971918 -0.13729659 0.52647299
0.18092874 -0.13721964 0.52650005
0.18213826 -0.1371427 0.52652711
0.18334782 -0.13706575 0.52655423
0.18455732 -0.1369888 0.52658129
0.18576688 -0.13691185 0.52660835
0.1869764 -0.1368349 0.52663541
0.18818596 -0.13675795 0.52666247
0.18939549 -0.13668101 0.52668953
0.19060501 -0.13660406 0.52671659
0.19181454 -0.13652711 0.52674365
0.1930241 -0.13645017 0.52677071
0.19423363 -0.13637322 0.52679783
0.19544318 -0.13629627 0.52682489
0.19665271 -0.13621932 0.52685201
0.19786224 -0.13614237 0.52687907
0.19907179 -0.13606542 0.52690613
0.21074954 -0.13511939 0.52614087
0.21195647 -0.13504261 0.52616787
0.21316341 -0.13496582 0.52619493
0.21437034 -0.13488905 0.52622187
0.21557727 -0.13481227 0.52624893
0.21721485 -0.13491121 0.52731216
0.21842435 -0.13483426 0.52733922
0.21963391 -0.13475731 0.52736628
0.22084343 -0.13468036 0.5273934
0.22205299 -0.13460341 0.52742046
0.22326252 -0.13452646 0.52744752
0.22402582 -0.13427478 0.526438
0.22523275 -0.13419801 0.52646506
0.22643968 -0.13412122 0.526492
0.22764665 -0.13404444 0.52651906
0.22885355 -0.13396765 0.52654606
0.12787333 -0.13958725 0.5262146
0.12908545 -0.13951015 0.52624178
0.1302976 -0.13943303 0.52626884
0.13150972 -0.13935593 0.52629602
0.13272187 -0.1392788 0.52632314
0.13393402 -0.1392017 0.52635026
0.13514614 -0.13912457 0.52637744
0.13635829 -0.13904747 0.5264045
0.13757041 -0.13897035 0.52643168
0.13878256 -0.13889325 0.5264588
0.1402587 -0.13899986 0.52751815
0.14147344 -0.13892259 0.52754533
0.14268816 -0.13884531 0.52757251
0.1439029 -0.13876802 0.52759969
0.14539206 -0.13887382 0.52865934
0.1466094 -0.13879637 0.52868664
0.14782673 -0.13871893 0.52871382
0.14904407 -0.13864149 0.52874112
0.15026143 -0.13856405 0.5287683
0.15147877 -0.13848659 0.5287956
0.1526961 -0.13840915 0.52882284
0.15391344 -0.13833171 0.52885008
0.15513077 -0.13825427 0.52887732
0.15634811 -0.13817683 0.52890456
0.15726504 -0.13791795 0.52789879
0.15847978 -0.13784067 0.52792597
0.15969452 -0.1377634 0.52795315
0.16090927 -0.13768612 0.52798033
0.16212401 -0.13760884 0.52800751
0.16333872 -0.13753156 0.52803469
0.16423747 -0.13727385 0.5270285
0.16544962 -0.13719675 0.52705562
0.16666174 -0.13711962 0.5270828
0.16787389 -0.13704252 0.52710986
0.16908601 -0.13696539 0.52713704
0.17029816 -0.1368883 0.52716416
0.17151028 -0.13681117 0.52719128
0.17272243 -0.13673407 0.5272184
0.17393458 -0.13665694 0.52724552
0.17514673 -0.13657984 0.5272727
0.17635885 -0.13650271 0.52729976
0.177571 -0.13642561 0.52732694
0.17843589 -0.13617006 0.52631998
0.17964545 -0.13609311 0.52634704
0.18085498 -0.13601616 0.5263741
0.1820645 -0.13593923 0.52640116
0.18327406 -0.13586228 0.52642822
0.18448359 -0.13578533 0.52645534
0.18569314 -0.13570838 0.5264824
0.18690264 -0.13563143 0.52650952
0.1881122 -0.13555448 0.52653658
0.18932173 -0.13547753 0.52656364
0.19053128 -0.13540058 0.5265907
0.19174081 -0.13532363 0.52661777
0.19295034 -0.13524669 0.52664483
0.19415987 -0.13516974 0.52667189
0.19536942 -0.13509279 0.52669895
0.19657895 -0.13501585 0.52672601
0.19778851 -0.1349389 0.52675313
0.19899803 -0.13486195 0.52678019
0.20020756 -0.134785 0.52680725
0.21308979 -0.13376492 0.52606928
0.21429676 -0.13368815 0.52609622
0.21593153 -0.13378468 0.52715921
0.21714109 -0.13370773 0.52718627
0.21835062 -0.13363078 0.52721334
0.21956018 -0.13355383 0.5272404
0.2207697 -0.13347688 0.52726746
0.22197923 -0.13339993 0.52729452
0.22318876 -0.13332298 0.52732158
0.22395223 -0.13307388 0.52631235
0.22515917 -0.13299711 0.52633941
0.2263661 -0.13292032 0.52636635
0.22757304 -0.13284354 0.52639341
0.22877997 -0.13276675 0.52642041
0.12560776 -0.13871856 0.5270654
0.1268225 -0.13864128 0.52709258
0.13264796 -0.13807276 0.52619696
0.13386011 -0.13799563 0.52622408
0.13507226 -0.13791853 0.5262512
0.13628441 -0.1378414 0.52627838
0.13749653 -0.1377643 0.52630544
0.1389699 -0.13786849 0.52736449
0.14018464 -0.13779122 0.52739167
0.14139938 -0.13771394 0.52741885
0.1426141 -0.13763666 0.52744603
0.14410049 -0.13774002 0.52850538
0.14531782 -0.13766256 0.52853262
0.14653516 -0.13758512 0.52855986
0.14803192 -0.13768783 0.5296194
0.14925188 -0.13761023 0.52964669
0.15047184 -0.13753261 0.52967405
0.15169176 -0.137455 0.52970135
0.15291172 -0.1373774 0.52972865
0.15413165 -0.13729979 0.52975595
0.15535161 -0.13722217 0.52978325
0.1562739 -0.13696557 0.52877784
0.15749124 -0.13688812 0.52880508
0.15840572 -0.13663203 0.52779949
0.15962046 -0.13655475 0.52782667
0.16083521 -0.13647747 0.52785385
0.16204995 -0.13640019 0.52788103
0.16326466 -0.13632292 0.52790821
0.16416356 -0.13606781 0.52690232
0.16537571 -0.13599068 0.52692944
0.16658783 -0.13591358 0.52695656
0.16780001 -0.13583645 0.52698374
0.16901213 -0.13575935 0.5270108
0.17022428 -0.13568223 0.52703798
0.1714364 -0.13560513 0.5270651
0.17264855 -0.135528 0.52709222
0.17386067 -0.1354509 0.52711934
0.17507282 -0.13537377 0.52714646
0.17628494 -0.13529667 0.52717364
0.1771526 -0.13504355 0.52616704
0.17836216 -0.1349666 0.5261941
0.17957169 -0.13488965 0.52622116
0.18078125 -0.1348127 0.52624822
0.18199077 -0.13473576 0.52627528
0.18320033 -0.13465881 0.52630234
0.18440983 -0.13458186 0.5263294
0.18561938 -0.13450491 0.52635646
0.18682891 -0.13442796 0.52638352
0.18803847 -0.13435102 0.52641064
0.189248 -0.13427407 0.5264377
0.19045752 -0.13419712 0.52646482
0.19166705 -0.13412018 0.52649188
0.19287661 -0.13404323 0.52651894
0.19408613 -0.13396628 0.526546
0.19529569 -0.13388933 0.52657306
0.19650522 -0.13381238 0.52660012
0.19771475 -0.13373543 0.52662718
0.1989243 -0.13365848 0.52665424
0.20013383 -0.13358153 0.5266813
0.20134336 -0.13350458 0.52670842
0.21464828 -0.13265817 0.52700621
0.2158578 -0.13258122 0.52703327
0.21706736 -0.13250427 0.52706033
0.21827686 -0.13242732 0.52708745
0.21948642 -0.13235037 0.52711451
0.22069594 -0.13227342 0.52714157
0.2219055 -0.13219647 0.52716863
0.22311503 -0.13211952 0.52719569
0.22432455 -0.13204257 0.52722275
0.22508559 -0.13179623 0.52621377
0.22629252 -0.13171944 0.52624071
0.22749946 -0.13164265 0.52626777
0.22870639 -0.13156587 0.52629477
0.11095683 -0.13843726 0.5266127
0.11217157 -0.13835998 0.52663994
0.11703052 -0.13805087 0.52674866
0.11824526 -0.13797359 0.52677584
0.11946 -0.1378963 0.52680302
0.12067474 -0.13781902 0.5268302
0.12188948 -0.13774174 0.52685738
0.12310421 -0.13766447 0.52688456
0.12431895 -0.13758719 0.52691174
0.1255337 -0.13750991 0.52693892
0.12674844 -0.13743263 0.52696615
0.12796319 -0.13735536 0.52699333
0.12917793 -0.13727808 0.52702051
0.1362105 -0.13663533 0.52615213
0.1376811 -0.13673712 0.52721083
0.13889584 -0.13665985 0.52723801
0.14011058 -0.13658257 0.52726519
0.14132532 -0.13650529 0.52729237
0.14280891 -0.13660623 0.52835143
0.14402628 -0.13652879 0.52837861
0.14551768 -0.13662925 0.52943778
0.14673764 -0.13655163 0.52946508
0.14795756 -0.13647403 0.52949238
0.14917752 -0.13639642 0.52951968
0.15039745 -0.1363188 0.52954698
0.15161738 -0.1362412 0.52957428
0.15283734 -0.13616359 0.52960157
0.15405726 -0.13608597 0.52962893
0.15527722 -0.13600837 0.52965623
0.15649718 -0.13593076 0.52968353
0.15741703 -0.13567689 0.52867836
0.15863433 -0.13559945 0.5287056
0.1598517 -0.13552201 0.52873284
0.16076115 -0.13526882 0.52772737
0.16197589 -0.13519154 0.52775455
0.1631906 -0.13511427 0.52778172
0.16440535 -0.13503699 0.52780896
0.1653018 -0.13478461 0.52680326
0.16651392 -0.13470751 0.52683038
0.1677261 -0.13463038 0.5268575
0.16893822 -0.13455328 0.52688468
0.17015037 -0.13447616 0.52691174
0.17136249 -0.13439906 0.52693892
0.17257464 -0.13432193 0.52696604
0.17378676 -0.13424483 0.52699316
0.17499891 -0.1341677 0.52702028
0.17949796 -0.13368617 0.52609521
0.18070751 -0.13360922 0.52612233
0.18191704 -0.13353229 0.52614939
0.1831266 -0.13345534 0.52617645
0.1843361 -0.13337839 0.52620351
0.18554565 -0.13330144 0.52623057
0.18675518 -0.13322449 0.52625763
0.18796474 -0.13314754 0.52628469
0.18917426 -0.13307059 0.52631176
0.19038379 -0.13299364 0.52633882
0.19159332 -0.1329167 0.52636594
0.19280288 -0.13283975 0.526393
0.1940124 -0.1327628 0.52642006
0.19522196 -0.13268586 0.52644718
0.19643149 -0.13260891 0.52647424
0.19764102 -0.13253196 0.5265013
0.19885057 -0.13245501 0.52652836
0.2000601 -0.13237806 0.52655542
0.20126963 -0.13230111 0.52658248
0.20247915 -0.13222416 0.52660954
0.20368871 -0.13214722 0.5266366
0.20973638 -0.13176247 0.52677202
0.21094593 -0.13168553 0.52679908
0.21215546 -0.13160858 0.52682614
0.21336499 -0.13153164 0.5268532
0.21457455 -0.13145469 0.52688026
0.21578407 -0.13137774 0.52690732
0.21699363 -0.13130079 0.52693439
0.21820313 -0.13122384 0.52696145
0.21941268 -0.13114689 0.52698857
0.22062221 -0.13106994 0.52701563
0.22183177 -0.13099299 0.52704275
0.2230413 -0.13091604 0.52706981
0.22380507 -0.13067213 0.52606106
0.22546035 -0.13076216 0.52712393
0.22666991 -0.13068521 0.52715099
0.22742587 -0.13044178 0.52614212
0.22863281 -0.130365 0.52616912
0.10723855 -0.13746044 0.52640468
0.10845329 -0.13738316 0.52643192
0.10966802 -0.13730589 0.5264591
0.11088277 -0.13722861 0.52648628
0.11209751 -0.13715133 0.52651346
0.11331224 -0.13707405 0.52654064
0.11452699 -0.13699678 0.52656782
0.11574172 -0.1369195 0.526595
0.11695646 -0.13684222 0.52662218
0.1181712 -0.13676494 0.52664936
0.11938594 -0.13668765 0.52667654
0.12060068 -0.13661037 0.52670372
0.12181542 -0.1365331 0.5267309
0.12303016 -0.13645582 0.52675813
0.12424489 -0.13637854 0.52678531
0.12545964 -0.13630126 0.52681249
0.12667438 -0.13622399 0.52683967
0.12788913 -0.13614671 0.52686691
0.12910384 -0.13606943 0.52689409
0.13031858 -0.13599215 0.52692127
0.13153332 -0.13591486 0.52694845
0.13274807 -0.13583758 0.52697563
0.13517755 -0.13568303 0.52702999
0.1363923 -0.13560575 0.52705717
0.13760701 -0.13552848 0.52708435
0.13882178 -0.1354512 0.52711153
0.14003649 -0.13537392 0.52713871
0.14151737 -0.13547243 0.52819741
0.14273471 -0.13539499 0.52822471
0.14422336 -0.13549303 0.52928352
0.14544329 -0.13541542 0.52931082
0.14666325 -0.1353378 0.52933812
0.14788318 -0.13526019 0.52936542
0.14910313 -0.13518259 0.52939272
0.15032306 -0.13510497 0.52942002
0.15154299 -0.13502736 0.52944732
0.15276295 -0.13494976 0.52947462
0.15398288 -0.13487215 0.52950191
0.15520284 -0.13479453 0.52952921
0.15642279 -0.13471693 0.52955651
0.15734279 -0.13446565 0.52855158
0.15856013 -0.13438821 0.52857888
0.15977749 -0.13431077 0.52860612
0.1609948 -0.13423333 0.52863336
0.16190183 -0.1339829 0.52762812
0.16311654 -0.13390562 0.5276553
0.16433129 -0.13382834 0.52768254
0.16522792 -0.13357857 0.52667707
0.16644004 -0.13350144 0.52670419
0.16765219 -0.13342434 0.52673131
0.16886431 -0.13334721 0.52675843
0.17007646 -0.13327011 0.52678561
0.17128858 -0.13319299 0.52681267
0.17250073 -0.13311589 0.52683985
0.17371288 -0.13303876 0.52686697
0.17492503 -0.13296166 0.52689409
0.18305284 -0.13225187 0.52605051
0.18426237 -0.13217492 0.52607763
0.18547192 -0.13209797 0.52610469
0.18668142 -0.13202102 0.52613175
0.18789098 -0.13194408 0.52615881
0.1891005 -0.13186713 0.52618587
0.19068283 -0.1319592 0.52724677
0.19189495 -0.13188207 0.52727389
0.1931071 -0.13180497 0.52730107
0.19431922 -0.13172784 0.52732813
0.1951482 -0.13148239 0.52632123
0.19635773 -0.13140544 0.52634829
0.19756728 -0.13132849 0.52637535
0.19877681 -0.13125154 0.52640247
0.19998634 -0.13117459 0.52642953
0.2011959 -0.13109764 0.52645659
0.20240542 -0.13102071 0.52648365
0.20361495 -0.13094376 0.52651072
0.20482451 -0.13086681 0.52653778
0.20603403 -0.13078986 0.52656484
0.20724356 -0.13071291 0.5265919
0.20845309 -0.13063596 0.52661902
0.20966265 -0.13055901 0.52664608
0.21087217 -0.13048208 0.52667314
0.21208173 -0.13040513 0.52670026
0.21329126 -0.13032818 0.52672732
0.21450081 -0.13025123 0.52675438
0.21571031 -0.13017428 0.52678144
0.21691987 -0.13009733 0.5268085
0.2181294 -0.13002038 0.52683556
0.21933895 -0.12994343 0.52686262
0.22054848 -0.12986648 0.52688968
0.22175801 -0.12978953 0.52691674
0.22296754 -0.12971258 0.52694386
0.22417709 -0.12963563 0.52697092
0.22538662 -0.12955868 0.52699804
0.22659618 -0.12948175 0.5270251
0.2278057 -0.1294048 0.52705216
0.22901523 -0.12932785 0.52707922
0.10594974 -0.13632908 0.52625108
0.10716449 -0.13625179 0.52627826
0.10837923 -0.13617451 0.52630544
0.10959397 -0.13609724 0.52633262
0.11080871 -0.13601996 0.5263598
0.11202345 -0.13594268 0.52638698
0.11323819 -0.13586541 0.52641416
0.11445293 -0.13578813 0.52644134
0.11566766 -0.13571085 0.52646852
0.1168824 -0.13563357 0.5264957
0.11809714 -0.1355563 0.52652287
0.11931188 -0.135479 0.52655011
0.12052662 -0.13540173 0.52657729
0.12174136 -0.13532445 0.52660447
0.1229561 -0.13524717 0.52663165
0.12417083 -0.13516989 0.52665889
0.12538558 -0.13509262 0.52668607
0.12660033 -0.13501534 0.52671325
0.12781507 -0.13493806 0.52674043
0.12902978 -0.13486078 0.52676761
0.13024452 -0.13478351 0.52679479
0.13145927 -0.13470623 0.52682197
0.13267401 -0.13462894 0.52684915
0.13388875 -0.13455166 0.52687633
0.13510349 -0.13447438 0.52690351
0.13631824 -0.1343971 0.52693069
0.13753295 -0.13431983 0.52695787
0.13874772 -0.13424255 0.52698511
0.14022583 -0.13433865 0.52804345
0.14144316 -0.13426121 0.52807069
0.14292905 -0.13435681 0.52912915
0.14414898 -0.13427921 0.52915645
0.14536893 -0.1342016 0.52918375
0.14658886 -0.13412398 0.5292111
0.14780879 -0.13404638 0.5292384
0.14902875 -0.13396877 0.5292657
0.15024871 -0.13389115 0.529293
0.15146863 -0.13381355 0.5293203
0.15268859 -0.13373594 0.5293476
0.15390852 -0.13365833 0.52937496
0.15512848 -0.13358071 0.52940226
0.15634841 -0.13350311 0.52942955
0.15726858 -0.13325442 0.52842486
0.15848592 -0.13317698 0.52845216
0.15970328 -0.13309954 0.52847934
0.160613 -0.13285153 0.52747446
0.16182777 -0.13277425 0.5275017
0.16304249 -0.13269697 0.52752888
0.16425723 -0.13261969 0.52755606
0.16547197 -0.13254242 0.52758324
0.16636613 -0.1322954 0.52657801
0.16757828 -0.13221827 0.52660513
0.1687904 -0.13214117 0.52663231
0.17000255 -0.13206404 0.52665937
0.17121467 -0.13198695 0.52668655
0.17242682 -0.13190982 0.52671361
0.17363897 -0.13183272 0.52674079
0.17485112 -0.13175559 0.52676791
0.18576035 -0.13106158 0.52701211
0.18818462 -0.13090736 0.52706635
0.18939677 -0.13083026 0.52709347
0.19060892 -0.13075313 0.52712059
0.19182104 -0.13067603 0.52714771
0.19303319 -0.1305989 0.52717483
0.19424531 -0.13052179 0.52720201
0.19545746 -0.13044468 0.52722907
0.196284 -0.13020197 0.52622235
0.19788173 -0.13029045 0.52728337
0.19870308 -0.13004807 0.52627653
0.200306 -0.13013622 0.52733767
0.20112213 -0.12989417 0.52633065
0.20233166 -0.12981722 0.52635777
0.20354122 -0.12974027 0.52638483
0.20475075 -0.12966333 0.52641189
0.20596027 -0.12958638 0.52643895
0.20716983 -0.12950943 0.52646601
0.20837936 -0.12943248 0.52649307
0.20958889 -0.12935553 0.52652013
0.21079844 -0.1292786 0.52654719
0.21200797 -0.12920165 0.52657425
0.2132175 -0.1291247 0.52660137
0.21485168 -0.12921086 0.52766317
0.2160638 -0.12913375 0.52769029
0.21727595 -0.12905663 0.52771747
0.21848807 -0.12897953 0.52774453
0.21970022 -0.12890241 0.52777171
0.22047472 -0.128663 0.5267638
0.22168428 -0.12858605 0.52679086
0.2228938 -0.1285091 0.52681792
0.22410333 -0.12843215 0.52684498
0.22531286 -0.12835521 0.52687204
0.22652242 -0.12827827 0.52689916
0.22773194 -0.12820132 0.52692622
0.2289415 -0.12812437 0.52695328
0.10709042 -0.13504314 0.52615178
0.10830516 -0.13496587 0.52617896
0.10971808 -0.13506351 0.52723557
0.11093541 -0.13498607 0.52726281
0.11215276 -0.13490863 0.52729011
0.1133701 -0.13483119 0.52731729
0.11458743 -0.13475375 0.52734458
0.11580478 -0.13467629 0.52737176
0.11702212 -0.13459885 0.52739906
0.11823945 -0.13452141 0.5274263
0.11945679 -0.13444397 0.52745354
0.12067414 -0.13436653 0.52748078
0.12189148 -0.13428907 0.52750802
0.12310883 -0.13421163 0.52753532
0.12432616 -0.13413419 0.5275625
0.1255435 -0.13405675 0.5275898
0.12676084 -0.13397929 0.52761698
0.12774099 -0.13372941 0.52661395
0.12895572 -0.13365214 0.52664113
0.13017046 -0.13357486 0.52666831
0.13138521 -0.13349757 0.52669549
0.13259995 -0.13342029 0.52672267
0.13381469 -0.13334301 0.52674985
0.13502944 -0.13326573 0.52677709
0.13624418 -0.13318846 0.52680427
0.13745889 -0.13311118 0.52683145
0.13893425 -0.13320485 0.52788949
0.14015159 -0.13312741 0.52791667
0.14136893 -0.13304996 0.52794397
0.14258626 -0.13297252 0.52797121
0.14407459 -0.13306539 0.52902949
0.14529455 -0.13298778 0.52905679
0.14651448 -0.13291016 0.52908409
0.1477344 -0.13283256 0.52911139
0.14895436 -0.13275495 0.52913868
0.15017432 -0.13267733 0.52916598
0.15139425 -0.13259973 0.52919328
0.15261421 -0.13252212 0.52922058
0.15383413 -0.13244452 0.52924788
0.15505409 -0.1323669 0.52927518
0.15627402 -0.13228929 0.52930248
0.15719438 -0.13204318 0.52829814
0.15841168 -0.13196574 0.52832544
0.15932423 -0.13172016 0.52732086
0.16053894 -0.13164288 0.52734804
0.16175371 -0.1315656 0.52737522
0.16296843 -0.13148832 0.5274024
0.16418317 -0.13141105 0.52742958
0.16539791 -0.13133377 0.52745676
0.16629222 -0.13108933 0.52645183
0.1675044 -0.13101223 0.52647895
0.16871652 -0.1309351 0.52650607
0.16992867 -0.130858 0.52653325
0.17114079 -0.13078088 0.52656031
0.17235294 -0.13070378 0.52658749
0.17477721 -0.13054955 0.52664173
0.18568647 -0.12985553 0.52688587
0.18811074 -0.1297013 0.52694011
0.18932286 -0.12962419 0.52696729
0.19053501 -0.12954707 0.52699441
0.19174713 -0.12946996 0.52702153
0.19295928 -0.12939285 0.52704865
0.1941714 -0.12931573 0.52707577
0.19538358 -0.12923862 0.52710295
0.1965957 -0.12916151 0.52713001
0.19780782 -0.12908439 0.52715719
0.19901997 -0.12900728 0.52718431
0.20023212 -0.12893017 0.52721143
0.20144427 -0.12885305 0.52723861
0.20225793 -0.12861377 0.52623177
0.20346746 -0.12853682 0.52625889
0.20467702 -0.12845987 0.52628595
0.20588654 -0.12838292 0.52631307
0.20709607 -0.12830597 0.52634013
0.2083056 -0.12822902 0.52636719
0.20951515 -0.12815207 0.52639425
0.21072468 -0.12807512 0.52642131
0.2123535 -0.12815903 0.52748275
0.21356562 -0.12808192 0.52750987
0.21477777 -0.1280048 0.52753699
0.21598989 -0.12792769 0.52756411
0.21720207 -0.12785058 0.52759123
0.21841419 -0.12777346 0.52761841
0.21962634 -0.12769635 0.52764547
0.22083846 -0.12761924 0.52767265
0.22205061 -0.12754212 0.52769977
0.22326273 -0.12746501 0.52772689
0.22447488 -0.1273879 0.52775401
0.225687 -0.12731078 0.52778113
0.22689915 -0.12723367 0.52780831
0.2281113 -0.12715656 0.52783537
0.22932342 -0.12707946 0.52786255
0.1084265 -0.13392974 0.52708161
0.10964385 -0.13385229 0.52710885
0.11086119 -0.13377485 0.52713609
0.11207854 -0.13369741 0.52716333
0.11329588 -0.13361996 0.52719057
0.11451321 -0.13354252 0.52721786
0.11573056 -0.13346507 0.52724504
0.1169479 -0.13338763 0.52727234
0.11838145 -0.13348135 0.52832913
0.11960139 -0.13340375 0.52835643
0.12082133 -0.13332614 0.52838373
0.12181725 -0.13307784 0.5273813
0.1230346 -0.1330004 0.52740854
0.12425194 -0.13292296 0.52743578
0.1254693 -0.13284552 0.52746308
0.12668663 -0.13276806 0.52749026
0.12790397 -0.13269062 0.52751756
0.1291213 -0.13261318 0.52754474
0.13009641 -0.13236621 0.52654183
0.13131115 -0.13228893 0.52656907
0.13252589 -0.13221164 0.52659625
0.13374063 -0.13213436 0.52662343
0.13495538 -0.13205709 0.52665061
0.13617012 -0.13197981 0.52667785
0.13738483 -0.13190253 0.52670503
0.13886005 -0.13199362 0.52776277
0.14007738 -0.13191618 0.52778995
0.14129472 -0.13183874 0.52781725
0.14251205 -0.1317613 0.52784449
0.14372939 -0.13168386 0.52787173
0.14522016 -0.13177395 0.52892983
0.14644012 -0.13169633 0.52895713
0.14766005 -0.13161872 0.52898443
0.14888 -0.13154112 0.52901173
0.15009993 -0.1314635 0.52903903
0.15131986 -0.13138589 0.52906632
0.15253982 -0.13130829 0.52909362
0.15375975 -0.13123067 0.52912092
0.15468547 -0.13098685 0.52811694
0.1559028 -0.13090941 0.52814418
0.15712014 -0.13083196 0.52817142
0.1580354 -0.13058878 0.5271672
0.15925017 -0.13051151 0.52719438
0.16046488 -0.13043423 0.52722156
0.16167966 -0.13035695 0.52724874
0.16289437 -0.13027968 0.52727592
0.16410911 -0.1302024 0.5273031
0.16532385 -0.13012511 0.52733028
0.16621831 -0.12988329 0.52632558
0.16743049 -0.12980618 0.52635276
0.16864261 -0.12972906 0.52637988
0.16985476 -0.12965195 0.526407
0.17106688 -0.12957484 0.52643418
0.18561256 -0.12864947 0.52675968
0.18682468 -0.12857236 0.5267868
0.18803683 -0.12849525 0.52681398
0.18924895 -0.12841813 0.52684104
0.1904611 -0.12834102 0.52686822
0.19167322 -0.12826391 0.52689534
0.19288537 -0.12818679 0.52692246
0.19409749 -0.12810968 0.52694964
0.19530967 -0.12803257 0.5269767
0.19652179 -0.12795545 0.52700388
0.19773391 -0.12787834 0.52703094
0.19894606 -0.12780122 0.52705812
0.20015821 -0.12772411 0.52708524
0.20137036 -0.127647 0.52711236
0.20258248 -0.12756988 0.52713954
0.20379463 -0.12749277 0.5271666
0.20500675 -0.12741566 0.52719378
0.2062189 -0.12733854 0.5272209
0.20743102 -0.12726143 0.52724802
0.20864317 -0.12718432 0.52727515
0.20985529 -0.1271072 0.52730227
0.21106747 -0.12703009 0.52732944
0.21227959 -0.12695298 0.52735651
0.21349171 -0.12687586 0.52738369
0.21470386 -0.12679875 0.52741081
0.21591598 -0.12672164 0.52743793
0.21712816 -0.12664452 0.52746505
0.21834028 -0.12656742 0.52749217
0.21955243 -0.12649029 0.52751935
0.22076455 -0.1264132 0.52754641
0.2219767 -0.12633607 0.52757359
0.22318882 -0.12625897 0.52760071
0.22440097 -0.12618184 0.52762783
0.22561309 -0.12610474 0.52765501
0.22682524 -0.12602761 0.52768207
0.22803739 -0.12595052 0.52770925
0.22924951 -0.12587339 0.52773631
0.10591761 -0.13287339 0.52690041
0.1083523 -0.1327185 0.52695489
0.10956965 -0.13264105 0.52698207
0.11078698 -0.13256361 0.52700937
0.11200432 -0.13248616 0.52703661
0.11322165 -0.13240872 0.52706385
0.11464725 -0.13250037 0.52812016
0.11565634 -0.13225383 0.52711833
0.11708713 -0.13234515 0.52817476
0.11830707 -0.13226753 0.52820206
0.11952701 -0.13218993 0.52822936
0.12074695 -0.13211232 0.52825671
0.12196689 -0.1320347 0.52828401
0.12296038 -0.13178916 0.52728182
0.12417772 -0.13171172 0.52730906
0.12539506 -0.13163428 0.5273363
0.12661242 -0.13155684 0.52736354
0.12782973 -0.13147938 0.52739084
0.12904707 -0.13140194 0.52741802
0.13026443 -0.1313245 0.52744532
0.13148177 -0.13124706 0.5274725
0.1326991 -0.13116962 0.52749979
0.13366657 -0.13092571 0.52649701
0.13488132 -0.13084844 0.52652419
0.13609606 -0.13077116 0.52655137
0.13756847 -0.13085984 0.52760875
0.13878581 -0.1307824 0.52763605
0.14000314 -0.13070494 0.52766323
0.14122048 -0.1306275 0.52769053
0.14243782 -0.13055006 0.52771771
0.14365518 -0.13047262 0.52774501
0.14487252 -0.13039517 0.52777225
0.14608985 -0.13031773 0.52779949
0.14730719 -0.13024028 0.52782673
0.14852452 -0.13016284 0.52785397
0.14974189 -0.13008539 0.52788121
0.15095922 -0.13000795 0.52790844
0.15217656 -0.1299305 0.52793574
0.15339389 -0.12985305 0.52796292
0.15461123 -0.12977561 0.52799022
0.15553188 -0.12953469 0.52698636
0.15674663 -0.12945741 0.52701354
0.15796134 -0.12938014 0.52704072
0.15917611 -0.12930286 0.5270679
