# .PCD v0.7 - Point Cloud Data file format
VERSION 0.7
FIELDS x y z
SIZE 4 4 4
TYPE F F F
COUNT 1 1 1
WIDTH 1341
HEIGHT 1
VIEWPOINT 0 0 0 1 0 0 0
POINTS 1341
DATA ascii
-0.024961233 0.030482084 0.29712853
-0.024284933 0.030525103 0.29714367
-0.03629389 0.030101947 0.29583412
-0.035620194 0.030144803 0.2958492
-0.034946494 0.030187666 0.29586428
-0.03447067 0.030552641 0.29684621
-0.033794366 0.03059566 0.29686135
-0.033118069 0.030638695 0.29687649
-0.032441769 0.030681714 0.29689163
-0.031765468 0.030724734 0.29690677
-0.031089168 0.030767769 0.29692191
-0.030412868 0.030810788 0.29693705
-0.029736571 0.030853808 0.29695219
-0.029060267 0.030896842 0.2969673
-0.028383967 0.030939862 0.29698244
-0.027707666 0.030982882 0.29699758
-0.027031362 0.031025916 0.29701272
-0.026355069 0.031068936 0.29702786
-0.025678765 0.031111956 0.297043
-0.025002465 0.03115499 0.29705814
-0.024326164 0.03119801 0.29707327
-0.023649864 0.03124103 0.29708841
-0.036800239 0.030405372 0.29478261
-0.036129136 0.030448064 0.29479763
-0.035458039 0.030490756 0.29481265
-0.034786943 0.030533455 0.29482767
-0.034115843 0.030576147 0.29484269
-0.033444744 0.030618839 0.29485771
-0.032773651 0.030661531 0.29487273
-0.032102551 0.03070423 0.29488775
-0.031619072 0.031072281 0.29586956
-0.030945372 0.031115137 0.29588464
-0.030271672 0.031158 0.29589972
-0.029597975 0.031200856 0.29591477
-0.028924275 0.031243719 0.29592985
-0.028250579 0.031286575 0.29594493
-0.027576875 0.031329438 0.29596001
-0.026903175 0.031372294 0.29597509
-0.026229478 0.031415157 0.29599017
-0.025555778 0.031458013 0.29600525
-0.024882078 0.031500868 0.29602033
-0.024208382 0.031543732 0.29603541
-0.023534682 0.031586587 0.29605049
-0.022707179 0.031301938 0.29509801
-0.022036079 0.03134463 0.29511303
-0.02121637 0.031059466 0.29416037
-0.036632553 0.030746467 0.29374665
-0.035964057 0.030788995 0.29376161
-0.035295557 0.030831523 0.29377657
-0.034627061 0.030874051 0.29379153
-0.033958565 0.030916579 0.29380649
-0.033290066 0.030959107 0.29382145
-0.032621574 0.031001635 0.29383641
-0.031953078 0.031044163 0.29385138
-0.031284578 0.031086691 0.29386634
-0.030616082 0.031129219 0.29388133
-0.029947583 0.031171747 0.29389629
-0.02927909 0.031214274 0.29391125
-0.028610595 0.031256802 0.29392621
-0.027942095 0.03129933 0.29394117
-0.027445778 0.031670809 0.29492301
-0.026774678 0.031713508 0.29493803
-0.026103586 0.0317562 0.29495305
-0.025432486 0.031798892 0.29496807
-0.024761386 0.031841584 0.29498309
-0.02409029 0.031884283 0.29499811
-0.023262616 0.031597033 0.2940459
-0.02259412 0.031639561 0.29406086
-0.021925624 0.031682089 0.29407582
-0.037796356 0.030997671 0.29268149
-0.03713046 0.031040035 0.29269639
-0.036464568 0.031082392 0.29271129
-0.035798669 0.031124756 0.29272622
-0.035132773 0.03116712 0.29274112
-0.034466878 0.031209484 0.29275602
-0.033800982 0.031251848 0.29277092
-0.033135086 0.031294212 0.29278582
-0.032469191 0.031336576 0.29280072
-0.031803295 0.03137894 0.29281563
-0.031137399 0.031421304 0.29283053
-0.030471504 0.031463668 0.29284543
-0.029805608 0.031506024 0.29286033
-0.029139712 0.031548388 0.29287523
-0.028473817 0.031590745 0.29289013
-0.027807925 0.031633109 0.29290503
-0.027314354 0.032007001 0.29388654
-0.026645858 0.032049537 0.2939015
-0.025977362 0.032092065 0.29391646
-0.02530887 0.032134593 0.29393142
-0.02464037 0.03217712 0.29394639
-0.023971874 0.032219648 0.29396135
-0.023303375 0.032262176 0.29397631
-0.022480756 0.031972013 0.29302427
-0.02181486 0.032014377 0.29303917
-0.021148965 0.032056741 0.29305407
-0.020336747 0.031765923 0.29210177
-0.019673448 0.031808123 0.29211664
-0.019010156 0.031850316 0.29213148
-0.01820834 0.031558819 0.29117894
-0.036959551 0.031370953 0.29166159
-0.03629626 0.031413153 0.29167643
-0.035632957 0.031455353 0.29169127
-0.035173371 0.031829678 0.2926718
-0.034507476 0.031872042 0.2926867
-0.03384158 0.031914398 0.2927016
-0.032979783 0.031624138 0.29175067
-0.032316491 0.031666338 0.29176551
-0.031653192 0.031708539 0.29178035
-0.0309899 0.031750731 0.29179519
-0.030326605 0.031792924 0.29181004
-0.029663309 0.031835124 0.29182488
-0.029180311 0.032210946 0.29280591
-0.028514415 0.032253303 0.29282081
-0.027848523 0.032295667 0.29283571
-0.027182624 0.032338031 0.29285061
-0.026516728 0.032380387 0.29286551
-0.025850832 0.032422751 0.29288042
-0.025184937 0.032465115 0.29289532
-0.024519041 0.032507479 0.29291022
-0.023853146 0.032549843 0.29292512
-0.02318725 0.032592207 0.29294005
-0.022521354 0.032634571 0.29295495
-0.021855459 0.032676935 0.29296985
-0.021189563 0.032719299 0.29298475
-0.020377185 0.03242588 0.29203272
-0.01971389 0.032468081 0.29204756
-0.018909317 0.03217417 0.29109538
-0.018248621 0.032216199 0.29111016
-0.01758793 0.032258227 0.29112494
-0.036999989 0.032030925 0.29159254
-0.036336698 0.032073125 0.29160738
-0.035673395 0.032115318 0.29162222
-0.035010103 0.032157511 0.29163706
-0.034346808 0.032199711 0.2916519
-0.033683516 0.032241911 0.29166675
-0.033020221 0.032284111 0.29168162
-0.032356929 0.032326303 0.29169646
-0.03169363 0.032368496 0.2917113
-0.031030338 0.032410696 0.29172614
-0.030367043 0.032452896 0.29174101
-0.029703747 0.032495096 0.29175586
-0.029040456 0.032537289 0.2917707
-0.02837716 0.032579489 0.29178554
-0.027713869 0.032621682 0.29180038
-0.027050566 0.032663882 0.29181522
-0.026557326 0.033042952 0.29279619
-0.025891431 0.033085316 0.2928111
-0.025225535 0.03312768 0.292826
-0.024559639 0.033170044 0.2928409
-0.023893744 0.033212408 0.2928558
-0.023227848 0.033254772 0.2928707
-0.022407509 0.032959267 0.29191914
-0.021744214 0.03300146 0.29193398
-0.021080922 0.033043653 0.29194883
-0.020417627 0.033085853 0.29196367
-0.019754328 0.033128053 0.29197854
-0.018949598 0.03283155 0.29102659
-0.018288903 0.032873578 0.29104137
-0.017628212 0.032915607 0.29105616
-0.016967516 0.032957643 0.29107094
-0.041223414 0.031724192 0.28949052
-0.040565327 0.031766057 0.28950527
-0.039907232 0.031807929 0.28952
-0.039249141 0.031849794 0.28953475
-0.03859105 0.031891659 0.28954947
-0.038149986 0.032270007 0.29052898
-0.037489295 0.032312036 0.29054376
-0.036828604 0.032354072 0.29055855
-0.036167908 0.0323961 0.29057336
-0.035507213 0.032438129 0.29058814
-0.034846518 0.032480165 0.29060292
-0.034185823 0.032522202 0.2906177
-0.033525132 0.032564223 0.29063249
-0.03286444 0.032606259 0.29064727
-0.032203745 0.032648295 0.29066205
-0.031543054 0.032690324 0.29067683
-0.030882362 0.032732353 0.29069161
-0.030221667 0.032774389 0.29070643
-0.029560972 0.032816418 0.29072121
-0.028900281 0.032858446 0.29073599
-0.028239589 0.032900482 0.2907508
-0.027578894 0.032942519 0.29076558
-0.027091008 0.033323854 0.29174617
-0.026427716 0.033366047 0.29176101
-0.025764424 0.033408247 0.29177585
-0.025101129 0.03345044 0.29179072
-0.02443783 0.03349264 0.29180557
-0.023774538 0.03353484 0.29182041
-0.023111243 0.03357704 0.29183525
-0.022447947 0.033619232 0.29185009
-0.021784656 0.033661425 0.29186493
-0.021121364 0.033703625 0.29187977
-0.020311262 0.033404864 0.29092824
-0.019650571 0.033446893 0.29094303
-0.01898988 0.033488929 0.29095781
-0.018329185 0.033530958 0.29097259
-0.017668493 0.033572987 0.29098737
-0.017007798 0.033615023 0.29100215
-0.041921634 0.032337114 0.28940731
-0.041263539 0.032378979 0.28942204
-0.040605452 0.032420844 0.28943676
-0.039947357 0.032462716 0.28945148
-0.039289266 0.032504581 0.2894662
-0.038631175 0.032546446 0.28948095
-0.037973084 0.032588311 0.28949568
-0.037529577 0.032969415 0.29047498
-0.036868885 0.033011451 0.29048976
-0.03620819 0.03305348 0.29050457
-0.035547495 0.033095509 0.29051936
-0.0348868 0.033137545 0.29053414
-0.034226105 0.033179581 0.29054892
-0.033565413 0.033221602 0.2905637
-0.032904722 0.033263639 0.29057848
-0.032244027 0.033305675 0.29059327
-0.031583335 0.033347704 0.29060805
-0.030922644 0.033389732 0.29062286
-0.030261949 0.033431768 0.29063764
-0.029601254 0.033473797 0.29065242
-0.028940562 0.033515826 0.29066724
-0.028279871 0.033557862 0.29068202
-0.027619176 0.033599898 0.2906968
-0.02695848 0.033641927 0.29071158
-0.026297789 0.033683956 0.29072636
-0.025637098 0.033725992 0.29074115
-0.024976403 0.033768021 0.29075593
-0.024315707 0.033810049 0.29077071
-0.023655016 0.033852085 0.29078549
-0.022994321 0.033894114 0.2908003
-0.022333629 0.033936143 0.29081509
-0.021672938 0.033978179 0.2908299
-0.021012239 0.034020215 0.29084468
-0.020351544 0.034062244 0.29085946
-0.019690853 0.034104273 0.29087424
-0.019030161 0.034146309 0.29088902
-0.018369466 0.034188338 0.29090381
-0.017708775 0.034230366 0.29091859
-0.01704808 0.034272403 0.29093337
-0.016387388 0.034314439 0.29094815
-0.015726693 0.03435646 0.29096296
-0.042384293 0.032609537 0.28836018
-0.041728798 0.032651238 0.28837487
-0.041303661 0.033033773 0.28935352
-0.040645573 0.033075638 0.28936827
-0.039987478 0.03311751 0.28938299
-0.039329387 0.033159375 0.28939772
-0.038671296 0.03320124 0.28941244
-0.038013205 0.033243105 0.28942716
-0.03735511 0.03328497 0.28944188
-0.036697019 0.033326842 0.28945661
-0.036248472 0.03371086 0.29043579
-0.035587776 0.033752888 0.29045057
-0.034927081 0.033794925 0.29046535
-0.034266386 0.033836961 0.29048014
-0.033605695 0.033878982 0.29049492
-0.032748464 0.033578038 0.289545
-0.032284308 0.033963054 0.29052448
-0.031432282 0.033661768 0.28957444
-0.030962925 0.034047112 0.29055408
-0.030116096 0.033745505 0.28960392
-0.029458001 0.03378737 0.28961864
-0.028799914 0.033829235 0.28963339
-0.028141819 0.033871099 0.28964812
-0.027659457 0.034257278 0.29062802
-0.026998762 0.034299307 0.2906428
-0.026338071 0.034341335 0.29065758
-0.025677379 0.034383371 0.29067236
-0.025016684 0.0344254 0.29068714
-0.024355989 0.034467429 0.29070193
-0.023695298 0.034509465 0.29071674
-0.023034602 0.034551494 0.29073152
-0.022373911 0.034593523 0.2907463
-0.021713216 0.034635559 0.29076111
-0.021052521 0.034677595 0.2907759
-0.020391826 0.034719624 0.29079068
-0.019731134 0.034761652 0.29080546
-0.018928528 0.034457229 0.28985429
-0.018409748 0.034845717 0.29083502
-0.017749056 0.034887746 0.2908498
-0.017088361 0.034929782 0.29086459
-0.01642767 0.034971818 0.2908794
-0.015766975 0.03501384 0.29089418
-0.014979973 0.034708425 0.28994268
-0.042424258 0.033261739 0.28829196
-0.041768763 0.03330344 0.28830662
-0.041343786 0.033688568 0.289285
-0.040685698 0.033730432 0.28929973
-0.040027604 0.033772305 0.28931445
-0.039369512 0.033814169 0.2893292
-0.038711421 0.033856034 0.28934392
-0.03805333 0.033897899 0.28935868
-0.037395235 0.033939764 0.2893734
-0.036737144 0.033981636 0.28938812
-0.036079053 0.034023501 0.28940284
-0.035420958 0.034065366 0.28941756
-0.034762863 0.034107231 0.28943229
-0.034104772 0.034149095 0.28944701
-0.033446681 0.034190968 0.28946176
-0.03278859 0.034232832 0.28947648
-0.032130495 0.034274697 0.28949124
-0.031472407 0.034316562 0.28950596
-0.030814312 0.034358427 0.28952068
-0.030156221 0.034400299 0.2895354
-0.029498126 0.034442164 0.28955013
-0.028840039 0.034484029 0.28956485
-0.028181944 0.034525894 0.28957957
-0.027523853 0.034567758 0.28959432
-0.026865758 0.034609631 0.28960904
-0.026207667 0.034651496 0.2896238
-0.025549576 0.03469336 0.28963852
-0.024891485 0.034735225 0.28965324
-0.02423339 0.03477709 0.28966796
-0.023575298 0.034818962 0.28968269
-0.022917207 0.034860827 0.28969741
-0.022414193 0.035250902 0.29067752
-0.021753501 0.035292938 0.29069233
-0.02094293 0.034986421 0.28974161
-0.020284835 0.035028294 0.28975636
-0.019626744 0.035070159 0.28977108
-0.018968653 0.035112023 0.2897858
-0.018450029 0.035503097 0.29076624
-0.017652467 0.035195753 0.28981525
-0.016994376 0.035237618 0.28982997
-0.016336285 0.03527949 0.28984469
-0.01567819 0.035321355 0.28985944
-0.015020099 0.03536322 0.28987417
-0.042464223 0.03391394 0.28822371
-0.041808728 0.033955641 0.28823841
-0.041383907 0.034343354 0.28921652
-0.04072582 0.034385219 0.28923124
-0.040067725 0.034427091 0.28924596
-0.039409634 0.034468956 0.28926069
-0.038751543 0.034510821 0.28927541
-0.038093451 0.034552686 0.28929013
-0.037435357 0.034594551 0.28930485
-0.036777265 0.034636423 0.2893196
-0.036119174 0.034678288 0.28933433
-0.035461079 0.034720153 0.28934908
-0.034802984 0.034762017 0.2893638
-0.034144893 0.034803882 0.28937852
-0.033486802 0.034845755 0.28939325
-0.032828711 0.034887619 0.28940797
-0.032170616 0.034929484 0.28942269
-0.031512529 0.034971349 0.28943741
-0.030854434 0.035013214 0.28945217
-0.030196343 0.035055086 0.28946689
-0.029538248 0.035096951 0.28948164
-0.02888016 0.035138816 0.28949636
-0.028222065 0.03518068 0.28951108
-0.027563974 0.035222545 0.28952581
-0.026905879 0.03526441 0.28954053
-0.026247788 0.035306282 0.28955525
-0.025589697 0.035348147 0.28956997
-0.024931606 0.035390012 0.28958473
-0.024273511 0.035431877 0.28959945
-0.02361542 0.035473742 0.2896142
-0.022957329 0.035515614 0.28962892
-0.022299238 0.035557479 0.28964365
-0.021641146 0.035599343 0.28965837
-0.020983052 0.035641208 0.28967309
-0.02032496 0.035683073 0.28968781
-0.019666865 0.035724945 0.28970253
-0.019008774 0.03576681 0.28971729
-0.018350683 0.035808675 0.28973201
-0.017692592 0.03585054 0.28974676
-0.017034501 0.035892405 0.28976148
-0.016376406 0.035934277 0.28977621
-0.015718315 0.035976142 0.28979093
-0.015186843 0.036370628 0.29077142
-0.042504188 0.034566149 0.2881555
-0.041848693 0.03460785 0.28817016
-0.041193202 0.034649551 0.28818482
-0.040537715 0.034691252 0.28819948
-0.03988222 0.034732953 0.28821415
-0.039226729 0.034774654 0.28822881
-0.038791668 0.035165623 0.28920692
-0.038133577 0.035207488 0.28922164
-0.037475482 0.035249352 0.28923637
-0.03681739 0.035291217 0.28925109
-0.036159299 0.03533309 0.28926581
-0.035501204 0.035374954 0.28928053
-0.03484311 0.035416819 0.28929529
-0.034185018 0.035458684 0.28931001
-0.033526927 0.035500549 0.28932473
-0.032868836 0.035542421 0.28933948
-0.032210741 0.035584286 0.28935421
-0.031552654 0.035626151 0.28936893
-0.030894559 0.035668015 0.28938365
-0.030236468 0.03570988 0.28939837
-0.029578373 0.035751753 0.28941309
-0.028920285 0.035793617 0.28942785
-0.028262191 0.035835482 0.28944257
-0.027604099 0.035877347 0.28945729
-0.026946004 0.035919212 0.28947204
-0.026287913 0.035961084 0.28948677
-0.025629822 0.036002949 0.28950149
-0.024971731 0.036044814 0.28951621
-0.024313636 0.036086679 0.28953093
-0.023655545 0.036128543 0.28954566
-0.022997454 0.036170416 0.28956041
-0.022339359 0.03621228 0.28957513
-0.021681268 0.036254145 0.28958985
-0.021023177 0.03629601 0.2896046
-0.020365082 0.036337875 0.28961933
-0.019706991 0.036379747 0.28963405
-0.019048899 0.036421612 0.28964877
-0.018530592 0.036817856 0.29062867
-0.017869901 0.036859885 0.29064345
-0.017209206 0.036901921 0.29065827
-0.016416531 0.036589079 0.28970769
-0.015887819 0.036985986 0.29068783
-0.042544153 0.035218343 0.28808725
-0.041888658 0.035260044 0.28810191
-0.041233167 0.035301745 0.28811657
-0.04057768 0.035343446 0.28813124
-0.039922185 0.035385147 0.2881459
-0.039266694 0.035426848 0.28816059
-0.038611207 0.035468549 0.28817526
-0.038173698 0.035862267 0.28915313
-0.037515603 0.035904132 0.28916785
-0.036857512 0.035945997 0.2891826
-0.036199421 0.035987869 0.28919733
-0.035541326 0.036029734 0.28921205
-0.034883231 0.036071599 0.28922677
-0.03422514 0.036113463 0.28924149
-0.033766821 0.036508508 0.29021978
-0.03310613 0.036550537 0.29023457
-0.032445434 0.036592573 0.29024938
-0.031784743 0.036634602 0.29026416
-0.03093468 0.036322795 0.28931516
-0.030276589 0.03636466 0.28932989
-0.029618494 0.036406532 0.28934461
-0.028960407 0.036448397 0.28935933
-0.028302312 0.036490262 0.28937405
-0.027644221 0.036532126 0.28938878
-0.026986126 0.036573991 0.2894035
-0.026328035 0.036615863 0.28941825
-0.025669944 0.036657728 0.28943297
-0.025011852 0.036699593 0.28944772
-0.024353758 0.036741458 0.28946245
-0.023695666 0.036783323 0.28947717
-0.023037575 0.036825195 0.28949189
-0.019747112 0.037034526 0.28956553
-0.019089021 0.037076391 0.28958029
-0.01843093 0.037118256 0.28959501
-0.017772838 0.037160121 0.28960973
-0.017114747 0.037201986 0.28962445
-0.016456652 0.037243858 0.28963917
-0.015798561 0.037285723 0.2896539
-0.041273132 0.035953954 0.28804833
-0.040617645 0.035995655 0.28806299
-0.03996215 0.036037356 0.28807768
-0.039306659 0.036079057 0.28809234
-0.037555724 0.036558926 0.28909934
-0.036239542 0.036642663 0.28912878
-0.035789184 0.037039779 0.29010665
-0.035128489 0.037081815 0.29012144
-0.034467794 0.037123844 0.29013622
-0.033807103 0.03716588 0.290151
-0.033146411 0.037207909 0.29016581
-0.032485716 0.037249938 0.29018059
-0.031825025 0.037291974 0.29019538
-0.031164333 0.037334003 0.29021019
-0.03031671 0.037019454 0.28926134
-0.029658616 0.037061326 0.28927609
-0.029000528 0.037103191 0.28929082
-0.028342433 0.037145056 0.28930557
-0.027684342 0.037186921 0.28932029
-0.027026247 0.037228785 0.28933501
-0.026368156 0.037270658 0.28934973
-0.025710065 0.037312523 0.28936446
-0.025051974 0.037354387 0.28937918
-0.024393879 0.037396252 0.2893939
-0.023735788 0.037438117 0.28940865
-0.023077697 0.037479989 0.28942338
-0.019129146 0.037731186 0.28951174
-0.018471055 0.03777305 0.28952646
-0.01781296 0.037814915 0.28954121
-0.017154869 0.03785678 0.28955594
-0.016496778 0.037898652 0.28957069
-0.041313093 0.036606148 0.28798008
-0.040657606 0.036647849 0.28799477
-0.040002111 0.03668955 0.28800943
-0.038253944 0.037171856 0.2890161
-0.037595849 0.03721372 0.28903085
-0.037150856 0.037613101 0.29000831
-0.036490161 0.03765513 0.29002309
-0.035829466 0.037697159 0.29003787
-0.035168771 0.037739195 0.29005265
-0.034508076 0.037781224 0.29006743
-0.033847384 0.03782326 0.29008222
-0.033186693 0.037865289 0.29009703
-0.032525998 0.037907317 0.29011181
-0.031865306 0.037949353 0.29012659
-0.031204615 0.037991382 0.2901414
-0.03054392 0.038033418 0.29015619
-0.029698741 0.03771612 0.28920758
-0.029040653 0.037757985 0.2892223
-0.028382558 0.03779985 0.28923702
-0.027724467 0.037841715 0.28925174
-0.027066372 0.03788358 0.2892665
-0.026408281 0.037925452 0.28928122
-0.02575019 0.037967317 0.28929597
-0.024925821 0.03764867 0.28834689
-0.024434004 0.038051046 0.28932542
-0.023614835 0.037732072 0.28837621
-0.019169267 0.03838598 0.28944325
-0.018511176 0.038427845 0.28945798
-0.017853081 0.038469709 0.2894727
-0.01719499 0.038511574 0.28948742
-0.038294066 0.03782665 0.28894758
-0.037635971 0.037868515 0.2889623
-0.037191138 0.038270488 0.28993952
-0.036530443 0.038312517 0.2899543
-0.035869747 0.038354546 0.28996909
-0.035209052 0.038396582 0.28998387
-0.034548357 0.038438611 0.28999865
-0.033887666 0.038480647 0.29001346
-0.033226974 0.038522676 0.29002824
-0.032566279 0.038564712 0.29004303
-0.031905588 0.038606741 0.29005781
-0.031244896 0.038648769 0.29007262
-0.030584201 0.038690805 0.2900874
-0.029923506 0.038732834 0.29010218
-0.029080775 0.03841278 0.28915381
-0.02842268 0.038454644 0.28916854
-0.027764589 0.038496509 0.28918326
-0.027106494 0.038538374 0.28919798
-0.026448403 0.038580246 0.2892127
-0.025790311 0.038622111 0.28922743
-0.02513222 0.038663976 0.28924218
-0.024474125 0.038705841 0.2892569
-0.0236548 0.038384281 0.28830796
-0.036570724 0.038969897 0.28988552
-0.035910029 0.039011925 0.2899003
-0.035249334 0.039053962 0.28991508
-0.034588639 0.03909599 0.28992987
-0.033927947 0.039138027 0.28994468
-0.033267256 0.039180055 0.28995946
-0.032606561 0.039222091 0.28997424
-0.031945869 0.03926412 0.28998905
-0.031285178 0.039306149 0.29000384
-0.030624483 0.039348185 0.29001862
-0.029963788 0.039390214 0.2900334
-0.029303096 0.039432243 0.29004818
-0.028462805 0.039109431 0.28910002
-0.027804714 0.039151296 0.28911474
-0.027146619 0.039193161 0.2891295
-0.026488528 0.039235033 0.28914422
-0.025830436 0.039276898 0.28915894
-0.025172345 0.039318763 0.28917366
-0.037271701 0.03958524 0.28980196
-0.036611006 0.039627269 0.28981674
-0.036158677 0.04003492 0.2907936
-0.035495386 0.04007712 0.29080844
-0.03483209 0.04011932 0.29082328
-0.034168798 0.04016152 0.29083812
-0.033307537 0.039837427 0.28989068
-0.032646842 0.039879456 0.28990546
-0.031986151 0.039921492 0.28992027
-0.031325459 0.039963521 0.28993505
-0.030664764 0.040005557 0.28994983
-0.030004069 0.040047586 0.28996462
-0.029343378 0.040089622 0.2899794
-0.028682686 0.040131651 0.28999418
-0.027844835 0.03980609 0.28904623
-0.02718674 0.039847955 0.28906095
-0.035535827 0.040737107 0.29073942
-0.034872532 0.040779293 0.29075426
-0.03420924 0.040821493 0.2907691
-0.033545945 0.040863693 0.29078394
-0.032882653 0.040905893 0.29079878
-0.032219354 0.040948093 0.29081362
-0.031365741 0.040620908 0.28986627
-0.030705046 0.040662944 0.28988105
-0.030044351 0.040704973 0.28989583
-0.029383659 0.040747002 0.28991061
-0.028722968 0.040789038 0.2899254
-0.050777033 0.025698289 0.35372415
-0.05027771 0.025643125 0.35323852
-0.050505623 0.025236927 0.35212901
-0.050008178 0.025181979 0.35164523
-0.049510717 0.025127023 0.35116145
-0.049013257 0.025072075 0.35067764
-0.022288457 0.019531623 0.3167001
-0.021802187 0.019477911 0.31622717
-0.021315902 0.0194242 0.31575426
-0.020829618 0.019370481 0.31528136
-0.021202862 0.018980332 0.3143132
-0.020718455 0.018926822 0.31384209
-0.021097302 0.018537275 0.31287932
-0.020132199 0.018430665 0.31194073
-0.019649655 0.018377364 0.31147143
-0.019167095 0.018324062 0.31100217
-0.018684551 0.018270753 0.31053284
-0.018595725 0.017829552 0.30911532
-0.018115044 0.017776459 0.30864784
-0.051317513 0.026440457 0.35408938
-0.051541537 0.026031278 0.35297671
-0.051044092 0.02597633 0.3524929
-0.050546631 0.025921375 0.35200912
-0.050049171 0.025866427 0.35152534
-0.050282553 0.025458261 0.3504217
-0.049786955 0.025403515 0.34993973
-0.049291372 0.025348775 0.34945777
-0.049532175 0.024941444 0.34836137
-0.04903844 0.024886906 0.34788123
-0.048544705 0.024832368 0.34740105
-0.048792988 0.024425849 0.34631193
-0.025118113 0.020074919 0.31796527
-0.023787379 0.020361848 0.31800166
-0.023301095 0.020308137 0.31752872
-0.02281481 0.020254418 0.31705582
-0.022328541 0.0202007 0.31658289
-0.021842256 0.020146981 0.31610999
-0.022211626 0.019753858 0.31513864
-0.021727204 0.019700348 0.31466755
-0.021242797 0.019646838 0.31419644
-0.020758376 0.019593328 0.31372532
-0.021137089 0.019201219 0.31276301
-0.020654529 0.019147918 0.31229374
-0.02017197 0.019094609 0.31182441
-0.019689426 0.0190413 0.31135514
-0.020077407 0.018650234 0.31040192
-0.019596726 0.018597141 0.30993444
-0.019116044 0.018544041 0.30946696
-0.018635347 0.01849094 0.30899945
-0.018154666 0.018437847 0.30853197
-0.017673969 0.01838474 0.30806449
-0.017193288 0.018331647 0.30759701
-0.052577466 0.026825637 0.35382438
-0.052080005 0.026770681 0.3533406
-0.051582545 0.026715733 0.35285679
-0.05181019 0.026304394 0.3517482
-0.051314592 0.026249647 0.35126621
-0.050818995 0.0261949 0.35078424
-0.050323397 0.026140153 0.35030225
-0.050560325 0.02572985 0.34920272
-0.05006659 0.025675312 0.34872255
-0.04957287 0.025620773 0.34824237
-0.049079135 0.025566235 0.3477622
-0.049325392 0.025156945 0.34667173
-0.048833519 0.025102615 0.34619337
-0.048341662 0.025048286 0.34571502
-0.025642455 0.020794943 0.31831962
-0.025158033 0.020741433 0.3178485
-0.024673626 0.020687923 0.31737742
-0.024189204 0.020634413 0.3169063
-0.023704797 0.020580903 0.31643519
-0.023220375 0.020527393 0.31596407
-0.022735953 0.020473883 0.31549299
-0.021767139 0.020366862 0.31455079
-0.021282718 0.020313352 0.31407967
-0.021659404 0.019918472 0.31311598
-0.021176845 0.019865163 0.31264672
-0.020694315 0.019811861 0.31217742
-0.020211756 0.019758552 0.31170812
-0.020597726 0.019364715 0.31075355
-0.02011703 0.019311622 0.31028607
-0.019636348 0.019258514 0.30981857
-0.019155651 0.019205421 0.30935109
-0.01867497 0.019152321 0.30888361
-0.018194288 0.019099221 0.30841613
-0.017713591 0.019046128 0.30794865
-0.017232895 0.018993028 0.30748117
-0.05383341 0.027205259 0.35355666
-0.053337812 0.027150512 0.35307467
-0.052346617 0.027041025 0.35211071
-0.051851034 0.026986286 0.35162875
-0.051355436 0.026931539 0.35114676
-0.051588476 0.026518255 0.35004404
-0.051094756 0.026463717 0.34956387
-0.05060102 0.026409179 0.34908369
-0.05084154 0.025996715 0.34798822
-0.050349668 0.025942378 0.34750989
-0.049857795 0.025888041 0.3470315
-0.049365938 0.025833711 0.34655318
-0.048874065 0.025779381 0.34607482
-0.048382193 0.025725052 0.34559646
-0.04789032 0.025670715 0.34511811
-0.026166797 0.02151496 0.31867397
-0.025682375 0.02146145 0.31820285
-0.025197968 0.021407939 0.31773177
-0.024713546 0.021354429 0.31726065
-0.024229139 0.021300919 0.31678954
-0.023744717 0.021247409 0.31631842
-0.023260295 0.021193899 0.31584734
-0.022775888 0.021140389 0.31537622
-0.022291481 0.021086879 0.31490514
-0.02180706 0.021033369 0.31443402
-0.022181734 0.020635724 0.31346899
-0.02169919 0.020582415 0.3129997
-0.021216631 0.020529114 0.3125304
-0.020734072 0.020475805 0.3120611
-0.02111803 0.020079195 0.31110516
-0.020637348 0.020026103 0.31063768
-0.020156652 0.019973002 0.3101702
-0.01967597 0.019919902 0.30970272
-0.019195274 0.019866809 0.30923524
-0.018714577 0.019813702 0.30876777
-0.018233895 0.019760609 0.30830029
-0.017753214 0.019707508 0.30783281
-0.018153965 0.019312739 0.30689314
-0.017675132 0.019259848 0.30642745
-0.017196327 0.019206956 0.30596179
-0.053604096 0.027415738 0.35184571
-0.053110361 0.027361199 0.35136554
-0.052357674 0.02683647 0.34930474
-0.051865816 0.02678214 0.34882638
-0.051373944 0.026727811 0.34834802
-0.050882071 0.026673473 0.34786966
-0.051126152 0.026258864 0.34677827
-0.050636142 0.026204735 0.3463017
-0.050146133 0.026150614 0.34582517
-0.049656123 0.026096478 0.34534863
-0.049166128 0.026042357 0.34487209
-0.048676118 0.025988221 0.34439555
-0.048186108 0.0259341 0.34391901
-0.046947122 0.026238814 0.34404284
-0.027529582 0.021886006 0.31851491
-0.027047023 0.021832705 0.31804562
-0.025722295 0.022127956 0.31808612
-0.025237888 0.022074446 0.317615
-0.024753481 0.022020936 0.31714389
-0.024269059 0.021967426 0.31667277
-0.023784637 0.021913916 0.31620169
-0.023300231 0.021860406 0.31573057
-0.022815809 0.021806896 0.31525949
-0.022331402 0.021753386 0.31478837
-0.02184698 0.021699876 0.31431726
-0.022221506 0.02129966 0.31335267
-0.021738946 0.021246359 0.31288338
-0.021256402 0.021193057 0.31241408
-0.020773858 0.021139756 0.31194481
-0.021157652 0.020740584 0.31098929
-0.02067697 0.020687483 0.31052181
-0.020196259 0.020634383 0.31005433
-0.019715577 0.02058129 0.30958685
-0.019234896 0.02052819 0.30911937
-0.018754199 0.02047509 0.30865189
-0.018273517 0.020421997 0.30818442
-0.018672258 0.020024449 0.30724338
-0.018193424 0.019971564 0.30677772
-0.017714605 0.019918665 0.30631205
-0.017235786 0.019865774 0.30584636
-0.016756952 0.019812882 0.3053807
-0.016278133 0.01975999 0.30491504
-0.054857552 0.027784899 0.35157797
-0.054365695 0.027730569 0.35109958
-0.053873822 0.02767624 0.35062125
-0.053616554 0.027203709 0.34904286
-0.053126544 0.027149573 0.34856632
-0.052636549 0.027095452 0.34808978
-0.052146539 0.027041316 0.34761325
-0.051656529 0.026987195 0.34713671
-0.051902324 0.026570231 0.34604758
-0.051414192 0.026516303 0.34557286
-0.050926045 0.026462384 0.34509811
-0.050437912 0.026408464 0.34462339
-0.049949765 0.026354536 0.34414867
-0.049461618 0.026300617 0.34367391
-0.048973471 0.026246697 0.34319919
-0.048485339 0.026192769 0.34272447
-0.027569354 0.022549957 0.31839859
-0.027086794 0.022496656 0.3179293
-0.02660425 0.022443354 0.31746003
-0.026121691 0.022390045 0.3169907
-0.025639147 0.022336736 0.31652144
-0.025156587 0.022283435 0.31605214
-0.02322638 0.022070222 0.31417498
-0.022743821 0.022016913 0.31370565
-0.022261277 0.021963611 0.31323639
-0.021778733 0.02191031 0.31276706
-0.022158653 0.021508157 0.31180841
-0.021677956 0.021455064 0.31134093
-0.021197259 0.021401964 0.31087345
-0.020716578 0.021348864 0.31040597
-0.020235881 0.021295771 0.30993846
-0.0197552 0.021242663 0.30947098
-0.019274503 0.02118957 0.3090035
-0.019669369 0.020789057 0.3080593
-0.01919055 0.020736165 0.30759364
-0.018711716 0.020683274 0.30712798
-0.018232897 0.020630382 0.30666229
-0.017754078 0.02057749 0.30619663
-0.017275244 0.020524599 0.30573097
-0.01679641 0.020471707 0.30526528
-0.016317606 0.020418808 0.30479965
-0.05610697 0.028148532 0.35130748
-0.05561696 0.028094411 0.35083094
-0.054636955 0.027986154 0.34987786
-0.05487141 0.027565397 0.34877828
-0.054383278 0.027511477 0.34830359
-0.053895131 0.02745755 0.34782884
-0.053406984 0.02740363 0.34735411
-0.052918851 0.02734971 0.34687939
-0.053164497 0.026930168 0.34579065
-0.052678213 0.02687645 0.34531775
-0.052191928 0.026822731 0.34484485
-0.051705658 0.02676902 0.34437191
-0.051219374 0.026715308 0.34389898
-0.050733089 0.02666159 0.34342608
-0.05024682 0.026607871 0.34295318
-0.049760535 0.026554152 0.34248024
-0.048787981 0.026446722 0.34153441
-0.027609125 0.023213908 0.31828228
-0.027966529 0.022806726 0.31730232
-0.026644021 0.023107298 0.31734371
-0.026161462 0.023053989 0.31687441
-0.025678918 0.023000687 0.31640512
-0.025196359 0.022947386 0.31593582
-0.024713814 0.022894084 0.31546652
-0.024231255 0.022840776 0.31499723
-0.023748696 0.022787467 0.31452796
-0.023266152 0.022734165 0.31405866
-0.022783607 0.022680864 0.31358936
-0.022301048 0.022627562 0.31312007
-0.022678941 0.022222638 0.31216002
-0.02219826 0.022169545 0.31169254
-0.021717578 0.022116445 0.31122506
-0.021236882 0.022063345 0.31075758
-0.0207562 0.022010252 0.3102901
-0.021145314 0.02160655 0.30934092
-0.02066648 0.021553665 0.30887523
-0.020187661 0.021500766 0.30840957
-0.019708842 0.021447875 0.30794391
-0.019230008 0.021394983 0.30747822
-0.018751189 0.021342091 0.30701256
-0.018272355 0.0212892 0.3065469
-0.017793536 0.021236308 0.30608121
-0.017314717 0.021183416 0.30561557
-0.016835883 0.021130517 0.30514988
-0.017245471 0.020729102 0.30422065
-0.0167685 0.020676419 0.3037568
-0.056864217 0.028452717 0.35055956
-0.05637607 0.028398797 0.35008481
-0.056122243 0.027921535 0.34851095
-0.055635959 0.027867824 0.34803805
-0.055149689 0.027814105 0.34756514
-0.054663405 0.027760386 0.34709221
-0.05417712 0.027706668 0.34661931
-0.053690851 0.027652957 0.34614637
-0.053204566 0.027599245 0.34567347
-0.052718282 0.027545527 0.34520054
-0.052969351 0.027124047 0.34411773
-0.052484944 0.027070537 0.34364665
-0.052000523 0.027017027 0.34317556
-0.051516101 0.026963517 0.34270445
-0.051031694 0.026910007 0.34223333
-0.028486848 0.023521207 0.31765395
-0.028006151 0.023468107 0.31718647
-0.02752547 0.023415014 0.31671897
-0.027044773 0.023361914 0.31625149
-0.026564091 0.023308814 0.31578401
-0.026083395 0.023255721 0.31531653
-0.025602713 0.023202613 0.31484905
-0.024271026 0.023504719 0.31488094
-0.023788482 0.023451418 0.31441164
-0.023305923 0.023398116 0.31394234
-0.022823364 0.023344815 0.31347305
-0.02319926 0.022937126 0.31251165
-0.022718564 0.022884026 0.31204417
-0.022237882 0.022830933 0.31157669
-0.021757185 0.022777826 0.31110922
-0.021276504 0.022724733 0.31064174
-0.020795822 0.022671632 0.31017426
-0.020315126 0.022618532 0.30970678
-0.020705953 0.022212483 0.30875984
-0.020227134 0.022159591 0.30829415
-0.0197483 0.0221067 0.30782849
-0.019269481 0.022053808 0.30736282
-0.018790647 0.022000909 0.30689716
-0.018311828 0.021948025 0.3064315
-0.017832994 0.021895126 0.30596581
-0.017354175 0.021842234 0.30550015
-0.017761737 0.021438047 0.30456957
-0.017284781 0.021385357 0.3041057
-0.016807809 0.021332666 0.30364183
-0.016330853 0.021279983 0.30317798
-0.057621151 0.028751761 0.34981251
-0.057369024 0.028272152 0.34824094
-0.056162313 0.028590605 0.34839377
-0.05640018 0.028165132 0.34729874
-0.055915773 0.028111622 0.34682763
-0.055431351 0.028058112 0.34635654
-0.054946944 0.028004602 0.34588543
-0.054462522 0.027951092 0.34541431
-0.053978115 0.027897581 0.3449432
-0.053493693 0.027844071 0.34447208
-0.053746492 0.027420223 0.34339154
-0.053263947 0.027366921 0.34292224
-0.052781388 0.027313612 0.34245294
-0.052298844 0.027260311 0.34198365
-0.051071614 0.027576521 0.34211656
-0.05133374 0.027153701 0.34104505
-0.028526455 0.024182588 0.31753808
-0.028045774 0.024129495 0.3170706
-0.027565092 0.024076387 0.31660312
-0.027084395 0.024023294 0.31613564
-0.026603699 0.023970194 0.31566817
-0.026123017 0.023917094 0.31520069
-0.025642335 0.023864001 0.31473321
-0.025161639 0.023810901 0.3142657
-0.024680942 0.0237578 0.31379822
-0.024200261 0.023704708 0.31333074
-0.02286315 0.024008751 0.31335673
-0.02238059 0.023955449 0.31288746
-0.021898031 0.023902148 0.31241813
-0.021415487 0.023848839 0.31194887
-0.020932943 0.023795538 0.31147957
-0.021316126 0.023386113 0.31052586
-0.020835429 0.023333013 0.31005839
-0.020354748 0.02327992 0.30959091
-0.019874051 0.023226812 0.30912343
-0.020266593 0.022818409 0.30817875
-0.019787759 0.022765517 0.30771306
-0.01930894 0.022712618 0.30724743
-0.018830121 0.022659734 0.30678174
-0.018351287 0.022606835 0.30631608
-0.017872468 0.022553951 0.30585042
-0.018278018 0.022146985 0.30491844
-0.017801046 0.022094294 0.30445459
-0.01732409 0.022041611 0.30399075
-0.016847134 0.021988928 0.30352688
-0.016370162 0.021936238 0.30306301
-0.015893206 0.021883547 0.30259916
-0.058862194 0.029099189 0.34953752
-0.058377773 0.029045679 0.34906641
-0.057893366 0.028992169 0.34859529
-0.057408944 0.028938659 0.34812418
-0.056924522 0.028885148 0.34765306
-0.056440115 0.028831638 0.34718198
-0.055955693 0.028778128 0.34671089
-0.056199029 0.028350696 0.34562171
-0.055716485 0.028297395 0.34515241
-0.055233926 0.028244086 0.34468311
-0.054751366 0.028190777 0.34421381
-0.054268822 0.028137475 0.34374452
-0.053786263 0.028084174 0.34327522
-0.053303719 0.028030872 0.34280595
-0.053561926 0.027605087 0.34173128
-0.053081229 0.027551994 0.3412638
-0.052600548 0.027498893 0.34079632
-0.052119851 0.027445793 0.34032884
-0.051639169 0.0273927 0.33986136
-0.051158473 0.027339593 0.33939388
-0.050677791 0.0272865 0.3389264
-0.028566077 0.024843976 0.31742224
-0.028085396 0.024790876 0.31695476
-0.027604699 0.024737775 0.31648728
-0.027124017 0.024684682 0.3160198
-0.026643321 0.024631575 0.31555229
-0.026162624 0.024578482 0.31508482
-0.025681943 0.024525382 0.31461734
-0.025201261 0.024472281 0.31414986
-0.023868024 0.024779312 0.31417903
-0.023385465 0.024726011 0.31370971
-0.022902906 0.024672702 0.31324044
-0.022420362 0.024619401 0.31277111
-0.021937817 0.024566099 0.31230184
-0.021455258 0.02451279 0.31183255
-0.020972699 0.024459489 0.31136325
-0.02049014 0.02440618 0.31089395
-0.020875052 0.023994401 0.30994251
-0.020394355 0.023941301 0.30947503
-0.019913673 0.023888201 0.30900756
-0.019432992 0.023835108 0.30854008
-0.019827232 0.023424335 0.30759767
-0.019348413 0.023371443 0.30713201
-0.018869579 0.023318544 0.30666634
-0.018390745 0.02326566 0.30620065
-0.018794283 0.02285593 0.30526736
-0.018317327 0.022803247 0.30480349
-0.017840356 0.022750556 0.30433962
-0.017363399 0.022697866 0.30387577
-0.016886443 0.022645183 0.30341193
-0.016409472 0.0225925 0.30294806
-0.015932515 0.022539809 0.30248418
-0.058902115 0.02976571 0.34942076
-0.058417708 0.0297122 0.34894964
-0.057933286 0.02965869 0.34847853
-0.057448864 0.02960518 0.34800741
-0.057686463 0.029174551 0.34691325
-0.057203904 0.02912125 0.34644398
-0.056721359 0.029067948 0.34597468
-0.0562388 0.02901464 0.34550539
-0.055756256 0.028961338 0.34503609
-0.056004986 0.028531969 0.34395283
-0.055524305 0.028478876 0.34348536
-0.055043608 0.028425768 0.34301788
-0.054562926 0.028372675 0.34255037
-0.05408223 0.028319575 0.34208289
-0.053601548 0.028266475 0.34161541
-0.053120852 0.028213382 0.34114793
-0.05264017 0.028160281 0.34068045
-0.052159473 0.028107181 0.34021297
-0.051678792 0.028054088 0.33974549
-0.051198095 0.028000981 0.33927801
-0.050717413 0.027947888 0.33881053
-0.050236717 0.027894787 0.33834305
-0.050511569 0.027468279 0.33728513
-0.029922038 0.0251939 0.31726131
-0.0286057 0.025505364 0.31730637
-0.028125018 0.025452264 0.31683889
-0.027644321 0.025399163 0.31637141
-0.027163625 0.025346071 0.31590393
-0.026682943 0.025292963 0.31543645
-0.026202247 0.02523987 0.31496897
-0.025721565 0.02518677 0.31450149
-0.025240868 0.025133669 0.31403401
-0.023907781 0.025443256 0.31406271
-0.023425236 0.025389954 0.31359342
-0.022942692 0.025336653 0.31312412
-0.022460133 0.025283352 0.31265482
-0.021117702 0.025591925 0.31267449
-0.02063328 0.025538415 0.31220338
-0.020148873 0.025484905 0.31173229
-0.020529926 0.025070131 0.31077763
-0.020047367 0.025016829 0.31030837
-0.019564807 0.024963528 0.30983907
-0.019953281 0.024549589 0.30889168
-0.019472599 0.024496496 0.3084242
-0.01986669 0.02408316 0.30748227
-0.019387871 0.024030268 0.30701658
-0.017879665 0.023406819 0.30422467
-0.017402709 0.023354128 0.3037608
-0.016925752 0.023301437 0.30329695
-0.016448781 0.023248754 0.30283311
-0.015971825 0.023196071 0.30236924
-0.059656441 0.030051723 0.34867415
-0.059173882 0.029998414 0.34820482
-0.058691338 0.029945105 0.34773555
-0.058208779 0.029891804 0.34726626
-0.057726234 0.029838502 0.34679696
-0.057243675 0.029785201 0.34632766
-0.057486683 0.02935265 0.34523943
-0.057005987 0.029299542 0.34477195
-0.05652529 0.029246449 0.34430447
-0.056044608 0.029193349 0.34383699
-0.055563927 0.029140249 0.34336948
-0.055818126 0.02870892 0.3422921
-0.055339292 0.028656036 0.34182641
-0.054860473 0.028603137 0.34136075
-0.054381654 0.028550245 0.34089509
-0.05390282 0.028497353 0.3404294
-0.053424001 0.028444462 0.33996373
-0.052945167 0.02839157 0.33949807
-0.052466348 0.028338671 0.33903238
-0.051987514 0.028285787 0.33856675
-0.051508695 0.028232887 0.33810106
-0.051029861 0.028179996 0.3376354
-0.050551042 0.028127104 0.33716974
-0.050072208 0.028074212 0.33670405
-0.049114555 0.027968422 0.33577272
-0.049398541 0.027540401 0.33472434
-0.048921585 0.02748771 0.33426046
-0.04718408 0.023620576 0.32197401
-0.029961511 0.025852725 0.31714591
-0.029482692 0.025799833 0.31668025
-0.029003859 0.025746942 0.31621459
-0.027683944 0.026060544 0.31625554
-0.027203247 0.026007444 0.31578806
-0.02672255 0.025954351 0.31532058
-0.026241869 0.025901251 0.3148531
-0.025761187 0.02584815 0.31438562
-0.025280491 0.025795057 0.31391814
-0.023947567 0.026107207 0.3139464
-0.023465008 0.026053905 0.3134771
-0.022982448 0.026000604 0.3130078
-0.021157622 0.026258431 0.31255773
-0.0206732 0.026204921 0.31208664
-0.020188794 0.026151411 0.31161553
-0.019704372 0.026097901 0.31114444
-0.020087138 0.025680773 0.31019205
-0.016965061 0.0239577 0.30318198
-0.01648809 0.023905009 0.30271813
-0.060891122 0.030385718 0.34839591
-0.060410425 0.030332625 0.34792843
-0.059929743 0.030279517 0.34746096
-0.058731109 0.030609056 0.34761924
-0.058968365 0.030173324 0.346526
-0.058487669 0.030120224 0.34605852
-0.058006987 0.030067131 0.34559104
-0.05752629 0.030014031 0.34512356
-0.057045609 0.02996093 0.34465608
-0.056564912 0.029907838 0.3441886
-0.056815237 0.029473528 0.34310803
-0.056336418 0.029420629 0.34264234
-0.055857584 0.029367745 0.34217668
-0.055378765 0.029314846 0.34171101
-0.054899931 0.029261954 0.34124532
-0.055161417 0.028828889 0.34017566
-0.054684445 0.028776206 0.33971182
-0.054207489 0.028723523 0.33924794
-0.053730518 0.028670833 0.33878407
-0.053253561 0.028618142 0.33832023
-0.05277659 0.028565459 0.33785638
-0.051548153 0.028891712 0.33798566
-0.051069334 0.028838813 0.33751997
-0.0505905 0.028785922 0.33705431
-0.05086875 0.028354712 0.33600095
-0.050391778 0.028302029 0.33553708
-0.049914822 0.028249338 0.33507323
-0.049437851 0.028196648 0.33460936
-0.048960894 0.028143972 0.33414552
-0.048483923 0.028091282 0.33368164
-0.048006967 0.028038591 0.3332178
-0.030359328 0.026089184 0.31605503
-0.029882371 0.026036501 0.31559119
-0.028564498 0.026352867 0.31563351
-0.028085679 0.026299968 0.31516781
-0.026762173 0.026615731 0.31520471
-0.026281476 0.026562631 0.31473723
-0.025800794 0.026509538 0.31426975
-0.024469882 0.026824459 0.31429937
-0.023987323 0.026771151 0.31383011
-0.023504779 0.026717849 0.31336078
-0.023022234 0.02666454 0.31289151
-0.021681964 0.026978448 0.31291208
-0.021197543 0.026924938 0.31244099
-0.020713121 0.026871428 0.31196988
-0.020228714 0.026817918 0.31149879
-0.019744307 0.026764408 0.31102768
-0.019259885 0.026710898 0.31055656
-0.062121794 0.030714162 0.348115
-0.061642975 0.03066127 0.34764931
-0.060450047 0.030993998 0.34781259
-0.059969366 0.030940905 0.34734511
-0.059488669 0.030887805 0.34687763
-0.059007972 0.030834705 0.34641016
-0.058527291 0.030781612 0.34594265
-0.058046594 0.030728504 0.34547517
-0.057565913 0.030675411 0.34500769
-0.057812363 0.030238129 0.34392396
-0.057333529 0.030185238 0.34345827
-0.05685471 0.030132338 0.3429926
-0.056375876 0.030079454 0.34252694
-0.05663161 0.029643208 0.34145227
-0.056154653 0.029590517 0.34098843
-0.055677682 0.029537834 0.34052455
-0.055200726 0.029485151 0.34006068
-0.054723755 0.029432461 0.33959684
-0.054246798 0.02937977 0.33913299
-0.053769827 0.029327087 0.33866912
-0.053292871 0.029274404 0.33820525
-0.052815899 0.029221714 0.3377414
-0.052338943 0.029169023 0.33727756
-0.051861972 0.02911634 0.33681369
-0.051385015 0.029063657 0.33634982
-0.050908059 0.029010966 0.33588597
-0.050431088 0.028958276 0.33542213
-0.049954131 0.0289056 0.33495826
-0.04947716 0.02885291 0.33449441
-0.049000204 0.028800219 0.33403054
-0.048523232 0.028747529 0.3335667
-0.048046276 0.028694853 0.33310282
-0.047569305 0.028642163 0.33263898
-0.047092348 0.028589472 0.33217511
-0.04772231 0.024943113 0.32220063
-0.028125137 0.026958793 0.31505242
-0.026801795 0.027277112 0.31508887
-0.026321098 0.027224019 0.31462139
-0.025840417 0.027170911 0.31415391
-0.024509653 0.02748841 0.31418309
-0.024027109 0.027435102 0.31371379
-0.02354455 0.0273818 0.31324449
-0.022206306 0.027698472 0.31326643
-0.0217219 0.027644962 0.31279534
-0.020378083 0.027961008 0.31281182
-0.019891813 0.027907297 0.31233892
-0.019405544 0.027853578 0.31186599
-0.018919244 0.02779986 0.31139305
-0.018330976 0.027270392 0.30949759
-0.063348413 0.031037077 0.34783134
-0.062161252 0.031372979 0.34799957
-0.061682433 0.031320095 0.34753391
-0.061203599 0.031267196 0.34706822
-0.06072478 0.031214304 0.34660256
-0.060245961 0.031161413 0.3461369
-0.059767127 0.031108521 0.34567121
-0.059288308 0.031055629 0.34520555
-0.058809474 0.03100273 0.34473988
-0.058330655 0.030949846 0.34427419
-0.057851821 0.030896947 0.34380853
-0.057373002 0.030844063 0.34334287
-0.056894168 0.030791163 0.34287718
-0.05714789 0.030352153 0.34180117
-0.056670919 0.03029947 0.34133729
-0.056193963 0.030246779 0.34087345
-0.055716991 0.030194089 0.34040961
-0.055240035 0.030141406 0.33994573
-0.054763064 0.030088723 0.33948186
-0.054286107 0.030036032 0.33901802
-0.053809136 0.029983342 0.33855417
-0.05333218 0.029930659 0.3380903
-0.052855223 0.029877976 0.33762643
-0.052378252 0.029825285 0.33716258
-0.051901296 0.029772595 0.33669874
-0.051424325 0.029719912 0.33623487
-0.050947368 0.029667228 0.33577102
-0.050470397 0.029614538 0.33530715
-0.049993441 0.029561847 0.33484331
-0.049516469 0.029509172 0.33437946
-0.049039513 0.029456481 0.33391559
-0.048562557 0.029403791 0.33345172
-0.048085585 0.0293511 0.33298787
-0.047608629 0.029298425 0.332524
-0.047131658 0.029245734 0.33206016
-0.046654701 0.029193044 0.33159629
-0.047760397 0.025578856 0.32208925
-0.046836272 0.025476784 0.32119054
-0.026841417 0.0279385 0.314973
-0.02636072 0.0278854 0.31450552
-0.025880039 0.027832299 0.31403804
-0.024549425 0.028152347 0.31406677
-0.023215055 0.028472006 0.31409189
-0.022730649 0.028418496 0.31362078
-0.022246242 0.028364986 0.31314969
-0.020904452 0.028683797 0.31316754
-0.020418167 0.028630078 0.31269461
-0.019931883 0.028576367 0.31222171
-0.018582627 0.028894372 0.31223235
-0.01809448 0.028840452 0.31175759
-0.065046087 0.031406954 0.34800699
-0.063864678 0.031746022 0.3481802
-0.063387722 0.031693339 0.34771636
-0.062910751 0.031640649 0.34725252
-0.062433794 0.031587958 0.34678864
-0.061956823 0.031535275 0.34632477
-0.060764238 0.031873122 0.34648713
-0.060285419 0.03182023 0.34602147
-0.059806585 0.031767339 0.34555581
-0.059327766 0.031714447 0.34509012
-0.058848932 0.031661555 0.34462446
-0.058370113 0.031608656 0.3441588
-0.058618084 0.031166464 0.34307778
-0.058141127 0.031113781 0.34261391
-0.057664156 0.031061098 0.34215006
-0.0571872 0.031008407 0.34168622
-0.056710228 0.030955717 0.34122235
-0.056233272 0.030903034 0.34075847
-0.055756301 0.030850351 0.34029463
-0.055279344 0.03079766 0.33983079
-0.054802373 0.03074497 0.33936691
-0.054325417 0.030692287 0.33890304
-0.053848445 0.030639604 0.3384392
-0.053371489 0.030586913 0.33797535
-0.052894533 0.030534223 0.33751148
-0.052417561 0.03048154 0.33704764
-0.051940605 0.030428857 0.33658376
-0.051463634 0.030376166 0.33611992
-0.050986677 0.030323476 0.33565605
-0.050509721 0.0302708 0.3351922
-0.05003275 0.030218109 0.33472833
-0.049555793 0.030165419 0.33426449
-0.049078822 0.030112728 0.33380064
-0.048601866 0.030060053 0.33333677
-0.048124894 0.030007362 0.3328729
-0.047647938 0.029954672 0.33240905
-0.047170967 0.029901981 0.33194521
-0.04669401 0.029849306 0.33148134
-0.04779847 0.026214615 0.32197788
-0.047336414 0.026163571 0.32152852
-0.046874359 0.026112527 0.32107916
-0.026881039 0.028599881 0.31485716
-0.025071755 0.028869599 0.31441975
-0.024589196 0.028816298 0.31395045
-0.023254991 0.029138513 0.31397513
-0.066510543 0.032218084 0.3492786
-0.066035435 0.032165602 0.34881657
-0.065560341 0.03211312 0.34835452
-0.065085232 0.032060638 0.34789249
-0.063903987 0.032402277 0.34806526
-0.063427031 0.032349586 0.34760138
-0.06295006 0.032296903 0.34713754
-0.062473103 0.03224422 0.3466737
-0.061996132 0.03219153 0.34620982
-0.061519176 0.032138839 0.34574595
-0.061042204 0.032086156 0.34528211
-0.060565248 0.032033473 0.34481826
-0.060088277 0.031980783 0.34435439
-0.05961132 0.031928092 0.34389052
-0.059134364 0.031875409 0.34342667
-0.058657393 0.031822726 0.34296283
-0.058180436 0.031770036 0.34249896
-0.057703465 0.031717345 0.34203508
-0.057226509 0.031664662 0.34157124
-0.057483643 0.031220943 0.34049973
-0.057008535 0.031168461 0.3400377
-0.056533441 0.031115986 0.33957565
-0.056058347 0.031063505 0.33911362
-0.055583239 0.031011023 0.33865157
-0.055108145 0.030958541 0.33818951
-0.054633036 0.030906066 0.33772746
-0.054157943 0.030853584 0.3372654
-0.052933842 0.031190485 0.33739653
-0.052456871 0.031137794 0.33693269
-0.051979914 0.031085104 0.33646882
-0.051502943 0.031032421 0.33600494
-0.051025987 0.030979738 0.3355411
-0.05054903 0.030927047 0.33507726
-0.050072059 0.030874357 0.33461338
-0.049595103 0.030821681 0.33414951
-0.049118131 0.030768991 0.33368567
-0.048641175 0.0307163 0.33322182
-0.048164204 0.03066361 0.33275795
-0.047687247 0.030610934 0.33229408
-0.047210276 0.030558243 0.33183023
-0.04673332 0.030505553 0.33136639
-0.047836557 0.026850358 0.32186651
-0.047374502 0.026799321 0.32141715
-0.046912447 0.026748277 0.32096779
-0.067024797 0.032924257 0.34962615
-0.066549689 0.032871775 0.3491641
-0.066074595 0.032819301 0.34870204
-0.065599501 0.032766819 0.34824002
-0.065124393 0.032714337 0.34777796
-0.064649299 0.032661855 0.34731594
-0.06417419 0.032609373 0.34685388
-0.063699096 0.032556891 0.34639183
-0.062512413 0.032900475 0.34655872
-0.062035441 0.032847792 0.34609488
-0.061558485 0.032795101 0.345631
-0.061081529 0.032742411 0.34516713
-0.060604557 0.032689728 0.34470329
-0.060127601 0.032637045 0.34423944
-0.05965063 0.032584354 0.34377557
-0.059173673 0.032531664 0.3433117
-0.059423193 0.032084562 0.34223342
-0.0589481 0.03203208 0.34177136
-0.058472991 0.031979606 0.34130934
-0.057997897 0.031927124 0.34084728
-0.057522804 0.031874642 0.34038523
-0.057047695 0.03182216 0.33992317
-0.056572601 0.031769678 0.33946112
-0.056097493 0.031717196 0.33899909
-0.055622399 0.031664714 0.33853704
-0.05514729 0.031612232 0.33807501
-0.054672197 0.03155975 0.33761296
-0.054197103 0.031507269 0.3371509
-0.053721994 0.031454787 0.33668885
-0.0532469 0.031402305 0.33622682
