# .PCD v0.7 - Point Cloud Data file format
VERSION 0.7
FIELDS x y z
SIZE 4 4 4
TYPE F F F
COUNT 1 1 1
WIDTH 132
HEIGHT 1
VIEWPOINT 0 0 0 1 0 0 0
POINTS 132
DATA ascii
0.71368265 -0.00099526346 0.52355456
0.71668398 0.0015793443 0.52425051
0.71065176 0.0038051531 0.52402031
0.72073138 0.0042482167 0.5253123
0.70463562 0.0060088187 0.52377927
0.71469164 0.00647486 0.52508938
0.72373056 0.0068561509 0.52600253
0.6986357 0.0081903189 0.52352726
0.70762503 0.0085949078 0.5244844
0.71768546 0.0090808421 0.52578545
0.7267288 0.0094794631 0.52668989
0.70161963 0.010774471 0.52423829
0.70957065 0.011109374 0.52481592
0.71858883 0.011528619 0.5257408
0.72763288 0.011944979 0.5266403
0.69355237 0.012751922 0.52323329
0.7035619 0.013284229 0.52457434
0.71255839 0.013723671 0.52551603
0.72158098 0.014160238 0.52643239
0.72958326 0.014504775 0.52695656
0.69653034 0.015344381 0.52394831
0.70550334 0.015804246 0.52490866
0.71450257 0.016261213 0.52584356
0.72352791 0.016715318 0.52675319
0.73048651 0.016983107 0.52690476
0.69055581 0.017472148 0.52368367
0.69950724 0.017952211 0.52466071
0.70744431 0.0183345 0.5252412
0.7154038 0.018714324 0.52579987
0.72338557 0.019091681 0.52633685
0.73243582 0.019560844 0.52721786
0.68459737 0.019577749 0.523408
0.69352734 0.020078033 0.5244019
0.70144486 0.020477772 0.52499771
0.70938468 0.020875029 0.52557182
0.71838915 0.021367081 0.52649325
0.72533143 0.021662146 0.52665484
0.73229241 0.021955155 0.52679843
0.67865515 0.021661207 0.52312148
0.68756354 0.022181697 0.52413213
0.69546151 0.022598878 0.52474344
0.70338178 0.023013569 0.52533293
0.71028411 0.023325779 0.5255304
0.71928942 0.023835562 0.52644682
0.72518873 0.024043635 0.52623773
0.732149 0.024349466 0.52637899
0.68161583 0.024263211 0.52385139
0.68949437 0.024697825 0.52447814
0.69739497 0.025129959 0.52508318
0.70427978 0.025456838 0.52529466
0.71222341 0.025884241 0.52585799
0.71914744 0.026206799 0.52603149
0.72504616 0.026425131 0.52582049
0.7320056 0.026743777 0.52595961
0.68147814 0.026562676 0.52344859
0.69142437 0.027224198 0.52482247
0.69829166 0.02756574 0.52504802
0.70517755 0.027905226 0.5252555
0.71312213 0.02834782 0.52581429
0.71900535 0.028578043 0.52561605
0.72699094 0.029016107 0.52613503
0.73186207 0.029138088 0.52554011
0.68237269 0.028970659 0.52342212
0.69128537 0.02954416 0.52441609
0.69918799 0.030006662 0.52501202
0.705037 0.030250832 0.52484465
0.71298063 0.030708805 0.52540076
0.71886337 0.03094928 0.52520072
0.72476077 0.031188115 0.52498615
0.73171866 0.031532392 0.52512074
0.68223488 0.03127268 0.52301884
0.69114637 0.031864136 0.52400964
0.69801211 0.032231316 0.52423072
0.70489657 0.032596439 0.52443373
0.71283925 0.033069789 0.5249871
0.71872127 0.033320516 0.52478528
0.72670496 0.033789344 0.52529883
0.73157525 0.033926703 0.5247013
0.69100749 0.034184098 0.5236032
0.6978724 0.0345641 0.52382207
0.70475602 0.034942038 0.52402282
0.71165824 0.03531792 0.52420545
0.71857929 0.035691753 0.5243699
0.7244755 0.0359511 0.5241518
0.73143184 0.036321014 0.52428186
0.696697 0.036781073 0.52304214
0.70357811 0.037172034 0.52324241
0.70943832 0.037445545 0.52305692
0.71739602 0.037947804 0.52358866
0.72328985 0.038217604 0.52337056
0.73128843 0.038715325 0.52386242
0.72314727 0.040596537 0.52295387
0.7290554 0.040874943 0.52271944
0.71980786 0.050175212 0.52260482
0.72070587 0.052682169 0.52255166
0.72868764 0.05327341 0.52303821
0.73460388 0.053601854 0.52278399
0.72368371 0.055460528 0.52322304
0.73062825 0.055933595 0.52334058
0.73759151 0.056404606 0.52344
0.70970905 0.056869179 0.52252001
0.71765363 0.057495087 0.52303565
0.72458076 0.057982847 0.52316713
0.73256814 0.058604032 0.52364111
0.74057817 0.059222758 0.52409327
0.71060371 0.059368834 0.52247179
0.71854937 0.060009941 0.52298295
0.72755718 0.060786843 0.52383411
0.73346591 0.061146662 0.52357996
0.74356377 0.062056258 0.52474391
0.71253407 0.062014878 0.52278775
0.72152019 0.062811986 0.52365577
0.72845316 0.063324541 0.52377558
0.73644626 0.063975662 0.5242368
0.74446177 0.064624324 0.52467638
0.71342802 0.064527363 0.52273738
0.72241485 0.065342218 0.52360034
0.73038852 0.066010758 0.52407706
0.73630166 0.066390485 0.52381384
0.74431622 0.067054525 0.52425069
0.71328592 0.066898599 0.52232194
0.7222718 0.067731395 0.5231818
0.7302444 0.068415329 0.52365577
0.73615694 0.068805292 0.52339077
0.74417067 0.069484726 0.52382493
0.72109139 0.069971845 0.52240145
0.73010039 0.070819885 0.52323461
0.73497128 0.071071804 0.52260959
0.74402511 0.071914926 0.52339923
0.7348268 0.073484063 0.52218699
0.74283671 0.074194431 0.52261758
0.74269128 0.076622069 0.5221923
