# .PCD v0.7 - Point Cloud Data file format
VERSION 0.7
FIELDS x y z
SIZE 4 4 4
TYPE F F F
COUNT 1 1 1
WIDTH 1299
HEIGHT 1
VIEWPOINT 0 0 0 1 0 0 0
POINTS 1299
DATA ascii
0.16536927 0.0006377548 0.52393866
0.16661003 0.00071668625 0.52396643
0.16785079 0.00079562142 0.52399421
0.16909152 0.00087455288 0.52402198
0.17033228 0.00095348805 0.52404976
0.17157304 0.0010324195 0.52407753
0.17281377 0.0011113547 0.52410531
0.20220268 0.0028879344 0.52376688
0.20344082 0.002966702 0.52379465
0.20715529 0.0032030083 0.52387774
0.20839342 0.0032817759 0.52390546
0.20963156 0.0033605434 0.52393317
0.21706048 0.0038331524 0.52409947
0.22448939 0.004305765 0.52426571
0.22572753 0.0043845326 0.52429342
0.16529363 0.0018722787 0.52380949
0.16653439 0.0019512139 0.52383727
0.16777512 0.0020301491 0.52386498
0.16901588 0.0021090806 0.52389276
0.17025664 0.0021880157 0.52392054
0.17149737 0.0022669472 0.52394831
0.17273813 0.0023458824 0.52397609
0.17397887 0.0024248138 0.52400386
0.17521963 0.002503749 0.52403164
0.17646039 0.0025826842 0.52405941
0.18762714 0.0032930858 0.52430934
0.1888679 0.003372021 0.52433711
0.19010863 0.0034509525 0.52436489
0.19383091 0.0036877543 0.52444816
0.19507167 0.0037666894 0.52447593
0.1963124 0.0038456209 0.52450371
0.19755316 0.0039245561 0.52453148
0.19879389 0.0040034875 0.52455926
0.20003465 0.0040824227 0.52458704
0.20127541 0.0041613579 0.52461481
0.20251617 0.0042402893 0.52464259
0.2070798 0.0044349469 0.52374887
0.20831794 0.0045137145 0.52377653
0.20955607 0.004592482 0.52380431
0.21079424 0.0046712533 0.52383196
0.21203238 0.0047500208 0.52385974
0.21327055 0.0048287883 0.5238874
0.21450868 0.0049075559 0.52391511
0.21574682 0.0049863234 0.52394283
0.21698499 0.005065091 0.52397054
0.21946126 0.005222626 0.52402598
0.22069943 0.0053013973 0.52405369
0.2219376 0.0053801648 0.52408135
0.22317573 0.0054589361 0.52410913
0.2244139 0.0055377036 0.52413678
0.22565204 0.0056164712 0.52416456
0.22689021 0.0056952387 0.52419221
0.17018101 0.0034225434 0.52379143
0.17142174 0.0035014749 0.52381921
0.1726625 0.00358041 0.52384692
0.17390323 0.0036593415 0.5238747
0.17514399 0.0037382767 0.52390248
0.17638475 0.0038172118 0.52393025
0.17762551 0.0038961433 0.52395803
0.17886627 0.0039750785 0.52398574
0.180107 0.0040540099 0.52401352
0.18134776 0.0041329451 0.5240413
0.18631077 0.0044486783 0.5241524
0.1875515 0.0045276135 0.52418017
0.18879226 0.004606545 0.52420795
0.19003299 0.0046854801 0.52423573
0.19127375 0.0047644153 0.5242635
0.19251451 0.0048433468 0.52429128
0.19375527 0.004922282 0.52431905
0.19499603 0.0050012171 0.52434683
0.19623676 0.0050801486 0.5243746
0.19747752 0.0051590838 0.52440232
0.19871825 0.0052380152 0.5244301
0.19995901 0.0053169504 0.52445787
0.20119977 0.0053958818 0.52448565
0.20244053 0.005474817 0.52451342
0.20368126 0.0055537522 0.52454114
0.21071875 0.0059031919 0.5237031
0.21195689 0.0059819594 0.52373081
0.21319506 0.0060607269 0.52375853
0.21443319 0.0061394945 0.52378619
0.21567133 0.006218262 0.52381396
0.2169095 0.0062970296 0.52384162
0.21814764 0.0063757971 0.5238694
0.21938577 0.0064545646 0.52389705
0.22062394 0.0065333359 0.52392477
0.22186211 0.0066121034 0.52395248
0.22310024 0.0066908747 0.5239802
0.22433841 0.0067696422 0.52400792
0.22557655 0.0068484098 0.52403563
0.22681472 0.0069271773 0.52406335
0.17166969 0.0048574544 0.52469254
0.17382759 0.0048938692 0.52374554
0.17506835 0.0049728043 0.52377331
0.17630911 0.0050517395 0.52380109
0.17754984 0.005130671 0.52382886
0.1787906 0.0052096061 0.52385664
0.18003136 0.0052885376 0.52388442
0.18127209 0.0053674728 0.52391219
0.18251285 0.0054464042 0.52393997
0.18375361 0.0055253394 0.52396768
0.18499434 0.0056042746 0.52399546
0.1862351 0.005683206 0.52402323
0.18747586 0.0057621412 0.52405101
0.18871662 0.0058410764 0.52407879
0.18995735 0.0059200078 0.5241065
0.19119811 0.005998943 0.52413428
0.19243887 0.0060778782 0.52416205
0.1936796 0.0061568096 0.52418983
0.19492036 0.0062357448 0.52421761
0.19616112 0.0063146763 0.52424538
0.19740188 0.0063936114 0.52427316
0.19864261 0.0064725429 0.52430093
0.19988337 0.0065514781 0.52432871
0.2011241 0.0066304132 0.52435648
0.20236486 0.0067093447 0.52438426
0.20360562 0.0067882761 0.52441204
0.20484638 0.0068672113 0.52443981
0.20608711 0.0069461465 0.52446759
0.20732787 0.0070250779 0.52449536
0.20856863 0.0071040131 0.52452308
0.20980936 0.0071829483 0.52455086
0.21105012 0.0072618797 0.52457863
0.21559584 0.0074502006 0.52368504
0.21683401 0.0075289682 0.52371275
0.21807215 0.0076077394 0.52374047
0.21931028 0.007686507 0.52376819
0.22054845 0.0077652782 0.52379584
0.22178662 0.0078440458 0.52382362
0.22302476 0.0079228133 0.52385128
0.22426292 0.0080015808 0.52387905
0.22550106 0.0080803484 0.52390671
0.22673923 0.0081591159 0.52393448
0.17871496 0.0064441338 0.52372742
0.17995572 0.0065230653 0.52375519
0.18119645 0.0066020004 0.52378297
0.18243721 0.0066809319 0.52381074
0.18367797 0.0067598671 0.52383852
0.1849187 0.0068387985 0.5238663
0.18615946 0.0069177337 0.52389407
0.18740022 0.0069966689 0.52392185
0.18864098 0.0070756003 0.52394962
0.18988171 0.0071545355 0.5239774
0.19112247 0.0072334707 0.52400517
0.1927309 0.0074392557 0.52503622
0.19360396 0.0073913373 0.52406073
0.19521761 0.0075974539 0.52509183
0.19608548 0.0075492039 0.52411622
0.19732624 0.0076281354 0.52414399
0.19856697 0.0077070706 0.52417177
0.19980773 0.0077860057 0.52419955
0.20104846 0.0078649372 0.52422726
0.20228922 0.0079438724 0.52425504
0.20352998 0.0080228038 0.52428281
0.20477074 0.008101739 0.52431059
0.20601147 0.0081806704 0.52433836
0.20725223 0.0082596056 0.52436614
0.20849299 0.0083385408 0.52439392
0.20973372 0.0084174722 0.52442169
0.21097448 0.0084964074 0.52444947
0.21221524 0.0085753426 0.52447724
0.213456 0.008654274 0.52450502
0.21469674 0.0087332092 0.52453279
0.2159375 0.0088121444 0.52456057
0.21717823 0.0088910758 0.52458835
0.21841899 0.008970011 0.52461612
0.21965975 0.0090489425 0.52464384
0.22047296 0.0089972168 0.52366698
0.22171113 0.0090759844 0.52369469
0.22294927 0.0091547519 0.52372241
0.22418743 0.0092335194 0.52375013
0.22542557 0.009312287 0.52377784
0.22666374 0.0093910545 0.5238055
0.16903138 0.0071734861 0.524378
0.17027473 0.0072525889 0.52440584
0.17151809 0.0073316842 0.52443367
0.17276144 0.007410787 0.52446151
0.17400479 0.0074898824 0.52448928
0.17524815 0.0075689852 0.52451718
0.1836023 0.0079943947 0.52370936
0.18484306 0.0080733299 0.52373713
0.18643832 0.0082808733 0.52476764
0.18768167 0.0083599761 0.52479541
0.18892503 0.0084390715 0.52482325
0.18980604 0.0083890632 0.52384818
0.19141173 0.0085972697 0.52487892
0.19228756 0.0085469298 0.52390373
0.19352832 0.008625865 0.5239315
0.19476908 0.0087047964 0.52395928
0.19600981 0.0087837316 0.52398705
0.19725057 0.0088626668 0.52401483
0.19849131 0.0089415982 0.52404261
0.19973207 0.0090205334 0.52407038
0.20097283 0.0090994649 0.52409816
0.20221359 0.0091784 0.52412593
0.20345432 0.0092573315 0.52415371
0.20469508 0.0093362629 0.52418149
0.20593584 0.0094152018 0.5242092
0.20717657 0.0094941333 0.52423698
0.20841733 0.0095730722 0.52426475
0.20965809 0.0096520036 0.52429253
0.21089885 0.0097309351 0.5243203
0.21213958 0.0098098665 0.52434802
0.21338034 0.0098888054 0.5243758
0.2146211 0.0099677369 0.52440357
0.21586183 0.010046668 0.52443135
0.21710259 0.010125607 0.52445912
0.21834335 0.010204539 0.5244869
0.21958408 0.01028347 0.52451468
0.22082484 0.010362402 0.52454245
0.22411194 0.010465458 0.5236212
0.22535008 0.010544226 0.52364898
0.22658825 0.010622993 0.52367663
0.1714423 0.008568801 0.52430427
0.17268565 0.0086479001 0.52433205
0.17392901 0.0087269992 0.52435988
0.17517236 0.0088060983 0.52438772
0.17890242 0.0090433955 0.52447116
0.18138912 0.0092015937 0.52452683
0.18511915 0.0094388947 0.52461034
0.1863625 0.0095179901 0.52463818
0.18760586 0.0095970929 0.52466595
0.18884921 0.0096761882 0.52469385
0.18973041 0.0096235871 0.52371907
0.19097117 0.009702526 0.52374685
0.19221193 0.0097814575 0.52377462
0.19345269 0.0098603889 0.52380234
0.19469345 0.0099393278 0.52383012
0.19593418 0.010018259 0.52385789
0.19717494 0.010097191 0.52388567
0.19841567 0.010176122 0.52391338
0.19965643 0.010255061 0.52394116
0.20089719 0.010333993 0.52396894
0.20213795 0.010412931 0.52399671
0.20337868 0.010491863 0.52402449
0.20461944 0.010570794 0.52405226
0.2058602 0.010649726 0.52408004
0.20710093 0.010728657 0.52410781
0.20834169 0.010807596 0.52413559
0.20958245 0.010886528 0.52416337
0.21082321 0.010965466 0.52419114
0.21206394 0.011044398 0.52421892
0.2133047 0.011123329 0.52424669
0.21454546 0.011202261 0.52427447
0.21578619 0.0112812 0.52430224
0.21702695 0.011360131 0.52432996
0.21826771 0.011439063 0.52435774
0.21950844 0.011518002 0.52438551
0.2207492 0.011596933 0.52441329
0.17385319 0.0099641159 0.52423048
0.17509654 0.010043219 0.52425826
0.17633992 0.010122314 0.52428609
0.17758325 0.010201409 0.52431393
0.17882663 0.010280512 0.52434176
0.18006995 0.010359615 0.5243696
0.18504336 0.010676011 0.52448094
0.18628672 0.010755107 0.52450871
0.18753007 0.010834202 0.52453655
0.18877342 0.010913305 0.52456439
0.19126013 0.011071503 0.52462006
0.19213629 0.011015981 0.5236454
0.19337702 0.01109492 0.52367318
0.19461778 0.011173852 0.52370095
0.19585854 0.011252783 0.52372873
0.1970993 0.011331722 0.5237565
0.19834003 0.011410654 0.52378428
0.19958079 0.011489585 0.52381206
0.20082152 0.011568516 0.52383983
0.20206228 0.011647455 0.52386761
0.20330304 0.011726387 0.52389538
0.2045438 0.011805326 0.5239231
0.20578453 0.011884257 0.52395087
0.20702529 0.011963189 0.52397865
0.20826605 0.01204212 0.52400643
0.20950678 0.012121059 0.52403414
0.21074754 0.01219999 0.52406192
0.2119883 0.012278922 0.52408969
0.21322906 0.012357861 0.52411747
0.21446979 0.012436792 0.52414525
0.21571055 0.012515724 0.52417302
0.21695128 0.012594655 0.5242008
0.21819204 0.012673594 0.52422857
0.2194328 0.012752526 0.52425635
0.22067356 0.012831464 0.52428412
0.22191429 0.012910396 0.5243119
0.22315505 0.012989327 0.52433968
0.17875081 0.011517629 0.52421236
0.18123752 0.011675827 0.52426797
0.18248084 0.011754923 0.52429581
0.18372419 0.011834025 0.52432364
0.18496755 0.011913121 0.52435148
0.1862109 0.011992224 0.52437925
0.18745425 0.012071319 0.52440715
0.18869761 0.012150422 0.52443492
0.19578287 0.012487315 0.52359957
0.19702363 0.012566246 0.52362728
0.19826436 0.012645185 0.52365506
0.19950512 0.012724116 0.52368283
0.20074588 0.012803048 0.52371061
0.20198664 0.012881979 0.52373838
0.20322737 0.012960911 0.52376616
0.20446813 0.01303985 0.52379394
0.20570889 0.013118781 0.52382171
0.20694962 0.01319772 0.52384949
0.20819038 0.013276652 0.52387726
0.20943114 0.013355583 0.52390504
0.2106719 0.013434514 0.52393281
0.21191263 0.013513453 0.52396059
0.21315339 0.013592385 0.52398837
0.21439415 0.013671316 0.52401614
0.21563488 0.013750255 0.52404386
0.21687564 0.013829187 0.52407163
0.2181164 0.013908118 0.52409941
0.21935713 0.013987049 0.52412719
0.22059789 0.014065988 0.5241549
0.22183865 0.01414492 0.52418268
0.22307941 0.014223859 0.52421045
0.22432014 0.01430279 0.52423823
0.178675 0.012754738 0.5240829
0.17991835 0.012833841 0.52411067
0.1811617 0.012912944 0.52413857
0.18240505 0.012992039 0.52416635
0.18364838 0.013071135 0.52419418
0.18489173 0.013150238 0.52422202
0.18737844 0.013308436 0.52427769
0.18862179 0.013387531 0.52430546
0.20067024 0.014037579 0.5235815
0.201911 0.014116511 0.52360922
0.20315173 0.014195442 0.523637
0.20439249 0.014274374 0.52366477
0.20563325 0.014353305 0.52369255
0.20687398 0.014432244 0.52372032
0.20811474 0.014511175 0.52374804
0.2093555 0.014590114 0.52377582
0.21059626 0.014669046 0.52380359
0.21183699 0.014747977 0.52383137
0.21348885 0.01496952 0.52486205
0.2147322 0.015048616 0.52488989
0.21555924 0.014984779 0.52391469
0.2168 0.015063711 0.52394247
0.21804076 0.015142649 0.52397025
0.21928149 0.015221581 0.52399802
0.22052225 0.015300512 0.5240258
0.22176301 0.015379444 0.52405357
0.22300377 0.015458383 0.52408135
0.22424451 0.015537314 0.52410913
0.22548527 0.015616253 0.5241369
0.17859921 0.013991863 0.52395344
0.18357259 0.014308259 0.52406478
0.18481594 0.014387354 0.52409256
0.1860593 0.01446645 0.52412045
0.18730265 0.014545552 0.52414823
0.20555758 0.015587837 0.52356339
0.20679834 0.015666768 0.52359116
0.2080391 0.015745707 0.52361894
0.20968297 0.015969336 0.52464914
0.21092635 0.016048439 0.52467698
0.21216968 0.016127534 0.52470481
0.21341306 0.016206637 0.52473259
0.21465638 0.016285732 0.52476048
0.21589974 0.016364835 0.52478826
0.21714309 0.016443931 0.5248161
0.21838644 0.016523033 0.52484393
0.21962979 0.016602129 0.52487177
0.22044662 0.016535044 0.52389657
0.22168735 0.016613975 0.52392435
0.22292811 0.016692907 0.52395213
0.22416887 0.016771846 0.5239799
0.2254096 0.016850777 0.52400768
0.20836383 0.01712735 0.52449191
0.20960718 0.017206453 0.52451968
0.21085054 0.017285556 0.52454752
0.21209389 0.017364651 0.52457535
0.21333724 0.017443746 0.52460319
0.2145806 0.017522849 0.52463102
0.21582395 0.017601952 0.5246588
0.2170673 0.017681047 0.52468669
0.21831065 0.017760143 0.52471447
0.21913022 0.017690636 0.5237397
0.22037098 0.017769568 0.52376747
0.22161171 0.017848507 0.52379525
0.22285247 0.017927438 0.52382302
0.22409323 0.018006369 0.52385074
0.1883944 0.017098881 0.5239172
0.18963775 0.017177984 0.52394497
0.20580134 0.018206269 0.52430677
0.20704466 0.018285371 0.52433461
0.20828804 0.018364474 0.52436244
0.20953137 0.01844357 0.52439022
0.21077475 0.018522665 0.52441812
0.21201807 0.018601768 0.52444589
0.21326146 0.018680871 0.52447379
0.21450478 0.018759966 0.52450156
0.21574813 0.018839061 0.5245294
0.21699148 0.018918164 0.52455723
0.21823484 0.018997267 0.52458507
0.21947819 0.019076362 0.5246129
0.22072154 0.019155458 0.52464068
0.22153607 0.019083031 0.52366602
0.22277683 0.019161962 0.5236938
0.22401756 0.019240901 0.52372158
0.22525832 0.019319832 0.52374935
0.18210182 0.017940506 0.52364862
0.18334517 0.018019602 0.5236764
0.18458852 0.018098697 0.52370429
0.18583187 0.0181778 0.52373207
0.18707523 0.018256903 0.52375996
0.18831858 0.018335998 0.52378774
0.18956193 0.018415093 0.52381557
0.19080529 0.018494196 0.52384341
0.19204864 0.018573299 0.52387124
0.20323882 0.019285187 0.52412164
0.20448217 0.019364282 0.52414954
0.20572552 0.019443385 0.52417731
0.20696884 0.019522488 0.52420521
0.20821223 0.019601583 0.52423298
0.20945555 0.019680679 0.52426082
0.21069893 0.019759782 0.52428865
0.21194226 0.019838884 0.52431649
0.21359611 0.02007094 0.52534616
0.21442896 0.019997075 0.5243721
0.21567231 0.020076178 0.5244
0.21691567 0.020155281 0.52442777
0.21815902 0.020234376 0.52445561
0.21940237 0.020313472 0.52448344
0.22064573 0.020392574 0.52451128
0.22146043 0.020317554 0.52353686
0.22270119 0.020396486 0.52356464
0.22394192 0.020475425 0.52359241
0.22518268 0.020554356 0.52362019
0.22642344 0.020633295 0.52364796
0.18202603 0.019177616 0.52351916
0.18326935 0.019256718 0.52354699
0.1845127 0.019335814 0.52357483
0.18575606 0.019414917 0.52360266
0.18699941 0.019494012 0.5236305
0.18824276 0.019573115 0.52365828
0.18948612 0.01965221 0.52368617
0.19072947 0.019731313 0.52371395
0.19197285 0.019810408 0.52374178
0.19321617 0.019889511 0.52376962
0.19445956 0.019968614 0.52379745
0.19570288 0.020047709 0.52382529
0.19694626 0.020126805 0.52385306
0.19818959 0.020205908 0.52388096
0.19943294 0.02028501 0.52390873
0.20067629 0.020364106 0.52393663
0.20191965 0.020443201 0.52396441
0.203163 0.020522304 0.52399224
0.20440635 0.020601407 0.52402008
0.2056497 0.020680502 0.52404791
0.20689306 0.020759597 0.52407575
0.20813641 0.0208387 0.52410352
0.20978227 0.02107285 0.52513278
0.21102825 0.021152124 0.52516067
0.21227419 0.021231383 0.52518857
0.21352014 0.02131065 0.52521646
0.21476609 0.021389917 0.52524436
0.21601206 0.021469176 0.52527225
0.21683988 0.02139239 0.52429831
0.21808323 0.021471493 0.52432621
0.21932659 0.021550596 0.52435398
0.22056994 0.021629691 0.52438188
0.22181329 0.021708786 0.52440965
0.22262552 0.021631017 0.52343547
0.22386628 0.021709949 0.52346325
0.22510701 0.021788888 0.52349102
0.22634777 0.021867819 0.5235188
0.18568027 0.020652026 0.5234732
0.18692362 0.020731129 0.52350104
0.18816698 0.020810232 0.52352887
0.18941033 0.020889327 0.52355671
0.19065368 0.020968422 0.52358449
0.19189703 0.021047525 0.52361238
0.19314039 0.021126628 0.52364016
0.19438374 0.021205723 0.52366805
0.19562709 0.021284819 0.52369583
0.19687045 0.021363921 0.52372366
0.1981138 0.021443024 0.5237515
0.19935715 0.02152212 0.52377933
0.2006005 0.021601215 0.52380717
0.20184386 0.021680318 0.52383494
0.20308721 0.021759421 0.52386284
0.20433056 0.021838516 0.52389061
0.20596847 0.022074759 0.52491939
0.20721444 0.022154033 0.52494729
0.20846039 0.022233292 0.52497518
0.20970634 0.022312559 0.52500308
0.21095228 0.022391826 0.52503097
0.21219823 0.022471085 0.52505887
0.2134442 0.022550352 0.52508676
0.21469015 0.022629619 0.52511466
0.21593612 0.022708878 0.52514249
0.21718207 0.022788145 0.52517039
0.21800742 0.02270861 0.52419674
0.21925077 0.022787705 0.52422458
0.22049412 0.0228668 0.52425241
0.22173747 0.022945903 0.52428019
0.22298083 0.023025006 0.52430809
0.18346536 0.021887705 0.52428776
0.18595725 0.022046238 0.52434349
0.1872032 0.022125497 0.52437139
0.18844917 0.022204764 0.52439928
0.18969512 0.022284031 0.52442718
0.19057786 0.022205539 0.52345508
0.19182125 0.022284642 0.52348292
0.19306457 0.022363737 0.52351075
0.19467893 0.022601083 0.52453876
0.19555128 0.022521943 0.52356637
0.19679466 0.022601038 0.52359426
0.19803798 0.022680134 0.52362204
0.19928133 0.022759236 0.52364987
0.20052469 0.022838339 0.52367771
0.20215467 0.023076676 0.52470601
0.20340061 0.023155943 0.5247339
0.20464656 0.023235202 0.5247618
0.2058925 0.023314469 0.52478969
0.20713848 0.023393735 0.52481759
0.20838442 0.023472995 0.52484548
0.21003255 0.023712486 0.5258742
0.21128112 0.023791909 0.52590215
0.21252969 0.023871347 0.52593005
0.21336824 0.023790054 0.52495706
0.21461418 0.023869321 0.5249849
0.21586016 0.02394858 0.52501279
0.2171061 0.024027854 0.52504069
0.21835205 0.024107113 0.52506852
0.21917498 0.024024822 0.52409512
0.22041833 0.024103925 0.52412295
0.22166169 0.02418302 0.52415079
0.22290504 0.024262115 0.52417862
0.22414839 0.024341218 0.5242064
0.22539175 0.024420321 0.52423429
0.17840558 0.022810355 0.52404654
0.17965153 0.022889614 0.52407438
0.18089747 0.022968881 0.52410227
0.18214342 0.023048148 0.52413017
0.1833894 0.023127407 0.524158
0.18463534 0.023206674 0.5241859
0.18588129 0.02328594 0.52421379
0.18712723 0.0233652 0.52424169
0.18837321 0.023444466 0.52426958
0.18961915 0.023523733 0.52429748
0.1908651 0.023602992 0.52432537
0.19211107 0.023682266 0.52435327
0.19335702 0.023761526 0.52438116
0.19460297 0.023840792 0.52440906
0.19584891 0.023920059 0.52443689
0.19709489 0.023999318 0.52446479
0.19834083 0.024078585 0.52449268
0.19958678 0.024157852 0.52452058
0.20083272 0.024237111 0.52454841
0.2020787 0.024316378 0.52457631
0.20332465 0.024395645 0.5246042
0.20457059 0.024474904 0.5246321
0.20581654 0.024554171 0.52465999
0.20745933 0.02479592 0.52568829
0.2087079 0.024875343 0.5257163
0.20995644 0.024954773 0.5257442
0.21120501 0.025034204 0.52577215
0.21245354 0.025113635 0.52580011
0.21370211 0.025193065 0.525828
0.21453822 0.025109023 0.5248552
0.21578419 0.02518829 0.52488309
0.21703014 0.025267556 0.52491093
0.21827608 0.025346816 0.52493882
0.21909916 0.025261939 0.52396572
0.22034252 0.025341034 0.52399349
0.22158587 0.025420137 0.52402139
0.22282922 0.02549924 0.52404916
0.22407261 0.025578335 0.524077
0.22531593 0.025657438 0.52410483
0.22655931 0.025736533 0.52413267
0.17708367 0.02397079 0.52388895
0.17832962 0.024050057 0.52391678
0.17957556 0.024129316 0.52394468
0.18082151 0.024208583 0.52397257
0.18206745 0.02428785 0.52400041
0.18366069 0.024529032 0.52502739
0.18455938 0.024446376 0.5240562
0.18580532 0.024525642 0.52408409
0.18705127 0.024604902 0.52411199
0.18829724 0.024684168 0.52413988
0.18954319 0.024763435 0.52416778
0.19078913 0.024842694 0.52419567
0.19203511 0.024921969 0.52422357
0.19328105 0.025001228 0.52425146
0.194527 0.025080495 0.5242793
0.19577295 0.025159761 0.52430719
0.19701892 0.025239021 0.52433509
0.19826487 0.025318287 0.52436298
0.19951081 0.025397554 0.52439082
0.20075676 0.025476813 0.52441871
0.20200273 0.02555608 0.52444661
0.20324868 0.025635347 0.5244745
0.20449463 0.025714606 0.5245024
0.20574057 0.025793873 0.52453029
0.20738322 0.026038207 0.52555835
0.20863178 0.026117638 0.52558625
0.20988032 0.026197068 0.52561426
0.21112889 0.026276499 0.52564216
0.21237743 0.026355922 0.52567011
0.213626 0.02643536 0.52569807
0.21446225 0.026348725 0.5247255
0.2161231 0.026594222 0.52575397
0.21695417 0.026507258 0.52478123
0.21820012 0.026586518 0.52480912
0.21944606 0.026665784 0.52483702
0.22069204 0.026745051 0.52486491
0.22151005 0.026657254 0.52389193
0.22275341 0.026736349 0.5239197
0.22399679 0.026815452 0.5239476
0.22524011 0.026894547 0.52397537
0.22648349 0.02697365 0.52400321
0.1770077 0.025210492 0.52375919
0.17825365 0.025289759 0.52378708
0.1794996 0.025369018 0.52381498
0.18074554 0.025448285 0.52384281
0.18199149 0.025527552 0.52387071
0.18358454 0.025771327 0.52489746
0.18448341 0.025686078 0.5239265
0.18572935 0.025765345 0.52395439
0.1869753 0.025844604 0.52398229
0.18822128 0.025923871 0.52401018
0.18946722 0.026003137 0.52403808
0.19071317 0.026082397 0.52406597
0.19195914 0.026161671 0.52409387
0.19320509 0.02624093 0.5241217
0.19482154 0.026486196 0.52514893
0.19569698 0.026399463 0.52417749
0.19694296 0.026478723 0.52420539
0.1981889 0.026557989 0.52423322
0.19943485 0.026637256 0.52426112
0.20068079 0.026716515 0.52428901
0.20192677 0.026795782 0.52431691
0.20356143 0.02704221 0.52534449
0.20441866 0.026954308 0.5243727
0.20605853 0.027201071 0.5254004
0.2073071 0.027280495 0.52542835
0.20855567 0.027359933 0.52545631
0.20980418 0.027439356 0.52548426
0.21105275 0.027518794 0.52551222
0.21230131 0.027598217 0.52554011
0.21354985 0.027677648 0.52556813
0.21479842 0.027757078 0.52559602
0.21604699 0.027836509 0.52562398
0.21687821 0.027746961 0.52465153
0.21812415 0.02782622 0.52467942
0.2193701 0.027905487 0.52470732
0.22061607 0.027984753 0.52473521
0.22143427 0.027894363 0.52376246
0.22310796 0.028143279 0.524791
0.22392097 0.028052568 0.52381814
0.22516432 0.028131664 0.52384591
0.22684583 0.028381079 0.52487463
0.17693174 0.026450194 0.52362949
0.17817768 0.026529461 0.52365738
0.17942363 0.02660872 0.52368522
0.18066958 0.026687987 0.52371311
0.18191552 0.026767254 0.52374101
0.1831615 0.026846513 0.5237689
0.18440744 0.02692578 0.5237968
0.18565339 0.027005047 0.52382469
0.18689933 0.027084306 0.52385259
0.18814531 0.02716358 0.52388048
0.18939126 0.027242839 0.52390838
0.1906372 0.027322106 0.52393627
0.19188318 0.027401373 0.52396411
0.19312912 0.027480632 0.523992
0.19474542 0.027728491 0.52501893
0.19562101 0.027639166 0.52404773
0.19686699 0.027718425 0.52407563
0.19811293 0.027797692 0.52410352
0.19935888 0.027876958 0.52413142
0.20060483 0.027956218 0.52415931
0.20223674 0.028205067 0.5251866
0.20348531 0.028284505 0.52521455
0.20434269 0.028194018 0.524243
0.20598242 0.028443366 0.52527046
0.20723099 0.028522789 0.52529836
0.20847955 0.028602228 0.52532631
0.20972806 0.028681651 0.52535427
0.21097663 0.028761081 0.52538222
0.2122252 0.028840512 0.52541018
0.21347374 0.028919943 0.52543807
0.21472231 0.028999373 0.52546608
0.21597087 0.029078797 0.52549398
0.21721941 0.029158235 0.52552193
0.21804819 0.029065929 0.52454972
0.21929413 0.029145196 0.52457762
0.22054011 0.029224455 0.52460551
0.22178602 0.029303722 0.52463341
0.223032 0.029382989 0.5246613
0.22427794 0.029462248 0.5246892
0.22552389 0.029541515 0.52471703
0.22676986 0.029620782 0.52474493
0.17685577 0.027689904 0.52349979
0.17810172 0.027769163 0.52352762
0.17934766 0.02784843 0.52355552
0.18059361 0.027927697 0.52358341
0.18183956 0.028006956 0.52361131
0.18308553 0.028086223 0.5236392
0.18433148 0.028165489 0.5236671
0.18557742 0.028244749 0.52369499
0.18682337 0.028324015 0.52372289
0.18806934 0.028403282 0.52375078
0.18931529 0.028482541 0.52377868
0.19056123 0.028561816 0.52380651
0.19180721 0.028641075 0.52383441
0.19305316 0.028720342 0.5238623
0.19466931 0.028970778 0.52488899
0.19554505 0.028878868 0.52391803
0.19679102 0.028958134 0.52394593
0.19803697 0.029037401 0.52397382
0.19928291 0.02911666 0.52400172
0.20052886 0.029195927 0.52402961
0.20216063 0.029447362 0.5250566
0.20340917 0.029526792 0.52508456
0.20426673 0.02943372 0.5241133
0.20590627 0.029685646 0.52514046
0.20715484 0.029765084 0.52516842
0.20840341 0.029844508 0.52519631
0.20965195 0.029923946 0.52522433
0.21090052 0.030003369 0.52525222
0.21214905 0.030082807 0.52528018
0.21339762 0.03016223 0.52530813
0.21464616 0.030241668 0.52533603
0.21589473 0.030321091 0.52536404
0.21714327 0.030400522 0.52539194
0.21839184 0.030479953 0.52541989
0.21964037 0.030559383 0.52544785
0.22088894 0.030638814 0.5254758
0.22213748 0.030718237 0.52550375
0.22295603 0.030622691 0.5245316
0.22420198 0.030701958 0.52455944
0.22544792 0.030781224 0.52458733
0.2266939 0.030860484 0.52461523
0.17802578 0.029008865 0.52339792
0.17927173 0.029088132 0.52342582
0.18051767 0.029167399 0.52345371
0.18176362 0.029246658 0.52348161
0.18300956 0.029325925 0.5235095
0.18425551 0.029405192 0.5235374
0.18550149 0.029484451 0.52356529
0.18674743 0.029563718 0.52359319
0.18799338 0.029642984 0.52362108
0.18923932 0.029722244 0.52364892
0.1904853 0.029801518 0.52367681
0.19209608 0.030054212 0.52470309
0.19334462 0.030133642 0.52473104
0.19459319 0.030213073 0.52475893
0.19546908 0.03011857 0.52378833
0.19671506 0.030197836 0.52381623
0.19833884 0.030451357 0.5248428
0.1995874 0.030530795 0.52487075
0.20083594 0.030610219 0.52489871
0.20208451 0.030689657 0.52492666
0.20333305 0.03076908 0.52495456
0.20458162 0.030848518 0.52498257
0.20583016 0.030927941 0.52501047
0.20707873 0.031007379 0.52503842
0.20832729 0.031086802 0.52506638
0.20957583 0.031166233 0.52509427
0.2108244 0.031245664 0.52512228
0.21207294 0.031325094 0.52515018
0.21332151 0.031404525 0.52517813
0.21457005 0.031483948 0.52520609
0.21581861 0.031563386 0.52523404
0.21706715 0.03164281 0.525262
0.21831572 0.031722248 0.52528989
0.21956426 0.031801671 0.52531791
0.22081283 0.031881109 0.5253458
0.22206137 0.031960532 0.52537376
0.22330993 0.03203997 0.52540171
0.2245585 0.032119393 0.52542961
0.22580704 0.032198831 0.52545762
0.22705561 0.032278255 0.52548552
0.1829336 0.030565627 0.5233798
0.18417954 0.030644894 0.5234077
0.18542552 0.03072416 0.52343559
0.18667147 0.030803427 0.52346349
0.18791741 0.030882686 0.52349132
0.18916336 0.030961953 0.52351922
0.19040933 0.03104122 0.52354711
0.19165528 0.031120479 0.52357495
0.19290122 0.031199746 0.52360284
0.19414717 0.031279013 0.52363074
0.19539312 0.031358272 0.52365863
0.19701418 0.031614229 0.52468491
0.19826272 0.031693652 0.5247128
0.19951129 0.03177309 0.52474082
0.20075983 0.031852514 0.52476871
0.20200837 0.031931944 0.52479666
0.20325693 0.032011375 0.52482462
0.2045055 0.032090805 0.52485251
0.20575404 0.032170236 0.52488053
0.20700261 0.032249659 0.52490842
0.20825118 0.032329097 0.52493638
0.20949969 0.032408521 0.52496433
0.21074826 0.032487959 0.52499229
0.21199682 0.032567382 0.52502024
0.21324536 0.03264682 0.52504814
0.21449393 0.032726243 0.52507609
0.2157425 0.032805681 0.52510405
0.21699104 0.032885104 0.525132
0.21823958 0.032964535 0.52515996
0.21948814 0.033043966 0.52518785
0.22073668 0.033123396 0.52521586
0.22198525 0.033202827 0.52524376
0.22323382 0.033282258 0.52527171
0.22448236 0.033361688 0.52529967
0.22573093 0.033441111 0.52532756
0.22697949 0.03352055 0.52535558
0.1865955 0.032043129 0.52333373
0.18784145 0.032122388 0.52336162
0.18908739 0.032201655 0.52338952
0.19033337 0.032280922 0.52341735
0.19157931 0.032360181 0.52344525
0.19282526 0.032439448 0.52347314
0.1940712 0.032518715 0.52350104
0.19531715 0.032597974 0.52352893
0.19656312 0.032677241 0.52355683
0.19818661 0.032935947 0.52458286
0.19943517 0.03301537 0.52461076
0.20068371 0.033094808 0.52463877
0.20193225 0.033174232 0.52466667
0.20318082 0.03325367 0.52469462
0.20442939 0.033333093 0.52472258
0.20567793 0.033412531 0.52475047
0.20692649 0.033491954 0.52477849
0.20817506 0.033571392 0.52480638
0.20942357 0.033650815 0.52483433
0.21067214 0.033730246 0.52486229
0.21192071 0.033809677 0.52489024
0.21316925 0.033889107 0.5249182
0.21441782 0.033968538 0.52494609
0.21566638 0.034047961 0.52497411
0.21691492 0.034127399 0.525002
0.21816346 0.034206823 0.52502996
0.21941203 0.034286261 0.52505791
0.22066057 0.034365684 0.52508581
0.22190914 0.034445122 0.52511382
0.2231577 0.034524545 0.52514172
0.22440624 0.034603983 0.52516967
0.22565481 0.034683406 0.52519763
0.22690338 0.034762844 0.52522558
0.18901142 0.033441365 0.52325976
0.1902574 0.033520624 0.52328765
0.19150335 0.033599891 0.52331555
0.19274929 0.033679157 0.52334344
0.19399524 0.033758417 0.52337134
0.19524118 0.033837683 0.52339923
0.19686192 0.034098804 0.52442491
0.19811046 0.034178242 0.52445287
0.19935903 0.034257665 0.52448082
0.20060757 0.034337096 0.52450871
0.20185614 0.034416527 0.52453673
0.20310467 0.034495957 0.52456462
0.20435324 0.034575388 0.52459258
0.20560178 0.034654811 0.52462053
0.20685035 0.034734249 0.52464849
0.20809892 0.034813672 0.52467644
0.20934746 0.03489311 0.52470434
0.21059602 0.034972534 0.52473235
0.21184456 0.035051972 0.52476025
0.21309313 0.035131395 0.5247882
0.21434167 0.035210833 0.52481616
0.21559024 0.035290256 0.52484405
0.21683878 0.035369687 0.52487206
0.21808735 0.035449117 0.52489996
0.21933588 0.035528548 0.52492791
0.22058445 0.035607979 0.52495587
0.22183299 0.035687402 0.52498382
0.22308156 0.03576684 0.52501178
0.22433013 0.035846271 0.52503967
0.22557867 0.035925701 0.52506769
0.22682723 0.036005124 0.52509558
0.22807577 0.036084563 0.52512354
0.19391927 0.034998119 0.52324164
0.19553724 0.035261668 0.52426696
0.19678581 0.035341099 0.52429497
0.19803435 0.03542053 0.52432287
0.19928291 0.03549996 0.52435082
0.20053145 0.035579383 0.52437878
0.20178002 0.035658821 0.52440673
0.20302856 0.035738245 0.52443469
0.20427713 0.035817683 0.52446258
0.20552567 0.035897106 0.52449059
0.20677423 0.035976544 0.52451849
0.2080228 0.036055967 0.52454644
0.20927134 0.036135405 0.5245744
0.21051991 0.036214828 0.52460229
0.21176845 0.036294259 0.52463031
0.21301702 0.03637369 0.5246582
0.21426556 0.03645312 0.52468616
0.21551412 0.036532551 0.52471411
0.21676266 0.036611982 0.52474207
0.21843004 0.036878683 0.52576852
0.2196812 0.036958277 0.52579653
0.22093236 0.037037879 0.52582455
0.22218353 0.037117466 0.52585256
0.22343469 0.037197068 0.52588058
0.22425401 0.037088558 0.52490973
0.22550255 0.037167996 0.52493763
0.22675112 0.037247419 0.52496564
0.22799966 0.037326857 0.52499354
0.19421256 0.036424533 0.52410907
0.19546112 0.036503956 0.52413702
0.19670969 0.036583394 0.52416497
0.19795823 0.036662817 0.52419293
0.1992068 0.036742255 0.52422082
0.20045534 0.036821678 0.52424884
0.20170388 0.036901116 0.52427673
0.20295244 0.03698054 0.52430469
0.20420101 0.03705997 0.52433264
0.20544955 0.037139401 0.52436054
0.20669812 0.037218831 0.52438855
0.20794669 0.037298262 0.52441645
0.2091952 0.037377685 0.5244444
0.21044376 0.037457123 0.52447236
0.21169233 0.037536547 0.52450025
0.21294087 0.037615985 0.52452826
0.21418944 0.037695408 0.52455616
0.21585149 0.037964374 0.52558231
0.21710262 0.038043968 0.52561033
0.21835378 0.038123563 0.52563834
0.21960491 0.038203157 0.5256663
0.2208561 0.038282752 0.52569431
0.22210723 0.038362354 0.52572232
0.22335839 0.038441949 0.52575028
0.22417787 0.038330853 0.52477974
0.22542644 0.038410284 0.52480769
0.226675 0.038489714 0.52483559
0.22792351 0.038569137 0.5248636
0.19413644 0.037666827 0.52397907
0.19538501 0.037746251 0.52400708
0.19663358 0.037825689 0.52403498
0.19788212 0.037905112 0.52406293
0.19913068 0.03798455 0.52409089
0.20037922 0.038063973 0.52411878
0.20162776 0.038143404 0.5241468
0.20287633 0.038222834 0.52417469
0.2041249 0.038302265 0.52420264
0.20537344 0.038381696 0.5242306
0.206622 0.038461119 0.52425849
0.20787057 0.038540557 0.52428651
0.20911908 0.03861998 0.5243144
0.21036765 0.038699418 0.52434236
0.21161622 0.038778841 0.52437031
0.21286476 0.03885828 0.52439827
0.21452403 0.03912966 0.525424
0.21577519 0.039209247 0.52545202
0.21702632 0.039288849 0.52548003
0.21827748 0.039368443 0.52550805
0.21952865 0.039448038 0.52553606
0.22077981 0.039527632 0.52556407
0.22203097 0.039607227 0.52559209
0.22285321 0.039493717 0.52462184
0.22410175 0.039573148 0.52464974
0.22535032 0.039652571 0.52467769
0.22659889 0.039732009 0.52470565
0.2278474 0.039811432 0.5247336
0.19406033 0.038909122 0.52384913
0.19530886 0.038988546 0.52387702
0.19655743 0.039067976 0.52390504
0.19780597 0.039147407 0.52393293
0.19905454 0.039226837 0.52396089
0.20030308 0.039306268 0.52398884
0.20155165 0.039385691 0.52401674
0.20280018 0.039465129 0.52404475
0.20404875 0.039544553 0.52407265
0.20529729 0.039623991 0.5241006
0.20654586 0.039703414 0.52412856
0.20779443 0.039782852 0.52415651
0.20904297 0.039862275 0.52418447
0.21029153 0.039941713 0.52421236
0.21154007 0.040021136 0.52424037
0.21278864 0.040100567 0.52426827
0.21403718 0.040179998 0.52429622
0.21528575 0.040259428 0.52432418
0.21695006 0.040533729 0.5253498
0.21820122 0.040613323 0.52537781
0.21945235 0.040692918 0.52540576
0.22070354 0.040772513 0.52543378
0.2215285 0.040656582 0.52446389
0.22277707 0.040736005 0.52449185
0.22402564 0.040815443 0.5245198
0.22527418 0.040894866 0.5245477
0.22652274 0.040974304 0.52457571
0.22733214 0.040857375 0.52360547
0.17026165 0.038642228 0.52318823
0.17151022 0.038721666 0.52321613
0.17275876 0.038801089 0.52324408
0.17400733 0.038880527 0.52327204
0.17525589 0.03895995 0.52329993
0.17650443 0.039039388 0.52332795
0.18649286 0.039674826 0.52355146
0.1914871 0.039992541 0.52366328
0.19273564 0.040071979 0.52369118
0.19398421 0.040151402 0.52371913
0.19523275 0.04023084 0.52374709
0.19648132 0.040310264 0.52377498
0.19772986 0.040389702 0.523803
0.19897842 0.040469125 0.52383089
0.20022696 0.040548556 0.52385885
0.20147553 0.040627986 0.5238868
0.20272407 0.040707417 0.52391475
0.20397264 0.040786847 0.52394271
0.20522118 0.040866271 0.5239706
0.20646974 0.040945709 0.52399862
0.20771831 0.041025132 0.52402651
0.20896685 0.04110457 0.52405447
0.21021542 0.041183993 0.52408242
0.21146396 0.041263431 0.52411032
0.21271253 0.041342854 0.52413833
0.21396106 0.041422293 0.52416623
0.21520963 0.041501716 0.52419418
0.21687376 0.041778609 0.52521956
0.21812493 0.041858204 0.52524757
0.21937609 0.041937798 0.52527559
0.22020385 0.041819438 0.52430594
0.22145239 0.041898862 0.52433389
0.22270095 0.0419783 0.52436185
0.22394952 0.04205773 0.5243898
0.22519806 0.042137161 0.52441776
0.22601023 0.042017817 0.52344787
0.22725618 0.042097077 0.52347571
0.17517975 0.040202245 0.52316999
0.17642832 0.040281676 0.52319789
0.17767689 0.040361106 0.5232259
0.17892542 0.04044053 0.5232538
0.18017399 0.040519968 0.52328175
0.18142253 0.040599391 0.52330971
0.18267107 0.040678829 0.52333766
0.18391964 0.040758252 0.52336562
0.18516821 0.04083769 0.52339351
0.18641675 0.040917113 0.52342153
0.18766531 0.040996552 0.52344942
0.18891385 0.041075975 0.52347738
0.19016242 0.041155413 0.52350533
0.19141096 0.041234836 0.52353323
0.19265953 0.041314267 0.52356124
0.19390807 0.041393697 0.52358913
0.19515663 0.041473128 0.52361709
0.1964052 0.041552559 0.52364504
0.19765374 0.041631982 0.523673
0.19890231 0.04171142 0.52370095
0.20015085 0.041790843 0.52372885
0.20139939 0.041870281 0.52375686
0.20264795 0.041949704 0.52378476
0.20389652 0.042029142 0.52381271
0.20514506 0.042108566 0.52384067
0.20639363 0.042188004 0.52386856
0.2076422 0.042267427 0.52389657
0.20889071 0.042346857 0.52392447
0.21013927 0.042426288 0.52395242
0.21138784 0.042505719 0.52398038
0.21263638 0.042585149 0.52400827
0.21388495 0.042664573 0.52403629
0.21513352 0.042744011 0.52406418
0.21638206 0.042823434 0.52409214
0.21763059 0.042902872 0.52412009
0.21887916 0.042982295 0.52414805
0.2201277 0.043061733 0.524176
0.22137627 0.043141156 0.5242039
0.2221964 0.043019727 0.52323449
0.22344235 0.043098986 0.52326238
0.22468829 0.043178253 0.52329028
0.22593427 0.04325752 0.52331811
0.17884931 0.041682824 0.52312386
0.18009788 0.041762263 0.52315176
0.18134642 0.041841686 0.52317977
0.18259495 0.041921116 0.52320766
0.18384352 0.042000547 0.52323562
0.18509209 0.042079978 0.52326357
0.18634063 0.042159408 0.52329147
0.1875892 0.042238839 0.52331948
0.18883774 0.04231827 0.52334738
0.19008631 0.042397693 0.52337533
0.19133484 0.042477131 0.52340329
0.19258341 0.042556554 0.52343124
0.19383195 0.042635992 0.5234592
0.19508052 0.042715415 0.52348709
0.19632909 0.042794853 0.52351511
0.19757763 0.042874277 0.523543
0.19882619 0.042953715 0.52357095
0.20007473 0.043033138 0.52359891
0.20132327 0.043112569 0.5236268
0.20257184 0.043191999 0.52365482
0.20382041 0.04327143 0.52368271
0.20506895 0.04335086 0.52371067
0.20631751 0.043430284 0.52373862
0.20756608 0.043509722 0.52376652
0.20881459 0.043589145 0.52379453
0.21006316 0.043668583 0.52382243
0.21131173 0.043748006 0.52385038
0.21256027 0.043827444 0.52387834
0.21380883 0.043906868 0.52390629
0.2150574 0.043986306 0.52393425
0.21630594 0.044065729 0.52396214
0.21755448 0.044145159 0.52399015
0.21880305 0.04422459 0.52401805
0.22005159 0.044304021 0.524046
0.22087446 0.04418017 0.52307689
0.22212043 0.044259429 0.52310479
0.22336638 0.044338696 0.52313268
0.22461233 0.044417962 0.52316052
0.18376738 0.043242842 0.52310562
0.18501595 0.043322265 0.52313358
0.18626449 0.043401703 0.52316153
0.18751305 0.043481126 0.52318949
0.18876162 0.043560565 0.52321744
0.19001016 0.043639988 0.52324533
0.19125873 0.043719418 0.52327329
0.19250727 0.043798849 0.52330124
0.19375584 0.04387828 0.5233292
0.19500437 0.04395771 0.52335715
0.19625294 0.044037141 0.52338505
0.19750148 0.044116572 0.52341306
0.19875005 0.044195995 0.52344096
0.19999859 0.044275433 0.52346891
0.20124716 0.044354856 0.52349687
0.20249569 0.044434294 0.52352476
0.20374426 0.044513717 0.52355278
0.2049928 0.044593155 0.52358067
0.20624137 0.044672579 0.52360862
0.20748994 0.044752017 0.52363658
0.20873848 0.04483144 0.52366453
0.20998704 0.04491087 0.52369249
0.21123558 0.044990301 0.52372038
0.21248415 0.045069732 0.5237484
0.21373269 0.045149162 0.52377629
0.21498126 0.045228586 0.52380425
0.2162298 0.045308024 0.5238322
0.21747836 0.045387447 0.5238601
0.2187269 0.045466885 0.52388811
0.21997547 0.045546308 0.52391601
0.18868551 0.044802859 0.52308744
0.18993405 0.044882283 0.5231154
0.19118261 0.044961713 0.52314329
0.19243115 0.045041144 0.52317131
0.19367972 0.045120575 0.5231992
0.19492826 0.045200005 0.52322716
0.19617683 0.045279436 0.52325511
0.19742537 0.045358866 0.523283
0.19867393 0.04543829 0.52331102
0.19992247 0.045517728 0.52333891
0.20117104 0.045597151 0.52336687
0.20241958 0.045676589 0.52339482
0.20366815 0.045756012 0.52342278
0.20491669 0.04583545 0.52345073
0.20616525 0.045914873 0.52347863
0.20741382 0.045994312 0.52350664
0.20866236 0.046073735 0.52353454
0.20991093 0.046153165 0.52356249
0.21115947 0.046232596 0.52359045
0.21240804 0.046312027 0.52361834
0.21365657 0.046391457 0.52364635
0.21490514 0.046470881 0.52367425
0.21615368 0.046550319 0.5237022
0.21740225 0.046629742 0.52373016
0.21865079 0.04670918 0.52375805
0.17770654 0.045535542 0.52370024
0.1789577 0.045615137 0.52372825
0.18020886 0.045694731 0.52375621
0.18145999 0.045774326 0.52378422
0.18271118 0.045853928 0.52381223
0.18396232 0.045933515 0.52384019
0.18521348 0.046013117 0.5238682
0.18646464 0.046092711 0.52389622
0.19235504 0.046283439 0.52304125
0.19360358 0.046362862 0.52306926
0.19485214 0.0464423 0.52309716
0.19610071 0.046521723 0.52312511
0.19734925 0.046601161 0.52315307
0.19859782 0.046680585 0.52318102
0.19984636 0.046760015 0.52320898
0.2010949 0.046839446 0.52323687
0.20234346 0.046918876 0.52326488
0.20359203 0.046998307 0.52329278
0.20484057 0.04707773 0.52332073
0.20608914 0.047157168 0.52334869
0.20733771 0.047236592 0.52337658
0.20858622 0.04731603 0.5234046
0.20983478 0.047395453 0.52343249
0.21108335 0.047474891 0.52346045
0.21233189 0.047554314 0.5234884
0.21358046 0.047633752 0.5235163
0.21482903 0.047713175 0.52354431
0.21607757 0.047792606 0.52357221
0.2173261 0.047872037 0.52360016
0.21857467 0.047951467 0.52362812
0.17637911 0.046700828 0.52354193
0.17763028 0.046780422 0.52356994
0.17888144 0.046860017 0.52359796
0.1801326 0.046939611 0.52362597
0.18138373 0.047019206 0.52365398
0.18263489 0.047098801 0.523682
0.18388605 0.047178403 0.52371001
0.18513721 0.047257997 0.52373797
0.18638834 0.047337592 0.52376598
0.19727314 0.047843441 0.52302307
0.1985217 0.047922879 0.52305102
0.20101878 0.048081741 0.52310693
0.20226735 0.048161164 0.52313483
0.20351592 0.048240602 0.52316284
0.20476446 0.048320025 0.52319074
0.20601302 0.048399463 0.52321869
0.20726159 0.048478886 0.52324665
0.2085101 0.048558317 0.52327454
0.20975867 0.048637748 0.52330256
0.21100724 0.048717178 0.52333045
0.21225578 0.048796609 0.5233584
0.21350434 0.048876032 0.52338636
0.21475291 0.04895547 0.52341431
0.17755398 0.048025303 0.52343971
0.17880514 0.048104897 0.52346772
0.18380976 0.048423275 0.52357972
0.18506092 0.048502877 0.52360773
0.20094267 0.049324028 0.52297693
0.2021912 0.049403459 0.52300489
0.20343977 0.049482889 0.52303278
0.20468831 0.04956232 0.5230608
0.20593688 0.049641743 0.52308869
0.20718545 0.049721181 0.52311665
0.20843399 0.049800605 0.5231446
0.20968255 0.049880043 0.52317256
0.21093109 0.049959466 0.52320051
0.21217966 0.050038904 0.52322841
0.2134282 0.050118327 0.52325642
0.21467677 0.050197765 0.52328432
0.17747769 0.049270183 0.52330947
0.17872885 0.049349777 0.52333748
0.17998001 0.049429372 0.5233655
0.20586076 0.050884038 0.52295876
0.20710933 0.050963476 0.52298665
0.20835787 0.051042899 0.52301466
0.20960644 0.05112233 0.52304256
0.21085498 0.051201761 0.52307051
0.21210355 0.051281191 0.52309847
0.21335208 0.051360622 0.52312636
0.21460065 0.051440045 0.52315438
0.17740142 0.050515056 0.52317917
0.17865258 0.050594658 0.52320719
0.17990375 0.050674252 0.5232352
0.21077886 0.052444056 0.52294052
0.2120274 0.052523479 0.52296847
0.21327597 0.052602917 0.52299643
0.17732513 0.051759943 0.523049
0.17857629 0.051839538 0.52307695
0.17982745 0.051919132 0.52310497
0.21444842 0.053924635 0.52289438
0.17850003 0.053084418 0.52294672
0.17975119 0.053164013 0.52297473
0.18100232 0.053243607 0.52300274
0.18225348 0.053323209 0.52303076
0.18350464 0.053402796 0.52305871
0.18342835 0.054647684 0.52292848
0.17727631 0.058215484 0.52338922
0.17853007 0.058295242 0.52341729
0.17978382 0.058375001 0.52344537
0.18103758 0.058454767 0.52347338
0.18229133 0.058534525 0.52350146
0.17594612 0.059383191 0.52323067
0.17719987 0.05946295 0.52325869
0.17845362 0.059542716 0.52328676
0.17970738 0.059622474 0.52331483
0.18096113 0.059702232 0.52334285
0.18221489 0.059781998 0.52337098
0.18346864 0.059861757 0.523399
0.17461592 0.060550898 0.52307206
0.17586967 0.060630657 0.52310014
0.17712343 0.060710423 0.52312815
0.17837718 0.060790181 0.52315623
0.17963094 0.060869947 0.5231843
0.18088469 0.060949706 0.52321237
0.18213844 0.061029464 0.52324045
0.1833922 0.061109222 0.52326846
0.17328572 0.061718605 0.52291346
0.17453948 0.061798371 0.52294153
0.17579323 0.06187813 0.5229696
0.17704698 0.061957888 0.52299762
0.17830074 0.062037654 0.52302575
0.17955449 0.062117413 0.52305377
0.18080825 0.062197171 0.52308184
0.182062 0.062276937 0.52310991
0.18331575 0.062356696 0.52313793
0.17320928 0.062966071 0.52278292
0.17446306 0.063045837 0.52281106
0.17571679 0.063125595 0.52283907
0.17697054 0.063205354 0.52286714
0.1782243 0.06328512 0.52289522
0.17947808 0.063364878 0.52292323
0.18073183 0.063444637 0.5229513
0.18198559 0.063524403 0.52297938
0.17814785 0.064532585 0.52276468
0.19170988 0.069152363 0.52268177
0.19296363 0.069232121 0.52270985
0.19421738 0.06931188 0.52273786
