# .PCD v0.7 - Point Cloud Data file format
VERSION 0.7
FIELDS x y z
SIZE 4 4 4
TYPE F F F
COUNT 1 1 1
WIDTH 176
HEIGHT 1
VIEWPOINT 0 0 0 1 0 0 0
POINTS 176
DATA ascii
0.19874479 -0.011119004 0.27641094
0.19909488 -0.011146594 0.27673
0.19944498 -0.011174183 0.27704906
0.19979508 -0.011201769 0.27736816
0.19877115 -0.010645404 0.27642298
0.19912124 -0.010672994 0.27674204
0.19947135 -0.010700583 0.2770611
0.19982144 -0.010728169 0.27738017
0.20017153 -0.010755759 0.27769923
0.20052163 -0.010783348 0.27801833
0.20127942 -0.011064202 0.27736264
0.20162758 -0.011091638 0.27767995
0.20197576 -0.011119075 0.27799726
0.20232393 -0.011146512 0.27831459
0.20267211 -0.011173949 0.27863193
0.20302027 -0.011201385 0.27894923
0.1994977 -0.010226987 0.27707314
0.1998478 -0.010254573 0.27739221
0.20019791 -0.010282163 0.27771127
0.20054799 -0.010309752 0.27803034
0.2008981 -0.010337338 0.2783494
0.20165381 -0.010620646 0.2776919
0.20200197 -0.010648083 0.27800924
0.20235014 -0.01067552 0.27832654
0.20269832 -0.010702956 0.27864385
0.2030465 -0.010730393 0.27896118
0.20517568 -0.011121936 0.27955541
0.19882387 -0.0096982084 0.276447
0.19917397 -0.0097257979 0.27676606
0.19952407 -0.0097533874 0.27708516
0.19987416 -0.0097809732 0.27740422
0.20022427 -0.0098085627 0.27772331
0.20057437 -0.0098361522 0.27804238
0.20092446 -0.009863738 0.27836144
0.20168002 -0.010149647 0.27770388
0.2020282 -0.010177083 0.27802119
0.20237637 -0.01020452 0.27833849
0.20272455 -0.010231957 0.27865583
0.20307271 -0.010259394 0.27897316
0.20342089 -0.01028683 0.27929047
0.19885023 -0.0092246085 0.27645904
0.19920033 -0.009252198 0.2767781
0.19955043 -0.0092797875 0.27709717
0.19990052 -0.0093073733 0.27741623
0.20025063 -0.0093349628 0.27773532
0.20060071 -0.0093625523 0.27805439
0.20095082 -0.0093901381 0.27837348
0.20170623 -0.0096786506 0.27771583
0.20205441 -0.0097060874 0.27803314
0.20240259 -0.0097335242 0.27835047
0.20275076 -0.0097609609 0.27866778
0.20309894 -0.0097883977 0.27898508
0.2034471 -0.0098158345 0.27930242
0.20379528 -0.0098432712 0.27961975
0.20414346 -0.009870708 0.27993706
0.20449163 -0.0098981448 0.28025436
0.20557407 -0.010212429 0.27989477
0.20626657 -0.010266997 0.28052589
0.20661283 -0.010294281 0.28084147
0.20695907 -0.010321565 0.28115702
0.20730533 -0.010348849 0.28147259
0.19887659 -0.0087510049 0.27647105
0.19922669 -0.0087785944 0.27679014
0.1995768 -0.0088061839 0.27710921
0.19992688 -0.0088337697 0.27742827
0.20027699 -0.0088613592 0.27774733
0.20062709 -0.0088889487 0.2780664
0.20138428 -0.0091802143 0.27741045
0.20173246 -0.009207651 0.27772778
0.20208064 -0.0092350878 0.27804512
0.2024288 -0.0092625245 0.27836242
0.20277697 -0.0092899613 0.27867973
0.20312515 -0.0093173981 0.27899706
0.20347333 -0.0093448348 0.27931437
0.2038215 -0.0093722716 0.27963167
0.20416968 -0.0093997084 0.27994901
0.20451784 -0.0094271451 0.28026634
0.2052539 -0.0097167417 0.27959108
0.20560014 -0.0097440258 0.27990663
0.2059464 -0.0097713098 0.28022224
0.20629264 -0.0097986013 0.28053778
0.2066389 -0.0098258853 0.28085333
0.20698515 -0.0098531693 0.28116894
0.20733139 -0.0098804533 0.28148448
0.19890296 -0.0082774088 0.27648306
0.19925305 -0.0083049983 0.27680215
0.19960316 -0.0083325878 0.27712122
0.19995326 -0.0083601736 0.27744031
0.20030335 -0.0083877631 0.27775937
0.20065345 -0.0084153526 0.27807844
0.2014105 -0.0087092221 0.27742243
0.20175867 -0.0087366588 0.27773973
0.20210685 -0.0087640956 0.27805707
0.20245501 -0.0087915324 0.27837437
0.20280319 -0.0088189691 0.27869171
0.20315138 -0.0088464059 0.27900901
0.20349954 -0.0088738427 0.27932632
0.20384771 -0.0089012794 0.27964365
0.20419589 -0.0089287162 0.27996099
0.20454407 -0.0089561529 0.2802783
0.20527998 -0.0092483535 0.27960297
0.20562622 -0.0092756376 0.27991855
0.20597246 -0.0093029216 0.2802341
0.20631872 -0.0093302056 0.28054968
0.20666498 -0.0093574896 0.28086525
0.20701122 -0.0093847737 0.2811808
0.20735747 -0.0094120577 0.28149638
0.19962952 -0.0078589842 0.27713326
0.19997962 -0.0078865699 0.27745232
0.20032972 -0.0079141594 0.27777138
0.20067981 -0.0079417489 0.27809048
0.20102991 -0.0079693347 0.27840954
0.20178489 -0.0082656555 0.27775168
0.20213306 -0.0082930923 0.27806902
0.20248124 -0.008320529 0.27838632
0.20282942 -0.0083479658 0.27870366
0.20317759 -0.0083754025 0.27902097
0.20352577 -0.0084028393 0.2793383
0.20387393 -0.0084302761 0.27965561
0.20422211 -0.0084577128 0.27997291
0.20457029 -0.0084851496 0.28029025
0.20491846 -0.0085125864 0.28060758
0.2056523 -0.0088072345 0.27993041
0.20599854 -0.0088345185 0.28024602
0.20634478 -0.00886181 0.28056157
0.20669104 -0.008889094 0.28087711
0.2070373 -0.008916378 0.28119272
0.20738354 -0.008943662 0.28150827
0.20070617 -0.0074681453 0.27810249
0.20105627 -0.0074957311 0.27842155
0.20181111 -0.0077946521 0.27776366
0.20215929 -0.0078220889 0.27808097
0.20250745 -0.0078495257 0.27839828
0.20285563 -0.0078769624 0.27871561
0.2032038 -0.0079043992 0.27903295
0.20355198 -0.0079318359 0.27935025
0.20390016 -0.0079592727 0.27966756
0.20424832 -0.0079867095 0.27998489
0.2045965 -0.0080141462 0.28030223
0.20533212 -0.0083115622 0.27962676
0.20567837 -0.0083388463 0.27994233
0.20602462 -0.0083661303 0.28025788
0.20637086 -0.0083934143 0.28057346
0.20671712 -0.0084206983 0.28088903
0.20706338 -0.0084479824 0.28120458
0.20740962 -0.0084752664 0.28152016
0.20108263 -0.007022135 0.27843356
0.20143273 -0.0070497245 0.27875265
0.2021855 -0.0073510967 0.27809292
0.20253366 -0.0073785335 0.27841026
0.20288184 -0.0074059702 0.27872756
0.20323002 -0.007433407 0.2790449
0.2035782 -0.0074608438 0.2793622
0.20392637 -0.0074882805 0.27967954
0.20427454 -0.0075157173 0.27999684
0.20462272 -0.0075431541 0.28031418
0.2049709 -0.0075705908 0.28063148
0.20531908 -0.0075980276 0.28094882
0.20605069 -0.0078977346 0.2802698
0.20639694 -0.0079250187 0.28058535
0.20674318 -0.0079523027 0.2809009
0.20708944 -0.0079795867 0.2812165
0.20743568 -0.0080068707 0.28153205
0.20221172 -0.0068800971 0.2781049
0.20255989 -0.0069075339 0.27842221
0.20290807 -0.0069349706 0.27873951
0.20325623 -0.0069624074 0.27905685
0.20360442 -0.0069898441 0.27937418
0.20395258 -0.0070172809 0.27969149
0.20569345 -0.0071544647 0.28127807
0.20642301 -0.007456623 0.28059724
0.20676926 -0.007483907 0.28091282
0.20711552 -0.0075111911 0.28122836
0.20746176 -0.0075384751 0.28154394
0.20571968 -0.0066834725 0.28129005
0.20644908 -0.0069882274 0.28060913
