# .PCD v0.7 - Point Cloud Data file format
VERSION 0.7
FIELDS x y z
SIZE 4 4 4
TYPE F F F
COUNT 1 1 1
WIDTH 116
HEIGHT 1
VIEWPOINT 0 0 0 1 0 0 0
POINTS 116
DATA ascii
-3.4592185 -0.72392988 1.4399557
-3.4322119 -0.72082472 1.438751
-3.4721398 -0.71379018 1.4279492
-3.4654264 -0.71431911 1.4340677
-3.438386 -0.71126628 1.4328952
-3.4783478 -0.70417941 1.4220614
-3.4716344 -0.70470846 1.4281797
-3.4445601 -0.70170796 1.4270391
-3.4845557 -0.69456875 1.4161735
-3.4778419 -0.6950978 1.422292
-3.4507341 -0.69214952 1.4211833
-3.4840503 -0.68548715 1.416404
-3.4569082 -0.6825912 1.4153275
-3.4502311 -0.68311739 1.4214127
-3.4835443 -0.67640543 1.4166346
-3.4564052 -0.67355895 1.4155569
-3.4497285 -0.67408514 1.4216421
-3.4830389 -0.66732371 1.4168651
-3.4763255 -0.66785276 1.4229836
-3.4492259 -0.66505289 1.4218714
-3.4758201 -0.65877104 1.4232142
-3.4487228 -0.65602064 1.4221005
-3.4753146 -0.64968944 1.4234447
-3.4482203 -0.64698839 1.4223299
-3.4415431 -0.64751458 1.4284151
-3.4815226 -0.64007878 1.4175568
-3.4748092 -0.64060771 1.4236753
-3.4477172 -0.63795614 1.4225593
-3.4410405 -0.63848221 1.4286444
-3.4810171 -0.63099706 1.4177873
-3.4743032 -0.63152611 1.4239058
-3.4472146 -0.62892389 1.4227886
-3.4405379 -0.62945008 1.4288738
-3.4939384 -0.62085736 1.405781
-3.4872251 -0.62138641 1.4118993
-3.4805117 -0.62191546 1.4180179
-3.4533887 -0.61936557 1.4169328
-3.446712 -0.61989164 1.4230177
-3.4400349 -0.62041783 1.4291029
-3.4934325 -0.61177576 1.4060116
-3.4662395 -0.60928094 1.4049916
-3.4800057 -0.61283374 1.4182484
-3.4528856 -0.61033332 1.4171622
-3.446209 -0.61085939 1.4232471
-3.4395323 -0.61138558 1.4293323
-3.4724135 -0.59972262 1.3991358
-3.4657369 -0.60024881 1.405221
-3.4795003 -0.60375214 1.418479
-3.452383 -0.60130107 1.4173913
-3.4457064 -0.60182726 1.4234765
-3.4390297 -0.60235333 1.4295616
-3.4652343 -0.59121656 1.4054503
-3.4585571 -0.59174275 1.4115355
-3.4518805 -0.59226882 1.4176207
-3.4452033 -0.59279501 1.4237058
-3.4385266 -0.59332108 1.429791
-3.4647312 -0.58218431 1.4056795
-3.4580545 -0.5827105 1.4117646
-3.4513774 -0.58323669 1.41785
-3.4447007 -0.58376276 1.4239349
-3.438024 -0.58428895 1.4300201
-3.4113164 -0.58639348 1.4543607
-3.4709053 -0.57262599 1.3998237
-3.4642286 -0.57315218 1.4059088
-3.4508748 -0.57420444 1.4180794
-3.4441981 -0.57473063 1.4241643
-3.437521 -0.57525671 1.4302495
-3.4308443 -0.5757829 1.4363346
-3.4241672 -0.57630908 1.44242
-3.4174905 -0.57683516 1.4485052
-3.4108138 -0.57736135 1.4545901
-3.4041367 -0.57788754 1.4606755
-3.39746 -0.57841361 1.4667606
-3.3907828 -0.5789398 1.4728458
-3.3841062 -0.57946587 1.4789307
-3.3774295 -0.57999206 1.4850161
-3.3707523 -0.58051825 1.4911013
-3.4704027 -0.56359375 1.400053
-3.463726 -0.56411994 1.4061382
-3.4570489 -0.56464612 1.4122233
-3.4503722 -0.5651722 1.4183085
-3.4436951 -0.56569839 1.4243937
-3.4370184 -0.56622446 1.4304788
-3.4303417 -0.56675065 1.436564
-3.4439111 -0.57007051 1.4499936
-3.4371977 -0.57059956 1.4561121
-3.4304843 -0.57112861 1.4622304
-3.4237709 -0.57165754 1.4683492
-3.4170575 -0.57218659 1.4744675
-3.4103441 -0.57271564 1.4805861
-3.4036307 -0.57324469 1.4867043
-3.3969173 -0.57377374 1.4928229
-3.390204 -0.57430267 1.4989414
-3.3834906 -0.57483172 1.50506
-3.3767772 -0.57536077 1.5111783
-3.4903994 -0.55728567 1.4073949
-3.4836864 -0.55781472 1.4135132
-3.4769726 -0.55834377 1.4196317
-3.4498692 -0.55613995 1.4185379
-3.4431925 -0.55666608 1.424623
-3.4365158 -0.55719221 1.4307082
-3.450119 -0.56045985 1.4441056
-3.4434056 -0.5609889 1.4502242
-3.4366922 -0.56151783 1.4563427
-3.4299788 -0.56204689 1.462461
-3.4232655 -0.56257594 1.4685798
-3.4165521 -0.56310499 1.4746981
-3.483181 -0.548733 1.4137437
-3.4764671 -0.54926205 1.4198623
-3.4697537 -0.5497911 1.4259808
-3.4630404 -0.55032015 1.4320993
-3.456327 -0.55084908 1.4382176
-3.4496136 -0.55137813 1.4443362
-3.4429002 -0.55190718 1.4504547
-3.4361868 -0.55243623 1.4565732
-3.4759617 -0.54018044 1.4200928
