# .PCD v0.7 - Point Cloud Data file format
VERSION 0.7
FIELDS x y z
SIZE 4 4 4
TYPE F F F
COUNT 1 1 1
WIDTH 116
HEIGHT 1
VIEWPOINT 0 0 0 1 0 0 0
POINTS 116
DATA ascii
0.67879319 -0.07782954 0.52487469
0.65646255 -0.074744105 0.52495813
0.66329658 -0.074959129 0.52534783
0.66910243 -0.07516855 0.52533013
0.67597187 -0.075387478 0.52568525
0.68075907 -0.075592339 0.52525115
0.64009082 -0.071951225 0.52489066
0.64687562 -0.07214807 0.52532518
0.65367913 -0.07234697 0.52574152
0.65841556 -0.072538584 0.52535498
0.66525245 -0.072741196 0.52573872
0.67106152 -0.072940782 0.52571559
0.67793393 -0.073147297 0.52606487
0.68377459 -0.07335037 0.52601093
0.63630009 -0.069586441 0.52525485
0.6441083 -0.069770515 0.52609706
0.64882183 -0.069951966 0.52573097
0.65562832 -0.070138484 0.52614141
0.66141057 -0.070324913 0.52614188
0.66825235 -0.070515335 0.52651799
0.67406642 -0.070705265 0.52648759
0.67884707 -0.070894137 0.52605623
0.68468904 -0.071087167 0.52599871
0.62577903 -0.067066461 0.52514011
0.63148427 -0.067234218 0.525213
0.63927472 -0.067401066 0.52606893
0.64605057 -0.067571446 0.52650613
0.65284491 -0.067743883 0.52692521
0.65861738 -0.067919046 0.52693295
0.66336215 -0.068096325 0.52653468
0.66916251 -0.068274572 0.52651513
0.67602408 -0.068454415 0.52686906
0.68080795 -0.06863603 0.52643263
0.68455315 -0.06881848 0.52560127
0.61428463 -0.064592794 0.52457535
0.61995959 -0.064747006 0.52467549
0.62771177 -0.064894363 0.52556491
0.6344533 -0.065048218 0.52603245
0.64224839 -0.065200299 0.52688026
0.64902902 -0.06535849 0.52730983
0.65375102 -0.065525591 0.52693188
0.65952468 -0.065690711 0.52693599
0.66635549 -0.065854445 0.52731657
0.67007244 -0.066028699 0.52651143
0.67588902 -0.066198558 0.52647388
0.68172038 -0.06637004 0.52642173
0.68441725 -0.066549778 0.52520382
0.61621094 -0.06243524 0.52501011
0.62291813 -0.062572584 0.52550811
0.62964392 -0.062711984 0.52598792
0.63638842 -0.062853456 0.52644968
0.64315152 -0.062996954 0.52689326
0.64993334 -0.063142538 0.52731878
0.65465665 -0.063302144 0.52693772
0.66147196 -0.063451439 0.52733058
0.66726363 -0.063608348 0.52731478
0.67202604 -0.063772306 0.52689564
0.67679977 -0.063937485 0.52646565
0.68263245 -0.064098939 0.52640998
0.68533099 -0.064276323 0.52518976
0.61144495 -0.060144559 0.52493286
0.61710942 -0.060277238 0.52503842
0.62381768 -0.060401976 0.52553236
0.63157547 -0.060519382 0.52640915
0.63729012 -0.060657606 0.52646583
0.64405441 -0.060788527 0.5269053
0.65083718 -0.06092146 0.5273267
0.65660036 -0.061065048 0.52733636
0.66133821 -0.061218619 0.52693945
0.66712928 -0.061365291 0.52692181
0.67293525 -0.061513618 0.52688968
0.67666447 -0.061679035 0.52607
0.68249655 -0.061830238 0.52601254
0.61234188 -0.057991475 0.52496386
0.61800754 -0.058114111 0.52506578
0.62471688 -0.058226228 0.52555573
0.63247573 -0.058328465 0.52642798
0.63715899 -0.058468387 0.52608234
0.64392245 -0.058586463 0.5265196
0.6507045 -0.058706596 0.5269388
0.65646708 -0.058839932 0.52694654
0.66120446 -0.058985814 0.52654827
0.66699493 -0.059122235 0.52652884
0.67175639 -0.059270799 0.52610707
0.67652917 -0.059420601 0.5256744
0.68131316 -0.059571639 0.52523077
0.60656345 -0.055737674 0.52447379
0.61323845 -0.055833273 0.52499402
0.61890543 -0.055945843 0.52509236
0.62561595 -0.056045353 0.5255782
0.63234496 -0.05614692 0.5260458
0.6390928 -0.056250542 0.52649546
0.6437906 -0.056384429 0.52613384
0.64953578 -0.056505635 0.52615613
0.65425777 -0.05664219 0.52577102
0.66003084 -0.056766495 0.52576613
0.66581869 -0.056892455 0.5257467
0.66953444 -0.05704619 0.52493787
0.67534852 -0.05717501 0.52489316
0.68117738 -0.0573055 0.5248338
0.61310995 -0.053687625 0.52461815
0.6187762 -0.053789951 0.52471471
0.62548602 -0.053876638 0.52519828
0.63221431 -0.05396539 0.52566367
0.63896143 -0.054056183 0.52611101
0.6426245 -0.05419904 0.52535212
0.64836717 -0.0543098 0.52537435
0.65308678 -0.054438457 0.52498972
0.65885746 -0.054552287 0.52498484
0.66464293 -0.054667786 0.52496541
0.60835361 -0.05143109 0.52453941
0.62535608 -0.051707909 0.52481836
0.63208365 -0.051783852 0.52528155
0.6367656 -0.0519007 0.52493179
0.64249277 -0.051999554 0.52496678
0.63092279 -0.049624503 0.52450061
