# .PCD v0.7 - Point Cloud Data file format
VERSION 0.7
FIELDS x y z
SIZE 4 4 4
TYPE F F F
COUNT 1 1 1
WIDTH 1481
HEIGHT 1
VIEWPOINT 0 0 0 1 0 0 0
POINTS 1481
DATA ascii
-3.1778769 -0.049994413 1.474663
-3.1518421 -0.050537009 1.4726667
-3.109396 -0.051102087 1.4639645
-3.0845666 -0.05162913 1.4622235
-3.060833 -0.052149229 1.4608376
-3.0197477 -0.052686468 1.4522491
-3.0135612 -0.053173967 1.4578872
-2.9736934 -0.053694747 1.4495435
-2.9502521 -0.054191824 1.447891
-2.9116235 -0.054694314 1.4397712
-2.8893571 -0.05517824 1.4384022
-2.8671517 -0.055657327 1.4369771
-2.8298421 -0.056135315 1.4290094
-2.8087978 -0.056602333 1.42788
-2.7727036 -0.057063997 1.4201591
-2.7518039 -0.057519633 1.4188979
-2.7319646 -0.057971086 1.4180243
-2.7111783 -0.058417767 1.4166601
-2.6914492 -0.05886057 1.4156861
-2.6707764 -0.059298325 1.4142184
-3.1838164 -0.04079954 1.4690299
-3.1577477 -0.041394453 1.4670656
-3.1089206 -0.042553887 1.4641814
-3.0840931 -0.043127749 1.4624393
-3.0429149 -0.043761209 1.4539378
-3.0192819 -0.044317812 1.4524615
-2.9957142 -0.04486927 1.4509254
-2.9732323 -0.045411967 1.4497538
-2.9497933 -0.04595327 1.4481001
-2.9111695 -0.046539042 1.4399784
-2.888905 -0.047064587 1.4386082
-2.8667026 -0.047585309 1.4371822
-2.8293972 -0.048143972 1.4292123
-2.8083553 -0.04865 1.428082
-2.7722654 -0.049189761 1.4203589
-2.7513676 -0.049684409 1.4190969
-2.7315307 -0.050172295 1.4182222
-2.7257657 -0.050626587 1.4234765
-2.6910191 -0.051137254 1.4158823
-2.6703482 -0.051614035 1.4144135
-3.1897554 -0.031604659 1.4633968
-3.1636534 -0.032251898 1.4614644
-3.1572666 -0.032755163 1.4672849
-3.1147633 -0.033507712 1.4586394
-3.0899048 -0.034131143 1.4569275
-3.066143 -0.034742296 1.4555693
-3.0424466 -0.035348311 1.4541514
-3.018816 -0.035949156 1.4526739
-2.9952507 -0.036544841 1.4511368
-2.9727712 -0.037129171 1.449964
-2.9493346 -0.037714716 1.4483094
-2.9107156 -0.038383756 1.4401853
-2.8884535 -0.038950942 1.4388142
-2.8662529 -0.03951329 1.437387
-2.8289528 -0.040152628 1.4294152
-2.8079128 -0.040697705 1.4282839
-2.7869306 -0.041238219 1.4270999
-2.7509313 -0.0418492 1.4192958
-2.7310967 -0.042373512 1.4184201
-2.7253313 -0.042827804 1.4236743
-2.7045784 -0.043350287 1.422282
-2.6848803 -0.043863826 1.4212816
-3.2021179 -0.02190366 1.4519098
-3.1956949 -0.022409793 1.4577634
-3.1695585 -0.023109343 1.4558632
-3.1455669 -0.02378308 1.454716
-3.1206069 -0.024461545 1.4530973
-3.1142879 -0.024959497 1.4588566
-3.0894313 -0.02562977 1.4571433
-3.0481977 -0.026445337 1.4486971
-3.0245366 -0.027092993 1.4472482
-3.0183501 -0.027580485 1.4528863
-2.9784331 -0.028363898 1.4445941
-2.9549661 -0.028996248 1.4429681
-2.9488759 -0.029476155 1.4485185
-2.9102616 -0.03022847 1.4403923
-2.8880019 -0.030837297 1.4390199
-2.8658037 -0.031441279 1.437592
-2.8446774 -0.032032359 1.4365404
-2.8074698 -0.03274538 1.4284856
-2.78649 -0.033324942 1.4273009
-2.7655683 -0.033899941 1.4260638
-2.7447033 -0.034470405 1.4247735
-2.7248974 -0.03502902 1.4238722
-2.7041464 -0.035590537 1.4224789
-2.69841 -0.036042556 1.4277067
-3.2273259 -0.011190366 1.4287155
-3.2209029 -0.011696506 1.4345694
-3.2144799 -0.012202639 1.440423
-3.1882372 -0.012960266 1.4386213
-3.1818504 -0.013463531 1.4444418
-3.1577959 -0.014186651 1.4433529
-3.1514421 -0.01468733 1.4491436
-3.1264501 -0.015415363 1.4475553
-3.1015272 -0.016137939 1.445904
-3.0777049 -0.016842723 1.4446032
-3.0714531 -0.017335363 1.4503009
-3.047729 -0.018032424 1.4489107
-3.0240707 -0.018724315 1.4474607
-3.0004778 -0.019411068 1.4459512
-2.977972 -0.020081088 1.4448044
-2.9545078 -0.020757679 1.4431772
-2.932127 -0.021417849 1.4419162
-2.9098077 -0.022073168 1.4405994
-2.8875504 -0.022723638 1.4392259
-2.8653545 -0.023369253 1.4377968
-2.8442302 -0.023999367 1.4367442
-2.8070273 -0.024793055 1.4286876
-2.7860494 -0.025411651 1.4275019
-2.7651296 -0.02602569 1.4262636
-2.7593088 -0.026484385 1.4315686
-2.7384753 -0.027091596 1.4302511
-2.718698 -0.027684513 1.4293244
-2.697978 -0.028282791 1.4279037
-3.2718029 0.0010413192 1.3879597
-3.2653799 0.00053518638 1.3938136
-3.2589569 2.9046088e-05 1.3996673
-3.2525339 -0.0004770942 1.4055212
-3.2461109 -0.00098322704 1.4113748
-3.2396884 -0.0014893599 1.4172285
-3.2332654 -0.0019955002 1.4230824
-3.2268424 -0.002501633 1.428936
-3.2005291 -0.003314469 1.4271996
-3.1941423 -0.0038177259 1.4330201
-3.1700249 -0.0045902431 1.4319899
-3.163671 -0.0050909147 1.4377804
-3.1386123 -0.0058712438 1.4362543
-3.1322932 -0.0063692033 1.4420133
-3.1073384 -0.0071413331 1.4403925
-3.1010537 -0.0076365583 1.44612
-3.0772343 -0.0083855838 1.444818
-3.0534801 -0.0091294497 1.4434562
-3.0297914 -0.0098681673 1.4420352
-3.0061679 -0.010601725 1.4405541
-3.0000143 -0.011086639 1.4461625
-2.9775109 -0.0117983 1.4450147
-2.9540491 -0.012519125 1.4433863
-2.9316711 -0.013220929 1.4421244
-2.9093537 -0.013917889 1.4408064
-2.8870988 -0.014609985 1.4394319
-2.8649049 -0.015297242 1.4380019
-2.8437829 -0.015966389 1.4369483
-2.8065848 -0.016840745 1.4288895
-2.7856092 -0.017498367 1.4277027
-2.7646914 -0.01815144 1.4264636
-2.7588706 -0.018610135 1.4317687
-2.738039 -0.019256387 1.43045
-2.7182641 -0.019885737 1.4295225
-2.697546 -0.020523041 1.4281008
-3.2905879 0.011248469 1.3706191
-3.2841654 0.010742337 1.3764727
-3.2575254 0.0098541379 1.3750353
-3.2511392 0.009350881 1.3808556
-3.2648964 0.0092239231 1.3940341
-3.2584734 0.0087177902 1.3998878
-3.2520504 0.0082116425 1.4057417
-3.2456274 0.0077055097 1.4115953
-3.2392044 0.0071993768 1.417449
-3.2327814 0.006693244 1.4233029
-3.2064342 0.0058280975 1.4215987
-3.200048 0.0053248368 1.4274189
-3.1936617 0.0048215799 1.4332395
-3.1695461 0.0040048212 1.4322081
-3.1631927 0.0035041496 1.4379988
-3.1194339 0.002350498 1.4291532
-3.1131496 0.0018552653 1.4348807
-3.0892673 0.0010568574 1.4336371
-3.0830154 0.00056421012 1.4393349
-3.0592308 -0.0002264753 1.4380021
-3.035512 -0.0010119975 1.4366095
-3.011858 -0.001792375 1.4351573
-3.0057044 -0.0022772886 1.4407656
-2.9831724 -0.0030330122 1.4396446
-2.9770498 -0.0035155043 1.445225
-2.9535904 -0.0042805709 1.4435956
-2.9312148 -0.005024001 1.4423323
-2.9088998 -0.0057625957 1.4410133
-2.8866472 -0.0064963326 1.4396379
-2.8644557 -0.0072252229 1.4382067
-2.8433361 -0.0079333968 1.4371521
-2.8061423 -0.0088884272 1.4290915
-2.7851686 -0.0095850825 1.4279037
-2.7642531 -0.010277182 1.4266634
-2.7584324 -0.010735877 1.4319685
-2.7376027 -0.011421163 1.4306488
-2.7178302 -0.012086939 1.4297204
-3.2516661 0.019108713 1.3571479
-3.2453122 0.018608034 1.3629384
-3.2389584 0.018107347 1.3687294
-3.250658 0.017990157 1.3810749
-3.2442718 0.017486915 1.3868952
-3.2378855 0.016983658 1.3927157
-3.2515669 0.01690039 1.4059622
-3.2451439 0.016394258 1.4118161
-3.2387209 0.015888125 1.4176698
-3.2123399 0.014970616 1.4159977
-3.2059536 0.014467373 1.421818
-3.1817751 0.013601236 1.420845
-3.1754217 0.013100564 1.4266355
-3.1502991 0.01222109 1.4251699
-3.14398 0.011723138 1.4309292
-3.1189609 0.010851875 1.429369
-3.095048 0.010006636 1.4281542
-3.0712004 0.0091665685 1.4268796
-3.0649815 0.0086764991 1.4325478
-3.0412321 0.0078441426 1.4311838
-3.0350461 0.0073566586 1.4368219
-3.011395 0.0065320581 1.4353685
-2.9888344 0.0057322755 1.4342747
-2.9827118 0.0052497908 1.4398549
-2.9592218 0.0044379048 1.4382544
-2.9531317 0.0039579906 1.4438047
-2.9307585 0.0031729192 1.4425404
-2.9084458 0.0023926906 1.4412205
-2.8861952 0.0016173199 1.4398439
-2.8640065 0.00084679574 1.4384117
-2.8428888 9.9580735e-05 1.4373562
-2.8056993 -0.00093610957 1.4292934
-2.7998209 -0.0013993494 1.4346509
-2.7638149 -0.0024029315 1.4268634
-2.7579937 -0.0028616264 1.4321685
-2.7371669 -0.0035859458 1.4308479
-2.7173958 -0.0042881556 1.4299185
-3.2319708 0.027242675 1.3505189
-3.2256517 0.026744723 1.3562782
-3.2193327 0.026246771 1.3620372
-3.2321262 0.026201725 1.3747382
-3.2257729 0.025701053 1.3805287
-3.2374048 0.025622964 1.392935
-3.2310181 0.025119692 1.3987556
-3.2246318 0.02461645 1.4045761
-3.2182455 0.024113193 1.4103963
-3.2118587 0.023609921 1.4162171
-3.2054725 0.023106679 1.4220374
-3.1812968 0.022196293 1.4210632
-3.1561422 0.021267273 1.4196279
-3.1498232 0.02076932 1.4253871
-3.1247721 0.019848466 1.4238575
-3.1008291 0.018956445 1.4226711
-3.0769515 0.018069543 1.4214253
-3.0707321 0.017579481 1.4270933
-3.0469527 0.01670032 1.4257581
-3.0232387 0.015826315 1.4243634
-3.0170851 0.015341401 1.4299717
-2.9944963 0.014497563 1.4289048
-2.9883733 0.014015071 1.434485
-2.9648538 0.013156369 1.4329131
-2.9587636 0.012676463 1.4384634
-2.9363613 0.011847325 1.4372263
-2.9303021 0.011369847 1.4427485
-2.9079919 0.010547981 1.4414275
-2.8857436 0.0097309723 1.4400499
-2.8635573 0.0089188218 1.4386165
-2.8424416 0.0081325769 1.4375601
-2.8052568 0.0070162117 1.4294951
-2.7993784 0.0065529644 1.4348528
-2.7784381 0.0057805255 1.4336367
-2.7575555 0.005012624 1.4323683
-2.7367306 0.004249271 1.4310467
-3.1941342 0.034803249 1.33742
-3.2059965 0.034787744 1.3496153
-3.1997118 0.034292519 1.3553431
-3.2125378 0.034297042 1.3680134
-3.2252941 0.034296118 1.3807468
-3.2189407 0.033795439 1.3865376
-3.2305369 0.033758998 1.3989749
-3.2241507 0.033255756 1.4047952
-3.2177644 0.032752499 1.4106157
-3.2113781 0.032249227 1.4164362
-3.1871719 0.031292036 1.4154909
-3.1808186 0.030791357 1.4212813
-3.1556664 0.029815495 1.4198449
-3.1305833 0.028845087 1.4183457
-3.1066098 0.027906224 1.4171882
-3.1003585 0.027413584 1.4228859
-3.0764832 0.026482448 1.421639
-3.0526733 0.02555649 1.4203324
-3.0289292 0.024635658 1.4189663
-3.0227752 0.024150744 1.4245746
-3.0001583 0.023262843 1.4235346
-2.9940352 0.022780359 1.4291151
-2.9704852 0.02187486 1.4275715
-2.964395 0.021394938 1.4331222
-2.9583049 0.020915031 1.4386725
-2.935905 0.020044252 1.4374344
-2.9298458 0.019566774 1.4429567
-2.9075379 0.018703267 1.4416347
-2.8852921 0.017844632 1.4402559
-2.8631077 0.01699084 1.4388216
-2.8419948 0.016165555 1.4377639
-2.8199315 0.015321314 1.4362192
-2.7989354 0.014505282 1.4350548
-2.7779975 0.01369381 1.4338377
-2.7571173 0.012886882 1.4325681
-2.7362943 0.012084499 1.4312456
-3.1635618 0.042699993 1.3190589
-3.1755195 0.042736441 1.331166
-3.1693006 0.042246386 1.3368337
-3.18116 0.042275101 1.3490303
-3.1929545 0.042298675 1.3612864
-3.2057428 0.042347312 1.3739893
-3.2184625 0.042390496 1.3867557
-3.2121086 0.041889809 1.3925464
-3.22367 0.041895047 1.4050145
-3.2172837 0.04139179 1.410835
-3.210897 0.040888518 1.4166555
-3.1866937 0.039887093 1.415709
-3.1803398 0.039386414 1.4214997
-3.1551905 0.03836371 1.4200621
-3.1301103 0.037346467 1.4185615
-3.1238256 0.036851227 1.424289
-3.0822339 0.035385415 1.4161847
-3.0760145 0.034895346 1.4218526
-3.0522075 0.033925146 1.4205449
-3.0284657 0.032960095 1.4191775
-3.0058198 0.032028124 1.4181647
-2.9996972 0.031545639 1.4237449
-2.9761167 0.030593321 1.4222305
-2.9700265 0.030113414 1.4277809
-2.9475675 0.029196143 1.4265976
-2.9415083 0.028718665 1.4321201
-2.9354486 0.028241172 1.4376423
-2.9131126 0.027333617 1.4363472
-2.907084 0.026858553 1.4418416
-2.8848405 0.025958285 1.4404619
-2.8626585 0.025062852 1.4390266
-2.8415475 0.02419854 1.437968
-2.8194866 0.023312658 1.4364221
-2.7984929 0.0224576 1.4352567
-2.7775569 0.021607101 1.4340384
-2.7566791 0.020761125 1.4327681
-2.7358584 0.019919708 1.4314446
-3.1449213 0.05049789 1.3128312
-3.1569095 0.050581172 1.3249094
-3.150723 0.050093681 1.3305476
-3.1626129 0.050169207 1.3427153
-3.1744375 0.0502396 1.3549426
-3.1861968 0.050304845 1.3672297
-3.1989484 0.05039759 1.3799653
-3.2116299 0.050484866 1.3927646
-3.2052765 0.049984202 1.3985553
-3.2168026 0.050031096 1.4110544
-3.2104163 0.049527824 1.4168749
-3.1862154 0.04848215 1.4159272
-3.1610336 0.047409877 1.41452
-3.1547146 0.046911933 1.420279
-3.1296368 0.045847848 1.4187772
-3.1056685 0.04482051 1.4176176
-3.0994167 0.04432787 1.4233153
-3.0755463 0.043308258 1.4220662
-3.0517416 0.042293824 1.4207573
-3.0280023 0.041284524 1.419389
-3.0053587 0.040310927 1.418375
-2.9817481 0.039311782 1.4168892
-2.9592299 0.038348041 1.415761
-2.9531708 0.037870564 1.4212832
-2.9471111 0.037393071 1.4268057
-2.924716 0.036439031 1.4255655
-2.9186873 0.035963967 1.4310598
-2.9126587 0.035488911 1.4365542
-2.8903866 0.034544572 1.4352016
-2.8843889 0.034071937 1.4406679
-2.8470383 0.032699466 1.43276
-2.8411002 0.032231525 1.4381719
-2.8039289 0.030873165 1.4301009
-2.7829661 0.029981345 1.4289081
-2.7771163 0.029520378 1.4342394
-2.7562408 0.028635383 1.4329679
-2.7354221 0.027754933 1.4316435
-3.1273551 0.058243498 1.3069801
-3.1383047 0.05833742 1.3186507
-3.1502571 0.058462352 1.33076
-3.1621447 0.058582112 1.3429289
-3.1739669 0.058696747 1.3551574
-3.1857233 0.058806226 1.3674455
-3.1794391 0.058311 1.373173
-3.192153 0.058447845 1.3859415
-3.2047977 0.058579259 1.3987734
-3.1984444 0.05807858 1.4045639
-3.1920905 0.057577893 1.4103549
-3.1857367 0.057077214 1.4161453
-3.1605577 0.055958092 1.414737
-3.1542387 0.055460148 1.420496
-3.1291637 0.054349229 1.418993
-3.122879 0.053853996 1.4247208
-3.0812974 0.052211232 1.4166119
-3.075078 0.051721163 1.4222798
-3.0512757 0.050662488 1.4209697
-3.0275388 0.049608961 1.4196002
-3.0048976 0.048593722 1.4185853
-2.9812899 0.047550343 1.4170983
-2.9587736 0.046544969 1.4159689
-2.9527144 0.046067491 1.4214914
-2.9302907 0.045069382 1.4202783
-2.924262 0.044594318 1.4257727
-2.9182334 0.044119254 1.431267
-2.8959327 0.04313086 1.4299414
-2.889935 0.042658225 1.4354076
-2.8839374 0.04218559 1.4408739
-2.8465915 0.040732443 1.4329638
-2.8406529 0.04026451 1.4383757
-2.8034863 0.038825482 1.4303026
-2.7825255 0.037894621 1.4291091
-2.7766757 0.037433669 1.4344404
-2.7558022 0.036509633 1.4331679
-2.7499814 0.036050946 1.4384727
-3.126894 0.066526294 1.3071904
-3.1378412 0.06666185 1.318862
-3.1316876 0.066176936 1.3244703
-3.1436048 0.066343516 1.3366106
-3.1554575 0.066504955 1.3488104
-3.1672444 0.066661246 1.3610699
-3.178966 0.066812381 1.3733888
-3.1916776 0.066996068 1.3861585
-3.1853585 0.066498116 1.3919177
-3.1790395 0.066000171 1.3976767
-3.1916118 0.066172957 1.410573
-3.1664009 0.065004267 1.4091949
-3.1600819 0.064506315 1.4149539
-3.1537628 0.06400837 1.4207129
-3.1286902 0.062850609 1.419209
-3.122406 0.062355377 1.4249365
-3.0984755 0.061242163 1.4237447
-3.0746098 0.060134068 1.4224935
-3.0508099 0.059031159 1.4211822
-3.0270758 0.05793339 1.4198117
-3.0044365 0.056876518 1.4187956
-2.9808311 0.055788904 1.4173074
-2.9583178 0.054741889 1.416177
-2.9358654 0.053699732 1.4149909
-2.9298368 0.053224668 1.4204853
-2.9238081 0.052749604 1.4259796
-2.9014788 0.051717147 1.4246809
-2.8954811 0.051244512 1.4301474
-2.8894835 0.050771877 1.4356136
-2.8672776 0.049749121 1.4342029
-2.8461442 0.048765428 1.4331679
-2.8402061 0.048297495 1.4385798
-2.8030434 0.046777792 1.4305046
-2.7971649 0.046314552 1.4358623
-2.7762356 0.045346946 1.4346411
-2.7703857 0.044885978 1.4399724
-2.7495432 0.043925196 1.4386728
-3.1082659 0.07410562 1.300957
-3.1203098 0.074326605 1.3129809
-3.1312242 0.074501365 1.3246815
-3.1431394 0.074712187 1.336823
-3.1549892 0.074917853 1.3490241
-3.1667738 0.075118393 1.3612845
-3.160522 0.07462576 1.3669822
-3.1722083 0.074818537 1.3793321
-3.1659236 0.074323326 1.3850596
-3.1596394 0.073828101 1.3907871
-3.1722441 0.074050426 1.4036529
-3.165925 0.073552489 1.4094119
-3.1407862 0.07234244 1.4079697
-3.1345015 0.071847215 1.4136972
-3.1282172 0.07135199 1.4194248
-3.1219325 0.070856765 1.4251523
-3.0980043 0.069699317 1.4239595
-3.0741415 0.068546981 1.4227068
-3.0503445 0.06739983 1.4213946
-3.0100985 0.065641806 1.4134254
-2.9864626 0.06450738 1.4119661
-2.9639206 0.063416302 1.4108629
-2.9414401 0.062330082 1.4097035
-2.9190207 0.061248705 1.408488
-2.913023 0.06077607 1.4139543
-2.9070253 0.060303435 1.4194207
-2.9010272 0.0598308 1.4248869
-2.8787622 0.058761567 1.4235313
-2.8727951 0.058291346 1.4289696
-2.8668284 0.05782114 1.4344079
-2.8608613 0.057350934 1.4398463
-2.8397589 0.056330487 1.4387836
-2.8177071 0.055278063 1.4372337
-2.7967224 0.05426687 1.4360642
-2.775795 0.053260237 1.4348421
-2.7699451 0.05279927 1.4401734
-2.749105 0.051799446 1.4388726
-2.7432842 0.051340751 1.4441776
-3.1078072 0.082344189 1.3011661
-3.1198487 0.0826094 1.3131912
-3.1137261 0.082126915 1.3187714
-3.1246071 0.082340881 1.3305013
-3.136487 0.082593381 1.3426735
-3.1483021 0.082840711 1.3549054
-3.1600513 0.083082885 1.3671968
-3.1537995 0.082590252 1.3728948
-3.1654506 0.082824707 1.3852756
-3.1591659 0.082329482 1.3910031
-3.1528816 0.081834257 1.3967307
-3.1465969 0.081339031 1.4024582
-3.1403127 0.080843821 1.4081857
-3.1340284 0.080348596 1.4139132
-3.1277437 0.079853371 1.4196405
-3.1037855 0.078649089 1.4184763
-3.0975337 0.078156441 1.4241741
-3.0736732 0.076959878 1.4229205
-3.0498786 0.075768501 1.421607
-3.0096374 0.073924601 1.4136357
-2.9860039 0.072745934 1.4121752
-2.9634643 0.071613222 1.4110708
-2.9409862 0.070485368 1.4099107
-2.9185691 0.069362357 1.408694
-2.896214 0.068244219 1.4074216
-2.8902473 0.067774005 1.4128599
-2.8842802 0.067303784 1.418298
-2.8783131 0.066833578 1.4237363
-2.8723459 0.066363372 1.4291747
-2.8663788 0.065893166 1.4346128
-2.8604121 0.065422945 1.4400511
-2.8393116 0.064363465 1.4389875
-2.8172622 0.063269421 1.4374366
-2.8113551 0.062803909 1.4428203
-2.790401 0.061755955 1.4416237
-2.769505 0.060712554 1.4403744
-2.7636552 0.060251594 1.4457057
-2.7428455 0.059215009 1.4443777
-3.1073489 0.090582743 1.3013754
-3.1012588 0.090102822 1.3069258
-3.113265 0.090409711 1.3189816
-3.107142 0.089927226 1.3245618
-3.1360211 0.090962037 1.342886
-3.1298347 0.090474546 1.3485241
-3.1416144 0.090763539 1.3607869
-3.1353955 0.09027347 1.3664551
-3.1470771 0.090554744 1.3788071
-3.1408253 0.090062112 1.3845048
-3.1345735 0.089569449 1.3902025
-3.1461239 0.089840412 1.402674
-3.1398396 0.089345202 1.4084015
-3.1335549 0.088849977 1.414129
-3.1095662 0.087598875 1.4129934
-3.1033149 0.087106228 1.4186912
-3.0794239 0.085862845 1.4174662
-3.0555987 0.084624648 1.4161816
-3.0318394 0.083391607 1.4148371
-2.9916358 0.08146441 1.4068339
-2.9690676 0.080287635 1.4057567
-2.9465604 0.079115719 1.4046235
-2.9241152 0.077948645 1.4034338
-2.901732 0.076786429 1.4021883
-2.8957648 0.076316223 1.4076266
-2.8744936 0.075204074 1.4067199
-2.8685555 0.074736133 1.4121318
-2.862617 0.074268207 1.4175436
-2.856679 0.073800266 1.4229558
-2.8659296 0.073965177 1.4348178
-2.8448029 0.072864383 1.4337797
-2.8388643 0.072396457 1.4391916
-2.8329263 0.071928516 1.4446034
-2.8109102 0.070795253 1.4430232
-2.7899585 0.069708273 1.4418256
-2.7690644 0.068625838 1.4405751
-2.7632146 0.068164885 1.4459064
-2.7424073 0.067089252 1.4445775
-2.7216578 0.066018194 1.4431953
-3.0897989 0.098034292 1.2955167
-3.1008 0.09834139 1.3071349
-3.0947099 0.097861484 1.3126853
-3.1066813 0.098210022 1.3247721
-3.1005583 0.097727537 1.3303525
-3.1113729 0.098019913 1.3421407
-3.1231828 0.098355725 1.3543746
-3.1169963 0.097868234 1.360013
-3.1287079 0.098196313 1.3723364
-3.122489 0.097706258 1.3780043
-3.1162701 0.097216159 1.3836722
-3.1100507 0.096726105 1.3893402
-3.1215992 0.097041309 1.4018126
-3.1153474 0.096548676 1.4075103
-3.1090956 0.096056014 1.413208
-3.1028438 0.095563382 1.4189057
-3.0789557 0.094275773 1.4176798
-3.0551329 0.092993319 1.416394
-3.0313759 0.091716036 1.4150486
-2.9911771 0.089702964 1.407043
-2.9686112 0.088484555 1.4059649
-2.9461064 0.087271005 1.4048305
-2.9072495 0.085328668 1.396955
-2.9012828 0.084858447 1.4023931
-2.8799844 0.083704993 1.4015119
-2.8740463 0.083237067 1.4069238
-2.8681083 0.082769126 1.4123356
-2.8621702 0.082301185 1.4177477
-2.8562317 0.081833243 1.4231596
-2.8502936 0.081365317 1.4285715
-2.8443556 0.080897376 1.4339836
-2.8384175 0.080429435 1.4393954
-2.832479 0.079961494 1.4448075
-2.8104653 0.078786597 1.4432261
-2.8045578 0.078321084 1.4486101
-2.783637 0.077197343 1.4473851
-2.762774 0.076078162 1.4461074
-2.7569242 0.075617194 1.4514387
-2.7361484 0.074504822 1.4500823
-2.7154293 0.073396981 1.448673
-3.0722532 0.10540259 1.2896562
-3.0832834 0.10575375 1.3012471
-3.0772238 0.10527626 1.3067694
-3.088161 0.10562012 1.318445
-3.1000972 0.10601032 1.3305628
-3.0939741 0.10552785 1.336143
-3.1047564 0.10585944 1.3479602
-3.0986023 0.10537452 1.3535688
-3.1103444 0.10574941 1.3658636
-3.1041579 0.10526192 1.3715014
-3.1158018 0.10562907 1.3838859
-3.1095824 0.10513902 1.3895538
-3.1033635 0.10464895 1.3952217
-3.0971446 0.10415888 1.4008894
-3.1086249 0.10451317 1.4134228
-3.0847063 0.10317874 1.4122255
-3.0608535 0.10184948 1.4109683
-3.054667 0.10136199 1.4166064
-3.0309124 0.10004047 1.4152598
-2.9907184 0.097941533 1.4072523
-2.9681549 0.096681476 1.4061728
-2.9292097 0.094648585 1.3983796
-2.9068003 0.093400687 1.3971598
-2.8854756 0.092205912 1.3963039
-2.8795376 0.091737971 1.4017158
-2.8572798 0.090502053 1.4003577
-2.8513722 0.090036541 1.4057417
-2.8454652 0.089571029 1.4111257
-2.8557849 0.089866236 1.4233637
-2.8498464 0.089398295 1.4287755
-2.8439083 0.088930354 1.4341874
-2.8379703 0.088462427 1.4395995
-2.8320317 0.087994486 1.4450114
-2.8100204 0.086777955 1.443429
-2.8041129 0.086312443 1.448813
-2.7831945 0.085149661 1.447587
-2.7773161 0.084686428 1.4529445
-2.756484 0.083530486 1.4516397
-2.7357101 0.082379073 1.4502823
-2.7298889 0.081920385 1.4555874
-3.0717993 0.11355788 1.2898631
-3.0657706 0.11308281 1.2953575
-3.0767674 0.11347318 1.3069775
-3.0707083 0.11299568 1.3125
-3.0816121 0.11337876 1.3242044
-3.0755224 0.11289886 1.3297551
-3.0873904 0.11332816 1.3419335
-3.0812678 0.11284566 1.3475139
-3.0919852 0.11321403 1.3593881
-3.0858316 0.11272912 1.3649964
-3.0796781 0.1122442 1.3706048
-3.0913191 0.11265559 1.3829904
-3.0851331 0.11216812 1.3886282
-3.0789466 0.11168063 1.3942664
-3.0904574 0.11208171 1.4067709
-3.0842381 0.11159164 1.4124389
-3.0603876 0.11021815 1.4111807
-3.0366025 0.10884981 1.409863
-3.013916 0.10753828 1.4088967
-2.9737582 0.10535589 1.4008584
-2.9512272 0.10405664 1.3997502
-2.9287581 0.10276224 1.3985856
-2.8909669 0.10070683 1.3910959
-2.8850284 0.1002389 1.3965077
-2.8627424 0.09895891 1.3951766
-2.8568349 0.098493397 1.4005606
-2.8509274 0.098027885 1.4059446
-2.8450203 0.097562373 1.4113283
-2.8553376 0.097899213 1.4235675
-2.8493996 0.097431287 1.4289794
-2.8586144 0.097711027 1.4408708
-2.8526478 0.097240806 1.4463091
-2.8315849 0.096027464 1.4452152
-2.8256464 0.095559537 1.4506273
-2.803668 0.094303787 1.4490159
-2.782752 0.093101978 1.4477887
-2.7768736 0.092638746 1.4531465
-2.7560434 0.091443762 1.4518404
-2.7501936 0.090982795 1.4571717
-2.7294507 0.089794636 1.4557872
-3.0542612 0.12080124 1.2839992
-3.0653167 0.1212381 1.2955644
-3.0592885 0.12076303 1.3010588
-3.0702519 0.1211926 1.3127081
-3.0641923 0.12071511 1.3182306
-3.0750637 0.12113743 1.3299642
-3.0689735 0.1206575 1.3355145
-3.0808067 0.12112845 1.3477242
-3.0746837 0.12064597 1.3533044
-3.0853686 0.12105355 1.3652079
-3.0792146 0.12056863 1.3708162
-3.073061 0.12008372 1.3764246
-3.0846672 0.12053677 1.3888407
-3.0784812 0.1200493 1.3944788
-3.0722947 0.11956181 1.4001169
-3.0661082 0.11907431 1.405755
-3.0422931 0.11765915 1.4044659
-3.0361395 0.11717424 1.4100742
-2.9958916 0.11489856 1.4021201
-2.9733019 0.11355282 1.4010665
-2.9507732 0.11221193 1.3999572
-2.9118686 0.11001493 1.3921316
-2.8905196 0.10873982 1.3912997
-2.8682051 0.10741577 1.3899958
-2.8622975 0.10695025 1.3953795
-2.85639 0.10648476 1.4007635
-2.8504829 0.10601924 1.4061475
-2.8445754 0.10555373 1.4115312
-2.8386679 0.10508822 1.4169152
-2.8489523 0.10546426 1.4291835
-2.8430142 0.10499632 1.4345953
-2.8370757 0.1045284 1.4400072
-2.8311377 0.10406046 1.4454193
-2.8251996 0.10359251 1.4508312
-2.8032236 0.10229515 1.4492188
-2.7973161 0.10182963 1.4546027
-2.7764306 0.10059106 1.4533482
-2.7556028 0.099357039 1.4520414
-2.7497535 0.098896086 1.4573727
-2.7439036 0.098435119 1.4627039
-3.0538092 0.12891489 1.2842052
-3.0478115 0.12844226 1.2896714
-3.0588346 0.12891833 1.3012657
-3.0528059 0.12844327 1.3067603
-3.0637364 0.12891203 1.3184385
-3.0576768 0.12843455 1.323961
-3.0685148 0.12889606 1.3357236
-3.0624247 0.12841615 1.3412743
-3.0742226 0.12892875 1.3535147
-3.0681 0.12844628 1.3590949
-3.0787511 0.12889306 1.3710275
-3.072598 0.12840815 1.3766358
-3.0664439 0.12792324 1.3822441
-3.0780153 0.12841797 1.3946912
-3.0718288 0.12793048 1.4003294
-3.0479832 0.12646849 1.3990691
-3.0418296 0.12598358 1.4046774
-3.0191169 0.12458634 1.4037371
-2.9954329 0.12313713 1.4023292
-2.9563479 0.12084228 1.3946698
-2.9338527 0.11946219 1.3935311
-2.9114194 0.11808695 1.3923364
-2.8900723 0.1167728 1.3915038
-2.8677602 0.11540712 1.3901987
-2.8618526 0.11494161 1.3955824
-2.8406525 0.11363901 1.3946164
-2.8347735 0.11317576 1.3999741
-2.8441305 0.11354508 1.4117341
-2.838223 0.11307956 1.4171181
-2.848505 0.11349726 1.4293873
-2.842567 0.11302932 1.4347992
-2.8366289 0.11256137 1.4402113
-2.8145933 0.11121751 1.4386537
-2.8086858 0.110752 1.4440377
-2.8027787 0.11028649 1.4494216
-2.7968712 0.10982098 1.4548056
-2.7759881 0.10854338 1.4535501
-2.7551622 0.10727033 1.4522424
-2.7493129 0.10680938 1.4575737
-2.743463 0.1063484 1.4629049
-2.7227535 0.10508445 1.4614921
-3.0533576 0.13702855 1.2844112
-3.0473599 0.13655591 1.2898774
-3.0413623 0.1360833 1.2953436
-3.052352 0.13659856 1.3069673
-3.0463233 0.13612349 1.3124616
-3.0572205 0.13663147 1.3241692
-3.0511613 0.136154 1.3296914
-3.0619659 0.1366547 1.3414834
-3.0558758 0.1361748 1.347034
-3.0497856 0.13569489 1.3525844
-3.0615158 0.13624656 1.3648856
-3.0553927 0.13576409 1.3704658
-3.0492702 0.13528159 1.3760459
-3.0598273 0.13576275 1.3880637
-3.0536733 0.13527784 1.393672
-3.0309014 0.13383412 1.3927867
-3.0247788 0.13335165 1.3983669
-3.0010643 0.13185558 1.3969879
-2.9784489 0.13042416 1.3959603
-2.9393988 0.12804848 1.3882709
-2.9334011 0.12757584 1.3937371
-2.9109702 0.12615898 1.3925414
-2.8732228 0.12386398 1.3850176
-2.8673153 0.12339847 1.3904014
-2.8460879 0.12205456 1.3894608
-2.8402095 0.12159133 1.3948183
-2.834331 0.12112808 1.4001758
-2.8436856 0.12153643 1.411937
-2.8377781 0.12107092 1.417321
-2.8480577 0.12153025 1.4295912
-2.8421197 0.12106231 1.4350033
-2.8361816 0.12059437 1.4404151
-2.8141484 0.11920887 1.4388566
-2.8082414 0.11874336 1.4442406
-2.8023338 0.11827785 1.4496243
-2.7964263 0.11781234 1.4550083
-2.7755456 0.1164957 1.453752
-2.7696667 0.11603247 1.4591095
-2.7488723 0.11472265 1.4577744
-2.7430224 0.11426169 1.4631057
-2.7223148 0.1129587 1.4616919
-3.0358291 0.1441054 1.278543
-3.0469084 0.14466959 1.2900832
-3.0409107 0.14419696 1.2955494
-3.0349126 0.14372429 1.3010159
-3.0289149 0.14325166 1.3064821
-3.0398407 0.14380373 1.3181629
-3.033812 0.14332867 1.3236573
-3.0446453 0.14387344 1.335422
-3.0385861 0.14339595 1.3409443
-3.0493274 0.14393345 1.3527935
-3.0432367 0.14345352 1.3583438
-3.037147 0.14297362 1.3638942
-3.0488091 0.1435644 1.3762562
-3.042686 0.1430819 1.3818364
-3.0365634 0.14259942 1.3874168
-3.0127864 0.14105397 1.3860962
-3.0066962 0.14057407 1.3916466
-3.0006061 0.14009413 1.397197
-2.9614687 0.13762793 1.3895895
-2.9389472 0.13616213 1.3884768
-2.9329495 0.1356895 1.3939431
-2.910521 0.134231 1.3927462
-2.8891783 0.13283879 1.3919115
-2.8668704 0.13138983 1.3906043
-2.8609629 0.13092431 1.3959882
-2.839767 0.12954365 1.3950202
-2.8338885 0.1290804 1.4003778
-2.8280101 0.12861717 1.4057355
-2.8373332 0.12906227 1.4175239
-2.8314261 0.12859675 1.4229078
-2.8255186 0.12813124 1.4282918
-2.8357344 0.12862736 1.440619
-2.8137035 0.12720022 1.4390595
-2.8077965 0.1267347 1.4444435
-2.8018889 0.12626919 1.4498272
-2.7809811 0.12491125 1.4485965
-2.7751026 0.12444802 1.453954
-2.7692242 0.12398478 1.4593115
-2.7484317 0.12263593 1.4579754
-2.7425823 0.12217498 1.4633067
-2.7218766 0.12083295 1.4618919
-3.0353794 0.15217742 1.2787478
-3.0294123 0.15170723 1.2841861
-3.0234456 0.15123701 1.2896242
-3.034461 0.15183794 1.3012218
-3.0284629 0.15136531 1.3066881
-3.0224652 0.15089267 1.3121545
-3.0333581 0.15148395 1.3238642
-3.0273294 0.15100889 1.3293588
-3.0381298 0.15159287 1.3411524
-3.0320706 0.15111539 1.3466749
-3.026011 0.15063789 1.3521974
-3.0366883 0.15121219 1.3641036
-3.0305982 0.15073226 1.3696539
-3.0422254 0.1513647 1.3820467
-3.0361023 0.15088221 1.3876271
-3.0123277 0.14929253 1.3863053
-2.989655 0.14777297 1.3853316
-2.9835954 0.14729549 1.3908541
-2.9610147 0.14578322 1.3897965
-2.9384956 0.14427578 1.3886828
-2.932498 0.14380315 1.3941491
-2.9100714 0.14230302 1.3929513
-2.888731 0.14087178 1.3921156
-2.8664255 0.13938117 1.3908072
-2.8605185 0.13891566 1.3961911
-2.8393245 0.13749595 1.3952222
-2.8334455 0.13703272 1.4005797
-2.8275671 0.13656949 1.4059372
-2.8216887 0.13610624 1.4112949
-2.8158102 0.13564301 1.4166524
-2.8099318 0.13517977 1.4220102
-2.8191662 0.13565709 1.4338784
-2.7981744 0.13425328 1.4327254
-2.7922959 0.13379005 1.4380832
-2.8014441 0.13426055 1.4500301
-2.7805386 0.13286357 1.4487982
-2.7746601 0.13240033 1.4541559
-2.7538409 0.13101017 1.4528449
-2.7479916 0.13054922 1.4581761
-2.7421417 0.13008824 1.4635077
-2.7362919 0.12962729 1.4688389
-3.0189242 0.15919937 1.2732563
-3.0129862 0.15873145 1.2786684
-3.0229959 0.15930903 1.2898293
-3.0170288 0.15883881 1.2952676
-3.0280113 0.15947896 1.3068941
-3.0220137 0.15900633 1.3123605
-3.016016 0.15853369 1.3178267
-3.0268755 0.15916418 1.3295658
-3.0208468 0.15868911 1.3350601
-3.0316143 0.15931231 1.3468831
-3.0255547 0.15883482 1.3524055
-3.0194955 0.15835734 1.3579278
-3.0301394 0.15897082 1.369863
-3.0240493 0.15849091 1.3754134
-3.0179591 0.15801099 1.380964
-3.011869 0.15753108 1.3865144
-2.9891987 0.1559699 1.3855398
-2.983139 0.15549241 1.3910623
-2.9605608 0.1539385 1.3900037
-2.9380441 0.15238944 1.3888888
-2.9320464 0.1519168 1.3943551
-2.9096222 0.15037504 1.3931563
-2.8882837 0.14890476 1.3923194
-2.8506389 0.14637475 1.3847089
-2.8600736 0.14690702 1.396394
-2.838882 0.14544828 1.3954239
-2.833003 0.14498504 1.4007816
-2.8118978 0.14353311 1.3997328
-2.8060479 0.14307216 1.4050641
-2.8001981 0.14261118 1.4103954
-2.8094888 0.14313209 1.4222121
-2.8036103 0.14266884 1.4275696
-2.7977319 0.14220561 1.4329274
-2.791853 0.14174236 1.4382849
-2.7859745 0.14127913 1.4436426
-2.7651 0.1398454 1.4423833
-2.7592502 0.13938445 1.4477146
-2.7534003 0.13892347 1.4530458
-2.7326417 0.13749883 1.4516816
-2.7268209 0.13704014 1.4569867
-2.7210002 0.13658145 1.4622917
-3.018477 0.16723235 1.2734604
-3.0125389 0.16676442 1.2788723
-3.0066009 0.1662965 1.2842841
-3.0006623 0.16582854 1.2896962
-3.0106125 0.16644064 1.3009107
-3.0215621 0.16711998 1.3125665
-3.0155644 0.16664734 1.3180327
-3.0095663 0.16617471 1.3234992
-3.0203929 0.1668444 1.3352673
-3.0143642 0.16636935 1.3407614
-3.0250988 0.16703174 1.3526134
-3.0190392 0.16655426 1.3581359
-3.01298 0.16607676 1.3636582
-3.0235906 0.16672948 1.3756227
-3.0175004 0.16624956 1.3811731
-2.9948015 0.1646443 1.3802254
-2.9887424 0.16416682 1.3857479
-2.9826832 0.16368933 1.3912702
-2.9601068 0.16209379 1.3902106
-2.9540782 0.16161874 1.395705
-2.9315948 0.16003045 1.3945611
-2.909173 0.15844706 1.3933611
-2.8878369 0.15693773 1.3925235
-2.8501959 0.15432706 1.3849106
-2.8443174 0.15386383 1.3902683
-2.8231564 0.15236831 1.389271
-2.817307 0.15190735 1.3946023
-2.7962327 0.15041868 1.3935263
-2.8056073 0.15098542 1.4052649
-2.7845912 0.14950129 1.4041364
-2.7939081 0.15006348 1.4159276
-2.7880583 0.14960253 1.4212589
-2.7822084 0.14914158 1.4265902
-2.7763591 0.1486806 1.4319215
-2.7705092 0.14821965 1.4372528
-2.7646594 0.14775866 1.442584
-2.743845 0.14629047 1.4412715
-2.7380242 0.14583176 1.4465766
-2.7322035 0.14537308 1.4518816
-2.711504 0.14391394 1.4504633
-2.7057123 0.14345753 1.4557419
-2.6999202 0.14300112 1.4610207
-3.0009618 0.174062 1.267586
-3.0120916 0.1747974 1.2790763
-3.0061536 0.17432947 1.2844882
-3.0002151 0.17386152 1.2899003
-2.994277 0.17339359 1.2953122
-3.0041962 0.17404246 1.3065538
-3.0151124 0.17476103 1.3182387
-3.0091147 0.17428836 1.3237052
-3.0031171 0.17381573 1.3291714
-3.0139103 0.17452464 1.3409686
-3.0078816 0.17404957 1.346463
-3.0185828 0.17475118 1.3583441
-3.0125237 0.1742737 1.3638663
-3.0231323 0.17496803 1.3758318
-3.0170422 0.17448813 1.3813825
-2.9943452 0.17284124 1.3804336
-2.988286 0.17236374 1.385956
-2.9822268 0.17188627 1.3914783
-2.9761672 0.17140879 1.3970008
-2.9536242 0.16977403 1.3959122
-2.9475956 0.16929895 1.4014065
-2.9251451 0.16767147 1.4002333
-2.9027562 0.16604885 1.3990042
-2.8650913 0.16335523 1.3914158
-2.8591838 0.16288972 1.3967998
-2.8379965 0.16135292 1.3958278
-2.8016152 0.15875164 1.3884213
-2.7957945 0.15829295 1.3937263
-2.7899737 0.15783425 1.3990314
-2.784153 0.15737556 1.4043362
-2.7783322 0.15691686 1.4096413
-2.772511 0.15645817 1.4149463
-2.7666903 0.15599948 1.4202514
-2.7608695 0.15554079 1.4255564
-2.7550488 0.15508211 1.4308615
-2.7492275 0.15462342 1.4361665
-2.7434068 0.15416473 1.4414713
-2.737586 0.15370603 1.4467764
-2.7317653 0.15324734 1.4520814
-2.7110682 0.15174916 1.4506624
-2.6914186 0.15032472 1.4496408
-2.6856532 0.14987041 1.454895
-3.0005169 0.18205336 1.2677889
-2.9946098 0.18158785 1.2731729
-2.9887023 0.18112233 1.2785568
-2.9997683 0.18189451 1.2901042
-2.9938302 0.18142657 1.295516
-3.003747 0.18211445 1.3067589
-2.9977798 0.18164426 1.3121972
-3.0086632 0.18240201 1.3239112
-3.0026655 0.18192938 1.3293774
-3.0134563 0.18267992 1.3411756
-3.0074277 0.18220486 1.3466699
-3.018127 0.1829481 1.3585522
-3.0120673 0.18247062 1.3640745
-3.0226736 0.18320659 1.3760409
-3.0165834 0.18272668 1.3815916
-2.9938893 0.18103816 1.3806417
-3.0044031 0.18176687 1.3926923
-2.9817705 0.18008319 1.3916864
-2.9757113 0.17960571 1.3972089
-2.9696517 0.17912821 1.4027314
-2.9471416 0.17745423 1.4016135
-2.941113 0.17697918 1.4071078
-2.902307 0.17412087 1.3992093
-2.8646464 0.17134658 1.3916187
-2.8587389 0.17088106 1.3970027
-2.837554 0.16930522 1.3960297
-2.801177 0.16662587 1.3886213
-2.7953563 0.16616718 1.3939261
-2.774344 0.16460496 1.3927953
-2.7837148 0.16524979 1.4045362
-2.7778935 0.16479111 1.4098413
-2.7720728 0.16433242 1.4151464
-2.7511759 0.1627793 1.4139102
-2.7604313 0.16341504 1.4257565
-2.7546101 0.16295636 1.4310613
-2.7337999 0.16141005 1.4297464
-2.7280078 0.16095363 1.435025
-2.7222157 0.16049722 1.4403038
-2.716424 0.16004081 1.4455824
-2.7106318 0.15958439 1.4508612
-2.6909842 0.15812351 1.4498386
-2.670403 0.15659526 1.4483154
-3.0271659 0.19206733 1.2852108
-3.0211987 0.1915971 1.2906489
-3.0152316 0.19112688 1.2960873
-3.0262051 0.19193357 1.307718
-3.0202069 0.19146094 1.3131845
-3.0142093 0.1909883 1.3186507
-3.0250597 0.19178534 1.330394
-3.019031 0.19131027 1.3358884
-3.029789 0.1921 1.3477154
-3.0237298 0.19162251 1.3532379
-3.0343952 0.19240497 1.3651493
-3.0283051 0.19192505 1.3706999
-3.0222149 0.19144514 1.3762503
-3.0337973 0.19229619 1.3886783
-3.0100346 0.19048533 1.3873513
-3.0039444 0.19000542 1.3929017
-3.0154285 0.19084871 1.4054191
-3.0093055 0.19036624 1.4109993
-2.9856739 0.18856567 1.4095531
-2.9631357 0.18684764 1.4084618
-2.940659 0.18513447 1.407315
-2.9018579 0.18219289 1.3994141
-2.8805571 0.18056875 1.3985472
-2.858294 0.17887241 1.3972056
-2.837111 0.17725755 1.3962314
-2.8159852 0.1756472 1.395205
-2.7796998 0.17289661 1.3877153
-2.7739077 0.17244019 1.3929942
-2.7681155 0.17198376 1.398273
-2.7623234 0.17152736 1.4035516
-2.7565317 0.17107095 1.4088304
-2.7507396 0.17061453 1.414109
-2.7449479 0.1701581 1.4193878
-2.7391558 0.1697017 1.4246664
-2.7333636 0.16924527 1.4299452
-2.7275715 0.16878887 1.4352238
-2.7078457 0.16728517 1.4342742
-2.7020802 0.16683088 1.4395285
-2.6963153 0.16637658 1.4447825
-2.6905503 0.1659223 1.4500368
-2.669971 0.16435501 1.4485123
-2.6504354 0.16286632 1.4473891
-3.0607772 0.20279098 1.2976348
-3.054749 0.20231593 1.3031292
-3.0487204 0.20184085 1.3086236
-3.0426917 0.2013658 1.3141179
-3.0366631 0.20089075 1.3196123
-3.0475111 0.20172939 1.3313563
-3.0414515 0.20125189 1.3368788
-3.0353923 0.2007744 1.342401
-3.0461173 0.20160335 1.3542576
-3.0400267 0.20112345 1.359808
-3.0517044 0.20202646 1.372148
-3.0455818 0.20154396 1.3777282
-3.0394588 0.20106149 1.3833084
-3.0333362 0.20057899 1.3888886
-3.0272131 0.20009649 1.394469
-3.0210905 0.19961402 1.4000492
-3.0149674 0.19913152 1.4056294
-3.0088444 0.19864905 1.4112096
-2.9852157 0.19680423 1.4097621
-2.979125 0.19632432 1.4153125
-2.9402051 0.19328976 1.407522
-2.9177923 0.19153979 1.4063175
-2.8801098 0.18860175 1.398751
-2.8578491 0.18686377 1.3974085
-2.8366685 0.18520987 1.3964334
-2.8155451 0.18356049 1.395406
-2.7792635 0.18073182 1.3879144
-2.7734714 0.1802754 1.393193
-2.7676797 0.17981899 1.3984718
-2.7618876 0.17936258 1.4037507
-2.7560954 0.17890616 1.4090292
-2.7362366 0.17735542 1.4082012
-2.7445116 0.17799333 1.4195867
-2.7387195 0.17753692 1.4248652
-2.7189417 0.17599255 1.4239638
-2.7131763 0.17553826 1.4292181
-2.7074113 0.17508397 1.4344721
-2.686748 0.17347082 1.4330256
-2.6810117 0.17301881 1.4382536
-2.6752753 0.17256677 1.4434814
-2.6557145 0.17103955 1.4423819
-2.6500053 0.17058966 1.4475851
-2.6442962 0.17013973 1.4527884
-3.0773516 0.21231374 1.3039525
-3.0712924 0.21183625 1.3094747
-3.0821996 0.21272138 1.3211641
-3.0761094 0.21224147 1.3267145
-3.0700192 0.21176156 1.3322649
-3.0639291 0.21128166 1.3378153
-3.0578389 0.21080175 1.3433659
-3.069612 0.21175674 1.3556173
-3.0634894 0.21127424 1.3611977
-3.0573664 0.21079174 1.3667779
-3.0512433 0.21030924 1.3723583
-3.0618105 0.21116757 1.3843575
-3.0556569 0.21068266 1.3899658
-3.0495028 0.21019772 1.3955741
-3.0433493 0.2097128 1.4011824
-3.0371957 0.20922789 1.4067907
-3.0310421 0.20874298 1.4123991
-3.0248885 0.20825809 1.4180071
-3.0022607 0.20644933 1.4170003
-2.9961376 0.20596686 1.4225805
-2.9561639 0.202764 1.4144006
-2.9173408 0.19965345 1.4065235
-2.879663 0.19663471 1.3989549
-2.8574042 0.19485509 1.3976114
-2.836226 0.1931622 1.3966353
-2.7998619 0.19024864 1.389221
-2.7788272 0.18856704 1.3881133
-2.7730355 0.18811062 1.3933921
-2.7672434 0.18765421 1.3986707
-2.7473326 0.18606281 1.397891
-2.7415676 0.18560852 1.4031451
-2.7358027 0.18515421 1.4083993
-2.7300377 0.18469992 1.4136534
-2.7242727 0.18424563 1.4189076
-2.7185073 0.18379132 1.4241619
-2.7127423 0.18333705 1.4294159
-2.6920519 0.18168259 1.4279947
-2.686316 0.18123057 1.4332228
-2.6805797 0.18077856 1.4384506
-2.6609941 0.17921278 1.4373746
-2.6552849 0.17876285 1.4425778
-2.6495757 0.17831299 1.4477811
-2.6291142 0.17667657 1.4461513
-2.6234336 0.17622894 1.451328
-3.112011 0.22341692 1.3167658
-3.1058884 0.22293445 1.322346
-3.0997653 0.22245196 1.3279264
-3.0936427 0.22196946 1.3335066
-3.0875196 0.22148699 1.339087
-3.098269 0.22240147 1.3509188
-3.0921149 0.22191656 1.3565273
-3.0859613 0.22143164 1.3621356
-3.0798078 0.22094673 1.367744
-3.0736542 0.22046182 1.3733523
-3.0852637 0.22144827 1.3857522
-3.0790772 0.22096083 1.3913903
-3.0728912 0.22047332 1.3970284
-3.0667048 0.21998581 1.4026666
-3.0605183 0.21949831 1.4083047
-3.0543318 0.21901086 1.4139428
-3.0481458 0.21852335 1.4195809
-3.0419593 0.21803585 1.4252188
-3.0182714 0.21609759 1.4238269
-2.9956765 0.21424964 1.4227908
-2.955708 0.21096089 1.4146085
-2.9168892 0.2077671 1.4067295
-2.8792157 0.20466769 1.399159
-2.8569598 0.20284647 1.3978143
-2.835783 0.20111451 1.3968372
-2.7994237 0.19812289 1.3894207
-2.7783914 0.19640228 1.3883121
-2.7584286 0.19477019 1.3875806
-2.7526636 0.19431588 1.3928349
-2.7468987 0.1938616 1.3980889
-2.7411337 0.1934073 1.4033432
-2.7353687 0.19295299 1.4085972
-2.7296033 0.1924987 1.4138515
-2.7088289 0.1907984 1.4125082
-2.7030926 0.19034639 1.4177361
-2.6973562 0.18989435 1.4229639
-2.6916203 0.18944234 1.4281919
-2.6719828 0.18783587 1.4271638
-2.6662736 0.18738598 1.4323673
-2.6605639 0.18693608 1.4375706
-2.6548548 0.18648618 1.4427741
-2.634367 0.18480848 1.441169
-2.6286864 0.18436085 1.4463463
-2.6230059 0.18391323 1.4515231
-2.6173253 0.1834656 1.4567003
-3.1647487 0.23623329 1.3360782
-3.1404748 0.23420438 1.3352215
-3.1342883 0.23371691 1.3408597
-3.1281023 0.23322943 1.3464978
-3.1219158 0.23274192 1.3521359
-3.1157293 0.23225442 1.357774
-3.1095428 0.23176694 1.3634121
-3.1033568 0.23127946 1.3690503
-3.0971704 0.23079196 1.3746884
-3.0909839 0.23030445 1.3803265
-3.0847979 0.22981697 1.3859646
-3.0786114 0.2293295 1.3916028
-3.0901203 0.23035246 1.404093
-3.0839009 0.22986239 1.4097612
-3.077682 0.22937232 1.4154291
-3.0714631 0.22888225 1.421097
-3.0652437 0.22839218 1.426765
-3.0590248 0.22790211 1.4324327
-3.017808 0.22442204 1.4240384
-2.9952159 0.22253242 1.4230011
-2.9552517 0.21915784 1.4148166
-2.9328146 0.21728057 1.4136374
-2.8940935 0.21401078 1.4056721
-2.8565149 0.21083781 1.3980169
-2.8353405 0.20906684 1.3970392
-2.7989855 0.20599714 1.3896208
-2.7779551 0.20423749 1.3885112
-2.7579947 0.20256898 1.3877785
-2.7522297 0.2021147 1.3930328
-2.7464647 0.20166039 1.3982868
-2.7406993 0.20120609 1.4035411
-2.7349343 0.20075181 1.4087954
-2.7141333 0.19901019 1.4074774
-2.7083969 0.19855815 1.4127052
-2.7026606 0.19810614 1.417933
-2.6969247 0.19765413 1.423161
-2.6911883 0.19720212 1.4283888
-2.6715527 0.19555923 1.4273601
-2.6658435 0.19510931 1.4325633
-2.6601343 0.19465941 1.4377666
-2.6396194 0.1929404 1.4361873
-2.6339393 0.19249278 1.4413643
-2.6282587 0.19204515 1.4465413
-2.6225781 0.19159752 1.4517183
-2.6168976 0.19114989 1.4568954
-3.1823654 0.24623185 1.3427877
-3.1761136 0.24573922 1.3484852
-3.1698618 0.24524656 1.3541832
-3.16361 0.24475393 1.3598809
-3.1573586 0.24426126 1.3655787
-3.1331854 0.24219584 1.3646314
-3.126966 0.24170578 1.3702993
-3.1207471 0.24121571 1.3759673
-3.1145282 0.24072567 1.3816352
-3.1083088 0.24023557 1.3873031
-3.1020899 0.2397455 1.392971
-3.095871 0.23925546 1.398639
-3.1073446 0.24032012 1.4111602
-3.0834327 0.23827532 1.4099748
-3.094841 0.23933482 1.4225557
-3.0885892 0.23884219 1.4282534
-3.0647755 0.23680511 1.4269786
-3.0585566 0.23631504 1.4326463
-3.0348411 0.23428574 1.4312818
-2.9947548 0.23081526 1.4232113
-2.9547954 0.22735479 1.4150248
-2.9323606 0.22543585 1.4138443
-2.8936443 0.22208279 1.4058769
-2.85607 0.21882915 1.3982198
-2.834898 0.21701914 1.3972409
-2.7985473 0.21387139 1.3898206
-2.7775187 0.21207273 1.38871
-2.7575603 0.21036777 1.3879766
-2.7517953 0.20991349 1.3932307
-2.7460303 0.20945919 1.3984849
-2.7402654 0.20900488 1.403739
-2.7345004 0.2085506 1.4089932
-2.7137012 0.20676994 1.4076743
-2.7079649 0.20631793 1.4129021
-2.7022285 0.20586592 1.4181302
-2.6964927 0.20541388 1.423358
-2.6907563 0.20496187 1.4285858
-2.671123 0.20328254 1.427556
-2.6654139 0.20283264 1.4327595
-2.6597042 0.20238274 1.4379628
-2.653995 0.20193282 1.4431663
-2.6335115 0.20017707 1.4415593
-2.627831 0.19972944 1.4467363
-2.6221504 0.19928181 1.4519134
-2.6164699 0.19883418 1.4570904
-3.1811237 0.25483319 1.3666821
-3.1748395 0.254338 1.3724093
-3.1685553 0.25384277 1.3781369
-3.1622705 0.25334755 1.3838644
-3.1559863 0.25285232 1.3895919
-3.1497016 0.2523571 1.3953195
-3.1434169 0.25186187 1.4010472
-3.1193771 0.24976254 1.3999796
-3.1131253 0.24926987 1.4056773
-3.106874 0.24877724 1.411375
-3.1006222 0.24828458 1.4170728
-3.0943704 0.24779195 1.4227705
-3.0881186 0.24729931 1.4284682
-3.0643072 0.24521801 1.4271922
-3.0580883 0.24472794 1.4328599
-3.0343757 0.24265435 1.4314945
-2.9942937 0.23909804 1.4234216
-2.954339 0.23555169 1.4152329
-2.9319067 0.23359114 1.4140515
-2.8931947 0.23015478 1.4060819
-2.8556252 0.2268205 1.3984227
-2.834455 0.22497147 1.3974428
-2.7981091 0.22174564 1.3900206
-2.7770829 0.21990794 1.3889089
-2.7571263 0.21816656 1.3881745
-2.7513614 0.21771225 1.3934288
-2.7455964 0.21725798 1.3986828
-2.7398314 0.21680367 1.4039371
-2.734066 0.21634936 1.4091914
-2.728301 0.21589509 1.4144454
-2.7075329 0.21407765 1.4130993
-2.7167711 0.21498647 1.4249539
-2.6960607 0.21317363 1.4235549
-2.6903243 0.21272162 1.4287829
-2.684588 0.21226957 1.4340107
-2.6788521 0.21181756 1.4392385
-2.6592746 0.21010607 1.4381588
-2.6535649 0.20965615 1.4433622
-2.6330838 0.20786136 1.4417543
-2.6274033 0.20741373 1.4469316
-2.6217227 0.2069661 1.4521084
-2.6160421 0.20651847 1.4572856
-3.1492286 0.26085848 1.3955355
-3.1429439 0.26036325 1.401263
-3.1366596 0.25986803 1.4069905
-3.1303754 0.2593728 1.4127181
-3.1240907 0.25887761 1.4184456
-3.1178064 0.25838238 1.4241729
-3.0938997 0.2562491 1.4229851
-3.0876479 0.25575647 1.4286828
-3.0813961 0.25526381 1.4343805
-3.05762 0.25314084 1.4330735
-3.0339098 0.25102305 1.4317069
-2.9938326 0.24738082 1.4236319
-2.9538827 0.24374864 1.415441
-2.9150825 0.24022171 1.4075534
-2.8927455 0.23822683 1.4062867
-2.8551803 0.23481187 1.3986256
-2.8187518 0.23150116 1.3912799
-2.7976704 0.22961989 1.3902204
-2.7766466 0.22774315 1.3891079
-2.7566924 0.22596535 1.3883727
-2.7509274 0.22551104 1.3936267
-2.745162 0.22505677 1.398881
-2.739397 0.22460246 1.404135
-2.7336321 0.22414815 1.4093893
-2.7278671 0.22369388 1.4146435
-2.7221022 0.22323957 1.4198976
-2.7163367 0.22278526 1.4251518
-2.6956286 0.22093338 1.4237518
-2.6898923 0.22048137 1.4289799
-2.6841564 0.22002935 1.4342077
-2.6784201 0.21957734 1.4394355
-2.6588445 0.21782941 1.438355
-2.6531353 0.21737948 1.4435582
-2.6474261 0.21692961 1.4487615
-2.6269755 0.21509802 1.4471266
-2.621295 0.21465039 1.4523034
-3.1361861 0.26836941 1.4072063
-3.1299019 0.26787421 1.4129338
-3.1236176 0.26737896 1.4186614
-3.1173329 0.26688376 1.4243886
-3.0934286 0.26470625 1.4231999
-3.0871773 0.26421362 1.4288976
-3.0809255 0.26372096 1.4345953
-3.0571518 0.26155376 1.4332871
-3.0334439 0.25939175 1.4319193
-2.9933715 0.25566363 1.4238422
-2.9534264 0.25194553 1.4156489
-2.9146309 0.24833536 1.4077594
-2.8769798 0.24483263 1.4001787
-2.8547354 0.24280322 1.3988285
-2.8183112 0.23941445 1.3914809
-2.7972322 0.23749414 1.3904204
-2.7762103 0.23557836 1.3893068
-2.756258 0.23376414 1.3885705
-2.750493 0.23330986 1.3938248
-2.7447281 0.23285556 1.3990788
-2.7530427 0.2337527 1.4104216
-2.7331982 0.23194697 1.4095871
-2.7274327 0.23149267 1.4148414
-2.7216678 0.23103839 1.4200954
-2.7159028 0.23058408 1.4253497
-2.7101378 0.23012978 1.430604
-2.7043724 0.2296755 1.435858
-2.6986074 0.22922119 1.4411123
-2.6779881 0.22733709 1.4396327
-2.6584148 0.22555271 1.4385509
-2.6527052 0.22510281 1.4437544
-2.646996 0.22465292 1.4489577
-2.6412868 0.22420302 1.4541609
-2.6208673 0.22233468 1.4524987
-2.6151867 0.22188705 1.4576757
-3.1419973 0.27736601 1.4016948
-3.1357131 0.27687076 1.4074221
-3.1294289 0.27637556 1.4131496
-3.1231441 0.27588034 1.4188771
-3.1168599 0.27538511 1.4246047
-3.092958 0.27316338 1.4234145
-3.0867062 0.27267075 1.4291122
-3.0629025 0.2704567 1.4278328
-3.0391641 0.26824787 1.4264936
-3.0154915 0.2660442 1.4250951
-2.9754562 0.26223278 1.4169858
-2.9365735 0.25853208 1.4091783
-2.9141793 0.25644901 1.4079654
-2.8765326 0.25286561 1.4003825
-2.8542905 0.25079456 1.3990314
-2.8178706 0.24732772 1.3916817
-2.7967939 0.24536839 1.3906202
-2.7757745 0.2434136 1.3895056
-2.7558241 0.24156293 1.3887687
-2.7500591 0.24110863 1.3940227
-2.7583985 0.24204433 1.4053419
-2.7526064 0.24158791 1.4106205
-2.7327638 0.23974574 1.4097853
-2.7269988 0.23929146 1.4150393
-2.7212338 0.23883715 1.4202936
-2.7154684 0.23838285 1.4255478
-2.7097034 0.23792857 1.4308019
-2.7039385 0.23747426 1.4360561
-2.6981735 0.23701999 1.4413102
-2.677556 0.23509684 1.4398296
-2.6718202 0.2346448 1.4450574
-2.6522756 0.23282614 1.4439504
-2.6465664 0.23237625 1.4491537
-2.6408567 0.23192635 1.4543571
-2.6204395 0.23001897 1.4526937
-2.614759 0.22957134 1.4578707
-3.1352401 0.28537217 1.4076378
-3.1289554 0.28487697 1.4133654
-3.1226711 0.28438175 1.4190929
-3.0987391 0.28211316 1.4179316
-3.0924873 0.28162053 1.4236293
-3.0686531 0.27935967 1.4223785
-3.0624342 0.2788696 1.4280465
-3.0386987 0.27661654 1.4267061
-2.9985723 0.27271172 1.4186826
-2.974998 0.27047133 1.4171951
-2.9361196 0.26668736 1.4093854
-2.8973646 0.26291308 1.4014633
-2.8760858 0.26089862 1.4005864
-2.8538456 0.25878593 1.3992343
-2.81743 0.25524101 1.3918827
-2.7963557 0.25324264 1.3908203
-2.7753382 0.25124881 1.3897045
-2.769546 0.25079238 1.3949833
-2.7637544 0.25033599 1.4002621
