# .PCD v0.7 - Point Cloud Data file format
VERSION 0.7
FIELDS x y z
SIZE 4 4 4
TYPE F F F
COUNT 1 1 1
WIDTH 188
HEIGHT 1
VIEWPOINT 0 0 0 1 0 0 0
POINTS 188
DATA ascii
1.3437722 0.54979444 0.6603334
1.3383747 0.54626727 0.65509105
1.3478726 0.55688894 0.6645999
1.3435357 0.55374217 0.65964174
1.3422723 0.55180979 0.65562713
1.3623818 0.56963599 0.67576802
1.3570819 0.56605732 0.67044044
1.3558694 0.56410921 0.66637897
1.3505173 0.56053615 0.66110206
1.3461684 0.55737305 0.65615988
1.3796927 0.58217561 0.68418789
1.3744463 0.5785706 0.67881322
1.3650608 0.57333052 0.672225
1.3597472 0.5697329 0.66691554
1.3544039 0.56613874 0.66163516
1.3531621 0.56418359 0.65760434
1.405184 0.60127175 0.70295417
1.3990271 0.59722137 0.69716072
1.3938583 0.59358752 0.69171536
1.3886597 0.58995688 0.68629885
1.3824058 0.58591723 0.68059969
1.3730371 0.58064473 0.67400241
1.3677397 0.57702506 0.66868198
1.3624123 0.5734086 0.66339064
1.3611863 0.57144153 0.65934718
1.4161317 0.61316919 0.71358085
1.4151204 0.61116827 0.70933068
1.4090056 0.60709023 0.70350134
1.4079553 0.6050936 0.69928908
1.401783 0.60102212 0.69351602
1.3925074 0.59570873 0.68683553
1.3862624 0.59164512 0.68113291
1.3769033 0.58634114 0.67453396
1.3716145 0.58270013 0.66920996
1.3704185 0.58071947 0.66513908
1.3609474 0.57542789 0.65864885
1.4168761 0.61938095 0.71710813
1.4199352 0.61904299 0.71413302
1.418932 0.6170311 0.70987725
1.4128263 0.61292911 0.7040447
1.4077064 0.609249 0.69856119
1.4015355 0.6051544 0.69279206
1.3963542 0.60148108 0.68736839
1.391143 0.5978111 0.6819737
1.3848753 0.59372711 0.67629874
1.3796027 0.59006393 0.67096388
1.3743002 0.58640409 0.66565788
1.3648381 0.58108068 0.65916562
1.4166238 0.62359023 0.71637082
1.419683 0.62325227 0.7133956
1.4186804 0.62123013 0.70914173
1.4176629 0.61920941 0.70490241
1.4115343 0.61508715 0.69909739
1.4063933 0.61138904 0.69363928
1.4001997 0.60727394 0.68789768
1.3949971 0.60358262 0.68249941
1.3887382 0.59947479 0.67682111
1.3834742 0.59579027 0.67148256
1.374059 0.59043133 0.6649524
1.3687279 0.58675408 0.65967906
1.4214296 0.62991977 0.71724761
1.419431 0.62746155 0.71265829
1.4184289 0.62542903 0.70840609
1.4174119 0.62339818 0.70416868
1.415361 0.62094569 0.69963002
1.4102287 0.61722624 0.69416809
1.4040437 0.61308742 0.6884234
1.3988501 0.60937464 0.68302143
1.3936265 0.60566533 0.67764831
1.3832312 0.59984827 0.67077172
1.3779385 0.59614646 0.66546559
1.3726162 0.592448 0.66018867
1.4181082 0.63448083 0.71949232
1.4211767 0.6341418 0.71650803
1.4242454 0.63380289 0.71352375
1.4181774 0.62962806 0.70767057
1.4212292 0.62929094 0.70470262
1.4202054 0.62725067 0.70047414
1.4140627 0.62308407 0.69469368
1.4089094 0.61934662 0.68925714
1.4027016 0.61518729 0.68353987
1.3933814 0.60975671 0.67693162
1.3871009 0.60560536 0.67128515
1.3818171 0.60188222 0.66597557
1.3723755 0.59646511 0.65948498
1.4218929 0.64042044 0.72004759
1.4209238 0.63836396 0.71576846
1.4239924 0.63802505 0.71278417
1.4219859 0.63554227 0.70820832
1.4209777 0.63348997 0.70396709
1.4199544 0.63143945 0.69974041
1.4138134 0.62724984 0.69396389
1.4086611 0.62349188 0.68853092
1.3983574 0.61759841 0.68158078
1.3931363 0.61384809 0.67621493
1.3868573 0.60967362 0.67057252
1.3815746 0.60593009 0.66526639
1.3721349 0.60048211 0.65878129
1.4186745 0.64008939 0.71044612
1.4176743 0.63802612 0.70619941
1.4207262 0.63768899 0.70323157
1.4146106 0.63347363 0.69743538
1.409482 0.62969255 0.6919843
1.4033011 0.62548447 0.68625176
1.3981111 0.6217103 0.6808604
1.3928912 0.61793935 0.67549825
1.3866135 0.61374187 0.66985989
1.377213 0.60825908 0.66334379
1.3718944 0.6044991 0.6580776
1.4184223 0.64429867 0.70970881
1.4133639 0.64048958 0.70419431
1.4113255 0.63798487 0.69965553
1.4062128 0.63418162 0.6941936
1.4051518 0.63211501 0.69000864
1.398965 0.62788451 0.68428719
1.3937685 0.62409067 0.6789068
1.3834131 0.61813688 0.6720227
1.3781478 0.61435056 0.6667093
1.3728528 0.61056757 0.66142488
1.3675278 0.60678792 0.65616953
1.4141195 0.6467613 0.70769632
1.413113 0.64467835 0.70346045
1.4070094 0.64041579 0.69766355
1.4018909 0.63659298 0.69221234
1.3957222 0.63233757 0.68647873
1.3905419 0.62852156 0.68108737
1.384308 0.62427342 0.67541718
1.3790663 0.62046421 0.67008555
1.3737948 0.61665821 0.664783
1.3643757 0.61111629 0.65829968
1.3590372 0.60731781 0.65306246
1.4098177 0.6492033 0.7056874
1.4077901 0.64667201 0.7011441
1.4026949 0.6428262 0.69567478
1.3965518 0.63854516 0.68992174
1.3913953 0.63470614 0.68451226
1.3862088 0.63087034 0.67913175
1.3799689 0.62660003 0.67347288
1.3747211 0.62277102 0.66815221
1.3694433 0.61894548 0.66286051
1.3641357 0.61512303 0.65759778
1.3546736 0.60955536 0.65116334
1.4045048 0.65118313 0.70336425
1.4034829 0.64908159 0.69914842
1.3933009 0.64300919 0.69211876
1.3922324 0.64091265 0.68794811
1.3870695 0.63705397 0.68254948
1.3808551 0.6327579 0.67687094
1.3715367 0.62714374 0.67030418
1.3662751 0.62329602 0.66500163
1.3609836 0.61945152 0.65972805
1.3556625 0.61561024 0.65448344
1.3503114 0.61177242 0.64926779
1.3889894 0.64536572 0.69013965
1.3838428 0.64148486 0.68473005
1.382745 0.63938153 0.68059027
1.3724384 0.63328981 0.67368948
1.3672004 0.62941909 0.66836882
1.3619326 0.62555158 0.663077
1.3566349 0.62168741 0.65781426
1.3513076 0.61782658 0.65258062
1.3459504 0.61396897 0.64737582
1.3774023 0.64124238 0.67832482
1.3721954 0.63734782 0.67297864
1.3628656 0.63167393 0.66643727
1.3575915 0.62778664 0.6611563
1.3563955 0.6256839 0.65711427
1.3469541 0.62002218 0.6506815
1.3457134 0.61792445 0.64668298
1.3520489 0.62788904 0.65520608
1.3467164 0.62398803 0.64998674
1.3454765 0.62187994 0.64599001
1.3505931 0.62975454 0.65049112
1.3493612 0.62763536 0.64648902
1.350355 0.63373053 0.64979458
1.3532448 0.63341141 0.64698434
1.3513325 0.63984776 0.65311122
1.3583426 0.64134896 0.65148902
1.357127 0.63920772 0.64747608
1.3634084 0.64933109 0.65601563
1.366328 0.64900863 0.65317631
1.3692474 0.64868605 0.65033698
1.3631678 0.65334809 0.65531194
1.3701992 0.65486753 0.65366459
1.373126 0.65454423 0.65081811
1.3781801 0.66259873 0.65533936
1.381122 0.66227376 0.65247822
1.3849975 0.66818309 0.65295017
