# .PCD v0.7 - Point Cloud Data file format
VERSION 0.7
FIELDS x y z
SIZE 4 4 4
TYPE F F F
COUNT 1 1 1
WIDTH 1290
HEIGHT 1
VIEWPOINT 0 0 0 1 0 0 0
POINTS 1290
DATA ascii
-2.9174037 -0.63543212 1.4059076
-2.9966445 -0.63379967 1.3986969
-2.9739976 -0.63134456 1.3975995
-2.9514122 -0.62888443 1.3964458
-2.9288888 -0.62641966 1.3952363
-2.9074569 -0.62413359 1.3943894
-2.8850551 -0.62165916 1.3930693
-2.8637409 -0.6193639 1.3921156
-2.9916291 -0.62176406 1.3813236
-2.9856005 -0.62223911 1.3868179
-2.962956 -0.6198256 1.3857193
-2.9403734 -0.6174072 1.3845646
-2.9188862 -0.61516476 1.3837695
-2.8964248 -0.61273682 1.3825045
-2.8905172 -0.61320233 1.3878884
-2.8537436 -0.6082288 1.3806477
-2.8478937 -0.60868979 1.3859789
-3.0044889 -0.60840344 1.347661
-2.9816933 -0.6060437 1.3467016
-2.9757266 -0.60651386 1.3521399
-2.9697595 -0.60698414 1.3575783
-2.9481301 -0.60479212 1.3569136
-2.9421921 -0.60526001 1.3623257
-2.936254 -0.60572803 1.3677375
-2.913702 -0.60334885 1.3665557
-2.907795 -0.60381436 1.3719397
-2.8863697 -0.60160637 1.371089
-2.8804913 -0.6020695 1.3764465
-2.8591528 -0.59985471 1.3755171
-2.853303 -0.60031557 1.3808484
-2.8320518 -0.59809387 1.3798404
-2.8262305 -0.59855258 1.3851454
-2.8357539 -0.60169852 1.3968425
-2.8299041 -0.6021595 1.4021738
-2.9931784 -0.59703124 1.3360302
-2.971436 -0.59488738 1.3354697
-2.9654975 -0.59535527 1.3408818
-2.9427943 -0.59302998 1.339839
-2.9368873 -0.59349549 1.3452229
-2.9153199 -0.5913378 1.3445029
-2.9094415 -0.59180105 1.3498604
-2.903563 -0.59226429 1.3552182
-2.8821111 -0.59009755 1.3543928
-2.8762612 -0.59055841 1.359724
-2.8704119 -0.59101939 1.3650556
-2.864562 -0.59148037 1.3703868
-2.843255 -0.5893023 1.3694303
-2.8374343 -0.5897609 1.3747354
-2.847013 -0.59286332 1.3863807
-2.8411632 -0.5933243 1.391712
-2.850656 -0.59643352 1.4034364
-2.8447776 -0.59689677 1.4087942
-2.8388987 -0.5973599 1.4141517
-3.0155816 -0.59123087 1.3371403
-2.9927287 -0.58895934 1.336235
-2.9709888 -0.58685434 1.3356738
-2.948257 -0.58457315 1.3346579
-2.9266343 -0.58245909 1.3339894
-2.9050694 -0.58034039 1.3332684
-2.8992195 -0.58080137 1.3385999
-2.8777418 -0.57867587 1.3378003
-2.8875203 -0.58172321 1.3492625
-2.8660998 -0.5795933 1.3484101
-2.8758211 -0.58264518 1.359925
-2.8544583 -0.58051062 1.3590202
-2.8486376 -0.58096933 1.364325
-2.8428164 -0.58142805 1.3696301
-2.8524222 -0.58448899 1.3812504
-2.8465724 -0.58494997 1.3865817
-2.8407226 -0.58541095 1.3919129
-2.8502131 -0.58848119 1.4036384
-2.8596458 -0.59155583 1.4154165
-2.8537383 -0.59202135 1.4208004
-2.8641014 -0.59527731 1.4330888
-2.8581629 -0.59574521 1.4385009
-3.0091319 -0.58358979 1.3428128
-2.9863124 -0.58135748 1.3418782
-2.9646034 -0.57928932 1.3412895
-2.9419045 -0.57704723 1.3402448
-2.9203134 -0.57496989 1.3395491
-2.9144349 -0.57543314 1.3449066
-2.8929296 -0.57334888 1.3441319
-2.8714828 -0.57126021 1.3433049
-2.8656616 -0.57171893 1.3486099
-2.8753805 -0.57473183 1.360126
-2.8540201 -0.57263637 1.35922
-2.8481994 -0.57309496 1.3645251
-2.8423781 -0.57355368 1.3698301
-2.8519816 -0.57657564 1.3814511
-2.8615279 -0.57960224 1.3931251
-2.8402824 -0.5774976 1.3921137
-2.8651085 -0.58309889 1.4102356
-2.859201 -0.5835644 1.4156194
-2.8695922 -0.58677626 1.4278808
-2.8636541 -0.58724427 1.4332929
-2.8729386 -0.59029138 1.4452052
-2.8669715 -0.59076166 1.4506433
-3.1242628 -0.59080005 1.3707819
-3.0195026 -0.57861221 1.354887
-2.996685 -0.57642138 1.3539512
-2.9739289 -0.57422578 1.3529596
-2.95228 -0.57219219 1.3523173
-2.9463415 -0.57266009 1.3577294
-2.9237375 -0.57045245 1.3565993
-2.902235 -0.5684073 1.3558238
-2.8963566 -0.56887054 1.3611815
-2.8904777 -0.56933379 1.366539
-2.8845992 -0.56979704 1.3718965
-2.8787208 -0.57026029 1.377254
-2.8728423 -0.57072353 1.3826118
-2.8669639 -0.57118678 1.3879693
-2.8610849 -0.57165003 1.393327
-2.8705711 -0.57464206 1.4050546
-2.8646636 -0.57510757 1.4104385
-2.8750834 -0.57827532 1.4226727
-2.8691449 -0.57874334 1.4280849
-2.8784561 -0.5817492 1.4399717
-2.8572688 -0.57967913 1.4389086
-2.8513303 -0.58014715 1.4443207
-2.8605552 -0.5831598 1.4562867
-3.1597304 -0.5879873 1.3844216
-3.1355448 -0.58569932 1.3833759
-3.0237474 -0.57403374 1.3725414
-3.0009627 -0.57188213 1.371577
-2.9782395 -0.56972563 1.3705564
-2.9555788 -0.56756449 1.3694794
-2.9496117 -0.56803465 1.3749177
-2.9280801 -0.56603098 1.3741693
-2.9221416 -0.56649888 1.3795812
-2.9162035 -0.56696689 1.3849931
-2.9102654 -0.56743479 1.3904049
-2.9043269 -0.56790268 1.395817
-2.8819408 -0.56571972 1.3944895
-2.8760333 -0.56618524 1.3998735
-2.8865128 -0.56930649 1.4120529
-2.8805742 -0.56977451 1.4174647
-2.8899412 -0.57273674 1.4293001
-2.8686981 -0.5707103 1.4282887
-2.8627596 -0.57117832 1.4337008
-2.8568215 -0.57164621 1.4391127
-2.8508835 -0.57211411 1.4445245
-2.8449454 -0.57258213 1.4499366
-3.1709394 -0.58275914 1.3970788
-3.1467562 -0.5805155 1.3960319
-3.1226382 -0.57826662 1.3949254
-3.0278645 -0.56938171 1.3903108
-3.0051131 -0.56726933 1.389317
-2.9990535 -0.56774688 1.3948393
-2.9763947 -0.5656271 1.3937614
-2.9537969 -0.56350255 1.3926275
-2.9477992 -0.56397521 1.3980937
-2.9418011 -0.56444788 1.4035599
-2.9193273 -0.56231368 1.4023139
-2.9133601 -0.56278384 1.407752
-2.907393 -0.56325412 1.4131904
-2.9014258 -0.56372428 1.4186287
-2.8954587 -0.56419456 1.4240668
-2.889492 -0.56466472 1.4295051
-2.8835249 -0.565135 1.4349434
-2.8775578 -0.56560516 1.4403815
-2.8563743 -0.56361318 1.4393165
-2.8504362 -0.56408119 1.4447286
-2.8283296 -0.5619179 1.4431477
-2.8072925 -0.55991459 1.4419491
-2.801414 -0.56037772 1.4473069
-3.1275301 -0.57353628 1.4133396
-3.1212783 -0.57402885 1.4190373
-3.0972939 -0.57181394 1.4178107
-3.0733747 -0.56959391 1.4165242
-3.049521 -0.56736875 1.4151783
-3.0267696 -0.5652982 1.4141853
-3.0030451 -0.56306279 1.4127216
-2.9804192 -0.56098235 1.4116147
-2.97436 -0.5614599 1.4171371
-2.9518261 -0.55937207 1.415946
-2.9457974 -0.55984712 1.4214404
-2.9233561 -0.55775213 1.4201648
-2.9173584 -0.55822468 1.425631
-2.9113603 -0.55869734 1.4310975
-2.9053626 -0.55917001 1.4365637
-2.8993649 -0.55964267 1.4420302
-2.8771081 -0.55753314 1.4405866
-2.8559275 -0.55558026 1.4395206
-2.8499889 -0.55604815 1.4449325
-2.8278847 -0.55392659 1.4433506
-2.80685 -0.55196214 1.4421511
-2.7858729 -0.54999322 1.4408991
-2.7800231 -0.5504542 1.4462304
-2.7440925 -0.54604167 1.4382374
-3.1510596 -0.57154763 1.4392083
-3.1260018 -0.56922293 1.437603
-3.1020522 -0.56704974 1.4363451
-3.0605364 -0.56220031 1.4280128
-3.0367503 -0.56001425 1.4266062
-3.0140629 -0.55798042 1.4255559
-3.0079403 -0.55846286 1.4311364
-2.9843159 -0.55626404 1.4295824
-2.9617848 -0.55421782 1.4283898
-2.9393148 -0.55216694 1.4271417
-2.9332862 -0.55264199 1.432636
-2.9272575 -0.55311704 1.4381304
-2.904911 -0.55105639 1.4367697
-2.8989129 -0.55152905 1.4422362
-2.8614182 -0.54707932 1.4343126
-2.8554802 -0.54754722 1.4397244
-2.8333473 -0.54546976 1.4381695
-2.8122859 -0.54354668 1.4369955
-2.7912822 -0.541619 1.4357688
-2.7854323 -0.54207999 1.4411001
-2.7494483 -0.53775007 1.4331577
-2.7436562 -0.53820646 1.4384365
-3.1379457 -0.56399536 1.4509435
-3.1129599 -0.56171203 1.4492738
-3.0714812 -0.55694842 1.4409094
-3.0476975 -0.55480659 1.4395015
-3.0239797 -0.55265963 1.4380341
-3.0013561 -0.55066252 1.4369268
-2.977767 -0.54850537 1.4353418
-2.9388609 -0.54401159 1.4273489
-2.9328322 -0.54448664 1.4328432
-2.9104571 -0.5424701 1.4315095
-2.9044595 -0.5429427 1.4369757
-2.8821769 -0.54091889 1.4355581
-2.860971 -0.53904641 1.4345164
-2.8388095 -0.53701293 1.4329884
-2.8177218 -0.5351311 1.4318397
-2.7966914 -0.53324479 1.4306383
-2.7908416 -0.53370571 1.4359696
-2.7698984 -0.53181255 1.4346898
-2.749012 -0.5299148 1.4333568
-2.71415 -0.52581108 1.4257514
-2.6944065 -0.52405953 1.4247353
-3.1498151 -0.55867958 1.46435
-3.1062021 -0.55370581 1.4552171
-3.0647936 -0.54902565 1.4467909
-3.0410457 -0.54692543 1.4453521
-3.000895 -0.54237974 1.4371371
-2.9773088 -0.54026681 1.4355509
-2.9384069 -0.53585637 1.4275558
-2.9160032 -0.53388381 1.426249
-2.9100056 -0.53435647 1.4317155
-2.8876944 -0.53237665 1.4303248
-2.8664622 -0.53054535 1.4293084
-2.8442721 -0.52855599 1.4278073
-2.8231578 -0.52671552 1.4266839
-2.8021007 -0.52487051 1.425508
-2.7811017 -0.52302086 1.4242795
-2.7752805 -0.52347958 1.4295845
-2.7543678 -0.52162319 1.4282768
-2.7194543 -0.51759934 1.4207206
-2.6996861 -0.51588631 1.4197278
-2.6789713 -0.51401436 1.4182396
-2.6593127 -0.51229274 1.4171469
-2.6397085 -0.51056695 1.4160051
-3.0818849 -0.54315627 1.4540825
-3.0405798 -0.53855669 1.4455645
-3.0004344 -0.53409696 1.4373474
-2.937953 -0.52770102 1.427763
-2.9155517 -0.52577013 1.426455
-2.8932123 -0.52383447 1.4250915
-2.8719535 -0.52204442 1.4241004
-2.8497348 -0.52009916 1.4226265
-2.8285937 -0.51829994 1.4215283
-2.8075099 -0.51649624 1.4203775
-2.7864842 -0.51468796 1.4191744
-2.7655158 -0.51287514 1.4179184
-2.7456131 -0.51120943 1.4170492
-2.7398481 -0.51166368 1.4223032
-2.7049651 -0.5077132 1.4147205
-2.6842241 -0.5058825 1.4132576
-2.6645408 -0.50419939 1.4121885
-2.6449113 -0.5025121 1.4110703
-2.6392846 -0.50295544 1.4161983
-3.1425047 -0.54199016 1.4705768
-3.0989709 -0.53719831 1.4613764
-3.0576382 -0.53268993 1.4528861
-2.9999733 -0.52581418 1.4375577
-2.937499 -0.51954579 1.4279699
-2.8987298 -0.51529217 1.4198582
-2.8927631 -0.51576239 1.4252965
-2.8715062 -0.5140115 1.4243042
-2.8492899 -0.51210785 1.4228294
-2.8129191 -0.50812203 1.4152472
-2.8070693 -0.50858301 1.4205785
-2.7860456 -0.50681376 1.4193745
-2.7650795 -0.50503987 1.4181173
-2.7451787 -0.50341052 1.4172471
-2.7394137 -0.50386482 1.4225013
-2.7185903 -0.50207984 1.4211147
-2.6988263 -0.50043976 1.42012
-2.664115 -0.49655154 1.4123826
-2.6584616 -0.49699703 1.4175351
-2.6388612 -0.49534407 1.4163916
-2.6193147 -0.49368683 1.4151988
-3.1420259 -0.53339505 1.4707952
-3.0809436 -0.52624196 1.4545119
-3.0396481 -0.52181935 1.4459894
-2.9995122 -0.51753139 1.437768
-2.9430737 -0.51091552 1.4226825
-2.9042478 -0.50674993 1.4146249
-2.8829355 -0.50504267 1.4136844
-2.8606601 -0.50318539 1.4122643
-2.8547525 -0.5036509 1.4176481
-2.8335867 -0.50193202 1.4165745
-2.8124785 -0.5002088 1.415448
-2.7914286 -0.4984808 1.4142692
-2.7704353 -0.49674827 1.4130375
-2.7505097 -0.49515754 1.4121909
-2.7296305 -0.4934161 1.410856
-2.7238946 -0.49386814 1.4160838
-2.7041054 -0.49226651 1.4151127
-2.6833687 -0.49051386 1.4136479
-2.6636891 -0.48890367 1.4125769
-2.6440639 -0.48728922 1.4114568
-2.6244926 -0.48567054 1.4102876
-2.6188931 -0.48611179 1.415391
-2.586503 -0.482568 1.4082553
-3.1415477 -0.52480006 1.4710133
-3.0804729 -0.51778483 1.4547265
-2.9426198 -0.50276017 1.4228895
-2.9037981 -0.49867791 1.4148297
-2.8824883 -0.49700966 1.4138882
-2.8602152 -0.49519405 1.4124672
-2.8390226 -0.49351656 1.4114187
-2.8331442 -0.49397981 1.4167762
-2.7968111 -0.49014789 1.4091642
-2.7757912 -0.48845664 1.4079576
-2.769999 -0.48891306 1.4132364
-2.7500758 -0.48735875 1.412389
-2.7443109 -0.48781303 1.4176431
-2.7234626 -0.48610833 1.4162807
-2.7036757 -0.48454323 1.415309
-2.682941 -0.48282957 1.4138429
-2.6632638 -0.48125586 1.412771
-2.64364 -0.47967777 1.4116502
-2.6380138 -0.48012117 1.4167781
-2.6184711 -0.47853681 1.4155834
-2.5999746 -0.47709313 1.414793
-2.5805373 -0.4755004 1.4135017
-3.0047131 -0.50048327 1.4326084
-2.9033489 -0.49060595 1.4150348
-2.8656778 -0.48673722 1.4072862
-2.8444586 -0.48510098 1.4062629
-2.8385801 -0.48556423 1.4116206
-2.8327017 -0.48602748 1.4169781
-2.7963724 -0.48227364 1.409364
-2.7753553 -0.48062149 1.4081566
-2.7554069 -0.47910565 1.4073327
-2.7496419 -0.47955996 1.4125869
-2.7287669 -0.47789654 1.4112499
-2.7230306 -0.47834858 1.4164779
-2.7032456 -0.4768199 1.4155049
-2.6825132 -0.47514528 1.4140379
-2.662838 -0.47360799 1.4129651
-2.6571846 -0.47405347 1.4181175
-2.6375899 -0.47250977 1.4169712
-2.6319633 -0.47295314 1.4220991
-2.5995545 -0.46955201 1.4149845
-3.0444369 -0.49622586 1.4409888
-3.004252 -0.49220046 1.4328187
-2.9477406 -0.48597443 1.4178095
-2.9088669 -0.48206368 1.4098012
-2.8711405 -0.47828034 1.4021051
-2.8498945 -0.47668543 1.4011071
-2.8287063 -0.475086 1.4000568
-2.8228564 -0.47554696 1.4053881
-2.8170066 -0.47600794 1.4107194
-2.7959342 -0.47439939 1.409564
-2.774919 -0.47278622 1.4083555
-2.7691269 -0.47324264 1.4136343
-2.7492075 -0.47176111 1.4127848
-2.7283349 -0.47013679 1.411447
-2.7225986 -0.47058883 1.4166749
-2.702816 -0.46909651 1.4157009
-2.6820855 -0.46746093 1.414233
-2.6624122 -0.46596006 1.4131594
-2.6567588 -0.46640554 1.4183118
-2.6511054 -0.46685106 1.4234643
-2.6176281 -0.46338674 1.4159679
-2.6120281 -0.463828 1.4210715
-3.0439711 -0.48785725 1.4412012
-2.893023 -0.47197479 1.403676
-2.8706956 -0.47028896 1.402308
-2.8341155 -0.46671167 1.3949263
-2.8282657 -0.46717265 1.4002576
-2.8071375 -0.46560773 1.3991537
-2.8165665 -0.46809459 1.4109204
-2.7802749 -0.46449453 1.4032757
-2.7744827 -0.46495095 1.4085543
-2.7686906 -0.46540737 1.4138331
-2.7487736 -0.46396238 1.4129829
-2.7430086 -0.46441665 1.418237
-2.7221665 -0.46282902 1.4168718
-2.7023859 -0.46137318 1.4158971
-2.6816578 -0.45977664 1.4144282
-2.6619864 -0.45831218 1.4133534
-2.656333 -0.45875767 1.4185059
-2.6367426 -0.45728692 1.4173577
-2.6311159 -0.45773029 1.4224856
-2.6116066 -0.45625302 1.4212637
-3.0094528 -0.4751524 1.4276588
-2.9139352 -0.46544942 1.404773
-2.8761582 -0.46183214 1.3971269
-2.854888 -0.46031752 1.3961535
-2.8336749 -0.45879838 1.3951273
-2.81252 -0.45727479 1.3940487
-2.8066993 -0.45773348 1.3993537
-2.8008785 -0.45819217 1.4046588
-2.7798386 -0.45665932 1.4034746
-2.7740469 -0.45711574 1.4087532
-2.7682548 -0.45757216 1.414032
-2.7483392 -0.45616353 1.4131808
-2.7425742 -0.4566178 1.4184351
-2.7217345 -0.45506933 1.4170687
-2.7159986 -0.45552135 1.4222968
-2.6962466 -0.4540998 1.4212964
-2.6755495 -0.45253998 1.4198003
-2.6698689 -0.45298758 1.4249773
-2.6641884 -0.45343521 1.4301543
-2.6446004 -0.45200083 1.4290051
-2.6250658 -0.45056215 1.4278069
-3.2330565 -0.48955247 1.4842432
-3.1082277 -0.47669822 1.4514322
-3.0492258 -0.47063246 1.4359879
-2.9914517 -0.46468005 1.4207821
-2.898067 -0.45544091 1.3986721
-2.8757133 -0.45384082 1.3973298
-2.8544455 -0.45236525 1.3963554
-2.8332343 -0.45088509 1.395328
-2.8120818 -0.44940054 1.3942487
-2.8062611 -0.44985923 1.3995535
-2.8004403 -0.45031792 1.4048586
-2.7794027 -0.44882411 1.4036736
-2.7736106 -0.44928053 1.4089522
-2.7678185 -0.44973695 1.4142311
-2.7479053 -0.44836479 1.413379
-2.7421403 -0.44881907 1.418633
-2.7363753 -0.44927335 1.4238873
-2.7155666 -0.44776154 1.4224937
-2.6958165 -0.44637647 1.4214926
-2.6751218 -0.44485569 1.4199953
-2.6843982 -0.44727626 1.4318993
-2.678689 -0.44772619 1.4371026
-2.6580806 -0.44619855 1.4355264
-2.6524 -0.44664618 1.4407036
-3.2390599 -0.48025841 1.4785492
-3.1513844 -0.47222826 1.4607413
-3.0146532 -0.45810434 1.4224989
-2.990993 -0.45644155 1.4209912
-2.8976197 -0.44740793 1.398876
-2.8598809 -0.44394967 1.3911996
-2.8386436 -0.4425109 1.3901978
-2.8327942 -0.44297186 1.395529
-2.8116436 -0.44152629 1.3944485
-2.8058228 -0.44198498 1.3997536
-2.8000021 -0.44244367 1.4050586
-2.7789664 -0.4409889 1.4038725
-2.7731743 -0.44144532 1.4091511
-2.7673826 -0.44190174 1.4144299
-2.7474713 -0.44056594 1.4135768
-2.7417059 -0.44102022 1.4188311
-2.720871 -0.43954983 1.4174628
-2.7151346 -0.44000185 1.4226906
-2.6953869 -0.43865308 1.4216886
-2.6896777 -0.43910301 1.426892
-2.6690135 -0.437619 1.4253674
-2.6633329 -0.43806663 1.4305446
-2.6576529 -0.43851426 1.4357214
-2.6519723 -0.43896189 1.4408987
-3.2450633 -0.47096443 1.4728553
-3.1572595 -0.46313247 1.4551687
-3.1135654 -0.45920017 1.4461362
-3.0544806 -0.45340762 1.4307749
-2.9966249 -0.447723 1.4156499
-2.9185543 -0.44076318 1.3999496
-2.8807311 -0.43739256 1.3923516
-2.8594384 -0.43599734 1.3914013
-2.838203 -0.43459761 1.3903987
-2.8170261 -0.43319336 1.3893433
-2.8112054 -0.43365204 1.3946483
-2.8053846 -0.43411073 1.3999534
-2.7995634 -0.43456942 1.4052584
-2.7785301 -0.43315369 1.4040713
-2.7727385 -0.43361011 1.4093499
-2.7669463 -0.43406653 1.4146287
-2.7470369 -0.43276721 1.413775
-2.7261753 -0.43133798 1.412432
-2.720439 -0.43179002 1.4176598
-2.7006664 -0.43047991 1.4166813
-2.6799464 -0.42903948 1.4152086
-2.6742663 -0.42948711 1.4203856
-2.6685858 -0.42993471 1.4255626
-2.6489768 -0.42861179 1.4244351
-2.6433229 -0.4290573 1.4295876
-2.6515446 -0.4312776 1.4410937
-3.2575588 -0.46115881 1.4612443
-3.1631351 -0.4540368 1.4495964
-3.1193767 -0.45020363 1.4406247
-3.0778313 -0.44660059 1.4323502
-3.0364165 -0.44298723 1.4239566
-2.9570742 -0.43609259 1.4080629
-2.9026637 -0.43087402 1.393872
-2.8802862 -0.42940125 1.3925545
-2.8589959 -0.428045 1.3916032
-2.8377628 -0.42668432 1.3905995
-2.8165879 -0.42531911 1.3895433
-2.8107672 -0.42577779 1.3948483
-2.8049459 -0.42623648 1.4001534
-2.7991252 -0.42669517 1.4054585
-2.7933044 -0.42715389 1.4107635
-2.7723022 -0.4257749 1.409549
-2.752368 -0.42451411 1.4087186
-2.746603 -0.42496842 1.4139729
-2.7257433 -0.42357829 1.4126289
-2.7200069 -0.4240303 1.4178567
-2.7002363 -0.42275664 1.4168775
-2.6795187 -0.42135522 1.4154036
-2.6738381 -0.42180285 1.4205806
-2.6681581 -0.42225048 1.4257576
-2.648551 -0.42096391 1.4246292
-2.6428976 -0.42140943 1.4297817
-3.2635622 -0.45186484 1.4555507
-3.2193937 -0.44815806 1.446955
-3.1690102 -0.44494107 1.4440238
-3.1251879 -0.44120696 1.4351127
-3.0597353 -0.43618277 1.4255617
-3.0017977 -0.43076599 1.4105177
-2.9401212 -0.42604312 1.4015954
-2.9176555 -0.42461914 1.4003594
-2.8798413 -0.42140988 1.3927574
-2.8585534 -0.42009273 1.3918052
-2.8526745 -0.42055598 1.3971629
-2.8314724 -0.41923198 1.3961318
-2.8103285 -0.41790348 1.3950481
-2.8045077 -0.41836217 1.4003532
-2.798687 -0.41882086 1.4056582
-2.777658 -0.41748324 1.4044693
-2.7718658 -0.41793966 1.4097478
-2.7519341 -0.41671532 1.4089167
-2.7461686 -0.41716963 1.4141707
-2.7253113 -0.41581854 1.4128261
-2.7055159 -0.41458336 1.4118702
-2.6847715 -0.4132233 1.4104216
-2.679091 -0.41367093 1.4155986
-2.6594324 -0.41242507 1.4145184
-2.6537786 -0.41287056 1.4196708
-2.6342006 -0.41161829 1.4185171
-2.6285739 -0.41206166 1.423645
-3.2760577 -0.44205919 1.4439397
-3.2695656 -0.44257078 1.4498568
-3.2442031 -0.44102278 1.4485476
-3.1748853 -0.43584529 1.4384515
-3.1497655 -0.43427819 1.4369216
-3.0831137 -0.42928472 1.4271095
-3.0416436 -0.42585349 1.4187708
-3.001339 -0.42252743 1.410727
-2.9621949 -0.41930702 1.4029825
-2.9396696 -0.41792944 1.4018013
-2.9017696 -0.41480806 1.3942797
-2.8793964 -0.41341853 1.3929603
-2.8581104 -0.41214043 1.3920071
-2.852232 -0.41260368 1.3973646
-2.8310323 -0.41131872 1.3963325
-2.8251824 -0.4117797 1.401664
-2.8193326 -0.41224065 1.4069953
-2.7982488 -0.41094661 1.4058583
-2.7924275 -0.41140532 1.4111633
-2.77143 -0.41010448 1.4099467
-2.7656379 -0.41056091 1.4152255
-2.7457347 -0.40937084 1.4143689
-2.7248793 -0.40805879 1.413023
-2.7050858 -0.40686005 1.4120662
-2.6843438 -0.40553901 1.4106166
-2.6786633 -0.40598664 1.4157937
-2.6729827 -0.40643427 1.4209707
-2.6533532 -0.40522274 1.4198651
-2.6337767 -0.4040069 1.4187105
-3.2820611 -0.43276522 1.4382458
-3.275569 -0.4332768 1.4441626
-3.250174 -0.43177831 1.4428842
-3.2248492 -0.43027443 1.4415424
-3.1556087 -0.42523205 1.4313796
-3.1305261 -0.42370906 1.429817
-3.0888643 -0.42038175 1.4216552
-3.0649896 -0.41895798 1.4203484
-3.0411801 -0.41752905 1.4189823
-3.0008807 -0.41428888 1.4109361
-2.961741 -0.41115174 1.4031897
-2.939218 -0.40981585 1.4020073
-2.9167571 -0.4084751 1.4007692
-2.8953843 -0.40724301 1.3998957
-2.8730445 -0.4058927 1.3985472
-2.867137 -0.40635821 1.4039309
-2.8459105 -0.40511462 1.4029241
-2.8400321 -0.40557784 1.4082818
-2.818892 -0.40432739 1.407196
-2.8130426 -0.40478837 1.4125276
-2.7919893 -0.40353107 1.4113631
-2.7861686 -0.40398979 1.4166682
-2.7652016 -0.4027257 1.4154243
-2.7453008 -0.40157205 1.4145668
-2.7244473 -0.40029898 1.4132199
-2.7046556 -0.39913672 1.4122622
-2.6839161 -0.39785472 1.4108119
-2.6642342 -0.39668381 1.4097543
-2.6585808 -0.39712933 1.4149067
-2.6529274 -0.39757481 1.4200592
-2.6333532 -0.39639544 1.4189036
-3.2815719 -0.42398277 1.4384689
-3.2561455 -0.42253384 1.4372206
-3.2496881 -0.42304271 1.4431059
-3.2243657 -0.42158568 1.4417632
-3.1802821 -0.41815451 1.4330974
-3.1551328 -0.41668379 1.4315965
-3.1300526 -0.41520771 1.4300327
-3.0883961 -0.41196886 1.4218688
-3.0645237 -0.41058931 1.4205608
-3.0241327 -0.40744257 1.4126003
-3.000422 -0.40605029 1.4111452
-2.9778094 -0.40476337 1.4100461
-2.9552584 -0.4034715 1.4088912
-2.9327683 -0.40217483 1.4076796
-2.9103408 -0.4008733 1.4064124
-2.888999 -0.39967796 1.4055116
-2.8830605 -0.40014592 1.4109235
-2.8607845 -0.39883238 1.4095178
-2.8548775 -0.39929789 1.4149017
-2.8337111 -0.39808872 1.4138412
-2.812602 -0.39687508 1.4127283
-2.8067522 -0.39733604 1.4180596
-2.7857304 -0.39611554 1.416868
-2.7799096 -0.39657426 1.422173
-2.7448664 -0.39377326 1.4147649
-2.7240152 -0.39253923 1.4134169
-2.7182794 -0.39299127 1.4186449
-2.6834884 -0.39017048 1.4110069
-2.6778078 -0.39061809 1.4161839
-2.658155 -0.38948148 1.4151008
-2.638556 -0.38834065 1.4139688
-3.2875752 -0.4146888 1.432775
-3.2810831 -0.41520038 1.4386919
-3.2556596 -0.4137983 1.4374423
-3.2492018 -0.41430718 1.4433277
-3.2238822 -0.41289693 1.4419837
-3.1798038 -0.40955946 1.4333155
-3.1546569 -0.40813559 1.4318135
-3.1295795 -0.4067063 1.4302487
-3.1056118 -0.40537867 1.4290292
-3.0817089 -0.40404597 1.4277501
-3.0578718 -0.40270814 1.4264114
-3.0341001 -0.4013651 1.4250133
-3.011426 -0.40012476 1.4239709
-2.987783 -0.39877158 1.4224553
-2.9652343 -0.39752141 1.421299
-2.9427471 -0.39626634 1.4200869
-2.920321 -0.39500645 1.4188182
-2.9143233 -0.39547908 1.4242845
-2.8919902 -0.39421189 1.4229321
-2.8707371 -0.39304879 1.4219513
-2.848525 -0.39177203 1.4204886
-2.8426175 -0.39223754 1.4258726
-2.8215113 -0.39106289 1.4247584
-2.8004622 -0.3898837 1.4235919
-2.7946124 -0.39034468 1.4289231
-2.7585373 -0.38751167 1.4211011
-2.7386675 -0.38642877 1.420217
-2.7178473 -0.38523152 1.4188418
-2.6980867 -0.38414004 1.4178579
-2.6773801 -0.3829338 1.416379
-2.6577296 -0.38183364 1.4152951
-2.6520758 -0.38227913 1.4204476
-3.2870865 -0.40590635 1.4329979
-3.2805943 -0.40641794 1.4389148
-3.2551732 -0.40506271 1.437664
-3.2487154 -0.40557158 1.4435494
-3.2233982 -0.40420824 1.4422042
-3.1971045 -0.40273523 1.4403925
-3.1729717 -0.40146509 1.4393244
-3.1291065 -0.39820489 1.4304645
-3.1051407 -0.39692158 1.4292438
-3.0812407 -0.39563307 1.4279637
-3.0574059 -0.39433947 1.4266241
-3.0512195 -0.39482698 1.4322622
-3.027483 -0.39352557 1.4308329
-3.0048423 -0.39232448 1.4297616
-2.9812346 -0.39101294 1.428215
-2.9751444 -0.39149284 1.4337654
-2.9526596 -0.39027944 1.4325519
-2.9466 -0.39075693 1.4380741
-2.9242072 -0.38953623 1.4367769
-2.901876 -0.38831073 1.4354231
-2.8796067 -0.38708031 1.4340134
-2.8584137 -0.3859517 1.4329791
-2.8362656 -0.38471174 1.4314592
-2.8151898 -0.38357383 1.4303179
-2.7941718 -0.38243142 1.4291241
-2.773212 -0.38128445 1.4278779
-2.7523093 -0.38013282 1.4265788
-2.7324681 -0.37908423 1.4256692
-2.711679 -0.37792379 1.4242666
-2.7059431 -0.3783758 1.4294946
-2.6712718 -0.37569714 1.421751
-3.2865977 -0.3971239 1.4332211
-3.2801056 -0.39763549 1.4391377
-3.2546868 -0.39632711 1.437886
-3.248229 -0.39683598 1.4437714
-3.2229147 -0.39551944 1.4424248
-3.1966238 -0.39409587 1.4406118
-3.172493 -0.39286998 1.4395425
-3.1473866 -0.39153704 1.4380066
-3.1223488 -0.39019868 1.4364078
-3.0984182 -0.38895705 1.4351563
-3.0921664 -0.38944969 1.4408538
-3.0683341 -0.38820028 1.4395132
-3.0445676 -0.38694575 1.4381125
-3.0208659 -0.38568604 1.4366524
-3.0147123 -0.38617095 1.4422607
-2.992135 -0.38500658 1.4411323
-2.9860125 -0.38548908 1.4467125
-2.9625053 -0.3842141 1.4450753
-2.9400845 -0.38303742 1.4438047
-2.9177246 -0.38185596 1.4424784
-2.8954268 -0.38066962 1.4410954
-2.8731904 -0.37947845 1.4396567
-2.8520284 -0.37838659 1.4385951
-2.8299131 -0.37718585 1.4370461
-2.8088684 -0.37608472 1.4358776
-2.7878819 -0.37497902 1.4346564
-2.766953 -0.37386882 1.4333827
-2.7460814 -0.37275401 1.4320562
-2.7262688 -0.37173975 1.4311213
-2.7205038 -0.37219405 1.4363754
-2.6997747 -0.37106806 1.4349194
-3.2796168 -0.38885307 1.4393606
-3.2731247 -0.38936466 1.4452775
-3.2477427 -0.38810039 1.4439931
-3.2224312 -0.38683069 1.4426453
-3.1961427 -0.38545659 1.4408309
-3.1897564 -0.38595986 1.4466515
-3.1656613 -0.38477561 1.4455514
-3.1405916 -0.38348681 1.4439826
-3.1342726 -0.38398474 1.4497418
-3.1093063 -0.38268778 1.4480786
-3.1030221 -0.383183 1.4538062
-3.0791922 -0.38197786 1.4524641
-3.055428 -0.38076752 1.4510624
-3.0492086 -0.38125759 1.4567304
-3.0255427 -0.38003954 1.4552393
-3.0193563 -0.38052705 1.4608774
-2.9957881 -0.37930125 1.4592972
-2.9559565 -0.37645543 1.450835
-2.9498663 -0.37693536 1.4563854
-2.9275093 -0.37579551 1.4550576
-2.9052134 -0.37465081 1.4536741
-2.8667741 -0.37187669 1.4452999
-2.845643 -0.37082157 1.444211
-2.8235607 -0.36965999 1.4426329
-2.8025475 -0.36859563 1.441437
-2.7815914 -0.36752671 1.4401884
-2.7606936 -0.36645326 1.4388876
-2.7548728 -0.36691195 1.4441926
-2.7340612 -0.36583161 1.4428124
-2.7282691 -0.36628801 1.4480913
-3.2726355 -0.38058224 1.4455004
-3.2661433 -0.38109383 1.4514174
-3.240799 -0.37987366 1.4500999
-3.2155247 -0.3786481 1.4487197
-3.2091017 -0.37915424 1.4545736
-3.2026787 -0.37966037 1.4604273
-3.1765027 -0.37832707 1.4585118
-3.1524754 -0.37718192 1.457351
-3.1461215 -0.3776826 1.4631414
-3.1211586 -0.37643245 1.461477
-3.1148396 -0.37693039 1.467236
-3.0899801 -0.37567204 1.4654772
-3.0836954 -0.37616727 1.4712045
-3.0774112 -0.37666249 1.476932
-3.0537148 -0.37549129 1.4754696
-3.0127039 -0.37264583 1.466728
-2.989171 -0.37146172 1.4651165
-2.9667215 -0.37037098 1.4638739
-2.927053 -0.36759856 1.4552658
-2.9047594 -0.36649552 1.453881
-2.8825278 -0.36538762 1.45244
-2.8603578 -0.36427486 1.450943
-2.8392577 -0.36325651 1.449827
-2.8172088 -0.36213419 1.4482195
-2.796226 -0.36110654 1.4469965
-2.7753015 -0.3600744 1.4457207
-2.7694516 -0.36053535 1.451052
-2.7636018 -0.36099631 1.4563832
-2.7427926 -0.35995507 1.4550028
-2.7369719 -0.36041376 1.4603076
-3.2656546 -0.37231141 1.4516404
-3.2591624 -0.372823 1.4575574
-3.2338552 -0.37164694 1.456207
-3.2086177 -0.37046549 1.4547942
-3.2021952 -0.37097162 1.4606478
-3.1957722 -0.37147778 1.4665015
-3.1696353 -0.37019101 1.4645514
-3.163249 -0.37069428 1.470372
-3.1392894 -0.36958823 1.4691503
-3.132936 -0.37008885 1.474941
-3.1265821 -0.37058958 1.4807315
-3.1017256 -0.36937806 1.4789712
-3.0769377 -0.36816111 1.4771478
-3.0706534 -0.36865631 1.4828753
-3.0296149 -0.36590198 1.4741614
-3.006052 -0.36476466 1.4725788
-2.9662604 -0.36208817 1.4640841
-2.9265966 -0.35940167 1.4554739
-2.9043055 -0.35834023 1.454088
-2.8820758 -0.357274 1.452646
-2.8599081 -0.35620284 1.451148
-2.8388104 -0.35522354 1.4500308
-2.8167639 -0.35414281 1.4484224
-2.7957835 -0.35315424 1.4471984
-2.7899051 -0.35361749 1.4525559
-2.769011 -0.35262209 1.4512529
-2.7631617 -0.35308307 1.4565842
-2.7573118 -0.35354403 1.4619155
-2.7365336 -0.35253951 1.4605076
-2.7307129 -0.3529982 1.4658127
-3.2651658 -0.363529 1.4518633
-3.2586732 -0.36404061 1.4577804
-3.2333689 -0.36291137 1.4564288
-3.2081342 -0.36177677 1.4550147
-3.2017112 -0.3622829 1.4608684
-3.1952882 -0.36278903 1.466722
-3.1691546 -0.36155173 1.4647708
-3.1627679 -0.362055 1.4705913
-3.1388111 -0.36099318 1.4693687
-3.1324573 -0.3614938 1.4751592
-3.1075687 -0.36033189 1.4734292
-3.1012497 -0.36082983 1.4791882
-3.0764647 -0.35965976 1.4773638
-3.052773 -0.35857701 1.4758992
-3.0291467 -0.35748908 1.474375
-2.9882445 -0.35481289 1.4655392
-2.9657998 -0.35380539 1.4642944
-2.9261403 -0.35120472 1.455682
-2.9038515 -0.35018495 1.4542952
-2.8654261 -0.34766063 1.4459145
-2.8594589 -0.34813082 1.4513528
-2.8383632 -0.34719056 1.4502349
-2.816319 -0.3461515 1.4486253
-2.795341 -0.34520194 1.4474001
-2.7744203 -0.34424782 1.4461224
-2.7685704 -0.34470877 1.4514537
-2.7477369 -0.34374788 1.4500976
-2.7419162 -0.34420657 1.4554026
-2.7360954 -0.34466526 1.4607074
-2.7302747 -0.34512395 1.4660125
-2.7095847 -0.34415165 1.4645243
-3.2646766 -0.35474658 1.4520862
-3.2393403 -0.35366693 1.4507654
-3.232883 -0.35417578 1.4566507
-3.2076507 -0.35308802 1.4552352
-3.2012277 -0.35359415 1.4610889
-3.1750598 -0.35240918 1.4591699
-3.1686735 -0.35291243 1.4649901
-3.1446862 -0.35189745 1.4637961
-3.1383324 -0.35239813 1.4695868
-3.1134119 -0.35128573 1.4678872
-3.0885601 -0.3501679 1.4661245
-3.0822759 -0.3506631 1.4718521
-3.0585542 -0.3496272 1.4704161
-3.0348973 -0.34858611 1.4689207
-2.9939346 -0.34600353 1.4601424
-2.9714613 -0.34504011 1.4589245
-2.9317436 -0.34253034 1.4503677
-2.8931684 -0.34010139 1.4421253
-2.870944 -0.33911839 1.4406812
-2.8497925 -0.3382217 1.4396148
-2.8276892 -0.3372291 1.4380603
-2.8217816 -0.33769462 1.4434443
-2.800777 -0.33678636 1.4422445
-2.794898 -0.33724961 1.447602
-2.7589402 -0.33495626 1.4396873
-2.7531195 -0.33541495 1.4449923
-2.7472987 -0.33587363 1.4502974
-2.7265244 -0.33494717 1.4488869
-2.7207327 -0.33540359 1.4541657
-2.7149405 -0.33586001 1.4594445
-2.6952729 -0.33501726 1.4583821
-2.689508 -0.33547157 1.4636364
-3.27068 -0.34545258 1.4463923
-3.2641878 -0.34596416 1.4523094
-3.2388539 -0.34493136 1.4509871
-3.2135901 -0.34389314 1.4496019
-3.1873517 -0.34276336 1.4477482
-3.1809654 -0.34326661 1.4535687
-3.1745791 -0.34376988 1.4593892
-3.1505613 -0.34280166 1.4582236
-3.1255741 -0.34174159 1.4565859
-3.1192551 -0.34223956 1.4623451
-3.112936 -0.3427375 1.4681041
-3.0705867 -0.34018478 1.4592354
-3.0643353 -0.34067744 1.4649332
-3.0232134 -0.33819619 1.4563017
-2.9996247 -0.33719417 1.4547453
-2.9771233 -0.33627483 1.4535546
-2.9373469 -0.3338559 1.4450533
-2.8764615 -0.33057615 1.4354479
-2.8552837 -0.32972077 1.4344068
-2.8331513 -0.32877225 1.4328794
-2.8120914 -0.32790759 1.4317312
-2.8062124 -0.32837084 1.4370887
-2.7852387 -0.32749933 1.4358616
-2.7793889 -0.32796031 1.4411929
-2.758502 -0.32708201 1.4398873
-2.7376723 -0.32619911 1.4385285
-2.7318807 -0.32665554 1.4438071
-2.7121339 -0.32585561 1.4428177
-2.7063689 -0.32630992 1.4480717
-2.700604 -0.32676423 1.453326
-2.6799746 -0.3258656 1.4517851
-3.2701912 -0.33667016 1.4466152
-3.2448254 -0.33568695 1.4453237
-3.238368 -0.33619583 1.4512088
-3.2131062 -0.33520439 1.4498224
-3.1868711 -0.33412409 1.4479675
-3.1804843 -0.33462733 1.453788
-3.1564369 -0.33370599 1.4526513
-3.1314173 -0.33269542 1.4510438
-3.1250987 -0.33319336 1.4568028
-3.100183 -0.33217472 1.4551013
-3.0763679 -0.33123499 1.4537525
-3.052618 -0.33029011 1.4523439
-3.028934 -0.32934007 1.450876
-3.0053148 -0.32838485 1.4493484
-2.9653854 -0.32606426 1.440989
-2.9429498 -0.32518151 1.439739
-2.8819795 -0.32203394 1.4302146
-2.8445215 -0.31984988 1.4223144
-2.8234057 -0.31902882 1.4212179
-2.8175273 -0.31949207 1.4265754
-2.7813473 -0.31737298 1.4188671
-2.7755265 -0.3178317 1.4241722
-2.7697053 -0.31829038 1.429477
-2.7638845 -0.31874907 1.434782
-2.7430282 -0.31790751 1.4334486
-2.7232304 -0.31714824 1.4325073
-2.7174649 -0.31760255 1.4377613
-2.7117 -0.31805682 1.4430156
-2.6910148 -0.31720182 1.4415264
-2.6852789 -0.31765383 1.4467542
-2.6656713 -0.31687957 1.4456391
-3.2697024 -0.32788774 1.4468381
-3.244339 -0.32695135 1.4455454
-3.2190456 -0.32600954 1.4441895
-3.1927762 -0.32498151 1.4423664
-3.1686659 -0.32410952 1.4412882
-3.162312 -0.3246102 1.4470787
-3.1372609 -0.32364929 1.4455018
-3.1309414 -0.32414722 1.451261
-3.1059942 -0.32317811 1.4495895
-3.0821486 -0.32228523 1.4482694
-3.0583687 -0.32138714 1.4468896
-3.0346546 -0.32048389 1.4454503
-3.0110054 -0.31957552 1.4439514
-2.9485531 -0.31650713 1.4344246
-2.8874969 -0.31349173 1.4249814
-2.8499842 -0.31139302 1.4171333
-2.8288417 -0.31061324 1.4160621
-2.8077564 -0.30982894 1.4149382
-2.7867298 -0.30904007 1.4137621
-2.7657599 -0.30824664 1.4125326
-2.7599683 -0.30870306 1.4178114
-2.7400913 -0.30798656 1.4169426
-2.7343264 -0.30844086 1.4221969
-2.7135282 -0.307634 1.4208119
-2.7077918 -0.30808601 1.4260397
-2.6880784 -0.30735663 1.4250219
-2.6963191 -0.30899006 1.4364955
-2.6766601 -0.30825642 1.4354286
-2.6560616 -0.30743375 1.433861
-2.6503811 -0.30788139 1.4390378
-2.6308584 -0.30713701 1.4378467
-2.6252046 -0.30758253 1.4429991
-3.2692137 -0.31910533 1.4470613
-3.2438526 -0.31821579 1.4457672
-3.2185616 -0.31732079 1.4444101
-3.1922956 -0.31634223 1.4425857
-3.1681871 -0.31551448 1.4415064
-3.1431041 -0.31460312 1.4399598
-3.136785 -0.31510109 1.4457188
-3.111805 -0.31418154 1.4440777
-3.1055207 -0.31467673 1.4498053
-3.0816779 -0.31382811 1.4484842
-3.0579004 -0.31297421 1.4471033
-3.0166955 -0.31076616 1.4385545
-2.9541559 -0.30783269 1.4291105
-2.9480968 -0.30831018 1.4346328
-2.8717566 -0.30421799 1.4187827
-2.8342776 -0.30219769 1.4109063
-2.8131657 -0.30145469 1.4098077
-2.7921124 -0.3007071 1.4086568
-2.7711158 -0.29995501 1.4074528
-2.7511873 -0.29927921 1.4066322
-2.7303047 -0.29851818 1.4053252
-2.7245684 -0.29897019 1.410553
-2.718832 -0.29942223 1.415781
-2.6990671 -0.29873353 1.4148111
-2.6933579 -0.29918346 1.4200146
-2.6726751 -0.2984066 1.418525
-2.6669946 -0.29885423 1.423702
-2.6613145 -0.29930183 1.428879
-2.6417394 -0.29859817 1.4277358
-2.636086 -0.29904369 1.4328883
-2.6165924 -0.29833364 1.4316716
-2.6109657 -0.29877704 1.4367995
-2.5915527 -0.29806063 1.435509
-2.5859528 -0.29850188 1.4406126
-3.2687249 -0.31032288 1.4472842
-3.2433667 -0.30948019 1.4459889
-3.2180781 -0.30863205 1.4446306
-3.1918144 -0.3077029 1.4428051
-3.1677089 -0.30691937 1.4417245
-3.161355 -0.30742005 1.4475152
-3.1363091 -0.30655283 1.4459357
-3.1113319 -0.30568013 1.4442937
-3.0874591 -0.30487826 1.443001
-3.0636511 -0.30407122 1.441649
-3.0399094 -0.30325902 1.440237
-3.016232 -0.30244172 1.4387658
-2.9536996 -0.29963577 1.4293187
-2.8925653 -0.29687744 1.4199529
-2.8397136 -0.29378217 1.4057505
-2.8185749 -0.29308042 1.4046774
-2.7974949 -0.29237416 1.4035518
-2.7764716 -0.29166335 1.4023731
-2.7413449 -0.28985432 1.3950665
-2.7356091 -0.29030636 1.4002943
-2.715765 -0.28966048 1.3993974
-2.6949692 -0.28893179 1.3980119
-2.6892886 -0.28937942 1.4031889
-2.6695814 -0.28872275 1.4021676
-2.663928 -0.28916827 1.40732
-2.6582742 -0.28961375 1.4124725
-2.6386747 -0.28894866 1.4113529
-2.6469674 -0.29050478 1.4227774
-2.6274219 -0.28983542 1.4216089
-2.6079297 -0.2891618 1.4203911
-2.6023302 -0.28960308 1.4254944
-2.5839057 -0.28900316 1.42466
-2.578331 -0.28944245 1.4297404
-2.5727563 -0.28988174 1.4348211
-2.5534511 -0.28919339 1.4334331
-3.2682357 -0.30154046 1.4475071
-3.2428803 -0.30074462 1.4462109
-3.2175946 -0.29994333 1.4448512
-3.2111716 -0.30044946 1.4507048
-3.1672306 -0.29832435 1.4419429
-3.1608768 -0.29882503 1.4477334
-3.1358333 -0.29800463 1.4461529
-3.1108589 -0.29717872 1.4445095
-3.1045742 -0.29767394 1.4502368
-3.0631828 -0.29565832 1.4418626
-3.0569639 -0.29614839 1.4475305
-3.015769 -0.29411733 1.4389772
-2.9532433 -0.29143888 1.4295266
-2.8768005 -0.28768408 1.4137785
-2.8392711 -0.28582984 1.4059525
-2.8028774 -0.28404123 1.3984466
-2.7676144 -0.28231871 1.3912656
-2.7466493 -0.28164256 1.3900354
-2.7267537 -0.28103739 1.3891869
-2.7210445 -0.28148729 1.3943901
-2.6861162 -0.2797384 1.3869042
-2.6804628 -0.28018391 1.3920567
-2.6607575 -0.27956375 1.3910344
-2.6551309 -0.28000709 1.3961623
-2.6495042 -0.28045049 1.4012904
-2.6299067 -0.27982178 1.4001698
-2.6243072 -0.28026304 1.4052732
-2.6187077 -0.28070429 1.4103765
-2.6131077 -0.28114554 1.4154799
-2.594635 -0.28058347 1.41469
-2.5890603 -0.28102276 1.4197707
-2.5834856 -0.28146204 1.4248514
-2.5641284 -0.28081435 1.4235115
-2.5585809 -0.28125152 1.4285676
-2.5530334 -0.28168866 1.4336236
-2.5474854 -0.28212583 1.4386797
-3.2612548 -0.29326966 1.4536471
-3.2359366 -0.2925179 1.4523177
-3.2106881 -0.29176071 1.4509254
-3.2042651 -0.29226685 1.4567792
-3.1603985 -0.29022992 1.4479516
-3.1540446 -0.2907306 1.4537423
-3.1290383 -0.28995433 1.4521289
-3.1041012 -0.28917259 1.4504528
-3.0802655 -0.28845662 1.4491282
-3.0564957 -0.28773549 1.4477439
-3.0327911 -0.28700924 1.4463003
-2.9527869 -0.28324193 1.4297347
-2.8763533 -0.27965111 1.4139826
-2.823544 -0.27679288 1.3997478
-2.7871833 -0.27508008 1.3922136
-2.76718 -0.27451992 1.3914638
-2.7462173 -0.27388281 1.3902326
-2.7111549 -0.27222034 1.3828709
-2.6913438 -0.27164507 1.3819458
-2.671587 -0.2710655 1.3809717
-2.6659603 -0.2715089 1.3860998
-2.6462841 -0.27092302 1.385052
-2.6406846 -0.27136427 1.3901553
-2.6350846 -0.27180552 1.3952587
-2.6165137 -0.27128515 1.3945591
-2.610939 -0.27172443 1.3996396
-2.6053648 -0.27216372 1.4047203
-2.5997901 -0.27260301 1.409801
-2.5803537 -0.27199811 1.4085338
-2.5748062 -0.27243528 1.41359
-2.5692582 -0.27287245 1.4186459
-2.5637107 -0.27330962 1.423702
-2.545392 -0.27276933 1.4227726
-2.5398693 -0.27320451 1.4278059
-2.5343466 -0.27363974 1.4328394
-2.5288239 -0.27407491 1.4378724
-3.2542734 -0.28499883 1.4597869
-3.2289929 -0.28429118 1.4584248
-3.2225351 -0.28480005 1.4643102
-3.1973586 -0.28408423 1.4628537
-3.1712127 -0.2832948 1.4609244
-3.1472125 -0.28263623 1.4597511
-3.1222434 -0.28190404 1.4581051
-3.0973434 -0.2811664 1.4563961
-3.0735431 -0.28049213 1.4550407
-3.0323253 -0.27864057 1.4465127
-2.9523306 -0.27504498 1.4299428
-2.8759065 -0.27161813 1.4141865
-2.8383856 -0.26992518 1.4063563
-2.7867475 -0.26724488 1.3924124
-2.766746 -0.26672119 1.3916616
-2.7316031 -0.26514083 1.3843756
-2.6965718 -0.26355171 1.3769875
-2.6767898 -0.26301071 1.3760371
-2.6711631 -0.26345411 1.381165
-2.6514621 -0.26290676 1.3801408
-2.6458626 -0.26334801 1.3852441
-2.6272435 -0.26286536 1.3845892
-2.6216688 -0.26330468 1.3896699
-2.6160941 -0.26374397 1.3947506
-2.5965791 -0.2631819 1.3935561
-2.5910316 -0.26361904 1.3986123
-2.5854836 -0.26405621 1.4036682
-2.579936 -0.26449338 1.4087243
-2.5743885 -0.26493055 1.4137805
-2.5688405 -0.26536772 1.4188364
-2.550499 -0.26486319 1.4179292
-2.5449762 -0.26529843 1.4229624
-2.5394535 -0.2657336 1.4279957
-2.5339308 -0.26616883 1.4330289
-2.5284081 -0.26660401 1.4380622
-2.5228853 -0.26703918 1.4430954
-2.5037456 -0.2664476 1.4415593
-3.2408004 -0.27723962 1.4718435
-3.2343082 -0.27775121 1.4777603
-3.2091336 -0.27708223 1.4763026
-3.1840291 -0.27640778 1.4747818
-3.157959 -0.275662 1.4727845
-3.1340265 -0.27504253 1.4715507
-3.0905857 -0.27316028 1.4623394
-3.0493398 -0.27139977 1.4538391
-2.9682655 -0.26791447 1.4369028
-2.8754592 -0.26358515 1.4143903
-2.8379431 -0.2619729 1.406558
-2.7863111 -0.25940967 1.3926113
-2.7663121 -0.2589224 1.3918598
-2.731173 -0.25741753 1.3845716
-2.696146 -0.25590381 1.3771818
-2.6763663 -0.25539929 1.3762302
-2.6566401 -0.2548905 1.3752298
-2.6379728 -0.25444564 1.3746195
-2.6323981 -0.25488493 1.3797002
-2.6268234 -0.25532421 1.3847806
-2.6072569 -0.25480282 1.3836346
-2.6017094 -0.25523999 1.3886907
-2.5961614 -0.25567716 1.3937466
-2.5776963 -0.25521636 1.3929524
-2.5721736 -0.25565153 1.3979857
-2.5666509 -0.25608671 1.403019
-2.5611281 -0.25652194 1.4080522
-2.5556054 -0.25695711 1.4130855
-2.5500827 -0.25739229 1.4181187
-2.54456 -0.25782752 1.423152
-2.5390372 -0.25826269 1.4281852
-2.533515 -0.25869793 1.4332187
-2.5279922 -0.2591331 1.4382517
-2.5224695 -0.25956827 1.4432852
-2.5033321 -0.25901312 1.4417481
-2.4978361 -0.2594462 1.4467568
-3.2273269 -0.26948041 1.4839003
-3.2208347 -0.26999199 1.4898171
-3.1771221 -0.26822519 1.4808562
-3.1510916 -0.26752597 1.4788241
-3.06635 -0.26407048 1.4611676
-2.9678068 -0.25967592 1.4371119
-2.8750119 -0.25555217 1.4145944
-2.8375001 -0.25402057 1.40676
-2.7858748 -0.25157446 1.3928103
-2.750658 -0.25015157 1.3855956
-2.7155519 -0.24871987 1.378279
-2.6957202 -0.24825597 1.3773758
-2.6759424 -0.24778786 1.3764234
-2.6562185 -0.2473155 1.375422
-2.6375532 -0.24690446 1.3748109
-2.6319785 -0.24734375 1.3798916
-2.6123867 -0.24686092 1.3787689
-2.6068392 -0.24729809 1.3838251
-2.588326 -0.24687505 1.3830755
-2.5828032 -0.24731024 1.3881087
-2.5772805 -0.24774544 1.393142
-2.5717578 -0.24818064 1.3981755
-2.5662351 -0.24861583 1.4032085
-2.5607123 -0.24905102 1.408242
-2.5551896 -0.24948622 1.4132752
-2.5496669 -0.24992141 1.4183085
-2.5441442 -0.25035661 1.4233418
-2.5249009 -0.24984635 1.4219019
-2.5330987 -0.25122702 1.4334083
-2.5275764 -0.25166219 1.4384415
-2.5220537 -0.25209737 1.4434748
-2.516531 -0.2525326 1.448508
-2.4974222 -0.25201172 1.4469457
-3.220346 -0.26120955 1.4900401
-3.1506109 -0.25888664 1.4790435
-3.1267161 -0.25835305 1.4777777
-3.0658793 -0.25561333 1.4613824
-2.9673481 -0.25143734 1.4373209
-2.8898692 -0.24844533 1.4211826
-2.8370576 -0.24606821 1.4069619
-2.785439 -0.2437392 1.3930092
-2.750226 -0.24239179 1.3857925
-2.7151241 -0.24103555 1.3784742
-2.6952944 -0.2406081 1.3775699
-2.6755185 -0.24017641 1.3766167
-2.6557965 -0.23974052 1.3756144
-2.6371331 -0.23936325 1.3750024
-2.617517 -0.23891899 1.3739035
-2.5989552 -0.23853372 1.3731985
-2.5934324 -0.23896892 1.378232
-2.5879102 -0.23940411 1.383265
-2.5823874 -0.2398393 1.3882985
-2.5768647 -0.2402745 1.3933318
-2.571342 -0.24070971 1.398365
-2.5519662 -0.24024649 1.397047
-2.5464702 -0.24067955 1.4020557
-2.5409746 -0.24111263 1.4070644
-2.5492511 -0.24245048 1.418498
-2.5437284 -0.24288568 1.4235313
-2.5244875 -0.24241184 1.4220908
-2.5326829 -0.24375607 1.433598
-2.5271602 -0.24419126 1.4386311
-2.5216374 -0.24462645 1.4436646
-2.5161147 -0.24506165 1.4486978
-2.4970083 -0.24457721 1.4471343
-3.1697321 -0.25135383 1.4871509
-3.1262379 -0.24975802 1.4779959
-3.0828815 -0.24815136 1.4687145
-2.9842973 -0.24419907 1.4447072
-2.8741179 -0.23948617 1.4150023
-2.8366151 -0.23811591 1.4071639
-2.7850027 -0.23590399 1.393208
-2.749794 -0.23463202 1.3859897
-2.7146964 -0.23335126 1.3786693
-2.694869 -0.23296025 1.3777642
-2.6750951 -0.23256499 1.3768098
-2.655375 -0.23216552 1.3758066
-2.6367135 -0.2318221 1.3751938
-2.6170988 -0.23141423 1.374094
-2.5985394 -0.23106281 1.3733883
-2.5930166 -0.23149802 1.3784215
-2.5735354 -0.23107974 1.3772008
-2.5819716 -0.23236839 1.3884881
-2.5764489 -0.2328036 1.3935213
-2.5570478 -0.23237894 1.3922272
-2.5515523 -0.23281203 1.3972359
-2.5598807 -0.23410918 1.4086213
-2.554358 -0.23454438 1.4136546
-2.5488353 -0.23497957 1.4186878
-2.5433125 -0.23541477 1.4237211
-2.5377898 -0.23584996 1.4287543
-2.5322671 -0.23628516 1.4337876
-2.5267444 -0.23672035 1.4388208
-2.5212216 -0.23715554 1.4438541
-2.5156989 -0.23759075 1.4488873
-2.5101762 -0.23802595 1.4539208
