# .PCD v0.7 - Point Cloud Data file format
VERSION 0.7
FIELDS x y z
SIZE 4 4 4
TYPE F F F
COUNT 1 1 1
WIDTH 622
HEIGHT 1
VIEWPOINT 0 0 0 1 0 0 0
POINTS 622
DATA ascii
0.020110853 0.027206391 0.30078056
0.020792358 0.027249746 0.30079579
0.021473859 0.027293101 0.30081105
0.022155363 0.027336456 0.30082631
0.022836862 0.027379811 0.30084157
0.023518367 0.027423166 0.30085683
0.024199869 0.027466521 0.30087206
0.020750806 0.027927831 0.30072486
0.021415299 0.027661383 0.29976577
0.022094199 0.027704574 0.29978096
0.0227731 0.027747765 0.29979616
0.023452003 0.027790949 0.29981136
0.024130903 0.027834147 0.29982656
0.017301742 0.028389141 0.30057764
0.017983247 0.028432496 0.3005929
0.018664747 0.028475851 0.30060816
0.019337203 0.02820731 0.29964951
0.020016104 0.028250501 0.29966471
0.021373907 0.028336883 0.2996951
0.02205281 0.028380066 0.2997103
0.02273171 0.028423257 0.2997255
0.023410613 0.028466448 0.29974067
0.024089513 0.028509639 0.29975587
0.016578689 0.029023863 0.30049145
0.017260194 0.029067226 0.30050671
0.017938009 0.02879642 0.29954845
0.018616909 0.028839618 0.29956365
0.019295812 0.028882802 0.29957885
0.019974712 0.028925993 0.29959404
0.020653615 0.028969184 0.29960924
0.021332515 0.029012375 0.29962441
0.022011418 0.029055566 0.29963961
0.022690319 0.029098749 0.29965481
0.023369221 0.029141948 0.29967001
0.024021026 0.028869495 0.29871121
0.024697324 0.028912514 0.29872635
0.025373625 0.028955542 0.29874149
0.026049925 0.028998569 0.29875663
0.026726225 0.029041588 0.29877177
0.015855636 0.029658593 0.30040523
0.016537139 0.029701948 0.30042049
0.017217714 0.02942872 0.29946259
0.017896617 0.029471919 0.29947779
0.018575517 0.029515103 0.29949296
0.01925442 0.029558301 0.29950815
0.019933321 0.029601485 0.29952335
0.02059829 0.029327281 0.29856512
0.021274591 0.029370308 0.29858026
0.021950891 0.029413328 0.2985954
0.02262719 0.029456355 0.29861054
0.023303492 0.029499382 0.29862568
0.023979792 0.029542401 0.29864082
0.024656091 0.029585429 0.29865593
0.025300249 0.029309884 0.29769722
0.02597395 0.029352747 0.2977123
0.02664765 0.029395603 0.29772738
0.027281404 0.029119417 0.29676843
0.027952502 0.029162109 0.29678345
0.015818521 0.030017838 0.29936153
0.016497422 0.030061029 0.2993767
0.017176323 0.03010422 0.2993919
0.017855225 0.030147411 0.29940709
0.018534126 0.030190602 0.29942229
0.019204454 0.029914141 0.29846445
0.019880757 0.02995716 0.29847959
0.020557057 0.030000187 0.29849473
0.021233357 0.030043215 0.29850984
0.021909658 0.030086234 0.29852498
0.022564378 0.029808775 0.29756677
0.023238078 0.02985163 0.29758182
0.023911778 0.029894494 0.2975969
0.024585478 0.029937349 0.29761198
0.025259174 0.029980205 0.29762706
0.025932875 0.030023068 0.29764214
0.026569391 0.029744454 0.29668355
0.027240489 0.029787146 0.29669857
0.027911587 0.029829837 0.29671359
0.015098227 0.030650146 0.29927564
0.01577713 0.030693337 0.29929084
0.01645603 0.030736521 0.29930604
0.017134931 0.030779719 0.29932123
0.017810622 0.030500993 0.29836378
0.018486923 0.03054402 0.29837888
0.019163223 0.030587047 0.29839402
0.019839525 0.030630067 0.29840916
0.020502206 0.030350514 0.29745138
0.021175906 0.030393377 0.29746646
0.021849606 0.030436233 0.29748154
0.022523303 0.030479096 0.29749662
0.023197003 0.030521952 0.2975117
0.023870703 0.030564815 0.29752678
0.024544403 0.030607671 0.29754186
0.025218099 0.030650526 0.29755694
0.025857374 0.03036949 0.29659864
0.026528474 0.030412182 0.29661366
0.027199572 0.030454881 0.29662868
0.02787067 0.030497573 0.2966437
0.028541766 0.030540265 0.29665872
0.015056835 0.031325646 0.29920498
0.015735738 0.031368837 0.29922014
0.016416788 0.03108786 0.29826307
0.017093088 0.03113088 0.29827821
0.017769389 0.031173907 0.29829335
0.018445689 0.031216934 0.29830849
0.019113734 0.030935116 0.29735109
0.019787434 0.030977979 0.29736617
0.020461133 0.031020835 0.29738125
0.021134831 0.031063698 0.29739633
0.021808531 0.031106554 0.29741141
0.022482229 0.031149417 0.29742649
0.023132069 0.030866452 0.2964687
0.023803165 0.030909143 0.29648373
0.024474265 0.030951843 0.29649875
0.025145361 0.030994534 0.29651377
0.025816457 0.031037226 0.29652879
0.026487557 0.031079918 0.29654381
0.027158655 0.031122617 0.29655883
0.027829753 0.031165309 0.29657385
0.028500849 0.031208001 0.29658887
0.014346654 0.031631693 0.29814726
0.015022954 0.031674713 0.2981624
0.015699254 0.03171774 0.29817754
0.016375555 0.031760767 0.29819268
0.017051855 0.031803787 0.29820782
0.017725263 0.031519718 0.29725081
0.018398963 0.031562582 0.29726589
0.019072659 0.031605437 0.29728097
0.019746359 0.031648301 0.29729605
0.02040676 0.031363405 0.29633877
0.021077858 0.031406097 0.29635379
0.021748954 0.031448796 0.29636881
0.022420052 0.031491488 0.29638383
0.023091152 0.03153418 0.29639885
0.023762248 0.031576872 0.29641387
0.024433348 0.031619571 0.29642889
0.025104444 0.031662263 0.29644391
0.025741436 0.03137587 0.29548609
0.026409931 0.031418398 0.29550105
0.027078431 0.031460926 0.29551601
0.027746923 0.031503454 0.29553097
0.028415423 0.031545982 0.29554594
0.029083919 0.03158851 0.2955609
0.014315693 0.031975746 0.29710528
0.014989391 0.032018602 0.29712036
0.015663089 0.032061465 0.29713544
0.016336789 0.032104321 0.29715052
0.017010488 0.032147177 0.2971656
0.017684188 0.03219004 0.29718068
0.018357888 0.032232895 0.29719573
0.019023648 0.03194575 0.29623887
0.019694747 0.031988442 0.29625389
0.020365844 0.032031141 0.29626891
0.021036942 0.032073833 0.29628393
0.02170804 0.032116525 0.29629895
0.022358194 0.031828374 0.29534167
0.02302669 0.031870902 0.29535663
0.02369519 0.031913429 0.29537159
0.024363685 0.031955957 0.29538655
0.025032181 0.031998493 0.29540151
0.025700677 0.032041021 0.29541647
0.026369173 0.032083549 0.29543144
0.027037673 0.032126077 0.2954464
0.027706169 0.032168604 0.29546136
0.028374664 0.032211132 0.29547635
0.02904316 0.03225366 0.29549131
0.02971166 0.032296188 0.29550627
0.032991581 0.032175347 0.29460788
0.033657476 0.032217711 0.29462278
0.034323372 0.032260068 0.29463768
0.014285045 0.032314621 0.29606387
0.014948316 0.032688923 0.29705021
0.015622015 0.032731786 0.29706529
0.016298341 0.032442704 0.29610893
0.016969437 0.032485396 0.29612395
0.017640537 0.032528095 0.29613897
0.018311633 0.032570787 0.29615399
0.018982731 0.032613479 0.29616901
0.019653831 0.03265617 0.29618403
0.020311944 0.032365933 0.2952272
0.020980444 0.032408461 0.29524216
0.02164894 0.032450989 0.29525712
0.022317436 0.032493517 0.29527208
0.022985933 0.032536045 0.29528704
0.023654431 0.032578573 0.295302
0.024322927 0.032621101 0.29531699
0.024991423 0.032663628 0.29533195
0.02562613 0.032371908 0.29437461
0.026292026 0.032414272 0.29438955
0.026957922 0.032456636 0.29440445
0.027623817 0.032499 0.29441935
0.028289713 0.032541357 0.29443425
0.028955609 0.032583721 0.29444915
0.029621504 0.032626085 0.29446405
0.0302874 0.032668442 0.29447895
0.030953296 0.032710806 0.29449385
0.031619195 0.03275317 0.29450876
0.032285091 0.032795534 0.29452366
0.032950982 0.032837898 0.29453856
0.033616878 0.032880262 0.29455346
0.034282774 0.032922626 0.29456836
0.034948669 0.03296499 0.29458326
0.035614565 0.033007354 0.29459816
0.036280461 0.03304971 0.29461306
0.036946356 0.033092074 0.29462796
0.01424413 0.032982357 0.29599398
0.014915228 0.033025056 0.296009
0.015586326 0.033067748 0.29602402
0.016257424 0.03311044 0.29603904
0.016928522 0.033153132 0.29605407
0.01759962 0.033195831 0.29606909
0.018270718 0.033238523 0.29608411
0.018934194 0.03294602 0.29512769
0.019602692 0.032988548 0.29514265
0.020271188 0.033031076 0.29515761
0.020939685 0.033073604 0.29517257
0.021608181 0.033116132 0.29518753
0.022276677 0.03315866 0.29520249
0.02292195 0.032865018 0.29424569
0.023587845 0.032907382 0.29426059
0.024253741 0.032949738 0.29427549
0.024919637 0.032992102 0.29429039
0.025585528 0.033034466 0.29430529
0.026251424 0.033076823 0.29432023
0.026917323 0.033119187 0.29433513
0.027583219 0.033161551 0.29435003
0.028249115 0.033203915 0.29436493
0.02891501 0.033246279 0.29437983
0.029580906 0.033288643 0.29439473
0.030246802 0.033331007 0.29440963
0.030912697 0.033373371 0.29442453
0.031578593 0.033415735 0.29443944
0.032244489 0.033458091 0.29445434
0.032910384 0.033500455 0.29446924
0.033576276 0.033542819 0.29448414
0.034242172 0.033585176 0.29449904
0.034908067 0.03362754 0.29451394
0.035573967 0.033669904 0.29452884
0.036239862 0.033712268 0.29454374
0.036905758 0.033754632 0.29455864
0.03757165 0.033796996 0.29457355
0.011539972 0.033143349 0.2948935
0.012208469 0.033185877 0.29490846
0.012876966 0.033228405 0.29492342
0.013545463 0.033270933 0.29493839
0.01421396 0.033313461 0.29495335
0.014882457 0.033355989 0.29496831
0.015550953 0.033398516 0.29498327
0.016219448 0.033441052 0.29499823
0.016887948 0.03348358 0.29501319
0.017556444 0.033526108 0.29502815
0.01822494 0.033568636 0.29504311
0.018893436 0.033611163 0.29505807
0.019561935 0.033653691 0.29507303
0.020230431 0.033696219 0.29508799
0.020883664 0.033400476 0.29413164
0.02154956 0.03344284 0.29414654
0.022215452 0.033485204 0.29416144
0.022881351 0.033527568 0.29417637
0.023547247 0.033569932 0.29419127
0.024213143 0.033612296 0.29420617
0.024879038 0.03365466 0.29422107
0.02554493 0.033697024 0.29423597
0.026210826 0.033739381 0.29425088
0.026876725 0.033781745 0.29426578
0.027542621 0.033824109 0.29428071
0.028208517 0.033866465 0.29429561
0.028874412 0.033908829 0.29431051
0.029540308 0.033951193 0.29432541
0.030206203 0.033993557 0.29434031
0.030872099 0.034035921 0.29435521
0.031537995 0.034078285 0.29437011
0.03220389 0.034120649 0.29438502
0.032869786 0.034163013 0.29439992
0.033535678 0.034205377 0.29441482
0.034201574 0.034247734 0.29442972
0.034867469 0.034290098 0.29444462
0.035533369 0.034332462 0.29445952
0.036199264 0.034374818 0.29447442
0.03686516 0.034417182 0.29448932
0.037531052 0.034459546 0.29450423
0.038196947 0.03450191 0.29451913
0.011520525 0.03346996 0.29385367
0.012167713 0.033851027 0.29483888
0.012836209 0.033893555 0.29485384
0.013504706 0.033936083 0.2948688
0.014173202 0.033978611 0.29488376
0.0148417 0.034021139 0.29489872
0.015510196 0.034063667 0.29491371
0.016178692 0.034106195 0.29492867
0.01684719 0.034148723 0.29494363
0.017515685 0.034191251 0.29495859
0.018184185 0.034233779 0.29497355
0.018845377 0.033935949 0.29401761
0.019511273 0.033978313 0.29403251
0.020177169 0.034020677 0.29404742
0.020843064 0.034063041 0.29406232
0.02150896 0.034105405 0.29407722
0.022174854 0.034147762 0.29409212
0.022840753 0.034190126 0.29410702
0.023506649 0.03423249 0.29412192
0.024172544 0.034274846 0.29413685
0.024807725 0.033975363 0.29318032
0.025471019 0.034017563 0.29319516
0.026134314 0.034059763 0.29321003
0.026836127 0.034444302 0.29419646
0.027502023 0.034486666 0.29421136
0.028167918 0.03452903 0.29422629
0.028833814 0.034571394 0.29424119
0.02949971 0.034613758 0.29425609
0.030165605 0.034656115 0.29427099
0.030831501 0.034698479 0.29428589
0.031497397 0.034740843 0.29430079
0.032163292 0.034783199 0.2943157
0.032829188 0.034825563 0.2943306
0.03349508 0.034867927 0.2943455
0.034160975 0.034910291 0.2943604
0.034826871 0.034952655 0.2943753
0.03549277 0.034995019 0.2943902
0.036158666 0.035037383 0.2944051
0.036824562 0.035079747 0.29442
0.037490454 0.035122111 0.29443491
0.038156349 0.035164468 0.29444981
0.011479925 0.03413251 0.29378435
0.012145821 0.034174874 0.29379925
0.012811717 0.034217238 0.29381418
0.013477613 0.034259602 0.29382908
0.014143508 0.034301966 0.29384398
0.014809404 0.03434433 0.29385889
0.015475299 0.034386694 0.29387379
0.016141195 0.034429058 0.29388869
0.01680709 0.034471415 0.29390359
0.017472986 0.034513779 0.29391849
0.018138882 0.034556143 0.29393339
0.018804777 0.0345985 0.29394829
0.019470673 0.034640864 0.29396319
0.020136569 0.034683228 0.2939781
0.020802464 0.034725592 0.293993
0.021450812 0.03442435 0.29303706
0.022114106 0.03446655 0.2930519
0.022777401 0.034508742 0.29306674
0.023440694 0.034550935 0.29308158
0.024103992 0.034593135 0.29309642
0.024767285 0.034635335 0.29311126
0.025430579 0.034677535 0.29312611
0.026093874 0.034719728 0.29314095
0.02675717 0.034761921 0.29315579
0.027420463 0.034804121 0.29317063
0.02812732 0.035191581 0.29415694
0.028793216 0.035233945 0.29417187
0.029459111 0.035276309 0.29418677
0.030125007 0.035318673 0.29420167
0.030790903 0.035361037 0.29421657
0.031456798 0.035403401 0.29423147
0.032122694 0.035445757 0.29424638
0.03278859 0.035488114 0.29426128
0.033454482 0.035530478 0.29427618
0.034120377 0.035572842 0.29429108
0.034786273 0.035615206 0.29430598
0.035452172 0.03565757 0.29432088
0.036118068 0.035699934 0.29433578
0.036783963 0.035742298 0.29435068
0.037449855 0.035784662 0.29436558
0.038115751 0.035827026 0.29438049
0.011439327 0.034795068 0.29371503
0.012105223 0.034837432 0.29372993
0.012771118 0.034879789 0.29374483
0.013437014 0.034922153 0.29375976
0.01410291 0.034964517 0.29377466
0.014768805 0.035006881 0.29378957
0.015434701 0.035049245 0.29380447
0.016100597 0.035091609 0.29381937
0.016766492 0.035133973 0.29383427
0.017432388 0.035176337 0.29384917
0.018098284 0.035218701 0.29386407
0.018764179 0.035261057 0.29387897
0.019430075 0.035303421 0.29389387
0.020083783 0.034999922 0.29293829
0.020747077 0.035042115 0.29295313
0.021410372 0.035084307 0.29296798
0.022073666 0.035126507 0.29298282
0.022736961 0.035168707 0.29299766
0.023400255 0.035210907 0.29301253
0.024063552 0.0352531 0.29302737
0.024726845 0.0352953 0.29304221
0.025390139 0.035337493 0.29305705
0.026053434 0.035379693 0.29307193
0.02671673 0.035421893 0.29308677
0.027380021 0.035464093 0.29310161
0.028043317 0.035506278 0.29311645
0.028752614 0.035896495 0.29410252
0.029418509 0.035938859 0.29411745
0.030084405 0.035981223 0.29413235
0.030750301 0.036023587 0.29414725
0.0314162 0.036065951 0.29416215
0.032082096 0.036108315 0.29417706
0.032747988 0.036150679 0.29419196
0.033413883 0.036193043 0.29420686
0.034079779 0.036235407 0.29422176
0.034745675 0.036277756 0.29423666
0.03541157 0.03632012 0.29425156
0.036077466 0.036362484 0.29426646
0.036743362 0.036404848 0.29428136
0.037409257 0.036447212 0.29429626
0.038075153 0.036489576 0.29431117
0.011398728 0.035457626 0.29364571
0.012064624 0.03549999 0.29366061
0.012730519 0.035542354 0.29367551
0.013396416 0.035584718 0.29369041
0.014062311 0.035627082 0.29370534
0.014728206 0.035669446 0.29372025
0.015394102 0.03571181 0.29373515
0.016059998 0.035754174 0.29375005
0.016725894 0.035796538 0.29376495
0.017390164 0.035491094 0.29280984
0.018053459 0.035533294 0.29282469
0.018716753 0.035575494 0.29283956
0.019380048 0.035617694 0.2928544
0.020043343 0.035659894 0.29286924
0.020706637 0.03570208 0.29288408
0.021369932 0.03574428 0.29289895
0.022013392 0.035437517 0.29194337
0.022674087 0.035479546 0.29195818
0.023334779 0.035521582 0.29197297
0.02399547 0.03556361 0.29198775
0.024686405 0.035955265 0.29297316
0.025349697 0.035997465 0.292988
0.026012992 0.036039665 0.29300284
0.026676288 0.036081865 0.29301769
0.027339583 0.036124051 0.29303253
0.028002879 0.036166251 0.29304737
0.02866617 0.036208451 0.29306224
0.029377911 0.036601424 0.2940481
0.030043807 0.036643788 0.29406303
0.030709703 0.036686152 0.29407793
0.031375602 0.036728516 0.29409283
0.032041498 0.03677088 0.29410774
0.032707389 0.036813229 0.29412264
0.033373285 0.036855593 0.29413754
0.034039181 0.036897957 0.29415244
0.034705076 0.036940321 0.29416734
0.035370972 0.036982685 0.29418224
0.036036868 0.037025049 0.29419714
0.036702763 0.037067413 0.29421204
0.037368659 0.037109777 0.29422694
0.038034555 0.037152141 0.29424185
0.01135813 0.036120176 0.29357639
0.012024025 0.03616254 0.29359129
0.012706662 0.035855681 0.29263687
0.013369957 0.035897881 0.29265174
0.014033251 0.035940081 0.29266658
0.014696546 0.035982281 0.29268143
0.01535984 0.036024481 0.29269627
0.016023135 0.036066666 0.29271114
0.016686428 0.036108866 0.29272598
0.017349724 0.036151066 0.29274082
0.018013017 0.036193267 0.29275566
0.018676313 0.036235467 0.2927705
0.019339608 0.036277652 0.29278535
0.020002902 0.036319852 0.29280019
0.020666195 0.036362052 0.29281503
0.021312419 0.036052868 0.29185981
0.021973111 0.036094896 0.29187462
0.022633806 0.036136925 0.2918894
0.023294497 0.036178961 0.29190418
0.023955189 0.03622099 0.29191899
0.024615884 0.036263026 0.29193377
0.025276579 0.036305055 0.29194856
0.025972553 0.036699638 0.29293379
0.026635848 0.036741823 0.29294866
0.027299142 0.036784023 0.2929635
0.027962437 0.036826223 0.29297835
0.02862573 0.036868423 0.29299319
0.029289024 0.036910623 0.29300803
0.030003209 0.037306339 0.29399368
0.030669104 0.037348703 0.29400861
0.031335004 0.037391067 0.29402351
0.032000899 0.037433431 0.29403841
0.032666791 0.037475795 0.29405332
0.033332687 0.037518159 0.29406822
0.033998583 0.037560523 0.29408312
0.034664478 0.037602872 0.29409802
0.035330374 0.037645236 0.29411292
0.035996269 0.0376876 0.29412782
0.036662165 0.037729964 0.29414272
0.037328061 0.037772328 0.29415762
0.037993956 0.037814692 0.29417253
0.012666222 0.036515653 0.29256785
0.013329516 0.036557853 0.29258269
0.013992811 0.036600038 0.29259753
0.014656106 0.036642238 0.29261237
0.0153194 0.036684439 0.29262722
0.015982695 0.036726639 0.29264206
0.016645988 0.036768839 0.2926569
0.017309284 0.036811039 0.29267174
0.017972577 0.036853224 0.29268658
0.018635873 0.036895424 0.29270145
0.019299168 0.036937624 0.29271629
0.019962462 0.036979824 0.29273114
0.020611443 0.036668211 0.29177624
0.021272138 0.036710247 0.29179102
0.021932829 0.036752276 0.29180583
0.022593524 0.036794305 0.29182062
0.023254216 0.036836341 0.2918354
0.023914907 0.03687837 0.29185021
0.024575602 0.036920406 0.29186499
0.025236297 0.036962435 0.29187977
0.025896989 0.037004463 0.29189456
0.026595408 0.037401795 0.29287958
0.027258702 0.037443995 0.29289442
0.027921997 0.037486181 0.29290926
0.028585291 0.037528381 0.29292414
0.029248584 0.037570581 0.29293898
0.02996261 0.037968904 0.29392436
0.030628506 0.038011268 0.29393926
0.031294405 0.038053617 0.29395419
0.031960301 0.038095981 0.29396909
0.032626193 0.038138345 0.293984
0.033292089 0.038180709 0.2939989
0.033957984 0.038223073 0.2940138
0.03462388 0.038265437 0.2940287
0.035289776 0.038307801 0.2940436
0.035955671 0.038350165 0.2940585
0.036621567 0.038392529 0.2940734
0.037366804 0.038792811 0.29505944
0.038035303 0.038835339 0.2950744
0.012625782 0.037175611 0.29249877
0.013289076 0.037217811 0.29251364
0.013952371 0.037260011 0.29252848
0.014615666 0.037302211 0.29254332
0.01527896 0.037344411 0.29255816
0.015942255 0.037386596 0.29257303
0.016605549 0.037428796 0.29258788
0.017268844 0.037470996 0.29260272
0.017932137 0.037513196 0.29261756
0.018595433 0.037555397 0.2926324
0.019249775 0.037241526 0.29167789
0.019910468 0.037283562 0.29169267
0.020571161 0.037325591 0.29170746
0.021231856 0.037367627 0.29172227
0.021892548 0.037409656 0.29173705
0.022553243 0.037451684 0.29175183
0.023213934 0.037493721 0.29176664
0.023874626 0.037535749 0.29178143
0.024535321 0.037577786 0.29179621
0.025196016 0.037619814 0.29181099
0.025856707 0.037661843 0.29182577
0.026554968 0.038061753 0.29281056
0.027218262 0.038103953 0.2928254
0.027881557 0.038146153 0.29284024
0.028544851 0.038188353 0.29285508
0.029208144 0.038230553 0.29286993
0.02987144 0.038272738 0.29288477
0.030534733 0.038314939 0.29289961
0.03119803 0.038357139 0.29291445
0.031861328 0.038399339 0.29292929
0.032524619 0.038441539 0.29294413
0.033251487 0.038843259 0.29392958
0.033917382 0.038885623 0.29394448
0.034583278 0.038927987 0.29395938
0.035249177 0.038970351 0.29397428
0.035915073 0.039012715 0.29398918
0.036580969 0.039055079 0.29400408
0.037326045 0.039457954 0.29498988
0.012585342 0.037835583 0.29242975
0.013248636 0.037877783 0.29244459
0.013911931 0.037919983 0.29245943
0.014575226 0.037962183 0.29247427
0.01523852 0.038004383 0.29248911
0.015901815 0.038046569 0.29250395
0.016565109 0.038088769 0.29251879
0.017228404 0.038130969 0.29253364
0.017888106 0.037814848 0.29157954
0.018548798 0.037856877 0.29159433
0.019209493 0.037898906 0.29160911
0.019870184 0.037940942 0.29162389
0.020530879 0.03798297 0.29163867
0.021191575 0.038025007 0.29165348
0.021852266 0.038067035 0.29166827
0.022512961 0.038109064 0.29168305
0.023173653 0.0381511 0.29169786
0.023834344 0.038193129 0.29171264
0.024495039 0.038235165 0.29172742
0.025155734 0.038277194 0.29174221
0.025816426 0.038319223 0.29175699
0.026514528 0.038721725 0.29274148
0.027177822 0.038763925 0.29275632
0.027841117 0.038806126 0.29277116
0.028504411 0.038848326 0.29278603
0.029167704 0.038890526 0.29280087
0.029881414 0.039294004 0.29378572
0.03054731 0.039336368 0.29380062
0.03115759 0.039017111 0.29284543
0.031820886 0.039059311 0.29286027
0.032484181 0.039101511 0.29287511
0.033147473 0.039143696 0.29288995
0.033876784 0.039548188 0.29387516
0.03454268 0.039590538 0.29389006
0.035208579 0.039632902 0.29390496
0.035874475 0.039675266 0.29391986
0.013222971 0.038177997 0.29140726
0.013871491 0.038579941 0.29239038
0.014534786 0.038622141 0.29240522
0.015205051 0.03830409 0.29145163
0.015861375 0.038706541 0.29243493
0.016526438 0.038388155 0.2914812
0.017187132 0.038430184 0.29149598
0.017847825 0.03847222 0.29151076
0.018508518 0.038514249 0.29152554
0.019169211 0.038556278 0.29154032
0.019829905 0.038598314 0.29155511
0.020490598 0.038640343 0.29156992
0.021151293 0.038682379 0.2915847
0.021811984 0.038724408 0.29159948
0.02247268 0.038766436 0.29161429
0.023133371 0.038808472 0.29162908
0.023794062 0.038850501 0.29164386
0.024454758 0.038892537 0.29165864
0.025115453 0.038934566 0.29167342
0.025810793 0.039339498 0.29265758
0.015164769 0.038961478 0.29138285
0.015825462 0.039003506 0.29139763
0.016486157 0.039045542 0.29141241
