# .PCD v0.7 - Point Cloud Data file format
VERSION 0.7
FIELDS x y z
SIZE 4 4 4
TYPE F F F
COUNT 1 1 1
WIDTH 571
HEIGHT 1
VIEWPOINT 0 0 0 1 0 0 0
POINTS 571
DATA ascii
0.075746298 0.0073385313 0.27359515
0.076252207 0.0072986633 0.2740562
0.076758116 0.0072587952 0.2745173
0.077264026 0.0072189271 0.27497837
0.076295763 0.0076082721 0.27138418
0.076038137 0.0078157485 0.27249661
0.076542124 0.0077760294 0.27295592
0.077046111 0.0077363178 0.27341527
0.077550098 0.0076965988 0.27387458
0.078054085 0.0076568872 0.27433389
0.077808037 0.0078634471 0.27545682
0.078313947 0.007823579 0.27591789
0.078819856 0.007783711 0.27637899
0.079325765 0.0077438504 0.27684003
0.077095002 0.0080376714 0.27074829
0.076835632 0.0082478821 0.27185899
0.077337697 0.0082083195 0.27231658
0.077839762 0.008168757 0.27277416
0.078341812 0.0081291944 0.27323171
0.078092039 0.00833866 0.27435121
0.078596026 0.0082989484 0.27481055
0.079100013 0.0082592294 0.27526987
0.079604 0.0082195178 0.27572918
0.079363868 0.0084282234 0.27685744
0.079869777 0.0083883554 0.27731851
0.080375686 0.0083484873 0.27777958
0.080143243 0.008556582 0.27891484
0.079914644 0.0087643862 0.28005362
0.076897532 0.0085403696 0.26920414
0.077395752 0.0085011125 0.26965821
0.077132657 0.0087142438 0.27076548
0.0776328 0.0086748302 0.27122128
0.078132942 0.0086354166 0.27167711
0.077877566 0.0088479295 0.27279139
0.078379631 0.008808367 0.27324897
0.078881681 0.0087688044 0.27370653
0.079383746 0.0087292418 0.27416411
0.079885811 0.0086896792 0.27462167
0.079641938 0.008901298 0.27574649
0.080145925 0.008861579 0.27620581
0.080649912 0.0088218674 0.27666515
0.081153899 0.0087821484 0.27712446
0.080919683 0.0089929998 0.27825803
0.080689311 0.0092035457 0.2793951
0.076211154 0.0090763718 0.26721454
0.076707453 0.0090372637 0.26766685
0.076935053 0.0092143416 0.26922125
0.077433258 0.0091750771 0.26967531
0.077931479 0.00913582 0.27012938
0.077670455 0.0093514025 0.27123845
0.078170598 0.0093119889 0.2716943
0.07867074 0.0092725754 0.2721501
0.078417435 0.0094875395 0.2732662
0.0789195 0.0094479769 0.27372378
0.07942155 0.0094084144 0.27418137
0.079923615 0.0093688518 0.27463892
0.08042568 0.0093292892 0.27509648
0.080183879 0.0095433593 0.27622312
0.080687866 0.0095036402 0.27668244
0.081191853 0.0094639286 0.27714175
0.080957785 0.0096773803 0.2782754
0.081463695 0.0096375123 0.27873647
0.081235394 0.0098505095 0.27987537
0.074263364 0.009904176 0.26542234
0.074759662 0.0098650679 0.26587462
0.075255945 0.0098259524 0.26632696
0.076248527 0.0097477362 0.26723158
0.076744825 0.0097086281 0.26768389
0.077241108 0.00966952 0.2681362
0.077737406 0.0096304119 0.26858851
0.078233704 0.0095913038 0.26904082
0.077968985 0.0098097846 0.27014649
0.078467205 0.0097705275 0.27060056
0.078965425 0.0097312629 0.2710546
0.079463646 0.0096920058 0.27150866
0.079208538 0.0099097341 0.27262309
0.079708681 0.0098703206 0.27307892
0.080208808 0.0098309144 0.27353472
0.080708951 0.0097915009 0.27399054
0.080463484 0.010008462 0.27511373
0.080965549 0.0099688992 0.27557129
0.081467614 0.0099293366 0.27602887
0.081969678 0.009889774 0.27648646
0.081733793 0.01010599 0.27761841
0.08223778 0.010066271 0.27807772
0.082007706 0.010282025 0.27921492
0.082513615 0.010242164 0.27967602
0.073804438 0.010614648 0.26498705
0.074300736 0.01057554 0.26543939
0.074797019 0.010536432 0.26589167
0.076562032 0.01019711 0.2661534
0.077056408 0.010158151 0.26660398
0.077550769 0.010119192 0.26705453
0.078045145 0.010080241 0.26750508
0.078539506 0.010041282 0.26795566
0.079033881 0.010002322 0.26840621
0.079528242 0.0099633634 0.26885676
0.079263657 0.010184459 0.26996249
0.079759941 0.010145351 0.2704148
0.080256239 0.010106243 0.27086711
0.080752537 0.010067128 0.27131942
0.080497593 0.010287456 0.27243391
0.080995798 0.010248199 0.27288797
0.081494018 0.010208935 0.27334204
0.081246763 0.01042866 0.27446353
0.081746891 0.010389246 0.27491936
0.082247034 0.01034984 0.27537519
0.082747176 0.010310426 0.27583098
0.083247319 0.010271013 0.27628681
0.083011612 0.010489821 0.27741882
0.083513677 0.010450259 0.27787638
0.083283707 0.01066862 0.27901369
0.07384181 0.011286013 0.2650041
0.074338108 0.011246905 0.26545644
0.075610518 0.010943785 0.26526928
0.076104894 0.010904834 0.26571983
0.07659927 0.010865875 0.26617038
0.077093631 0.010826916 0.26662093
0.077587992 0.010787956 0.26707152
0.078082368 0.010749005 0.26752207
0.079341292 0.010446951 0.26732266
0.079833731 0.010408141 0.26777148
0.079565465 0.010632135 0.26887375
0.080059841 0.010593176 0.2693243
0.080554217 0.010554217 0.26977485
0.081048578 0.010515265 0.27022541
0.081542954 0.010476306 0.27067596
0.082037315 0.010437347 0.27112651
0.08178249 0.010660276 0.27224109
0.082278773 0.010621168 0.2726934
0.082775071 0.01058206 0.27314571
0.082527965 0.010804385 0.27426726
0.083026186 0.01076512 0.27472132
0.083524406 0.010725871 0.27517539
0.084022611 0.010686606 0.27562946
0.084520832 0.010647342 0.27608353
0.084285259 0.010868765 0.27721563
0.073670268 0.011768378 0.263484
0.074164644 0.011729419 0.26393458
0.07465902 0.011690468 0.26438513
0.075153381 0.011651509 0.26483572
0.075647756 0.011612549 0.26528627
0.076142117 0.011573598 0.26573682
0.076636493 0.011534639 0.26618737
0.077130854 0.01149568 0.26663792
0.078393474 0.01119072 0.26644194
0.078885928 0.011151917 0.26689076
0.079378366 0.011113115 0.26733959
0.07987082 0.011074305 0.26778838
0.080363259 0.011035502 0.26823717
0.080855697 0.010996699 0.268686
0.081348151 0.010957889 0.26913479
0.081840605 0.010919087 0.26958358
0.081580177 0.01114507 0.27069294
0.082074538 0.011106111 0.2711435
0.082568914 0.011067159 0.27159405
0.083063275 0.0110282 0.27204463
0.082812443 0.011253431 0.27316275
0.083308727 0.011214316 0.27361506
0.083805025 0.011175208 0.27406737
0.084301323 0.0111361 0.27451968
0.084797606 0.011096992 0.27497202
0.085293904 0.011057884 0.2754243
0.085056558 0.011282057 0.2765547
0.085554779 0.011242792 0.27700877
0.086052999 0.011203527 0.27746284
0.073998556 0.012206137 0.26241964
0.074490994 0.012167327 0.26286843
0.074983448 0.012128524 0.26331723
0.074696243 0.012359224 0.26440212
0.075190604 0.012320273 0.26485267
0.07568498 0.012281314 0.26530322
0.07617934 0.012242354 0.26575381
0.077445671 0.011934496 0.26556128
0.07793811 0.011895694 0.26601008
0.078430563 0.011856884 0.26645887
0.078923002 0.011818081 0.26690769
0.079415455 0.011779279 0.26735649
0.080670238 0.011472322 0.26715344
0.081160754 0.011433668 0.26760048
0.081651285 0.011395015 0.26804754
0.081385225 0.011624053 0.26915169
0.081877679 0.01158525 0.26960051
0.082370117 0.011546448 0.2700493
0.082862571 0.011507638 0.27049813
0.08335501 0.011468835 0.27094692
0.083100513 0.011696957 0.27206159
0.083594874 0.011658005 0.27251217
0.084089249 0.011619046 0.27296272
0.08458361 0.011580087 0.27341327
0.085077971 0.011541136 0.27386385
0.085572347 0.011502177 0.2743144
0.086066723 0.011463217 0.27476496
0.087294579 0.011158392 0.27453735
0.087787017 0.011119589 0.27498615
0.088279456 0.011080779 0.27543497
0.07365182 0.01248116 0.25939357
0.074629024 0.012404159 0.26028419
0.074528083 0.012833491 0.26288533
0.075020522 0.012794688 0.26333416
0.075512975 0.012755886 0.26378295
0.076005414 0.012717076 0.26423174
0.076497868 0.012678273 0.26468056
0.076990306 0.012639463 0.26512939
0.07748276 0.01260066 0.26557818
0.077975199 0.012561858 0.26602697
0.079235613 0.012251846 0.26582915
0.07972613 0.012213193 0.26627618
0.080216646 0.012174539 0.26672322
0.080707178 0.012135886 0.26717028
0.081197694 0.012097232 0.26761734
0.08168821 0.012058578 0.26806438
0.082178742 0.012019925 0.26851144
0.082669258 0.011981271 0.26895851
0.083159789 0.011942618 0.26940554
0.082899645 0.012173802 0.27051502
0.083392099 0.012134999 0.27096385
0.083884537 0.012096196 0.27141264
0.084376991 0.012057386 0.27186143
0.084869429 0.012018584 0.27231026
0.085361868 0.011979774 0.27275905
0.085854322 0.011940971 0.27320784
0.08634676 0.011902168 0.27365667
0.086839214 0.011863358 0.27410549
0.088064998 0.011556081 0.27387607
0.088555515 0.011517428 0.27432311
0.089046031 0.011478774 0.27477017
0.089536563 0.011440121 0.27521724
0.090027079 0.011401467 0.27566427
0.073200017 0.013180628 0.25896508
0.073688611 0.013142124 0.25941035
0.074665815 0.013065122 0.26030093
0.075154409 0.013026617 0.26074624
0.074857861 0.013263293 0.26182252
0.075348377 0.013224639 0.26226956
0.075838894 0.013185985 0.26271659
0.07555005 0.01342205 0.26379988
0.076042503 0.01338324 0.26424867
0.076534942 0.013344437 0.26469749
0.077027395 0.013305634 0.26514629
0.078291506 0.012992717 0.26495188
0.078782022 0.012954064 0.26539892
0.079272553 0.01291541 0.26584595
0.07976307 0.012876756 0.26629302
0.081017584 0.012564592 0.26608986
0.081506178 0.012526087 0.26653513
0.081994772 0.01248759 0.26698044
0.082483381 0.012449086 0.26742572
0.082971975 0.012410581 0.26787102
0.082706198 0.012644835 0.26897532
0.083196715 0.012606181 0.26942238
0.083687246 0.012567528 0.26986945
0.084177762 0.012528874 0.27031648
0.083921626 0.01276236 0.27142954
0.084414065 0.01272355 0.27187836
0.084906518 0.012684748 0.27232715
0.085398957 0.012645938 0.27277595
0.085891396 0.012607135 0.27322477
0.087120891 0.012296952 0.27299881
0.087611407 0.012258299 0.27344584
0.088101938 0.012219645 0.27389291
0.088592455 0.012180991 0.27433997
0.089082971 0.012142338 0.27478701
0.089573503 0.012103684 0.27523404
0.090789542 0.011794552 0.2749958
0.074031413 0.013563044 0.25835961
0.073725402 0.01380308 0.25942713
0.074214011 0.013764575 0.25987244
0.074702606 0.013726078 0.26031774
0.0751912 0.013687573 0.26076305
0.074894786 0.013926849 0.26183936
0.075385317 0.013888195 0.26228642
0.075875834 0.013849542 0.26273346
0.076366365 0.013810888 0.26318049
0.076856881 0.013772234 0.26362756
0.077347398 0.013733581 0.26407462
0.077837914 0.013694927 0.26452166
0.078328446 0.013656273 0.26496872
0.078818962 0.01361762 0.26541579
0.080077186 0.01330255 0.26521602
0.08056578 0.013264053 0.2656613
0.081054375 0.013225548 0.26610661
0.081542969 0.013187043 0.26655191
0.082791552 0.012872733 0.26634341
0.082520172 0.013110042 0.26744252
0.083008766 0.013071537 0.26788783
0.08349736 0.01303304 0.26833311
0.083985955 0.012994535 0.26877841
0.083724171 0.013231084 0.26988629
0.084214702 0.01319243 0.27033335
0.084705219 0.013153777 0.27078038
0.085195735 0.013115123 0.27122745
0.085686266 0.013076469 0.27167451
0.086176783 0.013037816 0.27212155
0.086667299 0.012999162 0.27256858
0.087157831 0.012960508 0.27301565
0.087648347 0.012921855 0.27346271
0.088871941 0.012609512 0.27323139
0.089360535 0.012571014 0.27367669
0.089119911 0.012805894 0.27480385
0.090337738 0.012494005 0.27456731
0.090826333 0.012455508 0.27501258
0.091314927 0.012417004 0.27545789
0.091803521 0.012378499 0.27590317
0.074068069 0.0142214 0.2583763
0.074554741 0.014183052 0.25881985
0.074250802 0.014425531 0.25988922
0.074739397 0.014387034 0.26033449
0.075227991 0.014348529 0.2607798
0.075716585 0.014310025 0.2612251
0.075422242 0.014551759 0.26230323
0.075912774 0.014513105 0.2627503
0.07640329 0.014474452 0.26319736
0.076893806 0.014435798 0.2636444
0.077384338 0.014397144 0.26409146
0.077874854 0.014358491 0.26453853
0.079136774 0.014040515 0.26434219
0.079625368 0.01400201 0.2647875
0.080113977 0.013963506 0.2652328
0.080602571 0.013925008 0.26567811
0.08185485 0.013607793 0.26547304
0.082341522 0.013569444 0.26591659
0.082828194 0.013531089 0.2663601
0.083314881 0.013492741 0.26680368
0.083801553 0.013454393 0.2672472
0.084288225 0.013416037 0.26769078
0.08402276 0.013655491 0.26879519
0.084511355 0.013616987 0.2692405
0.084999949 0.013578489 0.2696858
0.085488543 0.013539985 0.27013108
0.085232675 0.013778687 0.27124429
0.085723191 0.013740033 0.27169132
0.086213723 0.013701379 0.27213839
0.086704239 0.013662726 0.27258545
0.087931529 0.013347477 0.27235758
0.088420138 0.013308972 0.27280289
0.088908732 0.013270468 0.2732482
0.089397326 0.01323197 0.27369347
0.08988592 0.013193466 0.27413878
0.090374529 0.013154961 0.27458405
0.090863124 0.013116464 0.27502936
0.091351718 0.013077959 0.27547467
0.073618039 0.014918111 0.25794947
0.074104711 0.014879763 0.25839302
0.074591383 0.014841415 0.25883657
0.074287593 0.015086494 0.25990599
0.075564742 0.014764711 0.25972366
0.075264782 0.015009493 0.26079661
0.075753391 0.014970988 0.26124188
0.076241985 0.014932491 0.26168719
0.075949699 0.015176661 0.26276714
0.077219173 0.014855482 0.26257777
0.077707767 0.014816985 0.26302308
0.078196377 0.01477848 0.26346838
0.078684971 0.014739975 0.26391369
0.079173565 0.014701478 0.264359
0.079662174 0.014662974 0.26480427
0.080150768 0.014624469 0.26524958
0.08140482 0.014304504 0.26504621
0.081891507 0.014266156 0.26548976
0.082378179 0.014227808 0.26593328
0.082864851 0.014189452 0.26637685
0.083351523 0.014151104 0.26682037
0.083838195 0.014112756 0.26726395
0.084324867 0.0140744 0.26770747
0.084811538 0.014036052 0.26815102
0.08529821 0.013997704 0.26859456
0.08503674 0.014239453 0.26970255
0.085525334 0.014200948 0.27014786
0.086013943 0.014162444 0.27059317
0.086502537 0.014123946 0.27103847
0.086991131 0.014085442 0.27148378
0.087479725 0.014046937 0.27192906
0.08796832 0.01400844 0.27237436
0.088456929 0.013969935 0.27281964
0.088945523 0.013931431 0.27326494
0.089434117 0.013892934 0.27371025
0.089922726 0.013854429 0.27415556
0.09041132 0.013815925 0.27460086
0.090899915 0.013777427 0.27504617
0.091388509 0.013738923 0.27549145
0.07316801 0.015614823 0.25752264
0.073654681 0.015576474 0.25796619
0.074141353 0.015538119 0.25840974
0.074628025 0.015499771 0.25885329
0.075114697 0.015461423 0.25929683
0.075601384 0.015423067 0.25974035
0.075301573 0.015670441 0.26081336
0.075790167 0.015631936 0.26125866
0.076278776 0.015593439 0.26170397
0.07676737 0.015554935 0.26214927
0.077255964 0.01551643 0.26259458
0.077744573 0.015477933 0.26303986
0.078233168 0.015439428 0.26348516
0.078721762 0.015400924 0.26393047
0.079210356 0.015362427 0.26437575
0.07969895 0.015323922 0.26482105
0.080187559 0.015285417 0.26526636
0.081441477 0.014962859 0.26506293
0.081928149 0.014924511 0.26550645
0.082414821 0.014886163 0.26595002
0.082901493 0.014847808 0.26639354
0.083388165 0.014809459 0.26683712
0.083874837 0.014771111 0.26728064
0.084361523 0.014732756 0.26772419
0.084848195 0.014694408 0.26816773
0.085334867 0.014656059 0.26861128
0.085821539 0.014617711 0.26905483
0.085562125 0.014861897 0.27016464
0.086050734 0.014823392 0.27060995
0.086539328 0.014784895 0.27105522
0.087027922 0.01474639 0.27150053
0.087516516 0.014707886 0.27194583
0.088005126 0.014669389 0.27239114
0.08849372 0.014630884 0.27283645
0.088982314 0.014592379 0.27328175
0.089470908 0.014553882 0.27372703
0.089959517 0.014515378 0.27417234
0.090448111 0.014476873 0.27461761
0.090936705 0.014438376 0.27506292
0.073204666 0.016273178 0.25753936
0.073691338 0.016234823 0.25798291
0.07417801 0.016196474 0.25842643
0.074664682 0.016158126 0.25887001
0.075151354 0.016119778 0.25931352
0.075638026 0.016081423 0.2597571
0.075338364 0.016331404 0.26083016
0.075826973 0.0162929 0.26127547
0.076315567 0.016254403 0.26172075
0.076804161 0.016215898 0.26216605
0.077292755 0.016177393 0.26261133
0.077781349 0.016138896 0.26305664
0.078269958 0.016100392 0.26350194
0.078758553 0.016061887 0.26394725
0.079247147 0.01602339 0.26439255
0.079735756 0.015984885 0.26483786
0.08022435 0.015946381 0.26528314
0.081478119 0.015621215 0.26507962
0.081964791 0.015582867 0.2655232
0.083212823 0.015258141 0.2653144
0.083697572 0.015219942 0.26575619
0.084182322 0.015181743 0.26619798
0.084667072 0.015143543 0.26663977
0.084398165 0.015391111 0.26774091
0.084884837 0.015352763 0.26818445
0.085371509 0.015314415 0.268628
0.085858181 0.015276067 0.26907152
0.086344868 0.015237711 0.2695151
0.086087525 0.015484355 0.27062672
0.089996308 0.015176341 0.27418911
0.090484902 0.015137836 0.27463442
0.090973496 0.015099339 0.27507973
0.07372798 0.016893171 0.2579996
0.074214652 0.016854823 0.25844318
0.074701324 0.016816474 0.25888669
0.075187996 0.016778126 0.25933027
0.07488656 0.017030865 0.26040164
0.075375155 0.01699236 0.26084691
0.075863749 0.016953856 0.26129222
0.076352358 0.016915359 0.26173753
0.076840952 0.016876854 0.26218283
0.077329546 0.016838349 0.26262814
0.077041566 0.017090037 0.26371181
0.077532083 0.017051384 0.26415884
0.078795344 0.016722843 0.26396403
0.079283938 0.016684346 0.2644093
0.079772532 0.016645841 0.26485461
0.080261141 0.016607337 0.26529992
0.081514761 0.016279563 0.26509637
0.082001433 0.016241215 0.26553988
0.083249331 0.015913889 0.26533103
0.08373408 0.01587569 0.26577282
0.08421883 0.015837491 0.26621461
0.08470358 0.015799291 0.2666564
0.085188329 0.015761092 0.26709822
0.085673079 0.015722893 0.26754001
0.086157829 0.015684694 0.2679818
0.090033099 0.015837297 0.27420589
0.090521693 0.015798792 0.27465117
0.073764622 0.017551534 0.25801635
0.073457554 0.017807335 0.2590825
0.073946148 0.01776883 0.2595278
0.075411946 0.017653324 0.26086372
0.075900555 0.017614819 0.26130903
0.076389149 0.017576322 0.2617543
0.076097459 0.017830908 0.26283455
0.076587975 0.017792255 0.26328158
0.077078491 0.017753601 0.26372862
0.077569023 0.017714947 0.26417568
0.078059539 0.017676294 0.26462275
0.079320729 0.017345309 0.26442611
0.08203809 0.016899578 0.2655566
0.083285823 0.016569644 0.26534769
0.083770573 0.016531445 0.26578948
0.084255338 0.016493246 0.26623127
0.084740072 0.016455047 0.26667309
0.085224837 0.016416848 0.26711488
0.085709587 0.016378649 0.26755667
0.086194336 0.016340449 0.26799846
0.072517157 0.018545292 0.25820869
0.073005751 0.018506788 0.258654
0.073982954 0.018429786 0.25954461
0.074471548 0.018391281 0.25998989
0.075937346 0.018275775 0.26132578
0.075643867 0.018533118 0.26240432
0.076134384 0.018494464 0.26285136
0.076624915 0.018455811 0.26329845
0.077115431 0.018417157 0.26374549
0.077605948 0.018378504 0.26419252
0.078096479 0.01833985 0.26463959
0.078586996 0.018301196 0.26508665
0.079846129 0.017967761 0.26488817
0.083322331 0.017225392 0.26536435
0.083807081 0.017187193 0.26580614
0.084291831 0.017148994 0.26624793
0.08477658 0.017110795 0.26668972
0.08526133 0.017072596 0.26713151
0.08574608 0.017034397 0.2675733
0.086230829 0.016996197 0.26801509
0.073042542 0.019167751 0.25867078
0.073531136 0.019129254 0.25911608
0.074019745 0.019090749 0.25956136
0.074508339 0.019052245 0.26000667
0.074996933 0.019013748 0.26045197
0.075485528 0.018975243 0.26089728
0.075190276 0.019235335 0.26197413
0.075680807 0.019196682 0.26242119
0.076171324 0.019158028 0.26286823
0.076661855 0.019119374 0.26331526
0.077152371 0.019080721 0.26376233
0.077642888 0.019042067 0.26420939
0.078133404 0.019003414 0.26465642
0.078623936 0.01896476 0.26510349
0.083358824 0.017881148 0.26538098
0.083843589 0.017842948 0.26582277
0.084328339 0.017804749 0.26626456
0.084813088 0.01776655 0.26670635
0.085297838 0.017728351 0.26714817
0.085782588 0.017690152 0.26758996
0.073079333 0.019828707 0.25868756
0.073567927 0.01979021 0.25913286
0.074056536 0.019751705 0.25957817
0.07454513 0.019713201 0.26002347
0.075033724 0.019674703 0.26046875
0.075522318 0.019636199 0.26091406
0.075227216 0.019898899 0.26199096
0.075717747 0.019860245 0.262438
0.076208264 0.019821592 0.26288506
0.07669878 0.019782938 0.26333213
0.077189311 0.019744284 0.26377916
0.077679828 0.019705631 0.26422623
0.078170344 0.019666977 0.26467329
0.072811544 0.020755723 0.25977254
0.074093327 0.020412661 0.25959492
0.073792592 0.020678416 0.26066667
0.074283108 0.020639762 0.2611137
0.074773639 0.020601109 0.26156077
0.075264156 0.020562455 0.26200783
0.075754672 0.020523801 0.26245487
0.076245189 0.020485148 0.2629019
0.07673572 0.020446494 0.26334897
0.077226236 0.020407841 0.26379603
0.076942831 0.020672224 0.26488352
0.077435285 0.020633414 0.26533231
0.074810565 0.021264672 0.26157761
0.075791612 0.021187365 0.26247171
0.07677266 0.021110058 0.26336581
0.077263176 0.021071404 0.26381287
0.07697992 0.021338388 0.26490042
0.077472359 0.021299586 0.26534921
0.077964813 0.021260776 0.26579803
