# .PCD v0.7 - Point Cloud Data file format
VERSION 0.7
FIELDS x y z
SIZE 4 4 4
TYPE F F F
COUNT 1 1 1
WIDTH 1380
HEIGHT 1
VIEWPOINT 0 0 0 1 0 0 0
POINTS 1380
DATA ascii
-0.47472918 -0.26126808 0.39488882
-0.47439039 -0.26166171 0.3965587
-0.47612858 -0.26262546 0.39905804
-0.47681677 -0.26330507 0.40115315
-0.50543177 -0.27425921 0.42407566
-0.50499487 -0.27466053 0.42583501
-0.50660038 -0.27563483 0.42845523
-0.50615191 -0.27603704 0.43022507
-0.50569963 -0.27643961 0.43199843
-0.50524348 -0.27684247 0.43377531
-0.50478351 -0.27724564 0.43555567
-0.50431973 -0.2776491 0.4373396
-0.50284046 -0.27776569 0.43868777
-0.50237089 -0.2781696 0.44047689
-0.50189739 -0.27857381 0.44226953
-0.50041431 -0.27869067 0.44362119
-0.49792737 -0.27851975 0.44452664
-0.49644619 -0.27863646 0.44587654
-0.49496496 -0.27875319 0.44722646
-0.49348378 -0.27886993 0.44857642
-0.49200261 -0.27898663 0.44992632
-0.49052143 -0.27910334 0.45127624
-0.48904026 -0.27922004 0.45262617
-0.48854947 -0.27962565 0.45443457
-0.48706633 -0.27974248 0.45578629
-0.48558325 -0.27985936 0.45713794
-0.48508483 -0.28026557 0.45895338
-0.48458254 -0.28067207 0.46077231
-0.48505718 -0.28136852 0.46306202
-0.48454523 -0.28177577 0.46488971
-0.48500645 -0.28247327 0.46719173
-0.48448497 -0.28288126 0.46902817
-0.48493266 -0.28357986 0.47134247
-0.48634392 -0.28456938 0.47413975
-0.48677433 -0.28526932 0.47646976
-0.48816437 -0.28626055 0.4792864
-0.48857749 -0.28696179 0.48163223
-0.48898292 -0.2876637 0.48398501
-0.4903422 -0.28865731 0.4868297
-0.49615079 -0.30140862 0.53053749
-0.49455035 -0.30153474 0.53199607
-0.49294984 -0.30166087 0.53345472
-0.49042833 -0.30149269 0.5343917
-0.48791051 -0.30132413 0.53532517
-0.48447931 -0.3008607 0.53573006
-0.48105574 -0.30039665 0.53612792
-0.47672629 -0.29963702 0.53599012
-0.47332007 -0.29917163 0.53637224
-0.46992153 -0.29870561 0.53674728
-0.46653068 -0.29823899 0.53711534
-0.46314758 -0.29777175 0.53747642
-0.45977205 -0.29730392 0.53783041
-0.45640427 -0.29683542 0.53817743
-0.45304412 -0.29636639 0.53851742
-0.4505899 -0.29619288 0.53939307
-0.44813943 -0.29601905 0.5402652
-0.44569284 -0.29584491 0.54113388
-0.44325006 -0.29567051 0.54199898
-0.44170153 -0.29579255 0.5434103
-0.43926454 -0.29561764 0.5442701
-0.43683141 -0.29544246 0.54512644
-0.43440217 -0.29526693 0.54597926
-0.43197668 -0.29509118 0.54682863
-0.42867434 -0.29461759 0.54711604
-0.42713737 -0.29473871 0.54851687
-0.42472345 -0.29456201 0.54935563
-0.42231345 -0.29438502 0.55019099
-0.41903412 -0.29390955 0.55045736
-0.41663361 -0.29373181 0.5512839
-0.41423708 -0.29355377 0.55210692
-0.41184437 -0.29337537 0.55292648
-0.40945542 -0.29319671 0.55374253
-0.40793383 -0.29331663 0.55512929
-0.40727383 -0.29373556 0.55709195
-0.40746951 -0.29445395 0.55963588
-0.40851533 -0.29547229 0.56276631
-0.40954947 -0.29649156 0.56590724
-0.41142601 -0.29781136 0.56964159
-0.41328716 -0.29913238 0.57339007
-0.4159829 -0.30075455 0.577739
-0.41781133 -0.30207813 0.58151722
-0.41962433 -0.30340293 0.58530951
-0.41973352 -0.30412811 0.58793229
-0.27368975 -0.26903802 0.54816681
-0.4832356 -0.25835687 0.38572776
-0.48185635 -0.25846559 0.38698474
-0.48047709 -0.25857425 0.38824177
-0.48014975 -0.25896439 0.38990122
-0.47876859 -0.25907323 0.39115998
-0.47738743 -0.25918207 0.39241874
-0.47600627 -0.2592909 0.39367747
-0.47566926 -0.25968173 0.39534575
-0.4742862 -0.25979072 0.39660621
-0.47602403 -0.26074672 0.39910573
-0.47671199 -0.26142108 0.40120095
-0.50488466 -0.27268028 0.42588529
-0.5054667 -0.27336302 0.42807698
-0.50604111 -0.27404636 0.43027562
-0.50660777 -0.27473035 0.43248129
-0.50614965 -0.27513075 0.43425998
-0.50568759 -0.27553147 0.43604225
-0.50522172 -0.27593249 0.43782791
-0.50374055 -0.2760492 0.43917784
-0.50326884 -0.27645066 0.44096878
-0.50178576 -0.27656752 0.44232047
-0.50130832 -0.27696946 0.44411668
-0.49881953 -0.27680129 0.4450238
-0.49733639 -0.27691814 0.44637549
-0.4958533 -0.277035 0.44772714
-0.49337226 -0.27686626 0.44862729
-0.49288714 -0.27726877 0.45043051
-0.491404 -0.27738562 0.45178217
-0.48992085 -0.27750248 0.45313385
-0.48843777 -0.27761936 0.45448554
-0.48695469 -0.27773625 0.45583719
-0.486458 -0.27813968 0.45765096
-0.48497301 -0.27825671 0.45900437
-0.48447061 -0.2786606 0.46082336
-0.48494494 -0.27935183 0.46311322
-0.48443282 -0.27975649 0.46494097
-0.4848938 -0.28044876 0.46724313
-0.48534697 -0.28114167 0.46955228
-0.48579252 -0.2818352 0.4718684
-0.48623037 -0.28252929 0.47419155
-0.48762965 -0.28351194 0.47699958
-0.4880501 -0.2842074 0.47933853
-0.48942822 -0.28519171 0.48216581
-0.48886806 -0.28560019 0.4840374
-0.48926544 -0.28629744 0.48639739
-0.49603027 -0.2992436 0.53059244
-0.49442983 -0.29936972 0.53205103
-0.49190646 -0.29920429 0.53298974
-0.49030793 -0.29933029 0.5344466
-0.48779029 -0.29916435 0.53538001
-0.48527658 -0.29899815 0.53630996
-0.48185128 -0.2985394 0.53670943
-0.47934717 -0.29837248 0.53763062
-0.47502398 -0.29762024 0.53748733
-0.47253138 -0.2974523 0.53839797
-0.47004259 -0.29728413 0.53930509
-0.46665204 -0.29682273 0.53967303
-0.46417284 -0.29665375 0.54057145
-0.46169758 -0.29648453 0.5414663
-0.45922613 -0.29631495 0.54235762
-0.45765644 -0.29643869 0.54378819
-0.45519078 -0.29626864 0.54467434
-0.45272887 -0.29609835 0.54555684
-0.45027089 -0.29592776 0.54643595
-0.44692647 -0.29546267 0.54676181
-0.44447809 -0.29529136 0.5476321
-0.44203353 -0.29511964 0.54849893
-0.4395929 -0.29494765 0.54936224
-0.43715602 -0.29477537 0.55022204
-0.43560368 -0.29489771 0.55163682
-0.43317264 -0.294725 0.55249137
-0.43074542 -0.29455197 0.5533424
-0.42832202 -0.29437861 0.55418992
-0.42590249 -0.29420495 0.55503392
-0.42348683 -0.29403102 0.55587447
-0.42107499 -0.29385677 0.55671144
-0.41953415 -0.29397818 0.55811572
-0.41885865 -0.29439569 0.56009251
-0.41904247 -0.29510984 0.56264704
-0.42008013 -0.29612097 0.56578469
-0.42196572 -0.29742962 0.56951058
-0.42555094 -0.29933292 0.5744096
-0.43531644 -0.30475658 0.58864808
-0.43711162 -0.30607229 0.59245634
-0.43973935 -0.30768678 0.59686702
-0.4415018 -0.30900514 0.60070509
-0.44409287 -0.31062245 0.60514909
-0.47108752 -0.32088158 0.62682372
-0.47857702 -0.32502735 0.63769215
-0.28482133 -0.26779902 0.54342014
-0.28427273 -0.26820654 0.54528123
-0.28292429 -0.26831281 0.54651016
-0.28078175 -0.26811734 0.54710174
-0.28022736 -0.2685253 0.54896808
-0.27650821 -0.26772547 0.5482744
-0.27122402 -0.26632035 0.54628479
-0.48280811 -0.25687832 0.38743114
-0.48142695 -0.25698715 0.38868988
-0.4800458 -0.25709599 0.38994867
-0.47866464 -0.25720483 0.3912074
-0.47833127 -0.25759277 0.39287221
-0.47799414 -0.25798103 0.39454049
-0.47660911 -0.25809017 0.39580277
-0.47730827 -0.25875843 0.39788765
-0.47799981 -0.25942737 0.39997953
-0.47660708 -0.2595371 0.40124878
-0.50418496 -0.27002311 0.42375076
-0.50535619 -0.27137756 0.42812738
-0.5059303 -0.27205569 0.43032616
-0.50649667 -0.27273443 0.43253198
-0.50603837 -0.27313226 0.4343107
-0.50557619 -0.27353036 0.43609303
-0.50612336 -0.2742106 0.43831638
-0.50464022 -0.27432746 0.43966806
-0.50416654 -0.27472651 0.44146082
-0.50268149 -0.27484357 0.44281426
-0.5011965 -0.27496058 0.44416767
-0.49971145 -0.27507758 0.44552112
-0.4982264 -0.27519462 0.4468745
-0.49674141 -0.27531165 0.44822794
-0.49425852 -0.27514556 0.44912979
-0.49277544 -0.27526242 0.45048144
-0.4912923 -0.2753793 0.45183313
-0.48980922 -0.27549618 0.45318478
-0.48832607 -0.27561307 0.45453647
-0.48783123 -0.27601379 0.45634854
-0.48634619 -0.2761308 0.45770192
-0.48486114 -0.2762478 0.45905536
-0.48534101 -0.27693337 0.46134007
-0.48483264 -0.27733511 0.46316442
-0.48529905 -0.27802175 0.46546137
-0.48478109 -0.27842426 0.46729451
-0.48523396 -0.27911192 0.46960378
-0.48567927 -0.27980024 0.47192007
-0.48611677 -0.28048915 0.47424334
-0.48751563 -0.28146398 0.47705156
-0.48890287 -0.28243971 0.47987032
-0.48834831 -0.28284514 0.48173672
-0.4887532 -0.28353661 0.48408979
-0.48818904 -0.28394276 0.48596495
-0.48858047 -0.28463531 0.48833036
-0.49590975 -0.29707858 0.5306474
-0.49430931 -0.2972047 0.53210598
-0.49178606 -0.29704183 0.53304464
-0.49018759 -0.29716778 0.53450149
-0.48767006 -0.29700452 0.53543484
-0.48607349 -0.29713029 0.53688997
-0.48356181 -0.29696655 0.53781807
-0.48105389 -0.29680252 0.53874266
-0.47854984 -0.29663813 0.53966379
-0.47695905 -0.29676348 0.54111362
-0.47446084 -0.29659864 0.5420295
-0.47196639 -0.29643351 0.54294181
-0.4685722 -0.29597759 0.54331303
-0.46608746 -0.29581171 0.54421663
-0.46450627 -0.29593632 0.54565769
-0.46202719 -0.29576996 0.546556
-0.45955211 -0.29560333 0.54745078
-0.45797473 -0.29572761 0.54888839
-0.45550537 -0.29556057 0.54977793
-0.45303977 -0.29539311 0.55066395
-0.45057809 -0.29522544 0.55154645
-0.44812024 -0.29505742 0.5524255
-0.44655055 -0.2951811 0.55385607
-0.44409853 -0.29501268 0.55472982
-0.44165015 -0.29484385 0.55560005
-0.44008434 -0.29496729 0.5570271
-0.43851852 -0.29509068 0.55845416
-0.43607807 -0.29492128 0.55931741
-0.43451416 -0.29504454 0.56074274
-0.43295026 -0.29516774 0.562168
-0.43138635 -0.29529101 0.56359333
-0.43068945 -0.29570758 0.56558943
-0.43085384 -0.29641801 0.56816173
-0.43360007 -0.29801005 0.57246399
-0.43546581 -0.29930982 0.57620776
-0.43903482 -0.30119866 0.58112109
-0.44258076 -0.30308944 0.58605558
-0.44610363 -0.30498198 0.59101111
-0.45045692 -0.30717078 0.59657073
-0.45563495 -0.30965623 0.60273975
-0.45823306 -0.31125996 0.60717708
-0.46081191 -0.31286523 0.61163181
-0.46760094 -0.31594712 0.61905473
-0.47266352 -0.31844175 0.62532896
-0.47432733 -0.31975734 0.62925678
-0.4784959 -0.32196069 0.63498467
-0.48012316 -0.32327923 0.63894582
-0.4834075 -0.32519057 0.64411873
-0.28177786 -0.26548588 0.54342568
-0.4823764 -0.25539482 0.38913816
-0.48099333 -0.25550383 0.39039868
-0.47961026 -0.25561279 0.3916592
-0.47927481 -0.25599831 0.39332581
-0.4789356 -0.25638413 0.39499593
-0.47963643 -0.25704706 0.39707923
-0.47928762 -0.25743359 0.39875808
-0.4778949 -0.25754336 0.40002733
-0.47650218 -0.25765312 0.40129662
-0.47510946 -0.25776285 0.4025659
-0.50524569 -0.26939207 0.42817777
-0.50684029 -0.27034366 0.43080735
-0.50694406 -0.2714127 0.43479565
-0.50647986 -0.27180839 0.43657976
-0.50601172 -0.27220434 0.43836731
-0.50553977 -0.27260062 0.44015843
-0.50506401 -0.2729972 0.44195297
-0.50357699 -0.27311435 0.44330817
-0.5020901 -0.27323151 0.44466332
-0.50060314 -0.27334869 0.44601852
-0.49911618 -0.27346587 0.44737369
-0.4966296 -0.27330273 0.44827896
-0.49514455 -0.2734198 0.44963241
-0.4936595 -0.2735368 0.45098582
-0.49217451 -0.27365381 0.45233926
-0.49068946 -0.27377084 0.45369267
-0.48920441 -0.27388787 0.45504612
-0.48771942 -0.27400488 0.45639953
-0.48722053 -0.27440327 0.45821515
-0.48573363 -0.27452046 0.45957029
-0.4852289 -0.27491927 0.46139121
-0.48570073 -0.27560025 0.46368307
-0.48518652 -0.27599984 0.46551272
-0.48564494 -0.2766819 0.46781689
-0.48512101 -0.27708223 0.46965533
-0.48556602 -0.27776533 0.47197172
-0.48600322 -0.278449 0.47429514
-0.4874016 -0.27941608 0.47710356
-0.48782152 -0.28010112 0.47944278
-0.48823375 -0.28078681 0.48178899
-0.48767525 -0.28118986 0.48365891
-0.488074 -0.28187662 0.48601741
-0.48750591 -0.28228045 0.48789614
-0.48789126 -0.28296828 0.49026695
-0.49578923 -0.29491356 0.53070235
-0.49418879 -0.29503968 0.532161
-0.49166572 -0.29487944 0.53309953
-0.49006718 -0.29500538 0.53455639
-0.48846865 -0.29513139 0.53601325
-0.48595321 -0.29497045 0.53694481
-0.48344171 -0.29480937 0.53787285
-0.48184705 -0.29493505 0.53932619
-0.47934121 -0.2947734 0.54024899
-0.47774851 -0.2948989 0.5417006
-0.47615576 -0.29502442 0.54315221
-0.474563 -0.29514992 0.54460377
-0.47206676 -0.2949875 0.5455178
-0.47047591 -0.29511291 0.54696763
-0.46888512 -0.29523826 0.54841751
-0.46639663 -0.2950753 0.54932451
-0.46480775 -0.2952005 0.55077261
-0.46321881 -0.2953257 0.5522207
-0.46073806 -0.29516214 0.55312073
-0.45915103 -0.29528719 0.5545671
-0.45578796 -0.29483402 0.55491012
-0.45331872 -0.29466954 0.5557996
-0.45173752 -0.29479414 0.55724066
-0.45015633 -0.29491875 0.55868179
-0.44769472 -0.29475364 0.55956423
-0.44611543 -0.2948781 0.56100357
-0.44453615 -0.29500252 0.5624429
-0.44295686 -0.29512697 0.56388223
-0.44137758 -0.29525143 0.56532156
-0.4397983 -0.29537588 0.5667609
-0.43908787 -0.29579097 0.56876934
-0.44097418 -0.29707861 0.57249409
-0.4411152 -0.29778567 0.57508743
-0.4447006 -0.29965758 0.5799855
-0.44826299 -0.30153131 0.58490455
-0.45180225 -0.30340686 0.5898447
-0.45874757 -0.30645037 0.59712458
-0.45966691 -0.30745512 0.60036945
-0.46398848 -0.30962813 0.60595763
-0.46913457 -0.31209522 0.61215526
-0.4708516 -0.31339622 0.61603421
-0.47677672 -0.31687915 0.62560481
-0.47840774 -0.31890512 0.63228399
-0.47920597 -0.31991944 0.63563949
-0.47999263 -0.32093465 0.63900536
-0.27902162 -0.26208344 0.53908682
-0.27689093 -0.26189226 0.53966773
-0.27555978 -0.26199716 0.54088092
-0.27184731 -0.26121247 0.54018152
-0.2681464 -0.26042688 0.53947163
-0.26445699 -0.2596404 0.53875118
-0.2584151 -0.25796205 0.53609192
-0.25161016 -0.25598472 0.53276706
-0.48231322 -0.25494647 0.39459193
-0.4819681 -0.25533012 0.39626735
-0.48057538 -0.25543988 0.39753664
-0.50774992 -0.26862639 0.43128866
-0.50784945 -0.26968795 0.43528068
-0.508398 -0.27035767 0.43750256
-0.50691295 -0.27047467 0.43885598
-0.50643897 -0.27086848 0.44064885
-0.50596106 -0.27126262 0.44244528
-0.50447214 -0.27137995 0.44380221
-0.50298333 -0.27149725 0.44515914
-0.50149441 -0.27161458 0.4465161
-0.50000554 -0.27173191 0.447873
-0.49751723 -0.27157155 0.44877994
-0.49603027 -0.2716887 0.45013514
-0.49354768 -0.27152789 0.45103681
-0.49206269 -0.27164489 0.45239025
-0.49057764 -0.27176189 0.45374367
-0.4900825 -0.27215743 0.45555586
-0.48859555 -0.27227458 0.45691103
-0.48710859 -0.27239177 0.4582662
-0.48660564 -0.27278784 0.46008539
-0.48609895 -0.27318424 0.4619081
-0.48558837 -0.27358091 0.46373433
-0.48605227 -0.2742573 0.4660334
-0.4855321 -0.27465475 0.46786836
-0.48598248 -0.27533218 0.47017965
-0.48545271 -0.27573043 0.47202337
-0.48588967 -0.27640891 0.47434694
-0.48728764 -0.27736813 0.47715557
-0.48674053 -0.27776772 0.47901508
-0.48811918 -0.27872849 0.48184124
-0.48852348 -0.27940953 0.48419455
-0.48891997 -0.28009117 0.48655492
-0.48739076 -0.28021169 0.48794866
-0.4877758 -0.28089428 0.49031961
-0.48624271 -0.2810151 0.49171683
-0.49912584 -0.29318905 0.53032845
-0.49566871 -0.29274854 0.53075731
-0.49406826 -0.29287466 0.53221595
-0.49246782 -0.29300079 0.53367454
-0.48994684 -0.29284298 0.53461128
-0.48834831 -0.29296893 0.5360682
-0.48583305 -0.29281068 0.53699964
-0.48423642 -0.2929365 0.53845477
-0.48263979 -0.29306233 0.53990984
-0.48013228 -0.29290345 0.54083431
-0.47853762 -0.29302913 0.54228771
-0.4769429 -0.29315478 0.54374105
-0.47534823 -0.29328045 0.54519439
-0.47375357 -0.2934061 0.54664779
-0.47306025 -0.29381716 0.54864049
-0.47056425 -0.29365742 0.54955447
-0.46986699 -0.29406881 0.55155075
-0.46827042 -0.29419464 0.55300581
-0.46667385 -0.29432046 0.55446094
-0.46507722 -0.29444623 0.55591607
-0.46259081 -0.29428574 0.55682123
-0.46099615 -0.29441139 0.55827463
-0.45940149 -0.29453707 0.55972797
-0.45780683 -0.29466274 0.56118131
-0.45621216 -0.29478839 0.56263471
-0.45373726 -0.29462692 0.56352931
-0.45302284 -0.29503971 0.56554139
-0.45142812 -0.29516539 0.56699473
-0.44983345 -0.29529104 0.56844813
-0.44823879 -0.29541671 0.56990147
-0.44838524 -0.29611808 0.57248974
-0.44765532 -0.29653206 0.57451582
-0.44952184 -0.29781082 0.57825828
-0.44964337 -0.29851419 0.58086932
-0.45407164 -0.30066049 0.5863598
-0.45675093 -0.30223161 0.59072232
-0.46198827 -0.30467063 0.59683633
-0.46548045 -0.30653423 0.60181898
-0.46894968 -0.30839962 0.60682261
-0.47154248 -0.30997765 0.61126399
-0.47496742 -0.31184652 0.61630797
-0.48006809 -0.31429631 0.62254643
-0.48174798 -0.31558976 0.62645894
-0.48172134 -0.31630477 0.62920499
-0.48253071 -0.31731042 0.63255012
-0.48164505 -0.31773666 0.63471818
-0.48327494 -0.3190341 0.63867629
-0.48321366 -0.31975183 0.64145392
-0.48230875 -0.32017961 0.6436395
-0.27567381 -0.25732782 0.52984416
-0.27435803 -0.25743151 0.53104335
-0.27304232 -0.25753519 0.53224248
-0.27092719 -0.25734541 0.53280932
-0.26961333 -0.25744894 0.53400671
-0.26829952 -0.25755247 0.53520411
-0.26460475 -0.25677422 0.5344888
-0.2609216 -0.25599509 0.53376293
-0.25567031 -0.25462657 0.5317443
-0.50921911 -0.26756757 0.43398166
-0.50977123 -0.26823175 0.43620011
-0.50930095 -0.26862267 0.43798956
-0.50882673 -0.26901388 0.43978253
-0.5083487 -0.26940539 0.44157901
-0.50685787 -0.26952288 0.4429377
-0.5053671 -0.26964033 0.44429639
-0.50488138 -0.27003247 0.44609988
-0.50338864 -0.2701501 0.44746032
-0.5018959 -0.27026772 0.44882074
-0.49940389 -0.27011025 0.44973111
-0.4969157 -0.26995248 0.450638
-0.49542677 -0.27006981 0.45199496
-0.49393791 -0.27018714 0.45335189
-0.49244905 -0.27030444 0.45470881
-0.49096018 -0.27042177 0.45606571
-0.48947132 -0.2705391 0.45742267
-0.48798239 -0.27065644 0.4587796
-0.48747754 -0.27105007 0.46060061
-0.4869687 -0.27144402 0.46242514
-0.48645604 -0.27183825 0.46425319
-0.48593962 -0.2722328 0.46608478
-0.48639548 -0.27290457 0.46839091
-0.48586935 -0.2732999 0.47023124
-0.48533946 -0.27369553 0.47207505
-0.48577607 -0.27436879 0.4743987
-0.48717362 -0.27532023 0.47720754
-0.48759294 -0.2759949 0.47954702
-0.48800457 -0.27667016 0.48189348
-0.48840863 -0.27734601 0.48424694
-0.48880482 -0.27802247 0.48660743
-0.4872756 -0.27814299 0.48800117
-0.48766035 -0.27882034 0.49037224
-0.48612726 -0.27894115 0.49176949
-0.48554724 -0.27934071 0.4936589
-0.49900502 -0.29101878 0.53038359
-0.49554825 -0.29058349 0.53081226
-0.49394774 -0.29070961 0.53227091
-0.4923473 -0.29083574 0.53372955
-0.49074686 -0.29096186 0.53518814
-0.4882279 -0.2908065 0.53612304
-0.48662943 -0.29093248 0.53757989
-0.48503089 -0.29105842 0.53903675
-0.48251963 -0.29090247 0.53996468
-0.480923 -0.29102829 0.5414198
-0.47932643 -0.29115409 0.54287493
-0.4786368 -0.29156232 0.54486424
-0.47703826 -0.29168826 0.54632109
-0.47543979 -0.29181421 0.54777795
-0.47384125 -0.29194021 0.54923481
-0.47314197 -0.29234913 0.55123293
-0.47154152 -0.29247525 0.55269152
-0.47173202 -0.29316795 0.55523968
-0.4701277 -0.29329437 0.55670178
-0.46941507 -0.29370439 0.55871212
-0.46780884 -0.29383096 0.56017601
-0.46620262 -0.29395753 0.5616399
-0.46459639 -0.2940841 0.56310374
-0.46299016 -0.29421067 0.56456763
-0.46138394 -0.29433724 0.56603152
-0.45977771 -0.29446384 0.56749535
-0.45904964 -0.29487506 0.56951976
-0.45744145 -0.29500178 0.57098538
-0.4567076 -0.29541343 0.57301503
-0.45509756 -0.29554033 0.57448244
-0.45522839 -0.29623771 0.57708484
-0.45448303 -0.29665032 0.57912499
-0.45546693 -0.29763433 0.5823108
-0.45643938 -0.29861924 0.58550704
-0.46085113 -0.30074853 0.59101194
-0.46351445 -0.3023079 0.59538883
-0.46701729 -0.30415499 0.60036135
-0.47135413 -0.30629018 0.60593462
-0.47395396 -0.30785453 0.61036932
-0.47909391 -0.31028032 0.61657155
-0.4816494 -0.31184819 0.62104666
-0.485035 -0.31370449 0.62612599
-0.48585546 -0.31470138 0.62946081
-0.4866643 -0.31569919 0.63280606
-0.48661822 -0.31641054 0.63556975
-0.48488116 -0.31654742 0.63715285
-0.48482347 -0.31725964 0.63992709
-0.48392028 -0.31768468 0.642111
-0.4821775 -0.31782201 0.64369935
-0.47960085 -0.31767118 0.64468688
-0.47785997 -0.31780836 0.64627349
-0.2697385 -0.25459245 0.52976513
-0.26763117 -0.25440466 0.53032488
-0.26552773 -0.25421655 0.53088117
-0.26342809 -0.25402817 0.53143388
-0.2597453 -0.25325683 0.53070778
-0.25686568 -0.25277606 0.53061056
-0.25162476 -0.25141978 0.52858293
-0.50854802 -0.26490545 0.43182087
-0.50864285 -0.26595169 0.43581676
-0.50817436 -0.26633987 0.43760455
-0.50972724 -0.26727119 0.44027153
-0.50823647 -0.26738867 0.44163021
-0.50775445 -0.26777789 0.44343024
-0.50726855 -0.26816741 0.44523382
-0.5057739 -0.26828519 0.446596
-0.50427926 -0.26840299 0.44795823
-0.50278461 -0.26852077 0.44932038
-0.50128996 -0.26863855 0.45068258
-0.49879801 -0.26848367 0.45159292
-0.49631006 -0.26832849 0.45249969
-0.49481922 -0.26844597 0.45385838
-0.49332845 -0.26856345 0.45521706
-0.49183762 -0.26868093 0.45657578
-0.49034685 -0.26879841 0.45793444
-0.48885602 -0.26891589 0.45929316
-0.48736525 -0.26903334 0.46065181
-0.48685628 -0.26942468 0.4624764
-0.4863435 -0.26981634 0.46430451
-0.48582691 -0.2702083 0.46613616
-0.48628247 -0.27087486 0.46844244
-0.48575628 -0.27126756 0.47028285
-0.48619843 -0.27193516 0.47260135
-0.48663282 -0.27260342 0.47492695
-0.48705965 -0.27327228 0.47725955
-0.48747867 -0.27394173 0.47959915
-0.48789001 -0.27461177 0.48194575
-0.48829377 -0.27528244 0.4842993
-0.48772895 -0.27567816 0.48617476
-0.48811924 -0.2763499 0.48854071
-0.48754489 -0.27674639 0.4904249
-0.48696673 -0.27714318 0.49231261
-0.48543167 -0.27726415 0.49371162
-0.48389661 -0.27738512 0.4951106
-0.48236156 -0.27750608 0.49650964
-0.48272097 -0.27818024 0.49890357
-0.48212743 -0.27857825 0.50080526
-0.48719037 -0.28063792 0.50571638
-0.49222642 -0.28269976 0.51065201
-0.4988842 -0.28884858 0.53043866
-0.49542773 -0.28841844 0.53086722
-0.49382722 -0.28854457 0.53232586
-0.49222678 -0.28867069 0.53378451
-0.49062634 -0.28879678 0.53524309
-0.48810756 -0.28864408 0.53617799
-0.48650903 -0.28877002 0.53763479
-0.48491049 -0.28889602 0.53909171
-0.48239934 -0.28874266 0.54001951
-0.48171347 -0.28914794 0.54200542
-0.48011494 -0.28927392 0.54346228
-0.47851646 -0.28939986 0.54491913
-0.47782278 -0.28980574 0.54691201
-0.47802836 -0.29049206 0.54944623
-0.4764241 -0.29061848 0.55090833
-0.47571898 -0.29102525 0.55291176
-0.47411275 -0.29115182 0.55437565
-0.47429711 -0.29183978 0.55692911
-0.47268701 -0.29196662 0.55839652
-0.47196847 -0.29237449 0.56041217
-0.47035646 -0.29250151 0.5618813
-0.46874452 -0.29262859 0.56335044
-0.46801811 -0.29303703 0.56537318
-0.4664042 -0.29316422 0.56684405
-0.46567214 -0.29357314 0.56887197
-0.46405637 -0.29370049 0.57034463
-0.46244049 -0.2938278 0.57181728
-0.46170068 -0.29423732 0.57385224
-0.46183127 -0.2949295 0.57645488
-0.46108186 -0.29533982 0.5784986
-0.45945835 -0.29546773 0.57997823
-0.45957154 -0.29616129 0.5825966
-0.4596771 -0.29685545 0.58522189
-0.46236843 -0.29839957 0.58957291
-0.46417803 -0.2996619 0.59336668
-0.46769351 -0.3014923 0.59832734
-0.47118598 -0.30332452 0.60330892
-0.47379845 -0.30487478 0.60773176
-0.47639179 -0.30642664 0.61217207
-0.47981882 -0.30826399 0.61721331
-0.48152065 -0.30953485 0.62110537
-0.48405623 -0.31109118 0.62559825
-0.48487812 -0.31208012 0.62893146
-0.48484325 -0.31278539 0.63168484
-0.48564404 -0.31377599 0.6350373
-0.48475039 -0.31419766 0.63721251
-0.48301339 -0.31433451 0.63879561
-0.48378909 -0.31532708 0.64217085
-0.48121059 -0.31517902 0.64316005
-0.48030347 -0.31560174 0.64534754
-0.47606528 -0.31488204 0.64512795
-0.50537622 -0.26210231 0.43057883
-0.50594115 -0.26275501 0.43278533
-0.50649858 -0.26340836 0.43499887
-0.5086025 -0.26498568 0.43988478
-0.50913471 -0.26564097 0.44212109
-0.50764203 -0.26575857 0.4434815
-0.50715601 -0.26614553 0.44528514
-0.50666618 -0.26653272 0.44709232
-0.50516963 -0.26665068 0.44845629
-0.50367308 -0.2667686 0.44982022
-0.50117743 -0.26661664 0.45073393
-0.49968278 -0.26673442 0.4520961
-0.49719292 -0.26658198 0.4530046
-0.49570018 -0.26669961 0.45436507
-0.4942075 -0.26681724 0.45572549
-0.49271476 -0.26693487 0.45708594
-0.49023461 -0.26678172 0.45798564
-0.48874378 -0.26689917 0.45934436
-0.48823655 -0.26728776 0.46116725
-0.48772562 -0.26767665 0.46299368
-0.48721075 -0.26806587 0.4648236
-0.48669207 -0.26845536 0.46665704
-0.48616952 -0.26884514 0.46849397
-0.48661721 -0.26950711 0.47080737
-0.486085 -0.2698977 0.47265309
-0.4865191 -0.27056071 0.4749788
-0.48694563 -0.27122435 0.47731155
-0.48736441 -0.27188861 0.47965127
-0.48777544 -0.27255344 0.481998
-0.48817885 -0.2732189 0.48435169
-0.4885745 -0.27388495 0.48671249
-0.48800397 -0.27427858 0.48859328
-0.4874295 -0.27467245 0.49047756
-0.48589635 -0.27479327 0.49187481
-0.48626894 -0.27546114 0.49425659
-0.48378104 -0.27530855 0.49516332
-0.48224598 -0.27542955 0.49656236
-0.4826051 -0.27609849 0.49895644
-0.48295659 -0.27676803 0.5013575
-0.4870733 -0.27853537 0.50576973
-0.49116695 -0.28030449 0.510203
-0.49876338 -0.28667837 0.53049374
-0.49530721 -0.28625345 0.53092217
-0.4955548 -0.28693122 0.533418
-0.49210632 -0.2865057 0.53383946
-0.49050581 -0.28663182 0.53529805
-0.48890543 -0.28675795 0.53675669
-0.48638868 -0.28660762 0.53768969
-0.48479015 -0.28673363 0.53914654
-0.48319167 -0.28685957 0.5406034
-0.48159313 -0.28698555 0.54206032
-0.48090315 -0.2873885 0.54404974
-0.47930276 -0.28751463 0.54550838
-0.47951186 -0.2881954 0.5480392
-0.47881043 -0.28859928 0.55003917
-0.4772042 -0.28872585 0.55150306
-0.47649699 -0.28913021 0.55350828
-0.47578591 -0.28953487 0.55551708
-0.47596622 -0.29021794 0.55807412
-0.47435224 -0.29034507 0.55954504
-0.47362965 -0.29075065 0.56156427
-0.47290313 -0.2911565 0.56358707
-0.4712854 -0.29128397 0.56506145
-0.47143877 -0.29196918 0.56764317
-0.46981716 -0.29209697 0.56912106
-0.46907729 -0.29250383 0.57115608
-0.46833348 -0.29291111 0.57319462
-0.46670806 -0.2930392 0.57467604
-0.46595854 -0.29344687 0.57671982
-0.46433115 -0.29357511 0.57820296
-0.46444786 -0.29426318 0.58081794
-0.46455693 -0.29495183 0.58343995
-0.46379012 -0.29536086 0.58549953
-0.46388572 -0.29605058 0.58813381
-0.46570241 -0.29730192 0.59192085
-0.46664125 -0.29827377 0.59514731
-0.4692896 -0.2998082 0.59953713
-0.4719187 -0.30134416 0.60394454
-0.47452855 -0.30288163 0.60836941
-0.47626448 -0.30413932 0.61223018
-0.47969067 -0.30596107 0.61727178
-0.48139185 -0.3072215 0.62116408
-0.48307776 -0.30848315 0.62507039
-0.4830541 -0.30918223 0.62781334
-0.48386788 -0.31016397 0.63115376
-0.48298371 -0.31058228 0.63332027
-0.4837783 -0.31156552 0.63667822
-0.48204321 -0.31170225 0.63825953
-0.4811455 -0.3121216 0.64043838
-0.48107952 -0.31282404 0.64321989
-0.47933865 -0.31296122 0.64480644
-0.50060523 -0.25840279 0.4267129
-0.50220531 -0.25931472 0.42933646
-0.50379384 -0.26022756 0.43197054
-0.50435472 -0.2608754 0.43418068
-0.5059222 -0.26178992 0.4368341
-0.50801194 -0.26335526 0.44173262
-0.50853813 -0.26400581 0.44397429
-0.50805008 -0.26439029 0.44577977
-0.50755817 -0.2647751 0.44758874
-0.50605965 -0.26489317 0.4489544
-0.50456119 -0.26501125 0.45032012
-0.50306273 -0.26512933 0.45168582
-0.5005672 -0.26497996 0.45259953
-0.4980756 -0.26483029 0.45350963
-0.4965809 -0.26494807 0.45487183
-0.49508631 -0.26506585 0.45623401
-0.49359161 -0.26518363 0.45759624
-0.49110961 -0.26503319 0.45849764
-0.48961687 -0.26515082 0.45985806
-0.48910767 -0.26553696 0.4616828
-0.48859465 -0.26592338 0.46351108
-0.4870981 -0.26604134 0.46487501
-0.48657924 -0.26642823 0.46670851
-0.48605657 -0.26681542 0.4685455
-0.4865039 -0.26747221 0.47085905
-0.48597157 -0.26786014 0.47270483
-0.48640543 -0.26851797 0.47503066
-0.48683167 -0.26917642 0.47736353
-0.48628396 -0.26956558 0.47922331
-0.48669666 -0.27022505 0.48156843
-0.48710167 -0.27088517 0.48392051
-0.487499 -0.27154589 0.48627967
-0.48788863 -0.2722072 0.48864585
-0.48731399 -0.27259851 0.49053019
-0.48673552 -0.27299011 0.49241805
-0.48615324 -0.27338198 0.49430937
-0.48461628 -0.27350309 0.49571013
-0.48307931 -0.27362421 0.4971109
-0.48343617 -0.27428812 0.49950683
-0.48378539 -0.27495259 0.50190979
-0.4869563 -0.27643278 0.50582314
-0.49104905 -0.27818632 0.51025677
-0.49864256 -0.28450811 0.53054881
-0.49518669 -0.2840884 0.53097719
-0.49543399 -0.28476095 0.53347313
-0.4919858 -0.28434065 0.53389442
-0.49038535 -0.28446674 0.535353
-0.48878491 -0.28459287 0.53681165
-0.48626828 -0.28444517 0.53774458
-0.48558402 -0.28484511 0.53972888
-0.48398352 -0.28497124 0.54118752
-0.48238307 -0.28509736 0.54264611
-0.48078263 -0.28522345 0.5441047
-0.48099536 -0.28589875 0.54663217
-0.4793911 -0.28602517 0.54809433
-0.47868949 -0.28642645 0.55009437
-0.47798401 -0.28682804 0.55209792
-0.47727478 -0.28722996 0.55410492
-0.47656167 -0.28763217 0.55611551
-0.47673965 -0.28831014 0.55867451
-0.47601688 -0.2887131 0.56069386
-0.47618151 -0.28939217 0.56326514
-0.47544914 -0.28979588 0.56529325
-0.47382563 -0.28992379 0.56677288
-0.47308743 -0.290328 0.56880623
-0.47234547 -0.29073244 0.5708431
-0.47071809 -0.29086068 0.57232624
-0.46997035 -0.29126564 0.57436836
-0.46921873 -0.29167086 0.57641399
-0.46758753 -0.29179937 0.57790065
-0.46770394 -0.29248223 0.58051574
-0.46694088 -0.2928884 0.58257186
-0.46617389 -0.29329485 0.58463156
-0.4662711 -0.29397923 0.58726418
-0.4672268 -0.29494193 0.59047502
-0.46730673 -0.29562759 0.59312344
-0.46910357 -0.29687005 0.59692836
-0.4700247 -0.29783553 0.60017079
-0.4717927 -0.29908022 0.60400206
-0.47354525 -0.30032614 0.60784721
-0.47528255 -0.30157328 0.61170644
-0.47615165 -0.30254284 0.61499625
-0.47786009 -0.30379224 0.61888176
-0.47955298 -0.30504286 0.6227814
-0.48038363 -0.30601543 0.6261062
-0.48120284 -0.30698889 0.6294415
-0.48116732 -0.30768371 0.63219512
-0.48112416 -0.30837914 0.63495576
-0.48191255 -0.30935505 0.63831913
-0.48101473 -0.30977184 0.64049798
-0.47927773 -0.30990872 0.64208108
-0.47754073 -0.3100456 0.64366418
-0.49845159 -0.25590199 0.42590445
-0.4990353 -0.2565428 0.42809367
-0.50062913 -0.25744736 0.43072271
-0.50119549 -0.25808954 0.43292767
-0.50276816 -0.25899577 0.43557602
-0.50534165 -0.26016659 0.4386729
-0.50688934 -0.26107481 0.44134402
-0.50842559 -0.26198393 0.44402564
-0.50793743 -0.26236579 0.44583118
-0.50744534 -0.26274797 0.44764018
-0.50694942 -0.26313043 0.4494527
-0.50544894 -0.26324868 0.45082015
-0.50394857 -0.26336691 0.4521876
-0.50244808 -0.26348513 0.45355505
-0.49995291 -0.26333839 0.45446867
-0.49845433 -0.26345646 0.45583439
-0.49596483 -0.26330924 0.45674273
-0.49446821 -0.26342717 0.4581067
-0.49198449 -0.2632795 0.45900974
-0.49048978 -0.26339728 0.46037191
-0.48997855 -0.26378095 0.4621985
-0.48946339 -0.26416498 0.46402857
-0.48796493 -0.26428306 0.46539426
-0.48744398 -0.26466748 0.46722957
-0.48691922 -0.26505223 0.46906841
-0.48639065 -0.2654373 0.47091073
-0.48683 -0.26608947 0.47323141
-0.48629171 -0.26647526 0.47508252
-0.48671764 -0.2671285 0.4774155
-0.48713583 -0.26778233 0.47975552
-0.48658222 -0.26816934 0.48162061
-0.48698694 -0.26882428 0.48397285
-0.48738396 -0.26947975 0.48633212
-0.48777336 -0.27013585 0.48869845
-0.48719859 -0.27052456 0.49058285
-0.48661995 -0.27091354 0.49247074
-0.48603749 -0.27130282 0.49436218
-0.48450053 -0.27142394 0.49576291
-0.48391223 -0.27181369 0.49765959
-0.484267 -0.27247253 0.50005746
-0.48555893 -0.27340093 0.50296175
-0.48778218 -0.27459931 0.5063777
-0.49093115 -0.27606815 0.51031053
-0.50012606 -0.28221148 0.52914184
-0.4985218 -0.2823379 0.53060395
-0.49506617 -0.28192338 0.53103215
-0.49531317 -0.28259075 0.53352821
-0.49186528 -0.28217563 0.53394938
-0.49026483 -0.28230172 0.53540796
-0.48866439 -0.28242785 0.53686661
-0.48706388 -0.28255397 0.53832519
-0.4854635 -0.28268009 0.53978384
-0.483863 -0.28280622 0.54124248
-0.48408318 -0.28347567 0.54376304
-0.48247886 -0.28360209 0.54522514
-0.48087454 -0.28372851 0.5466873
-0.48017478 -0.28412706 0.54868567
-0.47947109 -0.28452593 0.55068749
-0.47876358 -0.28492504 0.55269289
-0.47805226 -0.28532451 0.55470175
-0.477337 -0.28572425 0.55671412
-0.47751284 -0.28639716 0.55927497
-0.47768098 -0.28707072 0.56184292
-0.47695041 -0.28747171 0.56386936
-0.47621596 -0.28787297 0.56589925
-0.47459048 -0.28800106 0.56738067
-0.47385031 -0.28840277 0.56941581
-0.47310627 -0.2888048 0.57145447
-0.47235835 -0.28920713 0.57349664
-0.47072715 -0.28933567 0.5749833
-0.470851 -0.29001269 0.57759154
-0.47009158 -0.29041594 0.5796442
-0.46932828 -0.29081953 0.5817005
-0.46856117 -0.29122335 0.5837602
-0.46779013 -0.29162747 0.58582342
-0.46788335 -0.29230693 0.58845967
-0.4679687 -0.29298699 0.59110296
-0.46804643 -0.29366764 0.59375322
-0.46897858 -0.29462436 0.5969854
-0.46989924 -0.29558206 0.60022801
-0.47080833 -0.29654056 0.60348111
-0.47084951 -0.29722413 0.60616475
-0.47259194 -0.29846042 0.61001903
-0.47431898 -0.29969788 0.61388731
-0.47603059 -0.30093658 0.6177696
-0.47687817 -0.30189997 0.62107885
-0.47856092 -0.303141 0.62498748
-0.47938347 -0.3041063 0.6283195
-0.47935152 -0.30479562 0.63106972
-0.4801529 -0.30576271 0.63442105
-0.48094273 -0.30673063 0.63778287
-0.48088396 -0.30742204 0.64055765
-0.4791469 -0.30755892 0.64214075
-0.50320584 -0.25763822 0.43784761
-0.50730479 -0.25970066 0.44363531
-0.50883102 -0.26060277 0.44632596
-0.50833684 -0.26098248 0.44813678
-0.50783885 -0.26136249 0.44995111
-0.50633657 -0.2614809 0.45132032
-0.50483418 -0.26159927 0.45268953
-0.50333184 -0.26171768 0.45405874
-0.5008347 -0.26157367 0.45497406
-0.49933434 -0.26169187 0.45634151
-0.49783391 -0.26181012 0.45770895
-0.49534452 -0.26166552 0.45861721
-0.49285901 -0.26152062 0.45952201
-0.49234754 -0.26190168 0.46134865
-0.49084908 -0.26201975 0.46271431
-0.48935056 -0.26213783 0.46408004
-0.4878521 -0.26225594 0.46544573
-0.48733097 -0.26263776 0.4672811
-0.48680609 -0.26301992 0.46912
-0.48627734 -0.26340234 0.47096238
-0.48671639 -0.26404935 0.4732832
-0.48617798 -0.26443255 0.47513437
-0.48660368 -0.26508057 0.47746751
-0.48702151 -0.26572919 0.47980762
-0.48646778 -0.26611358 0.48167279
-0.4868722 -0.26676333 0.48402518
-0.48726892 -0.26741362 0.48638457
-0.48669982 -0.26779923 0.48826379
-0.48708314 -0.26845059 0.49063551
-0.48650432 -0.26883698 0.49252349
-0.48592174 -0.26922369 0.49441493
-0.48533523 -0.26961064 0.49630994
-0.48379636 -0.26973194 0.49771243
-0.48509741 -0.27065176 0.50060815
-0.48638701 -0.27157247 0.50351441
-0.487665 -0.27249411 0.5064311
-0.49081326 -0.27394992 0.51036429
-0.50000525 -0.28004122 0.52919692
-0.49840099 -0.28016764 0.53065902
-0.49494565 -0.27975836 0.5310871
-0.49519241 -0.28042048 0.53358328
-0.49174476 -0.28001061 0.53400433
-0.49014431 -0.2801367 0.53546298
-0.48854387 -0.28026283 0.53692156
-0.48694342 -0.28038895 0.53838021
-0.48534298 -0.28051507 0.53983879
-0.48556662 -0.28117898 0.54235601
-0.48396236 -0.2813054 0.54381812
-0.48326623 -0.28170106 0.54581308
-0.48166001 -0.28182763 0.54727691
-0.4809581 -0.2822237 0.54927713
-0.48025239 -0.28262013 0.5512808
-0.47954285 -0.28301683 0.55328798
-0.47882938 -0.28341383 0.55529869
-0.47811216 -0.28381109 0.55731285
-0.477391 -0.28420871 0.55933058
-0.47755885 -0.28487706 0.56189865
-0.47682816 -0.2852754 0.56392509
-0.47609353 -0.2856741 0.56595504
-0.47535515 -0.28607306 0.56798851
-0.47372776 -0.2862013 0.56947172
-0.4729836 -0.28660071 0.57151043
-0.47135431 -0.2867291 0.57299536
-0.47236294 -0.28767198 0.57615751
-0.47072786 -0.28780082 0.57764769
-0.46996832 -0.28820145 0.57970047
-0.4692049 -0.28860241 0.58175677
-0.46843755 -0.28900367 0.58381653
-0.46766645 -0.28940517 0.58587986
-0.46775931 -0.29007944 0.58851624
-0.46697855 -0.29048175 0.59058827
-0.46705788 -0.29115707 0.59323692
-0.46799159 -0.29210579 0.59646755
-0.46805358 -0.29278249 0.599132
-0.46810794 -0.29345977 0.60180348
-0.46815455 -0.29413766 0.60448188
-0.4690479 -0.29508963 0.60774934
-0.47078204 -0.29631609 0.61161083
-0.4725008 -0.29754376 0.61548644
-0.47420412 -0.29877269 0.61937594
-0.47504544 -0.29972875 0.62269062
-0.47671998 -0.30095989 0.62660652
-0.47753632 -0.30191791 0.62994403
-0.47750026 -0.30260232 0.63269788
-0.47913444 -0.30383667 0.63665062
-0.49473691 -0.25156134 0.42646921
-0.49531996 -0.25219172 0.42865872
-0.49487948 -0.25256461 0.43042052
-0.496463 -0.25345433 0.43305874
-0.50464517 -0.25652939 0.44056642
-0.50871813 -0.25857565 0.4463774
-0.50922811 -0.25921178 0.44863349
-0.50772572 -0.25933015 0.45000273
-0.50722384 -0.25970793 0.45182061
-0.50571954 -0.25982645 0.45319158
-0.50421524 -0.25994498 0.45456254
-0.50271106 -0.26006353 0.45593351
-0.50120676 -0.26018208 0.45730445
-0.49871171 -0.26004049 0.45821795
-0.49622047 -0.25989863 0.45912796
-0.4947201 -0.26001686 0.46049541
-0.49321967 -0.26013511 0.46186283
-0.49171925 -0.26025331 0.46323028
-0.49021882 -0.26037157 0.46459776
-0.48871845 -0.26048979 0.46596518
-0.4881953 -0.26086918 0.46780238
-0.4876684 -0.26124889 0.46964306
-0.4871375 -0.2616289 0.47148728
-0.48660284 -0.2620092 0.473335
-0.4870339 -0.26265156 0.47566295
-0.48648965 -0.26303262 0.47751951
-0.48690724 -0.26367605 0.47985977
-0.48731714 -0.26432008 0.48220703
-0.48675752 -0.26470232 0.48407751
-0.48715395 -0.26534742 0.48643702
-0.48658466 -0.26573044 0.4883163
-0.48696768 -0.26637661 0.49068815
-0.48638874 -0.26676041 0.49257618
-0.48580599 -0.2671445 0.49446774
-0.48521936 -0.26752889 0.49636278
-0.4855774 -0.26817703 0.49875736
-0.48592764 -0.26882574 0.50115895
-0.48721486 -0.26973882 0.50406718
-0.48943317 -0.2709167 0.50748718
-0.49642557 -0.27746719 0.52968347
-0.49482512 -0.27759328 0.53114206
-0.49322468 -0.27771941 0.53260064
-0.49162424 -0.27784553 0.53405929
-0.49002379 -0.27797163 0.53551793
-0.48842335 -0.27809775 0.53697652
-0.4868229 -0.27822387 0.53843516
-0.48705012 -0.27888232 0.54094899
-0.48544586 -0.27900875 0.54241109
-0.48475152 -0.27940163 0.54440433
-0.4831453 -0.2795282 0.54586822
-0.48244512 -0.27992156 0.5478667
-0.48083705 -0.28004828 0.54933232
-0.48013115 -0.28044206 0.55133611
-0.4794215 -0.28083619 0.5533433
-0.47870785 -0.28123057 0.55535412
-0.47799051 -0.28162527 0.55736834
-0.47726917 -0.28202027 0.55938613
-0.47743678 -0.2826834 0.56195432
-0.47581518 -0.28281119 0.56343222
-0.4750824 -0.28320712 0.5654605
-0.47345889 -0.28333503 0.56694013
-0.47272027 -0.2837314 0.56897372
-0.47109479 -0.28385949 0.57045507
-0.4703505 -0.28425631 0.57249391
-0.46960235 -0.28465346 0.5745362
-0.46885026 -0.28505087 0.57658207
-0.4689697 -0.28571779 0.57919401
-0.46733463 -0.28584665 0.58068419
-0.46657103 -0.28624499 0.58274055
-0.46580362 -0.28664362 0.58480042
-0.4659 -0.28731236 0.58743346
-0.46598876 -0.28798169 0.59007347
-0.4660697 -0.28865165 0.59272051
-0.46528107 -0.28905195 0.59479964
-0.46620852 -0.28999341 0.59803569
-0.46540844 -0.2903946 0.60012537
-0.4663167 -0.29133755 0.60337889
-0.46721333 -0.29228139 0.6066429
-0.46724623 -0.29295513 0.60933381
-0.46897215 -0.29417178 0.61320263
-0.47068262 -0.29538965 0.61708552
-0.47237766 -0.29660875 0.62098235
-0.47321284 -0.29755747 0.62430245
-0.47487909 -0.29877883 0.62822562
-0.47568923 -0.29972953 0.63156861
-0.49156916 -0.24883103 0.42522541
-0.49114013 -0.24920039 0.42697674
-0.49172294 -0.24982558 0.42916638
-0.49229795 -0.25045139 0.43136299
-0.51011908 -0.25743592 0.44913036
-0.50961691 -0.25781101 0.45094836
-0.50911099 -0.25818646 0.45276982
-0.50760287 -0.25830531 0.4541443
-0.50509834 -0.25816709 0.45506647
-0.50359213 -0.25828579 0.4564392
-0.50208592 -0.25840449 0.45781189
-0.4995892 -0.25826567 0.45872706
-0.49709624 -0.25812659 0.45963877
-0.49559391 -0.25824496 0.46100795
-0.49409157 -0.25836334 0.46237716
-0.4916063 -0.25822362 0.46328181
-0.49010587 -0.25834185 0.46464926
-0.48958457 -0.25871852 0.46648479
-0.48808217 -0.2588369 0.46785396
-0.48755509 -0.25921398 0.46969473
-0.48702407 -0.25959137 0.47153902
-0.48746061 -0.2602281 0.47386187
-0.48692006 -0.26060623 0.47571489
-0.48734319 -0.261244 0.47805005
-0.48679292 -0.26162294 0.47991186
-0.48720258 -0.26226175 0.48225927
-0.48760456 -0.26290119 0.48461366
-0.48703891 -0.26328132 0.48648947
-0.48742747 -0.2639218 0.4888562
-0.48780823 -0.2645629 0.49122989
-0.48722726 -0.26494423 0.49311978
-0.48664236 -0.26532587 0.49501312
-0.48700398 -0.2659685 0.49740431
-0.48640949 -0.26635092 0.49930644
-0.48770398 -0.26725554 0.50220788
-0.48804241 -0.26789999 0.50462008
-0.49120075 -0.26932889 0.50854349
-0.49630505 -0.27530217 0.52973843
-0.4947046 -0.2754283 0.53119701
-0.49310416 -0.27555442 0.53265566
-0.49150372 -0.27568054 0.53411424
-0.48990327 -0.27580667 0.53557289
-0.48830283 -0.27593279 0.53703153
-0.48670238 -0.27605888 0.53849012
-0.4869293 -0.27671212 0.54100406
-0.48532504 -0.27683854 0.54246622
-0.48463058 -0.27722883 0.54445952
-0.48393226 -0.27761939 0.54645628
-0.48232406 -0.27774611 0.54792196
-0.48071593 -0.27787283 0.54938757
-0.48000991 -0.27826405 0.55139136
-0.47839987 -0.27839088 0.55285871
-0.47768807 -0.27878255 0.5548678
-0.47697246 -0.27917451 0.55688035
-0.47625297 -0.27956676 0.55889648
-0.47463715 -0.27969408 0.56036913
-0.47302133 -0.27982143 0.56184173
-0.47229409 -0.28021428 0.56386483
-0.4724499 -0.28087312 0.56644368
-0.47082824 -0.28100088 0.56792164
-0.46920663 -0.28112867 0.56939948
-0.46846604 -0.28152257 0.57143486
-0.46772152 -0.28191683 0.57347375
-0.46697319 -0.28231135 0.5755161
-0.46622103 -0.28270617 0.57756197
-0.46546495 -0.28310129 0.57961142
-0.46557641 -0.28376362 0.58223051
-0.46481079 -0.28415951 0.58428866
-0.46404135 -0.28455573 0.58635038
-0.4641335 -0.28521952 0.58898705
-0.46421814 -0.28588402 0.5916307
-0.46429491 -0.28654903 0.59428144
-0.46350425 -0.28694689 0.59636235
-0.46270978 -0.28734505 0.59844679
-0.46276736 -0.28801167 0.60111505
-0.46281725 -0.28867882 0.60379028
-0.46456373 -0.2898834 0.60764003
-0.46459448 -0.29055208 0.61033285
-0.46631396 -0.29175881 0.61420721
-0.46801805 -0.29296675 0.61809552
-0.48696142 -0.24622986 0.42529422
-0.4855206 -0.24634339 0.42660731
-0.48712057 -0.24721615 0.42923018
-0.49073213 -0.24859625 0.43274012
-0.50850153 -0.25551951 0.450553
-0.50899744 -0.25614631 0.45282161
-0.50848746 -0.25651944 0.45464665
-0.50697738 -0.25663844 0.45602289
-0.50546736 -0.25675744 0.45739907
-0.50395733 -0.25687641 0.45877531
-0.50145686 -0.25674054 0.45969394
-0.49896014 -0.25660431 0.46060905
-0.49745399 -0.25672302 0.46198174
-0.49496317 -0.25658637 0.46289161
-0.49345887 -0.25670493 0.46426255
-0.49097371 -0.25656781 0.46516716
-0.49045038 -0.25694197 0.46700448
-0.48894608 -0.25706053 0.46837544
-0.48841685 -0.25743514 0.470218
-0.48788387 -0.25781012 0.47206411
-0.48734689 -0.25818533 0.47391373
-0.48777556 -0.25881746 0.47624373
-0.48722905 -0.25919348 0.47810215
-0.48667866 -0.25956976 0.47996402
-0.48708797 -0.26020342 0.48231155
-0.4874897 -0.26083761 0.48466605
-0.48788363 -0.26147246 0.48702759
-0.48731214 -0.26185045 0.4889088
-0.48769259 -0.26248634 0.49128264
-0.48806536 -0.26312286 0.49366346
-0.4884305 -0.26375994 0.49605131
-0.48688781 -0.2638815 0.4974573
-0.48818952 -0.26477778 0.50035191
-0.48853338 -0.26541656 0.50275904
-0.48981398 -0.26631445 0.50567281
-0.49296778 -0.26773065 0.5096001
-0.49618453 -0.27313715 0.52979338
-0.49458408 -0.27326325 0.53125203
-0.49298364 -0.27338937 0.53271061
-0.49138319 -0.27351549 0.53416926
-0.48978275 -0.27364159 0.53562784
-0.48818231 -0.27376771 0.53708649
-0.48658186 -0.27389383 0.53854507
-0.48680854 -0.27454188 0.5410592
-0.48520422 -0.27466831 0.5425213
-0.48450959 -0.27505597 0.54451466
-0.48381114 -0.27544397 0.54651153
-0.48220295 -0.27557069 0.54797721
-0.48059487 -0.27569741 0.54944277
-0.47988868 -0.27608597 0.55144668
-0.47827864 -0.27621287 0.55291402
-0.47756672 -0.27660191 0.55492318
-0.47595477 -0.27672893 0.55639231
-0.47434276 -0.27685595 0.55786145
-0.47273076 -0.27698299 0.55933058
-0.47200918 -0.27737278 0.56134844
-0.47039527 -0.27749997 0.56281936
-0.46878135 -0.27762714 0.56429029
-0.46716744 -0.27775431 0.56576115
-0.46643633 -0.2781449 0.56778783
-0.46570122 -0.27853572 0.56981802
-0.46584135 -0.2791906 0.572411
-0.46509671 -0.27958217 0.57444996
-0.4643482 -0.2799741 0.57649237
-0.46359587 -0.28036636 0.5785383
-0.4637109 -0.28102317 0.58115411
-0.46381819 -0.28168058 0.58377683
-0.46391791 -0.28233862 0.58640671
-0.46314442 -0.28273249 0.58847189
-0.46150351 -0.2828618 0.58996737
-0.46244752 -0.28378624 0.59318793
-0.46080089 -0.283916 0.59468865
-0.46086973 -0.28457648 0.59734648
-0.46007502 -0.28497201 0.59943098
-0.45927656 -0.28536788 0.60151905
-0.50937176 -0.25472844 0.45514917
-0.50885594 -0.25509942 0.4569796
-0.50734204 -0.25521868 0.4583593
-0.50582814 -0.25533801 0.45973903
-0.50332391 -0.25520501 0.46066105
-0.5008235 -0.2550717 0.46157962
-0.49931347 -0.2551907 0.46295583
-0.49681896 -0.25505698 0.46386912
-0.49531084 -0.2551758 0.46524358
-0.49282199 -0.25504157 0.46615162
-0.49131584 -0.25516027 0.46752432
-0.48980963 -0.25527894 0.46889704
-0.48927844 -0.25565118 0.47074145
-0.48874325 -0.25602365 0.47258937
-0.4882043 -0.25639644 0.47444075
-0.48766154 -0.25676954 0.47629574
-0.48808211 -0.25739706 0.47863287
-0.48752975 -0.2577709 0.48049659
-0.4869734 -0.25814509 0.48236379
-0.48737484 -0.2587741 0.48471844
-0.48776847 -0.25940371 0.48708013
-0.48815453 -0.26003397 0.48944885
-0.48853272 -0.26066482 0.49182457
-0.48794949 -0.2610411 0.4937163
-0.48831439 -0.261673 0.49610427
-0.48772156 -0.26205003 0.49800476
-0.48902094 -0.26293862 0.50090134
-0.4893626 -0.26357237 0.50331032
-0.49064082 -0.26446259 0.50622606
-0.49379194 -0.26586595 0.51015544
-0.49606407 -0.27097213 0.52984834
-0.49446356 -0.27109826 0.53130698
-0.49286318 -0.27122438 0.53276557
-0.49034166 -0.27109274 0.53370345
-0.48874313 -0.27121872 0.5351603
-0.48806179 -0.27160272 0.53714144
-0.48646134 -0.27172881 0.53860003
-0.48668772 -0.27237165 0.54111427
-0.4850834 -0.27249807 0.54257643
-0.48438865 -0.27288315 0.54456985
-0.48369002 -0.27326852 0.54656672
-0.48208189 -0.27339524 0.5480324
-0.48047376 -0.27352199 0.54949802
-0.47976744 -0.27390796 0.55150199
-0.47725749 -0.27377543 0.55242926
-0.47654736 -0.2741617 0.55443674
-0.47493726 -0.27428859 0.55590415
-0.47332722 -0.27441543 0.5573715
-0.47171712 -0.27454233 0.55883884
-0.47010708 -0.2746692 0.56030625
-0.46849704 -0.27479607 0.56177366
-0.46777344 -0.27518344 0.56379336
-0.46616143 -0.27531046 0.5652625
-0.4636668 -0.2751767 0.56617576
-0.46117604 -0.27504265 0.56708556
-0.4595679 -0.27516937 0.56855118
-0.45708299 -0.27503484 0.56945574
-0.45547676 -0.27516145 0.57091957
-0.45299757 -0.2750265 0.57181883
-0.44965112 -0.27462953 0.5721482
-0.44718158 -0.27449381 0.5730387
-0.44818467 -0.27540576 0.57620525
-0.44831091 -0.27605647 0.57881057
-0.45101959 -0.27749461 0.58314312
-0.44940186 -0.2776221 0.5846175
-0.45122218 -0.27879998 0.58839947
-0.45988786 -0.28208107 0.59682453
-0.45738369 -0.28194806 0.59774661
-0.4787966 -0.24131951 0.42583594
-0.48602843 -0.24402675 0.43284667
-0.51073378 -0.25354993 0.45793656
-0.50921607 -0.25366953 0.45931977
-0.50670624 -0.25353956 0.46024704
-0.50519049 -0.25365901 0.4616285
-0.50268638 -0.25352865 0.46255049
-0.50117248 -0.25364792 0.46393022
-0.49867415 -0.25351709 0.46484691
-0.4961797 -0.25338596 0.46576011
-0.49368918 -0.25325447 0.46666986
-0.49218106 -0.25337332 0.46804431
-0.49067295 -0.25349218 0.46941876
-0.48916483 -0.25361103 0.47079325
-0.48862952 -0.2539809 0.47264123
-0.48809046 -0.25435111 0.4744927
-0.48851657 -0.25497293 0.47682476
-0.48796785 -0.25534391 0.47868502
-0.48741531 -0.25571516 0.48054877
-0.48782212 -0.25633854 0.48289829
-0.48822129 -0.25696251 0.48525485
-0.48861271 -0.25758708 0.48761848
-0.48803902 -0.25795999 0.48950151
-0.48841703 -0.25858563 0.49187738
-0.48878729 -0.2592119 0.49426019
-0.48914987 -0.25983876 0.49665004
-0.48855501 -0.26021335 0.49855238
-0.48890418 -0.26084125 0.50095457
-0.49019146 -0.26172295 0.50386178
-0.49052334 -0.26235223 0.50627965
-0.49273169 -0.26348907 0.50970781
-0.49501687 -0.26855242 0.52938771
-0.49341834 -0.26867837 0.53084457
-0.4918198 -0.26880434 0.53230143
-0.49022126 -0.26893032 0.53375828
-0.48862278 -0.26905626 0.53521514
-0.48794127 -0.26943767 0.5371964
-0.48634082 -0.26956379 0.53865504
-0.48474038 -0.26968992 0.54011363
-0.48496258 -0.27032781 0.54263151
-0.48426771 -0.27071029 0.54462498
-0.48266149 -0.27083689 0.54608887
-0.48105526 -0.27096343 0.54755276
-0.48035264 -0.27134654 0.54955328
-0.47874451 -0.27147326 0.55101889
-0.47713637 -0.27159998 0.55248451
-0.47463042 -0.27146971 0.55340827
-0.47302419 -0.27159631 0.55487216
-0.47141796 -0.27172285 0.55633599
-0.46981174 -0.27184945 0.55779988
-0.46820557 -0.27197602 0.55926377
-0.4639346 -0.27132943 0.55907565
-0.46144789 -0.27119768 0.55998182
-0.45984936 -0.27132365 0.56143868
-0.45648599 -0.27093327 0.56178373
-0.45313019 -0.27054226 0.56212175
-0.44978213 -0.27015066 0.56245279
-0.44468838 -0.26924121 0.56165445
-0.44135964 -0.26884812 0.56196791
-0.43629289 -0.26793653 0.56114501
