# .PCD v0.7 - Point Cloud Data file format
VERSION 0.7
FIELDS x y z
SIZE 4 4 4
TYPE F F F
COUNT 1 1 1
WIDTH 105
HEIGHT 1
VIEWPOINT 0 0 0 1 0 0 0
POINTS 105
DATA ascii
-3.2371931 0.39102232 1.4095936
-3.2367091 0.39971107 1.4098141
-3.2362256 0.40839982 1.4100347
-3.2800865 0.4227106 1.4184551
-3.2357421 0.41708854 1.4102554
-3.2795978 0.43149301 1.418678
-3.2352586 0.42577732 1.410476
-3.279109 0.44027543 1.418901
-3.2347746 0.43446603 1.4106965
-3.2786198 0.44905785 1.4191241
-3.2342911 0.44315472 1.410917
-3.278131 0.45784029 1.419347
-3.2338076 0.45184347 1.4111376
-3.2586942 0.4638305 1.4125371
-3.2333236 0.46053222 1.4113581
-3.2836456 0.47591671 1.4138761
-3.2582083 0.4725661 1.4127588
-3.2328401 0.46922097 1.4115789
-3.2831569 0.48469916 1.414099
-3.2577219 0.4813017 1.4129806
-3.2323565 0.47790971 1.4117994
-3.2826676 0.49348155 1.4143219
-3.238296 0.48710462 1.4061663
-3.288671 0.50277555 1.4086282
-3.263207 0.49928173 1.4075389
-3.237812 0.49579331 1.4063869
-3.2881823 0.51155794 1.4088511
-3.2627206 0.5080173 1.4077606
-3.2373285 0.50448203 1.4066074
-3.2876935 0.52034032 1.4090741
-3.2622342 0.51675284 1.4079823
-3.236845 0.51317084 1.4068279
-3.2872047 0.52912283 1.409297
-3.2617483 0.5254885 1.4082041
-3.236361 0.52185953 1.4070485
-3.2932081 0.53841686 1.4036031
-3.286716 0.53790522 1.4095199
-3.2612619 0.53422403 1.408426
-3.2358775 0.53054833 1.4072692
-3.1853161 0.52321315 1.4047658
-3.2927194 0.54719925 1.403826
-3.2862267 0.5466876 1.4097428
-3.2607756 0.54295957 1.4086478
-3.235394 0.53923702 1.4074898
-3.1848378 0.53180826 1.404984
-3.2922301 0.55598164 1.4040489
-3.285738 0.55547011 1.409966
-3.2602892 0.55169511 1.4088695
-3.2349105 0.54792583 1.4077103
-3.1843596 0.54040325 1.4052024
-3.1780057 0.53990257 1.4109929
-3.2917414 0.56476414 1.4042718
-3.2852492 0.5642525 1.4101889
-3.2598033 0.56043077 1.4090912
-3.2344265 0.55661452 1.4079309
-3.2280035 0.55610836 1.4137847
-3.177527 0.54849768 1.411211
-3.2847605 0.57303488 1.4104118
-3.2782679 0.57252336 1.4163287
-3.2528591 0.5686574 1.4151983
-3.22752 0.56479704 1.4140053
-3.1770487 0.55709267 1.4114294
-3.1706953 0.55659199 1.4172199
-3.2777791 0.58130574 1.4165516
-3.2523732 0.57739305 1.4154201
-3.2459154 0.57688415 1.4213054
-3.220613 0.57297969 1.4200795
-3.1702166 0.5651871 1.417438
-3.1638627 0.56468642 1.423229
-3.2772903 0.59008813 1.4167745
-3.2518868 0.58612859 1.4156418
-3.245429 0.58561981 1.4215271
-3.2201295 0.58166838 1.4203002
-3.1633844 0.57328153 1.4234471
-3.1570306 0.57278085 1.4292378
-3.2768016 0.59887052 1.4169977
-3.2514005 0.59486413 1.4158635
-3.226069 0.59086335 1.4146669
-3.219646 0.59035718 1.4205208
-3.16926 0.5823772 1.4178746
-3.1629062 0.58187652 1.4236653
-3.2763124 0.60765302 1.4172206
-3.2509141 0.60359979 1.4160855
-3.2255855 0.59955204 1.4148877
-3.1687813 0.5909723 1.4180927
-3.2568855 0.61284423 1.4104218
-3.2315249 0.60874689 1.4092543
-3.1746564 0.60006797 1.4125204
-3.281827 0.62572944 1.4117496
-3.2563992 0.62157977 1.4106436
-3.231041 0.61743569 1.4094748
-3.180532 0.60916376 1.4069479
-3.2813382 0.63451183 1.4119725
-3.2369804 0.62663054 1.4038417
-3.1864071 0.61825955 1.4013755
-3.2873416 0.64380586 1.4062786
-3.2618842 0.63955986 1.4052019
-3.2364964 0.63531935 1.4040623
-3.1922822 0.62735534 1.395803
-3.2743134 0.64931309 1.3936532
-3.2488589 0.64502025 1.3925755
-3.2224202 0.64052296 1.391046
-3.1981578 0.63645101 1.3902307
-3.2347121 0.65016866 1.3796244
-3.2103868 0.64604747 1.3788674
