# .PCD v0.7 - Point Cloud Data file format
VERSION 0.7
FIELDS x y z
SIZE 4 4 4
TYPE F F F
COUNT 1 1 1
WIDTH 467
HEIGHT 1
VIEWPOINT 0 0 0 1 0 0 0
POINTS 467
DATA ascii
-0.092616618 0.03389021 0.37924972
-0.093136922 0.034604691 0.37960136
-0.09265624 0.034551591 0.37913388
-0.091694847 0.03444539 0.37819889
-0.091214165 0.034392297 0.37773141
-0.090733469 0.034339197 0.37726393
-0.090252787 0.034286097 0.37679645
-0.08977209 0.034233004 0.37632897
-0.093763784 0.034863889 0.37873378
-0.092695847 0.035212979 0.37901801
-0.091734469 0.035106778 0.37808305
-0.091253787 0.035053685 0.37761557
-0.090773091 0.035000578 0.37714809
-0.090292409 0.034947485 0.37668058
-0.089811713 0.034894384 0.3762131
-0.089331031 0.034841284 0.37574562
-0.096775129 0.035381407 0.38018641
-0.095239729 0.035681389 0.38001537
-0.095344245 0.03522335 0.37879485
-0.094282076 0.035575598 0.37908402
-0.093803257 0.035522714 0.37861836
-0.093324423 0.035469815 0.3781527
-0.092845589 0.035416923 0.37768701
-0.09236677 0.035364032 0.37722135
-0.091887951 0.03531114 0.37675568
-0.091409117 0.035258248 0.37629002
-0.090930298 0.035205357 0.37582436
-0.090451464 0.035152465 0.37535867
-0.089972645 0.035099566 0.37489301
-0.09919925 0.036301106 0.38239074
-0.098722294 0.036248416 0.38192689
-0.098245323 0.036195725 0.38146302
-0.097768366 0.036143035 0.38099918
-0.09729141 0.036090359 0.38053533
-0.096814439 0.036037669 0.38007146
-0.096337482 0.035984978 0.37960759
-0.095860511 0.035932288 0.37914374
-0.095383555 0.035879605 0.3786799
-0.094906583 0.035826921 0.37821603
-0.094429627 0.035774231 0.37775216
-0.093952656 0.03572154 0.37728831
-0.092885062 0.036075749 0.37757161
-0.092406228 0.036022857 0.37710592
-0.091927409 0.035969958 0.37664029
-0.091448575 0.035917073 0.3761746
-0.090969756 0.035864174 0.37570894
-0.090490937 0.035811283 0.37524328
-0.090613917 0.035352737 0.37404129
-0.099806696 0.036545441 0.38150731
-0.099331588 0.036492959 0.38104528
-0.098856494 0.036440477 0.38058323
-0.0983814 0.036387995 0.3801212
-0.097906291 0.036335513 0.37965915
-0.097431183 0.036283046 0.37919709
-0.096376792 0.03664124 0.37949264
-0.09589982 0.03658855 0.37902877
-0.095422864 0.036535859 0.37856492
-0.094945908 0.036483184 0.37810108
-0.094468936 0.036430493 0.37763721
-0.093991965 0.036377802 0.37717333
-0.093515009 0.036325112 0.37670949
-0.093038052 0.036272436 0.37624565
-0.092561081 0.036219746 0.37578177
-0.092084125 0.036167055 0.3753179
-0.091607153 0.036114365 0.37485406
-0.091130197 0.036061689 0.37439021
-0.090653226 0.036008999 0.37392634
-0.090176269 0.035956308 0.37346247
-0.089699298 0.035903618 0.37299863
-0.089222342 0.035850935 0.37253478
-0.089354485 0.035390861 0.37134233
-0.088879392 0.035338387 0.37088028
-0.1023068 0.036993742 0.38246569
-0.10183355 0.036941469 0.38200548
-0.10079604 0.037304103 0.38231692
-0.10032095 0.037251621 0.38185486
-0.099845856 0.03719914 0.38139281
-0.099370748 0.037146658 0.38093075
-0.098895654 0.037094176 0.38046873
-0.098420545 0.037041694 0.38000667
-0.097945452 0.036989212 0.37954465
-0.097470343 0.03693673 0.37908259
-0.096995249 0.036884248 0.37862054
-0.096520156 0.036831766 0.37815848
-0.096045047 0.036779284 0.37769642
-0.095569953 0.036726803 0.3772344
-0.09509486 0.036674321 0.37677237
-0.094031289 0.037034065 0.37705839
-0.093554318 0.036981374 0.37659451
-0.093077362 0.036928684 0.37613067
-0.09260039 0.036875993 0.37566683
-0.092123434 0.036823317 0.37520295
-0.091646463 0.036770627 0.37473908
-0.091169506 0.036717936 0.37427524
-0.090692535 0.036665246 0.37381139
-0.090215579 0.03661257 0.37334752
-0.090343848 0.036149517 0.37215188
-0.089868754 0.036097035 0.37168983
-0.089393646 0.036044553 0.3712278
-0.089529395 0.035582311 0.37003937
-0.089056164 0.035530038 0.36957917
-0.10234579 0.037644863 0.38235164
-0.10187256 0.03759259 0.3818914
-0.10139933 0.037540317 0.38143119
-0.10036011 0.037905306 0.38174036
-0.099885002 0.037852824 0.38127831
-0.099409908 0.037800342 0.38081625
-0.098934799 0.03774786 0.3803542
-0.098459706 0.037695378 0.37989214
-0.097984612 0.037642896 0.37943012
-0.097509503 0.037590429 0.37896806
-0.09703441 0.037537947 0.37850603
-0.096559301 0.037485465 0.37804398
-0.096084207 0.037432984 0.37758192
-0.095609114 0.037380502 0.37711987
-0.095134005 0.03732802 0.37665784
-0.094658911 0.037275538 0.37619579
-0.094183803 0.037223056 0.37573376
-0.093708709 0.037170574 0.37527171
-0.093233615 0.037118092 0.37480965
-0.092758507 0.03706561 0.3743476
-0.092283398 0.037013128 0.37388554
-0.091808304 0.036960647 0.37342352
-0.09133321 0.036908165 0.37296149
-0.090858102 0.036855683 0.37249944
-0.090383008 0.036803201 0.37203738
-0.089907914 0.036750734 0.37157533
-0.090041637 0.036285713 0.37038556
-0.089568406 0.03623344 0.36992532
-0.10388777 0.037979707 0.38238004
-0.10238481 0.038295999 0.38223758
-0.10191157 0.038243726 0.38177735
-0.10143833 0.038191453 0.38131711
-0.10039926 0.038559005 0.38162583
-0.099924162 0.038506523 0.38116378
-0.099449068 0.038454041 0.38070175
-0.09897396 0.038401559 0.3802397
-0.098498866 0.038349077 0.37977764
-0.098023772 0.038296595 0.37931558
-0.097548664 0.038244113 0.37885356
-0.09707357 0.038191631 0.3783915
-0.096598461 0.03813915 0.37792948
-0.096705958 0.037668705 0.37671477
-0.096232727 0.037616432 0.37625453
-0.095759496 0.037564144 0.37579432
-0.09528625 0.03751187 0.37533405
-0.094222963 0.037876755 0.37561923
-0.093747869 0.037824273 0.37515721
-0.093272775 0.037771791 0.37469515
-0.092797667 0.037719309 0.3742331
-0.092322558 0.037666827 0.37377104
-0.091847464 0.037614346 0.37330899
-0.091372371 0.037561864 0.37284696
-0.090897262 0.037509382 0.37238491
-0.090422168 0.0374569 0.37192288
-0.09055388 0.036989123 0.37073174
-0.090080649 0.036936849 0.37027147
-0.089607418 0.036884576 0.36981127
-0.089134172 0.036832303 0.36935103
-0.088660941 0.03678003 0.36889079
-0.088187695 0.036727741 0.36843055
-0.106361 0.038412303 0.38331532
-0.1058915 0.038360447 0.38285872
-0.10542198 0.038308576 0.38240209
-0.10439798 0.038680345 0.38272485
-0.10392661 0.03862828 0.38226643
-0.10345525 0.038576201 0.38180801
-0.1024238 0.038947135 0.3821235
-0.10195057 0.038894862 0.38166329
-0.10147732 0.038842574 0.38120303
-0.10100409 0.0387903 0.38074282
-0.099963322 0.039160222 0.38104928
-0.099488229 0.03910774 0.38058722
-0.09901312 0.039055258 0.38012519
-0.098538026 0.039002776 0.37966314
-0.098637909 0.038528934 0.37844163
-0.098164678 0.038476661 0.37798139
-0.097691447 0.038424373 0.37752119
-0.097218201 0.038372099 0.37706092
-0.096744969 0.038319826 0.37660071
-0.096271724 0.038267553 0.37614048
-0.095798492 0.03821528 0.37568024
-0.095325261 0.038163006 0.37522
-0.094852015 0.038110733 0.37475976
-0.094378784 0.03805846 0.37429956
-0.093905538 0.038006172 0.37383929
-0.093432307 0.037953898 0.37337908
-0.092959076 0.037901625 0.37291881
-0.09248583 0.037849352 0.37245861
-0.091411516 0.038215563 0.37273243
-0.091539353 0.037744805 0.37153813
-0.091066122 0.037692532 0.3710779
-0.090592891 0.037640259 0.37061766
-0.090119645 0.03758797 0.37015742
-0.089646414 0.037535697 0.36969718
-0.089173183 0.037483424 0.36923698
-0.088699937 0.037431151 0.36877671
-0.088226706 0.037378877 0.3683165
-0.10686921 0.039110184 0.38365877
-0.1063997 0.039058313 0.38320217
-0.10593018 0.039006457 0.38274553
-0.10546067 0.038954586 0.38228893
-0.10443684 0.039328903 0.38261124
-0.10396546 0.039276838 0.38215283
-0.10349409 0.039224774 0.38169441
-0.10246281 0.039598256 0.38200945
-0.10198957 0.039545983 0.38154921
-0.10151634 0.03949371 0.381089
-0.10104311 0.039441437 0.38062873
-0.10056986 0.039389148 0.38016853
-0.10009663 0.039336875 0.37970826
-0.099623382 0.039284602 0.37924805
-0.099150151 0.039232329 0.37878782
-0.09867692 0.039180055 0.37832758
-0.098203674 0.039127782 0.37786734
-0.097730443 0.039075509 0.3774071
-0.097257197 0.039023235 0.3769469
-0.096783966 0.038970947 0.37648663
-0.096310735 0.038918674 0.37602642
-0.096423477 0.038443729 0.37481806
-0.095364258 0.038814127 0.37510595
-0.094891027 0.038761854 0.37464571
-0.094417781 0.038709581 0.37418547
-0.09394455 0.038657308 0.37372524
-0.093471318 0.038605034 0.373265
-0.092998073 0.038552746 0.37280476
-0.092524841 0.038500473 0.37234452
-0.092051595 0.0384482 0.37188432
-0.091578364 0.038395926 0.37142405
-0.091105133 0.038343653 0.37096384
-0.090631887 0.03829138 0.3705036
-0.090158656 0.038239107 0.37004337
-0.08968541 0.038186833 0.36958313
-0.089212179 0.038134545 0.36912289
-0.088738948 0.038082272 0.36866266
-0.088265702 0.038029999 0.36820242
-0.10737741 0.039808035 0.38400221
-0.1069079 0.039756179 0.38354561
-0.1064384 0.039704308 0.38308898
-0.10596888 0.039652452 0.38263237
-0.10549937 0.039600581 0.38217577
-0.10447569 0.039977476 0.38249764
-0.10400432 0.039925411 0.38203922
-0.10353294 0.039873347 0.3815808
-0.10306157 0.039821267 0.38112238
-0.10202858 0.040197119 0.38143516
-0.10155535 0.040144846 0.38097492
-0.1010821 0.040092573 0.38051468
-0.10060887 0.040040284 0.38005444
-0.10013562 0.039988011 0.37959421
-0.099662393 0.039935738 0.37913397
-0.099189162 0.039883465 0.37867376
-0.098715916 0.039831191 0.3782135
-0.098242685 0.039778918 0.37775329
-0.097769439 0.039726645 0.37729305
-0.097296208 0.039674371 0.37683281
-0.096822977 0.039622083 0.37637258
-0.096933708 0.039144367 0.37516287
-0.096462339 0.039092302 0.37470445
-0.095990956 0.039040238 0.37424603
-0.095519587 0.038988158 0.37378761
-0.095048219 0.038936093 0.37332919
-0.094576836 0.038884029 0.37287077
-0.094105467 0.038831949 0.37241235
-0.093634099 0.038779885 0.37195393
-0.092563838 0.039151609 0.37223047
-0.092090607 0.039099336 0.37177023
-0.091617376 0.039047062 0.37131
-0.09114413 0.038994789 0.37084976
-0.090670899 0.038942516 0.37038955
-0.090197653 0.038890243 0.36992928
-0.089724422 0.038837969 0.36946908
-0.08925119 0.038785681 0.36900884
-0.088777944 0.038733408 0.3685486
-0.088304713 0.038681135 0.36808836
-0.10741611 0.040454045 0.38388905
-0.10694659 0.040402174 0.38343242
-0.10647708 0.040350318 0.38297582
-0.10600758 0.040298447 0.38251922
-0.10553807 0.040246591 0.38206258
-0.10451454 0.040626034 0.38238403
-0.10404316 0.040573969 0.38192561
-0.10357179 0.040521905 0.38146719
-0.10254082 0.040900514 0.38178131
-0.10206759 0.04084824 0.3813211
-0.10159434 0.040795967 0.38086087
-0.1011211 0.040743694 0.38040063
-0.10064787 0.040691406 0.37994039
-0.10017464 0.040639132 0.37948015
-0.099701405 0.040586859 0.37901992
-0.099228159 0.040534586 0.37855968
-0.098754913 0.040482312 0.37809947
-0.098281682 0.040430039 0.3776392
-0.09780845 0.040377766 0.377179
-0.097335219 0.040325493 0.37671873
-0.097443938 0.039845005 0.37550768
-0.096972555 0.039792925 0.37504926
-0.096501186 0.03974086 0.37459084
-0.096029818 0.039688796 0.37413242
-0.095558435 0.039636716 0.37367401
-0.095087066 0.039584652 0.37321559
-0.094615698 0.039532587 0.37275717
-0.094144315 0.039480507 0.37229875
-0.093672946 0.039428443 0.37184033
-0.093201578 0.039376378 0.37138191
-0.092129603 0.039750457 0.37165618
-0.092258826 0.039272234 0.37046507
-0.091183126 0.03964591 0.3707357
-0.090709895 0.039593637 0.37027547
-0.090236664 0.039541364 0.36981526
-0.089763433 0.03948909 0.36935499
-0.089290187 0.039436802 0.36889479
-0.088816941 0.039384529 0.36843452
-0.08834371 0.039332256 0.36797431
-0.10745481 0.04110004 0.38377586
-0.1069853 0.041048184 0.38331929
-0.10651578 0.040996313 0.38286266
-0.10604627 0.040944457 0.38240603
-0.10502476 0.041326687 0.38272884
-0.10455339 0.041274607 0.38227043
-0.10408202 0.041222543 0.38181201
-0.10361063 0.041170478 0.38135356
-0.10257982 0.04155165 0.38166726
-0.10210659 0.041499376 0.38120702
-0.10163334 0.041447103 0.38074681
-0.10116011 0.04139483 0.38028654
-0.10068688 0.041342542 0.37982634
-0.10021363 0.041290268 0.37936607
-0.099740401 0.041237995 0.37890586
-0.099267155 0.041185722 0.37844563
-0.098793924 0.041133448 0.37798539
-0.098320693 0.041081175 0.37752515
-0.097847462 0.041028902 0.37706491
-0.097374216 0.040976629 0.37660471
-0.096900985 0.04092434 0.37614444
-0.097011417 0.040441498 0.37493566
-0.096540034 0.040389434 0.37447724
-0.096068665 0.040337369 0.37401882
-0.095597282 0.040285289 0.3735604
-0.095125914 0.040233225 0.37310198
-0.094654545 0.04018116 0.37264356
-0.094183162 0.04012908 0.37218514
-0.093711793 0.040077016 0.37172672
-0.093240425 0.040024951 0.37126827
-0.089329198 0.040087938 0.3687807
-0.1074935 0.04174605 0.38366273
-0.10702398 0.041694179 0.3832061
-0.10655448 0.041642323 0.3827495
-0.10608497 0.041590452 0.3822929
-0.10506362 0.041975245 0.38261524
-0.10459223 0.041923165 0.38215682
-0.10412087 0.041871101 0.38169837
-0.1036495 0.041819036 0.38123995
-0.10261883 0.042202771 0.3815532
-0.10214558 0.042150497 0.38109297
-0.10167235 0.042098224 0.38063273
-0.10119912 0.042045951 0.38017249
-0.10072587 0.041993678 0.37971225
-0.10025264 0.041941404 0.37925202
-0.099779397 0.041889131 0.37879178
-0.099306166 0.041836858 0.37833157
-0.098832935 0.04178457 0.3778713
-0.098359689 0.041732296 0.3774111
-0.097886458 0.041680023 0.37695086
-0.097413212 0.04162775 0.37649062
-0.096939981 0.041575477 0.37603039
-0.097050264 0.041090056 0.37482205
-0.096578881 0.041037992 0.37436363
-0.096107513 0.040985927 0.37390521
-0.095636129 0.040933847 0.37344679
-0.095164761 0.040881783 0.37298837
-0.094693393 0.040829718 0.37252995
-0.094222009 0.040777639 0.3720715
-0.093750641 0.040725574 0.37161309
-0.089368194 0.040739074 0.36866665
-0.088894963 0.040686801 0.36820641
-0.1075322 0.04239206 0.38354954
-0.10706268 0.042340189 0.38309294
-0.10659318 0.042288333 0.38263634
-0.10557383 0.042675883 0.38296002
-0.10510245 0.042623818 0.3825016
-0.1046311 0.042571738 0.38204318
-0.10415971 0.042519674 0.38158476
-0.10313107 0.04290618 0.38189939
-0.10265782 0.042853907 0.38143912
-0.10218459 0.042801633 0.38097891
-0.10171136 0.04274936 0.38051867
-0.10123812 0.042697087 0.38005844
-0.10019827 0.043082371 0.38036218
-0.10029164 0.042592525 0.37913796
-0.099248067 0.042977408 0.3794381
-0.099345177 0.042487979 0.37821749
-0.097452223 0.042278886 0.37637654
-0.096978992 0.042226598 0.37591633
-0.096505746 0.042174324 0.37545609
-0.096617728 0.041686565 0.37425002
-0.09614636 0.0416345 0.37379161
-0.095674992 0.04158242 0.37333316
-0.10710138 0.042986184 0.38297978
-0.10608405 0.043376505 0.38330483
-0.10561268 0.043324441 0.38284642
-0.10514131 0.043272376 0.382388
-0.10466993 0.043220297 0.38192958
-0.10364331 0.043609589 0.38224554
-0.10317007 0.043557316 0.3817853
-0.10269684 0.043505028 0.38132507
-0.1022236 0.043452755 0.38086483
-0.10118762 0.043841019 0.38117179
-0.10071252 0.043788537 0.38070974
-0.10023743 0.043736055 0.38024768
-0.099762321 0.043683574 0.37978563
-0.099287227 0.043631092 0.3793236
-0.098812118 0.04357861 0.37886155
-0.09749122 0.042930007 0.37626252
-0.097017989 0.042877734 0.37580225
-0.096544757 0.04282546 0.37534204
-0.096656591 0.042335123 0.37413639
-0.10659428 0.044077158 0.38364965
-0.10612291 0.044025078 0.3831912
-0.10565153 0.043973014 0.38273278
-0.10518016 0.043920949 0.38227436
-0.10415554 0.044312999 0.38259169
-0.10368231 0.044260725 0.38213149
-0.10320908 0.044208452 0.38167122
-0.10273583 0.044156164 0.38121101
-0.10170189 0.0445472 0.38151932
-0.10122678 0.044494718 0.38105726
-0.10075167 0.044442236 0.38059524
-0.10027657 0.044389755 0.38013318
-0.099801481 0.044337273 0.37967113
-0.099326372 0.044284791 0.37920907
-0.098851278 0.044232309 0.37874702
-0.098003477 0.043633416 0.37660867
-0.097530231 0.043581143 0.37614843
-0.097057 0.04352887 0.3756882
-0.096583754 0.043476596 0.37522796
-0.096110523 0.043424323 0.37476775
-0.095637292 0.04337205 0.37430748
-0.10419455 0.04496412 0.38247764
-0.10372132 0.044911847 0.3820174
-0.10324807 0.044859573 0.3815572
-0.10221614 0.045253381 0.38186684
-0.10174105 0.045200899 0.38140479
-0.10126594 0.045148417 0.38094276
-0.10079083 0.045095935 0.38048071
-0.10031573 0.045043454 0.38001865
-0.099840641 0.044990972 0.37955663
-0.099365532 0.04493849 0.37909457
-0.098890439 0.044886008 0.37863252
-0.098415345 0.044833526 0.37817046
-0.097940236 0.044781044 0.37770844
-0.098042473 0.044284537 0.37649462
-0.097569227 0.044232264 0.37603435
-0.097095996 0.044179991 0.37557414
-0.096622765 0.044127718 0.3751139
-0.096149534 0.044075444 0.37465367
-0.095676288 0.044023171 0.37419343
-0.095203042 0.043970883 0.37373319
-0.10273039 0.045959547 0.3822144
-0.10225528 0.045907065 0.38175234
-0.10178019 0.045854583 0.38129029
-0.10035489 0.045697138 0.37990415
-0.097135007 0.044831112 0.37546006
-0.099443853 0.046245873 0.37886554
-0.098968744 0.046193391 0.37840351
-0.098493651 0.046140909 0.37794146
-0.098018557 0.046088442 0.3774794
