# .PCD v0.7 - Point Cloud Data file format
VERSION 0.7
FIELDS x y z
SIZE 4 4 4
TYPE F F F
COUNT 1 1 1
WIDTH 306
HEIGHT 1
VIEWPOINT 0 0 0 1 0 0 0
POINTS 306
DATA ascii
-3.3906713 -0.95788968 1.4040995
-3.3901768 -0.94900835 1.404325
-3.342876 -0.93958735 1.39573
-3.3692808 -0.93521035 1.3972931
-3.3423872 -0.93080509 1.3959529
-3.3166361 -0.92665315 1.3949313
-3.3957534 -0.93072855 1.3987925
-3.3891878 -0.9312458 1.4047759
-3.3226075 -0.91740859 1.3892677
-3.3161497 -0.91791749 1.395153
-3.2904716 -0.91380703 1.3940673
-3.3952589 -0.92184711 1.3990178
-3.3682976 -0.91754651 1.3977416
-3.3414092 -0.91324008 1.3963988
-3.2964106 -0.90461206 1.3884342
-3.2899876 -0.90511823 1.3942878
-3.3947644 -0.91296589 1.3992434
-3.3474126 -0.90394616 1.3907049
-3.3216348 -0.89993751 1.3897114
-3.295927 -0.8959235 1.3886547
-3.2692204 -0.89165235 1.3871477
-3.2628341 -0.89215565 1.3929682
-3.2383647 -0.88837945 1.392143
-3.4008355 -0.90356719 1.3934853
-3.3738432 -0.89936829 1.3922398
-3.3469238 -0.89516377 1.3909278
-3.3211489 -0.89120185 1.3899331
-3.275126 -0.88250971 1.3815465
-3.2505937 -0.87878299 1.3807797
-3.2442398 -0.87928367 1.3865705
-3.4274035 -0.89882958 1.394891
-3.37988 -0.89002204 1.3865139
-3.3529272 -0.88586974 1.3852339
-3.3271203 -0.88195753 1.3842695
-3.3013825 -0.87803984 1.3832421
-3.2746449 -0.87387049 1.3817658
-3.2501149 -0.870188 1.3809979
-3.2245851 -0.86625373 1.3797812
-3.4335084 -0.88937855 1.3891008
-3.4064121 -0.88528728 1.3879528
-3.3793883 -0.88119018 1.3867381
-3.3524384 -0.87708735 1.3854568
-3.3266339 -0.87322187 1.3844912
-3.300899 -0.86935103 1.3834629
-3.2559905 -0.86109221 1.3754256
-3.2496367 -0.86159289 1.381216
-3.2241092 -0.85770559 1.3799982
-3.1986513 -0.85381281 1.3787172
-3.174324 -0.85015869 1.3777659
-3.4396133 -0.87992764 1.3833108
-3.4330115 -0.88044786 1.3893275
-3.4059176 -0.87640595 1.3881783
-3.3788967 -0.87235832 1.3869624
-3.3519492 -0.86830497 1.38568
-3.3261476 -0.86448634 1.3847129
-3.300415 -0.86066234 1.3836834
-3.2736831 -0.85659194 1.3822045
-3.2491584 -0.85299778 1.3814342
-3.2236333 -0.84915733 1.3802152
-3.2173142 -0.84965539 1.3859742
-3.1738529 -0.84170163 1.3779805
-3.4457178 -0.8704766 1.3775206
-3.439116 -0.87099683 1.3835373
-3.4119883 -0.86700726 1.3824203
-3.4054232 -0.86752462 1.3884037
-3.3988576 -0.86804199 1.3943872
-3.3514605 -0.85952246 1.3859029
-3.3256612 -0.85575068 1.3849349
-3.2999315 -0.85197353 1.383904
-3.2732024 -0.8479526 1.3824239
-3.2486796 -0.84440279 1.3816526
-3.2231579 -0.84060907 1.3804324
-3.2168388 -0.84110713 1.3861914
-3.1914206 -0.83730531 1.3848763
-3.1671305 -0.83373713 1.383893
-3.1608787 -0.83422983 1.3895907
-3.4452209 -0.86154592 1.3777473
-3.4386191 -0.86206615 1.383764
-3.4114943 -0.85812604 1.3826458
-3.4049287 -0.85864341 1.3886292
-3.3983636 -0.85916078 1.3946128
-3.3713851 -0.85520911 1.3933609
-3.3444796 -0.85125172 1.3920426
-3.3187175 -0.84752405 1.391042
-3.293025 -0.84379101 1.3899784
-3.266335 -0.83981657 1.3884635
-3.2418475 -0.83630836 1.3876615
-3.216363 -0.83255887 1.3864083
-3.1909471 -0.82880402 1.3850923
-3.1846628 -0.82929921 1.3908198
-3.160408 -0.82577264 1.3898053
-3.1541562 -0.82626534 1.395503
-3.1479049 -0.82675791 1.4012008
-3.4653168 -0.85702026 1.3850441
-3.4381218 -0.85313535 1.3839908
-3.43152 -0.85365558 1.3900075
-3.4249182 -0.85417581 1.3960245
-3.3978691 -0.85027933 1.3948381
-3.3708935 -0.84637725 1.3935852
-3.3643646 -0.84689164 1.3995354
-3.3374982 -0.84298086 1.3981826
-3.3117738 -0.83929729 1.3971491
-3.2861185 -0.83560836 1.3960526
-3.2594676 -0.83168054 1.3945036
-3.2350154 -0.82821393 1.3936703
-3.209568 -0.82450855 1.3923843
-3.203249 -0.82500648 1.3981433
-3.1969299 -0.82550442 1.4039025
-3.1716204 -0.82178819 1.4024906
-3.1842918 -0.82650042 1.4154205
-3.1779728 -0.82699835 1.4211798
-3.1716537 -0.82749629 1.4269388
-3.464817 -0.8480401 1.385272
-3.4581785 -0.84856319 1.3913221
-3.4515405 -0.84908628 1.397372
-3.4449019 -0.84960949 1.4034224
-3.417819 -0.84576535 1.4022679
-3.3908095 -0.84191549 1.401047
-3.363873 -0.8380599 1.3997595
-3.3573442 -0.83857441 1.4057097
-3.3305173 -0.83471 1.4043221
-3.3048301 -0.83107066 1.4032562
-3.279212 -0.82742584 1.402127
-3.2526002 -0.8235445 1.4005432
-3.2281833 -0.82011962 1.3996792
-3.2218299 -0.8206203 1.4054697
-3.196454 -0.81695628 1.4041195
-3.2091222 -0.82162166 1.4170511
-3.2027688 -0.82212234 1.4228415
-3.1964149 -0.82262301 1.4286323
-3.1900611 -0.82312369 1.434423
-3.1837077 -0.82362437 1.4402134
-3.1585393 -0.81994402 1.438674
-3.4377637 -0.84115231 1.4097002
-3.4107203 -0.8373549 1.4085114
-3.4041185 -0.83787513 1.4145281
-3.3771844 -0.83406878 1.4132395
-3.3503237 -0.83025694 1.4118843
-3.3437953 -0.83077133 1.4178343
-3.2978859 -0.82284391 1.4093633
-3.2914286 -0.82335281 1.4152484
-3.2457333 -0.81540835 1.4065828
-3.2393465 -0.81591165 1.4124033
-3.2149978 -0.81252587 1.4114788
-3.2086439 -0.81302655 1.4172692
-3.2022901 -0.81352723 1.4230599
-3.1959367 -0.81402791 1.4288507
-3.1895828 -0.81452858 1.4346411
-3.183229 -0.81502926 1.4404318
-3.1580639 -0.81139576 1.4388909
-3.1517448 -0.8118937 1.4446499
-3.4239869 -0.83321846 1.4220285
-3.3970194 -0.82946467 1.4207718
-3.3904176 -0.8299849 1.4267886
-3.3433037 -0.82193959 1.4180584
-3.3367748 -0.82245409 1.4240088
-3.2909422 -0.81461728 1.4154701
-3.2653985 -0.81106055 1.4142756
-3.258976 -0.81156671 1.4201293
-3.2324796 -0.80777574 1.418443
-3.2260928 -0.80827892 1.4242635
-3.2197065 -0.80878222 1.430084
-3.2133203 -0.8092854 1.4359043
-3.1891046 -0.80593359 1.4348593
-3.1827507 -0.80643427 1.44065
-3.157588 -0.80284762 1.4391081
-3.4035721 -0.82580757 1.4404066
-3.3564997 -0.81785834 1.4316411
-3.3297544 -0.81413662 1.4301832
-3.303082 -0.81040907 1.4286585
-3.2965899 -0.81092072 1.4345753
-3.2710834 -0.80740821 1.4333479
-3.2646255 -0.807917 1.4392333
-3.2392235 -0.80439627 1.437911
-3.2128391 -0.80064607 1.4361236
-3.2064528 -0.80114937 1.4419441
-3.1822724 -0.79783916 1.4408681
-3.1571121 -0.79429936 1.4393251
-3.3964334 -0.81735051 1.4466851
-3.3696179 -0.81368399 1.4452925
-3.3227339 -0.80581915 1.4363575
-3.3162055 -0.80633366 1.4423077
-3.289609 -0.80264986 1.4407153
-3.2831163 -0.8031615 1.4466321
-3.2576818 -0.79969025 1.4453402
-3.2323165 -0.79621375 1.4439855
-3.2059722 -0.79251003 1.4421635
-3.1817937 -0.78924406 1.4410863
-3.1566362 -0.7857511 1.4395421
-3.3892956 -0.80889344 1.4529629
-3.3625188 -0.80527341 1.4515359
-3.3358154 -0.80164778 1.4500422
-3.309185 -0.79801631 1.448482
-3.3026562 -0.79853082 1.4544322
-3.2761354 -0.79489064 1.4527719
-3.2507381 -0.79146361 1.4514475
-3.22541 -0.78803122 1.4500597
-3.1991048 -0.784374 1.4482033
-3.1561604 -0.77720284 1.439759
-3.3821573 -0.80043626 1.4592412
-3.3554196 -0.79686284 1.4577794
-3.3488178 -0.79738307 1.4637964
-3.3221903 -0.79380107 1.4622347
-3.2956357 -0.79021335 1.4606066
-3.2691545 -0.78661978 1.4589119
-3.2249265 -0.77934241 1.4502804
-3.1986237 -0.77573466 1.4484227
-3.1744833 -0.77255464 1.4473135
-3.3750191 -0.79197931 1.465519
-3.348321 -0.78845251 1.4640231
-3.3216958 -0.78491986 1.4624603
-3.2951441 -0.78138149 1.4608309
-3.2686653 -0.7778374 1.4591348
-3.2433081 -0.77450132 1.4577761
-3.198143 -0.76709545 1.448642
-3.1552086 -0.76010644 1.4401932
-3.3745189 -0.78299904 1.4657471
-3.3678808 -0.78352213 1.4717972
-3.3212018 -0.77603853 1.4626858
-3.3146362 -0.7765559 1.4686692
-3.2681766 -0.76905501 1.4593577
-3.2428217 -0.76576567 1.457998
-3.217536 -0.76247108 1.4565754
-3.1547327 -0.75155818 1.4404101
-3.3740191 -0.77401888 1.465975
-3.3673806 -0.77454197 1.4720252
-3.3141422 -0.76767468 1.4688947
-3.2876325 -0.7642324 1.4672294
-3.2423353 -0.75703013 1.4582198
-3.2170525 -0.75378239 1.4567959
-3.173048 -0.74676955 1.447968
-3.3668809 -0.76556182 1.4722531
-3.3136477 -0.75879335 1.46912
-3.3070822 -0.75931072 1.4751036
-3.2607069 -0.75200176 1.4657204
-3.2353916 -0.74880338 1.4643269
-3.1903138 -0.74168074 1.4551203
-3.1474624 -0.73495972 1.4466033
-3.3663812 -0.75658166 1.472481
-3.3065882 -0.75042939 1.4753292
-3.2801204 -0.74708307 1.473628
-3.2349052 -0.74006784 1.4645486
-3.2096624 -0.73691106 1.4630909
-3.1657372 -0.73008013 1.454195
-3.1406674 -0.72690952 1.4525795
-3.3725195 -0.74707842 1.4666588
-3.3658814 -0.74760151 1.4727089
-3.2995281 -0.74206543 1.4815381
-3.2532368 -0.73494852 1.4720833
-3.2279615 -0.73184109 1.4706557
-3.1829658 -0.72490537 1.4613795
-3.158905 -0.7219857 1.4602039
-3.3187299 -0.73163211 1.4638131
-3.3121648 -0.73214948 1.4697967
-3.3055992 -0.73266685 1.47578
-3.2990341 -0.7331841 1.4817636
-3.2726083 -0.72993386 1.4800267
-3.2462559 -0.72667766 1.4782231
-3.2022719 -0.72003961 1.4693859
-3.1760983 -0.71676946 1.4674191
-3.1333966 -0.71031094 1.4587724
-3.324801 -0.72223341 1.458055
-3.3182354 -0.72275078 1.4640386
-3.3116703 -0.72326815 1.470022
-3.3051047 -0.72378552 1.4760056
-3.2985396 -0.72430277 1.4819889
-3.2721167 -0.721102 1.4802508
-3.2457671 -0.71789527 1.4784462
-3.2205315 -0.71487892 1.4769845
-3.1953654 -0.71185708 1.4754601
-3.1515946 -0.70529628 1.4664309
-3.1266017 -0.70226073 1.4647486
-3.2907233 -0.70553172 1.4372509
-3.2842312 -0.70604336 1.4431679
-3.277739 -0.70655489 1.4490848
-3.2712469 -0.70706654 1.4550016
-3.2647548 -0.70757806 1.4609184
-3.2582626 -0.70808971 1.4668353
-3.2329602 -0.70512557 1.4654357
-3.2265029 -0.70563447 1.4713211
-3.2013049 -0.70266211 1.4698269
-3.1751366 -0.69949079 1.4678578
-3.1511164 -0.69670117 1.4666493
-3.1261258 -0.69371247 1.4649656
-3.2321334 -0.68632221 1.4156933
-3.2257466 -0.68682551 1.4215136
-3.2193604 -0.6873287 1.4273341
-3.2129741 -0.687832 1.4331546
-3.2065878 -0.68833518 1.4389749
-3.200201 -0.68883848 1.4447954
-3.2136669 -0.69296122 1.4583399
-3.1874285 -0.68984497 1.4564364
-3.1633453 -0.68710482 1.455286
-3.138288 -0.68416834 1.4536645
-3.2444253 -0.67667639 1.4042716
-3.194684 -0.67113853 1.4020498
-3.1693873 -0.6682682 1.4006479
-3.1820459 -0.6721344 1.413568
-3.1568184 -0.66925859 1.4121029
-3.1694078 -0.67313039 1.425086
-3.1630888 -0.67362833 1.430845
-3.1567698 -0.67412627 1.4366043
-3.1504502 -0.6746242 1.4423633
-3.2068462 -0.66159451 1.3907485
-3.1814828 -0.65877628 1.3894086
-3.2126894 -0.65254819 1.3852067
