# .PCD v0.7 - Point Cloud Data file format
VERSION 0.7
FIELDS x y z
SIZE 4 4 4
TYPE F F F
COUNT 1 1 1
WIDTH 199
HEIGHT 1
VIEWPOINT 0 0 0 1 0 0 0
POINTS 199
DATA ascii
-3.0576925 0.8727659 1.3267953
-3.0516024 0.87228608 1.332346
-3.0633421 0.87679291 1.3445382
-3.0739698 0.88100135 1.3563976
-3.0510964 0.87582791 1.3556988
-3.0572338 0.88100445 1.3270044
-3.085814 0.89029562 1.3453925
-3.0974874 0.89484179 1.3576438
-3.0913014 0.89435434 1.363282
-3.085115 0.89386678 1.3689201
-3.0611992 0.88835597 1.3678255
-3.074666 0.89432347 1.3337984
-3.0853505 0.89862013 1.3456037
-3.1148472 0.90828562 1.3645005
-3.1264205 0.91286826 1.3768425
-3.1201687 0.91237557 1.3825402
-3.0545821 0.89619553 1.3736455
-3.0742049 0.90260625 1.3340087
-3.1027427 0.91206658 1.3524306
-3.1322012 0.92181814 1.3713593
-3.1437397 0.92644227 1.3837323
-3.137455 0.92594707 1.3894598
-3.1311707 0.92545187 1.3951874
-3.0737438 0.91088903 1.334219
-3.1201296 0.92560148 1.3592596
-3.1317306 0.93027532 1.3715742
-3.1621003 0.94040847 1.391017
-3.1557813 0.93991053 1.396776
-3.1494622 0.93941259 1.402535
-3.047502 0.91235948 1.3796763
-3.1196613 0.93401444 1.3594732
-3.1490774 0.94394028 1.3784363
-3.1616244 0.94895661 1.3912342
-3.1741018 0.95396757 1.4040949
-3.1677485 0.95346689 1.4098854
-3.12394 0.94195938 1.4013464
-3.1191931 0.94242728 1.3596869
-3.1486044 0.95244181 1.3786523
-3.1611485 0.95750487 1.3914511
-3.1736236 0.96256268 1.4043131
-3.1672697 0.962062 1.4101036
-3.1234665 0.95046091 1.4015622
-3.0818787 0.93948686 1.3936944
-3.1070652 0.94602871 1.3476424
-3.1365705 0.95613933 1.3665204
-3.1481309 0.9609431 1.3788681
-3.1606727 0.96605301 1.3916681
-3.1731448 0.97115767 1.4045312
-3.1667914 0.97065699 1.4103217
-3.1417155 0.9645592 1.4089451
-3.0990596 0.95318341 1.4007068
-2.989181 0.92162621 1.366236
-3.1065993 0.95439744 1.3478549
-3.1182566 0.95925319 1.3601141
-3.1476579 0.96944451 1.3790839
-3.1601968 0.97460139 1.391885
-3.1538777 0.97410345 1.397644
-3.1475587 0.97360551 1.403403
-3.12252 0.96746361 1.401994
-3.0809422 0.95631278 1.3941216
-2.9887247 0.92982316 1.3664441
-3.0882607 0.957376 1.3414748
-3.1177878 0.96766615 1.3603275
-3.1293769 0.97256088 1.3726475
-3.1409001 0.97745061 1.3850272
-3.1346159 0.97695541 1.3907547
-3.1283317 0.97646022 1.3964822
-3.1220469 0.97596502 1.4022098
-3.0804739 0.96472573 1.394335
-2.9882684 0.93801999 1.3666523
-3.0877972 0.96570051 1.341686
-3.0994816 0.97064722 1.3539178
-3.1111007 0.97558892 1.3662093
-3.1226544 0.98052549 1.3785601
-3.1164026 0.9800328 1.3842578
-3.1101508 0.97954023 1.3899553
-3.0862246 0.97362864 1.388881
-3.0623636 0.9677223 1.3877466
-3.0043855 0.9513123 1.3732905
-3.0526481 0.96339011 1.3290961
-3.0811801 0.97354007 1.3475058
-3.0928292 0.9785285 1.3597684
-3.0866432 0.97804105 1.3654065
-3.0804567 0.97755349 1.3710446
-3.0742702 0.97706604 1.3766828
-3.0680838 0.97657847 1.3823209
-3.0442581 0.97063065 1.3811557
-2.9873557 0.95441401 1.3670683
-3.0353746 0.96643078 1.3230972
-3.0460992 0.97114873 1.3348558
-3.0578098 0.97618651 1.3470616
-3.0516868 0.97570395 1.3526418
-3.0455637 0.97522151 1.3582222
-3.0561023 0.9799248 1.3701503
-3.033318 0.97425652 1.3693826
-3.0095582 0.96826923 1.3681586
-2.9703307 0.95743239 1.3608444
-3.0012932 0.96414864 1.3108876
-3.0120769 0.96891308 1.3225908
-3.0227995 0.97367275 1.3343503
-3.0167403 0.9731952 1.3398726
-3.0106807 0.97271776 1.3453951
-3.0046215 0.97224021 1.3509173
-2.9985619 0.97176278 1.3564398
-2.9759054 0.96606266 1.3555572
-2.9367442 0.9551475 1.3481848
-2.9514613 0.95674884 1.2928519
-2.9623332 0.96156204 1.3044736
-2.9720969 0.96604061 1.3157601
-2.9661303 0.96557045 1.3211985
-2.97685 0.97037172 1.3329587
-2.9708524 0.96989906 1.3384249
-2.9648542 0.96942639 1.3438914
-2.9422617 0.96368957 1.3429515
-2.8886733 0.94809186 1.329891
-2.9195013 0.95475996 1.2814093
-2.9293804 0.95928693 1.2925897
-2.9392014 0.96380913 1.3038228
-2.9332938 0.96334362 1.3092067
-2.9273868 0.96287811 1.3145905
-2.9381332 0.96772337 1.3263254
-2.9321952 0.96725535 1.3317375
-2.9096642 0.96148157 1.3307424
-2.8571773 0.94610035 1.3180265
-2.8875499 0.9526149 1.2699625
-2.8974848 0.95718539 1.2810915
-2.9073615 0.96175122 1.2922728
-2.9015117 0.96129036 1.2976041
-2.8956618 0.96082938 1.3029354
-2.8898125 0.96036839 1.3082666
-2.8995447 0.9649229 1.3195796
-2.8781128 0.95944643 1.3189294
-2.8267245 0.9442867 1.3065603
-2.8724113 0.95571983 1.264725
-2.8666463 0.95526552 1.269979
-2.8755302 0.95953727 1.2807188
-2.8697381 0.95908082 1.2859974
-2.863946 0.95862436 1.2912762
-2.8581543 0.95816803 1.2965548
-2.8679423 0.96276617 1.3078165
-2.84657 0.95725513 1.3071125
-2.8107681 0.94703543 1.3007231
-2.856226 0.95841134 1.2590971
-2.8662119 0.96306431 1.2701771
-2.8604465 0.96261001 1.2754314
-2.854682 0.9621557 1.2806854
-2.8489165 0.96170139 1.2859397
-2.8431516 0.96124709 1.2911937
-2.8373866 0.96079278 1.296448
-2.8160725 0.95524716 1.2956924
-2.7958508 0.95004535 1.2952864
-2.8715429 0.97131741 1.2651207
-2.865778 0.9708631 1.270375
-2.8600125 0.9704088 1.2756293
-2.8542476 0.96995449 1.2808833
-2.8484826 0.96950018 1.2861376
-2.8427176 0.96904588 1.2913916
-2.8213768 0.96345901 1.2906613
-2.8156404 0.96300697 1.2958894
-2.7799029 0.95264065 1.2894452
-2.9015527 0.98914111 1.2765861
-2.8957314 0.98868239 1.2818911
-2.8742218 0.98304284 1.2813156
-2.8538136 0.97775328 1.2810814
-2.8480487 0.97729897 1.2863355
-2.8422832 0.97684467 1.2915897
-2.8209448 0.97121871 1.2908585
-2.8007002 0.96594191 1.2904754
-2.7794752 0.96032488 1.2896402
-2.8894725 0.99609804 1.287396
-2.8836517 0.99563932 1.292701
-2.8622017 0.98996532 1.2920718
-2.8418493 0.98464346 1.2917876
-2.8205128 0.97897851 1.2910554
-2.8002701 0.97366524 1.2906713
-2.7790475 0.96800923 1.2898352
-2.8773923 1.0030547 1.2982059
-2.8559732 0.99734414 1.2975495
-2.83565 0.99198794 1.29724
-2.7998405 0.98138857 1.2908676
-2.7786198 0.97569346 1.2900302
-2.8925786 1.0162224 1.3043418
-2.8711333 1.0104704 1.3037109
-2.8497453 1.004723 1.3030272
-2.8139129 0.99404597 1.2966774
-2.7937012 0.988662 1.2962668
-2.8862882 1.0236747 1.3098738
-2.8648739 1.0178859 1.3092158
-2.8435173 1.0121018 1.3085048
-2.8077445 1.0013537 1.3021021
-2.7720838 0.99061441 1.2955976
-2.8741484 1.030666 1.3207374
-2.8372889 1.0194806 1.3139825
-2.8170524 1.0140215 1.3135965
-2.8678584 1.0381184 1.3262696
-2.8465347 1.0322584 1.3255308
-2.861568 1.0455706 1.3318019
-2.8398376 1.0475482 1.3312354
-2.8393989 1.0554224 1.3314354
