# .PCD v0.7 - Point Cloud Data file format
VERSION 0.7
FIELDS x y z
SIZE 4 4 4
TYPE F F F
COUNT 1 1 1
WIDTH 311
HEIGHT 1
VIEWPOINT 0 0 0 1 0 0 0
POINTS 311
DATA ascii
-0.073263094 0.0012790337 0.25871542
-0.072924003 0.0012415797 0.25838566
-0.073630124 0.0017830506 0.2589635
-0.073291034 0.0017455965 0.2586337
-0.072951958 0.001708135 0.25830394
-0.072612852 0.0016706809 0.25797418
-0.072273761 0.0016332269 0.25764439
-0.07193467 0.0015957654 0.25731459
-0.071595579 0.0015583113 0.25698486
-0.076709896 0.0025867149 0.26184973
-0.076370806 0.0025492609 0.26151994
-0.076031715 0.0025117993 0.26119018
-0.075692624 0.0024743453 0.26086041
-0.073658079 0.002249606 0.25888175
-0.073318988 0.0022121444 0.25855199
-0.072979897 0.0021746904 0.25822219
-0.072640806 0.0021372288 0.25789243
-0.072301716 0.0020997748 0.25756267
-0.071962625 0.0020623207 0.25723287
-0.071623534 0.0020248592 0.25690311
-0.071284443 0.0019874051 0.25657335
-0.076737851 0.0030532777 0.26176798
-0.07639876 0.0030158162 0.26143822
-0.076059669 0.0029783621 0.26110843
-0.075720578 0.0029409006 0.26077867
-0.075381488 0.0029034466 0.2604489
-0.075042397 0.0028659925 0.26011911
-0.074703306 0.002828531 0.25978935
-0.074364215 0.0027910769 0.25945958
-0.074025124 0.0027536154 0.25912979
-0.073686033 0.0027161613 0.2588
-0.073346943 0.0026787072 0.25847027
-0.073007852 0.0026412457 0.25814047
-0.072668761 0.0026037917 0.25781068
-0.07232967 0.0025663376 0.25748092
-0.071990564 0.0025288761 0.25715116
-0.071651489 0.002491422 0.25682136
-0.071312398 0.0024539605 0.2564916
-0.070973307 0.0024165064 0.25616184
-0.070634216 0.0023790523 0.25583205
-0.077104881 0.0035572872 0.26201603
-0.076765791 0.0035198331 0.26168627
-0.0764267 0.0034823716 0.2613565
-0.076087609 0.0034449175 0.26102671
-0.075748518 0.003407456 0.26069695
-0.075409427 0.0033700019 0.26036718
-0.075070336 0.0033325478 0.26003739
-0.074731246 0.0032950863 0.2597076
-0.074392155 0.0032576323 0.25937784
-0.074053064 0.0032201707 0.25904807
-0.073713973 0.0031827167 0.25871828
-0.073374882 0.0031452626 0.25838852
-0.073035792 0.0031078011 0.25805876
-0.072696701 0.003070347 0.25772896
-0.07235761 0.0030328929 0.2573992
-0.072018519 0.0029954314 0.25706944
-0.071679428 0.0029579774 0.25673965
-0.071340337 0.0029205158 0.25640988
-0.071001247 0.0028830618 0.25608012
-0.070662156 0.0028456077 0.25575033
-0.070323065 0.0028081462 0.25542054
-0.069983974 0.0027706921 0.25509077
-0.076454654 0.0039489344 0.26127476
-0.076115564 0.0039114803 0.26094499
-0.075776473 0.0038740188 0.2606152
-0.075437382 0.0038365647 0.26028544
-0.075098291 0.0037991107 0.25995567
-0.0747592 0.0037616491 0.25962588
-0.074420094 0.0037241951 0.25929612
-0.074081019 0.0036867335 0.25896633
-0.073741913 0.0036492795 0.25863656
-0.073402822 0.0036118254 0.25830677
-0.073063746 0.0035743639 0.25797701
-0.07272464 0.0035369098 0.25764725
-0.07238555 0.0034994557 0.25731745
-0.072046459 0.0034619942 0.25698769
-0.071707368 0.0034245402 0.25665793
-0.071368277 0.0033870786 0.25632814
-0.071029201 0.0033496246 0.25599837
-0.070690095 0.0033121705 0.25566861
-0.07035102 0.003274709 0.25533882
-0.070011914 0.0032372549 0.25500906
-0.069672823 0.0031997934 0.25467929
-0.077160776 0.0044903979 0.26185256
-0.076821685 0.0044529438 0.2615228
-0.076482594 0.0044154897 0.26119301
-0.076143503 0.0043780282 0.26086324
-0.075804412 0.0043405741 0.26053348
-0.075465322 0.0043031201 0.26020369
-0.075126231 0.0042656586 0.25987393
-0.07478714 0.0042282045 0.25954416
-0.074448049 0.004190743 0.25921437
-0.074108958 0.0041532889 0.25888461
-0.073769867 0.0041158348 0.25855485
-0.073430777 0.0040783733 0.25822505
-0.073091686 0.0040409192 0.25789529
-0.072752595 0.0040034577 0.2575655
-0.072413504 0.0039660037 0.25723574
-0.072074413 0.0039285496 0.25690594
-0.071735322 0.0038910881 0.25657618
-0.071396232 0.003853634 0.25624642
-0.071057141 0.0038161725 0.25591663
-0.07071805 0.0037787184 0.25558686
-0.070378959 0.0037412643 0.2552571
-0.070039868 0.0037038028 0.25492731
-0.069700778 0.0036663488 0.25459754
-0.076849639 0.0049195066 0.26144108
-0.076510549 0.0048820451 0.26111129
-0.076171458 0.004844591 0.26078153
-0.075832367 0.0048071295 0.26045176
-0.075493276 0.0047696754 0.26012197
-0.075154185 0.0047322214 0.25979218
-0.074815094 0.0046947598 0.25946245
-0.074476004 0.0046573058 0.25913265
-0.074136913 0.0046198443 0.25880286
-0.073797822 0.0045823902 0.2584731
-0.073458731 0.0045449361 0.25814334
-0.07311964 0.0045074746 0.25781354
-0.07278055 0.0044700205 0.25748378
-0.072441459 0.0044325665 0.25715402
-0.072102353 0.0043951049 0.25682423
-0.071763277 0.0043576509 0.25649446
-0.071424186 0.0043201894 0.2561647
-0.071085095 0.0042827353 0.25583491
-0.070746005 0.0042452812 0.25550514
-0.070406914 0.0042078197 0.25517538
-0.070067823 0.0041703656 0.25484559
-0.069728732 0.0041329041 0.2545158
-0.069389641 0.00409545 0.25418603
-0.06905055 0.004057996 0.25385627
-0.076538503 0.0053486079 0.26102957
-0.076199412 0.0053111538 0.26069978
-0.075860322 0.0052736923 0.26037002
-0.075521231 0.0052362382 0.26004025
-0.07518214 0.0051987842 0.25971046
-0.074843049 0.0051613227 0.2593807
-0.074503943 0.0051238686 0.25905094
-0.074164867 0.0050864071 0.25872114
-0.073825762 0.005048953 0.25839135
-0.073486671 0.0050114989 0.25806159
-0.073147595 0.0049740374 0.25773183
-0.072808489 0.0049365833 0.25740203
-0.072469398 0.0048991293 0.25707227
-0.072130308 0.0048616678 0.25674251
-0.071791217 0.0048242137 0.25641271
-0.071452126 0.0047867522 0.25608295
-0.07111305 0.0047492981 0.25575319
-0.070773944 0.004711844 0.2554234
-0.070434868 0.0046743825 0.25509363
-0.070095763 0.0046369284 0.25476387
-0.069756672 0.0045994669 0.25443408
-0.069417596 0.0045620129 0.25410432
-0.06907849 0.0045245588 0.25377452
-0.068739399 0.0044870973 0.25344476
-0.075301766 0.0061857998 0.26103052
-0.074960828 0.0061481372 0.26069894
-0.074619874 0.0061104745 0.26036736
-0.07521008 0.0056653321 0.25962874
-0.073937953 0.0060351491 0.2597042
-0.074531898 0.0055904165 0.25896919
-0.074192807 0.0055529624 0.25863943
-0.073853716 0.0055155084 0.25830963
-0.073514625 0.0054780468 0.25797987
-0.073175535 0.0054405928 0.25765011
-0.072836444 0.0054031312 0.25732031
-0.072497353 0.0053656772 0.25699055
-0.072158247 0.0053282231 0.25666076
-0.071819171 0.0052907616 0.256331
-0.07148008 0.0052533075 0.2560012
-0.07114099 0.005215846 0.25567147
-0.070801899 0.0051783919 0.25534168
-0.070462808 0.0051409379 0.25501189
-0.070123717 0.0051034763 0.25468212
-0.069784626 0.0050660223 0.25435236
-0.069445536 0.0050285682 0.25402257
-0.069106445 0.0049911067 0.25369281
-0.068767354 0.0049536526 0.25336304
-0.068428248 0.0049161911 0.25303325
-0.074988917 0.0066172555 0.26061678
-0.074647963 0.0065795928 0.2602852
-0.07430701 0.0065419301 0.25995359
-0.074898928 0.0060944334 0.25921723
-0.074559838 0.0060569793 0.25888744
-0.074220747 0.0060195178 0.25855768
-0.073881656 0.0059820637 0.25822791
-0.073542565 0.0059446096 0.25789812
-0.073203474 0.0059071481 0.25756836
-0.072864383 0.0058696941 0.2572386
-0.072525293 0.00583224 0.2569088
-0.072186202 0.0057947785 0.25657904
-0.071847111 0.0057573244 0.25624928
-0.07150802 0.0057198629 0.25591949
-0.071168929 0.0056824088 0.25558972
-0.070829839 0.0056449547 0.25525996
-0.070490748 0.0056074932 0.25493017
-0.070151657 0.0055700392 0.25460038
-0.069812566 0.0055325776 0.25427061
-0.069473475 0.0054951236 0.25394085
-0.069134384 0.0054576695 0.25361106
-0.068795294 0.005420208 0.2532813
-0.068456203 0.0053827539 0.25295153
-0.074676067 0.0070487112 0.260203
-0.075265974 0.0065984502 0.25946528
-0.074926883 0.0065609887 0.25913551
-0.074587792 0.0065235347 0.25880572
-0.074248701 0.0064860731 0.25847596
-0.073909611 0.0064486191 0.25814617
-0.07357052 0.006411165 0.2578164
-0.073231429 0.0063737035 0.25748664
-0.072892338 0.0063362494 0.25715685
-0.072553247 0.0062987953 0.25682709
-0.072214156 0.0062613338 0.25649729
-0.071875066 0.0062238798 0.25616753
-0.071535975 0.0061864182 0.25583777
-0.071196884 0.0061489642 0.25550798
-0.070857793 0.0061115101 0.25517821
-0.070518702 0.0060740486 0.25484845
-0.070179611 0.0060365945 0.25451866
-0.069840521 0.005999133 0.2541889
-0.06950143 0.0059616789 0.25385913
-0.069162339 0.0059242249 0.25352934
-0.068823248 0.0058867633 0.25319958
-0.074276656 0.0069526359 0.25839421
-0.07393755 0.0069151819 0.25806445
-0.073598459 0.0068777278 0.25773469
-0.073259383 0.0068402663 0.25740489
-0.072920278 0.0068028122 0.25707513
-0.072581187 0.0067653582 0.25674537
-0.072242096 0.0067278966 0.25641558
-0.071903005 0.0066904426 0.25608581
-0.071563914 0.006652981 0.25575605
-0.071224838 0.006615527 0.25542626
-0.070885733 0.0065780729 0.25509647
-0.070546657 0.0065406114 0.2547667
-0.070207551 0.0065031573 0.25443694
-0.06986846 0.0064656958 0.25410715
-0.073287323 0.0073068216 0.25732318
-0.072948232 0.0072693601 0.25699338
-0.072609141 0.0072319061 0.25666362
-0.072270036 0.007194452 0.25633386
-0.07193096 0.0071569905 0.25600407
-0.071591869 0.0071195364 0.2556743
-0.071252778 0.0070820749 0.25534454
-0.070913687 0.0070446208 0.25501475
-0.070574597 0.0070071667 0.25468498
-0.070235506 0.0069697052 0.25435519
-0.074671626 0.0079232082 0.25856054
-0.074332535 0.0078857467 0.25823078
-0.073993444 0.0078482926 0.25790098
-0.073654354 0.0078108385 0.25757122
-0.073315263 0.007773377 0.25724146
-0.072976172 0.0077359229 0.25691167
-0.072637081 0.0076984689 0.25658187
-0.07229799 0.0076610073 0.25625211
-0.071958899 0.0076235533 0.25592235
-0.071619809 0.0075860918 0.25559255
-0.071280718 0.0075486377 0.25526279
-0.070941627 0.0075111836 0.25493303
-0.070602536 0.0074737221 0.25460324
-0.070263445 0.007436268 0.25427347
-0.069924355 0.0073988065 0.25394371
-0.069585264 0.0073613524 0.25361392
-0.069246173 0.0073238984 0.25328416
-0.068907082 0.0072864369 0.25295439
-0.07436049 0.008352302 0.25814903
-0.074021399 0.0083148479 0.25781927
-0.073682308 0.0082773939 0.25748947
-0.073343217 0.0082399324 0.25715971
-0.073004127 0.0082024783 0.25682995
-0.072665036 0.0081650242 0.25650015
-0.072325945 0.0081275627 0.25617039
-0.071986854 0.0080901086 0.25584063
-0.071647763 0.0080526471 0.25551084
-0.071308672 0.008015193 0.25518107
-0.070969582 0.007977739 0.25485131
-0.070630491 0.0079402775 0.25452152
-0.0702914 0.0079028234 0.25419173
-0.069952309 0.0078653619 0.25386196
-0.069613218 0.0078279078 0.2535322
-0.069274127 0.0077904537 0.25320241
-0.068935037 0.0077529922 0.25287265
-0.074049339 0.0087814108 0.25773752
-0.073710248 0.0087439492 0.25740775
-0.073371172 0.0087064952 0.25707796
-0.073032066 0.0086690336 0.2567482
-0.072692975 0.0086315796 0.25641844
-0.072353885 0.0085941255 0.25608864
-0.072014794 0.008556664 0.25575888
-0.071675703 0.0085192099 0.25542912
-0.071336627 0.0084817484 0.25509933
-0.070997521 0.0084442943 0.25476956
-0.070658445 0.0084068403 0.2544398
-0.07031934 0.0083693787 0.25411001
-0.069980249 0.0083319247 0.25378025
-0.069641173 0.0082944706 0.25345048
-0.069302067 0.0082570091 0.25312069
-0.073738202 0.0092105046 0.25732604
-0.073399112 0.0091730431 0.25699624
-0.073060021 0.009135589 0.25666648
-0.07272093 0.0090981349 0.25633672
-0.072381824 0.0090606734 0.25600693
-0.072042748 0.0090232193 0.25567716
-0.071703658 0.0089857578 0.25534737
-0.071364567 0.0089483038 0.25501761
-0.071025476 0.0089108497 0.25468782
-0.070686385 0.0088733882 0.25435805
-0.070347294 0.0088359341 0.25402829
-0.070008203 0.0087984726 0.2536985
-0.071392506 0.0094148666 0.25493589
-0.071053416 0.0093774125 0.2546061
-0.070714325 0.009339951 0.25427634
