# .PCD v0.7 - Point Cloud Data file format
VERSION 0.7
FIELDS x y z
SIZE 4 4 4
TYPE F F F
COUNT 1 1 1
WIDTH 349
HEIGHT 1
VIEWPOINT 0 0 0 1 0 0 0
POINTS 349
DATA ascii
0.071580365 0.012861557 0.22127803
0.072516784 0.012921132 0.22129899
0.067146927 0.013397485 0.22210036
0.067617729 0.013427436 0.2221109
0.068088546 0.013457388 0.22212143
0.068274364 0.013118915 0.22115593
0.069210783 0.01317849 0.22117689
0.070147201 0.013238065 0.22119784
0.070615396 0.013267845 0.22120833
0.071083613 0.013297632 0.22121881
0.071551815 0.01332742 0.22122929
0.072020024 0.013357207 0.22123976
0.072488233 0.013386995 0.22125025
0.072956435 0.013416782 0.22126073
0.073424652 0.013446569 0.2212712
0.073892862 0.013476349 0.22128168
0.066372983 0.013465628 0.22106527
0.066841193 0.013495415 0.22107576
0.067309394 0.013525203 0.22108623
0.067777604 0.01355499 0.22109671
0.068245813 0.013584778 0.22110718
0.068714023 0.013614565 0.22111768
0.069182232 0.013644345 0.22112815
0.069650441 0.013674133 0.22113863
0.070118651 0.01370392 0.2211491
0.070586853 0.013733707 0.22115959
0.07105507 0.013763495 0.22117007
0.071523272 0.013793282 0.22118054
0.071991473 0.01382307 0.22119102
0.072459683 0.01385285 0.22120151
0.072927892 0.013882637 0.22121198
0.073396102 0.013912424 0.22122246
0.073864311 0.013942212 0.22123294
0.07433252 0.013971999 0.22124343
0.07480073 0.014001787 0.2212539
0.075268939 0.014031567 0.22126438
0.06634444 0.01393149 0.22101653
0.06708952 0.014334381 0.22200233
0.06756033 0.014364332 0.22201288
0.06803114 0.014394283 0.22202341
0.068501949 0.014424235 0.22203395
0.068972759 0.014454186 0.22204448
0.069443569 0.014484137 0.22205502
0.069914371 0.014514089 0.22206555
0.070385188 0.01454404 0.2220761
0.07055831 0.014199562 0.22111085
0.071494728 0.014259137 0.2211318
0.071962938 0.014288925 0.22114228
0.072431147 0.014318712 0.22115275
0.072899342 0.014348499 0.22116324
0.073367566 0.014378287 0.22117372
0.073835775 0.014408067 0.22118419
0.07430397 0.014437854 0.22119467
0.074772179 0.014467642 0.22120516
0.075240389 0.014497429 0.22121564
0.066315889 0.014397345 0.22096778
0.067060813 0.014802828 0.22195332
0.067531615 0.01483278 0.22196385
0.068002433 0.014862731 0.22197439
0.06847325 0.014892682 0.22198494
0.068944052 0.014922634 0.22199547
0.069414862 0.014952585 0.22200601
0.069885671 0.014982536 0.22201654
0.070356481 0.015012488 0.22202708
0.07082729 0.015042439 0.22203761
0.0712981 0.01507239 0.22204816
0.071768902 0.015102342 0.2220587
0.071934387 0.014754787 0.22109354
0.072402596 0.014784567 0.22110401
0.072870798 0.014814354 0.2211145
0.073339015 0.014844142 0.22112498
0.073807225 0.014873929 0.22113545
0.074275427 0.014903717 0.22114593
0.074743629 0.014933504 0.22115642
0.075211838 0.014963284 0.22116689
0.075680047 0.014993072 0.22117737
0.076148257 0.015022859 0.22118784
0.066287346 0.014863208 0.22091904
0.067032114 0.015271276 0.22190431
0.067502916 0.015301228 0.22191484
0.067973733 0.015331179 0.22192538
0.068444543 0.01536113 0.22193591
0.068915352 0.015391082 0.22194646
0.069386154 0.015421033 0.221957
0.069856964 0.015450984 0.22196753
0.070327774 0.015480936 0.22197807
0.070798583 0.015510887 0.2219886
0.071269393 0.015540838 0.22199914
0.071740195 0.01557079 0.22200967
0.071905836 0.01522065 0.22104479
0.072374046 0.01525043 0.22105527
0.072842255 0.015280217 0.22106576
0.073310465 0.015310004 0.22107624
0.073778674 0.015339792 0.22108671
0.074246883 0.015369579 0.22109719
0.074715093 0.015399367 0.22110768
0.075183302 0.015429147 0.22111815
0.075651512 0.015458934 0.22112863
0.076119706 0.015488721 0.2211391
0.076587915 0.015518509 0.22114959
0.077860728 0.015960164 0.22214666
0.066258803 0.01532907 0.2208703
0.067003407 0.015739724 0.2218553
0.067474216 0.015769675 0.22186583
0.067945026 0.015799627 0.22187637
0.068415835 0.015829578 0.2218869
0.068886645 0.015859529 0.22189744
0.069357455 0.015889481 0.22190797
0.069828257 0.015919432 0.22191852
0.070299074 0.015949383 0.22192906
0.070769876 0.015979335 0.22193959
0.071240693 0.016009286 0.22195013
0.071711496 0.016039237 0.22196066
0.072182305 0.016069189 0.2219712
0.072653115 0.01609914 0.22198175
0.073123924 0.016129091 0.22199228
0.073281921 0.015775867 0.22102749
0.073750131 0.015805647 0.22103797
0.074218333 0.015835434 0.22104844
0.074686542 0.015865222 0.22105893
0.075154752 0.015895009 0.22106941
0.075622961 0.015924796 0.22107989
0.07609117 0.015954584 0.22109036
0.077361196 0.016398661 0.22208712
0.077832013 0.016428612 0.22209765
0.066974699 0.016208172 0.22180629
0.067445502 0.016238123 0.22181682
0.067916319 0.016268075 0.22182736
0.068387136 0.016298026 0.22183789
0.068857938 0.016327977 0.22184843
0.069328755 0.016357929 0.22185896
0.069799557 0.01638788 0.2218695
0.070270374 0.016417831 0.22188005
0.070741177 0.016447783 0.22189058
0.071211994 0.016477734 0.22190112
0.071682796 0.016507685 0.22191165
0.072153598 0.016537637 0.22192219
0.072624415 0.016567588 0.22193272
0.073095217 0.016597539 0.22194326
0.073253378 0.016241722 0.22097875
0.073721588 0.016271509 0.22098923
0.07418979 0.016301297 0.2209997
0.074657992 0.016331084 0.22101018
0.075126201 0.016360864 0.22102067
0.07559441 0.016390651 0.22103114
0.07606262 0.016420439 0.22104162
0.076530829 0.016450226 0.2210521
0.077332497 0.016867109 0.22203811
0.077803314 0.01689706 0.22204864
0.078274116 0.016927011 0.22205918
0.078744933 0.016956963 0.22206971
0.079215735 0.016986914 0.22208025
0.067416802 0.016706571 0.2217678
0.067887619 0.016736522 0.22177835
0.068358429 0.016766474 0.22178888
0.068829238 0.016796425 0.22179942
0.069300041 0.016826376 0.22180995
0.06977085 0.016856328 0.22182049
0.07024166 0.016886279 0.22183102
0.07071247 0.01691623 0.22184156
0.071183279 0.016946182 0.22185211
0.071654081 0.016976133 0.22186264
0.072124898 0.017006084 0.22187318
0.072595701 0.017036036 0.22188371
0.07353732 0.017095938 0.22190478
0.074008137 0.01712589 0.22191532
0.074161246 0.016767159 0.22095096
0.074629456 0.016796947 0.22096144
0.075097665 0.016826726 0.22097193
0.075565875 0.016856514 0.2209824
0.076034069 0.016886301 0.22099288
0.076502278 0.016916089 0.22100335
0.077303797 0.017335556 0.2219891
0.077774614 0.017365508 0.22199963
0.078245416 0.017395459 0.22201017
0.078716218 0.01742541 0.2220207
0.079187036 0.017455362 0.22203124
0.079657838 0.017485313 0.22204177
0.068800531 0.017264873 0.22175041
0.069271341 0.017294824 0.22176094
0.069742143 0.017324775 0.22177148
0.07021296 0.017354727 0.22178201
0.070683762 0.017384678 0.22179255
0.07115458 0.017414629 0.22180308
0.071625382 0.017444581 0.22181362
0.072096191 0.017474532 0.22182417
0.072567001 0.017504483 0.2218347
0.073037811 0.017534435 0.22184524
0.07350862 0.017564386 0.22185577
0.073664494 0.017203227 0.22089174
0.074132696 0.017233014 0.22090222
0.074600905 0.017262802 0.22091269
0.075069115 0.017292581 0.22092319
0.075537324 0.017322369 0.22093366
0.076005533 0.017352156 0.22094414
0.076473743 0.017381944 0.22095461
0.076941952 0.017411731 0.2209651
0.0777459 0.017833948 0.22195061
0.078216702 0.017863899 0.22196116
0.078687519 0.017893851 0.22197169
0.079158321 0.017923802 0.22198223
0.079629131 0.017953753 0.22199276
0.08009994 0.017983712 0.2220033
0.070004813 0.018185437 0.22269624
0.070184261 0.017823175 0.221733
0.071596682 0.017913029 0.22176461
0.072067484 0.01794298 0.22177514
0.072538301 0.017972931 0.22178569
0.073009104 0.018002883 0.22179623
0.073479921 0.018032834 0.22180676
0.073635951 0.017669089 0.220843
0.074104145 0.017698877 0.22085348
0.074572355 0.017728664 0.22086395
0.075040564 0.017758444 0.22087443
0.075508773 0.017788231 0.22088492
0.075976983 0.017818019 0.22089539
0.076445192 0.017847806 0.22090587
0.076913401 0.017877594 0.22091635
0.077381611 0.017907381 0.22092684
0.07784982 0.017937168 0.22093731
0.078658819 0.018362306 0.22192267
0.079129621 0.018392257 0.22193322
0.079600431 0.018422209 0.22194375
0.080071241 0.01845216 0.22195429
0.080542058 0.018482119 0.22196482
0.08101286 0.01851207 0.22197536
0.08148367 0.018542022 0.22198589
0.071567968 0.018381476 0.2217156
0.072038785 0.018411435 0.22172613
0.072509587 0.018441387 0.22173667
0.072670981 0.018075377 0.22077329
0.073139191 0.018105164 0.22078377
0.0736074 0.018134944 0.22079426
0.074075609 0.018164732 0.22080474
0.074543819 0.018194519 0.22081521
0.075012028 0.018224306 0.22082569
0.075480238 0.018254094 0.22083618
0.075948432 0.018283881 0.22084665
0.076416641 0.018313669 0.22085713
0.076884866 0.018343449 0.2208676
0.07735306 0.018373236 0.22087809
0.07782127 0.018403023 0.22088857
0.078289479 0.018432811 0.22089905
0.078757688 0.018462598 0.22090952
0.079571724 0.018890664 0.22189474
0.080042534 0.018920615 0.22190528
0.080513351 0.018950567 0.22191581
0.080984153 0.018980518 0.22192635
0.081454962 0.019010469 0.22193688
0.071539268 0.018849924 0.22166659
0.072010078 0.018879876 0.22167712
0.072174229 0.018511444 0.22071408
0.072642431 0.018541232 0.22072455
0.073110647 0.018571019 0.22073503
0.073578857 0.018600807 0.22074552
0.074047059 0.018630594 0.22075599
0.074515268 0.018660381 0.22076647
0.074983478 0.018690161 0.22077695
0.075451687 0.018719949 0.22078744
0.075919881 0.018749736 0.22079791
0.076388091 0.018779524 0.22080839
0.076856315 0.018809311 0.22081886
0.07732451 0.018839099 0.22082935
0.077792719 0.018868886 0.22083983
0.078260928 0.018898666 0.2208503
0.078729138 0.018928453 0.22086078
0.079197347 0.018958241 0.22087127
0.079665557 0.018988028 0.22088175
0.080484644 0.019419014 0.2218668
0.080955446 0.019448966 0.22187734
0.081426255 0.019478917 0.22188787
0.071510568 0.019318372 0.22161758
0.071677476 0.018947519 0.22065486
0.072145686 0.018977307 0.22066534
0.07261388 0.019007094 0.22067581
0.073082104 0.019036882 0.22068629
0.073550314 0.019066662 0.22069678
0.07370162 0.018694818 0.2197337
0.074167222 0.018724442 0.21974412
0.075098425 0.018783689 0.21976496
0.075564034 0.018813305 0.21977538
0.076029643 0.018842921 0.21978581
0.076827765 0.019275166 0.22077012
0.077764183 0.019334741 0.22079109
0.078232378 0.019364528 0.22080156
0.078700602 0.019394316 0.22081204
0.079168797 0.019424103 0.22082251
0.079637013 0.019453883 0.220833
0.080105223 0.019483671 0.22084348
0.080926746 0.019917414 0.22182833
0.081397556 0.019947365 0.22183886
0.071648926 0.019413382 0.22060612
0.072117135 0.019443162 0.22061659
0.072585337 0.019472949 0.22062707
0.072742015 0.019098848 0.21966439
0.073207617 0.019128472 0.21967481
0.073673233 0.019158088 0.21968523
0.074138835 0.019187704 0.21969566
0.074604437 0.019217327 0.21970607
0.075070038 0.019246951 0.21971649
0.075535648 0.019276574 0.21972692
0.076001257 0.01930619 0.21973734
0.076466866 0.019335814 0.21974775
0.076932468 0.01936543 0.21975818
0.077735633 0.019800603 0.22074234
0.078203842 0.019830383 0.22075282
0.078672051 0.019860171 0.2207633
0.079140261 0.019889958 0.22077377
0.07960847 0.019919746 0.22078426
0.08007668 0.019949533 0.22079474
0.080898039 0.020385854 0.2217793
0.071620382 0.019879244 0.22055736
0.072088592 0.019909024 0.22056785
0.072248019 0.019532502 0.21960549
0.072713621 0.019562125 0.21961592
0.07317923 0.019591749 0.21962634
0.073644839 0.019621365 0.21963675
0.074110441 0.019650981 0.21964718
0.07457605 0.019680604 0.2196576
0.075041652 0.019710228 0.21966802
0.075507261 0.019739851 0.21967845
0.07597287 0.019769467 0.21968886
0.076438479 0.019799091 0.21969928
0.076904081 0.019828707 0.21970971
0.07736969 0.01985833 0.21972013
0.078175291 0.020296246 0.22070408
0.078643501 0.020326033 0.22071455
0.07911171 0.020355821 0.22072503
0.07957992 0.020385608 0.22073552
0.080048129 0.020415395 0.220746
0.080516338 0.020445183 0.22075647
0.072685234 0.020025387 0.21956745
0.073150843 0.020055011 0.21957786
0.073616453 0.020084634 0.21958828
0.074082054 0.020114258 0.21959871
0.074547663 0.020143874 0.21960913
0.075013265 0.020173497 0.21961954
0.07515204 0.019793056 0.21865699
0.075615041 0.019822508 0.21866736
0.07607805 0.019851968 0.21867771
0.076875694 0.020291984 0.21966124
0.077341303 0.0203216 0.21967165
0.077806905 0.020351216 0.21968207
0.078272514 0.02038084 0.2196925
0.078738116 0.020410463 0.21970291
0.07373479 0.020165384 0.2185777
0.074197799 0.020194829 0.21858807
0.075123809 0.020253748 0.21860878
0.07604982 0.020312652 0.21862951
