# .PCD v0.7 - Point Cloud Data file format
VERSION 0.7
FIELDS x y z
SIZE 4 4 4
TYPE F F F
COUNT 1 1 1
WIDTH 136
HEIGHT 1
VIEWPOINT 0 0 0 1 0 0 0
POINTS 136
DATA ascii
-0.15842792 0.010290749 0.31154984
-0.15812795 0.010257617 0.31125811
-0.15782799 0.010224484 0.3109664
-0.15752801 0.010191344 0.3106747
-0.15722805 0.010158211 0.31038296
-0.15692809 0.010125078 0.31009123
-0.15662813 0.010091938 0.30979952
-0.15632817 0.010058805 0.30950779
-0.1560282 0.010025673 0.30921605
-0.15572822 0.0099925324 0.30892435
-0.1551283 0.009926267 0.30834088
-0.15482834 0.0098931268 0.30804917
-0.15452838 0.0098599941 0.30775744
-0.15995246 0.010869153 0.31293616
-0.1596525 0.010836013 0.31264445
-0.15935254 0.01080288 0.31235272
-0.15905257 0.010769747 0.31206098
-0.15875261 0.010736614 0.31176928
-0.15755275 0.010604069 0.3106024
-0.15725279 0.010570936 0.31031066
-0.15695281 0.010537803 0.31001893
-0.15665285 0.010504663 0.30972722
-0.15635288 0.01047153 0.30943549
-0.15605292 0.010438398 0.30914375
-0.15575296 0.010405257 0.30885205
-0.155453 0.010372125 0.30856031
-0.15515302 0.010338992 0.30826858
-0.15485306 0.010305852 0.30797687
-0.15455309 0.010272719 0.30768514
-0.15425313 0.010239586 0.30739343
-0.15967722 0.01124873 0.31257215
-0.15907729 0.011182465 0.31198868
-0.15637761 0.010884248 0.30936319
-0.15607764 0.010851115 0.30907145
-0.15577768 0.010817975 0.30877975
-0.1554777 0.010784842 0.30848801
-0.15517774 0.010751709 0.30819628
-0.15487778 0.010718569 0.30790457
-0.15457782 0.010685436 0.30761287
-0.15427785 0.010652304 0.30732113
-0.15970194 0.011661462 0.31249985
-0.15940198 0.01162833 0.31220812
-0.15640233 0.01129698 0.30929089
-0.15610236 0.01126384 0.30899915
-0.1558024 0.011230707 0.30870745
-0.15550244 0.011197574 0.30841571
-0.15520248 0.011164434 0.30812398
-0.1549025 0.011131302 0.30783227
-0.15460254 0.011098169 0.30754057
-0.15430257 0.011065029 0.30724883
-0.1603266 0.012140453 0.31301099
-0.16002664 0.01210732 0.31271926
-0.15972666 0.01207418 0.31242755
-0.1594267 0.012041047 0.31213582
-0.15912673 0.012007914 0.31184408
-0.15852681 0.011941642 0.31126067
-0.15672702 0.01174283 0.30951032
-0.15642706 0.011709698 0.30921859
-0.1561271 0.011676565 0.30892685
-0.15582712 0.011643425 0.30863515
-0.15552716 0.011610292 0.30834341
-0.15522718 0.011577159 0.30805168
-0.15492722 0.011544019 0.30775997
-0.15462726 0.011510886 0.30746827
-0.1543273 0.011477754 0.30717653
-0.16065128 0.012586311 0.31323043
-0.16035132 0.012553178 0.31293869
-0.16005136 0.012520045 0.31264696
-0.15975139 0.012486905 0.31235525
-0.15945143 0.012453772 0.31206352
-0.15915146 0.012420639 0.31177178
-0.1588515 0.012387507 0.31148008
-0.15855153 0.012354366 0.31118837
-0.15825157 0.012321234 0.31089661
-0.15795159 0.012288101 0.3106049
-0.15765163 0.012254961 0.31031319
-0.15735167 0.012221828 0.31002146
-0.15705171 0.012188695 0.30972973
-0.15675174 0.012155555 0.30943802
-0.15645178 0.012122422 0.30914629
-0.1561518 0.01208929 0.30885455
-0.15585184 0.01205615 0.30856284
-0.15555188 0.012023017 0.30827111
-0.15525192 0.011989884 0.30797938
-0.15495196 0.011956744 0.30768767
-0.15465198 0.011923611 0.30739596
-0.15435201 0.011890478 0.30710423
-0.16037604 0.012965903 0.31286639
-0.16007608 0.012932763 0.31257465
-0.15977612 0.01289963 0.31228295
-0.15947615 0.012866497 0.31199121
-0.15970728 0.012328215 0.31091592
-0.15887621 0.012800224 0.31140777
-0.15857625 0.012767091 0.31111607
-0.15881297 0.012229428 0.3100462
-0.15851486 0.012196496 0.30975628
-0.15767635 0.012667686 0.31024089
-0.15737639 0.012634546 0.30994916
-0.15707642 0.012601413 0.30965742
-0.15677646 0.01256828 0.30936572
-0.1564765 0.012535147 0.30907398
-0.15617654 0.012502007 0.30878225
-0.15587658 0.012468874 0.30849054
-0.1555766 0.012435742 0.30819881
-0.15527664 0.012402602 0.30790707
-0.15497667 0.012369469 0.30761537
-0.15467671 0.012336336 0.30732366
-0.15437675 0.012303196 0.30703193
-0.15407678 0.012270063 0.30674019
-0.15913564 0.012672521 0.31026426
-0.15883754 0.01263959 0.30997434
-0.15853944 0.012606658 0.30968443
-0.15770108 0.013080411 0.31016859
-0.15740111 0.01304727 0.30987686
-0.15710115 0.013014138 0.30958512
-0.15680119 0.012981005 0.30929342
-0.15650122 0.012947872 0.30900168
-0.15620126 0.012914732 0.30870995
-0.15590128 0.012881599 0.30841824
-0.15560132 0.012848467 0.30812651
-0.15530136 0.012815326 0.30783477
-0.1550014 0.012782194 0.30754307
-0.15470144 0.012749061 0.30725136
-0.15440147 0.012715921 0.30695963
-0.15916021 0.013082676 0.31019241
-0.15886211 0.013049744 0.30990249
-0.158564 0.01301682 0.3096126
-0.15772581 0.013493128 0.31009629
-0.15742584 0.013459995 0.30980456
-0.1568259 0.013393722 0.30922112
-0.15652594 0.01336059 0.30892938
-0.15622598 0.013327457 0.30863765
-0.15592602 0.013294317 0.30834594
-0.15562606 0.013261184 0.30805421
-0.15532608 0.013228051 0.3077625
-0.15502612 0.013194911 0.30747077
