# .PCD v0.7 - Point Cloud Data file format
VERSION 0.7
FIELDS x y z
SIZE 4 4 4
TYPE F F F
COUNT 1 1 1
WIDTH 1383
HEIGHT 1
VIEWPOINT 0 0 0 1 0 0 0
POINTS 1383
DATA ascii
0.62084436 -0.1315096 0.52658749
0.62865305 -0.13213685 0.52753323
0.63648427 -0.13276656 0.52845728
0.64224339 -0.13324586 0.52854973
0.64906645 -0.13380344 0.52903074
0.65695906 -0.13443995 0.52989501
0.66382122 -0.13500185 0.53033793
0.6707021 -0.1355658 0.53076279
0.49937078 -0.11914954 0.53609872
0.50275218 -0.11943952 0.53565562
0.50713027 -0.11979783 0.53566611
0.51052845 -0.12008966 0.53520679
0.51294112 -0.1203144 0.53428304
0.5163523 -0.12060767 0.53381109
0.51877427 -0.12083344 0.5328784
0.52119994 -0.12105963 0.53194201
0.52462983 -0.12135495 0.53145194
0.52806711 -0.12165111 0.53095454
0.53050768 -0.12187895 0.53000367
0.53295207 -0.12210718 0.52904928
0.53540015 -0.12233582 0.52809119
0.53987134 -0.12270443 0.52801096
0.54334223 -0.12300429 0.52748096
0.5468204 -0.12330498 0.5269438
0.5503062 -0.12360649 0.52639925
0.61501038 -0.12891607 0.52607298
0.62071681 -0.12937935 0.52621436
0.62852454 -0.1299912 0.52715737
0.6363548 -0.13060555 0.52807879
0.64211333 -0.13107458 0.52816939
0.64893568 -0.13161935 0.52864814
0.65577662 -0.13216618 0.52910876
0.66263616 -0.13271506 0.52955139
0.66845989 -0.13319127 0.52957857
0.51766014 -0.11880405 0.53208137
0.52108216 -0.11909342 0.53159761
0.52451181 -0.11938362 0.53110659
0.52794874 -0.11967465 0.5306083
0.53139317 -0.11996651 0.53010273
0.53383923 -0.12019238 0.52914608
0.53628898 -0.12041868 0.52818573
0.53975201 -0.12071261 0.52766204
0.54322255 -0.12100732 0.5271312
0.54771388 -0.12137051 0.52702975
0.55018592 -0.12159927 0.52604765
0.61592281 -0.12686656 0.52611291
0.62163043 -0.12731977 0.5262506
0.62943923 -0.12791646 0.52718925
0.63622534 -0.12844451 0.52770019
0.64198327 -0.1289033 0.527789
0.64880478 -0.12943524 0.52826548
0.65564501 -0.12996924 0.52872396
0.66250372 -0.13050532 0.52916431
0.66832697 -0.13097128 0.52918965
0.53372037 -0.11820824 0.52879852
0.53717744 -0.1184964 0.5282793
0.54064214 -0.1187854 0.52775306
0.54411423 -0.11907521 0.52721941
0.54860687 -0.1194309 0.52711475
0.5510807 -0.11965731 0.52613044
0.5545752 -0.11994959 0.52557504
0.61114085 -0.1243704 0.52600336
0.61683488 -0.12481193 0.5261519
0.62358487 -0.12532322 0.52669507
0.62931049 -0.12576824 0.52681291
0.63609588 -0.12628348 0.52732164
0.64185321 -0.12673199 0.52740866
0.64762545 -0.12718217 0.52748108
0.65446293 -0.12770316 0.52793914
0.66026688 -0.12815681 0.5279808
0.66713989 -0.12868175 0.52840436
0.55547118 -0.11799757 0.52565432
0.61205137 -0.12232068 0.52604508
0.61774671 -0.12275216 0.52619004
0.62345684 -0.12318526 0.52632058
0.62918186 -0.12362003 0.52643657
0.63596642 -0.12412244 0.52694309
0.64172316 -0.12456071 0.52702832
0.64749479 -0.12500064 0.52709889
0.65433156 -0.1255088 0.52755475
0.66013479 -0.1259522 0.52759457
0.66700697 -0.12646431 0.52801591
0.6062448 -0.11978365 0.52551645
0.61192453 -0.12020321 0.52567416
0.61761916 -0.12062445 0.52581733
0.6233288 -0.1210473 0.52594602
0.62905324 -0.12147182 0.52606022
0.63583696 -0.12196141 0.52656448
0.64054668 -0.12232579 0.52624524
0.64736402 -0.12281911 0.52671677
0.65420008 -0.12331446 0.5271703
0.65895081 -0.12368336 0.52681112
0.66582036 -0.12418242 0.52723193
0.62320065 -0.11890934 0.52557147
0.62892449 -0.11932361 0.52568394
0.64041674 -0.12015709 0.52586532
0.64618528 -0.12057629 0.52593422
0.65196872 -0.12099713 0.52598858
0.65881884 -0.12148133 0.52642536
0.66463399 -0.12190565 0.52644902
0.64605474 -0.11839733 0.52555251
0.65183759 -0.11880791 0.52560508
0.65763533 -0.11922015 0.52564323
0.66450143 -0.11969335 0.52606148
0.66542232 -0.11753783 0.52606797
0.42892417 -0.099218033 0.52726233
0.4379144 -0.099713981 0.52986264
0.45694801 -0.10076009 0.53545713
0.42977437 -0.097457029 0.5274322
0.43972501 -0.097974032 0.53051102
0.44874749 -0.098453201 0.53307515
0.45876339 -0.098977394 0.53609049
0.46398547 -0.099295475 0.53668135
0.46825513 -0.099573039 0.53678107
0.47253582 -0.099851847 0.53687
0.47488567 -0.10004675 0.53600216
0.47821215 -0.1002848 0.53560174
0.48154601 -0.1005237 0.53519416
0.48391077 -0.10072023 0.53431171
0.4306241 -0.095690913 0.52760124
0.43961558 -0.096146271 0.53019083
0.4495984 -0.09664391 0.53323293
0.45865133 -0.097106047 0.53576267
0.46483812 -0.097453274 0.53682971
0.46910909 -0.097723357 0.53692627
0.47339126 -0.097994678 0.53701198
0.47574279 -0.098187193 0.53614181
0.47809801 -0.098380119 0.53526807
0.48143163 -0.09861391 0.53485954
0.48379621 -0.098807842 0.53397667
0.48616442 -0.099002227 0.53309023
0.48951665 -0.099238068 0.53266358
0.49189433 -0.099433452 0.53176808
0.49525955 -0.099670738 0.5313288
0.49764642 -0.099867165 0.53042418
0.50201249 -0.10014774 0.53042841
0.42346713 -0.093523704 0.52564287
0.43243125 -0.093955666 0.52825415
0.44142523 -0.094390929 0.53083646
0.45044902 -0.09482947 0.53338981
0.45853922 -0.095234685 0.53543484
0.46569046 -0.095605932 0.53697711
0.46899578 -0.095831491 0.53659487
0.47230855 -0.096057862 0.53620535
0.47562888 -0.09628509 0.53580856
0.47895655 -0.096513093 0.53540468
0.48131725 -0.096704088 0.53452504
0.48368165 -0.096895471 0.5336417
0.48702797 -0.097125575 0.53321958
0.48940161 -0.097318009 0.53232729
0.49276105 -0.097549528 0.53189254
0.4951441 -0.097742975 0.53099108
0.49753079 -0.097936839 0.53008604
0.50189638 -0.098209739 0.5300889
0.50528371 -0.09844435 0.52962697
0.50867856 -0.098679774 0.52915776
0.51208079 -0.098916046 0.52868128
0.51648545 -0.09919326 0.52864599
0.52090132 -0.099471703 0.52859992
0.52532828 -0.099751368 0.528543
0.42431554 -0.091765068 0.52581501
0.43423787 -0.092210181 0.52890527
0.44227484 -0.092591673 0.53099787
0.45129928 -0.093009919 0.53354585
0.45939031 -0.093397386 0.535586
0.46654245 -0.093753479 0.53712368
0.46984938 -0.093974099 0.53673863
0.47316369 -0.094195567 0.53634644
0.47648558 -0.09441784 0.53594708
0.47884229 -0.094605863 0.53507054
0.48120281 -0.094794296 0.53419042
0.48356709 -0.094983101 0.53330672
0.48691306 -0.095208079 0.5328837
0.48928663 -0.095397934 0.53199089
0.49264571 -0.095624343 0.53155529
0.49502859 -0.095815212 0.53065336
0.49840066 -0.096043073 0.53020501
0.50276768 -0.096308462 0.53020465
0.50516737 -0.096501209 0.5292865
0.50955296 -0.09676867 0.52926803
0.51295674 -0.097000018 0.52878892
0.51636803 -0.097232178 0.52830243
0.52178001 -0.097540706 0.52870131
0.5262084 -0.097812906 0.5286411
0.53064811 -0.098086342 0.52857018
0.53509891 -0.098361 0.5284884
0.53956091 -0.09863691 0.52839565
0.54504001 -0.098952845 0.5287292
0.55053413 -0.099270418 0.52904832
0.55503333 -0.099550441 0.52891928
0.55954373 -0.099831685 0.52877939
0.42611912 -0.090031974 0.52647197
0.43508646 -0.090423539 0.52907068
0.44408348 -0.09081839 0.53164041
0.45214924 -0.091185249 0.53370094
0.46024105 -0.091554977 0.53573608
0.46642932 -0.091864176 0.53679264
0.46973589 -0.092079684 0.53640682
0.47304991 -0.092296012 0.53601372
0.47637144 -0.092513174 0.53561342
0.47872803 -0.092698619 0.53473639
0.48108843 -0.092884474 0.53385592
0.48345253 -0.093070731 0.53297174
0.48679826 -0.093290582 0.53254783
0.48917159 -0.093477875 0.5316546
0.49154881 -0.093665585 0.53075767
0.49589661 -0.093921244 0.53077412
0.49927029 -0.094144151 0.53032315
0.50265145 -0.094367899 0.52986467
0.5060401 -0.094592467 0.52939916
0.50943601 -0.094817854 0.52892631
0.51283956 -0.095044047 0.52844626
0.51724517 -0.095306098 0.52840662
0.521662 -0.095569372 0.52835596
0.52608991 -0.095833898 0.52829444
0.53052914 -0.096099615 0.5282222
0.53497946 -0.096366599 0.528139
0.53944099 -0.09663482 0.52804494
0.54491949 -0.096940503 0.5283767
0.55041289 -0.097247824 0.52869397
0.55491173 -0.097520158 0.52856362
0.56043315 -0.097830579 0.52885377
0.56394291 -0.098068506 0.52827036
0.56847513 -0.09834455 0.52810746
0.57301867 -0.098621801 0.52793366
0.5775733 -0.098900318 0.52774894
0.58111835 -0.099142149 0.5271312
0.58671618 -0.099461004 0.52734697
0.4269667 -0.088260509 0.52664196
0.43593463 -0.088631779 0.52923524
0.44397321 -0.088977799 0.53131795
0.45299891 -0.089355446 0.53385508
0.46109155 -0.089707427 0.53588533
0.46631613 -0.089974873 0.53646171
0.47058895 -0.09021461 0.53654921
0.47293612 -0.090396456 0.53568101
0.47528705 -0.090578735 0.53480899
0.47861382 -0.090791374 0.53440231
0.48097405 -0.090974681 0.53352129
0.48236206 -0.091127999 0.53217149
0.48472789 -0.091311902 0.53128493
0.48807701 -0.09152703 0.53085655
0.49143365 -0.091742948 0.5304209
0.49479768 -0.091959715 0.52997804
0.49816915 -0.092177309 0.52952778
0.50253522 -0.092427336 0.5295248
0.50493455 -0.092614956 0.52860576
0.50931919 -0.092867039 0.5285846
0.51272237 -0.093088105 0.52810359
0.51712751 -0.093342468 0.52806258
0.52154386 -0.093598038 0.52801061
0.52597141 -0.093854874 0.52794778
0.53041005 -0.094112903 0.52787411
0.53486001 -0.094372198 0.52778959
0.53932106 -0.094632715 0.52769417
0.54580462 -0.094961822 0.52846038
0.55029178 -0.09522523 0.52833962
0.5557996 -0.095523939 0.52864063
0.56031096 -0.095790014 0.52849627
0.5648334 -0.096057311 0.52834105
0.56936717 -0.096325874 0.528175
0.57391214 -0.096595645 0.52799803
0.57744944 -0.09683156 0.52738655
0.58099413 -0.09706828 0.52676785
0.58454645 -0.097305819 0.52614194
0.58913028 -0.097579941 0.52592695
0.59269941 -0.097819343 0.52528477
0.4278141 -0.086483918 0.526811
0.43678257 -0.086834893 0.52939892
0.44578096 -0.087189138 0.53195781
0.45384833 -0.08752051 0.53400838
0.46194169 -0.08785475 0.53603363
0.46716747 -0.088112153 0.53660643
0.47047529 -0.088317618 0.53621697
0.47379062 -0.088523895 0.53582025
0.47517309 -0.088676602 0.5344758
0.47849956 -0.08888413 0.53406823
0.48085961 -0.089064859 0.53318679
0.48224768 -0.089218192 0.53183687
0.48363575 -0.089371525 0.53048694
0.48600325 -0.089553073 0.52959824
0.48935577 -0.089763463 0.52916527
0.49369898 -0.090003341 0.52918273
0.49805334 -0.09024442 0.52918923
0.50241899 -0.090486757 0.52918482
0.50481808 -0.090671815 0.52826536
0.50920236 -0.090916209 0.52824283
0.51260519 -0.091132164 0.52776098
0.51700985 -0.091378823 0.5277186
0.52242196 -0.091656789 0.52811021
0.52685106 -0.09190613 0.52804422
0.53129101 -0.092156693 0.52796733
0.5357424 -0.092408493 0.52787971
0.54020476 -0.092661515 0.52778113
0.54568398 -0.092946902 0.5281074
0.5511781 -0.093233943 0.52841938
0.55567777 -0.093491107 0.52828455
0.56018877 -0.093749478 0.52813882
0.56471074 -0.094009086 0.52798223
0.56924403 -0.094269931 0.52781487
0.57277167 -0.094499692 0.52721155
0.57732546 -0.094762817 0.52702415
0.58086991 -0.094994411 0.52640462
0.58442187 -0.095226824 0.5257777
0.58900535 -0.095493242 0.52556145
0.42866108 -0.084702216 0.52697915
0.43763021 -0.085032865 0.52956164
0.44758806 -0.08539021 0.53259581
0.45565805 -0.085704066 0.5346396
0.46182892 -0.085973151 0.53570402
0.46705416 -0.086220287 0.53627503
0.47132799 -0.086444847 0.53635812
0.47270855 -0.086597346 0.53501546
0.47505918 -0.086774483 0.53414261
0.47741351 -0.086952031 0.53326619
0.47977147 -0.087129995 0.53238606
0.48213324 -0.08730837 0.53150237
0.48352131 -0.087461703 0.53015244
0.48490933 -0.087615035 0.52880251
0.4882597 -0.087820098 0.5283705
0.49260065 -0.088052064 0.52838838
0.49695262 -0.088285267 0.5283953
0.50131595 -0.088519707 0.52839142
0.50371313 -0.088701986 0.52747321
0.50809503 -0.088938482 0.52745128
0.51248801 -0.089176208 0.52741838
0.51689231 -0.089415178 0.52737463
0.52230382 -0.089682892 0.52776444
0.52773023 -0.08995226 0.52813971
0.53117192 -0.090167418 0.52761889
0.53562272 -0.090411529 0.52752984
0.54008472 -0.090656862 0.52742994
0.54556322 -0.090931997 0.52775443
0.55105674 -0.091208786 0.52806461
0.55555606 -0.091458246 0.52792841
0.56006646 -0.091708943 0.52778137
0.56458807 -0.091960847 0.52762341
0.56810617 -0.092184454 0.52702832
0.57264829 -0.092438638 0.52685046
0.57618308 -0.092664078 0.52623904
0.5807457 -0.092920542 0.52604127
0.58429742 -0.093147829 0.52541351
0.4215208 -0.082628526 0.52502596
0.43046263 -0.082935795 0.52763021
0.43943432 -0.083246365 0.53020549
0.44843581 -0.083560213 0.5327518
0.45650658 -0.083856307 0.53479064
0.46267864 -0.084112801 0.535851
0.46694085 -0.084328435 0.53594363
0.47121421 -0.084545292 0.53602529
0.47356275 -0.084719658 0.53515387
0.47494522 -0.08487238 0.53380936
0.47729942 -0.085047364 0.53293252
0.47965726 -0.085222751 0.53205192
0.48104343 -0.085375875 0.53070378
0.48242959 -0.085529 0.52935576
0.48479494 -0.085705228 0.52846801
0.48716399 -0.085881859 0.52757657
0.49051967 -0.086082414 0.52713817
0.49585232 -0.086331233 0.52760231
0.50021327 -0.086557776 0.52759886
0.5035969 -0.086761422 0.52713335
0.50797832 -0.08699023 0.52710998
0.51237082 -0.087220252 0.52707571
0.51776874 -0.087476283 0.52747643
0.52318144 -0.087733954 0.52786261
0.52761137 -0.087968111 0.52779216
0.5320524 -0.088203505 0.5277108
0.53650463 -0.088440135 0.52761853
0.54096794 -0.088677987 0.52751553
0.54544258 -0.088917091 0.52740145
0.55093539 -0.089183614 0.52770984
0.55543423 -0.089425385 0.52757227
0.55994427 -0.089668378 0.52742386
0.56345272 -0.089885816 0.52683699
0.56798315 -0.090131104 0.52666867
0.57150841 -0.090350375 0.52606535
0.57504106 -0.09057048 0.52545488
0.57960129 -0.090819031 0.52525759
0.42236641 -0.080854304 0.52519727
0.43130884 -0.081141263 0.52779615
0.44028118 -0.081431523 0.53036606
0.44928327 -0.081725076 0.53290695
0.45735487 -0.082003437 0.53494084
0.46352807 -0.082247309 0.53599715
0.46779165 -0.082455456 0.53608656
0.47110042 -0.082645752 0.53569257
0.47344884 -0.082817554 0.53482062
0.47483131 -0.082970262 0.53347611
0.47718528 -0.083142683 0.53259885
0.4785696 -0.083295599 0.5312525
0.4789786 -0.083428383 0.52944279
0.48133823 -0.08360143 0.52856004
0.48272249 -0.083754346 0.52721369
0.48606858 -0.083948739 0.52678347
0.48942205 -0.084143966 0.52634609
0.49475226 -0.084382325 0.52681017
0.49911079 -0.084600978 0.52680719
0.50348055 -0.084820844 0.52679336
0.50786161 -0.085041963 0.52676868
0.51225364 -0.08526431 0.52673304
0.51864493 -0.085532263 0.52757728
0.52405882 -0.08577989 0.52795988
0.52849019 -0.086006567 0.52788627
0.53193307 -0.086211666 0.52736187
0.53638482 -0.086440593 0.52726829
0.54084778 -0.086670756 0.52716386
0.54532182 -0.086902186 0.52704853
0.55081415 -0.087158442 0.52735507
0.55531251 -0.087392524 0.5272162
0.55881131 -0.087603793 0.52663738
0.56333017 -0.08784014 0.52647865
0.56684577 -0.088053271 0.52588356
0.57036889 -0.088267222 0.52528119
0.42321166 -0.079074942 0.52536774
0.4321548 -0.079341613 0.52796119
0.44112775 -0.079611555 0.53052562
0.45013049 -0.079884805 0.53306115
0.45820287 -0.080145441 0.53509009
0.463415 -0.080360569 0.53566658
0.46767816 -0.080561027 0.53575468
0.47098663 -0.080746181 0.5353598
0.47333488 -0.080915421 0.53448737
0.47471735 -0.081068143 0.53314292
0.47609982 -0.08122085 0.53179848
0.47748223 -0.081373557 0.53045404
0.47788951 -0.081508704 0.52864659
0.47927013 -0.081661202 0.52730393
0.48162958 -0.081831679 0.52642059
0.48399279 -0.08200258 0.5255338
0.48832485 -0.082210645 0.52555478
0.49365255 -0.082438543 0.52601898
0.49899504 -0.082668088 0.52646863
0.50336432 -0.082880281 0.52645338
0.50774491 -0.083093695 0.52642739
0.5131284 -0.083327785 0.52683717
0.51852691 -0.083563507 0.52723241
0.52493596 -0.083820701 0.52805632
0.52936864 -0.084039867 0.52797949
0.53281307 -0.084240064 0.52745247
0.53726625 -0.08446151 0.52735567
0.54173064 -0.084684193 0.52724802
0.54620612 -0.084908128 0.52712965
0.5506928 -0.085133284 0.52700031
0.55519068 -0.085359663 0.52686012
0.55868924 -0.085565805 0.5262804
0.56219518 -0.085772797 0.52569348
0.56570864 -0.085980579 0.52509928
0.42405662 -0.07729046 0.52553725
0.43204591 -0.077524088 0.52764285
0.44197401 -0.077786475 0.53068435
0.45097736 -0.078039415 0.53321445
0.46001056 -0.078295656 0.53571546
0.46426395 -0.078487389 0.53581131
0.46852842 -0.078680366 0.5358963
0.47087285 -0.078846641 0.53502703
0.47225341 -0.078999139 0.53368437
0.47363397 -0.079151638 0.53234172
0.47501454 -0.079304136 0.53099906
0.47639516 -0.07945665 0.52965641
0.47680077 -0.07959415 0.52785122
0.47817943 -0.079746455 0.52651036
0.48053691 -0.07991416 0.52562851
0.49255297 -0.080499902 0.52522862
0.49789307 -0.080718979 0.52567828
0.5032481 -0.080939718 0.52611351
0.5076282 -0.081145458 0.52608609
0.5130111 -0.081369266 0.52649409
0.51940262 -0.081611782 0.52733201
0.52581275 -0.08185637 0.52815187
0.52924943 -0.082050607 0.52763104
0.53369284 -0.082263336 0.52754205
0.53814745 -0.082477301 0.52744222
0.54161024 -0.082674414 0.526896
0.54608524 -0.082890645 0.52677619
0.55057144 -0.083108112 0.52664554
0.55506897 -0.083326817 0.52650392
0.55856705 -0.083527818 0.52592337
0.56207287 -0.083729684 0.52533555
0.42394879 -0.075490877 0.52522194
0.4328914 -0.075716719 0.5278064
0.44186375 -0.075945869 0.53036189
0.45182398 -0.076188892 0.5333668
0.46085778 -0.07642483 0.53586257
0.46415076 -0.076598085 0.53548038
0.46841475 -0.076783374 0.53556395
0.47075906 -0.076947071 0.53469431
0.47213963 -0.077099569 0.53335166
0.47352025 -0.077252083 0.53200901
0.47490081 -0.077404581 0.53066635
0.47530839 -0.077544853 0.52885973
0.47571233 -0.077684715 0.52705681
0.4770892 -0.077836797 0.52571774
0.49777743 -0.078788653 0.5253402
0.50313187 -0.078999139 0.52577353
0.50850117 -0.079211257 0.52619243
0.51388538 -0.079425037 0.52659678
0.52027798 -0.079654932 0.52743071
0.52569389 -0.079872206 0.52780426
0.53012741 -0.080076218 0.52772295
0.53357327 -0.080266356 0.52719223
0.53802729 -0.080472633 0.52709103
0.54249263 -0.080680147 0.52697891
0.54596448 -0.080873162 0.52642274
0.55045021 -0.08108294 0.52629077
0.55494714 -0.081293955 0.52614784
0.55844498 -0.081489831 0.52556634
0.56195045 -0.081686571 0.52497768
0.42384103 -0.073691301 0.52490675
0.43278238 -0.073896639 0.52748764
0.44270954 -0.074113093 0.53051925
0.45267019 -0.074333243 0.53351843
0.46074495 -0.074540652 0.53553247
0.46403763 -0.074708782 0.53514946
0.46830115 -0.074886367 0.53523159
0.47064528 -0.07504753 0.53436148
0.47105858 -0.075190961 0.53254998
0.4734064 -0.075352527 0.53167623
0.47381601 -0.075495556 0.52986825
0.47519478 -0.075647861 0.52852738
0.47559884 -0.075790286 0.52672493
0.47599915 -0.075932302 0.52492607
0.4976618 -0.076858342 0.525002
0.50301564 -0.077058561 0.52543354
0.50838435 -0.077260427 0.52585065
0.51376796 -0.077463955 0.52625322
0.52115309 -0.077692971 0.52752841
0.5265702 -0.077900201 0.52789843
0.53100514 -0.078096718 0.52781403
0.53445244 -0.078281939 0.52728045
0.538908 -0.078480721 0.52717614
0.54237211 -0.07866779 0.52662635
0.54684806 -0.078868851 0.52650201
0.55133522 -0.079071149 0.52636683
0.55583358 -0.079274669 0.5262208
0.55832291 -0.079451859 0.52520931
0.42563757 -0.071901403 0.5255574
0.43458137 -0.072086647 0.52813113
0.44451085 -0.072280437 0.53115511
0.45351616 -0.072472468 0.53366899
0.46159169 -0.072662137 0.53567815
0.46488586 -0.07282535 0.53529239
0.46818754 -0.072989389 0.53489935
0.47053149 -0.07314796 0.53402877
0.47094497 -0.073293984 0.53221762
0.47329268 -0.073452972 0.53134346
0.4737024 -0.073598579 0.52953595
0.47410855 -0.073743775 0.52773213
0.47451088 -0.073888563 0.52593184
0.49853191 -0.074936561 0.52511424
0.50289941 -0.075117983 0.52509367
0.50925696 -0.075318567 0.52595568
0.51563299 -0.075521186 0.52679956
0.52202773 -0.075725883 0.52762532
0.52645123 -0.075913474 0.5275504
0.5308857 -0.076102316 0.52746463
0.53533149 -0.076292396 0.52736795
0.53978837 -0.076483697 0.5272603
0.5432539 -0.076665848 0.52670789
0.5477314 -0.076859415 0.52658045
0.55221999 -0.077054217 0.52644205
0.55571163 -0.077239245 0.52586424
0.5592109 -0.077425107 0.52527916
0.42552945 -0.070096694 0.52524126
0.43542591 -0.070263915 0.52829206
0.44535586 -0.070434839 0.5313102
0.45436177 -0.070606574 0.5338186
0.46243814 -0.070778504 0.53582287
0.46477255 -0.070933491 0.53496093
0.46903709 -0.071095906 0.53503871
0.47041771 -0.071248412 0.53369606
0.47083136 -0.071396992 0.53188527
0.47317883 -0.071553417 0.53101075
0.47358879 -0.071701586 0.52920365
0.47399506 -0.071849339 0.52740026
0.47439751 -0.071996696 0.52560043
0.504758 -0.073189795 0.52564991
0.51012909 -0.073371574 0.52605975
0.51551521 -0.073554993 0.52645516
0.52190924 -0.07374686 0.52727866
0.52732694 -0.07393378 0.5276432
0.53176296 -0.074115127 0.52755427
0.53621018 -0.074297711 0.5274545
0.54066837 -0.074481547 0.52734375
0.54513788 -0.074666589 0.52722216
0.54861438 -0.074844852 0.52665794
0.5531044 -0.075032175 0.52651644
0.55659759 -0.07521227 0.52593577
0.56110811 -0.075401857 0.52577436
0.56461811 -0.075583801 0.5251776
0.42732504 -0.068291418 0.52588928
0.445245 -0.068583995 0.53098595
0.45424971 -0.06873522 0.53349078
0.46232495 -0.068889208 0.53549194
0.46562037 -0.06904237 0.53510255
0.4689233 -0.069196351 0.53470588
0.47030392 -0.069348857 0.53336322
0.4707177 -0.069499999 0.53155303
0.47209641 -0.069652297 0.53021216
0.47347513 -0.069804594 0.5288713
0.47388157 -0.069954917 0.52706838
0.4742842 -0.07010483 0.52526903
0.49928579 -0.071074232 0.52488649
0.50464141 -0.071244106 0.52530909
0.51001203 -0.071415618 0.52571714
0.51638842 -0.071592808 0.5265547
0.52278364 -0.071772084 0.52737415
0.52720785 -0.071944505 0.52729475
0.53164339 -0.072118163 0.52720439
0.53609002 -0.072293058 0.5271033
0.54154813 -0.072474256 0.52742612
0.54601896 -0.072651818 0.52730143
0.55050111 -0.072830647 0.52716577
0.55499434 -0.073010668 0.52701926
0.55849111 -0.07318607 0.5264343
0.56199515 -0.073362276 0.52584195
0.56550682 -0.073539317 0.52524239
0.42912003 -0.066475876 0.52653551
0.44704494 -0.066728264 0.53161776
0.4550949 -0.066861637 0.53363919
0.46317092 -0.066997878 0.53563529
0.46550694 -0.06714794 0.53477073
0.46880952 -0.067296803 0.53437316
0.47019014 -0.067449309 0.53303051
0.4715707 -0.067601807 0.53168786
0.47198281 -0.067755304 0.52987981
0.47336152 -0.067907602 0.52853906
0.47376809 -0.068060488 0.5267365
0.47417089 -0.068212964 0.52493757
0.50015509 -0.069139637 0.52499652
0.50452495 -0.069298401 0.52496827
0.51187277 -0.06946221 0.52626526
0.51726139 -0.069625512 0.52665341
0.5226649 -0.069790483 0.52702701
0.52808321 -0.069957107 0.52738619
0.5315237 -0.070121199 0.52685463
0.53596997 -0.070288405 0.52675211
0.54142737 -0.070459351 0.52707314
0.54689991 -0.070631936 0.52737975
0.55138338 -0.070803255 0.52724105
0.55587804 -0.07097581 0.52709138
0.55937624 -0.071146265 0.52650362
0.56389141 -0.0713211 0.52633405
0.56740642 -0.071493417 0.52572989
0.42996284 -0.064655513 0.52669871
0.43795761 -0.064764954 0.52876961
0.44693378 -0.064872295 0.53129268
0.45498261 -0.064987719 0.53331101
0.46209863 -0.065110609 0.53482997
0.46539345 -0.065253519 0.53443885
0.46869573 -0.065397248 0.53404039
0.47007635 -0.065549754 0.53269774
0.47145692 -0.065702252 0.53135508
0.47186914 -0.065858319 0.52954757
0.47324786 -0.066010617 0.52820671
0.4736546 -0.066166066 0.52640462
0.47503147 -0.066318154 0.52506566
0.51175535 -0.067501128 0.5259217
0.51813388 -0.06765309 0.52675122
0.52254617 -0.067808911 0.52667987
0.52796388 -0.067965269 0.52703726
0.53140414 -0.068124235 0.52650476
0.53684795 -0.068283483 0.52683675
0.54230678 -0.068444371 0.52715427
0.54778039 -0.068606913 0.52745724
0.55226529 -0.068770766 0.52731538
0.55676138 -0.068935826 0.52716255
0.56126857 -0.069102123 0.52699888
0.56477773 -0.069268689 0.52639937
0.56930542 -0.069437265 0.52621579
0.57181835 -0.069604322 0.52517849
0.4228358 -0.062741175 0.52476978
0.43080541 -0.062830001 0.52686107
0.43975422 -0.062913947 0.52940589
0.44777778 -0.063008748 0.53144461
0.45582739 -0.063106433 0.53345799
0.46294424 -0.063214153 0.53497243
0.46527997 -0.063359082 0.53410697
0.46858194 -0.063497692 0.53370762
0.46996257 -0.063650198 0.53236496
0.47134313 -0.063802697 0.53102231
0.47175553 -0.063961327 0.52921522
0.47313425 -0.064113624 0.52787435
0.47354111 -0.064271629 0.5260728
0.47491798 -0.064423725 0.52473378
0.51163781 -0.06554006 0.52557814
0.51801562 -0.065679193 0.52640545
0.52242744 -0.065827318 0.52633274
0.52685034 -0.065976672 0.52624929
0.53128445 -0.06612727 0.52615499
0.53572977 -0.066279083 0.52604973
0.5421859 -0.066426903 0.52680087
0.54765892 -0.066579178 0.52710199
0.55314684 -0.066733107 0.52738881
0.55764437 -0.066890687 0.52723289
0.5621531 -0.067049533 0.52706599
0.5656637 -0.067211166 0.52646375
0.57019281 -0.067372262 0.52627695
0.57372022 -0.067535758 0.52565837
0.4236773 -0.060928285 0.5249362
0.4325988 -0.060988836 0.52750278
0.43964395 -0.061073355 0.52908349
0.44862142 -0.061140083 0.53159565
0.4566718 -0.061220028 0.53360415
0.46283093 -0.061322294 0.53464103
0.46612701 -0.061455145 0.53424633
0.4694306 -0.061588824 0.53384423
0.46984872 -0.061750643 0.53203225
0.47122934 -0.061903141 0.5306896
0.47260997 -0.062055655 0.52934694
0.47302064 -0.062216632 0.52754211
0.4743993 -0.062368929 0.52620125
0.51152039 -0.063578978 0.52523458
0.51789737 -0.06370531 0.52605963
0.52230883 -0.063845731 0.52598566
0.52673113 -0.063987397 0.52590084
0.53116488 -0.064130306 0.52580512
0.5366075 -0.064269036 0.52613354
0.54206502 -0.06440942 0.52644742
0.54853904 -0.064546466 0.52717817
0.55402827 -0.064690351 0.52746129
0.55852711 -0.064840451 0.52730215
0.56303716 -0.064991787 0.52713221
0.56654942 -0.065148517 0.52652729
0.57107997 -0.065302119 0.52633727
0.57460892 -0.065460712 0.52571607
0.57814538 -0.065620109 0.52508748
0.58270562 -0.065777019 0.52486861
0.42546758 -0.059096962 0.52558327
0.4414396 -0.05920697 0.52971709
0.44946477 -0.059266292 0.53174591
0.45655927 -0.059340984 0.53327489
0.46271762 -0.059430428 0.53430963
0.46697375 -0.059546091 0.53438473
0.46931663 -0.059686713 0.53351104
0.4706991 -0.059839427 0.5321666
0.47208157 -0.059992135 0.53082216
0.47249612 -0.060156099 0.52901411
0.47387668 -0.060308605 0.52767152
0.47428569 -0.060471945 0.52586889
0.51140285 -0.061617896 0.52489102
0.51876938 -0.061722629 0.52615559
0.52318215 -0.061855569 0.52607852
0.52661204 -0.061998129 0.52555233
0.53104532 -0.062133327 0.52545536
0.53648722 -0.06226182 0.52578187
0.54294372 -0.062384188 0.52652669
0.54941881 -0.062508628 0.52725351
0.55490923 -0.06264247 0.52753294
0.5594095 -0.062785074 0.52737069
0.56392097 -0.06292893 0.52719748
0.56743479 -0.063080743 0.52658987
0.57196665 -0.063226864 0.52639675
0.57549727 -0.063380525 0.52577281
0.58004963 -0.06352891 0.52555978
0.58359706 -0.063684419 0.52491945
0.42725727 -0.057255372 0.52622867
0.44228181 -0.05734577 0.52987128
0.45126244 -0.057372101 0.53237092
0.45740315 -0.057446875 0.53341973
0.4635627 -0.057523705 0.53445041
0.46686003 -0.05764652 0.53405201
0.46920273 -0.057784587 0.53317785
0.4705852 -0.057937294 0.53183341
0.47196761 -0.058090009 0.53048891
0.47335008 -0.058242716 0.52914441
0.47279331 -0.058422647 0.52687746
0.47417209 -0.058574945 0.52553666
0.51865101 -0.059746169 0.52580941
0.5230633 -0.059871413 0.52573097
0.52748668 -0.059997916 0.52564156
0.53092563 -0.060136363 0.52510548
0.53636706 -0.060254589 0.52543032
0.54282272 -0.06036415 0.52617288
0.54929698 -0.060475774 0.52689737
0.55478692 -0.060599357 0.52717507
0.55928671 -0.060734265 0.52701145
0.56379771 -0.060870431 0.52683687
0.5683198 -0.061007828 0.52665162
0.57184255 -0.061155543 0.52603394
0.57537293 -0.061304078 0.52540898
0.57992482 -0.061444774 0.52519464
0.58448792 -0.061586708 0.52496946
0.42809752 -0.055421978 0.52639151
0.44407639 -0.055461437 0.53050172
0.45115045 -0.055503316 0.53204358
0.45920327 -0.055530041 0.53403711
0.46344921 -0.055629283 0.53411853
0.46770629 -0.055729769 0.53418911
0.47005072 -0.055865474 0.53331268
0.47143504 -0.05601839 0.53196645
0.4718537 -0.056187898 0.53015566
0.47323611 -0.056340605 0.52881122
0.4726797 -0.056525655 0.52654517
0.47308722 -0.056693926 0.52474535
0.51853263 -0.057769708 0.52546316
0.52393615 -0.057873562 0.5258224
0.52836096 -0.057992563 0.52572995
0.53180146 -0.058126107 0.52519107
0.53624678 -0.058247373 0.52507865
0.54270172 -0.058344111 0.52581894
0.55017638 -0.05843024 0.52697122
0.55566752 -0.058543757 0.52724528
0.56016862 -0.058671214 0.52707857
0.56367433 -0.05881194 0.52647626
0.56819606 -0.058941647 0.52628958
0.57171857 -0.059084237 0.52567112
0.57626081 -0.059216201 0.52546442
0.580814 -0.05934941 0.52524686
0.58436263 -0.059494883 0.52460301
0.42798862 -0.053604454 0.5260731
0.43691459 -0.053584009 0.52861619
0.44491783 -0.053587437 0.53065377
0.45199284 -0.05361414 0.53219098
0.45909026 -0.053643301 0.53370655
0.46333572 -0.053734854 0.53378665
0.46759239 -0.053827651 0.53385592
0.46993664 -0.053960793 0.53297907
0.47132096 -0.054113708 0.53163278
0.47173974 -0.05428578 0.52982247
0.47312221 -0.054438487 0.52847803
0.4725661 -0.05462867 0.52621281
0.51940393 -0.055776775 0.52555728
0.52480876 -0.055870585 0.525913
0.52824152 -0.055998161 0.52538061
0.53267705 -0.056110717 0.52527583
0.5371238 -0.056224503 0.52516019
0.5435797 -0.056308627 0.52589655
0.55005443 -0.056394815 0.52661467
0.55554497 -0.056498088 0.52688694
0.55904102 -0.056632668 0.52629292
0.56355107 -0.056753449 0.52611566
0.56807232 -0.056875452 0.52592766
0.57260466 -0.056998715 0.5257287
0.57613623 -0.057137206 0.52510023
0.58068907 -0.057262719 0.52488136
0.58525324 -0.057389475 0.52465165
0.429777 -0.051739797 0.52671432
0.43775496 -0.051722616 0.52877223
0.44480667 -0.051731467 0.53032863
0.45378914 -0.051696874 0.532812
0.45993325 -0.051733829 0.53384864
0.46418008 -0.051817894 0.53392553
0.46843824 -0.051903203 0.53399169
0.46982256 -0.052056119 0.5326454
0.47120687 -0.052209035 0.53129911
0.47259119 -0.05236195 0.52995288
0.47300825 -0.052536361 0.52814484
0.47245243 -0.052731678 0.52588058
0.52027512 -0.053778708 0.52565062
0.52468956 -0.05388131 0.52556443
0.52911544 -0.053985134 0.52546751
0.53255713 -0.054108627 0.52492511
0.5370034 -0.054214723 0.52480817
0.54345858 -0.054286033 0.52554226
0.54993248 -0.054359406 0.52625811
0.55441976 -0.054470018 0.52610135
0.5599227 -0.054564491 0.5263592
0.56342769 -0.054694958 0.52575505
0.56694031 -0.05482626 0.52514386
0.57147038 -0.054941617 0.52494538
0.57601166 -0.055058211 0.52473605
0.58056402 -0.055176027 0.52451581
0.4296678 -0.049917154 0.52639508
0.43764469 -0.049882017 0.52844989
0.44659987 -0.049824059 0.53095496
0.45463082 -0.049794897 0.5329572
0.45982012 -0.049844526 0.53351772
0.46502432 -0.049895816 0.53406358
0.46832415 -0.049998522 0.53365803
0.4706699 -0.050126746 0.53277838
0.47205612 -0.050279871 0.53143036
0.47247705 -0.050457269 0.52961922
0.47289428 -0.05063425 0.52781165
0.47233883 -0.050834693 0.52554822
0.52114582 -0.051775523 0.52574307
0.52556169 -0.051870644 0.52565378
0.52998888 -0.05196698 0.52555358
0.53343225 -0.052085541 0.5250085
0.53787982 -0.052184165 0.5248884
0.54333746 -0.052263424 0.52518791
0.54981053 -0.052323982 0.52590156
0.55529988 -0.052406743 0.52617025
0.55879533 -0.052531064 0.52557445
0.56330442 -0.052636467 0.52539444
0.56681669 -0.052762643 0.52478242
0.57134628 -0.052870311 0.52458251
0.42350176 -0.048092671 0.52496028
0.43145522 -0.048037127 0.52703369
0.4394348 -0.047984459 0.5290817
0.44839242 -0.047906391 0.53157967
0.45642599 -0.047859691 0.53357512
0.46161839 -0.047899485 0.5341301
0.46586809 -0.047968581 0.53420073
0.46916947 -0.048066378 0.53379238
0.47151706 -0.048192255 0.53291059
0.47194186 -0.048372626 0.53109622
0.47332802 -0.048525743 0.52974814
0.47374734 -0.048705503 0.52793926
0.47319397 -0.048911273 0.52567494
0.52201617 -0.049767219 0.52583456
0.52643359 -0.049854845 0.52574211
0.53086209 -0.049943708 0.52563882
0.534307 -0.050057344 0.52509093
0.53875601 -0.050148472 0.52496767
0.54421484 -0.050217696 0.52526355
0.5496887 -0.050288558 0.525545
0.55517733 -0.050361067 0.52581191
0.55867243 -0.050480261 0.52521515
0.56318116 -0.050577976 0.52503383
0.56770098 -0.050676912 0.52484179
0.42433962 -0.046251364 0.5251236
0.43229386 -0.04617808 0.527192
0.44122425 -0.046076633 0.52971172
0.45018432 -0.045978472 0.53220248
0.4572669 -0.045944877 0.53371811
0.46246049 -0.045974627 0.53426945
0.46575418 -0.046066463 0.53386748
0.4700146 -0.046129115 0.53392595
0.47140262 -0.04628244 0.53257608
0.47279069 -0.046435766 0.53122616
0.47321376 -0.046618491 0.52941406
0.47459993 -0.046771616 0.52806592
0.47501752 -0.04695373 0.5262593
0.47543129 -0.047135435 0.52445626
0.51551688 -0.047755666 0.5246886
0.52288628 -0.047753766 0.52592516
0.52730513 -0.047833905 0.52582955
0.53173506 -0.047915287 0.5257231
0.5361762 -0.047997892 0.52560568
0.54062855 -0.048081741 0.52547753
0.54509199 -0.048166826 0.52533835
0.55056703 -0.048227631 0.52561617
0.55605686 -0.048290104 0.5258795
0.55955362 -0.048404396 0.52528006
0.56305778 -0.048519477 0.52467328
0.56757724 -0.048610732 0.52447987
0.42612335 -0.044370927 0.52576578
0.43408021 -0.044280104 0.52782744
0.44301304 -0.044158563 0.53033996
0.45007226 -0.044107117 0.53187466
0.4581075 -0.044024952 0.53386021
0.46234688 -0.044077635 0.53393722
0.46659753 -0.044131562 0.53400332
0.46990022 -0.044219308 0.53359139
0.47128823 -0.044372633 0.53224146
0.47267625 -0.044525959 0.5308916
0.47406432 -0.044679292 0.52954173
0.47545233 -0.044832617 0.5281918
0.47587189 -0.045017488 0.52638376
0.47628775 -0.045201972 0.52457941
0.51737285 -0.045722775 0.52522278
0.52375615 -0.04573521 0.52601492
0.52817631 -0.045807861 0.5259161
0.53260767 -0.045881748 0.52580643
0.53605568 -0.04598555 0.52525318
0.54050756 -0.046061702 0.5251236
0.54596889 -0.046110831 0.52541232
0.55144513 -0.046161607 0.5256865
0.55593419 -0.046241865 0.52552068
0.56043458 -0.046323374 0.52534401
0.56394029 -0.046433553 0.52473462
0.56846106 -0.04651732 0.52453792
0.42601445 -0.042553402 0.52544737
0.43491808 -0.042408258 0.52798349
0.44290188 -0.042302586 0.53001487
0.45091173 -0.042199798 0.53202081
0.45894769 -0.042099878 0.53400135
0.46318856 -0.042145088 0.53407526
0.46744058 -0.04219152 0.5341382
0.46978578 -0.0423095 0.53325689
0.47213474 -0.042427875 0.53237182
0.47352466 -0.042581409 0.53102016
0.47491452 -0.042734943 0.52966845
0.47533795 -0.04292281 0.52785718
0.47672597 -0.043076135 0.52650738
0.47714379 -0.043263368 0.5247016
0.51824141 -0.043711692 0.52531564
0.52462566 -0.043711498 0.52610373
0.52904725 -0.043776684 0.52600175
0.53348005 -0.043843083 0.52588892
0.53792393 -0.043910727 0.5257653
0.54237914 -0.043979615 0.52563071
0.54684544 -0.04404971 0.52548534
0.55232286 -0.044090435 0.52575588
0.55681336 -0.04416322 0.52558696
0.56131506 -0.044237226 0.52540708
0.56482244 -0.044342496 0.52479494
0.42779723 -0.040657572 0.52608693
0.4357557 -0.040531278 0.52813864
0.44374022 -0.040407859 0.53016508
0.4517509 -0.040287331 0.53216612
0.45978764 -0.040169686 0.53414166
0.46402988 -0.040207401 0.53421235
0.46828339 -0.040246367 0.53427219
0.47158912 -0.040324271 0.53385484
0.47298089 -0.040478006 0.53250134
0.47533521 -0.040594444 0.53161037
0.47672889 -0.040748388 0.53025508
0.47715613 -0.040939219 0.52844071
0.4775798 -0.041129634 0.52662992
0.47896966 -0.041283168 0.52527821
0.51274264 -0.041710332 0.52460551
0.5200963 -0.041660853 0.52584672
0.52648354 -0.041648269 0.52662885
0.52991796 -0.041740373 0.52608657
0.53435206 -0.041799292 0.52597058
0.53879738 -0.041859448 0.52584374
0.5432539 -0.041920856 0.52570593
0.54772162 -0.04198347 0.5255574
0.55320036 -0.042014137 0.52582443
0.55769229 -0.042079449 0.52565229
0.56219542 -0.042145982 0.5254693
0.56570423 -0.042246312 0.52485442
0.56922054 -0.042347476 0.52423239
0.43659297 -0.038649179 0.52829289
0.44457832 -0.038508035 0.53031433
0.45258978 -0.038369752 0.53231037
0.45967415 -0.038275257 0.53380984
0.46487096 -0.038264595 0.53434861
0.46816894 -0.03833656 0.53393763
0.47243312 -0.03836906 0.5339852
0.47382674 -0.038523003 0.53262985
0.47618279 -0.038637094 0.53173673
0.47757825 -0.038791239 0.53037953
0.47800764 -0.038984835 0.52856386
0.47940126 -0.039138779 0.52720851
0.48079488 -0.039292723 0.52585316
0.48316017 -0.039407834 0.52495098
0.50824296 -0.039693527 0.5243268
0.51459408 -0.039664224 0.52514112
0.52096391 -0.039636962 0.52593732
0.52735233 -0.039611764 0.52671546
0.53078818 -0.039698943 0.52617037
0.53522372 -0.039750382 0.52605122
0.53967047 -0.039803058 0.52592123
0.54412842 -0.039856948 0.52578038
0.54859746 -0.03991209 0.52562869
0.55407751 -0.039932713 0.52589202
0.55857086 -0.039990529 0.52571678
0.56207192 -0.040084928 0.52510822
0.56658578 -0.040144995 0.52491301
0.57111073 -0.040206313 0.52470696
0.57564688 -0.040268868 0.52449
0.42247954 -0.037043884 0.52481711
0.42946991 -0.036923721 0.5264045
0.43837729 -0.036717869 0.52892256
0.44541612 -0.036603063 0.53046274
0.4534283 -0.036447056 0.53245389
0.46146664 -0.036293916 0.53441966
0.46571162 -0.03631667 0.53448397
0.46901128 -0.036383703 0.53407025
0.47231826 -0.036451563 0.53364933
0.47563276 -0.036520235 0.53322113
0.47799239 -0.036632165 0.5323239
0.47939155 -0.036786728 0.53096318
0.47982481 -0.036983304 0.52914417
0.48122218 -0.037137657 0.52778524
0.48261949 -0.037292019 0.52642632
0.48498842 -0.037404969 0.52552009
0.48833451 -0.037477158 0.52506101
0.49168816 -0.037550151 0.52459478
0.51009095 -0.037649572 0.52486634
0.51644504 -0.037607841 0.52567482
0.52281773 -0.037568182 0.5264653
0.52723241 -0.037609667 0.52636468
0.53165817 -0.037652373 0.52625328
0.53609514 -0.037696332 0.52613103
0.54054332 -0.037741527 0.52599788
0.54500258 -0.037787944 0.52585387
0.54947317 -0.037835598 0.52569896
0.55495441 -0.037846163 0.52595878
0.55944908 -0.037896506 0.52578032
0.5629518 -0.037985966 0.52516913
0.56746697 -0.038038567 0.52497071
0.57199335 -0.03809239 0.52476144
0.57653093 -0.038147464 0.52454126
0.42331448 -0.035184443 0.52497911
0.43125114 -0.035002254 0.52703953
0.43921384 -0.034822956 0.52907455
0.44720265 -0.034646526 0.5310843
0.45426652 -0.034519218 0.53259647
0.46230564 -0.034348339 0.53455722
0.46655211 -0.03436362 0.53461838
0.46985325 -0.034425721 0.53420198
0.47316173 -0.034488656 0.53377831
0.47647783 -0.03455241 0.53334749
0.47883919 -0.034661993 0.53244793
0.48120418 -0.034771971 0.5315448
0.48164132 -0.03497152 0.52972281
0.48304239 -0.035126291 0.52836025
0.48444352 -0.035281062 0.52699757
0.48681596 -0.035391867 0.52608728
0.49016556 -0.035459325 0.5256238
0.49352255 -0.035527609 0.52515292
0.4978641 -0.035553366 0.52512181
0.5022167 -0.035580367 0.52507961
0.50658059 -0.035608597 0.52502674
0.51193821 -0.035595343 0.52540433
0.51829529 -0.035541221 0.52620685
0.52368462 -0.035531461 0.52655363
0.52810073 -0.035565451 0.52644992
0.53252792 -0.035600692 0.52633536
0.53597426 -0.035678849 0.52577764
0.54042196 -0.035716355 0.52564311
0.5458765 -0.035713799 0.52592647
0.5503484 -0.035753965 0.5257684
0.5548315 -0.035795361 0.52559948
0.55932581 -0.035838008 0.52541971
0.56383121 -0.035881877 0.52522904
0.56834781 -0.03592699 0.52502751
0.5718689 -0.036013387 0.52439725
0.57741475 -0.03602092 0.5245918
0.42320576 -0.033369482 0.52466118
0.43114135 -0.033169359 0.52671838
0.43910298 -0.032972105 0.52875036
0.44709066 -0.032777727 0.53075689
0.4551045 -0.032586254 0.53273809
0.46219167 -0.032446221 0.53422397
0.46643767 -0.032453813 0.53428388
0.47069493 -0.032462619 0.53433275
0.47496328 -0.032472663 0.53437096
0.47732261 -0.032579467 0.53347278
0.48064759 -0.032639123 0.53303194
0.48205242 -0.032794297 0.53166574
0.48345724 -0.032949477 0.53029954
0.484862 -0.033104651 0.52893335
0.48626682 -0.033259839 0.52756715
0.48961428 -0.033321977 0.5271045
0.4919959 -0.033431239 0.52618468
0.49633142 -0.033448696 0.52615756
0.50067794 -0.033467382 0.52611953
0.50503576 -0.033487312 0.52607071
0.50940478 -0.033508472 0.52601087
0.51476741 -0.033485577 0.52638125
0.51916063 -0.033509418 0.52629793
0.52553737 -0.033444732 0.52707839
0.52896857 -0.033516131 0.5265342
0.5333972 -0.033543877 0.52641654
0.53684521 -0.033617117 0.52585602
0.54129422 -0.033647142 0.52571833
0.54575455 -0.033678383 0.52556992
0.55022609 -0.03371086 0.52541053
0.55470872 -0.033744559 0.52524018
0.56020355 -0.033736289 0.52548194
0.5647105 -0.033772677 0.52528805
0.5682236 -0.033853121 0.52466416
0.57375765 -0.033849165 0.52486777
0.57728958 -0.033931673 0.52422583
0.42404029 -0.031502351 0.52482176
0.43292162 -0.031232521 0.52735078
0.43993899 -0.031069487 0.52890098
0.44792745 -0.030857392 0.53090262
0.45594212 -0.030648164 0.53287888
0.46303031 -0.030492961 0.53436029
0.46727774 -0.030493051 0.53441691
0.47153625 -0.030494392 0.53446269
0.47580609 -0.030496947 0.53449774
0.47912702 -0.030551068 0.53405958
0.48149368 -0.030656129 0.53315377
0.48290035 -0.030811518 0.53178579
0.48527262 -0.030917197 0.53087449
0.48571369 -0.031122282 0.52904975
0.48808965 -0.031228378 0.52813482
0.49046925 -0.03133487 0.52721632
0.4938257 -0.03139291 0.52674377
0.49816439 -0.031403087 0.5267117
0.50251436 -0.031414501 0.52666867
0.5068754 -0.031427145 0.5266149
0.51026714 -0.031489089 0.52610791
0.51563108 -0.031456135 0.5264746
0.5210098 -0.03142485 0.52682686
0.52640355 -0.031395197 0.52716458
0.5298363 -0.031461671 0.52661765
0.53327656 -0.031528965 0.52606356
0.53771579 -0.031550258 0.52593362
0.54216635 -0.031572782 0.52579278
0.546628 -0.031596541 0.52564108
0.55110085 -0.031621531 0.52547854
0.55558491 -0.031647779 0.52530515
0.56008017 -0.031675227 0.52512085
0.56458652 -0.031703934 0.52492565
0.56910408 -0.031733871 0.5247196
0.57363284 -0.031765044 0.52450275
0.5781728 -0.031797439 0.52427495
0.42487445 -0.029630087 0.52498138
0.43375644 -0.029339947 0.52750504
0.44077471 -0.029161759 0.52905083
0.44781539 -0.028986029 0.5305748
0.45677939 -0.028704949 0.53301871
0.46482089 -0.028480865 0.53496468
0.46811733 -0.028527178 0.53454912
0.47333339 -0.028467722 0.53505719
0.47664848 -0.028516099 0.53462356
0.47997108 -0.028565302 0.53418279
0.48233947 -0.028668016 0.53327465
0.48471144 -0.028771117 0.53236294
0.48612186 -0.028926916 0.53099132
0.48753223 -0.029082708 0.52961969
0.48894265 -0.029238507 0.52824807
0.492295 -0.029291004 0.52777827
0.49662766 -0.029292874 0.52775025
0.49999675 -0.029347226 0.52726412
0.50434995 -0.029351346 0.52721608
0.50871432 -0.029356718 0.52715731
0.51210952 -0.029413946 0.52664578
0.51649439 -0.029421568 0.52656704
0.52187443 -0.02938024 0.52691567
0.52726936 -0.029340543 0.52724969
0.5297159 -0.029451884 0.52626562
0.53414547 -0.029464468 0.52614337
0.53858614 -0.029478267 0.52601027
0.54303801 -0.02949331 0.52586627
0.54750121 -0.029509589 0.52571142
0.55097842 -0.029575855 0.5251202
0.55546188 -0.029594414 0.5249455
0.56095755 -0.029565819 0.52518171
0.56546521 -0.029587038 0.52498341
0.56897974 -0.029657423 0.52435589
0.57451427 -0.029633179 0.52455407
0.42476544 -0.027810007 0.52466261
0.43364617 -0.027499355 0.52718258
0.44066355 -0.027305782 0.52872568
0.44960025 -0.027001299 0.53119135
0.45856676 -0.026700124 0.53362805
0.46470651 -0.026571058 0.53463006
0.46895668 -0.026556179 0.53468049
0.47417399 -0.02648668 0.53518486
0.47749063 -0.026530124 0.53474855
0.48081478 -0.02657441 0.53430498
0.48318478 -0.026674755 0.53339469
0.48459521 -0.026830547 0.53202301
0.48600563 -0.026986346 0.53065133
0.487416 -0.027142145 0.52927971
0.49076435 -0.027189106 0.52881265
0.49412009 -0.027236871 0.52833825
0.49845603 -0.02723147 0.52830529
0.50182855 -0.027281091 0.52781463
0.50618505 -0.027277939 0.5277617
0.51055253 -0.027276039 0.52769792
0.5139513 -0.027328543 0.52718186
0.51833928 -0.027328901 0.52709818
0.52372253 -0.027277723 0.52744138
0.52813482 -0.027280748 0.52733409
0.53058314 -0.027389742 0.52634764
0.5340246 -0.027446985 0.52578998
0.5384649 -0.027453102 0.52565551
0.54390955 -0.027408712 0.52593887
0.54737902 -0.027469039 0.52535403
0.5518527 -0.027478859 0.5251869
0.55633771 -0.027489908 0.52500904
0.56083393 -0.027502201 0.52482021
0.56534111 -0.027515724 0.52462053
0.56985974 -0.027530484 0.52440995
0.57438934 -0.027546488 0.52418852
0.42559907 -0.025930054 0.52482092
0.44149885 -0.025390349 0.5288741
0.4504362 -0.025065579 0.5313344
0.45940331 -0.024744093 0.53376567
0.46554413 -0.024602406 0.53476363
0.46979567 -0.024580054 0.53481078
0.4750143 -0.024500504 0.5353117
0.47833255 -0.024539031 0.53487265
0.48165819 -0.024578385 0.53442633
0.48306856 -0.024734184 0.53305471
0.48447898 -0.024889983 0.53168309
0.48685446 -0.024988383 0.5307669
0.4892337 -0.025087193 0.52984715
0.49258539 -0.02512943 0.52937543
0.49594459 -0.025172487 0.52889657
0.50028384 -0.025159799 0.52885854
0.50463426 -0.025148347 0.52880979
0.50899565 -0.02513814 0.52875006
0.51239038 -0.025185101 0.52823675
0.51579237 -0.025232904 0.52771616
0.51920187 -0.025281519 0.52718842
0.52458632 -0.02522029 0.52752793
0.52900004 -0.025215834 0.52741754
0.53145003 -0.025322475 0.52642882
0.53489304 -0.025374793 0.52586842
0.54032588 -0.025318906 0.52616084
0.54478049 -0.025318973 0.52601051
0.54825163 -0.025374398 0.52542305
0.55272675 -0.025376722 0.52525282
0.55721319 -0.025380291 0.52507162
0.56171072 -0.025385097 0.52487969
0.56621945 -0.025391139 0.52467692
0.57174361 -0.02534534 0.52488053
0.57527053 -0.025406927 0.52423859
0.42643246 -0.024044976 0.5249784
0.44233385 -0.023469798 0.52902162
0.45127174 -0.023124717 0.5314765
0.4611896 -0.02272132 0.53437191
0.46733335 -0.022567242 0.53536397
0.47063449 -0.022598788 0.53494036
0.47489867 -0.022570193 0.5349735
0.47917411 -0.022542804 0.53499591
0.4815419 -0.022637822 0.53408647
0.48295233 -0.022793613 0.53271472
0.48532578 -0.022889249 0.53179997
0.48770306 -0.022985294 0.53088152
0.49008396 -0.023081735 0.52995938
0.49343726 -0.023119062 0.52948505
0.49776849 -0.023097858 0.52945298
0.50211096 -0.02307789 0.52941
0.5064646 -0.02305916 0.5293563
0.50985336 -0.023100376 0.52884746
0.51422739 -0.023083918 0.52877378
0.51763296 -0.023126997 0.52824873
0.5210458 -0.023170903 0.52771634
0.52544975 -0.023157731 0.52761364
0.52986491 -0.023145795 0.52750003
0.53231657 -0.023250058 0.52650917
0.53576124 -0.023297474 0.52594602
0.54119527 -0.023231536 0.52623487
0.54465842 -0.023280986 0.5256536
0.549124 -0.023274601 0.52549106
0.55360055 -0.023269467 0.52531767
0.5580883 -0.023265541 0.52513349
0.56258726 -0.023262866 0.52493829
0.56709743 -0.02326142 0.52473235
0.5716188 -0.023261219 0.52451545
0.57615125 -0.02326224 0.5242877
0.42726561 -0.022154763 0.52513492
0.44316849 -0.021544114 0.52916825
0.45305511 -0.021114349 0.53208864
0.46297523 -0.020688303 0.53497636
0.46817014 -0.020585775 0.53549528
0.47147289 -0.020612404 0.53506899
0.4757385 -0.020576313 0.53509903
0.479058 -0.020604797 0.53465641
0.48142567 -0.020697244 0.53374648
0.48379716 -0.020790108 0.53283298
0.48617235 -0.020883381 0.5319159
0.48951599 -0.020914532 0.53144968
0.49190053 -0.021008842 0.53052354
0.49525723 -0.021041453 0.53004467
0.50056207 -0.020951055 0.53045678
0.50393748 -0.020985715 0.5299598
0.50926852 -0.020898208 0.53034651
0.51266241 -0.020934932 0.52983135
0.51606393 -0.020972468 0.52930903
0.51947284 -0.021010838 0.52877939
0.52190757 -0.021110699 0.52780437
0.52631295 -0.021090038 0.5276984
0.53072953 -0.021070614 0.52758169
0.53318286 -0.021172531 0.52658844
0.53761804 -0.021155171 0.52645361
0.54305518 -0.021079384 0.52673703
0.5465219 -0.021124139 0.5261513
0.5499959 -0.021169692 0.52555823
0.554474 -0.021157064 0.52538168
0.55996144 -0.021086842 0.52561623
0.56446373 -0.021076888 0.52541614
0.56797504 -0.021126576 0.52478683
0.57249773 -0.021118887 0.52456677
0.57602596 -0.021170422 0.52392131
0.42715612 -0.020326987 0.52481472
0.44400284 -0.019613303 0.52931404
0.45388994 -0.01916068 0.53222847
0.46286079 -0.018778495 0.53464174
0.46805516 -0.018665716 0.53515887
0.47231105 -0.018620893 0.53519666
0.47657809 -0.018577315 0.5352236
0.47894189 -0.018666789 0.5343169
0.48130944 -0.018756673 0.5334065
0.4846417 -0.018781476 0.5329504
0.48701856 -0.018872388 0.53203094
0.49036381 -0.018898629 0.53156209
0.4927499 -0.018990569 0.53063363
0.4970766 -0.018953577 0.53060257
0.50238466 -0.018853344 0.5310092
0.50576341 -0.018883295 0.53050762
0.51012361 -0.018850006 0.53044391
0.5144949 -0.018817946 0.5303694
0.51692212 -0.018914424 0.52940106
0.52033257 -0.01894787 0.52886873
0.52375042 -0.018982135 0.52832913
0.52717578 -0.019017227 0.52778232
0.5315938 -0.018990315 0.5276624
0.5340488 -0.019089878 0.526667
0.53848553 -0.01906503 0.52652895
0.54392385 -0.018979207 0.52680874
