# .PCD v0.7 - Point Cloud Data file format
VERSION 0.7
FIELDS x y z
SIZE 4 4 4
TYPE F F F
COUNT 1 1 1
WIDTH 282
HEIGHT 1
VIEWPOINT 0 0 0 1 0 0 0
POINTS 282
DATA ascii
0.073980458 0.026258543 0.30143052
0.071223453 0.026761279 0.30129907
0.07190235 0.026804477 0.30131423
0.072581261 0.026847661 0.30132943
0.073260158 0.026890859 0.30134463
0.073939063 0.026934043 0.30135983
0.074617967 0.026977234 0.30137503
0.075073414 0.026713081 0.3004097
0.071650669 0.027170867 0.30026361
0.072326981 0.027213886 0.30027875
0.073003277 0.027256913 0.30029389
0.073679581 0.027299941 0.300309
0.074355885 0.02734296 0.30032414
0.075032182 0.027385987 0.30033928
0.075482592 0.027118914 0.29937407
0.076156273 0.02716177 0.29938915
0.072285742 0.027886793 0.30020833
0.072962038 0.027929828 0.30022347
0.073638342 0.027972847 0.30023861
0.074314646 0.028015874 0.30025375
0.074767813 0.027746372 0.29928887
0.075441524 0.027789235 0.29930395
0.076115206 0.027832091 0.29931903
0.076788917 0.027874947 0.29933411
0.077462599 0.02791781 0.29934919
0.070010841 0.028116673 0.29911318
0.070684537 0.028159536 0.29912826
0.071358234 0.028202392 0.29914334
0.072031945 0.028245255 0.29915842
0.072705641 0.028288111 0.2991735
0.073379338 0.028330974 0.29918858
0.074053034 0.02837383 0.29920366
0.074726731 0.028416693 0.29921874
0.075400442 0.028459549 0.29923382
0.076074138 0.028502405 0.2992489
0.07651706 0.028229661 0.29828408
0.077188149 0.028272361 0.2982991
0.077859253 0.028315052 0.29831412
0.078530341 0.028357744 0.29832914
0.065171562 0.02726765 0.29503778
0.066026457 0.027625561 0.29603139
0.068223551 0.028068855 0.29705504
0.069094062 0.028427765 0.298049
0.069765165 0.028470457 0.29806402
0.070643462 0.028829858 0.29905814
0.071317159 0.028872713 0.29907322
0.07199087 0.028915577 0.29908827
0.072664559 0.028958432 0.29910335
0.07333827 0.029001296 0.29911843
0.074011967 0.029044151 0.29913351
0.074685663 0.029087014 0.29914859
0.075359374 0.02912987 0.29916367
0.075805038 0.028854705 0.29819921
0.076476142 0.028897397 0.29821423
0.077147231 0.028940089 0.29822925
0.077818334 0.028982781 0.29824427
0.078250997 0.028706782 0.29727945
0.0789195 0.028749309 0.29729441
0.064467825 0.02788543 0.29495388
0.065319963 0.028245762 0.29594716
0.065985858 0.028288119 0.29596207
0.066651754 0.028330483 0.29597697
0.06731765 0.028372839 0.29599187
0.068182796 0.028733991 0.29698542
0.068851292 0.028776526 0.29700038
0.069724247 0.029138193 0.29799414
0.070395336 0.029180884 0.29800916
0.071066439 0.029223576 0.29802418
0.071949795 0.02958589 0.29901814
0.072623491 0.029628754 0.29903322
0.073297188 0.029671609 0.2990483
0.073750839 0.029394351 0.29808426
0.074421927 0.029437043 0.29809928
0.075093031 0.029479742 0.2981143
0.07576412 0.029522434 0.29812932
0.076435223 0.029565126 0.29814434
0.077106327 0.029607825 0.29815936
0.077541754 0.029329389 0.2971949
0.078210242 0.029371917 0.29720986
0.078878745 0.029414445 0.29722482
0.079547234 0.029456973 0.29723978
0.064427383 0.028545395 0.2948848
0.065279365 0.028908312 0.29587784
0.06594526 0.028950676 0.29589275
0.066611156 0.02899304 0.29590765
0.067277052 0.029035404 0.29592255
0.068142034 0.029399142 0.29691583
0.068810537 0.02944167 0.29693079
0.069683328 0.029805921 0.29792428
0.070354417 0.02984862 0.2979393
0.071025521 0.029891312 0.29795432
0.071696624 0.029934004 0.29796934
0.072367713 0.029976696 0.29798436
0.073038816 0.030019395 0.29799938
0.07370992 0.030062087 0.2980144
0.074381009 0.030104779 0.29802942
0.075052112 0.030147471 0.29804444
0.075723201 0.03019017 0.29805946
0.076394305 0.030232862 0.29807448
0.076832496 0.029952005 0.29711035
0.077500992 0.02999454 0.29712531
0.078169487 0.030037068 0.29714027
0.078837983 0.030079596 0.29715523
0.079506479 0.030122124 0.29717019
0.063723654 0.029163167 0.29480094
0.064386949 0.029205367 0.29481578
0.065238759 0.02957087 0.29580852
0.065904662 0.029613227 0.29582343
0.06657055 0.029655591 0.29583833
0.067236453 0.029697955 0.29585323
0.068101272 0.030064285 0.29684624
0.068769775 0.030106813 0.2968612
0.069642417 0.03047365 0.29785442
0.070313506 0.030516349 0.29786944
0.070984602 0.030559041 0.29788446
0.071655706 0.030601732 0.29789948
0.072326794 0.030644424 0.29791451
0.072997913 0.030687124 0.29792953
0.073669001 0.030729815 0.29794455
0.07434009 0.030772507 0.29795957
0.075011209 0.030815199 0.29797459
0.075682297 0.030857898 0.29798961
0.076123238 0.03057462 0.29702577
0.076791734 0.030617148 0.29704076
0.077460237 0.030659683 0.29705572
0.078128725 0.030702211 0.29707068
0.078797229 0.030744739 0.29708564
0.079465717 0.030787267 0.2971006
0.07988847 0.030502848 0.29613641
0.063200474 0.030106336 0.2956945
0.063683212 0.029823124 0.29473186
0.064532265 0.030191056 0.2957243
0.065198168 0.03023342 0.2957392
0.065864056 0.030275777 0.2957541
0.066529959 0.030318141 0.29576901
0.067392021 0.0306869 0.29676169
0.068060517 0.030729428 0.29677665
0.068729021 0.030771956 0.29679161
0.069397517 0.030814484 0.29680657
0.070272595 0.031184077 0.29779959
0.070943683 0.031226769 0.29781461
0.071614787 0.031269468 0.29782963
0.072285876 0.03131216 0.29784465
0.072956994 0.031354852 0.29785967
0.073628083 0.031397544 0.29787469
0.074299172 0.031440236 0.29788971
0.07497029 0.031482935 0.29790473
0.075413987 0.031197235 0.29694122
0.076082483 0.031239763 0.29695618
0.076750979 0.031282291 0.29697114
0.077419482 0.031324826 0.2969861
0.078087971 0.031367354 0.29700106
0.078516081 0.031080678 0.29603726
0.079181977 0.031123035 0.29605219
0.079847872 0.031165399 0.29606709
0.080761962 0.031537466 0.29706094
0.062493984 0.030726522 0.29561025
0.063159883 0.030768886 0.29562515
0.063825771 0.03081125 0.29564008
0.064491674 0.030853614 0.29565498
0.065157562 0.030895978 0.29566988
0.065823466 0.030938335 0.29568478
0.066489354 0.030980699 0.29569969
0.067155257 0.031023055 0.29571459
0.068019763 0.031394571 0.29670706
0.068688259 0.031437099 0.29672202
0.069356754 0.031479627 0.29673699
0.070231676 0.031851813 0.2977297
0.070902772 0.031894505 0.29774472
0.071573876 0.031937197 0.29775974
0.072244957 0.031979889 0.29777476
0.072916076 0.032022588 0.29778978
0.073587164 0.03206528 0.2978048
0.074258253 0.032107972 0.29781982
0.074929371 0.032150663 0.29783484
0.075373225 0.031862378 0.29687163
0.076041721 0.031904906 0.29688659
0.076710217 0.031947434 0.29690155
0.07737872 0.031989969 0.29691651
0.078047208 0.032032497 0.29693148
0.078475483 0.031743228 0.29596794
0.079141378 0.031785592 0.29598284
0.079807274 0.031827956 0.29599777
0.08047317 0.03187032 0.29601267
0.081139065 0.031912677 0.29602757
0.062453385 0.03138908 0.29554093
0.063119277 0.031431444 0.29555583
0.06378518 0.031473801 0.29557073
0.064451069 0.031516165 0.29558566
0.065116972 0.031558529 0.29560056
0.06578286 0.031600893 0.29561546
0.066448763 0.031643257 0.29563037
0.067114651 0.031685621 0.29564527
0.067979008 0.032059714 0.29663748
0.068647504 0.032102242 0.29665244
0.069519669 0.03247685 0.29764482
0.070190758 0.032519542 0.29765984
0.070861854 0.032562234 0.29767486
0.071532957 0.032604933 0.29768988
0.072204053 0.032647625 0.29770491
0.072875157 0.032690316 0.29771993
0.073546261 0.032733008 0.29773495
0.074217349 0.0327757 0.29774997
0.074888453 0.032818399 0.29776499
0.07533247 0.032527521 0.29680204
0.076000966 0.032570049 0.296817
0.076669462 0.032612577 0.29683197
0.077337965 0.032655112 0.29684693
0.077768989 0.032363422 0.29588372
0.078434885 0.032405786 0.29589862
0.07910078 0.032448143 0.29591352
0.079766676 0.032490507 0.29592842
0.080432571 0.032532871 0.29594335
0.081098467 0.032575235 0.29595825
0.062412787 0.032051638 0.29547161
0.063078687 0.032094002 0.29548651
0.063744575 0.032136358 0.29550141
0.064410478 0.032178722 0.29551631
0.065076366 0.032221086 0.29553124
0.065742269 0.032263443 0.29554614
0.066408157 0.032305807 0.29556105
0.06707406 0.032348171 0.29557595
0.067938253 0.032724857 0.29656786
0.068606749 0.032767385 0.29658282
0.06947875 0.033144578 0.29757497
0.070149839 0.033187278 0.29758999
0.070820943 0.033229969 0.29760501
0.071492046 0.033272661 0.29762003
0.072163135 0.033315353 0.29763505
0.072834238 0.033358052 0.29765007
0.073505342 0.033400744 0.29766509
0.074176431 0.033443436 0.29768011
0.074847534 0.033486128 0.29769513
0.075291716 0.033192664 0.29673246
0.075960211 0.033235192 0.29674742
0.076628707 0.03327772 0.29676238
0.077062488 0.032983616 0.29579949
0.077728383 0.03302598 0.29581439
0.078394279 0.033068344 0.2958293
0.079060175 0.033110701 0.2958442
0.07972607 0.033153065 0.2958591
0.080391966 0.033195429 0.295874
0.062372189 0.032714188 0.29540229
0.063038081 0.032756552 0.29541719
0.063703984 0.032798916 0.29543209
0.064369872 0.03284128 0.29544699
0.065035775 0.032883644 0.29546189
0.065701663 0.032926008 0.29547682
0.066367567 0.032968372 0.29549173
0.067228995 0.033347473 0.29648331
0.067897491 0.03339 0.29649827
0.068766735 0.033769622 0.29749009
0.069437839 0.033812314 0.29750511
0.070314869 0.034192413 0.29849705
0.070988566 0.034235276 0.29851213
0.071662277 0.034278132 0.29852721
0.072335958 0.034320995 0.29854229
0.07300967 0.034363851 0.29855737
0.073464423 0.03406848 0.2975952
0.074135512 0.034111172 0.29761022
0.074806616 0.034153864 0.29762524
0.075250953 0.033857815 0.29666287
0.075919449 0.033900343 0.29667783
0.076587945 0.033942871 0.29669279
0.077021889 0.033646166 0.29573017
0.077687785 0.03368853 0.29574507
0.078353681 0.033730894 0.29575998
0.079019576 0.033773258 0.29577488
0.079685472 0.033815622 0.29578978
0.080351368 0.033857986 0.29580468
0.062154423 0.033038571 0.29435694
0.06299749 0.033419117 0.29534787
0.063663378 0.033461474 0.29536277
0.064329281 0.033503838 0.29537767
0.06499517 0.033546202 0.29539257
0.065661073 0.033588558 0.29540747
0.066326961 0.033630922 0.29542238
0.076981291 0.034308732 0.29566085
0.077647187 0.034351096 0.29567575
0.078313082 0.03439346 0.29569066
0.062956885 0.034081668 0.29527855
0.06362278 0.034124032 0.29529345
