# .PCD v0.7 - Point Cloud Data file format
VERSION 0.7
FIELDS x y z
SIZE 4 4 4
TYPE F F F
COUNT 1 1 1
WIDTH 215
HEIGHT 1
VIEWPOINT 0 0 0 1 0 0 0
POINTS 215
DATA ascii
0.67099464 0.10036424 0.50368083
0.65933108 0.10146108 0.50360858
0.66508722 0.10205168 0.50345254
0.67085826 0.10264063 0.50328207
0.67767715 0.10342044 0.50345302
0.6591959 0.10371697 0.50321341
0.66495144 0.10431781 0.50305557
0.67072189 0.10491702 0.50288326
0.67754006 0.10570964 0.503052
0.68541133 0.1066951 0.50355637
0.65906084 0.10597286 0.50281823
0.66481578 0.10658395 0.50265861
0.67058551 0.10719341 0.50248444
0.67740297 0.10799885 0.50265098
0.68527329 0.10899968 0.50315261
0.65523612 0.10800777 0.50329375
0.65892565 0.10822873 0.50242305
0.66468 0.10885008 0.50226164
0.67044926 0.10946979 0.50208569
0.67726576 0.11028805 0.50224996
0.68410099 0.11110426 0.50239611
0.6909548 0.11191842 0.50252408
0.69990313 0.11312968 0.50333238
0.6503967 0.10982785 0.50340056
0.6551013 0.11025853 0.50289941
0.65879059 0.11048461 0.50202787
0.66454422 0.11111623 0.50186461
0.67031288 0.11174619 0.50168693
0.67712867 0.11257726 0.50184894
0.68396306 0.11340629 0.50199282
0.69081616 0.11423327 0.50211859
0.69976342 0.11546247 0.50292373
0.65026236 0.11207092 0.50300765
0.65496647 0.11250928 0.50250518
0.65865541 0.11274049 0.50163269
0.66440845 0.11338235 0.50146765
0.67017651 0.11402258 0.50128818
0.67802358 0.1150718 0.50180167
0.68485916 0.11591345 0.50194144
0.69274902 0.11695793 0.50241333
0.6996237 0.11779526 0.50251508
0.70859611 0.11903952 0.50329179
0.65115058 0.1145229 0.50297701
0.65585625 0.11496878 0.50247145
0.65954661 0.11520487 0.50159621
0.66530097 0.1158568 0.50142765
0.67107022 0.11650705 0.50124454
0.67788637 0.11736357 0.50140023
0.68472111 0.11821803 0.5015378
0.69261014 0.11927791 0.50200689
0.70052147 0.12033533 0.50245428
0.70949471 0.12159732 0.50322604
0.65101612 0.11676852 0.50258362
0.65572131 0.11722209 0.50207675
0.66146374 0.11788547 0.50191712
0.66516507 0.1181255 0.50103021
0.67196357 0.11899668 0.50119996
0.67878079 0.1198658 0.50135159
0.68665028 0.12094311 0.50183618
0.6935066 0.12180792 0.50194973
0.70038164 0.12267068 0.50204521
0.648229 0.11898018 0.50341427
0.65292621 0.11944224 0.50291324
0.65661049 0.11968926 0.50204164
0.6613282 0.12014905 0.50152063
0.66605711 0.12060761 0.50098878
0.67388654 0.12170464 0.50150871
0.68070674 0.12258618 0.50165445
0.68754554 0.12346566 0.50178218
0.69440293 0.12434307 0.50189161
0.70231616 0.12543082 0.50233006
0.64809465 0.12122324 0.50302136
0.65279138 0.121693 0.50251895
0.65647531 0.12194513 0.50164646
0.66221845 0.12262884 0.50148153
0.66900432 0.12352689 0.50165772
0.67477918 0.12420708 0.50146198
0.68160045 0.12510122 0.50160366
0.68844032 0.12599331 0.50172722
0.696334 0.12709852 0.50218105
0.7042501 0.12820122 0.50261313
0.64898038 0.12368569 0.50299072
0.65367866 0.12416294 0.50248522
0.65736401 0.12441997 0.50161004
0.66413426 0.12533249 0.50179839
0.66989541 0.12602438 0.50161356
0.67567158 0.12671463 0.50141424
0.68249393 0.1276214 0.50155187
0.69036806 0.12874404 0.50202107
0.6972295 0.12964647 0.50212073
0.64884591 0.12593132 0.50259739
0.65354359 0.12641627 0.50209045
0.66030002 0.12734303 0.5022893
0.66604936 0.12804642 0.50211358
0.67181361 0.12874816 0.50192332
0.67656362 0.12922734 0.5013656
0.6844182 0.13036741 0.50185031
0.69126213 0.13128451 0.50196397
0.7001946 0.13264015 0.50275439
0.64504325 0.1279078 0.50306469
0.64871144 0.12817696 0.502204
0.65443039 0.12889388 0.50205541
0.66016424 0.12960917 0.50189233
0.66693854 0.1305467 0.5020709
0.6727041 0.13125849 0.50187695
0.67951369 0.13219211 0.50202096
0.686342 0.1331237 0.50214684
0.69422162 0.13427626 0.50260353
0.64592695 0.13037558 0.50303507
0.65061629 0.13087671 0.50253272
0.65429521 0.13114975 0.50166023
0.66105199 0.13210195 0.50185281
0.66680193 0.13282566 0.50167167
0.67359412 0.13377394 0.50182968
0.68040478 0.13472019 0.5019697
0.68826509 0.1358902 0.5024417
0.69614768 0.13705775 0.50289196
0.6457926 0.13261865 0.50264215
0.65048146 0.13312747 0.50213838
0.65518153 0.13363507 0.50162387
0.66091609 0.13437065 0.50145537
0.66769063 0.13533363 0.5016275
0.67345679 0.13606572 0.50142825
0.6833533 0.13771062 0.50262058
0.69018757 0.13866699 0.50273472
0.64199662 0.13457656 0.50310719
0.64565825 0.13486171 0.50224924
0.65034664 0.13537821 0.50174415
0.65504622 0.13589351 0.50122821
0.66180325 0.13687114 0.50141442
0.66960382 0.1380783 0.50193727
0.67640007 0.13905162 0.50208545
0.68321478 0.14002289 0.5022155
0.69210935 0.14145401 0.50302589
0.64186251 0.13681449 0.50271511
0.64654124 0.13733974 0.50221777
0.65123105 0.13786376 0.50170952
0.6569531 0.13862106 0.50154829
0.66166723 0.13914239 0.50101656
0.66946685 0.14036494 0.50153673
0.67626226 0.14135107 0.50168264
0.68410492 0.14256889 0.50216103
0.6930002 0.14401774 0.50296652
0.64274383 0.13929017 0.5026859
0.64640677 0.13958538 0.50182438
0.65211511 0.14035439 0.50167406
0.65681756 0.14088464 0.5011518
0.66153121 0.14141366 0.5006187
0.6703546 0.14288831 0.50148994
0.67715108 0.14388704 0.50163174
0.686023 0.14535633 0.50245589
0.63794124 0.14098904 0.50278437
0.6426096 0.14153068 0.50229347
0.64830625 0.14231119 0.5021522
0.65198004 0.14261028 0.50127888
0.65770268 0.14338791 0.50111222
0.66344047 0.14416391 0.50093114
0.671242 0.14541678 0.50144219
0.67803967 0.14642814 0.50158
0.6869123 0.14791515 0.50239921
0.64349055 0.14401405 0.50226295
0.64817142 0.14456193 0.50175786
0.65286362 0.14510861 0.50124204
0.65858769 0.14589629 0.50107181
0.66432655 0.14668234 0.50088716
0.67110479 0.14770855 0.50104076
0.67995405 0.149216 0.5018785
0.68780124 0.15047914 0.50234163
0.64437103 0.14650252 0.50223148
0.64905345 0.14705794 0.50172329
0.65476561 0.14785708 0.50156212
0.65947223 0.1484098 0.50103045
0.66521239 0.14920588 0.50084209
0.67199171 0.15024474 0.50099176
0.67981565 0.15152571 0.5014739
0.68971777 0.15329219 0.50263202
0.64057863 0.14843205 0.50269961
0.64626598 0.14924414 0.5025602
0.64993513 0.14955902 0.50168782
0.65462995 0.15012066 0.50116563
0.65933621 0.15068105 0.50063252
0.66507578 0.1514874 0.50044245
0.67185426 0.15253907 0.50058985
0.67967725 0.15383542 0.50106931
0.69060612 0.15586896 0.50257218
0.64714575 0.15174547 0.50252652
0.65284932 0.15256596 0.50236905
0.6565311 0.15288453 0.50148308
0.66226077 0.15370214 0.50130022
0.66800523 0.15451811 0.50110292
0.67478848 0.15558197 0.50124264
0.68056476 0.15639447 0.50101447
0.69149399 0.15845087 0.50251144
0.64903963 0.15450503 0.5028522
0.65474629 0.15533537 0.50268924
0.6594497 0.15591136 0.5021553
0.66314423 0.15623361 0.50125575
0.66889 0.15705964 0.50105476
0.67465067 0.157884 0.50083935
0.68145192 0.15895863 0.50095868
0.65562665 0.15785953 0.50264972
0.6613493 0.15869829 0.50246871
0.66606724 0.15928033 0.50191891
0.6718179 0.16011599 0.50171065
0.67553639 0.1604407 0.50078672
0.68438959 0.16203681 0.50159967
0.66796947 0.1620848 0.50222552
0.67270172 0.16267288 0.50165993
0.6784687 0.16351694 0.50143361
0.68732631 0.16513038 0.50223804
0.66987121 0.16489951 0.50253046
0.67562819 0.16575485 0.50231135
0.68140006 0.16660854 0.50207782
0.68923712 0.16797976 0.50252569
0.68330729 0.16945323 0.50237006
