# .PCD v0.7 - Point Cloud Data file format
VERSION 0.7
FIELDS x y z
SIZE 4 4 4
TYPE F F F
COUNT 1 1 1
WIDTH 1509
HEIGHT 1
VIEWPOINT 0 0 0 1 0 0 0
POINTS 1509
DATA ascii
-2.000258 0.5043602 1.2243066
-2.5367618 0.60553074 1.1691728
-2.4711542 0.59086931 1.1507955
-2.4088898 0.57696223 1.133415
-2.359292 0.56601715 1.1206632
-2.3222928 0.55802858 1.1126029
-2.2864466 0.55029452 1.1048391
-2.2713599 0.54746914 1.1051111
-2.2563114 0.54464686 1.1053483
-2.251585 0.54427445 1.1096559
-2.257123 0.54634726 1.1180861
-2.2523775 0.5459733 1.1224113
-2.247632 0.54559934 1.1267362
-2.2530932 0.54766619 1.135237
-2.2483282 0.54729068 1.1395795
-2.2435637 0.54691529 1.1439221
-2.2286496 0.5441035 1.1440363
-2.2239041 0.54372954 1.1483612
-2.2191586 0.54335558 1.1526864
-2.2144132 0.54298162 1.1570113
-2.2096677 0.54260767 1.1613362
-2.194869 0.53980517 1.1613455
-2.1901426 0.53943264 1.165653
-2.1854167 0.53906024 1.1699605
-2.1806903 0.53868783 1.174268
-2.1659884 0.53589284 1.1741893
-2.1612811 0.53552186 1.1784792
-2.1565738 0.535151 1.1827693
-2.142941 0.53260386 1.1830645
-2.1382513 0.53223431 1.1873386
-2.1335616 0.53186476 1.191613
-2.1190114 0.52908182 1.1913958
-2.1143408 0.5287137 1.1956522
-2.1096702 0.5283457 1.199909
-2.0951972 0.52556872 1.1996219
-2.0905457 0.52520216 1.203861
-2.077107 0.52267039 1.203979
-2.0637026 0.52014124 1.2040656
-2.0493598 0.51737463 1.2036593
-2.036027 0.51485109 1.203681
-2.0227284 0.51233041 1.2036712
-2.0181656 0.51197088 1.2078295
-2.0049186 0.50945413 1.2077725
-2.0003734 0.50909591 1.211915
-1.9871784 0.50658333 1.2118106
-1.9826504 0.50622654 1.2159374
-2.5363717 0.61254108 1.1693509
-2.4707723 0.59772873 1.1509697
-2.4085155 0.5836786 1.1335855
-2.3589244 0.57262146 1.1208308
-2.3115706 0.56207347 1.1087325
-2.286088 0.55674016 1.1050029
-2.2606816 0.55141294 1.1012032
-2.2559552 0.55104041 1.1055107
-2.2409472 0.54819524 1.1057119
-2.2362399 0.54782426 1.1100018
-2.2417765 0.54992318 1.118433
-2.2370501 0.54955065 1.1227405
-2.2323236 0.54917824 1.127048
-2.2275977 0.54880583 1.1313555
-2.2127047 0.54596961 1.1314514
-2.2079973 0.54559875 1.1357415
-2.2032905 0.54522777 1.1400313
-2.1985831 0.54485691 1.1443214
-2.1938763 0.54448593 1.1486113
-2.1801062 0.54190457 1.1490321
-2.1754165 0.5415349 1.1533065
-2.1707263 0.54116535 1.1575806
-2.1660366 0.5407958 1.1618547
-2.1513534 0.53797626 1.1617599
-2.1466827 0.53760815 1.1660163
-2.1320572 0.53479302 1.1658688
-2.1274061 0.53442657 1.1701078
-2.1227546 0.53406 1.1743469
-2.1181035 0.53369343 1.178586
-2.1045618 0.53113008 1.1787982
-2.0999279 0.53076482 1.1830215
-2.0864382 0.52820551 1.1831865
-2.0818214 0.52784181 1.1873939
-2.0772047 0.52747798 1.1916015
-2.072588 0.52711415 1.1958091
-2.0582089 0.52431846 1.1954372
-2.0448422 0.52176881 1.1954899
-2.0315104 0.5192219 1.1955109
-2.0182128 0.51667774 1.1955006
-2.0136676 0.51631951 1.1996431
-2.000422 0.5137794 1.1995854
-1.9958941 0.51342261 1.2037122
-1.9827005 0.51088667 1.2036071
-1.9781896 0.51053119 1.2077181
-1.9650484 0.5079993 1.2075658
-2.5359812 0.61955142 1.1695287
-2.4703908 0.60458815 1.1511438
-2.4195776 0.59315348 1.1381578
-2.3585567 0.5792259 1.1209986
-2.3215666 0.57107604 1.1129341
-2.2857289 0.56318581 1.1051664
-2.2603259 0.55780649 1.1013653
-2.2452998 0.55493367 1.1015835
-2.2313404 0.5523138 1.1021774
-2.2266507 0.55194426 1.1064515
-2.2219605 0.55157471 1.1107259
-2.2172709 0.55120516 1.115
-2.2125812 0.55083561 1.1192741
-2.2078915 0.55046606 1.1235483
-2.1930366 0.54760671 1.1236103
-2.1883659 0.54723871 1.127867
-2.1836953 0.54687071 1.1321237
-2.1689172 0.54401743 1.1321156
-2.1642661 0.54365087 1.1363549
-2.1596146 0.5432843 1.140594
-2.1549635 0.54291785 1.1448331
-2.1503124 0.54255128 1.1490722
-2.1366506 0.5399549 1.149394
-2.1320167 0.53958964 1.1536174
-2.1273828 0.53922451 1.1578407
-2.1227489 0.53885937 1.1620641
-2.1181145 0.53849423 1.1662874
-2.104557 0.53590608 1.1665149
-2.0999403 0.53554225 1.1707225
-2.0854473 0.53271139 1.170455
-2.0808496 0.53234911 1.1746449
-2.0673976 0.52976918 1.1747758
-2.0628176 0.52940834 1.1789501
-2.0582376 0.52904737 1.1831243
-2.0536575 0.5286864 1.1872985
-2.0402923 0.52611351 1.1873505
-2.0269618 0.523543 1.1873713
-2.0224161 0.5231849 1.191514
-2.0091376 0.52061868 1.1914871
-2.0046091 0.52026188 1.1956139
-1.9913827 0.51769972 1.1955397
-1.9868718 0.51734424 1.199651
-1.9650332 0.51258361 1.1952968
-1.9692036 0.51443207 1.2036247
-1.9560806 0.51187813 1.2034559
-2.5230713 0.62351727 1.1649461
-2.4700089 0.61144757 1.1513178
-2.4077678 0.59711111 1.1339266
-2.3581891 0.58583021 1.1211662
-2.3108473 0.57506883 1.1090624
-2.2853703 0.56963146 1.10533
-2.2599697 0.56420004 1.1015277
-2.2356768 0.55902755 1.0980644
-2.2207079 0.55613315 1.098231
-2.2160373 0.55576503 1.1024876
-2.2113667 0.55539703 1.1067443
-2.2066965 0.55502903 1.1110008
-2.1918235 0.55214214 1.1110799
-2.1871724 0.55177557 1.115319
-2.1733737 0.54914486 1.1157668
-2.1596098 0.5465169 1.1161828
-2.1549931 0.54615307 1.1203904
-2.1503763 0.54578924 1.1245978
-2.1457596 0.54542542 1.1288054
-2.1411428 0.54506171 1.133013
-2.1365261 0.54469788 1.1372204
-2.1319094 0.54433405 1.141428
-2.1272931 0.54397023 1.1456356
-2.1226764 0.54360652 1.1498432
-2.1180596 0.54324269 1.1540506
-2.1134429 0.54287887 1.1582582
-2.0988932 0.54001749 1.1580429
-2.094296 0.53965521 1.1622329
-2.0807934 0.53704774 1.1624105
-2.0762134 0.5366869 1.1665847
-2.0716329 0.53632593 1.170759
-2.0582004 0.53372407 1.1708734
-2.0536375 0.53336453 1.1750319
-2.0490746 0.533005 1.1791904
-2.0357103 0.5304085 1.1792421
-2.0311651 0.53005028 1.1833847
-2.0178528 0.52745783 1.1833887
-2.0133247 0.52710104 1.1875157
-2.0000648 0.52451277 1.1874723
-1.9868394 0.52192724 1.1873977
-1.9736487 0.51934433 1.1872914
-1.9691724 0.51899159 1.191371
-1.9560333 0.51641285 1.1912174
-1.9515744 0.51606154 1.195281
-1.9471155 0.51571012 1.1993449
-1.9426566 0.51535881 1.2034087
-2.5112081 0.62767708 1.1607585
-2.4581733 0.61548924 1.1471081
-2.4073939 0.60382736 1.1340971
-2.3578215 0.59243464 1.1213338
-2.3104854 0.58156645 1.1092272
-2.2746758 0.57352161 1.101438
-2.2492981 0.56803977 1.0976169
-2.2250266 0.56281936 1.0941348
-2.2203565 0.56245136 1.0983913
-2.2054272 0.55953383 1.0985224
-2.1915607 0.55687416 1.0990326
-2.1869264 0.55650902 1.103256
-2.1822925 0.55614388 1.1074793
-2.1776586 0.55577874 1.1117024
-2.1537166 0.55058408 1.1079204
-2.1399899 0.54793561 1.1083028
-2.1354098 0.54757464 1.1124768
-2.1308298 0.54721367 1.1166511
-2.1262498 0.54685283 1.1208255
-2.1216698 0.54649186 1.1249995
-2.1170893 0.54613101 1.129174
-2.1125093 0.54577005 1.1333482
-2.1079292 0.54540908 1.1375225
-2.1123395 0.54732358 1.1456306
-2.0987687 0.54468727 1.1458709
-2.0941887 0.54432642 1.1500452
-2.0896087 0.54396546 1.1542194
-2.0850286 0.54360449 1.1583936
-2.0804482 0.54324365 1.1625679
-2.0758681 0.54288268 1.1667421
-2.0624194 0.54025602 1.1668718
-2.0578566 0.53989649 1.1710303
-2.0444593 0.53727388 1.1711128
-2.0399137 0.53691566 1.1752555
-2.0265684 0.53429711 1.1752903
-2.0220404 0.53394032 1.1794174
-2.0087466 0.53132582 1.1794052
-2.0042357 0.53097034 1.1835163
-1.9909946 0.52836001 1.1834567
-1.9777876 0.52575243 1.1833656
-1.9646155 0.52314758 1.1832428
-1.9688352 0.52504694 1.1915247
-1.9470364 0.52019536 1.1871367
-1.9425946 0.51984537 1.1911845
-1.9381531 0.51949537 1.1952326
-1.9337114 0.51914537 1.1992807
-1.9292699 0.51879537 1.2033286
-2.5274534 0.63788199 1.1605985
-2.4743156 0.62556589 1.1470449
-2.4348893 0.61662745 1.1385121
-2.3851981 0.60511303 1.12586
-2.336709 0.59387004 1.1134591
-2.2997704 0.58548117 1.1053536
-2.2639847 0.57735968 1.0975449
-2.2396603 0.57208538 1.0941124
-2.2246752 0.56913745 1.0942951
-2.2097282 0.56619239 1.0944431
-2.1958456 0.56350803 1.0949684
-2.1912117 0.5631429 1.0991917
-2.1865778 0.56277776 1.103415
-2.1727643 0.56009877 1.1038773
-2.1681476 0.55973494 1.1080849
-2.1533704 0.55680335 1.1080782
-2.130518 0.55182183 1.1046517
-2.1259551 0.55146217 1.1088102
-2.1213923 0.55110264 1.1129684
-2.1168294 0.5507431 1.1171269
-2.1122665 0.55038357 1.1212854
-2.1077037 0.55002403 1.1254439
-2.1031408 0.5496645 1.1296024
-2.1075845 0.55160499 1.1376796
-2.103004 0.55124402 1.1418538
-2.098424 0.55088317 1.146028
-2.0938439 0.55052221 1.1502023
-2.080327 0.5478667 1.1503947
-2.0757642 0.54750717 1.1545532
-2.0712013 0.54714751 1.1587114
-2.0577536 0.54449737 1.1588409
-2.0532079 0.54413915 1.1629834
-2.0398121 0.54149318 1.1630652
-2.0352836 0.54113638 1.1671922
-2.0219398 0.53849435 1.1672266
-2.0174289 0.53813887 1.1713378
-2.012918 0.5377835 1.1754489
-1.9996434 0.53514695 1.1754203
-1.99515 0.5347929 1.1795156
-1.981927 0.53216052 1.1794398
-1.9687387 0.52953076 1.1793323
-1.9555851 0.52690387 1.179193
-1.9511434 0.52655387 1.1832411
-1.9390041 0.52418351 1.1835253
-1.9345778 0.52383471 1.1875594
-1.9301516 0.5234859 1.1915932
-1.9257253 0.52313709 1.1956272
-1.9212991 0.52278829 1.1996613
-2.5322242 0.64526761 1.1560736
-2.4915423 0.63596475 1.1473398
-2.4509907 0.62667203 1.1384869
-2.4116111 0.6176511 1.1299131
-2.3733978 0.60890138 1.1216242
-2.3249364 0.59755075 1.1092017
-2.2890587 0.58934379 1.1014786
-2.2532959 0.58114588 1.0936503
-2.2393074 0.57842958 1.0942733
-2.2140293 0.57285106 1.0903636
-2.2001309 0.57014191 1.0909042
-2.1862669 0.5674355 1.0914133
-2.1816502 0.56707168 1.0956206
-2.1668162 0.56410944 1.0956662
-2.1622186 0.56374717 1.0998564
-2.1484604 0.5610491 1.1002688
-2.1438804 0.56068814 1.1044431
-2.1301742 0.55799425 1.1048083
-2.1165028 0.55530286 1.1051421
-2.1119571 0.55494463 1.1092849
-2.1074119 0.55458653 1.1134274
-2.1028662 0.55422831 1.1175702
-2.0983205 0.55387008 1.1217129
-2.1027975 0.55583692 1.1297591
-2.0982347 0.55547726 1.1339176
-2.0936718 0.55511773 1.1380758
-2.0891089 0.55475819 1.1422343
-2.0845461 0.55439866 1.1463928
-2.0799832 0.55403912 1.1505513
-2.0665021 0.55136275 1.1507115
-2.0619564 0.55100453 1.1548543
-2.0574112 0.55064642 1.1589968
-2.0439992 0.54797554 1.1590939
-2.030622 0.5453074 1.1591594
-2.0261111 0.54495203 1.1632705
-2.0127859 0.54228806 1.1632886
-2.0082922 0.54193389 1.1673839
-1.9950186 0.53927398 1.1673548
-1.9905425 0.53892124 1.1714344
-1.9773208 0.53626549 1.1713579
-1.9728619 0.53591406 1.1754215
-1.9596924 0.53326237 1.1752977
-1.9475232 0.53086877 1.1756094
-1.9344212 0.52822232 1.1754241
-1.9300123 0.52787495 1.1794422
-1.9179221 0.52548766 1.179682
-1.9135286 0.52514148 1.1836863
-1.909135 0.52479517 1.1876903
-2.5421538 0.65305984 1.146847
-2.5254617 0.6497432 1.1472399
-2.4962525 0.64325666 1.1428726
-2.4671316 0.6367774 1.1384244
-2.4276719 0.62766385 1.1299257
-2.3893805 0.61882436 1.1217101
-2.351212 0.60999453 1.1133823
-2.3142037 0.60143805 1.1053445
-2.2783494 0.59315443 1.097602
-2.2529416 0.58751345 1.093812
-2.2286425 0.58214176 1.0903592
-2.2136793 0.57914329 1.0905234
-2.190536 0.57404459 1.0873642
-2.1859193 0.57368076 1.0915718
-2.1813025 0.57331693 1.0957792
-2.1664701 0.57032871 1.0958241
-2.1618724 0.56996644 1.1000142
-2.1572752 0.56960416 1.1042042
-2.1343937 0.5645262 1.1008065
-2.1207056 0.56181002 1.1011555
-2.1070528 0.55909669 1.1014729
-2.1116147 0.56109357 1.1094408
-2.0979962 0.55838299 1.1097264
-2.0934682 0.55802619 1.1138535
-2.0979781 0.56001902 1.1218688
-2.0934329 0.55966091 1.1260116
-2.0888872 0.55930269 1.1301541
-2.084342 0.55894446 1.1342969
-2.0797963 0.55858624 1.1384397
-2.0842028 0.56057107 1.1465497
-2.0707054 0.55786991 1.1467249
-2.0572429 0.55517161 1.1468687
-2.0527143 0.55481482 1.1509957
-2.0393038 0.55212057 1.1510921
-2.0347929 0.55176508 1.1552031
-2.0214343 0.54907501 1.1552522
-2.0169411 0.54872084 1.1593475
-2.003634 0.54603481 1.1593494
-1.9991578 0.54568207 1.163429
-1.9859029 0.54299998 1.1633832
-1.981444 0.54264867 1.1674471
-1.9682411 0.53997087 1.1673541
-1.9560424 0.53755403 1.1676934
-1.942907 0.53488147 1.1675391
-1.9307719 0.53246975 1.1678205
-1.9177035 0.52980244 1.1676047
-1.9056319 0.52739573 1.1678283
-1.901271 0.52705204 1.1718028
-1.8882874 0.52439141 1.1715097
-1.8925494 0.5263648 1.1797514
-1.8796004 0.52370679 1.1794269
-2.5302124 0.65709841 1.1427338
-2.5124941 0.65348756 1.142715
-2.4833117 0.64694321 1.1383247
-2.4552617 0.64067256 1.1342494
-2.4158282 0.63147497 1.1257293
-2.3775625 0.62255371 1.1174922
-2.3404589 0.61390877 1.1095438
-2.3138418 0.60793567 1.1055095
-2.2779922 0.59957397 1.097765
-2.2525873 0.59388101 1.0939736
-2.2282906 0.58845985 1.0905197
-2.2040668 0.58304453 1.0869992
-2.1901879 0.58028984 1.0875227
-2.1855717 0.57992601 1.0917304
-2.1707211 0.57691026 1.0917921
-2.1661239 0.57654798 1.0959821
-2.1615262 0.5761857 1.100172
-2.156929 0.57582343 1.104362
-2.1431904 0.57307982 1.1047575
-2.129487 0.57033908 1.1051216
-2.115818 0.56760085 1.1054542
-2.1021838 0.56486547 1.1057551
-2.0976553 0.56450856 1.1098821
-2.0931273 0.56415176 1.1140091
-2.0885992 0.56379497 1.1181359
-2.0930905 0.56580985 1.1261678
-2.0885453 0.56545162 1.1303103
-2.0839996 0.56509352 1.1344531
-2.0794539 0.56473529 1.1385958
-2.0749087 0.56437707 1.1427383
-2.06143 0.56165397 1.1428974
-2.0569019 0.56129718 1.1470242
-2.0523734 0.56094038 1.1511512
-2.0389643 0.55822265 1.151247
-2.0255895 0.55550778 1.1513112
-2.0122495 0.55279553 1.1513441
-2.0077734 0.55244279 1.1554236
-1.994485 0.54973471 1.1554089
-1.9812316 0.54702926 1.1553626
-1.9767901 0.54667926 1.1594107
-1.9645616 0.54423928 1.1597774
-1.9513928 0.5415405 1.1596539
-1.9392282 0.53910553 1.1599629
-1.9261264 0.53641212 1.1597781
-1.9140252 0.53398216 1.1600292
-1.9009908 0.53129399 1.1597831
-1.8889531 0.52886891 1.1599762
-1.8846248 0.52852786 1.1639209
-1.8726331 0.52610648 1.1640718
-1.8683206 0.52576661 1.1680024
-1.8640076 0.52542675 1.1719329
-2.5298257 0.66404891 1.1429102
-2.5121093 0.66040683 1.1428905
-2.4829297 0.65380263 1.1384988
-2.4548831 0.64747477 1.1344221
-2.4269209 0.64115369 1.1302681
-2.388639 0.63214755 1.1220484
-2.3504796 0.62315118 1.1137164
-2.3134804 0.61443341 1.1056745
-2.2776346 0.60599363 1.097928
-2.252233 0.60024858 1.0941353
-2.2279391 0.59477806 1.0906801
-2.2037177 0.58931315 1.0871583
-2.1898403 0.5865351 1.0876813
-2.1852241 0.58617139 1.0918889
-2.1806073 0.58580756 1.0960963
-2.1759906 0.58544374 1.1003039
-2.16118 0.58240497 1.10033
-2.1565828 0.58204269 1.1045198
-2.1428456 0.57927573 1.1049149
-2.1291437 0.5765115 1.1052785
-2.1154757 0.5737499 1.1056104
-2.1109304 0.57339168 1.1097531
-2.1063848 0.57303345 1.1138959
-2.0927863 0.57027745 1.1141646
-2.0882583 0.56992054 1.1182914
-2.0927482 0.5719589 1.1263239
-2.088203 0.57160068 1.1304665
-2.0836573 0.57124257 1.1346092
-2.0701451 0.56849325 1.134799
-2.0656171 0.56813645 1.1389258
-2.061089 0.56777966 1.1430528
-2.056561 0.56742275 1.1471796
-2.0431356 0.56468034 1.1472907
-2.0297446 0.56194055 1.1473701
-2.0163884 0.55920362 1.1474183
-2.003067 0.55646944 1.1474345
-1.9897803 0.55373788 1.1474192
-1.9853386 0.55338788 1.1514673
-1.9730808 0.55092454 1.1518614
-1.9686545 0.55057573 1.1558955
-1.9554697 0.54785228 1.1557872
-1.9345495 0.54302192 1.1519516
-1.9224187 0.54056859 1.1522303
-1.909351 0.53785431 1.1520152
-1.8895594 0.53330004 1.1484978
-1.8775383 0.53085542 1.1486764
-1.8732411 0.53051686 1.1525929
-1.8612658 0.52807581 1.1527293
-1.8569838 0.52773833 1.1566319
-1.8527018 0.52740097 1.1605344
-1.8407885 0.52496481 1.1606147
-2.5191627 0.67018962 1.152452
-2.4900079 0.66352725 1.1480396
-2.4494762 0.6538806 1.1391776
-2.4101157 0.64451623 1.1305952
-2.3719206 0.63543344 1.122298
-2.3234839 0.62364566 1.109864
-2.2876234 0.61512637 1.102133
-2.2622051 0.60932767 1.0983565
-2.2275872 0.60109615 1.0908406
-2.2126284 0.5980196 1.0910026
-2.1894927 0.59278035 1.0878398
-2.184876 0.59241664 1.0920475
-2.1802597 0.59205282 1.0962548
-2.175643 0.59168899 1.1004624
-2.1710262 0.59132516 1.10467
-2.1664095 0.59096134 1.1088777
-2.151639 0.58789957 1.1088679
-2.1470418 0.58753729 1.1130579
-2.1242371 0.58232439 1.1095936
-2.1196742 0.58196485 1.1137521
-2.1151114 0.58160532 1.1179104
-2.1014972 0.5788244 1.1181946
-2.0969515 0.57846618 1.1223373
-2.0924058 0.57810795 1.1264799
-2.0878606 0.57774973 1.1306226
-2.0833149 0.57739162 1.1347654
-2.0698042 0.57461882 1.1349545
-2.0652761 0.57426202 1.1390815
-2.0518174 0.57149339 1.1392233
-2.0473065 0.57113802 1.1433346
-2.0339003 0.56837344 1.143429
-2.0205278 0.56561172 1.1434922
-2.0071902 0.56285262 1.1435239
-1.9938875 0.56009638 1.1435237
-1.9815999 0.5576098 1.1439455
-1.9771737 0.55726099 1.1479795
-1.9639555 0.55451143 1.1479023
-1.9517471 0.55203104 1.148252
-1.9308118 0.54715514 1.1444314
-1.9177109 0.54441464 1.1442471
-1.9056138 0.54194307 1.1444952
-1.8858093 0.53734601 1.140991
-1.8737892 0.53488052 1.1411688
-1.8540925 0.53029191 1.1375663
-1.8498412 0.52995694 1.1414409
-1.8379134 0.52749872 1.1415348
-1.8336776 0.52716494 1.145395
-1.8217961 0.52471042 1.1454468
-1.8175756 0.52437782 1.1492932
-2.4959941 0.6730361 1.1572268
-2.4440694 0.66028655 1.1439328
-2.3933558 0.64782488 1.1308823
-2.355248 0.63866532 1.1225076
-2.3079538 0.6270504 1.1103821
-2.2721744 0.61845899 1.1025789
-2.2375417 0.61015034 1.0950787
-2.2122784 0.6043117 1.0911623
-2.1983862 0.60148549 1.0917
-2.1845284 0.5986619 1.092206
-2.1799121 0.59829807 1.0964134
-2.1752954 0.59793437 1.100621
-2.1706786 0.59757054 1.1048286
-2.1752162 0.59965968 1.1128166
-2.1614451 0.59684289 1.1132436
-2.1466956 0.59375656 1.1132157
-2.1420979 0.59339428 1.1174057
-2.1284156 0.59058452 1.1177521
-2.1238356 0.59022367 1.1219265
-2.1102052 0.58741808 1.1222255
-2.1056423 0.58705854 1.126384
-2.1010795 0.58669901 1.1305425
-2.0875182 0.58389866 1.1307786
-2.0829725 0.58354056 1.1349213
-2.0694633 0.58074439 1.1351099
-2.0649352 0.58038759 1.1392369
-2.0514779 0.57759559 1.1393783
-2.0380554 0.57480633 1.1394882
-2.0335617 0.57445216 1.1435835
-2.0201907 0.57166696 1.143646
-1.9979945 0.56645477 1.1396284
-1.9856929 0.56394625 1.1400635
-1.9724413 0.56117034 1.1400173
-1.9602033 0.55866694 1.1403947
-1.947019 0.5558964 1.1402869
-1.9348444 0.55339789 1.1406066
-1.9217273 0.5506326 1.1404376
-1.9018482 0.54598784 1.1370022
-1.889783 0.54349792 1.1372221
-1.8700119 0.53886163 1.1336884
-1.8503019 0.53423011 1.1300988
-1.83836 0.53174996 1.1302061
-1.8341395 0.53141737 1.1340525
-1.8222438 0.5289408 1.1341178
-1.8103787 0.52646673 1.1341553
-1.8061892 0.52613652 1.1379735
-1.7953237 0.52393353 1.1384463
-1.7911474 0.52360439 1.1422524
-2.4904943 0.67955232 1.1620638
-2.4386625 0.6666925 1.1486883
-2.3776779 0.65135646 1.1315317
-2.3293123 0.63935471 1.1190379
-2.2924647 0.63040578 1.1108637
-2.2464623 0.61898041 1.0989101
-2.2222133 0.61336434 1.095418
-2.1980371 0.60775411 1.0918591
-2.1934032 0.60738897 1.0960824
-2.1795645 0.60454333 1.0965719
-2.184135 0.6066587 1.1045291
-2.1795011 0.60629344 1.1087525
-2.1748672 0.6059283 1.1129756
-2.1702332 0.60556316 1.1171989
-2.1655993 0.60519803 1.1214223
-2.1518641 0.60236061 1.1218174
-2.1371546 0.59925127 1.1217537
-2.1234903 0.59641945 1.1220837
-2.1189103 0.59605861 1.1262579
-2.105299 0.59323096 1.1265409
-2.1007361 0.59287143 1.1306992
-2.0871758 0.59004772 1.1309347
-2.0826306 0.58968949 1.1350775
-2.0691223 0.58686996 1.1352656
-2.0645943 0.58651316 1.1393924
-2.0511379 0.58369768 1.1395333
-2.0377169 0.58088505 1.1396425
-2.0243301 0.57807505 1.1397202
-2.0109777 0.57526779 1.1397662
-1.9897858 0.5702827 1.1361816
-1.9765183 0.56748199 1.1361504
-1.9642659 0.56495655 1.1365414
-1.9510657 0.56216121 1.1364489
-1.9388767 0.55964077 1.1367822
-1.9257437 0.55685067 1.1366282
-1.9058362 0.55216181 1.13322
-1.893757 0.54964995 1.1334531
-1.8739573 0.54496956 1.1299465
-1.8542188 0.54029393 1.126384
-1.8422624 0.53779161 1.1265047
-1.8226322 0.53312469 1.122844
-1.8117138 0.53089929 1.1233656
-1.8075377 0.53057015 1.1271718
-1.7957028 0.52807748 1.127182
-1.7838985 0.5255872 1.1271646
-2.4735761 0.68299484 1.1624913
-2.4218583 0.67002654 1.1490147
-2.3610063 0.65455961 1.1317406
-2.3024273 0.63966715 1.1150894
-2.2667141 0.63092422 1.1072297
-2.2321453 0.62246907 1.0996749
-2.1976881 0.61402285 1.0920182
-2.1930542 0.61365759 1.0962416
-2.1792164 0.61078858 1.0967305
-2.1837859 0.61292732 1.1046882
-2.1883211 0.61506331 1.1126773
-2.18367 0.61469674 1.1169164
-2.1790185 0.61433029 1.1211555
-2.1743674 0.61396372 1.1253946
-2.1697159 0.61359715 1.1296337
-2.155982 0.61073637 1.1300282
-2.1422834 0.60787821 1.1303909
-2.1276135 0.60474598 1.1302917
-2.1139855 0.60189342 1.1305895
-2.109405 0.60153246 1.1347637
-2.0958295 0.59868419 1.1350143
-2.0912666 0.59832466 1.1391728
-2.0777426 0.59548032 1.1393762
-2.0642533 0.59263873 1.1395478
-2.0507984 0.58979988 1.1396883
-2.0373783 0.58696377 1.1397967
-2.023993 0.58413041 1.139874
-2.0017672 0.57882178 1.1358852
-1.9894525 0.57627034 1.1363335
-1.9761864 0.57344627 1.1363018
-1.963935 0.57089996 1.1366923
-1.9429094 0.56588352 1.1329575
-1.9297601 0.56306875 1.1328189
-1.9176203 0.56053114 1.1331074
-1.8977307 0.55580187 1.129684
-1.8856679 0.55327034 1.1299026
-1.8658856 0.54854941 1.1263809
-1.8461651 0.54383349 1.1228032
-1.8342255 0.54131174 1.1229095
-1.8155755 0.53687763 1.1197031
-1.8037111 0.53436184 1.119741
-1.7918772 0.53184831 1.119751
-1.7810313 0.52961016 1.1202071
-1.7768992 0.5292846 1.1239729
-2.4556675 0.68610179 1.1624761
-2.3340602 0.6548934 1.1278472
-2.2766585 0.64015806 1.1114726
-2.2410464 0.63134456 1.1035235
-2.2168393 0.62563264 1.0999954
-2.1927052 0.61992633 1.0964007
-2.1880713 0.6195612 1.1006241
-2.1834373 0.61919606 1.1048474
-2.1879711 0.62135541 1.1128371
-2.1833196 0.62098885 1.1170762
-2.1888161 0.62342441 1.1255352
-2.1841455 0.62305629 1.129792
-2.1693659 0.61988926 1.1297934
-2.1647143 0.61952281 1.1340325
-2.1509995 0.61663985 1.1344106
-2.1463652 0.61627471 1.138634
-2.1327024 0.61339593 1.1389644
-2.1180725 0.61024058 1.1388295
-2.1044803 0.60736752 1.1390953
-2.0909233 0.60449708 1.1393294
-2.0863605 0.60413754 1.1434879
-2.072855 0.60127115 1.1436751
-2.0593839 0.59840751 1.1438305
-2.045948 0.5955466 1.1439543
-2.0236559 0.59018564 1.1400278
-2.0103059 0.58733153 1.1400726
-1.9969913 0.58448017 1.1400859
-1.9758545 0.57941055 1.1364532
-1.9636043 0.57684338 1.1368432
-1.9425808 0.57178271 1.1331072
-1.9294332 0.56894445 1.1329679
-1.9094993 0.56416988 1.1295855
-1.8974072 0.56161523 1.1298316
-1.8775812 0.55684912 1.1263511
-1.8655657 0.55430031 1.1265271
-1.8381139 0.54733145 1.1192217
-1.8261908 0.54479003 1.1193135
-1.8075584 0.54031825 1.1160917
-1.7957104 0.53778267 1.1161153
-1.7848519 0.53552532 1.1165833
-1.7730635 0.53299451 1.1165524
-1.7622608 0.53074157 1.1169698
-1.7514855 0.52849078 1.1173625
-2.4274697 0.68630648 1.1583719
-2.3553648 0.66743922 1.1365461
-2.2969007 0.65228403 1.119797
-2.2406921 0.63771224 1.1036851
-2.2164879 0.63195074 1.1001558
-2.1923561 0.62619495 1.0965599
-2.1877222 0.62582982 1.1007831
-2.1922722 0.62801409 1.1087577
-2.1978054 0.63047862 1.1171823
-2.1931348 0.6301105 1.121439
-2.1986108 0.63257051 1.1299162
-2.1939211 0.63220096 1.1341906
-2.1892314 0.63183141 1.1384647
-2.1744528 0.62863839 1.1384656
-2.1597128 0.62544835 1.1384315
-2.1550617 0.6250819 1.1426706
-2.1413827 0.6221782 1.1430163
-2.127738 0.61927736 1.1433306
-2.1231213 0.61891365 1.1475382
-2.1085315 0.61573529 1.1473675
-2.094975 0.61284149 1.1476011
-2.0814538 0.6099503 1.1478033
-2.0679669 0.60706186 1.1479738
-2.0545149 0.60417616 1.1481128
-2.032208 0.59876716 1.1442008
-2.0188427 0.59588826 1.1442609
-2.0055113 0.59301209 1.1442895
-1.9843596 0.58789682 1.1406715
-1.9632734 0.5827868 1.1369941
-1.9500772 0.57992125 1.1368997
-1.9291061 0.57482028 1.1331172
-1.9169685 0.57224095 1.1334047
-1.8970834 0.56742847 1.1299791
-1.8772599 0.56262076 1.1264975
-1.8652455 0.5600512 1.126673
-1.8455294 0.55525196 1.1230931
-1.8335923 0.55268848 1.1231985
-1.8149465 0.54817641 1.1199899
-1.8030845 0.54561889 1.1200266
-1.7845408 0.54111481 1.1167252
-1.7727536 0.53856313 1.1166937
-1.761952 0.53629208 1.1171107
-2.3181663 0.66480076 1.1285322
-2.2608967 0.64980912 1.1120439
-2.216136 0.63826895 1.1003162
-2.2012243 0.63503921 1.1004393
-2.1873732 0.63209856 1.1009424
-2.1919217 0.63430619 1.1089175
-2.197454 0.63679671 1.1173427
-2.1927834 0.63642871 1.1215994
-2.1982579 0.6389147 1.1300774
-2.1935678 0.63854516 1.1343515
-2.1888781 0.63817561 1.1386256
-2.1841884 0.63780594 1.1428998
-2.1794987 0.63743639 1.1471739
-2.1647601 0.63422036 1.1471393
-2.1600895 0.63385236 1.1513958
-2.1454086 0.63064086 1.1513085
-2.1317654 0.62771666 1.1516221
-2.1181569 0.62479508 1.1519043
-2.1135402 0.62443125 1.156112
-2.0989904 0.62123001 1.1559052
-2.0765476 0.61576331 1.1521184
-2.0630794 0.61285269 1.1522727
-2.0496459 0.60994506 1.1523952
-2.0362468 0.60703993 1.1524863
-2.014029 0.60159087 1.1484942
-1.9918808 0.59614718 1.144439
-1.9707814 0.59099162 1.1407743
-1.9585491 0.58838403 1.141149
-1.9375633 0.58323741 1.1373811
-1.9166428 0.57809591 1.1335533
-1.9045371 0.57549834 1.1338124
-1.8847004 0.57064784 1.1303437
-1.8649253 0.56580198 1.1268189
-1.8452116 0.56096113 1.1232381
-1.8332757 0.55837691 1.1233428
-1.8146321 0.55382574 1.1201332
-1.8027712 0.55124748 1.1201696
-1.7909409 0.54867148 1.120178
-1.7800976 0.54637873 1.1206329
-1.7683269 0.54380751 1.1205869
-1.7508694 0.53955531 1.1176434
-2.4216843 0.69951451 1.1632998
-2.3383961 0.67713737 1.1368618
-2.2708178 0.65911949 1.1163061
-2.2260432 0.6474762 1.1045933
-2.1916585 0.63873243 1.0968782
-2.1870246 0.6383673 1.1011014
-2.1915717 0.6405983 1.1090772
-2.1971021 0.64311492 1.1175032
-2.2025943 0.64562833 1.1259642
-2.1979046 0.64525878 1.1302383
-2.2023263 0.64747989 1.1383281
-2.1976194 0.64710903 1.1426179
-2.1929121 0.64673805 1.1469078
-2.1882052 0.64636719 1.1511977
-2.1744556 0.64341104 1.1516092
-2.1697659 0.64304149 1.1558833
-2.1550674 0.63980246 1.155813
-2.1503968 0.63943446 1.1600695
-2.135756 0.63619995 1.1599464
-2.1221485 0.633255 1.160228
-2.1085758 0.63031268 1.1604779
-2.0940466 0.627087 1.1602533
-2.0805449 0.6241504 1.1604383
-2.0670786 0.62121654 1.1605918
-2.0447764 0.61571372 1.1566777
-2.0313964 0.61278665 1.1567523
-2.0092158 0.60729349 1.1527276
-1.9871048 0.60180557 1.1486394
-1.9748408 0.59917462 1.1490436
-1.9450418 0.59141636 1.1411889
-1.9328741 0.58879292 1.1415052
-1.9119886 0.58360982 1.1376467
-1.8921391 0.5787164 1.134191
-1.8723508 0.57382786 1.1306791
-1.8603541 0.57121789 1.1308393
-1.8406736 0.56633782 1.1272295
-1.8287538 0.56373394 1.1273196
-1.8168651 0.56113255 1.1273818
-1.8059653 0.55881703 1.1278887
-1.7941362 0.55622029 1.1278965
-1.7823378 0.55362594 1.1278765
-2.2256899 0.6538204 1.1047544
-2.2005239 0.64762342 1.1007588
-2.1866755 0.64463592 1.1012607
-2.1820416 0.64427078 1.105484
-2.1967506 0.64943302 1.1176634
-2.2022409 0.65197253 1.1261253
-2.1975517 0.65160298 1.1303995
-2.201972 0.65384746 1.1384897
-2.2073684 0.6563797 1.1470373
-2.202642 0.65600729 1.1513448
-2.1979156 0.65563488 1.155652
-2.1931896 0.65526235 1.1599596
-2.1784368 0.65199292 1.1599393
-2.1737294 0.65162194 1.1642294
-2.1600332 0.64864659 1.1645927
-2.1453743 0.64538455 1.1644866
-2.1407042 0.64501655 1.1687431
-2.1261029 0.64175892 1.1685843
-2.1036119 0.63619423 1.164844
-2.0891032 0.63294399 1.1646011
-2.0756202 0.62998533 1.1647699
-2.0621719 0.62702942 1.1649072
-2.0487585 0.62407613 1.1650128
-2.0177126 0.61594105 1.1569498
-2.0044026 0.61299598 1.1569607
-1.9823285 0.60746408 1.1528401
-1.9612995 0.6022253 1.1491137
-1.9491004 0.59957838 1.1494591
-1.9281849 0.59434855 1.1456294
-1.9073347 0.58912373 1.1417398
-1.887518 0.5841912 1.1382551
-1.8677629 0.57926333 1.1347141
-1.8557826 0.57663369 1.1348598
-1.8438336 0.57400668 1.1349776
-1.8242322 0.56909096 1.1312964
-1.8200272 0.56875968 1.1351287
-1.8081704 0.56613982 1.1351624
-2.2345672 0.66281164 1.1086216
-2.2001739 0.65391552 1.1009185
-2.1771307 0.64826024 1.0976819
-2.1816926 0.65053952 1.105643
-2.1963987 0.65575123 1.1178238
-2.1917281 0.65538311 1.1220806
-2.1971984 0.65794718 1.1305604
-2.2016172 0.66021514 1.1386514
-2.2070127 0.66277325 1.1471996
-2.2022862 0.66240084 1.1515071
-2.2076235 0.66495442 1.1601079
-2.1928334 0.6616559 1.1601219
-2.188107 0.66128349 1.1644294
-2.1733751 0.65798962 1.164391
-2.1686678 0.65761864 1.1686809
-2.1549902 0.65462112 1.169028
-2.1503005 0.65425158 1.1733022
-2.1356816 0.65096664 1.1731601
-2.1211014 0.64768457 1.1729832
-2.1075487 0.64469695 1.1732163
-2.0940309 0.64171183 1.1734178
-2.0795617 0.6384387 1.1731391
-2.0572658 0.6328423 1.1692224
-2.0350385 0.62725115 1.1652424
-2.0216951 0.62427998 1.1652844
-1.9995893 0.6186986 1.1611941
-1.9775525 0.61312258 1.1570406
-1.9653217 0.61045229 1.1574154
-1.9443761 0.60517561 1.1536143
-1.9234957 0.59990406 1.1497536
-1.9104239 0.59695423 1.1495483
-1.8906246 0.59198117 1.1460483
-1.8785998 0.5893271 1.1462357
-1.8589085 0.58436263 1.1426377
-1.8469602 0.58171451 1.1427548
-1.8350428 0.57906914 1.142844
-1.8308071 0.57873535 1.1467044
-2.2342124 0.6691792 1.1087832
-2.1906114 0.65753853 1.0973556
-2.1767831 0.65450549 1.0978404
-2.1813436 0.65680826 1.1058023
-2.1858697 0.65910804 1.1137955
-2.1913767 0.6617012 1.122241
-2.1968451 0.66429126 1.1307216
-2.201263 0.6665827 1.138813
-2.2066565 0.66916692 1.147362
-2.20193 0.66879451 1.1516695
-2.1972041 0.6684221 1.1559768
-2.1924777 0.66804957 1.1602843
-2.1877513 0.66767716 1.1645918
-2.1830249 0.66730475 1.1688993
-2.1782985 0.66693234 1.1732068
-2.1636062 0.66361523 1.1731324
-2.1588993 0.66324437 1.1774223
-2.1452579 0.66022611 1.1777372
-2.1306596 0.65691662 1.1775773
-2.1160998 0.65361011 1.177382
-2.1025658 0.65060043 1.1775987
-2.0890665 0.64759338 1.1777837
-2.0746183 0.64429557 1.1774869
-2.0523591 0.63865507 1.1735375
-2.0389829 0.63565779 1.1736104
-2.0168447 0.6300267 1.1695504
-1.9947759 0.62440109 1.1654274
-1.9727765 0.61878109 1.1612411
-1.9605621 0.61609113 1.1616015
-1.9474088 0.61311138 1.1614709
-1.9265484 0.60779703 1.1575933
-1.9057533 0.60248768 1.153656
-1.8936983 0.59981036 1.1538708
-1.8816744 0.59713554 1.1540575
-1.8696815 0.59446323 1.1542163
-1.865384 0.59412456 1.1581328
-1.8610867 0.593786 1.1620493
-2.2338581 0.67554677 1.1089449
-2.1902628 0.66380715 1.0975147
-2.1764355 0.66075075 1.097999
-2.1809945 0.66307688 1.1059613
-2.1855192 0.66540015 1.1139553
-2.1808681 0.6650337 1.1181943
-2.1964922 0.67063546 1.1308825
-2.191802 0.67026591 1.1351569
-2.1962018 0.67257929 1.1432645
-2.2015743 0.67518806 1.1518316
-2.1968479 0.67481565 1.1561391
-2.2021632 0.67741978 1.1647587
-2.1873956 0.67407072 1.1647542
-2.1826692 0.67369831 1.1690617
-2.1779428 0.6733259 1.1733689
-2.1732163 0.67295337 1.1776764
-2.158545 0.66961193 1.1775839
-2.1449046 0.66657031 1.1778984
-2.1303077 0.66323483 1.1777375
-2.1256375 0.66286683 1.1819942
-2.1110983 0.65953577 1.1817808
-2.0975828 0.65650392 1.1819811
-2.0841022 0.65347481 1.1821499
-2.0608449 0.64749002 1.1777644
-2.0474529 0.64446795 1.1778526
-2.0253 0.6387887 1.1738071
-2.0032167 0.63311493 1.1696987
-1.9812022 0.62744653 1.1655271
-1.9680003 0.62443948 1.1654418
-1.9558026 0.62172997 1.1657875
-1.9426681 0.61872816 1.1656406
-1.9218425 0.61337221 1.161732
-1.9097563 0.61067152 1.1619761
-1.8967391 0.60767889 1.1617224
-1.8923956 0.60733664 1.1656809
-1.8803881 0.60464215 1.1658533
-1.8760599 0.6043011 1.1697977
-2.2437553 0.68493366 1.1132267
-2.1899137 0.67007589 1.0976739
-2.1658745 0.66397977 1.0940025
-2.1806455 0.66934562 1.1061206
-2.1760116 0.66898048 1.1103439
-2.1805177 0.6713258 1.1183541
-2.1860027 0.67396951 1.1268184
-2.1914492 0.67661011 1.1353178
-2.195847 0.67894697 1.1434262
-2.2012186 0.68158174 1.151994
-2.1964922 0.68120933 1.1563015
-2.1917658 0.6808368 1.160609
-2.1870394 0.68046439 1.1649165
-2.182313 0.68009198 1.169224
-2.177587 0.67971957 1.1735313
-2.1728606 0.67934704 1.1778388
-2.1581903 0.67597961 1.1777456
-2.1445513 0.67291451 1.1780596
-2.1299562 0.66955292 1.1778979
-2.1252856 0.66918492 1.1821547
-2.1107483 0.66582787 1.1819406
-2.0972338 0.66277266 1.1821404
-2.0837545 0.65972006 1.1823084
-2.0605001 0.65368581 1.1779218
-2.0471091 0.65064037 1.1780093
-2.0249591 0.64491427 1.1739628
-2.0116544 0.64187551 1.1739714
-1.9896256 0.63615906 1.1698146
-1.9764076 0.63312709 1.169744
-1.9632243 0.63009799 1.1696422
-1.951043 0.62736893 1.1699736
-1.9379269 0.62434506 1.1698103
-1.9258093 0.62162101 1.1700838
-1.9127606 0.61860251 1.1698592
-1.9083844 0.61825764 1.1738474
-1.904008 0.61791277 1.1778359
-1.8919848 0.61519623 1.1780236
-2.2536497 0.69437242 1.1175096
-2.1987729 0.67908394 1.1015575
-2.1655283 0.67019904 1.0941603
-2.1711235 0.67287755 1.1025236
-2.175663 0.6752491 1.110503
-2.1801677 0.67761791 1.1185138
-2.1755161 0.67725134 1.1227529
-2.1910958 0.68295419 1.135479
-2.1864061 0.68258464 1.1397531
-2.1907854 0.68494356 1.1478777
-2.1860785 0.6845727 1.1521676
-2.1813712 0.68420172 1.1564577
-2.1766644 0.68383086 1.1607475
-2.171957 0.68345988 1.1650376
-2.1672502 0.68308902 1.1693275
-2.1625433 0.68271804 1.1736174
-2.1488881 0.67962813 1.1739464
-2.1441984 0.67925858 1.1782205
-2.1296043 0.67587101 1.1780584
-2.1150494 0.67248642 1.1778612
-2.1103978 0.67211998 1.1821003
-2.0968852 0.66904128 1.1822994
-2.0735798 0.66295338 1.1779606
-2.0601554 0.65988171 1.1780791
-2.0467658 0.65681279 1.1781659
-2.0246181 0.65103984 1.1741183
-2.0113149 0.64797771 1.1741264
-1.9980465 0.64491832 1.1741028
-1.9848124 0.64186156 1.1740477
-1.9803361 0.64150882 1.1781273
-1.9671539 0.63845623 1.1780248
-1.9462835 0.63300776 1.1741595
-1.9331862 0.62996173 1.17398
-1.921085 0.62721825 1.1742387
-1.9122978 0.62652576 1.1822472
-1.9079043 0.62617958 1.1862512
-2.2635412 0.70386362 1.1217942
-2.1984224 0.68537617 1.1017172
-2.1651821 0.6764183 1.0943183
-2.1707759 0.67912292 1.1026821
-2.1753139 0.68151784 1.1106622
-2.17068 0.6811527 1.1148853
-2.1751661 0.68354356 1.1229126
-2.1705146 0.68317699 1.1271517
-2.1759582 0.68586969 1.1356525
-2.1813631 0.68855929 1.1441884
-2.1766734 0.68818974 1.1484625
-2.1719837 0.6878202 1.1527367
-2.167294 0.68745065 1.1570108
-2.1626043 0.6870811 1.1612849
-2.1579146 0.68671155 1.1655591
-2.1432643 0.68329334 1.1654489
-2.1385937 0.68292534 1.1697056
-2.1240015 0.67951167 1.1695428
-2.1193504 0.67914522 1.1737819
-2.105804 0.67604041 1.1740119
-2.1011701 0.67567515 1.1782353
-2.087676 0.67257452 1.1784179
-2.0732336 0.66917264 1.1781185
-2.0598102 0.66607749 1.1782362
-2.046422 0.66298521 1.1783228
-2.0330682 0.65989554 1.1783776
-2.0197487 0.65680861 1.1784008
-2.0064645 0.65372443 1.1783924
-1.9932145 0.65064299 1.1783524
-1.988721 0.65028882 1.1824477
-1.9755226 0.64721143 1.1823606
-1.9623591 0.64413679 1.1822417
-1.9492306 0.64106488 1.1820915
-1.9370977 0.63829792 1.1823795
-1.9326717 0.63794911 1.1864135
-1.9282452 0.6376003 1.1904476
-1.9238192 0.6372515 1.1944814
-2.2631826 0.71030915 1.1219578
-2.1980724 0.69166827 1.101877
-2.1648359 0.68263757 1.0944762
-2.1602387 0.6822753 1.0986662
-2.1658115 0.68500435 1.1070483
-2.1611948 0.68464053 1.1112559
-2.1656971 0.68705618 1.1192679
-2.1701646 0.6894691 1.1273115
-2.165513 0.68910253 1.1315506
-2.1709361 0.69181967 1.1400695
-2.1662655 0.69145167 1.1443262
-2.1615949 0.69108355 1.1485829
-2.1569242 0.69071555 1.1528394
-2.1422567 0.68726993 1.1527462
-2.1376052 0.68690336 1.1569853
-2.1329541 0.68653691 1.1612244
-2.1193571 0.68340456 1.1615012
-2.1147232 0.68303943 1.1657245
-2.1011782 0.67991114 1.1659539
-2.0965614 0.67954731 1.1701615
-2.0820823 0.67611647 1.1698964
-2.0774846 0.67575419 1.1740863
-2.0640454 0.67263424 1.1742194
-2.0506415 0.66951716 1.1743209
-2.0460787 0.66915762 1.1784794
-2.0327258 0.66604447 1.1785336
-2.0194077 0.66293406 1.1785562
-2.0061245 0.65982652 1.1785471
-2.0016136 0.65947104 1.1826584
-1.9971029 0.65911555 1.1867695
-1.992592 0.65876007 1.1908805
-1.9793955 0.65565944 1.1907928
-1.9662334 0.65256131 1.1906734
-1.9617568 0.65220857 1.1947529
-1.9572808 0.65185583 1.1988325
-1.9528044 0.65150309 1.2029121
-1.9397289 0.64841187 1.2027137
-2.2628236 0.71675479 1.1221213
-2.197722 0.69796038 1.1020367
-2.1644897 0.68885684 1.0946341
-2.150723 0.68568766 1.0950662
-2.1552949 0.68813229 1.103014
-2.1506977 0.68777001 1.107204
-2.1562304 0.69052207 1.115622
-2.1516142 0.69015825 1.1198294
-2.1560798 0.69259453 1.1278737
-2.1514459 0.69222939 1.132097
-2.146812 0.69186425 1.1363204
-2.1421781 0.69149899 1.1405437
-2.1375442 0.69113386 1.144767
-2.1329103 0.69076872 1.1489904
-2.1192975 0.6876117 1.1492822
-2.1146808 0.68724787 1.1534898
-2.110064 0.68688405 1.1576974
-2.0955281 0.68342257 1.1574843
-2.0909309 0.68306029 1.1616743
-2.0774412 0.67991292 1.161854
-2.0728607 0.67955196 1.1660283
-2.0682807 0.67919111 1.1702025
-2.0548606 0.67604911 1.1703193
-2.0414748 0.67290986 1.1704044
-2.0369291 0.67255175 1.174547
-2.0235953 0.66941655 1.1745849
-2.0190668 0.66905975 1.1787117
-2.005785 0.66592872 1.1787021
-2.0012741 0.66557336 1.1828134
-2.0054822 0.66798925 1.1910925
-1.9922525 0.66486239 1.1910355
-1.9877416 0.66450691 1.1951466
-1.9832307 0.66415143 1.1992579
-1.9787198 0.66379595 1.2033689
-1.9828416 0.66620517 1.2117269
-1.9696981 0.6630851 1.2115912
-2.2727094 0.72634983 1.1264086
-2.197372 0.70425248 1.1021965
-2.1641436 0.69507611 1.0947919
-2.1503782 0.69188344 1.0952234
-2.1457982 0.69152248 1.0993978
-2.1503515 0.69398916 1.107362
-2.1457539 0.69362688 1.111552
-2.1411567 0.6932646 1.115742
-2.136559 0.69290233 1.1199319
-2.1319618 0.69254005 1.1241221
-2.1374164 0.69531202 1.1326106
-2.1327996 0.6949482 1.1368182
-2.1181693 0.69145322 1.136692
-2.1135716 0.69109094 1.140882
-2.1089745 0.69072866 1.145072
-2.1043773 0.69036639 1.1492622
-2.0997796 0.69000411 1.1534522
-2.0862565 0.68683052 1.1536629
-2.0816765 0.68646955 1.1578372
-2.0770965 0.68610871 1.1620114
-2.072516 0.68574774 1.1661856
-2.0590796 0.68258107 1.1663175
-2.0545168 0.68222153 1.170476
-2.0411325 0.67905879 1.1705604
-2.0277824 0.67589903 1.1706135
-2.0232544 0.67554212 1.1747403
-2.0187259 0.67518532 1.1788671
-2.0141978 0.67482853 1.1829941
-2.0096698 0.67447162 1.1871209
-2.0051413 0.67411482 1.1912479
-2.0093136 0.67655146 1.1995592
-2.0047684 0.67619336 1.203702
-2.0002227 0.67583513 1.2078445
-1.9956774 0.67547691 1.2119873
-1.9911319 0.67511868 1.21613
-2.2825918 0.73599696 1.1306968
-2.2072449 0.71371853 1.1064975
-2.1637974 0.70129538 1.0949498
-2.1500335 0.69807923 1.0953808
-2.145453 0.69771838 1.099555
-2.140873 0.69735742 1.1037292
-2.1362929 0.69699645 1.1079035
-2.1317129 0.6966356 1.1120777
-2.1271329 0.69627464 1.1162519
-2.1316156 0.69875932 1.12428
-2.1179724 0.69555283 1.1246004
-2.1133924 0.69519186 1.1287746
-2.1088123 0.69483101 1.1329489
-2.1132255 0.69731021 1.1410401
-2.1086283 0.69694793 1.1452301
-2.1040311 0.69658566 1.14942
-2.0904918 0.69338727 1.1496458
-2.0859118 0.69302642 1.15382
-2.0724244 0.68983221 1.1539989
-2.067862 0.68947268 1.1581571
-2.0632992 0.68911314 1.1623156
-2.049881 0.68592429 1.1624312
-2.0453358 0.68556607 1.166574
-2.0407901 0.68520784 1.1707165
-2.0362444 0.68484974 1.1748593
-2.0316992 0.68449152 1.179002
-2.0183849 0.68131089 1.1790228
-2.0138569 0.6809541 1.1831496
-2.0180626 0.68341696 1.1914301
-2.0135169 0.68305874 1.1955726
-2.0089717 0.68270051 1.1997154
-2.0131083 0.68515801 1.2080588
-2.0085454 0.68479848 1.2122171
-2.0039825 0.68443894 1.2163756
-1.9994198 0.68407941 1.2205341
-2.2822304 0.7424947 1.1308618
-2.2068934 0.72003675 1.106658
-2.1634512 0.70751464 1.0951078
-2.1405234 0.70139802 1.0917786
-2.1359606 0.70103848 1.095937
-2.1313977 0.70067883 1.1000955
-2.1268349 0.70031929 1.104254
-2.1313677 0.70283151 1.1122351
-2.1267877 0.70247054 1.1164093
-2.1222076 0.70210958 1.1205835
-2.1176276 0.70174873 1.1247578
-2.1130476 0.70138776 1.128932
-2.1084671 0.70102692 1.1331062
-2.1038871 0.70066595 1.1372805
-2.0993071 0.70030499 1.1414547
-2.094727 0.69994414 1.1456289
-2.090147 0.69958317 1.1498032
-2.0855665 0.69922233 1.1539774
-2.0809865 0.69886136 1.1581516
-2.0675182 0.69564509 1.158314
-2.0629554 0.69528556 1.1624722
-2.0583925 0.69492602 1.1666307
-2.0449934 0.69171512 1.1667299
-2.0404477 0.6913569 1.1708727
-2.0359025 0.69099867 1.1750154
-2.022572 0.68779325 1.1750512
-2.018044 0.68743646 1.1791782
-2.0222659 0.68992412 1.1874435
-2.0177202 0.6895659 1.191586
-2.0218902 0.6920495 1.1998985
-2.0260253 0.69453037 1.2082424
-2.0214448 0.6941694 1.2124166
-2.0168648 0.69380844 1.2165909
-2.0122848 0.69344759 1.2207651
-2.0163336 0.69592154 1.2291882
-2.0117359 0.69555926 1.2333782
-2.2921085 0.7522198 1.1351521
-2.2167625 0.72958076 1.1109612
-2.1733069 0.71695828 1.0994259
-2.1401796 0.70757043 1.0919354
-2.1264701 0.70431149 1.0923178
-2.1219244 0.70395327 1.0964606
-2.1173792 0.70359516 1.1006033
-2.1128335 0.70323694 1.1047459
-2.1173654 0.70577264 1.1127276
-2.112803 0.7054131 1.1168861
-2.1082401 0.70505357 1.1210444
-2.1036773 0.70469391 1.1252029
-2.0991144 0.70433438 1.1293614
-2.1035423 0.70686173 1.1374378
-2.0989623 0.70650077 1.1416121
-2.0943818 0.70613992 1.1457863
-2.0898018 0.70577896 1.1499605
-2.0852218 0.70541811 1.1541348
-2.0806417 0.70505714 1.158309
-2.0671749 0.70181751 1.1584706
-2.0626121 0.70145798 1.1626291
-2.0580492 0.70109844 1.1667876
-2.044651 0.69786406 1.1668861
-2.0401053 0.69750583 1.1710289
-2.0355601 0.69714773 1.1751714
-2.0397978 0.69966018 1.1834214
-2.0264692 0.69643128 1.1834569
-2.0306721 0.69894111 1.1917381
-2.0261092 0.69858158 1.1958966
-2.0302606 0.701087 1.2042255
-2.0256801 0.70072615 1.2083998
-2.0297794 0.70322764 1.2167761
-2.0251822 0.70286536 1.2209661
-2.03019 0.70568049 1.2298598
-2.0255733 0.70531666 1.2340674
-2.0209565 0.70495284 1.2382751
-2.2917457 0.75874352 1.1353176
-2.2256069 0.73885167 1.1148515
-2.1729593 0.72320354 1.0995845
-2.1306734 0.71081877 1.0883313
-2.1261277 0.71046054 1.092474
-2.121582 0.71010232 1.0966167
-2.1079259 0.70682418 1.0969512
-2.1124911 0.70938599 1.104902
-2.1079459 0.70902777 1.1090448
-2.1034002 0.70866954 1.1131873
-2.0988545 0.70831144 1.1173301
-2.1033335 0.71086633 1.1253595
-2.0987706 0.7105068 1.129518
-2.0942078 0.71014726 1.1336765
-2.0896454 0.70978773 1.137835
-2.0850825 0.70942819 1.1419935
-2.089457 0.71197486 1.1501179
-2.0759568 0.708709 1.1503105
-2.071394 0.70834947 1.1544688
-2.0668311 0.70798993 1.1586273
-2.0622683 0.7076304 1.1627858
-2.0577054 0.70727086 1.1669443
-2.0531425 0.70691133 1.1711028
-2.0573964 0.70944834 1.1793375
-2.0528159 0.70908749 1.1835117
-2.0482359 0.70872653 1.187686
-2.0436559 0.70836568 1.1918602
-2.047823 0.71089602 1.2001739
-2.0432258 0.71053374 1.2043638
-2.0483088 0.71338105 1.2131882
-2.0436921 0.71301723 1.2173958
-2.0390759 0.7126534 1.2216034
-2.0344591 0.71228957 1.2258108
-2.0384855 0.71480894 1.2342525
-2.0338516 0.7144438 1.2384758
-2.3026433 0.76887465 1.1400225
-2.2252522 0.74521923 1.1150131
-2.1817904 0.73239768 1.1034887
-2.130331 0.7169677 1.0884874
-2.116641 0.71366334 1.088853
-2.112113 0.71330655 1.0929799
-2.0984755 0.71000636 1.0932982
-2.1030564 0.71259284 1.1012337
-2.0985284 0.71223605 1.1053605
-2.0940003 0.71187925 1.1094875
-2.0985126 0.71446037 1.1174862
-2.093967 0.71410215 1.1216288
-2.0894213 0.71374393 1.1257715
-2.0938644 0.71631968 1.1338332
-2.0893016 0.71596014 1.1379917
-2.0847387 0.71560061 1.1421502
-2.0891123 0.71817064 1.150275
-2.0845323 0.71780968 1.1544492
-2.0799518 0.71744871 1.1586237
-2.0753717 0.71708786 1.1627977
-2.0707917 0.7167269 1.1669722
-2.0750613 0.71928895 1.1751916
-2.0704641 0.71892667 1.1793816
-2.0658665 0.71856439 1.1835718
-2.0612693 0.71820211 1.1877618
-2.0664282 0.7210815 1.1965165
-2.0520744 0.71747756 1.1961417
-2.0571947 0.72035384 1.2049317
-2.052578 0.71999002 1.2091391
-2.0566726 0.72253823 1.2175183
-2.0520387 0.72217309 1.2217417
-2.0474048 0.72180796 1.225965
-2.3022785 0.7754271 1.1401889
-2.2351141 0.7548908 1.1193197
-2.1814413 0.73866642 1.1036477
-2.1299887 0.72311664 1.0886436
-2.1163001 0.71978903 1.0890086
-2.1117721 0.71943212 1.0931354
-2.107244 0.71907532 1.0972623
-2.1027155 0.71871853 1.1013892
-2.0981874 0.71836162 1.105516
-2.1027155 0.72096753 1.1134996
-2.0981703 0.72060931 1.1176424
-2.0936246 0.7202512 1.1217849
-2.0890794 0.71989298 1.1259277
-2.0935206 0.7224921 1.13399
-2.0979276 0.72508836 1.1420839
-2.0933475 0.72472739 1.1462581
-2.0977025 0.7273196 1.1543994
-2.0931048 0.72695732 1.1585894
-2.0885077 0.72659504 1.1627796
-2.08391 0.72623277 1.1669695
-2.0793128 0.72587049 1.1711595
-2.084547 0.72878194 1.1798449
-2.0799303 0.72841811 1.1840525
-2.0753136 0.7280544 1.1882601
-2.0706973 0.72769058 1.1924677
-2.0748596 0.73026764 1.2007842
-2.0702257 0.72990251 1.2050076
-2.0655918 0.72953725 1.2092309
-2.0609579 0.72917211 1.2134542
-2.056324 0.72880697 1.2176774
-2.0700412 0.73463595 1.230742
-2.3019137 0.78197932 1.1403551
-2.2347584 0.76128435 1.119482
-2.1810923 0.74493504 1.103807
-2.1296463 0.72926569 1.0887997
-2.1159592 0.7259146 1.089164
-2.1114311 0.72555768 1.0932909
-2.097796 0.72221065 1.0936079
-2.1023746 0.7248441 1.1015446
-2.0978465 0.72448719 1.1056716
-2.1023731 0.72711647 1.1136558
-2.0978279 0.72675836 1.1177983
-2.0932822 0.72640014 1.1219411
-2.0977402 0.72902405 1.1299882
-2.0931773 0.72866452 1.1341467
-2.0975828 0.73128414 1.1422412
-2.0930023 0.73092318 1.1464155
-2.0973563 0.73353887 1.1545572
-2.0927587 0.73317659 1.1587474
-2.0881615 0.73281431 1.1629374
-2.0835638 0.73245203 1.1671274
-2.0888162 0.7353909 1.175796
-2.0841994 0.73502719 1.1800034
-2.0884128 0.7376318 1.1882734
-2.0837789 0.73726666 1.1924968
-2.079145 0.73690152 1.1967201
-2.0832887 0.73950052 1.2050531
-2.0786376 0.73913407 1.2092922
-2.0739865 0.7387675 1.2135313
-2.0790305 0.74169016 1.2223892
-2.0743599 0.74132216 1.2266457
-2.0696893 0.74095404 1.2309024
-2.0650191 0.74058604 1.2351589
-2.3117819 0.79188919 1.1446502
-2.244616 0.771034 1.1237905
-2.1807437 0.75120378 1.103966
-2.1384616 0.73843253 1.0927188
-2.1156182 0.73204017 1.0893196
-2.1110902 0.73168325 1.0934465
-2.0974565 0.72831285 1.0937629
-2.1020336 0.73096967 1.1017003
-2.0975056 0.73061275 1.1058271
-2.0929775 0.73025596 1.1099541
-2.0974855 0.7329073 1.1179545
-2.1019592 0.73555601 1.1259863
-2.0973964 0.73519647 1.1301448
-2.0928335 0.73483694 1.1343033
-2.0972376 0.73747993 1.1423986
-2.1016078 0.74012041 1.1505253
-2.0970101 0.73975813 1.1547153
-2.1023183 0.74272776 1.1633317
-2.097702 0.74236393 1.1675394
-2.0832176 0.7386713 1.1672852
-2.0884686 0.74163628 1.1759546
-2.0926976 0.74426568 1.1842091
-2.0880637 0.74390054 1.1884325
-2.0922413 0.74652576 1.1967347
-2.0973611 0.74948049 1.205523
-2.0926905 0.74911249 1.2097795
-2.0977526 0.75206256 1.2186208
-2.0930629 0.75169301 1.2228949
-2.0883732 0.75132346 1.227169
-2.0836835 0.75095391 1.2314432
-2.3216472 0.80185115 1.1489465
-2.2442589 0.77745354 1.1239533
-2.189568 0.76051497 1.1078732
-2.1381183 0.74460483 1.0928755
-2.1244164 0.74120545 1.0932546
-2.1107492 0.73780882 1.0936019
-2.1062207 0.73745203 1.0977288
-2.1016927 0.73709512 1.1018558
-2.0971646 0.73673832 1.1059825
-2.0926366 0.73638153 1.1101096
-2.0971432 0.73905623 1.1181107
-2.092598 0.73869812 1.1222532
-2.0970531 0.74136889 1.1303017
-2.1014729 0.74403667 1.1383815
-2.0968928 0.74367583 1.1425557
-2.1012616 0.74633968 1.1506832
-2.096664 0.7459774 1.1548731
-2.0920663 0.74561512 1.1590631
-2.0973544 0.74860919 1.1676979
-2.0927377 0.74824536 1.1719055
-2.096983 0.75089955 1.180145
-2.0923491 0.75053442 1.1843684
-2.0965424 0.75318432 1.1926553
-2.1016798 0.7561667 1.2014267
-2.1067791 0.75914586 1.2102334
-2.1020894 0.75877631 1.2145078
-2.1061573 0.76141644 1.2229085
-2.3212795 0.80845559 1.1491141
-2.2541122 0.78728151 1.128264
-2.1994095 0.77021372 1.1121979
-2.1469293 0.75384176 1.0967965
-2.1332116 0.75041771 1.0971906
-2.1104083 0.74393439 1.0937575
-2.1058798 0.7435776 1.0978844
-2.1013517 0.74322081 1.1020112
-2.0968237 0.74286389 1.1061382
-2.0922952 0.7425071 1.110265
-2.0968013 0.74520528 1.1182668
-2.0922556 0.74484718 1.1224093
-2.0877099 0.74448895 1.1265521
-2.0921464 0.74718177 1.1346169
-2.0965481 0.74987161 1.1427131
-2.0919681 0.74951077 1.1468873
-2.0963178 0.75219667 1.155031
-2.0917201 0.75183439 1.1592209
