# .PCD v0.7 - Point Cloud Data file format
VERSION 0.7
FIELDS x y z rgb
SIZE 4 4 4 4
TYPE F F F U
COUNT 1 1 1 1
WIDTH 1024
HEIGHT 1
VIEWPOINT 0 0 0 1 0 0 0
POINTS 1024
DATA ascii
0.02105152 0.073024452 0.0071216822 4278190080
0.020897981 0.03079861 0.0026072259 4278190080
0.02205663 0.069565348 0.0049663782 4278190080
0.0218814 0.031470168 0.0030792949 4278190080
0.017785311 -0.069356911 0.0095338216 4278190080
0.026425 0.071500123 0.001014769 4278190080
0.019674471 0.0744946 0.01077049 4278190080
0.02619856 0.073974192 0.001366317 4278190080
0.01791524 0.066471688 0.01015043 4278190080
0.01771545 -0.065856151 0.01072973 4278190080
0.0178557 -0.02655535 0.0077972412 4278190080
0.017717 0.02181679 0.01073485 4278190080
0.017864641 0.02380549 0.0077998042 4278190080
0.018066941 0.02641183 0.0077993269 4278190080
0.018466109 0.028205389 0.0075293179 4278190080
0.018025151 0.03160429 0.0098563433 4278190080
0.018609401 0.029842069 0.0082886806 4278190080
0.017720809 -0.07217788 0.02350479 4278190080
0.018720031 0.032560222 0.0087172976 4278190080
0.01772058 0.0291875 0.01078933 4278190080
0.01850378 0.0277273 0.0064157839 4278190080
0.019220291 0.030218599 0.0071364641 4278190080
0.01812714 0.035878301 0.0097534647 4278190080
0.01935786 0.02996009 0.0066075921 4278190080
0.019264629 0.02931791 0.0057232971 4278190080
0.01839613 0.02704596 0.0045775771 4278190080
0.01878613 0.02812594 0.0045266151 4278190080
0.01953727 0.031483229 0.0072748661 4278190080
0.0177192 -0.0709868 0.017210839 4278190080
0.01865535 0.036638308 0.0089502931 4278190080
0.019387539 0.02920562 0.0040874481 4278190080
0.01966124 0.032655001 0.0074756742 4278190080
0.02056092 0.03167861 0.0059170718 4278190080
0.0203197 0.030666349 0.0052213068 4278190080
0.019435581 0.034695201 0.0080257654 4278190080
0.02037376 0.03577584 0.0071381922 4278190080
0.020913661 0.03268069 0.0060496922 4278190080
0.018236389 0.02629685 0.00094581197 4278190080
0.01867288 0.059883051 0.0088361502 4278190080
0.02108323 0.033819731 0.0062165852 4278190080
0.02214223 0.03311836 0.0049176211 4278190080
0.02263033 0.032557782 0.003968894 4278190080
0.02343142 0.034298301 0.0041977759 4278190080
0.022164101 0.03184098 0.0036175251 4278190080
0.023605941 0.03264099 0.002813458 4278190080
0.01939404 0.04723829 0.0080305934 4278190080
0.02365881 0.0354979 0.0042725201 4278190080
0.02175712 0.03580552 0.0058869119 4278190080
0.02064394 0.03080344 0.00099382398 4278190080
0.0215494 0.031364791 0.00095651002 4278190080
0.02470123 0.033798572 0.0028300281 4278190080
0.022907609 0.03190577 0.001644492 4278190080
0.02535498 0.032984432 0.00100255 4278190080
0.02827692 0.03666877 0.00099636498 4278190080
0.027757401 0.03533804 0.00098715595 4278190080
0.02723366 0.034523722 0.00099191896 4278190080
0.026504571 0.033758812 0.00096469 4278190080
0.0177505 -0.069601953 0.01277863 4278190080
0.018251469 -0.08987236 0.02800357 4278190080
0.022743041 0.03951668 0.005180716 4278190080
0.01771903 -0.068690293 0.01183742 4278190080
0.020942921 0.062748313 0.0062556262 4278190080
0.017721171 -0.067115597 0.0109198 4278190080
0.027987121 0.049337622 0.00099994498 4278190080
0.024252171 0.037457939 0.004032135 4278190080
0.02861595 0.039374288 0.00099796697 4278190080
0.01806557 0.02880376 0.0094044199 4278190080
0.018195501 0.026323309 0.0057578082 4278190080
0.0177403 0.066021442 0.0107541 4278190080
0.02334398 0.032198008 0.00217694 4278190080
0.019691819 0.03009063 -0.0043882132 4278190080
0.018732481 0.02900457 -0.0045733452 4278190080
0.02835083 0.03714478 -0.0045187469 4278190080
0.0281111 0.036237471 -0.0046505332 4278190080
0.027656849 0.03518486 -0.0044902558 4278190080
0.02856642 0.038695391 -0.004543066 4278190080
0.0272063 0.034489691 -0.0041939612 4278190080
0.020627851 0.030868581 -0.0047049518 4278190080
0.01790994 0.027674491 -0.0051267738 4278190080
0.01759243 0.02672994 -0.0049782991 4278190080
0.02165019 0.031457961 -0.0048092599 4278190080
0.02680569 0.03409284 -0.0047323699 4278190080
0.02594316 0.033346709 -0.004358232 4278190080
0.02460747 0.032603972 -0.0043521519 4278190080
0.028577561 0.040716112 -0.004353344 4278190080
0.0144928 0.095496349 0.062150951 4278190080
0.01275247 0.097296469 0.060803831 4278190080
0.02159857 0.093476713 0.031785719 4278190080
0.02186501 0.094934881 0.02326601 4278190080
0.022991531 0.092815042 0.01331341 4278190080
0.02403748 0.088176899 0.009839057 4278190080
0.02365827 0.091042452 0.0074816942 4278190080
0.024327811 0.088362992 0.003360271 4278190080
0.02511799 0.083484352 -0.0018742681 4278190080
0.01745975 0.085539162 0.062867641 4278190080
0.0180087 0.089214742 0.060771879 4278190080
0.01735335 0.08836823 0.063308589 4278190080
0.017085791 0.09049236 0.063363433 4278190080
0.01024436 0.094073892 0.064981401 4278190080
0.01709741 0.091873579 0.062488969 4278190080
0.01769191 0.091606081 0.06114113 4278190080
0.01640081 0.091970623 0.06381958 4278190080
0.01646602 0.093678527 0.062129851 4278190080
0.015662249 0.094351761 0.062461849 4278190080
0.01541656 0.092665248 0.064433992 4278190080
0.01465344 0.093377881 0.064409852 4278190080
0.0113784 0.095660381 0.063178241 4278190080
0.01349532 0.094779126 0.063549161 4278190080
0.01369553 0.093640439 0.064674973 4278190080
0.01836138 0.091540329 0.058783881 4278190080
0.0065381522 0.097992472 0.061235119 4278190080
0.01541125 0.096880309 0.05954456 4278190080
0.016618541 0.095943742 0.05920177 4278190080
0.01793837 0.093876183 0.05856812 4278190080
0.0095259538 0.098138392 0.0606215 4278190080
0.006978929 0.099900842 0.05869418 4278190080
0.01084989 0.099797361 0.05807662 4278190080
0.01894474 0.092937998 0.05522114 4278190080
0.02635508 0.072186232 -0.0047196741 4278190080
0.018692371 0.094976239 0.05487537 4278190080
0.01435667 0.099646918 0.056618389 4278190080
0.026006401 0.076111667 -0.0042281151 4278190080
0.01589971 0.099232428 0.055823501 4278190080
0.025504639 0.080576651 -0.003193676 4278190080
0.012959 0.099758923 0.057283159 4278190080
0.01727145 0.09405899 0.060188051 4278190080
0.01696348 0.098516881 0.055282529 4278190080
0.017356871 0.081289582 0.062740617 4278190080
0.01815778 0.096483342 0.055077311 4278190080
0.018653089 0.09752655 0.05203855 4278190080
0.019437009 0.0960164 0.04995155 4278190080
0.017618829 0.09818732 0.054395068 4278190080
0.01806944 0.09834259 0.052855961 4278190080
0.020043129 0.094887793 0.046915229 4278190080
0.01919049 0.097518019 0.048998471 4278190080
0.01966089 0.097190432 0.045895152 4278190080
0.021072799 0.096059673 0.03105217 4278190080
0.02063584 0.091851108 0.002674818 4278190080
0.02035927 0.093122832 0.005159318 4278190080
0.01972121 0.09506952 0.01071655 4278190080
0.02259999 0.075310402 -0.0078552961 4278190080
0.021881459 0.081979208 -0.0061743851 4278190080
0.022226751 0.078861646 -0.0072168112 4278190080
0.021441691 0.084418774 -0.004971683 4278190080
0.02094697 0.088134401 -0.00215888 4278190080
0.02092295 0.090644591 0.00080682198 4278190080
0.02163052 0.086560898 -0.003486454 4278190080
0.021093899 0.089370012 -0.00083138997 4278190080
0.020193091 0.09406846 0.00757271 4278190080
0.0168839 0.099534571 0.039719932 4278190080
0.01337915 0.1003247 0.055243429 4278190080
0.01772028 0.098801613 0.032674611 4278190080
0.016125079 0.1000757 0.047751661 4278190080
0.018486019 0.097798459 0.02521109 4278190080
0.0082628131 0.1004368 0.056798209 4278190080
0.01918029 0.096576028 0.018020149 4278190080
0.01730364 0.0433129 0.062943451 4278190080
0.01391977 -0.093389153 0.0045768018 4278190080
0.0040003061 -0.094079427 0.0058867931 4278190080
0.01383769 -0.087583661 -0.0041673179 4278190080
0.0040003061 -0.087946348 -0.0041307211 4278190080
0.0040003061 -0.086448781 -0.0052562952 4278190080
0.013628 -0.07976871 -0.0076454282 4278190080
0.0040003061 -0.081137061 -0.0075299139 4278190080
0.0140286 -0.09442085 0.0077658291 4278190080
0.0040003061 -0.09553843 0.01137673 4278190080
0.01352363 -0.088858478 -0.003047168 4278190080
0.0040003061 -0.089372031 -0.0027732251 4278190080
0.0040003061 -0.084145777 -0.0065062041 4278190080
0.0138278 -0.08998435 -0.001728296 4278190080
0.01375025 -0.08395832 -0.0063545699 4278190080
0.0040003061 -0.090897851 -0.00084768003 4278190080
0.01397037 -0.076458812 -0.0080563417 4278190080
0.0040003061 -0.077347331 -0.0081877699 4278190080
0.01374655 -0.0912975 0.000117136 4278190080
0.01360583 -0.0857535 -0.005475759 4278190080
0.0040002461 -0.092544131 0.0019860859 4278190080
0.01359117 -0.092562191 0.002498209 4278190080
0.0039604302 -0.100551 -0.01259547 4278190080
0.003996491 -0.098624162 -0.01355731 4278190080
0.0039891 -0.1019378 -0.0086111417 4278190080
0.0039958949 -0.1018359 0.0076220632 4278190080
0.0039659138 -0.1006268 0.0115987 4278190080
0.01730519 0.02691859 0.007834672 4278190080
0.01730448 0.026918231 -0.0060334802 4278190080
0.016931949 0.027177449 -0.0066936612 4278190080
0.016581651 0.02736848 0.0080974689 4278190080
0.01613301 0.027635571 0.0084429383 4278190080
0.01571041 0.027878219 0.0089034429 4278190080
0.01406306 0.02874881 -0.0067534442 4278190080
0.01097625 0.030076681 -0.0068064332 4278190080
0.007792294 0.031041561 -0.0068691368 4278190080
0.0020958181 0.03194195 -0.006974041 4278190080
0.01737529 0.01386004 0.0078270426 4278190080
0.01509308 -0.028221359 -0.006732821 4278190080
0.01620465 -0.027594199 0.00831604 4278190080
0.001919448 -0.031955179 -0.0069798231 4278190080
0.016536711 -0.027396079 -0.0067088599 4278190080
0.016895769 -0.02717638 -0.0061724181 4278190080
0.017207321 -0.026981531 0.0078586331 4278190080
0.0049530859 -0.031625681 -0.0069212909 4278190080
0.0081104627 -0.03097021 -0.0068622231 4278190080
0.01068258 -0.03016918 -0.0068160892 4278190080
0.01284831 -0.029319821 -0.0067788358 4278190080
0.01550889 -0.02798962 0.0091786981 4278190080
0.0195418 0.031970792 -0.0073391791 4278190080
0.019655161 0.032980319 -0.0077918172 4278190080
0.01963526 0.03018623 -0.00521028 4278190080
0.0186029 0.029081279 -0.0053731198 4278190080
0.018862721 0.03069287 -0.0068842168 4278190080
0.019728949 0.030734301 -0.0060378308 4278190080
0.017682729 0.031544019 -0.0079091191 4278190080
0.01804322 0.03064543 -0.0073931809 4278190080
0.018412169 0.02931785 -0.0060989261 4278190080
0.01790899 0.02950787 -0.006853282 4278190080
0.01765668 0.028028959 -0.0061046481 4278190080
0.0171945 0.02840209 -0.0069460268 4278190080
0.016378099 0.030211151 -0.0079988828 4278190080
0.028399279 0.039624572 -0.0054439902 4278190080
0.01686894 0.02971839 -0.0076811309 4278190080
0.01642018 0.028543411 -0.0076324339 4278190080
0.027597779 0.039592858 -0.0067669149 4278190080
0.02731513 0.03486478 -0.005115211 4278190080
0.027624071 0.035735421 -0.0056134458 4278190080
0.02631807 0.03377467 -0.0051238532 4278190080
0.028152941 0.037208792 -0.0054320688 4278190080
0.026633911 0.03436774 -0.0057265158 4278190080
0.02680438 0.03484261 -0.0061284299 4278190080
0.027047809 0.036009662 -0.0066480632 4278190080
0.027772481 0.03716588 -0.0062174201 4278190080
0.02656579 0.03985047 -0.0075835581 4278190080
0.025802961 0.033773482 -0.0059096809 4278190080
0.027467189 0.037857652 -0.006737709 4278190080
0.02500844 0.032948431 -0.0051950212 4278190080
0.025631839 0.038393911 -0.0079393378 4278190080
0.024584349 0.033102032 -0.0059792991 4278190080
0.02479165 0.033724058 -0.0066823359 4278190080
0.02696537 0.03734266 -0.0071516628 4278190080
0.02580666 0.034422088 -0.0066841841 4278190080
0.02642631 0.03659904 -0.0073848958 4278190080
0.0260964 0.037395891 -0.0076989532 4278190080
0.02625763 0.035409149 -0.007074296 4278190080
0.02549302 0.03620797 -0.0077634449 4278190080
0.025130861 0.034998711 -0.0074625611 4278190080
0.02400469 0.034201682 -0.0073884721 4278190080
0.02159279 0.031736132 -0.0057173371 4278190080
0.024113471 0.03537482 -0.0078918934 4278190080
0.02131634 0.031991601 -0.0063666701 4278190080
0.021190761 0.032720201 -0.0071777701 4278190080
0.020593461 0.031107901 -0.0055442448 4278190080
0.01531285 0.02976495 -0.0081968298 4278190080
0.02796757 0.04108822 -0.0061790938 4278190080
0.019982209 0.031573709 -0.0068024988 4278190080
0.02603971 0.072150461 -0.0057385559 4278190080
0.02549082 0.072416961 -0.0066080089 4278190080
0.02475482 0.072510064 -0.0073019862 4278190080
0.024052911 0.072390847 -0.0077227349 4278190080
0.023380389 0.072931878 -0.0079504251 4278190080
0.02586454 0.074948072 -0.0054162741 4278190080
0.02541518 0.075171173 -0.0061747432 4278190080
0.022480899 0.093684793 0.01141023 4278190080
0.02277725 0.093295567 0.01196503 4278190080
0.021887301 0.094222598 0.01111209 4278190080
0.022550881 0.09223526 0.0054624672 4278190080
0.02243566 0.091472678 0.0033939481 4278190080
0.023158429 0.090226233 0.002144217 4278190080
0.02133291 0.092354171 0.0039638872 4278190080
0.02109259 0.094874077 0.01171529 4278190080
0.02255219 0.090159468 0.0011228319 4278190080
0.02328389 0.088471353 -0.00041837301 4278190080
0.021764031 0.09108489 0.001904964 4278190080
0.02189761 0.090005212 0.00031657299 4278190080
0.023146451 0.087416761 -0.001852512 4278190080
0.02400445 0.086547308 -0.001642346 4278190080
0.02068847 0.094565511 0.0095916977 4278190080
0.02350747 0.085300922 -0.003496587 4278190080
0.023124689 0.09214586 0.0074135661 4278190080
0.020073051 0.095652223 0.01381278 4278190080
0.02433764 0.083994977 -0.003522217 4278190080
0.023694091 0.082991362 -0.0049324632 4278190080
0.024640501 0.08106517 -0.0050144792 4278190080
0.022168931 0.093443148 0.0084671974 4278190080
0.02371168 0.080999367 -0.0059377551 4278190080
0.024381449 0.078914881 -0.0062163472 4278190080
0.02505761 0.078650348 -0.0055670142 4278190080
0.024673279 0.076619796 -0.0066799521 4278190080
0.023513669 0.078148417 -0.0070578451 4278190080
0.021534439 0.093877487 0.008433938 4278190080
0.02493667 0.074862063 -0.0068104859 4278190080
0.0231387 0.091518871 0.0052158828 4278190080
0.021880031 0.092670381 0.0053402781 4278190080
0.02361482 0.089694381 0.0022859571 4278190080
0.02397215 0.089570098 0.00362432 4278190080
0.021092949 0.093494169 0.0065876842 4278190080
0.02259302 0.086668842 -0.003021419 4278190080
0.02415245 0.074952297 -0.0073766112 4278190080
0.02396637 0.088344388 0.00076751597 4278190080
0.024539171 0.086825192 0.00047876401 4278190080
0.022830719 0.084673643 -0.0044175978 4278190080
0.02242356 0.083264582 -0.005456984 4278190080
0.02288842 0.081020832 -0.0063342452 4278190080
0.0232464 0.076473951 -0.0075267549 4278190080
0.024535829 0.085791759 -0.001308858 4278190080
0.022300299 0.088907771 -0.00087685499 4278190080
0.02205628 0.085330002 -0.0042827721 4278190080
0.021595949 0.09499824 0.01486802 4278190080
0.021731131 0.087886862 -0.0022530551 4278190080
0.02498739 0.082169414 -0.00370419 4278190080
0.02554512 0.078201883 -0.0048445459 4278190080
0.019636629 0.097174518 0.0229175 4278190080
0.02058821 0.096961729 0.030280471 4278190080
0.020593939 0.096587062 0.02244108 4278190080
0.020015771 0.097548239 0.03028059 4278190080
0.019084809 0.09815973 0.030208459 4278190080
0.015705639 0.1001212 0.052936312 4278190080
0.019178741 0.098467641 0.037853532 4278190080
0.01839143 0.098899297 0.036207851 4278190080
0.020244589 0.09719789 0.036874771 4278190080
0.01081275 0.1002487 0.057112571 4278190080
0.0194801 0.098127417 0.040260069 4278190080
0.020792419 0.095736317 0.01629662 4278190080
0.01773518 0.099449448 0.042337231 4278190080
0.02166253 0.095344 0.02069306 4278190080
0.018176731 0.099231184 0.045375399 4278190080
0.018461941 0.098906867 0.047760122 4278190080
0.019201931 0.09804558 0.046703041 4278190080
0.017175909 0.099764518 0.04760015 4278190080
0.016417259 0.099586062 0.054068141 4278190080
0.01516723 0.099981241 0.054954398 4278190080
0.01384425 0.1000375 0.056092381 4278190080
0.017135199 0.099669032 0.05082076 4278190080
0.0051854248 0.1003054 0.058007289 4278190080
0.018636759 0.098289371 0.05021017 4278190080
0.017538421 0.099189751 0.052062511 4278190080
0.01696991 0.099099867 0.054241121 4278190080
0.01471227 0.088611722 0.065624893 4278190080
0.01505506 0.091585688 0.065207362 4278190080
0.01265275 0.093691878 0.064958572 4278190080
0.01405543 0.092492104 0.065297723 4278190080
0.01033169 0.093210928 0.06550502 4278190080
0.0128737 0.092402451 0.06558048 4278190080
0.016989641 0.081790321 0.063719511 4278190080
0.01638817 0.081937671 0.064516477 4278190080
0.015911341 0.081468932 0.064952187 4278190080
0.01505017 0.082672887 0.065458231 4278190080
0.016569849 0.090888441 0.064099841 4278190080
0.01692467 0.085777096 0.064044952 4278190080
0.01589435 0.090505302 0.064909451 4278190080
0.01566338 0.08772248 0.065232992 4278190080
0.01532536 0.089941621 0.06532716 4278190080
0.016399261 0.08798825 0.064692192 4278190080
0.0158714 0.091674857 0.064578891 4278190080
0.01466888 0.092702091 0.064909212 4278190080
0.01686424 0.08931946 0.064065389 4278190080
0.016310271 -0.033309691 0.06460201 4278190080
0.01458257 -0.034303062 0.06561368 4278190080
0.01538306 -0.02485287 0.065290451 4278190080
0.016962999 -0.01812714 0.0637573 4278190080
0.01731508 -0.0200001 0.062882483 4278190080
0.01458144 0.067123592 0.065624952 4278190080
0.01533079 0.061961591 0.065316431 4278190080
0.01585274 -0.03474557 0.06499207 4278190080
0.01714766 0.05355525 0.063367479 4278190080
0.01512825 -0.067014873 0.065415263 4278190080
0.01680219 0.04728096 0.06399744 4278190080
0.016184861 0.04449743 0.064716041 4278190080
0.016510241 -0.06627243 0.064373493 4278190080
0.01550287 0.04270136 0.065219641 4278190080
0.01685917 -0.075567 0.063907139 4278190080
0.01467519 0.04364603 0.065589659 4278190080
0.01586258 -0.068048112 0.064986341 4278190080
0.017162969 -0.080744557 0.063319683 4278190080
0.01465499 0.01112139 0.065605931 4278190080
0.01666086 0.02990281 0.064199202 4278190080
0.01710283 0.03484451 0.06346976 4278190080
0.01532387 -0.082066052 0.065334082 4278190080
0.016252691 -0.08013206 0.064653508 4278190080
0.016125441 -0.083674431 0.064805739 4278190080
0.01670312 -0.081514172 0.064150393 4278190080
0.01554948 0.01232856 0.065192103 4278190080
0.016297281 -0.0074370499 0.064604223 4278190080
0.0149551 -0.0037432311 0.065487564 4278190080
0.01578903 -0.0075400472 0.065041423 4278190080
0.0149492 -0.088676333 0.065503001 4278190080
0.016765591 -0.086592071 0.064175241 4278190080
0.017318301 -0.086124122 0.063212752 4278190080
0.015753319 -0.086838663 0.065123022 4278190080
0.016238211 -0.088886552 0.064662807 4278190080
0.01690804 -0.088839531 0.063820481 4278190080
0.01558005 -0.090157859 0.065067232 4278190080
0.01380324 -0.091668837 0.06558007 4278190080
0.01485037 -0.091385059 0.065277152 4278190080
0.0124315 -0.092839591 0.065447442 4278190080
0.01421791 -0.092370331 0.065218799 4278190080
0.015753379 -0.091480553 0.064603619 4278190080
0.01508086 -0.092269182 0.064803712 4278190080
0.0097142449 -0.092733622 0.065671742 4278190080
0.01642924 -0.090077929 0.064285688 4278190080
0.016649719 -0.073746912 -0.0065290332 4278190080
0.01600009 -0.028388441 -0.0073010921 4278190080
0.015783841 -0.073137812 -0.0074478979 4278190080
0.01490014 -0.029725431 -0.0079813004 4278190080
0.01493877 -0.07361114 -0.007924079 4278190080
0.01379168 -0.03052783 -0.0082506528 4278190080
0.01497548 -0.076931529 -0.0076652761 4278190080
0.01514303 -0.07947468 -0.0072185989 4278190080
0.016653771 -0.081966691 -0.004944026 4278190080
0.016706999 -0.078409791 -0.0058255191 4278190080
0.0160101 -0.080086172 -0.0064359899 4278190080
0.015765009 -0.076767921 -0.0071988702 4278190080
0.01636767 -0.076860838 -0.0065708752 4278190080
0.01495969 -0.094288759 0.0083956122 4278190080
0.0153858 -0.095308296 0.01359111 4278190080
0.01539635 -0.094352417 0.0096037379 4278190080
0.016319809 -0.094466142 0.01311218 4278190080
0.01672023 -0.092730403 0.008604466 4278190080
0.01593804 -0.09345191 0.0078216186 4278190080
0.01453095 -0.092412762 0.002682328 4278190080
0.01485455 -0.091506056 0.001196265 4278190080
0.01475661 -0.090512447 -0.00052610302 4278190080
0.01459527 -0.089039139 -0.0024813409 4278190080
0.01518654 -0.088002503 -0.0030795929 4278190080
0.01498961 -0.08713907 -0.0039846301 4278190080
0.01490265 -0.093226187 0.0050850511 4278190080
0.01453131 -0.085924082 -0.0050845742 4278190080
0.01532608 -0.085161202 -0.0050480962 4278190080
0.01569056 -0.092811219 0.0053166151 4278190080
0.01487469 -0.08400964 -0.005960464 4278190080
0.01583677 -0.08595138 -0.0040834541 4278190080
0.016320219 -0.085107923 -0.0040081139 4278190080
0.01391458 -0.082476132 -0.006904244 4278190080
0.01576668 -0.083193123 -0.005659699 4278190080
0.01606762 -0.091962807 0.0040866132 4278190080
0.01668792 -0.084759109 -0.0034462209 4278190080
0.01489174 -0.081631891 -0.006810009 4278190080
0.0142349 -0.079744332 -0.0075346231 4278190080
0.01662677 -0.091142528 0.0040357108 4278190080
0.0152474 -0.09226191 0.00320065 4278190080
0.01499563 -0.096385002 0.01807034 4278190080
0.01561892 -0.09069097 0.00072427402 4278190080
0.016136941 -0.090319633 0.00107342 4278190080
0.016269021 -0.082344227 -0.005387485 4278190080
0.01659858 -0.089286499 0.00068892702 4278190080
0.01554173 -0.08895123 -0.001738846 4278190080
0.01611471 -0.088586919 -0.0013380049 4278190080
0.01660913 -0.087130956 -0.001833379 4278190080
0.016027739 -0.087468438 -0.0026305909 4278190080
0.01656645 -0.095811903 0.02144742 4278190080
0.01698637 -0.0951581 0.02162808 4278190080
0.01538282 -0.097622633 0.02645736 4278190080
0.01590484 -0.096399479 0.021115599 4278190080
0.016864119 -0.097009711 0.031791981 4278190080
0.01471602 -0.097608559 0.02458173 4278190080
0.01616895 -0.097587638 0.03019654 4278190080
0.01472645 -0.098573081 0.031384882 4278190080
0.016744429 -0.098727517 0.05221796 4278190080
0.01639539 -0.098159127 0.036390658 4278190080
0.01451653 -0.1001753 0.05252099 4278190080
0.01529031 -0.09878087 0.035010692 4278190080
0.017038999 -0.097890727 0.04178822 4278190080
0.015621 -0.099238932 0.04171693 4278190080
0.01631283 -0.098986737 0.044607099 4278190080
0.01452738 -0.099703193 0.04198527 4278190080
0.01712846 -0.098320782 0.049192011 4278190080
0.015965991 -0.099465013 0.052870858 4278190080
0.0152778 -0.09991806 0.052546021 4278190080
0.01626133 -0.099031739 0.053928431 4278190080
0.01534664 -0.099571221 0.054940458 4278190080
0.015769299 -0.099620521 0.04860121 4278190080
0.01471275 -0.1000501 0.048822459 4278190080
0.016621759 -0.098953359 0.05023396 4278190080
0.01254308 -0.1000522 0.05682724 4278190080
0.01298117 -0.1002654 0.055751439 4278190080
0.0057789679 -0.1002416 0.05816143 4278190080
0.01448673 -0.1000347 0.054891821 4278190080
0.01394444 -0.099856071 0.056208491 4278190080
0.01525533 -0.070753269 0.017617879 4278190080
0.01736629 -0.071950912 0.0217306 4278190080
0.001533508 -0.099503987 0.01012212 4278190080
0.0010255571 -0.09884017 0.01056593 4278190080
0.000592975 -0.098634832 0.01050209 4278190080
0.001832902 -0.1003246 0.009448587 4278190080
0.0019745231 -0.099830322 0.01168042 4278190080
0.00051755202 -0.09765166 0.01208102 4278190080
0.001766562 -0.098789752 0.01216787 4278190080
0.001187205 -0.09792006 0.01224917 4278190080
0.0010358091 -0.1002627 0.0054010148 4278190080
0.001462638 -0.1005636 0.0060958262 4278190080
0.001776695 -0.1010034 0.0061771269 4278190080
0.0010200141 -0.1000542 0.0069434638 4278190080
0.00099903496 -0.096389711 0.01389873 4278190080
0.001452565 -0.09654808 0.01425457 4278190080
0.00052334397 -0.099381678 0.0087102046 4278190080
0.001776695 -0.09684705 0.0146051 4278190080
0.001020133 -0.099675231 0.0084772697 4278190080
0.001451373 -0.1000428 0.0084249368 4278190080
0.01603966 0.0067417622 0.0084728003 4278190080
0.01609271 0.018739279 0.0084204068 4278190080
0.0153107 0.02153575 0.0096739531 4278190080
0.01662915 0.01279479 0.0080603361 4278190080
0.01563102 0.0081664911 0.0089825392 4278190080
0.01684528 -0.0033836961 0.0079706311 4278190080
0.01614218 -0.0029941199 0.0083785048 4278190080
0.01545441 -0.01094591 0.009310483 4278190080
0.01633054 -0.01369261 0.008235692 4278190080
0.01579999 -0.01718688 0.0087431073 4278190080
0.016982431 -0.01318687 0.0079120994 4278190080
0.01626271 -0.02141422 0.0082939863 4278190080
0.01701664 -0.02209883 0.0078953505 4278190080
0.0051594372 0.03159219 -0.0069146152 4278190080
0.01742732 -0.069416881 0.01333642 4278190080
0.017436501 -0.068814993 0.01238256 4278190080
0.01738965 -0.06804949 0.01169764 4278190080
0.017442821 -0.066999733 0.01116895 4278190080
0.01744437 -0.065944962 0.01097697 4278190080
0.017464099 -0.070751898 0.017356271 4278190080
0.01738774 -0.071521871 0.024437301 4278190080
0.017454861 -0.071909301 0.02348417 4278190080
0.017341729 -0.071995787 0.02276599 4278190080
0.01740998 -0.068401873 0.02650886 4278190080
0.017391739 -0.069394402 0.02626132 4278190080
0.017471731 -0.070313029 0.025813751 4278190080
0.017433161 -0.070974343 0.02520775 4278190080
0.01745283 0.070205271 0.02588206 4278190080
0.017483771 0.069002211 0.02641522 4278190080
0.01747649 0.071959548 0.02169626 4278190080
0.017461181 0.072030477 0.02248591 4278190080
0.017486921 0.071987331 0.023114679 4278190080
0.01745164 0.071703009 0.024130641 4278190080
0.017457001 0.071026079 0.0251646 4278190080
0.017491691 0.069331698 0.01310926 4278190080
0.01749461 0.070797317 0.017473631 4278190080
0.01754784 0.065986268 0.01096141 4278190080
0.01751565 0.066719942 0.01108694 4278190080
0.01752322 0.06751316 0.01136583 4278190080
0.01744717 0.068458609 0.01201063 4278190080
0.01753789 0.041108541 0.01096284 4278190080
0.017442999 0.023102701 0.01097673 4278190080
0.017603271 -0.056092851 0.026619131 4278190080
0.0175144 0.068079233 0.026553391 4278190080
0.01762413 -0.069512963 0.026383691 4278190080
0.01767903 0.070839159 0.02565068 4278190080
0.017598391 -0.071533673 0.024700399 4278190080
0.01756387 -0.072105996 0.02209818 4278190080
0.017673369 -0.069612019 0.01328706 4278190080
0.01762712 -0.067963712 0.01147615 4278190080
0.0176115 -0.01517248 0.01086509 4278190080
0.0032148359 -0.098159067 -0.01448351 4278190080
0.0036172271 -0.098799281 -0.01423656 4278190080
0.0039003489 -0.098700456 -0.01389956 4278190080
0.003238976 -0.1014407 -0.01234865 4278190080
0.003275692 -0.1001176 -0.01381379 4278190080
0.0038821099 -0.099894457 -0.013381 4278190080
0.003621459 -0.1009687 -0.01281023 4278190080
0.0031430719 -0.1009114 -0.01315134 4278190080
0.0036364789 -0.09998744 -0.01367527 4278190080
0.0031437869 -0.09918689 -0.01429826 4278190080
0.003884196 -0.1014927 -0.01094985 4278190080
0.0033069251 -0.1025606 -0.0091383448 4278190080
0.00320065 -0.1029571 -0.0067315102 4278190080
0.0039337869 -0.1023779 -0.0063988562 4278190080
0.0035974381 -0.1027849 -0.006709754 4278190080
0.0037973521 -0.1022346 -0.0090190172 4278190080
0.0031268001 -0.1019954 -0.01107579 4278190080
0.0035407541 -0.1019176 -0.01090216 4278190080
0.0031611321 -0.1029484 0.0058529372 4278190080
0.003511488 -0.1028565 0.005402863 4278190080
0.0032091141 -0.1015919 0.01104986 4278190080
0.0035894511 -0.1011623 0.01161509 4278190080
0.0031326411 -0.1007271 0.01272881 4278190080
0.0038846729 -0.09967941 0.01338398 4278190080
0.0032915471 -0.097727887 0.016348241 4278190080
0.003581166 -0.099971712 0.0135954 4278190080
0.0031328199 -0.1022199 0.0094310036 4278190080
0.003539979 -0.1021322 0.0092831254 4278190080
0.0037670729 -0.098154239 0.01552397 4278190080
0.0038849709 -0.1018062 0.0090465536 4278190080
0.0031332369 -0.1026273 0.0079271793 4278190080
0.003252506 -0.099308372 0.01473021 4278190080
0.0036028619 -0.1026018 0.007202208 4278190080
0.0039601922 -0.098091237 0.01507306 4278190080
0.003898561 -0.1024042 0.006148159 4278190080
0.001409173 -0.096978299 -0.01446241 4278190080
0.0022827981 -0.09864825 -0.01443433 4278190080
0.0022134781 -0.097242467 0.016747409 4278190080
0.0022502539 -0.099010758 0.01505315 4278190080
0.0022253389 -0.1008701 0.01246374 4278190080
0.0022606249 -0.1020631 0.0098563433 4278190080
0.002211153 -0.1025637 0.0080525866 4278190080
0.002240896 -0.1028411 0.0065188999 4278190080
0.002202332 -0.1029523 0.0049464102 4278190080
0.0022481079 -0.1029615 -0.0060881372 4278190080
0.0023124809 -0.1028251 -0.0078325858 4278190080
0.0022946 -0.1022176 -0.01045769 4278190080
0.0022315381 -0.1012285 -0.01269668 4278190080
0.0022500751 -0.100399 -0.01360625 4278190080
0.002197444 -0.099621713 -0.01407009 4278190080
0.002043545 -0.1027451 -0.0069766641 4278190080
0.002110064 -0.1025344 -0.008810997 4278190080
0.0020248289 -0.101992 -0.01044631 4278190080
0.002162456 -0.096635222 0.01718097 4278190080
0.0019961591 -0.096316993 0.01582747 4278190080
0.0019910929 -0.096371412 0.01606673 4278190080
0.001991689 -0.0964697 0.01649612 4278190080
0.002002358 -0.096550882 0.01684886 4278190080
0.0021274081 -0.096619837 0.01712179 4278190080
0.00062678102 -0.095857017 0.0141291 4278190080
0.00098061503 -0.095910482 0.01428204 4278190080
0.0014394521 -0.096021771 0.01466393 4278190080
0.0011330839 -0.095945172 0.01439899 4278190080
0.001774132 -0.096148007 0.01513957 4278190080
0.001859962 -0.096218161 0.01542663 4278190080
0.001551747 -0.096060693 0.01480835 4278190080
-0.01275008 -0.03599995 0.00575 4278190080
-0.01275008 -0.034999721 0.0067499871 4278190080
-0.01275008 -0.034999721 -0.0057820082 4278190080
-0.01275008 -0.03599995 -0.0057820082 4278190080
-0.01525527 -0.068462722 0.02643764 4278190080
-0.01525521 -0.069627218 0.02613562 4278190080
-0.01525551 0.068455927 0.02644127 4278190080
-0.01525419 0.069384992 0.01338958 4278190080
-0.01525408 0.070933811 0.0182076 4278190080
-0.01525521 0.071961582 0.022136269 4278190080
-0.01525527 0.071891718 0.02323365 4278190080
-0.01525527 0.07155174 0.024291029 4278190080
-0.01525533 0.070876531 0.02522397 4278190080
-0.01525533 0.070159607 0.02582722 4278190080
-0.01525515 -0.070789151 0.025323451 4278190080
-0.01525509 -0.071589522 0.024234051 4278190080
-0.01525533 0.069318533 0.026234981 4278190080
-0.001991987 -0.031955712 -0.0059698219 4278190080
-0.0049660201 -0.03161674 -0.0059178472 4278190080
0.00129956 -0.032022651 -0.0060272808 4278190080
-0.01149225 -0.0298767 -0.0058040018 4278190080
-0.0080715409 -0.030986421 -0.0058637261 4278190080
0.00129956 -0.032022651 -0.0069364901 4278190080
0 -0.031999171 -0.007007956 4278190080
0 -0.097191326 0.01258903 4278190080
0 -0.099008441 -0.01053547 4278190080
0 -0.098548107 0.01050466 4278190080
0 -0.097590677 -0.01308089 4278190080
0 -0.099604122 0.0077631469 4278190080
0 -0.096428752 -0.01442515 4278190080
0 -0.099983327 0.0053584571 4278190080
0 -0.044999711 -0.008499979 4278190080
0 -0.044999711 -0.01444751 4278190080
0 -0.03349435 -0.008499979 4278190080
0 -0.096016102 0.01387166 4278190080
0 -0.099962473 -0.0067062969 4278190080
0 -0.099629521 -0.0085559478 4278190080
-0.0039530988 -0.04506886 -0.01389724 4278190080
-0.003290772 -0.04505723 -0.01448982 4278190080
-0.0040003061 -0.04506981 -0.0084301233 4278190080
-0.00051726197 -0.099912763 -0.0075216289 4278190080
-0.001460254 -0.098677509 -0.01254737 4278190080
-0.00107187 -0.098921001 -0.0114395 4278190080
0 -0.098746412 -0.01122105 4278190080
-0.001556456 -0.099937372 -0.01020169 4278190080
-0.001873791 -0.098215751 -0.01431518 4278190080
-0.001491308 -0.100473 -0.0077385898 4278190080
-0.00099376903 -0.1000581 -0.0078341356 4278190080
-0.0020120139 -0.1001339 -0.01349753 4278190080
-0.0019633169 -0.1006669 -0.0108065 4278190080
-0.001826882 -0.1007585 -0.0090408921 4278190080
-0.001973927 -0.098880231 -0.01406329 4278190080
-0.001145005 -0.09978842 -0.0093435636 4278190080
-0.00097946497 -0.097748332 -0.01326966 4278190080
-0.000500708 -0.099522173 -0.0092309713 4278190080
0 -0.097532272 -0.01321661 4278190080
-0.0014661551 -0.097375982 -0.01431459 4278190080
-0.001979172 -0.1015655 -0.0073318481 4278190080
-0.001722872 -0.1009498 -0.0063366289 4278190080
-0.001148343 -0.1003187 -0.0063596959 4278190080
-0.001866698 -0.099774711 -0.01184284 4278190080
0 -0.1000351 -0.0059763188 4278190080
-0.00066297199 -0.096551888 -0.01442646 4278190080
-0.001978993 -0.101453 0.0073022242 4278190080
-0.0020155311 -0.1015341 0.01072841 4278190080
-0.002020776 -0.1026339 0.0065478678 4278190080
-0.0019773841 -0.097359292 0.01488965 4278190080
-0.0020183921 -0.098941378 0.01482957 4278190080
-0.0020501609 -0.1009005 -0.01287823 4278190080
-0.001512587 -0.096920311 0.018868141 4278190080
0 -0.097207837 0.01963317 4278190080
-0.001895666 -0.09708678 0.019068239 4278190080
-0.003141701 -0.096725583 0.01721382 4278190080
-0.002631664 -0.096683621 0.017245051 4278190080
0 -0.095456481 0.064117901 4278190080
0 -0.097468667 0.062167998 4278190080
0 -0.098608188 0.06087726 4278190080
0 -0.093557768 0.065580539 4278190080
0 -0.1002315 0.05855453 4278190080
0 -0.092275731 0.065976381 4278190080
0 -0.1005687 0.057360578 4278190080
0 -0.1005471 0.05282706 4278190080
0 -0.1001303 0.043433011 4278190080
0 -0.09935426 0.034589581 4278190080
0 -0.066999972 0.065999977 4278190080
0 -0.09843009 0.02715712 4278190080
-0.01525461 -0.06638556 0.01107048 4278190080
-0.01531684 -0.028097089 0.0087424507 4278190080
-0.01527011 -0.02812165 0.01008749 4278190080
-0.01541322 -0.034953471 0.00679636 4278190080
-0.01529753 0.00029108801 0.0098643303 4278190080
-0.01538336 0.02805906 0.0096637011 4278190080
-0.01598632 0.02772003 0.009319663 4278190080
-0.01574355 -0.02785933 0.001120865 4278190080
-0.01574355 -0.034947749 0.001120865 4278190080
-0.01525497 0.066306531 0.01106137 4278190080
-0.01525533 -0.071972899 0.022689341 4278190080
-0.01525533 -0.071855903 0.02158552 4278190080
-0.01525431 0.067548387 0.01146334 4278190080
-0.01525491 0.06862276 0.01224523 4278190080
-0.01525545 -0.069306552 0.013206 4278190080
-0.01525849 0.0308212 0.01073813 4278190080
-0.01525515 -0.068471842 0.01210939 4278190080
-0.01525521 -0.067586832 0.01148784 4278190080
-0.01478117 -0.028382059 -0.004833817 4278190080
-0.01479393 -0.034964319 -0.0047830339 4278190080
-0.0154075 0.0280478 0.0023682709 4278190080
-0.01434761 -0.034972072 -0.005438685 4278190080
-0.01440834 -0.028572669 -0.0053607821 4278190080
-0.01381129 -0.02886861 -0.0057287812 4278190080
-0.01364868 -0.034984291 -0.0057538152 4278190080
-0.01395577 0.090930812 0.065720372 4278190080
-0.01413846 -0.087285988 0.065736771 4278190080
-0.01145249 -0.065812878 0.065800183 4278190080
-0.01405632 0.081620269 0.065739267 4278190080
-0.0113241 0.092129759 0.06576734 4278190080
-0.01083076 -0.06659364 0.065810911 4278190080
-0.01023006 -0.066813819 0.065821402 4278190080
-0.01223301 -0.091784708 0.065764003 4278190080
0 0.066999972 0.065999977 4278190080
0 0.092242949 0.065980069 4278190080
-0.01055824 0.066743851 0.065815799 4278190080
-0.01128304 0.066133432 0.065803051 4278190080
-0.0140239 -0.090523183 0.065703802 4278190080
-0.01149034 0.065540791 0.065799408 4278190080
0 0.081907392 -0.0066333408 4278190080
0 0.091975741 0.002167284 4278190080
0 0.084252529 -0.0054935808 4278190080
0 0.08619076 -0.0042605991 4278190080
0 0.0934062 0.065651529 4278190080
0 0.090031981 -0.00062670698 4278190080
0 0.088146202 -0.002672195 4278190080
0 0.095346682 0.0642085 4278190080
0 0.096919172 0.062756531 4278190080
0 0.098779432 0.060640331 4278190080
0 0.1001479 0.058709621 4278190080
0 0.03351694 -0.0085000386 4278190080
0 0.03199923 -0.0070083141 4278190080
0 0.1005699 0.05746334 4278190080
0 0.1005215 0.052190721 4278190080
0 0.1001657 0.044056948 4278190080
0 0.099124007 0.03232187 4278190080
0 0.097537689 0.021421731 4278190080
0 0.07273262 -0.008476912 4278190080
0 0.095930927 0.01289165 4278190080
0 0.07633733 -0.0081288815 4278190080
0 0.095057361 0.0094260573 4278190080
0 0.094220102 0.006911933 4278190080
0 0.079245031 -0.007503211 4278190080
0 0.09313482 0.0043464298 4278190080
0.00129956 0.032022651 -0.0069364901 4278190080
-0.0021834371 -0.033435881 -0.008461833 4278190080
-0.0058088298 -0.03301286 -0.0083986521 4278190080
-0.01049309 -0.03185337 -0.0083180657 4278190080
-0.01400738 -0.073636532 -0.0082021952 4278190080
-0.0040003061 -0.072998881 -0.0084189773 4278190080
-0.019526299 0.034135278 -0.0081307879 4278190080
-0.02478319 0.036928952 -0.0080590239 4278190080
-0.02265363 0.072294772 -0.008082211 4278190080
-0.004749238 0.033184338 -0.008417069 4278190080
-0.0082162023 0.032481719 -0.0083564511 4278190080
-0.01192337 0.031362951 -0.0082989326 4278190080
-0.01711064 0.032555752 -0.0081844321 4278190080
-0.01410186 -0.099209718 0.03568029 4278190080
-0.01402086 -0.1002057 0.049659129 4278190080
-0.01409626 -0.097316436 0.021689771 4278190080
-0.01405912 -0.095974438 0.01439887 4278190080
-0.0092320442 -0.1003876 0.057018992 4278190080
-0.01348567 -0.100314 0.054619368 4278190080
-0.01386356 -0.098292641 0.02796608 4278190080
-0.0036820171 -0.096661977 0.01693809 4278190080
-0.0039917231 -0.096543372 0.01634633 4278190080
-0.01604408 -0.097264521 0.057659861 4278190080
-0.01604801 -0.098808758 0.055320852 4278190080
-0.0096915364 -0.096629024 0.06232154 4278190080
-0.01709461 -0.094929688 0.05831378 4278190080
-0.01550072 -0.095851831 0.060387839 4278190080
-0.01631009 -0.093853228 0.061698791 4278190080
-0.017318839 -0.096558981 0.055056211 4278190080
-0.01127833 -0.097824268 0.060564209 4278190080
-0.01694846 -0.090354256 0.063388042 4278190080
-0.01672852 -0.098372571 0.05418431 4278190080
-0.017123809 -0.09166079 0.061936852 4278190080
-0.016847551 -0.096523702 0.05687052 4278190080
-0.01680636 -0.092959397 0.06160837 4278190080
-0.0098955026 -0.099862993 0.05823487 4278190080
-0.01766943 -0.093681447 0.057543151 4278190080
-0.01738828 -0.097580373 0.05228775 4278190080
-0.01750987 -0.090830259 0.06109374 4278190080
-0.017989689 -0.095321231 0.050202839 4278190080
-0.017501291 -0.097527683 0.04964751 4278190080
-0.017516909 -0.09707927 0.044040561 4278190080
-0.01825076 -0.092994571 0.04874593 4278190080
-0.0173105 -0.09594506 0.03055042 4278190080
-0.01247197 -0.09562397 0.062785797 4278190080
-0.01788491 -0.093072534 0.03116083 4278190080
-0.01137804 -0.094066501 0.064800262 4278190080
-0.01717102 -0.093257777 0.01391702 4278190080
-0.01771134 -0.090482228 0.01480507 4278190080
-0.01298511 -0.0994578 0.057707012 4278190080
-0.017096341 -0.091757894 0.0082808128 4278190080
-0.017804259 -0.088057101 0.0097351074 4278190080
-0.01702117 -0.090128891 0.0040084119 4278190080
-0.0133897 -0.093555212 0.064799838 4278190080
-0.01824826 -0.084548593 0.0095483661 4278190080
-0.017785421 -0.088933401 0.060700171 4278190080
-0.017929429 -0.092119686 0.05757761 4278190080
-0.0169571 -0.088455491 0.000966452 4278190080
-0.0139051 -0.095719151 0.061995979 4278190080
-0.01731973 -0.08840882 0.0629692 4278190080
-0.01824975 -0.07915502 0.003960371 4278190080
-0.017911909 -0.094586127 0.05424767 4278190080
-0.01394724 -0.094952643 0.062924318 4278190080
-0.0182501 -0.084023707 0.058012839 4278190080
-0.01733583 -0.081409931 0.062831223 4278190080
-0.017566379 -0.080192983 -0.000451478 4278190080
-0.01697736 -0.082381658 -0.0039340849 4278190080
-0.01708048 -0.078175962 -0.0049883719 4278190080
-0.01824975 -0.073592901 0.0011819 4278190080
-0.01386237 -0.099411778 0.057152681 4278190080
-0.01692163 -0.08644747 -0.0014835 4278190080
-0.01480656 -0.093132727 0.064435244 4278190080
-0.0146678 -0.095505953 0.06171298 4278190080
-0.0171507 -0.073643982 -0.0055233832 4278190080
-0.01533156 -0.093990743 0.062949181 4278190080
-0.0182414 -0.091887049 0.054477211 4278190080
-0.01495373 -0.099320762 0.056274772 4278190080
-0.0050289631 -0.099808209 0.05901831 4278190080
-0.003704071 -0.096908741 0.062616162 4278190080
-0.018247901 -0.089635901 0.056623992 4278190080
-0.0074162479 -0.098601341 0.06036168 4278190080
-0.01588678 -0.092282169 0.064063959 4278190080
-0.0087048998 -0.093862593 0.065172553 4278190080
-0.01645541 -0.091491692 0.063747101 4278190080
-0.017857431 0.076091699 0.025566511 4278190080
-0.020329351 0.08272057 0.022741791 4278190080
-0.019174989 0.086500458 0.037262078 4278190080
-0.018122969 0.079346411 0.02859729 4278190080
-0.02211022 0.090426743 0.03104621 4278190080
-0.018714961 0.085133307 0.037712749 4278190080
-0.01826 0.081060819 0.044067379 4278190080
-0.020720771 0.092402391 0.043289781 4278190080
-0.018873811 0.089460731 0.05670869 4278190080
-0.019328291 0.092269771 0.053307049 4278190080
-0.019912001 0.092877857 0.049196891 4278190080
-0.018365201 0.08324337 0.05208474 4278190080
-0.01827234 0.08228188 0.05795037 4278190080
-0.017784471 0.070985548 0.031289391 4278190080
-0.017729931 -0.068434827 0.0268085 4278190080
-0.01774889 -0.070077471 0.02642405 4278190080
-0.017731421 -0.071007013 0.02564436 4278190080
-0.017816121 -0.076294601 0.032927569 4278190080
-0.0177403 0.069590442 0.01304525 4278190080
-0.01792448 0.070427828 0.01237481 4278190080
-0.017717831 0.072220318 0.021495691 4278190080
-0.017741499 0.072335362 0.02313441 4278190080
-0.01771545 0.068577997 0.026776901 4278190080
-0.01857239 0.07278394 0.01231306 4278190080
-0.01771301 0.069903433 0.02634787 4278190080
-0.019236499 0.081045918 0.02463907 4278190080
-0.01854521 0.08113002 0.028665179 4278190080
-0.02123636 0.078946047 0.01174789 4278190080
-0.01770973 0.07186877 0.02436202 4278190080
-0.0177477 0.071348958 0.02541404 4278190080
-0.02421218 0.085712008 0.01263672 4278190080
-0.023343621 0.087911963 0.02022451 4278190080
-0.017739831 -0.071932189 0.024414361 4278190080
-0.020035321 0.076415829 0.01209843 4278190080
-0.01824945 -0.026286241 0.00099497195 4278190080
-0.017253039 -0.02695399 -0.005264997 4278190080
-0.02212774 0.076170623 0.0072641368 4278190080
-0.01789242 0.026934801 0.0095406771 4278190080
-0.02564173 0.078519337 0.0035521979 4278190080
-0.01841259 0.067219011 0.0091542602 4278190080
-0.017944811 0.068543069 0.01061469 4278190080
-0.017754611 0.06726753 0.01095432 4278190080
-0.01772058 0.068677358 0.01191878 4278190080
-0.025962111 0.076079302 0.002159178 4278190080
-0.021490511 0.077531748 0.0094960919 4278190080
-0.019664461 0.067465179 0.0074663162 4278190080
-0.025753429 0.056312501 0.0023726821 4278190080
-0.02272903 0.059580442 0.004726171 4278190080
-0.018384749 0.02730405 0.001024127 4278190080
-0.024900731 0.082930498 0.0076849461 4278190080
-0.01982951 0.06876266 0.007353723 4278190080
-0.018891269 0.02856278 0.002166986 4278190080
-0.024503641 0.084739558 0.01037549 4278190080
-0.019856811 0.070641689 0.0078511229 4278190080
-0.02527326 0.080880098 0.0054706931 4278190080
-0.01942962 0.072192132 0.0093570938 4278190080
-0.018700359 0.069022529 0.0090929857 4278190080
-0.020014221 0.02999681 0.003858387 4278190080
-0.02184522 0.07192295 0.0056122541 4278190080
-0.020764699 0.030732511 0.004001617 4278190080
-0.01844459 0.071024947 0.01078271 4278190080
-0.019713869 0.02990382 0.001285374 4278190080
-0.02142792 0.031576991 0.0044702291 4278190080
-0.01780122 -0.077763431 0.026048601 4278190080
-0.017740721 -0.072382331 0.022005429 4278190080
-0.02105152 0.073024452 0.0071216822 4278190080
-0.020897981 0.03079861 0.0026072259 4278190080
-0.02205663 0.069565348 0.0049663782 4278190080
-0.0218814 0.031470168 0.0030792949 4278190080
-0.017785311 -0.069356911 0.0095338216 4278190080
-0.026425 0.071500123 0.001014769 4278190080
-0.019674471 0.0744946 0.01077049 4278190080
-0.02619856 0.073974192 0.001366317 4278190080
-0.01791524 0.066471688 0.01015043 4278190080
-0.01771545 -0.065856151 0.01072973 4278190080
-0.0178557 -0.02655535 0.0077972412 4278190080
-0.017717 0.02181679 0.01073485 4278190080
-0.017864641 0.02380549 0.0077998042 4278190080
-0.018066941 0.02641183 0.0077993269 4278190080
-0.018466109 0.028205389 0.0075293179 4278190080
-0.018025151 0.03160429 0.0098563433 4278190080
-0.018609401 0.029842069 0.0082886806 4278190080
-0.017720809 -0.07217788 0.02350479 4278190080
-0.018720031 0.032560222 0.0087172976 4278190080
-0.01772058 0.0291875 0.01078933 4278190080
-0.01850378 0.0277273 0.0064157839 4278190080
-0.019220291 0.030218599 0.0071364641 4278190080
-0.01812714 0.035878301 0.0097534647 4278190080
-0.01935786 0.02996009 0.0066075921 4278190080
-0.019264629 0.02931791 0.0057232971 4278190080
-0.01839613 0.02704596 0.0045775771 4278190080
-0.01878613 0.02812594 0.0045266151 4278190080
-0.01953727 0.031483229 0.0072748661 4278190080
-0.0177192 -0.0709868 0.017210839 4278190080
-0.01865535 0.036638308 0.0089502931 4278190080
-0.019387539 0.02920562 0.0040874481 4278190080
-0.01966124 0.032655001 0.0074756742 4278190080
-0.02056092 0.03167861 0.0059170718 4278190080
-0.0203197 0.030666349 0.0052213068 4278190080
-0.019435581 0.034695201 0.0080257654 4278190080
-0.02037376 0.03577584 0.0071381922 4278190080
-0.020913661 0.03268069 0.0060496922 4278190080
-0.018236389 0.02629685 0.00094581197 4278190080
-0.01867288 0.059883051 0.0088361502 4278190080
-0.02108323 0.033819731 0.0062165852 4278190080
-0.02214223 0.03311836 0.0049176211 4278190080
-0.02263033 0.032557782 0.003968894 4278190080
-0.02343142 0.034298301 0.0041977759 4278190080
-0.022164101 0.03184098 0.0036175251 4278190080
-0.023605941 0.03264099 0.002813458 4278190080
-0.01939404 0.04723829 0.0080305934 4278190080
-0.02365881 0.0354979 0.0042725201 4278190080
-0.02175712 0.03580552 0.0058869119 4278190080
-0.02064394 0.03080344 0.00099382398 4278190080
-0.0215494 0.031364791 0.00095651002 4278190080
-0.02470123 0.033798572 0.0028300281 4278190080
-0.022907609 0.03190577 0.001644492 4278190080
-0.02535498 0.032984432 0.00100255 4278190080
-0.02827692 0.03666877 0.00099636498 4278190080
-0.027757401 0.03533804 0.00098715595 4278190080
-0.02723366 0.034523722 0.00099191896 4278190080
-0.026504571 0.033758812 0.00096469 4278190080
-0.0177505 -0.069601953 0.01277863 4278190080
-0.018251469 -0.08987236 0.02800357 4278190080
-0.022743041 0.03951668 0.005180716 4278190080
-0.01771903 -0.068690293 0.01183742 4278190080
-0.020942921 0.062748313 0.0062556262 4278190080
-0.017721171 -0.067115597 0.0109198 4278190080
-0.027987121 0.049337622 0.00099994498 4278190080
-0.024252171 0.037457939 0.004032135 4278190080
-0.02861595 0.039374288 0.00099796697 4278190080
-0.01806557 0.02880376 0.0094044199 4278190080
-0.018195501 0.026323309 0.0057578082 4278190080
-0.0177403 0.066021442 0.0107541 4278190080
-0.02334398 0.032198008 0.00217694 4278190080
-0.019691819 0.03009063 -0.0043882132 4278190080
-0.018732481 0.02900457 -0.0045733452 4278190080
-0.02835083 0.03714478 -0.0045187469 4278190080
-0.0281111 0.036237471 -0.0046505332 4278190080
-0.027656849 0.03518486 -0.0044902558 4278190080
-0.02856642 0.038695391 -0.004543066 4278190080
-0.0272063 0.034489691 -0.0041939612 4278190080
-0.020627851 0.030868581 -0.0047049518 4278190080
-0.01790994 0.027674491 -0.0051267738 4278190080
-0.01759243 0.02672994 -0.0049782991 4278190080
-0.02165019 0.031457961 -0.0048092599 4278190080
-0.02680569 0.03409284 -0.0047323699 4278190080
-0.02594316 0.033346709 -0.004358232 4278190080
-0.02460747 0.032603972 -0.0043521519 4278190080
-0.028577561 0.040716112 -0.004353344 4278190080
-0.0144928 0.095496349 0.062150951 4278190080
-0.01275247 0.097296469 0.060803831 4278190080
-0.02159857 0.093476713 0.031785719 4278190080
-0.02186501 0.094934881 0.02326601 4278190080
-0.022991531 0.092815042 0.01331341 4278190080
-0.02403748 0.088176899 0.009839057 4278190080
-0.02365827 0.091042452 0.0074816942 4278190080
-0.024327811 0.088362992 0.003360271 4278190080
-0.02511799 0.083484352 -0.0018742681 4278190080
-0.01745975 0.085539162 0.062867641 4278190080
-0.0180087 0.089214742 0.060771879 4278190080
-0.01735335 0.08836823 0.063308589 4278190080
-0.017085791 0.09049236 0.063363433 4278190080
-0.01024436 0.094073892 0.064981401 4278190080
-0.01709741 0.091873579 0.062488969 4278190080
-0.01769191 0.091606081 0.06114113 4278190080
-0.01640081 0.091970623 0.06381958 4278190080
-0.01646602 0.093678527 0.062129851 4278190080
-0.015662249 0.094351761 0.062461849 4278190080
-0.01541656 0.092665248 0.064433992 4278190080
-0.01465344 0.093377881 0.064409852 4278190080
-0.0113784 0.095660381 0.063178241 4278190080
-0.01349532 0.094779126 0.063549161 4278190080
-0.01369553 0.093640439 0.064674973 4278190080
-0.01836138 0.091540329 0.058783881 4278190080
-0.0065381522 0.097992472 0.061235119 4278190080
-0.01541125 0.096880309 0.05954456 4278190080
