# .PCD v0.7 - Point Cloud Data file format
VERSION 0.7
FIELDS x y z
SIZE 4 4 4
TYPE F F F
COUNT 1 1 1
WIDTH 1124
HEIGHT 1
VIEWPOINT 0 0 0 1 0 0 0
POINTS 1124
DATA ascii
0.085108072 -0.08065147 0.41971636
0.08375001 -0.077359065 0.41944116
0.07953757 -0.070416659 0.41999975
0.081167191 -0.072342739 0.41911918
0.079969257 -0.067115344 0.41941637
0.080284007 -0.068840414 0.41897202
0.073325634 -0.060314301 0.41951585
0.07612364 -0.063239448 0.41976237
0.013832911 -0.057877678 0.41963753
0.015087499 -0.056748714 0.41991532
0.052355044 -0.055726822 0.41995659
0.068812445 -0.056767888 0.41948843
0.070797466 -0.057643488 0.41911766
0.054171532 -0.054249123 0.41988659
0.05564883 -0.054060087 0.41992861
0.063679136 -0.05293278 0.41991651
0.066053435 -0.054222785 0.41949067
0.023104172 -0.14046927 0.42373651
0.027819337 -0.14091785 0.42426077
0.032714054 -0.14147727 0.42445311
0.037722345 -0.14101677 0.42390254
0.042638399 -0.14122938 0.42369145
0.045591936 -0.1412099 0.42451453
0.01201932 -0.13561249 0.42410067
0.01814246 -0.13872446 0.42452994
0.022899354 -0.13775286 0.42351466
0.027348591 -0.13757536 0.42363638
0.032229517 -0.13831662 0.42353117
0.036951315 -0.13875376 0.42438352
0.041788373 -0.139441 0.42468864
0.0039195553 -0.13053787 0.42327297
0.0073695411 -0.13181166 0.42441055
0.012531187 -0.13246135 0.42317596
0.017525362 -0.13174835 0.42214802
0.022108898 -0.13387179 0.42292148
0.026023177 -0.13439904 0.42473415
0.064715683 -0.13403119 0.4247005
0.067647234 -0.1319367 0.42419994
-0.00028936149 -0.12579885 0.42364299
0.0028876297 -0.12720241 0.42385444
0.0078900345 -0.12713343 0.42268246
0.012038304 -0.12725818 0.42097268
0.017259104 -0.12925081 0.42277461
0.028378829 -0.12627046 0.42486337
0.032637648 -0.12537666 0.42394486
0.069124453 -0.1291029 0.42425641
0.072367162 -0.12690151 0.42373016
-0.0010893869 -0.12344982 0.4241851
0.0012239178 -0.12434926 0.42436782
0.007546497 -0.12264854 0.42275828
0.010427483 -0.12323201 0.42067671
0.023959925 -0.12418631 0.42447871
0.07417497 -0.12295008 0.4242698
0.076075248 -0.12191157 0.42337334
-0.0061389017 -0.11590585 0.42444769
0.003426831 -0.11629776 0.42358622
0.0054900222 -0.11902936 0.42319572
0.074184261 -0.11733516 0.42486075
0.077692755 -0.11742629 0.42358178
0.080537319 -0.1160818 0.42115432
-0.010447592 -0.11209473 0.42490435
-0.0071612336 -0.11216129 0.42423144
-0.0020947293 -0.11128218 0.42400041
0.00085879583 -0.11218981 0.42216682
0.073393725 -0.11213586 0.42465964
0.079362877 -0.11307521 0.42413202
0.081632346 -0.11206026 0.42289197
-0.0072005335 -0.10800122 0.42413446
-0.002602 -0.10776536 0.42285699
0.00056452828 -0.10938168 0.42214435
0.078662001 -0.10828397 0.42487574
0.082119599 -0.10740759 0.4231829
0.085379362 -0.10647392 0.42071661
-0.0055930731 -0.10213583 0.42435232
-0.0038492815 -0.10276415 0.42219159
0.079299964 -0.10292925 0.42454225
0.0825001 -0.10257809 0.42336181
0.085952386 -0.10184455 0.42126462
-0.0065707699 -0.097674534 0.42430431
-0.0042298776 -0.097620681 0.42254052
0.078356892 -0.097116776 0.42336643
0.082692154 -0.097497508 0.42351544
0.086317234 -0.09732534 0.42261541
-0.010769013 -0.09176366 0.42491537
-0.0072567565 -0.093342759 0.42441541
-0.0041705314 -0.092470534 0.42291501
0.078748673 -0.092996731 0.42353839
0.081958763 -0.09248396 0.423462
0.086600162 -0.092409492 0.42327434
-0.010705013 -0.08823213 0.42457283
-0.008720234 -0.087932393 0.42462489
-0.0041540526 -0.08740738 0.42319089
0.078790851 -0.087599367 0.42356756
0.082607657 -0.087382197 0.42360443
0.086189859 -0.087633982 0.422474
-0.010391174 -0.082655288 0.42404065
-0.0089634247 -0.08074899 0.424667
-0.0038372315 -0.082821399 0.42303297
0.082830995 -0.082075477 0.42314968
0.085627526 -0.083260089 0.42108023
-0.010482023 -0.077885218 0.42357072
-0.0085771699 -0.077408202 0.42403311
-0.0020698917 -0.079346821 0.42475528
0.00032852471 -0.075199001 0.42401353
0.079249419 -0.076140575 0.42395777
0.081800885 -0.077990569 0.42178881
-0.0071454942 -0.073089756 0.42456666
0.0011294256 -0.07157813 0.42343715
0.078646392 -0.072597533 0.42243892
0.080831259 -0.073353276 0.4206256
0.0026733738 -0.06740991 0.42292228
0.074149728 -0.065867722 0.42427373
0.077403992 -0.067499079 0.42191333
0.0043388424 -0.063037336 0.42426771
0.007408841 -0.06179142 0.42328206
0.010701551 -0.060255338 0.42069227
0.059221312 -0.060930505 0.42175201
0.062954396 -0.061835133 0.42233095
0.066261791 -0.063369758 0.42288589
0.072764806 -0.062483355 0.42241594
0.075818993 -0.064009681 0.42134601
0.0083008967 -0.058032539 0.42396578
0.011859786 -0.057047781 0.42251465
0.016736526 -0.055581853 0.42073074
0.047716271 -0.055648722 0.42076454
0.053394586 -0.056743722 0.42050081
0.057277493 -0.057282463 0.42152292
0.06245929 -0.057725627 0.42202628
0.067620412 -0.057891984 0.42242616
0.071418673 -0.059515681 0.42067993
0.0091738813 -0.054458562 0.42409748
0.012899241 -0.05364484 0.42395452
0.017155321 -0.052541707 0.42209581
0.022038024 -0.051757962 0.42212039
0.02616906 -0.05079186 0.4237349
0.043585412 -0.052915711 0.42086971
0.047499843 -0.052413482 0.42082629
0.051711015 -0.053106599 0.42075709
0.058149192 -0.052092828 0.4230541
0.061596446 -0.052848544 0.42205733
0.065590203 -0.054844376 0.42044619
0.017645832 -0.049169082 0.42323819
0.022420876 -0.049305081 0.42260313
0.025932349 -0.049134072 0.42373624
0.044094734 -0.049535573 0.42102435
0.049168155 -0.049887817 0.42126659
0.054289889 -0.046131294 0.42458746
0.05719009 -0.047820807 0.42323431
0.02969043 -0.14160948 0.42541063
0.033391699 -0.14001824 0.4294107
0.036588266 -0.14066851 0.42957073
0.042413101 -0.14041604 0.42541188
0.047677256 -0.14114884 0.42602307
0.051864702 -0.14083102 0.42712277
0.013783175 -0.135873 0.4255811
0.017438948 -0.13643715 0.42597198
0.022551557 -0.13660568 0.4265185
0.027718363 -0.13746911 0.42697471
0.032406613 -0.1375099 0.42665252
0.037545137 -0.13657528 0.42684731
0.042661201 -0.13726035 0.42753825
0.047525465 -0.13752164 0.42810088
0.052329309 -0.13726452 0.42783034
0.05711611 -0.13690397 0.42788175
0.061140347 -0.1359468 0.42808014
0.0087565891 -0.13133138 0.42588225
0.012573898 -0.13218336 0.42704207
0.017432766 -0.13286279 0.42828283
0.022495288 -0.13293155 0.42843238
0.027488003 -0.13279703 0.42712176
0.032323275 -0.13288052 0.42683566
0.037312128 -0.13233706 0.42749819
0.04244208 -0.1327199 0.42836249
0.046854846 -0.13218413 0.42921498
0.053351738 -0.1340663 0.42900014
0.057839155 -0.13283515 0.42844561
0.062628761 -0.1323307 0.4278734
0.066315807 -0.131706 0.4270207
0.0040331441 -0.12670018 0.42584911
0.0075201965 -0.12772909 0.42700511
0.012150899 -0.1280009 0.42887923
0.017536407 -0.12766564 0.42891327
0.022373566 -0.127728 0.42733297
0.027300412 -0.12868881 0.42696619
0.032347918 -0.1283287 0.42575949
0.037802063 -0.1287351 0.42649582
0.042735513 -0.12846839 0.42748892
0.047576334 -0.12762618 0.42839676
0.052502003 -0.12625986 0.42914149
0.058629256 -0.1271923 0.42844835
0.063160926 -0.12774374 0.4285244
0.067503683 -0.1273835 0.4276908
0.07157848 -0.12684336 0.42659777
-0.0012077374 -0.12139899 0.42607448
0.0024504389 -0.12260661 0.42730945
0.0072087557 -0.12254994 0.42816266
0.011254977 -0.12274943 0.42934865
0.018840468 -0.1247831 0.42684132
0.022437206 -0.12455787 0.42545819
0.049500909 -0.12495327 0.42861661
0.052471012 -0.12457322 0.4287011
0.058274988 -0.12377506 0.42900681
0.062575869 -0.12291707 0.42852321
0.067468941 -0.12262021 0.42804632
0.072134875 -0.12243871 0.4268268
0.076110572 -0.12190594 0.42538637
-0.017955557 -0.11523854 0.42993206
-0.0060789227 -0.11587328 0.42676067
-0.002581449 -0.11756621 0.42725718
0.0025812034 -0.11752965 0.42849365
0.0070913094 -0.11914581 0.42870376
0.010721095 -0.11916065 0.42813802
0.068127528 -0.11835362 0.42663115
0.072731085 -0.1175708 0.42660835
0.076467469 -0.11728743 0.42585212
0.080267265 -0.11589995 0.42547244
-0.016801229 -0.11321176 0.42938206
-0.01246189 -0.11246918 0.42709836
-0.0072478382 -0.11265254 0.42745456
-0.002133037 -0.11274339 0.42699307
0.0014222057 -0.11363344 0.42693159
0.073240153 -0.1131909 0.42548046
0.07741864 -0.11249655 0.42646092
0.080135375 -0.11451413 0.42583442
-0.01611528 -0.10573502 0.42971742
-0.011674294 -0.10729884 0.42772815
-0.0075942697 -0.10684574 0.4282552
-0.003986802 -0.10815453 0.42689785
0.078395367 -0.1077437 0.42649242
0.08026173 -0.10754278 0.42515826
-0.021448346 -0.10229061 0.42987269
-0.016886659 -0.10249019 0.42958173
-0.012357242 -0.10249013 0.42800108
-0.0079867924 -0.10256905 0.42688835
0.078573212 -0.10295989 0.4275479
0.080784656 -0.10172337 0.4271903
-0.016951025 -0.098352946 0.42895985
-0.012518997 -0.097744718 0.42729917
-0.0077903164 -0.097645827 0.42693579
0.0790089 -0.097032987 0.42731798
0.082407214 -0.097665563 0.42730185
-0.011775459 -0.092797145 0.42717978
-0.0063909972 -0.092728175 0.42716098
-0.0047790869 -0.090663046 0.42516154
0.079335421 -0.092180088 0.42782125
0.083507396 -0.092380479 0.42764747
0.085114241 -0.093172349 0.42564493
-0.011781296 -0.087843917 0.42722431
-0.0067576016 -0.086879686 0.42720041
-0.0049819513 -0.089242272 0.42516267
0.078943141 -0.087575957 0.42783427
0.082781672 -0.087678514 0.42766079
-0.010986174 -0.082917988 0.42647275
-0.0074071065 -0.082516633 0.42704561
-0.0041755904 -0.08192613 0.42784196
0.078562021 -0.08210092 0.42844114
0.081381932 -0.083195448 0.42689425
-0.010730013 -0.079036623 0.42588407
-0.0072231032 -0.077340692 0.42703554
-0.0023695263 -0.07725694 0.42841089
8.0703496e-05 -0.075317778 0.42538092
0.074428111 -0.075794175 0.42951462
0.077926166 -0.077904463 0.4276416
-0.0067048841 -0.073045433 0.42723432
-0.0019866913 -0.072533049 0.42713356
0.00074532628 -0.071646124 0.42729846
0.072783411 -0.073334485 0.42942744
0.076613121 -0.072347954 0.4275851
-0.0060905144 -0.069192387 0.42615917
-0.0024148549 -0.067792647 0.42731753
0.0017193132 -0.067305498 0.42692748
0.0070913355 -0.066325776 0.42741522
0.068604447 -0.066352084 0.42882794
0.073940977 -0.066637583 0.42746899
0.076028995 -0.069091134 0.42676643
-0.00096535089 -0.062934145 0.42774779
0.0026707435 -0.063115858 0.42723
0.0066762879 -0.062552765 0.42657304
0.012216063 -0.061847527 0.42618644
0.015855154 -0.060191873 0.42694271
0.06719099 -0.062252384 0.42736119
0.071391821 -0.062902592 0.42720401
0.0027781937 -0.057837445 0.42841119
0.0075004539 -0.057503745 0.42780334
0.012532272 -0.057189904 0.4261193
0.016665297 -0.056821816 0.42564088
0.058673222 -0.056522541 0.42553762
0.062793382 -0.05694025 0.42710599
0.066086628 -0.058538664 0.42805988
0.0060397289 -0.053556919 0.42963338
0.013368919 -0.052801345 0.42708051
0.016696511 -0.054160763 0.42538211
0.02951145 -0.050059222 0.42548415
0.036428362 -0.05028804 0.42938608
0.054316744 -0.050125763 0.42912167
0.057932585 -0.052660521 0.42707872
0.061114706 -0.053876631 0.4281058
0.014876439 -0.049987365 0.4278006
0.015716724 -0.049253169 0.42670959
0.029368086 -0.049055256 0.42548496
0.032146968 -0.049114794 0.42607841
0.037689645 -0.048268322 0.42758501
0.042115096 -0.047438625 0.42806453
0.04726335 -0.046770141 0.42830905
0.052421935 -0.047697179 0.42753759
0.056045361 -0.049225695 0.4262946
0.034597129 -0.14005549 0.43048495
0.038583618 -0.14055511 0.43045852
0.041661471 -0.14016882 0.43075264
0.028306901 -0.13583064 0.43110743
0.032601383 -0.13698302 0.43217885
0.037396196 -0.13843554 0.43237624
0.042237204 -0.13731848 0.43251637
0.047108896 -0.13672981 0.43118688
0.050316796 -0.13623688 0.43049404
0.013737783 -0.13069022 0.4301241
0.017770082 -0.13131119 0.43214387
0.022235084 -0.13266651 0.43226206
0.027154459 -0.13369623 0.43276459
0.032225225 -0.13242887 0.4330228
0.037715845 -0.13380201 0.4323692
0.042744916 -0.13387947 0.43306515
0.048093054 -0.13327079 0.43221861
0.052205727 -0.13227819 0.43138558
0.056960572 -0.13125646 0.43065307
0.060703531 -0.13193545 0.43051207
0.0082229534 -0.12608643 0.43262509
0.012318797 -0.1281811 0.43243098
0.01565201 -0.12953155 0.43341279
0.026987849 -0.12845369 0.43252921
0.052999433 -0.12895806 0.43117979
0.057781439 -0.12784812 0.43129724
0.061980862 -0.12704568 0.43136647
0.065338448 -0.12545818 0.43187827
0.0030374059 -0.12165795 0.43232375
0.0059335278 -0.12305701 0.43265167
0.059496205 -0.12404601 0.43094859
0.063074917 -0.12409119 0.43058503
0.067666367 -0.12304369 0.43248519
0.070806846 -0.12111976 0.43111959
-0.031575251 -0.11609902 0.43431869
-0.028010275 -0.11560562 0.43357849
-0.023538098 -0.11529455 0.43239045
-0.019113619 -0.11552291 0.43091801
-0.0009120942 -0.11654586 0.43223935
0.0023012743 -0.11790396 0.43254471
0.0058904947 -0.11761647 0.43013564
0.069590569 -0.11997528 0.43459356
0.072300203 -0.11748771 0.43255892
-0.035634387 -0.11165954 0.43460438
-0.03203287 -0.11252676 0.4341169
-0.027277058 -0.11228245 0.43298286
-0.022557238 -0.11243416 0.4315035
-0.018059984 -0.11200971 0.43112713
-0.01250696 -0.11183593 0.4319503
-0.007060043 -0.11144408 0.43238029
-0.0025886709 -0.1125625 0.43236104
0.00023971379 -0.1147563 0.43129164
0.074328527 -0.11360065 0.43272689
0.075821295 -0.11185601 0.43165237
-0.035288725 -0.10900177 0.43464613
-0.03192791 -0.10770138 0.43443099
-0.027365522 -0.10761482 0.43341112
-0.022674117 -0.10747797 0.43175855
-0.018198822 -0.10778136 0.43116391
-0.013109826 -0.10771828 0.43050542
-0.0067878184 -0.10772336 0.43110704
-0.0039286478 -0.10821795 0.43342787
0.077713743 -0.10766992 0.4325096
-0.030327544 -0.10378033 0.43347079
-0.026607003 -0.10348599 0.43314108
-0.022342792 -0.10321532 0.43148908
-0.018263785 -0.10296597 0.43077967
-0.012825539 -0.10226941 0.4303247
-0.0079778442 -0.10280001 0.43269822
-0.0047991276 -0.10489605 0.43477747
0.078490905 -0.10335551 0.43274996
0.080363616 -0.10125722 0.43233985
-0.022107363 -0.09990117 0.43081343
-0.019107997 -0.099611118 0.43014279
-0.011678816 -0.098076463 0.43137124
-0.0087901512 -0.097005218 0.43280581
0.079593398 -0.096908189 0.43277678
0.081203431 -0.097462647 0.43251535
-0.010519922 -0.093914121 0.4311924
-0.0077382955 -0.092531539 0.43251905
0.079409078 -0.092432074 0.43301922
0.081694007 -0.092571996 0.43245888
-0.0070939274 -0.087506473 0.43227437
0.079452366 -0.087424837 0.43235648
0.080878362 -0.087564319 0.43222055
-0.0065744282 -0.082312241 0.43217087
-0.0036060782 -0.081830166 0.43224639
0.078797951 -0.08251363 0.43262944
0.08060798 -0.084203117 0.43013647
-0.0058123106 -0.077722825 0.43103454
-0.0024814948 -0.077738486 0.43245152
8.3961037e-05 -0.076084457 0.43136951
0.074750021 -0.075462863 0.43181682
0.076720238 -0.077381879 0.43261525
-0.0021130817 -0.07266894 0.43230572
0.073489346 -0.072815977 0.43279704
0.075755328 -0.073090024 0.4322646
-0.0011859306 -0.06836912 0.43212208
0.00057584513 -0.066650011 0.43282413
0.068464026 -0.066261217 0.43315458
0.072841205 -0.067942753 0.43242881
0.0027785099 -0.0628144 0.43223339
0.0061580264 -0.060775157 0.43325335
0.067749768 -0.061995521 0.43252337
0.071383223 -0.063398704 0.43235171
0.0041527003 -0.059356611 0.4310959
0.0076703164 -0.057434823 0.43245769
0.010654417 -0.056098241 0.43281797
0.063148998 -0.056837067 0.43231332
0.066171348 -0.058357749 0.43176588
0.0084918523 -0.052414905 0.43215725
0.012570658 -0.052338824 0.43274748
0.038349211 -0.050798029 0.43177333
0.047292918 -0.05004913 0.43307465
0.053612258 -0.05077615 0.43279839
0.057279691 -0.052992776 0.43238276
0.062517911 -0.052897681 0.43138695
0.065648027 -0.054177951 0.43230495
0.0086701941 -0.04876072 0.43333197
0.010412246 -0.048482936 0.43450692
0.015617534 -0.048924673 0.4308089
0.042624563 -0.049525779 0.43067557
0.047755472 -0.049321547 0.43175116
0.052295685 -0.049362734 0.43096083
0.03358395 -0.13537063 0.4365795
0.036888465 -0.13584332 0.43661535
0.041705165 -0.13551155 0.43589097
0.018836845 -0.13025589 0.43641964
0.02274975 -0.13114268 0.43703601
0.027687976 -0.13263229 0.43717238
0.032009214 -0.1336111 0.43735248
0.037643213 -0.13241602 0.43749443
0.042392515 -0.13223954 0.43741781
0.04710516 -0.13178448 0.43614325
0.050813571 -0.13014838 0.43575633
0.0075671417 -0.1254974 0.43668488
0.012602872 -0.12691182 0.43767595
0.017280146 -0.12905815 0.4378311
0.032870226 -0.12920016 0.43715003
0.037525859 -0.12947787 0.43913618
0.04247722 -0.1298255 0.43874496
0.04797193 -0.12950654 0.43853769
0.052970398 -0.12881631 0.43755552
0.057353757 -0.12718359 0.43745726
0.060972512 -0.12552007 0.43750688
0.0037538263 -0.12163162 0.43790972
0.0067116013 -0.12343609 0.43760341
0.063396849 -0.12397456 0.4375453
0.067008995 -0.1215947 0.43735692
-0.0056701018 -0.11579186 0.43641731
-0.0017989785 -0.11653065 0.43707705
0.0018088802 -0.11791497 0.4374477
0.069410503 -0.11945843 0.43785122
0.071074575 -0.11719355 0.43755972
-0.0354256 -0.11166906 0.43820998
-0.032741327 -0.11149988 0.43584287
-0.028077053 -0.1114661 0.43554559
-0.0012905129 -0.11266401 0.43601397
0.00040518813 -0.1131816 0.43851942
0.07378538 -0.11346629 0.43703434
0.075505443 -0.11083607 0.43728888
-0.035567895 -0.10807788 0.4384495
-0.032796189 -0.10733272 0.4367736
-0.028782558 -0.1070677 0.43527469
-0.0024433057 -0.10732489 0.43726218
0.077345245 -0.1070369 0.43756932
-0.032048691 -0.10429658 0.43777257
-0.028858433 -0.10388567 0.43602329
-0.0056904927 -0.10183247 0.4363766
-0.004213538 -0.10280558 0.43818045
0.078610271 -0.10289381 0.43776837
0.080403365 -0.10133667 0.43722337
-0.0066594733 -0.097155944 0.43758479
-0.0049647987 -0.099588916 0.43873456
0.079286583 -0.097745948 0.43751442
0.080928273 -0.097339109 0.43783078
-0.0068240175 -0.092400283 0.4370507
0.07907398 -0.092447922 0.43740988
0.080726728 -0.092468627 0.43705299
-0.0057267565 -0.087557331 0.43740991
-0.0048359632 -0.085671894 0.43907264
0.079487309 -0.087068029 0.43715268
0.080201209 -0.088158444 0.43748915
-0.0052482393 -0.083492503 0.43692377
-0.0040960824 -0.082253434 0.43765011
0.07884115 -0.082355216 0.43765119
-0.0025347562 -0.077553913 0.43763337
0.076876536 -0.077428557 0.43740901
-0.0013983967 -0.072543435 0.43742266
9.6588134e-05 -0.070059925 0.43564829
0.073803373 -0.072099939 0.43739969
0.075289503 -0.074388251 0.43797955
-0.00038168827 -0.068843015 0.43795475
0.00086668867 -0.067162104 0.43729296
0.068695612 -0.06672141 0.43750101
0.071967833 -0.067687869 0.43772325
0.0033735854 -0.063547477 0.43705034
0.0059304875 -0.061253604 0.43782178
0.067237243 -0.06202212 0.43754578
0.070966445 -0.063833855 0.43734798
0.008339012 -0.058446646 0.43695611
0.011114604 -0.056216374 0.4377659
0.059582043 -0.05513614 0.43712506
0.06286528 -0.057603143 0.43737328
0.065598451 -0.057896093 0.4377124
0.0097493231 -0.051879421 0.4352012
0.012711074 -0.052469548 0.43760693
0.047161818 -0.051245272 0.437255
0.05184279 -0.051586427 0.43726632
0.056926582 -0.053296827 0.4376165
0.0097909868 -0.047375936 0.4353106
0.012777673 -0.048813451 0.43718508
0.015868619 -0.048089772 0.43937853
0.023440689 -0.1306355 0.4421266
0.027995199 -0.13181414 0.44228309
0.032623909 -0.13365988 0.44222707
0.03726238 -0.13435382 0.44266725
0.041190416 -0.13368957 0.44182572
0.012299478 -0.12632166 0.44285887
0.016982138 -0.1284544 0.44206002
0.020986833 -0.12970796 0.44263318
0.034752443 -0.12815185 0.44001704
0.037579246 -0.12798408 0.44085744
0.042351868 -0.12875046 0.44094804
0.047079809 -0.12843814 0.44235623
0.052082554 -0.12833519 0.44213936
0.057302054 -0.1265693 0.44262153
0.060393512 -0.12564421 0.44108233
0.0040929317 -0.12086621 0.442
0.0072526657 -0.12271243 0.44255814
0.062673092 -0.12369988 0.44257659
0.066753775 -0.12111703 0.44291592
0.0029023243 -0.11757208 0.44226587
0.069188111 -0.11906637 0.44194496
0.071586467 -0.11655813 0.44287556
-0.037356224 -0.11077236 0.44150597
-0.00017729402 -0.11071298 0.44103849
0.00087332726 -0.1128749 0.44272223
0.073891945 -0.11305302 0.44203585
0.075257838 -0.11046107 0.44259614
-0.03704723 -0.10775097 0.44236794
-0.00144474 -0.10753375 0.44212869
0.076987363 -0.10729043 0.44249451
-0.035323769 -0.10458262 0.44147837
-0.003535727 -0.10246646 0.44247499
0.079039946 -0.1028075 0.44244495
0.080355458 -0.10226168 0.44193354
-0.0052470826 -0.097046435 0.4418734
-0.0046105855 -0.09824203 0.44328317
0.079640992 -0.096942902 0.44230333
0.080492578 -0.09775237 0.44251481
-0.0056455177 -0.092251793 0.44215679
-0.0048696548 -0.093766443 0.4442724
0.079372562 -0.092526704 0.44261131
0.080544069 -0.092463143 0.44215715
-0.005303849 -0.087574445 0.44212109
-0.0049295886 -0.087758742 0.44372389
0.079617687 -0.087420113 0.44222969
0.080169588 -0.088807888 0.44220239
-0.005019933 -0.084863752 0.44294128
-0.0042868848 -0.08237832 0.44248003
0.078937799 -0.082719006 0.44244403
-0.0027267262 -0.077541381 0.44216841
0.076982297 -0.077676989 0.44235921
-0.0016115755 -0.072575167 0.44263262
0.073413648 -0.072123535 0.44251409
0.075377256 -0.074567415 0.4423981
-0.00052997196 -0.069295809 0.44279104
0.0011938738 -0.067318887 0.4422904
0.068945348 -0.066384993 0.44283256
0.071071796 -0.068714127 0.44238168
0.0038662907 -0.064045832 0.4423542
0.0068345047 -0.061405353 0.44275108
0.064541981 -0.060661361 0.4427107
0.066813387 -0.062855832 0.44228956
0.009352346 -0.05877221 0.4424217
0.011683508 -0.056636307 0.44256443
0.059416205 -0.055345427 0.44203445
0.063025065 -0.057695776 0.44265649
0.065196961 -0.055296458 0.44305065
0.013633083 -0.052656323 0.44225362
0.016563445 -0.051511008 0.44319731
0.022132456 -0.051092319 0.44491568
0.049010992 -0.052249845 0.44262365
0.054134645 -0.052691821 0.4420296
0.057318948 -0.054049011 0.44265002
0.017230298 -0.048995368 0.44124812
0.020755962 -0.047589548 0.44039473
0.02336365 -0.13030897 0.44786939
0.027307561 -0.13164599 0.44749376
0.032717124 -0.13334249 0.44752604
0.036595434 -0.13364018 0.44744354
0.040280551 -0.13329175 0.44504049
0.012694713 -0.12628187 0.44750229
0.017259706 -0.12838347 0.44737047
0.0211334 -0.12959678 0.44712037
0.048984468 -0.12738408 0.44625437
0.052801423 -0.1273834 0.44633946
0.057350572 -0.12601812 0.44727597
0.0049292147 -0.12029357 0.44789466
0.0075222314 -0.12296285 0.4476181
0.010500491 -0.12495735 0.44809797
0.059407681 -0.12488388 0.44882599
0.06242827 -0.12349805 0.44760811
0.066186517 -0.12098629 0.44795486
0.0031452961 -0.11749046 0.44743755
0.068865247 -0.11887205 0.44731766
0.071591884 -0.11620368 0.44759485
-0.00023572643 -0.11076435 0.44723845
0.0009495914 -0.11315478 0.44730791
0.073813885 -0.11262095 0.44756454
-0.037005082 -0.10607819 0.4466922
-0.0016857955 -0.10752227 0.44762161
0.074601091 -0.10864463 0.44847488
0.075891249 -0.10700116 0.44699144
-0.0032038779 -0.10245299 0.44747368
0.077539504 -0.10252319 0.44740286
0.080074698 -0.10057172 0.44621125
-0.0056179329 -0.096698806 0.44897714
-0.0042298655 -0.097403459 0.44722071
0.079465955 -0.098369829 0.44799405
0.080158427 -0.096936338 0.44682166
-0.0052080513 -0.092201337 0.44668135
-0.0046249814 -0.092497699 0.44815731
0.079730399 -0.092545703 0.44786015
0.080511853 -0.092519388 0.44701833
-0.0053507239 -0.087890446 0.44634947
-0.0045851716 -0.086925037 0.44782978
0.079805583 -0.086821191 0.44753271
0.080305286 -0.088193245 0.44754928
-0.0051803887 -0.084040701 0.44683114
-0.0042912713 -0.082127906 0.44771218
0.078883566 -0.082566582 0.44734928
-0.0033268004 -0.077529557 0.44740617
0.074712873 -0.075340785 0.44928879
0.076646589 -0.077444233 0.44751045
-0.0018907008 -0.072708905 0.44747853
0.069493592 -0.070073575 0.44740933
0.072838217 -0.072342254 0.44747096
0.075342387 -0.074434392 0.44732377
-0.00062030432 -0.069565319 0.44810084
0.0015974083 -0.066930309 0.44721273
0.068391137 -0.067054696 0.44724292
0.071150832 -0.068870835 0.44708285
0.0040281513 -0.063904256 0.44732571
0.007032603 -0.061965272 0.44760093
0.06430281 -0.061347228 0.4477275
0.06613417 -0.063750498 0.44735593
0.0096256975 -0.059083473 0.44743451
0.012118798 -0.056889955 0.44741678
0.059219427 -0.056002211 0.44692522
0.06301026 -0.058425307 0.44736147
0.013136766 -0.053063571 0.44731385
0.017209511 -0.052824151 0.44744131
0.053241272 -0.052960947 0.447018
0.057019651 -0.054073971 0.44769731
0.023448624 -0.13051316 0.45251983
0.027556784 -0.13163383 0.45281523
0.032003608 -0.13266839 0.45240912
0.03510727 -0.13304728 0.45249069
0.012802932 -0.12635338 0.45213842
0.017670959 -0.12846926 0.45264879
0.021352926 -0.12970325 0.45189238
0.053748384 -0.12613793 0.4520157
0.056985002 -0.12555611 0.4512569
0.0046250522 -0.12049508 0.4529798
0.0076307002 -0.12286481 0.45239389
0.010651737 -0.12464113 0.45359746
0.058614194 -0.12459299 0.45329952
0.062538452 -0.12268181 0.45220232
0.065465771 -0.1205046 0.45206484
0.0030444048 -0.11751993 0.4527753
0.067949362 -0.11799541 0.45268038
0.070851251 -0.11585448 0.45192918
-0.00065811974 -0.11089738 0.45244256
0.00082004815 -0.11356221 0.452378
0.072388232 -0.11239935 0.45246768
-0.002100026 -0.10755727 0.45273304
0.074183576 -0.10766234 0.45240191
-0.0033284398 -0.10305388 0.45304987
0.074979782 -0.10493246 0.45243153
0.076608039 -0.10233131 0.45259017
-0.0040512006 -0.097397327 0.45237553
0.079237022 -0.097762093 0.45267338
0.080220997 -0.096389711 0.45099854
-0.0052630976 -0.090962932 0.45133597
-0.0038874254 -0.092873357 0.45280677
0.079900928 -0.092782535 0.45311791
0.080314547 -0.092320494 0.45205164
-0.0052146274 -0.087672293 0.45152768
-0.00439583 -0.087487258 0.45298269
0.079302475 -0.086651832 0.45251015
0.080257401 -0.088454425 0.45227003
-0.0050773025 -0.084510297 0.4522751
-0.0041951071 -0.082541518 0.45253792
0.078571081 -0.08249341 0.45264035
0.080257282 -0.08490546 0.45466471
-0.0031919235 -0.077404886 0.45275083
0.0741871 -0.075967714 0.45297554
0.076630615 -0.077802449 0.45220587
-0.0017172843 -0.072322138 0.45254567
0.069619186 -0.070374705 0.45193872
0.072962917 -0.072345749 0.45216355
0.075609423 -0.073978387 0.45292881
-0.00033577453 -0.068794295 0.45287806
0.0016935468 -0.066747673 0.45246446
0.067967549 -0.066699781 0.45200798
0.071777239 -0.067826927 0.45256934
0.0047675655 -0.064289503 0.45301065
0.007573877 -0.062009018 0.45248657
0.063841879 -0.061633963 0.45289204
0.066508323 -0.062840022 0.45263121
0.0096355444 -0.059495024 0.45246032
0.011971169 -0.057343304 0.45251966
0.0590082 -0.056337681 0.45195532
0.061801173 -0.058961742 0.45207262
0.065822713 -0.058959369 0.45244199
0.0121951 -0.053784896 0.45215791
0.016364595 -0.054199886 0.45245183
0.053154662 -0.0531401 0.4522717
0.057209458 -0.054339871 0.4527398
0.023862025 -0.13061012 0.45679498
0.027186956 -0.13118681 0.45770875
0.031962093 -0.13185553 0.45640483
0.013328417 -0.12607573 0.45717934
0.017554067 -0.12815759 0.45776033
0.021297777 -0.12966859 0.45765004
0.057111382 -0.1252277 0.45672432
0.0048090667 -0.1201082 0.45850968
0.0076174182 -0.12247305 0.45726889
0.010880738 -0.12458126 0.4571524
0.059517544 -0.1243174 0.45826766
0.062577724 -0.1220431 0.45687005
0.065206468 -0.12032745 0.45540518
0.0029378098 -0.11737056 0.4572458
0.067329191 -0.11740173 0.45751667
-0.00057759881 -0.11142896 0.4574635
0.00065930485 -0.11373774 0.45772544
0.069812119 -0.11438958 0.4578492
0.071190573 -0.11201207 0.45741954
-0.0023879057 -0.10753667 0.4575927
0.073568664 -0.1074168 0.45707694
-0.033697329 -0.10470761 0.45896661
-0.0035756677 -0.1020268 0.45775479
0.074898005 -0.10453661 0.45782858
0.076756909 -0.10230616 0.45804331
-0.0034563211 -0.097150825 0.45784801
0.079036728 -0.097470783 0.45722696
-0.0035009449 -0.092416391 0.4579311
0.07947091 -0.092485875 0.45748788
0.08026839 -0.092902444 0.45554614
-0.0036339962 -0.087440684 0.4574562
0.078652635 -0.087659433 0.45787609
0.080304131 -0.087236933 0.45715746
-0.0035834874 -0.08260338 0.45726055
0.077998579 -0.082449108 0.45760056
-0.0025834909 -0.077432007 0.45760754
0.073898129 -0.076456323 0.45820394
0.076444067 -0.078049555 0.45722675
-0.0011951233 -0.072921969 0.45756179
0.00070337951 -0.070865154 0.45787176
0.069601193 -0.070682548 0.45636261
0.072559491 -0.072491467 0.4572168
0.075474657 -0.073478408 0.45728299
-0.00064351776 -0.068893693 0.45674559
0.002476813 -0.067504734 0.45741788
0.0056176037 -0.065712593 0.45943314
0.06826096 -0.067202985 0.45714939
0.073052563 -0.067460552 0.45673835
0.0040028677 -0.064135179 0.4571991
0.0075809718 -0.062521473 0.45697293
0.010899335 -0.060829747 0.45752156
0.063495994 -0.061395008 0.45734569
0.067946948 -0.062257513 0.45648447
0.070728779 -0.063308164 0.457569
0.0092483349 -0.059754398 0.45825514
0.012512813 -0.057773307 0.45712578
0.015639316 -0.05616517 0.45833915
0.058482658 -0.056193795 0.45746416
0.060800988 -0.058486186 0.45712686
0.067817062 -0.059029046 0.4564929
0.012538127 -0.054005299 0.45778424
0.016702235 -0.05493813 0.45676076
0.054774642 -0.054312412 0.45969754
0.056229189 -0.054324746 0.45696133
0.023633927 -0.13019314 0.46106458
0.027516842 -0.13055536 0.46251124
0.013631666 -0.12592342 0.46239763
0.017982006 -0.12780806 0.4624947
0.022043236 -0.12942567 0.46233836
0.059199154 -0.12519117 0.46333703
0.0078461235 -0.12191782 0.46252868
0.011445731 -0.12447672 0.46324077
0.059515983 -0.12493872 0.46191257
0.062737912 -0.12225444 0.46229264
0.065077066 -0.12039778 0.46266934
0.0031795274 -0.11709397 0.46261927
0.00550737 -0.11942805 0.46249303
0.067304455 -0.11737684 0.46194288
-0.00075857126 -0.11121583 0.46201435
0.00097987056 -0.11382915 0.46218267
0.069277823 -0.11444727 0.46178809
0.070939273 -0.11241225 0.46291429
-0.0024703578 -0.10746763 0.46227092
0.07356821 -0.10818813 0.46216539
0.075398475 -0.10519508 0.46294463
-0.030781165 -0.104514 0.46163976
-0.0033676773 -0.10303733 0.46247974
0.076865315 -0.10218872 0.46255359
-0.0033120494 -0.097286202 0.46293536
0.078747176 -0.09741389 0.46225855
-0.0031918194 -0.092544079 0.46283743
0.078975245 -0.092546143 0.46273828
-0.0032399134 -0.087629005 0.46263996
0.078607284 -0.087517895 0.46303859
0.080081567 -0.08659099 0.46118054
-0.0030019076 -0.082339592 0.46240425
0.077671573 -0.082469285 0.46242884
-0.0018007893 -0.077599607 0.46236813
0.00066000223 -0.075629257 0.46356291
0.073926538 -0.077210404 0.46212637
0.076551318 -0.078003965 0.46226171
-0.0011727375 -0.073560372 0.46279836
0.0016503492 -0.072303884 0.4627237
0.072858177 -0.072472587 0.46260771
0.075015768 -0.074158177 0.46222252
0.0028537007 -0.068391263 0.46185258
0.0061843731 -0.066957831 0.46326831
0.068547279 -0.067157589 0.46210307
0.071947008 -0.069093034 0.46237826
0.0079923561 -0.063229837 0.46231002
0.011700554 -0.0615809 0.46281788
0.063482068 -0.061268467 0.46275657
0.066022053 -0.063980825 0.46225423
0.0093715675 -0.059529293 0.46253839
0.012674413 -0.057870459 0.46263471
0.015951946 -0.056606259 0.4620946
0.058006596 -0.056521792 0.46222705
0.060909398 -0.058900256 0.46163791
0.055469826 -0.054356676 0.46343517
0.013879955 -0.1254634 0.46684706
0.017203651 -0.12741438 0.46743459
0.021167852 -0.12920903 0.46759084
0.0078043905 -0.12158132 0.46793085
0.01126234 -0.12396492 0.46808776
0.06302467 -0.12288072 0.46706882
0.065956295 -0.12019502 0.46865612
0.0033579899 -0.11728975 0.46760803
0.005621016 -0.11950338 0.46728283
0.067842565 -0.117444 0.46737871
-0.00053681433 -0.11071323 0.46729264
0.00090361835 -0.11311112 0.46760067
0.069496781 -0.11447814 0.46583354
0.071548603 -0.11183853 0.46711588
-0.0018333402 -0.1075229 0.4676114
0.073892653 -0.10840219 0.46795264
0.075417526 -0.10609316 0.46749833
-0.0034327433 -0.10192347 0.46748289
0.077041358 -0.10235415 0.46735349
-0.0033184376 -0.097406395 0.46731618
0.078385763 -0.097350329 0.46750152
-0.0032945795 -0.092350133 0.46739522
0.078648187 -0.092409074 0.46720544
-0.0031125851 -0.087634407 0.46757463
0.078198113 -0.087484278 0.46739152
-0.0026608694 -0.082644574 0.46757457
0.074808687 -0.080144726 0.46580884
0.077089511 -0.082716979 0.46758753
-0.0016969431 -0.078098208 0.46723747
0.0010286503 -0.076737873 0.46796799
0.073979445 -0.077288598 0.46717578
0.076712713 -0.07791847 0.46709955
-1.7390847e-05 -0.07404124 0.46836981
0.0026583807 -0.07295312 0.46710879
0.0057693645 -0.071274087 0.4678537
0.072667263 -0.072539523 0.46739769
0.0032925003 -0.068774447 0.46628037
0.0075264694 -0.067952536 0.46735218
0.068909474 -0.066475391 0.46738496
0.070971832 -0.06875366 0.4669311
0.0079737166 -0.063011363 0.46671909
0.012373594 -0.062295709 0.4677453
0.06359525 -0.061630655 0.46739933
0.066350102 -0.063841842 0.46740898
0.01261412 -0.057889197 0.46727866
0.015638163 -0.058054078 0.4662579
0.058546375 -0.057219505 0.46656966
0.060927324 -0.059344478 0.46782458
0.014335223 -0.12565339 0.4722746
0.017815182 -0.12798111 0.47239247
0.022488147 -0.12957335 0.47077212
0.0080303699 -0.12171146 0.47274551
0.011882533 -0.12392244 0.47167858
0.06433738 -0.12271821 0.47213039
0.065513678 -0.12127538 0.47173277
0.0033646389 -0.11701207 0.4726803
0.0053703883 -0.11968863 0.47263929
0.068040349 -0.11793087 0.47269347
0.070226908 -0.11515067 0.47438875
-0.00032025576 -0.1103209 0.47151172
0.00098788738 -0.11289585 0.47250289
0.069959253 -0.11482762 0.47214147
0.071604423 -0.1122528 0.47223225
-0.00096725061 -0.10752916 0.47274581
0.073954336 -0.10834664 0.4728395
0.075692788 -0.10570902 0.47212672
-0.02618088 -0.10368397 0.47133169
-0.024877297 -0.10363835 0.47167721
-0.0055691926 -0.10228709 0.47441751
-0.0032005482 -0.10231472 0.47237694
0.077127233 -0.10214558 0.47248727
-0.0056954385 -0.099151753 0.47436085
-0.0037722939 -0.097493887 0.47243217
0.077793188 -0.097561724 0.47251853
-0.0033763177 -0.092687085 0.47237158
0.078418426 -0.092396863 0.47277537
-0.0030967558 -0.087622024 0.47253558
0.07814417 -0.087517731 0.47233427
-0.0022226942 -0.082771249 0.47240579
0.00041750073 -0.080095738 0.47466424
0.076865137 -0.082332812 0.47262439
-0.0014249654 -0.078202352 0.47221091
0.0022233799 -0.077560373 0.47285375
0.074409299 -0.077014372 0.47270706
0.075794399 -0.078779027 0.47279903
0.0031090102 -0.073322333 0.47190425
0.0071072625 -0.071721666 0.47282726
0.072644889 -0.072611459 0.47209644
0.0036630321 -0.069537021 0.47154602
0.0086459778 -0.067886099 0.47131342
0.011181208 -0.066388138 0.4733606
0.068822749 -0.06602186 0.47277987
0.071244888 -0.068347149 0.47253761
0.008770966 -0.062132001 0.47273222
0.013077187 -0.062295455 0.47177213
0.063357525 -0.061417453 0.47199765
0.066557005 -0.06389904 0.47246099
0.013307526 -0.05719988 0.47292224
0.015815167 -0.055019047 0.47189179
0.058849514 -0.05650885 0.47040698
0.061606482 -0.059768859 0.47250426
0.01761852 -0.05371033 0.47299263
0.014389582 -0.12552139 0.47734982
0.016985008 -0.12744921 0.4769161
0.0075887642 -0.12141267 0.47771618
0.011681731 -0.12394761 0.47708204
0.064642757 -0.12359944 0.47699496
0.065886654 -0.12148662 0.47763768
0.0034958236 -0.11716305 0.47731701
0.0053618401 -0.11919641 0.47777587
0.068389378 -0.11742412 0.47738412
0.0011899426 -0.1125724 0.47761491
0.069778651 -0.11466087 0.47881931
0.071307465 -0.11222815 0.47746581
-0.017000329 -0.10590295 0.47753441
-0.012187083 -0.10576237 0.47888172
-0.0087894388 -0.10552643 0.47695416
-0.00068802835 -0.10690787 0.47740212
0.00028232732 -0.10910693 0.47854471
0.073663116 -0.10861046 0.47770712
0.075311244 -0.10596009 0.47741899
-0.025371524 -0.10308718 0.47553417
-0.02156944 -0.10310598 0.476805
-0.01736732 -0.10276645 0.47848082
-0.012185157 -0.10264047 0.47899652
-0.0080174552 -0.10237683 0.47690406
-0.0016608437 -0.10238785 0.47781309
0.074799873 -0.10135911 0.47811922
0.076557226 -0.10238819 0.47747201
-0.01195594 -0.099432357 0.47934592
-0.007181949 -0.097664252 0.47732028
-0.0024600008 -0.097147442 0.47734958
0.077183187 -0.097238801 0.47769853
-0.0056426432 -0.093525141 0.47845948
-0.0034278927 -0.092206731 0.47740352
0.077727303 -0.092648476 0.47758162
-0.0030498786 -0.087290235 0.47738296
0.077653617 -0.087476417 0.47782779
-0.0020050241 -0.082823157 0.47741687
0.00073390006 -0.080823995 0.47788244
0.076888196 -0.082746834 0.47765243
-0.00072385115 -0.07815484 0.47697768
0.0029344021 -0.077182293 0.47720537
0.0054524094 -0.075231463 0.47722185
0.074312955 -0.076621488 0.47800586
0.075444087 -0.079025567 0.47722366
0.0018053788 -0.074434459 0.4779838
0.0079334825 -0.072486043 0.47720042
0.068995871 -0.071667999 0.47833312
0.073148593 -0.072729751 0.47749546
0.0068567679 -0.068059571 0.47810575
0.012840234 -0.065934703 0.47658902
0.068936147 -0.065805808 0.47738925
0.071491279 -0.068374813 0.47712865
0.011619537 -0.0601683 0.4786742
0.063800603 -0.061408866 0.47768745
0.06625969 -0.063584976 0.47700903
0.013753094 -0.057417721 0.47727618
0.016797153 -0.05501591 0.47663459
0.06195607 -0.058783285 0.47768679
0.019849448 -0.053558271 0.47870472
0.014287393 -0.12513258 0.48273623
0.016481558 -0.12670137 0.4830299
0.064707071 -0.12517826 0.48486981
0.0081049949 -0.12139478 0.48219648
0.011816129 -0.12346288 0.48212266
0.064773299 -0.12411051 0.48313463
0.065447062 -0.12218955 0.48265383
0.0037636107 -0.11707797 0.48241434
0.0063651381 -0.11956099 0.48281831
0.067709811 -0.11745389 0.4822118
0.0018328244 -0.11236208 0.48231438
0.069398768 -0.11388712 0.48347834
0.070819132 -0.11171613 0.48241705
-0.00029083341 -0.10629483 0.48131683
0.00079448026 -0.10784721 0.48319021
0.07375586 -0.10753032 0.48243535
0.075225443 -0.10525188 0.48099652
-0.021041013 -0.10148617 0.48254052
-0.019213213 -0.10047712 0.48175997
-0.0009244114 -0.10217132 0.482225
1.1369586e-05 -0.10386836 0.48464
0.074142672 -0.10214251 0.48384851
0.076112978 -0.10227083 0.48244604
-0.016406227 -0.099477999 0.48173979
-0.012212855 -0.097685613 0.48225334
-0.0087189507 -0.095904358 0.48149034
-0.0013837641 -0.097527146 0.48260447
0.074773721 -0.09946733 0.48236924
0.076260135 -0.097506136 0.48276964
-0.0064887227 -0.092653863 0.48230657
-0.0020180007 -0.092293166 0.48261878
0.07672254 -0.09256985 0.48253772
-0.005180852 -0.089678742 0.48391744
-0.0026777785 -0.087631501 0.48247099
0.077106908 -0.08771193 0.48260781
-0.0016093627 -0.083219178 0.48228508
0.00090472103 -0.081432186 0.48258072
0.076392017 -0.082345203 0.48234558
-0.00012682498 -0.079426862 0.48447868
0.0027949358 -0.078361444 0.48188263
0.0058191568 -0.076025084 0.48289576
0.073622249 -0.076934375 0.48289219
0.075325519 -0.079069078 0.48243412
0.0042039887 -0.073485665 0.48470947
0.0076327091 -0.072853446 0.48218822
0.01211592 -0.07205756 0.48361644
0.015994057 -0.07230036 0.48331887
0.020273179 -0.074065953 0.48442629
0.067769662 -0.071924821 0.48339921
0.073314816 -0.072877117 0.48249128
0.0078521883 -0.069185361 0.48433843
0.06876643 -0.066282965 0.48297477
0.071480289 -0.068702132 0.48232788
0.011743038 -0.061364979 0.4814938
0.044266492 -0.060352147 0.48443565
0.045991946 -0.060131356 0.48448476
0.064212799 -0.0611494 0.48319498
0.066210866 -0.063615829 0.48233846
0.01404557 -0.058133766 0.48249266
0.016570101 -0.055759281 0.48252943
0.039807692 -0.057437487 0.48497373
0.042797618 -0.058905251 0.48363075
0.062392272 -0.057892818 0.48306093
0.019968553 -0.053597089 0.48102221
0.022398509 -0.052589282 0.48373684
0.016843319 -0.12588321 0.48678973
0.062955953 -0.12582749 0.48845699
0.0087157087 -0.12058198 0.4869971
0.012448544 -0.12270845 0.48774564
0.063876458 -0.12279629 0.48790014
0.065420076 -0.12059725 0.48577979
0.0041661933 -0.11609414 0.48580384
0.0063543525 -0.11773973 0.48780584
0.064671814 -0.11978904 0.48798457
0.066455521 -0.11741488 0.48740613
0.0032159942 -0.11264106 0.48726112
0.068651453 -0.11321341 0.48792511
0.070419759 -0.11055821 0.48759145
0.0016062409 -0.10782633 0.48756185
0.072406597 -0.10743203 0.48736006
-0.019966872 -0.10087443 0.48736688
-0.0003610611 -0.10198341 0.48648196
0.00049374998 -0.10361266 0.48820066
0.07392066 -0.10285775 0.48779887
0.075351052 -0.10193904 0.48727202
-0.016556712 -0.098884754 0.4871234
-0.01272162 -0.096587196 0.48750246
-0.00064362719 -0.097496718 0.48769066
0.074655846 -0.097776495 0.48786423
0.075747773 -0.097144246 0.48727396
-0.0074926885 -0.092673488 0.48716429
-0.00072885305 -0.092645288 0.48817968
0.076082334 -0.092268609 0.48724577
-0.0053722621 -0.089220069 0.48678938
-0.001985214 -0.087367311 0.48758966
0.076376706 -0.087272137 0.48750445
-0.0015531258 -0.08281257 0.48732737
0.0013135492 -0.082527824 0.48721534
0.076091774 -0.082829177 0.48719516
-3.9303006e-05 -0.079664074 0.48803055
0.002525829 -0.078302085 0.48697138
0.017428219 -0.076624379 0.48759094
0.020589367 -0.075978085 0.48601747
0.07357797 -0.077440917 0.48759788
0.075261399 -0.079518825 0.48697886
0.0041049183 -0.074162021 0.4866294
0.0077355946 -0.073096156 0.48710531
0.012217748 -0.073943578 0.48635682
0.017497063 -0.074206501 0.48529842
0.0088255918 -0.068694621 0.48784637
0.013286559 -0.061620962 0.48729095
0.065923706 -0.06426201 0.48685423
0.014399922 -0.058982845 0.48692393
0.016798643 -0.056139208 0.48719853
0.038246598 -0.058486003 0.48716715
0.040668637 -0.059670333 0.48623285
0.061040778 -0.058233298 0.48677891
