# .PCD v0.7 - Point Cloud Data file format
VERSION 0.7
FIELDS x y z
SIZE 4 4 4
TYPE F F F
COUNT 1 1 1
WIDTH 736
HEIGHT 1
VIEWPOINT 0 0 0 1 0 0 0
POINTS 736
DATA ascii
0.034130294 -0.11988175 0.46100003
0.038469356 -0.12083428 0.46020001
0.045365851 -0.12120266 0.45916674
0.052514564 -0.12194748 0.45907992
0.056471284 -0.11943727 0.45700002
0.034130294 -0.11807896 0.46100003
0.038924295 -0.11758032 0.4586924
0.045349836 -0.11657591 0.4568181
0.052409075 -0.1159539 0.45703441
0.059514571 -0.11548326 0.4585588
0.065205783 -0.11403202 0.46054545
0.033786904 -0.10794903 0.461
0.03805523 -0.10782345 0.45984617
0.04524029 -0.10703226 0.4594737
0.052383061 -0.10639635 0.46009091
0.059582323 -0.10721363 0.46079999
0.064037487 -0.11182657 0.46000001
0.026919154 -0.098849259 0.46100003
0.031665705 -0.10124172 0.4607501
0.038280237 -0.10169944 0.46030563
0.044998072 -0.10367493 0.46074998
0.05215814 -0.10455808 0.461
0.056965563 -0.10485854 0.46100003
0.026384998 -0.095510766 0.46100003
0.031019991 -0.09466859 0.46071446
0.036700223 -0.09591534 0.46092859
0.033418231 -0.13394961 0.46785715
0.037841413 -0.13371502 0.467875
0.026149428 -0.12778935 0.46440005
0.031405158 -0.12884185 0.4651334
0.038517337 -0.12923899 0.46559262
0.045412596 -0.12934387 0.4657895
0.051340215 -0.12806007 0.46450001
0.02456093 -0.1227391 0.46395454
0.031034376 -0.12230555 0.46285716
0.038289554 -0.12423445 0.46249995
0.045687359 -0.1250729 0.46241662
0.051066816 -0.12556188 0.46200001
0.012680032 -0.11358151 0.46777779
0.017376697 -0.11388628 0.46636844
0.023327639 -0.11332516 0.46533337
0.030352779 -0.11406146 0.46300003
0.013601716 -0.1104161 0.46800002
0.017392913 -0.10824155 0.4668929
0.024233798 -0.10849848 0.46447062
0.030351162 -0.10840315 0.46244442
0.060100291 -0.105086 0.46200001
0.065846361 -0.10642694 0.46259999
0.073534466 -0.10500579 0.46700001
0.0065861065 -0.099130116 0.46800002
0.011825065 -0.10003138 0.46738464
0.017601449 -0.10127967 0.46540743
0.023759214 -0.10152358 0.46293551
0.028483126 -0.10297819 0.46200001
0.046272662 -0.10037151 0.46222723
0.052622989 -0.10095899 0.46289662
0.059301533 -0.10132062 0.4644857
0.06609194 -0.1027988 0.46565223
0.071342453 -0.10403023 0.46700001
0.0041352748 -0.094309203 0.46703452
0.010788216 -0.094288558 0.46516663
0.017881876 -0.094395712 0.46313792
0.023710448 -0.094427869 0.46204752
0.034204327 -0.0918369 0.46200001
0.039464243 -0.094035871 0.46204537
0.045551561 -0.094363898 0.46305123
0.052431639 -0.094478212 0.4656207
0.057732739 -0.096523836 0.46719998
-0.014155692 -0.088149168 0.46800002
-0.010351834 -0.086929075 0.46799996
-0.0036159018 -0.08699511 0.46703327
0.0035152421 -0.08769197 0.46556672
0.010765442 -0.087415032 0.46409997
0.017800067 -0.087930344 0.46288246
0.024365315 -0.087551646 0.46243748
0.03124089 -0.087750494 0.46269444
0.038733207 -0.087623134 0.46427503
0.045092966 -0.088075772 0.46645451
0.05020218 -0.089985713 0.46740001
-0.0086609134 -0.080175512 0.46774998
-0.0038275223 -0.08037743 0.4660303
0.0035131769 -0.080916561 0.46500009
0.010765146 -0.080756553 0.46408331
0.017387006 -0.080608919 0.46323335
0.024021942 -0.080577455 0.46305561
0.031515688 -0.0806624 0.46484208
0.037682012 -0.081303589 0.4667826
-0.014155692 -0.071067683 0.46800002
-0.0099703111 -0.072904326 0.46742108
-0.0036276677 -0.073636338 0.46608809
0.0035132347 -0.073651344 0.46505567
0.010783192 -0.073619992 0.46486118
0.017439958 -0.073576361 0.4646
0.024152787 -0.073726334 0.46555552
0.030691965 -0.074914202 0.46700001
-0.021476328 -0.063747048 0.46800002
-0.016483333 -0.066139609 0.46733338
-0.010456312 -0.066542491 0.4661999
-0.0037655591 -0.066446155 0.4655278
0.0035137841 -0.066393793 0.46516678
0.010790114 -0.06638483 0.4651112
0.017504813 -0.066554099 0.46629995
0.022494674 -0.067072064 0.46755558
-0.023645466 -0.058748316 0.46744007
-0.017134093 -0.059224162 0.46599993
-0.010512927 -0.05920472 0.46503457
-0.0037545306 -0.059595264 0.46416664
0.0035101373 -0.059022631 0.46444443
0.010665881 -0.059382994 0.46588242
0.017362742 -0.060282767 0.46695459
0.021706346 -0.061524134 0.46780005
-0.029203666 -0.05052923 0.46800002
-0.024489572 -0.052072126 0.46725008
-0.017218826 -0.052381847 0.4656451
-0.010334184 -0.052563086 0.46496165
-0.0036207873 -0.052732363 0.46525642
0.0026634696 -0.053402435 0.46684209
0.0078062126 -0.055206306 0.46800002
-0.037337705 -0.043005247 0.46800002
-0.031282563 -0.045031101 0.46791673
-0.024517067 -0.045425341 0.46780011
-0.017072689 -0.04584039 0.46671414
-0.010459807 -0.045899294 0.46643323
-0.0048086159 -0.046360627 0.467087
-0.044362534 -0.037321165 0.46757898
-0.038397674 -0.038554475 0.46706903
-0.031771258 -0.038643997 0.46688884
-0.024491291 -0.038681354 0.46733347
-0.017441586 -0.038965076 0.46787894
-0.011173213 -0.041107312 0.46799999
-0.049887363 -0.030281287 0.46799999
-0.045194462 -0.031362314 0.46722233
-0.038401794 -0.031287089 0.46609989
-0.031723596 -0.031292066 0.4661943
-0.024473244 -0.03134618 0.46700001
-0.018852537 -0.032706462 0.46778569
-0.051647224 -0.023715157 0.46775001
-0.045149837 -0.024639513 0.46676666
-0.038415685 -0.024612553 0.46627989
-0.031812962 -0.024504522 0.46722588
-0.025801681 -0.026453149 0.46777779
-0.057947233 -0.016663097 0.46774998
-0.052295305 -0.01767325 0.46684852
-0.045077808 -0.017917432 0.46602762
-0.038408559 -0.017924223 0.46619987
-0.032735951 -0.017919537 0.46730772
-0.065082997 -0.0089721344 0.46766669
-0.059717219 -0.010567402 0.46717143
-0.05244955 -0.010642963 0.46674994
-0.045128386 -0.010637186 0.46655548
-0.038666297 -0.011206431 0.46695992
-0.033923957 -0.012357552 0.46766669
-0.065431267 -0.0038149108 0.46770588
-0.059803784 -0.0033450446 0.46716669
-0.052482545 -0.0033447561 0.46705553
-0.046827171 -0.0045281188 0.46773332
-0.058576178 0.0023123608 0.46778569
-0.05308665 0.0025642987 0.46755004
0.033928432 -0.14024021 0.47500002
0.035166789 -0.14024021 0.47500002
0.02761987 -0.13533634 0.47300002
0.031621374 -0.13621324 0.47141671
0.03865141 -0.13677697 0.47081822
0.044460312 -0.13466874 0.4711
0.023920447 -0.1297846 0.47300002
0.047049813 -0.13263738 0.47000003
0.05090652 -0.13187808 0.47166669
0.011251388 -0.11479725 0.46920004
0.0050924076 -0.10778233 0.47081256
0.010547921 -0.10838892 0.46962506
-0.0024410482 -0.099860623 0.47100005
0.0032920467 -0.10182045 0.4698711
0.010129989 -0.10293128 0.46929416
0.062233612 -0.098119214 0.46900001
0.067134924 -0.099612199 0.47028571
0.073410682 -0.10134689 0.47207141
-0.0091302497 -0.092992611 0.46957144
-0.0036959825 -0.094548568 0.46989658
0.0009757001 -0.095918335 0.46900001
0.054897338 -0.092005655 0.46900001
0.060037579 -0.093837894 0.47054169
0.066566803 -0.094566114 0.47308567
0.072029702 -0.094944373 0.47473329
-0.015945897 -0.086218767 0.46935722
-0.010517801 -0.088337511 0.46899998
-0.0053824065 -0.090538397 0.46900001
0.046835057 -0.085501589 0.46937504
0.053032544 -0.087326005 0.47094122
0.059554312 -0.087367825 0.47350001
0.066462889 -0.089172363 0.47474998
0.073555805 -0.090396404 0.47500002
-0.022695061 -0.080255039 0.47133341
-0.017299248 -0.080645703 0.47050005
-0.011749728 -0.080447011 0.46933332
0.039639287 -0.078605548 0.46930003
0.045374688 -0.080598861 0.47074285
0.052172456 -0.080769129 0.47322217
0.0592402 -0.080402836 0.47454846
0.063648954 -0.080179974 0.47500002
-0.035848964 -0.071135759 0.47250003
-0.031084588 -0.072079927 0.47262508
-0.024705641 -0.073428251 0.47138894
-0.017482074 -0.073766857 0.46990007
-0.012148085 -0.075295247 0.46900001
0.032742158 -0.071794003 0.46947071
0.038509525 -0.073274568 0.47043338
0.045428425 -0.073554061 0.47222212
0.052449476 -0.073722981 0.47341922
0.057439204 -0.075171158 0.47400001
-0.037338797 -0.065539584 0.47249997
-0.031551443 -0.066508032 0.47126925
-0.024731787 -0.066536359 0.4698621
-0.019229632 -0.068468437 0.46900004
0.026111733 -0.066639096 0.4692778
0.031715471 -0.066575646 0.47076479
0.038560294 -0.066107422 0.47251606
0.045412339 -0.066365138 0.4729999
0.051049549 -0.068127528 0.47299999
-0.049454153 -0.056444827 0.47500002
-0.044691574 -0.059074383 0.47378942
-0.038307056 -0.05942085 0.47239992
-0.031301949 -0.059652779 0.47020695
-0.02652958 -0.061116513 0.46909091
0.0133251 -0.056546979 0.46900001
0.018073473 -0.057035644 0.46925002
0.024815675 -0.059432417 0.47032255
0.031285357 -0.059377767 0.47303122
0.03812886 -0.059142649 0.47442865
0.043732718 -0.060843199 0.47390002
-0.051421236 -0.051890194 0.4748666
-0.045623045 -0.052664761 0.47352937
-0.038304944 -0.052612085 0.47128567
-0.031956796 -0.05256407 0.46923995
0.0045239711 -0.05080875 0.46982354
0.010634489 -0.052565388 0.47119349
0.017171575 -0.052728318 0.47284377
0.02416287 -0.054469153 0.47389472
0.029888527 -0.055073787 0.47475001
0.037643496 -0.054793689 0.47500002
-0.063632578 -0.042231563 0.47300002
-0.058548067 -0.044307288 0.47359088
-0.052573152 -0.045350358 0.47333324
-0.045698408 -0.045658726 0.47138709
-0.038853411 -0.045930896 0.46954548
-0.034156915 -0.047172848 0.46900001
-0.0019591246 -0.044338491 0.46920004
0.0035658632 -0.045157533 0.47138888
0.010202929 -0.045585174 0.47400004
0.014940319 -0.047776341 0.47499999
-0.065227941 -0.038222183 0.47393751
-0.059576768 -0.038615711 0.47233328
-0.052637137 -0.038187146 0.47035718
-0.046237346 -0.04029686 0.46931255
-0.041085623 -0.041874424 0.46900001
-0.014593511 -0.036168437 0.46900001
-0.010232093 -0.037820995 0.46928573
-0.0038025198 -0.038940731 0.4705278
0.0035788484 -0.038552299 0.47326657
0.0086643165 -0.039181739 0.47489995
-0.077523537 -0.028788226 0.47500002
-0.072733916 -0.030766375 0.47472224
-0.066496976 -0.031611528 0.4734242
-0.059694581 -0.031623852 0.4711
-0.053403486 -0.031783652 0.46941382
-0.016195465 -0.030664699 0.4692727
-0.01055775 -0.031603973 0.47086668
-0.0038233614 -0.031759329 0.47319445
0.0026928864 -0.03336551 0.47455555
-0.079147182 -0.023867987 0.47447622
-0.073545359 -0.024368335 0.47329995
-0.066506751 -0.024276182 0.47149998
-0.059537429 -0.024191188 0.46986675
-0.054544609 -0.025419291 0.46907693
-0.028858494 -0.021699663 0.46900001
-0.024168447 -0.023371875 0.46940741
-0.017318761 -0.024252724 0.47116661
-0.010848631 -0.024677165 0.47362959
-0.0055567622 -0.026567662 0.47466666
-0.079450168 -0.017684313 0.47452381
-0.073443629 -0.017555686 0.47263992
-0.066332601 -0.017468262 0.47026679
-0.060659178 -0.018081812 0.4690769
-0.029207841 -0.016896149 0.46900004
-0.024645662 -0.017468302 0.47033331
-0.017702334 -0.017815106 0.47351852
-0.012716282 -0.019706955 0.47500002
-0.084953673 -0.0083553651 0.47500002
-0.080330104 -0.010672781 0.47435302
-0.073293649 -0.01075832 0.47166663
-0.067260392 -0.01153875 0.46936366
-0.037226126 -0.0078449668 0.46916667
-0.031138457 -0.010245223 0.47007692
-0.025006883 -0.011016147 0.47260603
-0.01983339 -0.012677414 0.47457144
-0.086103447 -0.0028601231 0.47493744
-0.08035399 -0.0033915809 0.47341666
-0.073091127 -0.0033693246 0.47036675
-0.068267472 -0.0027476151 0.46899998
-0.04428228 -0.0025164511 0.46957144
-0.038232438 -0.0033712632 0.47155556
-0.032002002 -0.0042299633 0.47359088
-0.026975598 -0.005997018 0.47460002
-0.091833428 0.0040969853 0.47499996
-0.087350868 0.0034053314 0.47456005
-0.080294259 0.0033952221 0.4730666
-0.073132873 0.0033785538 0.47064006
-0.066189893 0.0033687316 0.46926662
-0.060315564 0.0046998183 0.46899998
-0.051611543 0.0049567148 0.4691
-0.045540888 0.0033812581 0.47086668
-0.039714169 0.0030787305 0.4741579
-0.091558225 0.0085688243 0.47499999
-0.087147586 0.00991653 0.47470379
-0.080389969 0.01019231 0.47363886
-0.073375039 0.01016198 0.47219995
-0.066403218 0.010131003 0.47077784
-0.059578888 0.01011947 0.47020003
-0.05285896 0.010124574 0.47041669
-0.045838594 0.01009196 0.47302857
-0.041279748 0.0080490941 0.47475001
-0.085572854 0.014554208 0.47500002
-0.079730123 0.016571777 0.47472733
-0.073587507 0.017598009 0.47356665
-0.066617958 0.017552115 0.47230551
-0.059321247 0.017642463 0.47234285
-0.05244315 0.017644024 0.47321206
-0.047041774 0.016525181 0.47427776
-0.097337231 0.025699405 0.47500002
-0.077523537 0.021984339 0.47500002
-0.073389426 0.023968592 0.47457147
-0.066855997 0.023625065 0.47399998
-0.059847869 0.022842061 0.47442856
-0.053994793 0.021984339 0.47500002
0.038550474 -0.14127356 0.47850001
0.043045308 -0.14046502 0.48000002
0.029840797 -0.13892362 0.47900003
0.041532706 -0.13958712 0.47700003
0.045295041 -0.13802658 0.47733334
0.050752852 -0.13433063 0.47600001
0.07619258 -0.098963201 0.47600001
0.07820081 -0.10159335 0.47900003
0.075408883 -0.094796158 0.47745454
0.07715299 -0.095812522 0.48200002
0.06653396 -0.08603856 0.47716665
0.072088994 -0.088869378 0.47622225
0.062541991 -0.083451174 0.47600001
0.065162383 -0.082738601 0.47700003
-0.05497453 -0.05080834 0.47633338
0.019750169 -0.049997658 0.47650003
0.025388619 -0.050960891 0.47740006
0.031552035 -0.051976245 0.4780834
0.035782151 -0.053982876 0.47660002
-0.057831351 -0.048704229 0.47600001
0.0129035 -0.043119896 0.47600001
0.017770814 -0.04531141 0.47776672
0.024463983 -0.046165969 0.47992304
0.029456774 -0.046978001 0.47950003
-0.072104588 -0.036266267 0.47922224
-0.069087103 -0.038066577 0.47875002
0.011309408 -0.037656367 0.47675008
0.016655123 -0.03851787 0.47917241
0.02495202 -0.041691843 0.48100004
-0.079784565 -0.029923012 0.47900003
-0.075208671 -0.032640472 0.477
0.0045013078 -0.030483238 0.47677782
0.010460381 -0.031442408 0.47771999
0.015198861 -0.032623045 0.47877777
-0.085790642 -0.023521112 0.47908342
-0.082327321 -0.025431618 0.47700006
-0.00861225 -0.021831701 0.47633338
-0.0032847901 -0.023874395 0.47770372
0.0036230178 -0.024673615 0.47936106
0.0096017215 -0.025603771 0.47983339
-0.0918779 -0.015778499 0.48100004
-0.087355927 -0.017226504 0.47796154
-0.083064251 -0.017473344 0.47600004
-0.014730596 -0.015220892 0.47675002
-0.010115742 -0.016999902 0.47910011
-0.0038076723 -0.019110477 0.48081252
0.0033519021 -0.019821953 0.48145455
-0.093074813 -0.0096175577 0.47853851
-0.087777033 -0.010821383 0.47661543
-0.083891563 -0.013336804 0.47600001
-0.022272393 -0.0081715565 0.47633338
-0.017093126 -0.010327189 0.47839287
-0.012466821 -0.012021501 0.48133337
-0.1003588 -0.0025780322 0.48018751
-0.09436956 -0.0032673138 0.47759378
-0.089161694 -0.0040321457 0.47621426
-0.029857129 -0.0014458714 0.47683337
-0.024215495 -0.0031209823 0.47840741
-0.018752534 -0.0037665507 0.48080003
-0.10599715 0.0050300043 0.48200002
-0.10200612 0.0033395533 0.4799583
-0.095667183 0.0031266857 0.47695237
-0.036451254 0.0039873761 0.47672728
-0.031488292 0.0033587683 0.47958618
-0.025097037 0.0016981068 0.48130003
-0.020862177 0.00094603916 0.48200002
-0.10651989 0.010615271 0.48036367
-0.10191287 0.010303748 0.47903329
-0.095118836 0.010588204 0.47670004
-0.089682721 0.012930232 0.47599998
-0.042939804 0.013343886 0.47600001
-0.038437642 0.010569377 0.47843754
-0.033479843 0.0089962659 0.48125005
-0.10669512 0.018025672 0.47721061
-0.10148522 0.017723782 0.47703347
-0.094632432 0.017723195 0.47697231
-0.08761315 0.018086314 0.47666678
-0.081866488 0.019249158 0.47625002
-0.044416122 0.018653423 0.47687501
-0.039848812 0.017263636 0.48008001
-0.10620334 0.023071762 0.47700006
-0.10133199 0.024318423 0.47607994
-0.094372801 0.02448014 0.47620684
-0.087182611 0.024565939 0.4770335
-0.080406502 0.024657277 0.47679177
-0.073963858 0.026787644 0.47600004
-0.06617301 0.026815997 0.47650003
-0.059567399 0.025991905 0.47750002
-0.052294523 0.024914848 0.47833329
-0.045128454 0.024696436 0.4795
-0.04008805 0.024168998 0.48150003
-0.099715479 0.029093705 0.47650003
-0.09441527 0.031168764 0.47712123
-0.087328456 0.031459484 0.47783333
-0.080351979 0.031559702 0.47780645
-0.073771656 0.031220144 0.47842425
-0.066791534 0.030214367 0.47959089
-0.059691422 0.029498043 0.48100001
-0.052408095 0.028745433 0.4815715
-0.045335028 0.029199874 0.48166665
-0.040967852 0.028591342 0.48200002
-0.092537381 0.035906088 0.47900003
-0.086771816 0.036573615 0.47881821
-0.079885326 0.037711143 0.48000005
-0.07599479 0.036056012 0.48100004
0.042142201 -0.14289738 0.48400003
0.082265921 -0.10506754 0.49000001
0.080120727 -0.10140644 0.48475003
0.078703523 -0.095608331 0.48575002
0.06892404 -0.085204355 0.48600003
0.07019107 -0.086471386 0.48600003
-0.054904178 -0.054457314 0.48300001
0.022980697 -0.042742591 0.48440003
-0.075517721 -0.037057102 0.48600003
0.020691279 -0.039427716 0.48400003
0.022961752 -0.040138748 0.48750004
-0.079458803 -0.032421112 0.48300001
-0.092145562 -0.017960049 0.4835
-0.090162106 -0.020458598 0.48300001
-0.0076837353 -0.014162539 0.48300001
-0.002943801 -0.015521856 0.48353332
0.0016039887 -0.016868014 0.48400003
-0.098122008 -0.0078990534 0.48500001
-0.0096462527 -0.0099887569 0.48420832
-0.0041731792 -0.011515598 0.48584622
-0.10527264 -0.00031120991 0.48300001
-0.10212462 -0.0034592394 0.48300001
-0.015298993 -0.0027154551 0.48309088
-0.011098287 -0.0045653321 0.48481825
-0.1075945 0.0043156836 0.484
-0.02846073 0.0059848488 0.48300001
-0.024363644 0.0046456461 0.48333338
-0.01820348 0.0032629443 0.48370838
-0.013377829 0.00094996463 0.48400003
-0.10853356 0.0072515598 0.4835
-0.030644992 0.011086958 0.4835417
-0.02516491 0.0098398086 0.48420843
-0.020570548 0.0076955319 0.48500001
-0.036576968 0.018228555 0.48328573
-0.032001343 0.017135054 0.48437038
-0.02683723 0.015250579 0.48400006
-0.037398789 0.023520449 0.48324993
-0.034032907 0.022009833 0.48466668
-0.071903534 0.034946717 0.48300001
-0.065849282 0.033258893 0.48362499
-0.059195507 0.032697733 0.48462498
-0.052610733 0.031955596 0.48384219
-0.046908841 0.032326505 0.48318177
-0.077569984 0.040613174 0.48300001
-0.073354773 0.03890311 0.48570004
-0.066997766 0.037405431 0.48813641
-0.059820905 0.036051933 0.48800001
-0.053211387 0.035495155 0.48557144
-0.07287053 0.04307396 0.48950002
0.082340725 -0.10120711 0.49300003
0.080524378 -0.095815688 0.49500003
0.070058592 -0.085319005 0.49400002
-0.0042088386 -0.0093326541 0.49400005
-0.10189603 -0.0067167059 0.49100003
-0.0058909003 -0.0067167059 0.49100003
-0.066100985 0.040480647 0.49244446
-0.059519146 0.03884856 0.4934445
-0.070605524 0.043249957 0.49150002
-0.067168906 0.04222475 0.49450004
0.029819049 -0.14812541 0.49950001
0.038290549 -0.15141062 0.49960002
0.042569652 -0.1527441 0.50400001
0.051664662 -0.14719564 0.50300002
0.027892947 -0.14631772 0.5
0.055598721 -0.14457293 0.50300002
0.085077852 -0.10569642 0.49900001
0.083609037 -0.10029134 0.49800003
0.085305177 -0.10336744 0.50033337
-0.097051613 -0.019835392 0.49900001
-0.06310086 0.041225292 0.49800003
-0.06067111 0.041201215 0.50300002
-0.066956207 0.043213416 0.50099999
0.039026313 -0.15564756 0.50919998
0.045735642 -0.1545625 0.51000005
0.027041439 -0.14946994 0.50850004
0.029274786 -0.15101169 0.50699997
0.046411928 -0.15297243 0.50766665
0.051709484 -0.14943899 0.50766671
0.058026135 -0.14373733 0.50699997
0.08828292 -0.11068562 0.51000005
0.08083456 -0.095118217 0.505
-0.063291773 -0.056171916 0.51000005
-0.10032353 -0.020232894 0.509
-0.060157012 0.041887548 0.50600004
-0.065736316 0.043848295 0.50833338
0.039624125 -0.16207536 0.51700002
0.0266286 -0.15508623 0.5176667
0.030090971 -0.15573129 0.51533335
0.038545839 -0.1599188 0.51700002
0.04635106 -0.15676999 0.51433337
0.052624334 -0.15523551 0.51666671
0.059957653 -0.15428607 0.51800001
0.025405854 -0.15125848 0.51574999
0.029897196 -0.15383381 0.51200002
0.053986117 -0.15243785 0.51575005
0.06013288 -0.15048768 0.51642102
0.064009026 -0.1502347 0.51800001
0.023495259 -0.14618333 0.51800001
0.06086982 -0.14512245 0.51425004
0.063978136 -0.14408906 0.51775002
0.088888779 -0.11345527 0.51350003
0.091018207 -0.11377232 0.51800001
0.090549648 -0.11005119 0.51533335
0.091018207 -0.10702002 0.51800001
0.087901287 -0.10129672 0.51442862
0.091018207 -0.1043191 0.51800001
-0.036771677 -0.082926251 0.51100004
-0.078677811 -0.044642355 0.51500005
-0.075405754 -0.045624375 0.51100004
-0.093319446 -0.033420004 0.51800001
-0.1012277 -0.023919223 0.51700002
-0.067034744 0.045163862 0.51324999
-0.062205154 0.043719053 0.51200002
0.020834485 -0.14781862 0.51900005
0.02218755 -0.14781862 0.51900005
0.065485671 -0.14849515 0.51900005
0.020834485 -0.14511247 0.51900005
0.02218755 -0.14578901 0.51900005
0.06590905 -0.14325754 0.51928574
0.067755684 -0.13910213 0.51980001
0.073072731 -0.13507709 0.52100003
0.076151498 -0.13163611 0.52100003
0.0803653 -0.12870477 0.52160001
0.10926136 -0.12810853 0.52200001
0.11475892 -0.12825975 0.52199996
0.13186723 -0.12689885 0.52200001
0.082194842 -0.12508434 0.52200001
0.10825869 -0.12305145 0.523
0.094044253 -0.11373527 0.52280009
0.093098775 -0.10860928 0.52100003
0.088108324 -0.10045981 0.52075005
0.092105858 -0.1027902 0.52225006
0.084591269 -0.097943522 0.52000004
-0.038849559 -0.084549069 0.52100003
0.076604262 -0.088623911 0.52100003
0.077812903 -0.089809477 0.52000004
-0.081674233 -0.044501472 0.52125001
-0.09182249 -0.03565098 0.52100003
-0.089218207 -0.038418371 0.52166671
-0.098613888 -0.02885958 0.52100003
-0.0963898 -0.030839 0.52000004
-0.10257371 -0.024824359 0.52180004
-0.10580991 -0.020108957 0.523
-0.10969026 -0.011223436 0.52200001
-0.064408682 0.045669843 0.51900005
-0.061702549 0.044316776 0.51900005
0.094985604 -0.10778189 0.52500004
0.089054532 -0.099797755 0.52500004
0.094033815 -0.10259982 0.52580005
0.10270876 -0.10455889 0.52600002
-0.044091571 -0.086312965 0.52846676
-0.039560609 -0.086933009 0.52825004
0.076256961 -0.088438101 0.528
0.078246936 -0.089041315 0.52750003
-0.049883746 -0.077719145 0.53000003
-0.044909019 -0.082524627 0.52833331
-0.04059371 -0.082617849 0.52600002
-0.056668889 -0.071405478 0.53100002
-0.053358752 -0.07374011 0.53020006
-0.065153055 -0.065353505 0.53150004
-0.060372122 -0.068188943 0.53110009
-0.07099992 -0.05942056 0.53162503
-0.06717623 -0.060625929 0.53015387
-0.084514759 -0.050735589 0.53200001
-0.079860047 -0.051891863 0.53107703
-0.074667357 -0.052927967 0.5307858
-0.069919027 -0.055611245 0.53000003
-0.085840531 -0.045845903 0.53066671
-0.081348754 -0.047785036 0.52857149
-0.099308982 -0.035016727 0.53200001
-0.093991019 -0.037950914 0.52937502
-0.089650325 -0.041470043 0.53025001
-0.10727294 -0.028615609 0.5316
-0.10108829 -0.030883897 0.52950007
-0.096606828 -0.034251589 0.52733332
-0.10887655 -0.024020283 0.52960002
-0.10354388 -0.027396964 0.52766669
-0.10926431 -0.016638022 0.52890909
-0.1130722 -0.01211987 0.53149998
-0.11097994 -0.011864061 0.53033334
-0.1157955 -0.005813106 0.52500004
-0.064392053 0.04801954 0.53000003
-0.079147801 -0.057075083 0.53400004
-0.073371843 -0.059538893 0.53300005
-0.1193959 -0.051951542 0.53500003
-0.11521157 -0.051254153 0.53499997
-0.10998115 -0.051602848 0.53500003
-0.08735913 -0.051605571 0.53383332
-0.080530845 -0.054785106 0.53316671
-0.07517828 -0.055926025 0.53300005
-0.117523 -0.045061715 0.53600001
-0.099124074 -0.042732734 0.53600001
-0.094338797 -0.043884065 0.53526676
-0.088781208 -0.046402201 0.53355557
-0.12124224 -0.03712764 0.53700006
-0.11587562 -0.037368044 0.537
-0.10822745 -0.036499258 0.53653848
-0.10119212 -0.037960179 0.53535014
-0.09574952 -0.040145464 0.53380007
-0.12754597 -0.032138925 0.53800005
-0.12236783 -0.032030404 0.53750002
-0.1154291 -0.031088898 0.53600001
-0.10852469 -0.031854957 0.5345
-0.10283478 -0.032797784 0.53350002
-0.12006542 -0.026294753 0.53800005
-0.11585043 -0.024209216 0.53547621
-0.11533016 -0.017341182 0.53552169
-0.11667912 -0.010635618 0.53590912
-0.063604742 0.048472553 0.53500003
-0.061800666 0.047999062 0.53750002
-0.066431329 0.049898405 0.5353334
-0.12075699 -0.024704218 0.53900003
-0.12063482 -0.016756475 0.5395
-0.11888338 -0.014399366 0.53900003
-0.12215428 -0.010030732 0.54024994
-0.11888338 -0.012994159 0.53900003
-0.12672701 -0.0010573652 0.54250002
-0.1235026 -0.0045815799 0.54144448
-0.12731674 0.0017703177 0.54200006
-0.060253404 0.047032535 0.54250002
-0.072143957 0.051884927 0.54150003
-0.066354863 0.051610861 0.54285717
-0.061838247 0.049287979 0.54400003
-0.031376291 0.025601914 0.54700005
-0.026052317 0.025316702 0.54700005
-0.050916612 0.040304445 0.54857147
-0.046304733 0.039543137 0.54900002
-0.057933364 0.045800362 0.54854548
-0.052718099 0.044149932 0.54946667
-0.047801062 0.044076666 0.54975003
-0.025239272 0.045529943 0.55000001
-0.13470259 0.055769201 0.55200005
-0.12868276 0.054607026 0.55155557
-0.12247025 0.055769201 0.55200005
-0.11599431 0.055769198 0.55200005
-0.10785125 0.053036485 0.55135721
-0.10214812 0.052972987 0.55126315
-0.094564162 0.054509055 0.55171436
-0.086707152 0.055034116 0.55183339
-0.08003924 0.054185074 0.55050004
-0.074218914 0.053444594 0.54714286
-0.066483445 0.054593932 0.54936367
-0.060429391 0.05246523 0.5501765
-0.029594637 0.051358689 0.551
-0.02384867 0.051358689 0.551
-0.1332635 0.0572083 0.55200005
-0.12966573 0.0572083 0.55200005
-0.11383566 0.0572083 0.55200005
-0.10801385 0.058385741 0.55200005
-0.10160329 0.060086492 0.55200005
-0.094407804 0.060086489 0.55200005
-0.087212324 0.060086492 0.55200005
-0.080736384 0.059526846 0.55200005
-0.073972605 0.057496119 0.55200005
-0.066525266 0.05774796 0.55200005
-0.061668307 0.057568073 0.55200005
-0.030128052 0.057687998 0.55200005
-0.023532178 0.0572083 0.55200005
-0.10160331 0.064979441 0.55200005
-0.09224917 0.064403795 0.55200005
-0.086612701 0.06560304 0.55200005
-0.082415327 0.0648835 0.55200005
-0.11332103 0.061637059 0.55300003
-0.1089959 0.061637055 0.55300003
-0.10787346 0.065903194 0.55325001
-0.10179947 0.06721995 0.55306667
-0.094856851 0.066950992 0.5532223
-0.088271372 0.068124734 0.55300003
-0.080094673 0.06637153 0.55320001
-0.075836666 0.063078761 0.55300003
-0.066465572 0.063078761 0.55300003
-0.062861308 0.063078761 0.55300003
-0.022205189 0.066394694 0.55300003
-0.018456753 0.066538855 0.55300003
-0.10702653 0.070414394 0.55400002
-0.10213192 0.071056314 0.55399996
-0.094749875 0.070414394 0.55400002
-0.087849259 0.071056314 0.55399996
-0.082473204 0.070414394 0.55400002
-0.036320623 0.076329172 0.55500001
-0.031460881 0.074311741 0.55433339
-0.022799706 0.071493067 0.55340004
-0.017891647 0.070626475 0.55340004
0.0039481707 0.076283328 0.5546667
0.011005959 0.075549729 0.55399996
0.017585609 0.075389244 0.55399996
0.022239506 0.076191649 0.55400002
-0.050156582 0.083714344 0.55600005
-0.045807995 0.082989581 0.55600005
-0.035597164 0.078499556 0.55500001
-0.034150243 0.077776097 0.55500001
-0.00087107532 0.077776097 0.55500001
0.0034673922 0.077748075 0.55480003
0.010882134 0.078915179 0.5535714
0.01768538 0.07890518 0.5535
0.022961663 0.077635959 0.55400002
-0.052225132 0.086967185 0.55640012
-0.047961041 0.085849695 0.55575007
