# .PCD v0.7 - Point Cloud Data file format
VERSION 0.7
FIELDS x y z
SIZE 4 4 4
TYPE F F F
COUNT 1 1 1
WIDTH 1325
HEIGHT 1
VIEWPOINT 0 0 0 1 0 0 0
POINTS 1325
DATA ascii
0.053707242 -0.099492528 0.46400002
0.054916918 -0.099492528 0.46400002
0.056247558 -0.099706955 0.46500003
0.057459842 -0.099706955 0.46500003
0.058672126 -0.099706955 0.46500003
0.060013194 -0.099921376 0.46600002
0.061228085 -0.099921376 0.46600002
0.062576972 -0.1001358 0.46700001
0.063794471 -0.1001358 0.46700001
0.065151185 -0.10035022 0.46800002
0.066513114 -0.10056464 0.46900001
0.067735828 -0.10056464 0.46900001
0.069105573 -0.10077907 0.47000003
0.070480533 -0.10099349 0.47100002
0.071708456 -0.10099349 0.47100002
0.073246092 -0.10142234 0.47300002
0.074479237 -0.10142234 0.47300002
0.075872444 -0.10163677 0.47400004
0.077596217 -0.10228004 0.47700003
0.079666197 -0.10335215 0.48200002
0.082265921 -0.10506754 0.49000001
0.090315364 -0.1102137 0.514
0.092725307 -0.11150025 0.52000004
0.094804682 -0.11235794 0.52400005
-0.0044417996 -0.10018919 0.47300002
-0.0032018749 -0.099977382 0.47200003
-0.001967164 -0.099765562 0.47100002
-0.00073766743 -0.099553749 0.47000003
0.00048765255 -0.099553749 0.47000003
0.0017093278 -0.099341929 0.46900001
0.0029320407 -0.099341929 0.46900001
0.0041547539 -0.099341929 0.46900001
0.0053774663 -0.099341929 0.46900001
0.0065861065 -0.099130116 0.46800002
0.0078062126 -0.099130116 0.46800002
0.0090263179 -0.099130116 0.46800002
0.01022453 -0.098918296 0.46700001
0.011442029 -0.098918296 0.46700001
0.012659527 -0.098918296 0.46700001
0.013847311 -0.098706484 0.46600002
0.015062203 -0.098706484 0.46600002
0.016242165 -0.098494671 0.46500003
0.017416913 -0.098282851 0.46400002
0.018626591 -0.098282851 0.46400002
0.019793518 -0.098071031 0.46300003
0.021000588 -0.098071031 0.46300003
0.022207659 -0.098071031 0.46300003
0.023364156 -0.097859211 0.46200001
0.024568621 -0.097859211 0.46200001
0.025717299 -0.097647399 0.46100003
0.026919154 -0.097647399 0.46100003
0.028121011 -0.097647399 0.46100003
0.029322866 -0.097647399 0.46100003
0.03045851 -0.097435579 0.46000001
0.031657759 -0.097435579 0.46000001
0.032857008 -0.097435579 0.46000001
0.034056257 -0.097435579 0.46000001
0.035255507 -0.097435579 0.46000001
0.036534004 -0.097647399 0.46100003
0.037735865 -0.097647399 0.46100003
0.038937721 -0.097647399 0.46100003
0.040226646 -0.097859211 0.46200001
0.041431107 -0.097859211 0.46200001
0.042635571 -0.097859211 0.46200001
0.043840036 -0.097859211 0.46200001
0.045044497 -0.097859211 0.46200001
0.046248965 -0.097859211 0.46200001
0.04755614 -0.098071031 0.46300003
0.048763212 -0.098071031 0.46300003
0.04997028 -0.098071031 0.46300003
0.051287882 -0.098282851 0.46400002
0.052497562 -0.098282851 0.46400002
0.053707242 -0.098282851 0.46400002
0.055035274 -0.098494671 0.46500003
0.056247558 -0.098494671 0.46500003
0.05758341 -0.098706484 0.46600002
0.058798302 -0.098706484 0.46600002
0.060141977 -0.098918296 0.46700001
0.061359476 -0.098918296 0.46700001
0.062710971 -0.099130116 0.46800002
0.064067684 -0.099341929 0.46900001
0.065290391 -0.099341929 0.46900001
0.066654935 -0.099553749 0.47000003
0.06802468 -0.099765562 0.47100002
0.069252603 -0.099765562 0.47100002
0.07063017 -0.099977382 0.47200003
0.072012953 -0.10018919 0.47300002
0.073246092 -0.10018919 0.47300002
0.074636698 -0.10040101 0.47400004
0.076032512 -0.10061283 0.47500002
0.077758893 -0.10124828 0.47800002
0.079666197 -0.10209554 0.48200002
0.082433812 -0.10400189 0.49100003
0.085077852 -0.10569642 0.49900001
0.092725307 -0.11014458 0.52000004
0.094804682 -0.11099184 0.52400005
-0.005650945 -0.098537639 0.47100002
-0.0044230181 -0.098537639 0.47100002
-0.0031950912 -0.098537639 0.47100002
-0.0019629875 -0.098328426 0.47000003
-0.00073766743 -0.098328426 0.47000003
0.00048661497 -0.098119214 0.46900001
0.0017093278 -0.098119214 0.46900001
0.0029257892 -0.097910009 0.46800002
0.0041458951 -0.097910009 0.46800002
0.0053660008 -0.097910009 0.46800002
0.0065861065 -0.097910009 0.46800002
0.0077895327 -0.097700797 0.46700001
0.0090070311 -0.097700797 0.46700001
0.01022453 -0.097700797 0.46700001
0.011417528 -0.097491592 0.46600002
0.012632419 -0.097491592 0.46600002
0.013817596 -0.097282387 0.46500003
0.01502988 -0.097282387 0.46500003
0.016207235 -0.097073168 0.46400002
0.017416913 -0.097073168 0.46400002
0.018586447 -0.096863963 0.46300003
0.019793518 -0.096863963 0.46300003
0.021000588 -0.096863963 0.46300003
0.022159694 -0.09665475 0.46200001
0.023364156 -0.09665475 0.46200001
0.024568621 -0.09665475 0.46200001
0.025717299 -0.096445546 0.46100003
0.026919154 -0.096445546 0.46100003
0.028121011 -0.096445546 0.46100003
0.029259259 -0.096236333 0.46000001
0.03045851 -0.096236333 0.46000001
0.031657759 -0.096236333 0.46000001
0.032857008 -0.096236333 0.46000001
0.034056257 -0.096236333 0.46000001
0.035332151 -0.096445546 0.46100003
0.036534004 -0.096445546 0.46100003
0.037735865 -0.096445546 0.46100003
0.038937721 -0.096445546 0.46100003
0.040226646 -0.09665475 0.46200001
0.041431107 -0.09665475 0.46200001
0.042635571 -0.09665475 0.46200001
0.043840036 -0.09665475 0.46200001
0.045044497 -0.09665475 0.46200001
0.046349071 -0.096863963 0.46300003
0.04755614 -0.096863963 0.46300003
0.048763212 -0.096863963 0.46300003
0.050078206 -0.097073168 0.46400002
0.051287882 -0.097073168 0.46400002
0.052497562 -0.097073168 0.46400002
0.053822991 -0.097282387 0.46500003
0.055035274 -0.097282387 0.46500003
0.056368522 -0.097491592 0.46600002
0.057706978 -0.097700797 0.46700001
0.058924478 -0.097700797 0.46700001
0.060270764 -0.097910009 0.46800002
0.061622258 -0.098119214 0.46900001
0.062844969 -0.098119214 0.46900001
0.064204291 -0.098328426 0.47000003
0.06556882 -0.098537639 0.47100002
0.06679675 -0.098537639 0.47100002
0.06816911 -0.098746851 0.47200003
0.06954667 -0.098956056 0.47300002
0.070779815 -0.098956056 0.47300002
0.072165199 -0.099165268 0.47400004
0.073400952 -0.099165268 0.47400004
0.074794158 -0.099374473 0.47500002
0.07619258 -0.099583685 0.47600001
0.077758893 -0.1000021 0.47800002
0.079831481 -0.10104815 0.48300001
0.082601696 -0.10293103 0.49200001
0.085077852 -0.1043955 0.49900001
0.090666793 -0.10795207 0.51600003
0.092725307 -0.1087889 0.52000004
0.094985604 -0.10983495 0.52500004
-0.005650945 -0.097309709 0.47100002
-0.0044230181 -0.097309709 0.47100002
-0.0031883074 -0.097103111 0.47000003
-0.0019629875 -0.097103111 0.47000003
-0.00073766743 -0.097103111 0.47000003
0.00048661497 -0.096896507 0.46900001
0.0017093278 -0.096896507 0.46900001
0.0029257892 -0.096689902 0.46800002
0.0041458951 -0.096689902 0.46800002
0.0053545348 -0.096483298 0.46700001
0.0065720333 -0.096483298 0.46700001
0.0077895327 -0.096483298 0.46700001
0.0089877443 -0.0962767 0.46600002
0.010202636 -0.0962767 0.46600002
0.011417528 -0.0962767 0.46600002
0.012605311 -0.096070096 0.46500003
0.013817596 -0.096070096 0.46500003
0.014997558 -0.095863491 0.46400002
0.016207235 -0.095863491 0.46400002
0.017379377 -0.095656894 0.46300003
0.018586447 -0.095656894 0.46300003
0.019793518 -0.095656894 0.46300003
0.020955231 -0.09545029 0.46200001
0.022159694 -0.09545029 0.46200001
0.023364156 -0.09545029 0.46200001
0.024568621 -0.09545029 0.46200001
0.025717299 -0.095243685 0.46100003
0.026919154 -0.095243685 0.46100003
0.028121011 -0.095243685 0.46100003
0.029322866 -0.095243685 0.46100003
0.030524725 -0.095243685 0.46100003
0.031657759 -0.09503708 0.46000001
0.032928437 -0.095243685 0.46100003
0.034130294 -0.095243685 0.46100003
0.035332151 -0.095243685 0.46100003
0.036534004 -0.095243685 0.46100003
0.037735865 -0.095243685 0.46100003
0.039022181 -0.09545029 0.46200001
0.040226646 -0.09545029 0.46200001
0.041431107 -0.09545029 0.46200001
0.042635571 -0.09545029 0.46200001
0.043840036 -0.09545029 0.46200001
0.045044497 -0.09545029 0.46200001
0.046349071 -0.095656894 0.46300003
0.04755614 -0.095656894 0.46300003
0.048763212 -0.095656894 0.46300003
0.050078206 -0.095863491 0.46400002
0.051287882 -0.095863491 0.46400002
0.052610703 -0.096070096 0.46500003
0.053822991 -0.096070096 0.46500003
0.055153631 -0.0962767 0.46600002
0.056368522 -0.0962767 0.46600002
0.057706978 -0.096483298 0.46700001
0.059050657 -0.096689902 0.46800002
0.060399543 -0.096896507 0.46900001
0.061622258 -0.096896507 0.46900001
0.062978968 -0.097103111 0.47000003
0.064340889 -0.097309709 0.47100002
0.06556882 -0.097309709 0.47100002
0.066938572 -0.097516313 0.47200003
0.068313532 -0.097722918 0.47300002
0.06954667 -0.097722918 0.47300002
0.070929453 -0.097929522 0.47400004
0.072165199 -0.097929522 0.47400004
0.073555805 -0.09813612 0.47500002
0.074794158 -0.09813612 0.47500002
0.07619258 -0.098342724 0.47600001
0.077921569 -0.09896253 0.47900003
0.080162048 -0.10020214 0.48500001
0.082769588 -0.10185497 0.49300003
0.085248344 -0.10330117 0.5
0.091018207 -0.10702002 0.51800001
0.092725307 -0.10743323 0.52000004
0.094985604 -0.10846624 0.52500004
-0.0068788719 -0.096081786 0.47100002
-0.005650945 -0.096081786 0.47100002
-0.0044136276 -0.095877789 0.47000003
-0.0031883074 -0.095877789 0.47000003
-0.0019629875 -0.095877789 0.47000003
-0.00073766743 -0.095877789 0.47000003
0.00048661497 -0.095673792 0.46900001
0.0017093278 -0.095673792 0.46900001
0.0029257892 -0.095469803 0.46800002
0.0041370359 -0.095265798 0.46700001
0.0053545348 -0.095265798 0.46700001
0.0065579605 -0.095061809 0.46600002
0.0077728527 -0.095061809 0.46600002
0.0089877443 -0.095061809 0.46600002
0.010180742 -0.094857812 0.46500003
0.011393027 -0.094857812 0.46500003
0.012605311 -0.094857812 0.46500003
0.013787881 -0.094653815 0.46400002
0.014997558 -0.094653815 0.46400002
0.016172305 -0.094449826 0.46300003
0.017379377 -0.094449826 0.46300003
0.018586447 -0.094449826 0.46300003
0.019793518 -0.094449826 0.46300003
0.020955231 -0.094245829 0.46200001
0.022159694 -0.094245829 0.46200001
0.023364156 -0.094245829 0.46200001
0.024568621 -0.094245829 0.46200001
0.025717299 -0.094041832 0.46100003
0.026919154 -0.094041832 0.46100003
0.028121011 -0.094041832 0.46100003
0.029322866 -0.094041832 0.46100003
0.030524725 -0.094041832 0.46100003
0.03172658 -0.094041832 0.46100003
0.032928437 -0.094041832 0.46100003
0.034130294 -0.094041832 0.46100003
0.035332151 -0.094041832 0.46100003
0.036534004 -0.094041832 0.46100003
0.03781772 -0.094245829 0.46200001
0.039022181 -0.094245829 0.46200001
0.040226646 -0.094245829 0.46200001
0.041431107 -0.094245829 0.46200001
0.042635571 -0.094245829 0.46200001
0.043840036 -0.094245829 0.46200001
0.045141999 -0.094449826 0.46300003
0.046349071 -0.094449826 0.46300003
0.04755614 -0.094449826 0.46300003
0.048868529 -0.094653815 0.46400002
0.050078206 -0.094653815 0.46400002
0.051398419 -0.094857812 0.46500003
0.052610703 -0.094857812 0.46500003
0.053938739 -0.095061809 0.46600002
0.055153631 -0.095061809 0.46600002
0.056489483 -0.095265798 0.46700001
0.05783055 -0.095469803 0.46800002
0.059176832 -0.095673792 0.46900001
0.060528331 -0.095877789 0.47000003
0.061753649 -0.095877789 0.47000003
0.063112967 -0.096081786 0.47100002
0.064340889 -0.096081786 0.47100002
0.065708034 -0.096285783 0.47200003
0.067080393 -0.096489772 0.47300002
0.068313532 -0.096489772 0.47300002
0.069693707 -0.096693777 0.47400004
0.070929453 -0.096693777 0.47400004
0.072317444 -0.096897766 0.47500002
0.073555805 -0.096897766 0.47500002
0.074951619 -0.097101755 0.47600001
0.076512717 -0.097509749 0.47800002
0.078409597 -0.098325737 0.48200002
0.080657899 -0.099549711 0.48800004
0.08310537 -0.10097767 0.49500003
0.085589342 -0.10240564 0.50200003
0.092903629 -0.10628155 0.52100003
0.094985604 -0.10709754 0.52500004
-0.0080895871 -0.094652474 0.47000003
-0.0068642669 -0.094652474 0.47000003
-0.0056389472 -0.094652474 0.47000003
-0.0044136276 -0.094652474 0.47000003
-0.0031883074 -0.094652474 0.47000003
-0.0019629875 -0.094652474 0.47000003
-0.00073609792 -0.094451077 0.46900001
0.00048661497 -0.094451077 0.46900001
0.0017056833 -0.094249696 0.46800002
0.0029195372 -0.094048299 0.46700001
0.0041370359 -0.094048299 0.46700001
0.0053430693 -0.093846917 0.46600002
0.0065579605 -0.093846917 0.46600002
0.0077728527 -0.093846917 0.46600002
0.0089684576 -0.093645528 0.46500003
0.010180742 -0.093645528 0.46500003
0.011393027 -0.093645528 0.46500003
0.012578202 -0.093444139 0.46400002
0.013787881 -0.093444139 0.46400002
0.014997558 -0.093444139 0.46400002
0.016172305 -0.093242757 0.46300003
0.017379377 -0.093242757 0.46300003
0.018586447 -0.093242757 0.46300003
0.019793518 -0.093242757 0.46300003
0.020955231 -0.09304136 0.46200001
0.022159694 -0.09304136 0.46200001
0.023364156 -0.09304136 0.46200001
0.024568621 -0.09304136 0.46200001
0.025773084 -0.09304136 0.46200001
0.026919154 -0.092839979 0.46100003
0.028121011 -0.092839979 0.46100003
0.029322866 -0.092839979 0.46100003
0.030524725 -0.092839979 0.46100003
0.03172658 -0.092839979 0.46100003
0.032928437 -0.092839979 0.46100003
0.034130294 -0.092839979 0.46100003
0.035332151 -0.092839979 0.46100003
0.036613252 -0.09304136 0.46200001
0.03781772 -0.09304136 0.46200001
0.039022181 -0.09304136 0.46200001
0.040226646 -0.09304136 0.46200001
0.041431107 -0.09304136 0.46200001
0.042635571 -0.09304136 0.46200001
0.043934926 -0.093242757 0.46300003
0.045141999 -0.093242757 0.46300003
0.046349071 -0.093242757 0.46300003
0.047658853 -0.093444139 0.46400002
0.048868529 -0.093444139 0.46400002
0.050186135 -0.093645528 0.46500003
0.051398419 -0.093645528 0.46500003
0.052723844 -0.093846917 0.46600002
0.054054484 -0.094048299 0.46700001
0.055271983 -0.094048299 0.46700001
0.056610446 -0.094249696 0.46800002
0.057954118 -0.094451077 0.46900001
0.059303012 -0.094652474 0.47000003
0.060528331 -0.094652474 0.47000003
0.06188504 -0.094853856 0.47100002
0.063246965 -0.095055252 0.47200003
0.064477496 -0.095055252 0.47200003
0.06584724 -0.095256634 0.47300002
0.067080393 -0.095256634 0.47300002
0.068457961 -0.095458023 0.47400004
0.069693707 -0.095458023 0.47400004
0.070929453 -0.095458023 0.47400004
0.072317444 -0.095659412 0.47500002
0.073555805 -0.095659412 0.47500002
0.075109079 -0.096062191 0.47700003
0.076992922 -0.09686774 0.48100004
0.078897618 -0.097673289 0.48500001
0.081153743 -0.098881625 0.49100003
0.083609037 -0.10029134 0.49800003
0.088629127 -0.10311078 0.51200002
0.091018207 -0.1043191 0.51800001
0.093081944 -0.10512466 0.52200001
0.094985604 -0.10572883 0.52500004
-0.010517801 -0.09322837 0.46900001
-0.0092950882 -0.09322837 0.46900001
-0.0081067989 -0.093625933 0.47100002
-0.0068642669 -0.093427151 0.47000003
-0.0056389472 -0.093427151 0.47000003
-0.0044136276 -0.093427151 0.47000003
-0.0031883074 -0.093427151 0.47000003
-0.0019588107 -0.09322837 0.46900001
-0.00073609792 -0.09322837 0.46900001
0.00048557742 -0.093029588 0.46800002
0.0017056833 -0.093029588 0.46800002
0.0029195372 -0.092830807 0.46700001
0.0041281777 -0.092632025 0.46600002
0.0053430693 -0.092632025 0.46600002
0.0065579605 -0.092632025 0.46600002
0.0077561731 -0.092433244 0.46500003
0.0089684576 -0.092433244 0.46500003
0.010180742 -0.092433244 0.46500003
0.011368525 -0.092234462 0.46400002
0.012578202 -0.092234462 0.46400002
0.013787881 -0.092234462 0.46400002
0.014965235 -0.092035681 0.46300003
0.016172305 -0.092035681 0.46300003
0.017379377 -0.092035681 0.46300003
0.018586447 -0.092035681 0.46300003
0.019793518 -0.092035681 0.46300003
0.020955231 -0.0918369 0.46200001
0.022159694 -0.0918369 0.46200001
0.023364156 -0.0918369 0.46200001
0.024568621 -0.0918369 0.46200001
0.025773084 -0.0918369 0.46200001
0.026977547 -0.0918369 0.46200001
0.028121011 -0.091638118 0.46100003
0.029322866 -0.091638118 0.46100003
0.030524725 -0.091638118 0.46100003
0.03172658 -0.091638118 0.46100003
0.032928437 -0.091638118 0.46100003
0.034204327 -0.0918369 0.46200001
0.035408791 -0.0918369 0.46200001
0.036613252 -0.0918369 0.46200001
0.03781772 -0.0918369 0.46200001
0.039022181 -0.0918369 0.46200001
0.040226646 -0.0918369 0.46200001
0.041520789 -0.092035681 0.46300003
0.042727858 -0.092035681 0.46300003
0.043934926 -0.092035681 0.46300003
0.045239497 -0.092234462 0.46400002
0.046449177 -0.092234462 0.46400002
0.047658853 -0.092234462 0.46400002
0.048973851 -0.092433244 0.46500003
0.05029406 -0.092632025 0.46600002
0.051508952 -0.092632025 0.46600002
0.052836984 -0.092830807 0.46700001
0.054054484 -0.092830807 0.46700001
0.055390339 -0.093029588 0.46800002
0.056731407 -0.09322837 0.46900001
0.058077693 -0.093427151 0.47000003
0.059303012 -0.093427151 0.47000003
0.060657114 -0.093625933 0.47100002
0.062016431 -0.093824714 0.47200003
0.063246965 -0.093824714 0.47200003
0.064614102 -0.094023496 0.47300002
0.06584724 -0.094023496 0.47300002
0.067222208 -0.094222277 0.47400004
0.068457961 -0.094222277 0.47400004
0.069693707 -0.094222277 0.47400004
0.07107909 -0.094421059 0.47500002
0.072317444 -0.094421059 0.47500002
0.073710658 -0.094619833 0.47600001
0.07526654 -0.095017396 0.47800002
0.07715299 -0.095812522 0.48200002
0.079060301 -0.096607648 0.48600003
0.081980154 -0.098595463 0.49600002
0.087123811 -0.10157719 0.51100004
0.089148439 -0.10237231 0.51500005
0.091369636 -0.10336621 0.52000004
0.093260258 -0.10396255 0.523
0.095166527 -0.10455889 0.52600002
0.10065179 -0.10455889 0.52600002
0.1020231 -0.10455889 0.52600002
0.10339442 -0.10455889 0.52600002
0.10476574 -0.10455889 0.52600002
-0.010517801 -0.092005655 0.46900001
-0.0092950882 -0.092005655 0.46900001
-0.0080895871 -0.092201829 0.47000003
-0.0068642669 -0.092201829 0.47000003
-0.0056389472 -0.092201829 0.47000003
-0.0044042366 -0.092005655 0.46900001
-0.0031815236 -0.092005655 0.46900001
-0.0019588107 -0.092005655 0.46900001
-0.00073609792 -0.092005655 0.46900001
0.00048557742 -0.091809481 0.46800002
0.0017020386 -0.091613308 0.46700001
0.0029195372 -0.091613308 0.46700001
0.0041281777 -0.091417134 0.46600002
0.0053430693 -0.091417134 0.46600002
0.0065438878 -0.09122096 0.46500003
0.0077561731 -0.09122096 0.46500003
0.0089684576 -0.09122096 0.46500003
0.010158848 -0.091024786 0.46400002
0.011368525 -0.091024786 0.46400002
0.012578202 -0.091024786 0.46400002
0.013787881 -0.091024786 0.46400002
0.014965235 -0.090828612 0.46300003
0.016172305 -0.090828612 0.46300003
0.017379377 -0.090828612 0.46300003
0.018586447 -0.090828612 0.46300003
0.019793518 -0.090828612 0.46300003
0.020955231 -0.090632439 0.46200001
0.022159694 -0.090632439 0.46200001
0.023364156 -0.090632439 0.46200001
0.024568621 -0.090632439 0.46200001
0.025773084 -0.090632439 0.46200001
0.026977547 -0.090632439 0.46200001
0.028182011 -0.090632439 0.46200001
0.029386472 -0.090632439 0.46200001
0.030590938 -0.090632439 0.46200001
0.031795401 -0.090632439 0.46200001
0.032999866 -0.090632439 0.46200001
0.034204327 -0.090632439 0.46200001
0.035408791 -0.090632439 0.46200001
0.036613252 -0.090632439 0.46200001
0.03781772 -0.090632439 0.46200001
0.039106648 -0.090828612 0.46300003
0.040313717 -0.090828612 0.46300003
0.041520789 -0.090828612 0.46300003
0.042820141 -0.091024786 0.46400002
0.044029817 -0.091024786 0.46400002
0.045239497 -0.091024786 0.46400002
0.046549283 -0.09122096 0.46500003
0.047761567 -0.09122096 0.46500003
0.049079169 -0.091417134 0.46600002
0.05029406 -0.091417134 0.46600002
0.051619485 -0.091613308 0.46700001
0.052950125 -0.091809481 0.46800002
0.054285981 -0.092005655 0.46900001
0.055508696 -0.092005655 0.46900001
0.056852371 -0.092201829 0.47000003
0.058077693 -0.092201829 0.47000003
0.059429187 -0.092398003 0.47100002
0.060785897 -0.092594184 0.47200003
0.062147822 -0.09279035 0.47300002
0.063380964 -0.09279035 0.47300002
0.064614102 -0.09279035 0.47300002
0.065986454 -0.092986532 0.47400004
0.067222208 -0.092986532 0.47400004
0.068457961 -0.092986532 0.47400004
0.069693707 -0.092986532 0.47400004
0.07107909 -0.093182705 0.47500002
0.072317444 -0.093182705 0.47500002
0.073710658 -0.093378872 0.47600001
0.074951619 -0.093378872 0.47600001
0.076512717 -0.093771219 0.47800002
0.07922297 -0.095536791 0.48700002
0.086127378 -0.10063732 0.51300001
0.088658281 -0.10201054 0.52000004
0.089667745 -0.10161819 0.51800001
0.091721058 -0.10240288 0.52200001
0.093616895 -0.10299141 0.52500004
0.095166527 -0.10318758 0.52600002
-0.011740513 -0.09078294 0.46900001
-0.010517801 -0.09078294 0.46900001
-0.0092950882 -0.09078294 0.46900001
-0.0080723744 -0.09078294 0.46900001
-0.0068496619 -0.09078294 0.46900001
-0.0056269495 -0.09078294 0.46900001
-0.0044042366 -0.09078294 0.46900001
-0.0031815236 -0.09078294 0.46900001
-0.0019546342 -0.090589382 0.46800002
-0.00073452841 -0.090589382 0.46800002
0.00048453984 -0.090395808 0.46700001
0.0017020386 -0.090395808 0.46700001
0.0029132857 -0.090202242 0.46600002
0.0041281777 -0.090202242 0.46600002
0.0053316033 -0.090008676 0.46500003
0.0065438878 -0.090008676 0.46500003
0.0077561731 -0.090008676 0.46500003
0.0089684576 -0.090008676 0.46500003
0.010158848 -0.08981511 0.46400002
0.011368525 -0.08981511 0.46400002
0.012578202 -0.08981511 0.46400002
0.013787881 -0.08981511 0.46400002
0.014965235 -0.089621544 0.46300003
0.016172305 -0.089621544 0.46300003
0.017379377 -0.089621544 0.46300003
0.018586447 -0.089621544 0.46300003
0.019793518 -0.089621544 0.46300003
0.020955231 -0.08942797 0.46200001
0.022159694 -0.08942797 0.46200001
0.023364156 -0.08942797 0.46200001
0.024568621 -0.08942797 0.46200001
0.025773084 -0.08942797 0.46200001
0.026977547 -0.08942797 0.46200001
0.028182011 -0.08942797 0.46200001
0.029386472 -0.08942797 0.46200001
0.030590938 -0.08942797 0.46200001
0.031795401 -0.08942797 0.46200001
0.032999866 -0.08942797 0.46200001
0.034204327 -0.08942797 0.46200001
0.035485435 -0.089621544 0.46300003
0.036692504 -0.089621544 0.46300003
0.037899576 -0.089621544 0.46300003
0.039106648 -0.089621544 0.46300003
0.040400788 -0.08981511 0.46400002
0.041610464 -0.08981511 0.46400002
0.042820141 -0.08981511 0.46400002
0.044124711 -0.090008676 0.46500003
0.045336995 -0.090008676 0.46500003
0.046649389 -0.090202242 0.46600002
0.047864281 -0.090202242 0.46600002
0.04918449 -0.090395808 0.46700001
0.050401986 -0.090395808 0.46700001
0.051730022 -0.090589382 0.46800002
0.053063266 -0.09078294 0.46900001
0.054285981 -0.09078294 0.46900001
0.055627052 -0.090976514 0.47000003
0.056852371 -0.090976514 0.47000003
0.058201261 -0.09117008 0.47100002
0.059429187 -0.09117008 0.47100002
0.06091468 -0.091557212 0.47300002
0.062147822 -0.091557212 0.47300002
0.063380964 -0.091557212 0.47300002
0.064750709 -0.091750786 0.47400004
0.065986454 -0.091750786 0.47400004
0.067222208 -0.091750786 0.47400004
0.068457961 -0.091750786 0.47400004
0.069840737 -0.091944344 0.47500002
0.07107909 -0.091944344 0.47500002
0.072317444 -0.091944344 0.47500002
0.073555805 -0.091944344 0.47500002
0.07526654 -0.09252505 0.47800002
0.076512717 -0.09252505 0.47800002
0.080524378 -0.095815688 0.49500003
0.086295269 -0.099493459 0.514
0.088317282 -0.10026772 0.51800001
0.090187058 -0.10084843 0.52100003
0.092072479 -0.10142913 0.52400005
0.093795218 -0.10181627 0.52600002
-0.014185939 -0.089560233 0.46900001
-0.012935587 -0.089369275 0.46800002
-0.011715481 -0.089369275 0.46800002
-0.010517801 -0.089560233 0.46900001
-0.0092752697 -0.089369275 0.46800002
-0.0080723744 -0.089560233 0.46900001
-0.0068496619 -0.089560233 0.46900001
-0.0056149517 -0.089369275 0.46800002
-0.004394846 -0.089369275 0.46800002
-0.0031747401 -0.089369275 0.46800002
-0.0019504576 -0.089178309 0.46700001
-0.0007329589 -0.089178309 0.46700001
0.00048453984 -0.089178309 0.46700001
0.001698394 -0.08898735 0.46600002
0.0029132857 -0.08898735 0.46600002
0.0041281777 -0.08898735 0.46600002
0.0053316033 -0.088796392 0.46500003
0.0065438878 -0.088796392 0.46500003
0.0077561731 -0.088796392 0.46500003
0.0089491699 -0.088605434 0.46400002
0.010158848 -0.088605434 0.46400002
0.011368525 -0.088605434 0.46400002
0.012578202 -0.088605434 0.46400002
0.013787881 -0.088605434 0.46400002
0.014965235 -0.088414475 0.46300003
0.016172305 -0.088414475 0.46300003
0.017379377 -0.088414475 0.46300003
0.018586447 -0.088414475 0.46300003
0.019793518 -0.088414475 0.46300003
0.020955231 -0.088223509 0.46200001
0.022159694 -0.088223509 0.46200001
0.023364156 -0.088223509 0.46200001
0.024568621 -0.088223509 0.46200001
0.025773084 -0.088223509 0.46200001
0.026977547 -0.088223509 0.46200001
0.028182011 -0.088223509 0.46200001
0.029386472 -0.088223509 0.46200001
0.030590938 -0.088223509 0.46200001
0.031864226 -0.088414475 0.46300003
0.033071294 -0.088414475 0.46300003
0.034278363 -0.088414475 0.46300003
0.035485435 -0.088414475 0.46300003
0.036692504 -0.088414475 0.46300003
0.037899576 -0.088414475 0.46300003
0.039191112 -0.088605434 0.46400002
0.040400788 -0.088605434 0.46400002
0.041700143 -0.088796392 0.46500003
0.042912427 -0.088796392 0.46500003
0.044124711 -0.088796392 0.46500003
0.045434494 -0.08898735 0.46600002
0.046649389 -0.08898735 0.46600002
0.047966991 -0.089178309 0.46700001
0.04918449 -0.089178309 0.46700001
0.050509915 -0.089369275 0.46800002
0.051840555 -0.089560233 0.46900001
0.05317641 -0.089751191 0.47000003
0.054401733 -0.089751191 0.47000003
0.055745408 -0.08994215 0.47100002
0.056973334 -0.08994215 0.47100002
0.058324832 -0.090133116 0.47200003
0.059681538 -0.090324074 0.47300002
0.06091468 -0.090324074 0.47300002
0.062279213 -0.090515032 0.47400004
0.063514963 -0.090515032 0.47400004
0.064750709 -0.090515032 0.47400004
0.065986454 -0.090515032 0.47400004
0.067222208 -0.090515032 0.47400004
0.068602383 -0.090705991 0.47500002
0.069840737 -0.090705991 0.47500002
0.071228728 -0.090896949 0.47600001
0.072317444 -0.090705991 0.47500002
0.073555805 -0.090705991 0.47500002
0.074794158 -0.090705991 0.47500002
0.077633195 -0.092615589 0.48500001
0.085781656 -0.099108234 0.51900005
0.087806277 -0.099872068 0.523
0.089510769 -0.10025399 0.52500004
0.090879478 -0.10025399 0.52500004
0.092423901 -0.10044495 0.52600002
-0.015408653 -0.088337518 0.46900001
-0.014155692 -0.088149168 0.46800002
-0.012935587 -0.088149168 0.46800002
-0.011715481 -0.088149168 0.46800002
-0.010495376 -0.088149168 0.46800002
-0.0092752697 -0.088149168 0.46800002
-0.0080723744 -0.088337518 0.46900001
-0.0068350574 -0.088149168 0.46800002
-0.0056149517 -0.088149168 0.46800002
-0.004394846 -0.088149168 0.46800002
-0.0031679564 -0.087960809 0.46700001
-0.0019504576 -0.087960809 0.46700001
-0.0007329589 -0.087960809 0.46700001
0.00048350231 -0.087772459 0.46600002
0.001698394 -0.087772459 0.46600002
0.0029132857 -0.087772459 0.46600002
0.0041193189 -0.087584108 0.46500003
0.0053316033 -0.087584108 0.46500003
0.0065438878 -0.087584108 0.46500003
0.0077394927 -0.087395757 0.46400002
0.0089491699 -0.087395757 0.46400002
0.010158848 -0.087395757 0.46400002
0.011368525 -0.087395757 0.46400002
0.012578202 -0.087395757 0.46400002
0.013787881 -0.087395757 0.46400002
0.014965235 -0.087207407 0.46300003
0.016172305 -0.087207407 0.46300003
0.017379377 -0.087207407 0.46300003
0.018586447 -0.087207407 0.46300003
0.019793518 -0.087207407 0.46300003
0.020955231 -0.087019049 0.46200001
0.022207659 -0.087207407 0.46300003
0.023414729 -0.087207407 0.46300003
0.024568621 -0.087019049 0.46200001
0.025773084 -0.087019049 0.46200001
0.026977547 -0.087019049 0.46200001
0.028243013 -0.087207407 0.46300003
0.029450081 -0.087207407 0.46300003
0.030657154 -0.087207407 0.46300003
0.031864226 -0.087207407 0.46300003
0.033071294 -0.087207407 0.46300003
0.034278363 -0.087207407 0.46300003
0.035562076 -0.087395757 0.46400002
0.036771752 -0.087395757 0.46400002
0.037981432 -0.087395757 0.46400002
0.039191112 -0.087395757 0.46400002
0.040487859 -0.087584108 0.46500003
0.041700143 -0.087584108 0.46500003
0.04300471 -0.087772459 0.46600002
0.044219602 -0.087772459 0.46600002
0.045531992 -0.087960809 0.46700001
0.046749491 -0.087960809 0.46700001
0.048069704 -0.088149168 0.46800002
0.049395129 -0.088337518 0.46900001
0.050617844 -0.088337518 0.46900001
0.051951092 -0.088525876 0.47000003
0.05317641 -0.088525876 0.47000003
0.054517481 -0.088714227 0.47100002
0.055745408 -0.088714227 0.47100002
0.057094298 -0.088902578 0.47200003
0.058324832 -0.088902578 0.47200003
0.059681538 -0.089090928 0.47300002
0.06091468 -0.089090928 0.47300002
0.062279213 -0.089279287 0.47400004
0.063514963 -0.089279287 0.47400004
0.064887315 -0.089467637 0.47500002
0.066125669 -0.089467637 0.47500002
0.06736403 -0.089467637 0.47500002
0.068602383 -0.089467637 0.47500002
0.069840737 -0.089467637 0.47500002
0.071228728 -0.089655988 0.47600001
0.072469696 -0.089655988 0.47600001
0.073555805 -0.089467637 0.47500002
0.074951619 -0.089655988 0.47600001
0.08083456 -0.095118217 0.505
0.084591269 -0.097943522 0.52000004
0.086773351 -0.098885283 0.52500004
-0.016631365 -0.087114803 0.46900001
-0.015408653 -0.087114803 0.46900001
-0.014185939 -0.087114803 0.46900001
-0.012963227 -0.087114803 0.46900001
-0.011715481 -0.086929061 0.46800002
-0.010495376 -0.086929061 0.46800002
-0.0092950882 -0.087114803 0.46900001
-0.0080551635 -0.086929061 0.46800002
-0.0068350574 -0.086929061 0.46800002
-0.0056029535 -0.08674331 0.46700001
-0.004385455 -0.08674331 0.46700001
-0.0031679564 -0.08674331 0.46700001
-0.0019462811 -0.086557567 0.46600002
-0.00073138939 -0.086557567 0.46600002
0.00048350231 -0.086557567 0.46600002
0.001698394 -0.086557567 0.46600002
0.002907034 -0.086371824 0.46500003
0.0041193189 -0.086371824 0.46500003
0.0053316033 -0.086371824 0.46500003
0.0065438878 -0.086371824 0.46500003
0.0077394927 -0.086186081 0.46400002
0.0089491699 -0.086186081 0.46400002
0.010158848 -0.086186081 0.46400002
0.011368525 -0.086186081 0.46400002
0.012578202 -0.086186081 0.46400002
0.013787881 -0.086186081 0.46400002
0.014965235 -0.086000331 0.46300003
0.016172305 -0.086000331 0.46300003
0.017379377 -0.086000331 0.46300003
0.018586447 -0.086000331 0.46300003
0.019793518 -0.086000331 0.46300003
0.021000588 -0.086000331 0.46300003
0.022207659 -0.086000331 0.46300003
0.023414729 -0.086000331 0.46300003
0.024621801 -0.086000331 0.46300003
0.02582887 -0.086000331 0.46300003
0.02703594 -0.086000331 0.46300003
0.028243013 -0.086000331 0.46300003
0.029450081 -0.086000331 0.46300003
0.030657154 -0.086000331 0.46300003
0.031864226 -0.086000331 0.46300003
0.033071294 -0.086000331 0.46300003
0.034352399 -0.086186081 0.46400002
0.035562076 -0.086186081 0.46400002
0.036771752 -0.086186081 0.46400002
0.038063291 -0.086371824 0.46500003
0.039275575 -0.086371824 0.46500003
0.040487859 -0.086371824 0.46500003
0.041789819 -0.086557567 0.46600002
0.043096993 -0.08674331 0.46700001
0.044314492 -0.08674331 0.46700001
0.04562949 -0.086929061 0.46800002
0.046849601 -0.086929061 0.46800002
0.048172418 -0.087114803 0.46900001
0.049395129 -0.087114803 0.46900001
0.050725769 -0.087300554 0.47000003
0.051951092 -0.087300554 0.47000003
0.053289551 -0.087486297 0.47100002
0.054517481 -0.087486297 0.47100002
0.055863764 -0.087672047 0.47200003
0.057215258 -0.08785779 0.47300002
0.0584484 -0.08785779 0.47300002
0.059681538 -0.08785779 0.47300002
0.061043467 -0.088043541 0.47400004
0.062279213 -0.088043541 0.47400004
0.063648954 -0.088229284 0.47500002
0.064887315 -0.088229284 0.47500002
0.066125669 -0.088229284 0.47500002
0.06736403 -0.088229284 0.47500002
0.068602383 -0.088229284 0.47500002
0.069840737 -0.088229284 0.47500002
0.071228728 -0.088415027 0.47600001
0.072469696 -0.088415027 0.47600001
0.073710658 -0.088415027 0.47600001
-0.017892146 -0.086075231 0.47000003
-0.016631365 -0.085892089 0.46900001
-0.015408653 -0.085892089 0.46900001
-0.014185939 -0.085892089 0.46900001
-0.012963227 -0.085892089 0.46900001
-0.011715481 -0.085708953 0.46800002
-0.010495376 -0.085708953 0.46800002
-0.0092752697 -0.085708953 0.46800002
-0.0080551635 -0.085708953 0.46800002
-0.0068204524 -0.085525811 0.46700001
-0.0056029535 -0.085525811 0.46700001
-0.004385455 -0.085525811 0.46700001
-0.0031611728 -0.085342675 0.46600002
-0.0019462811 -0.085342675 0.46600002
-0.00073138939 -0.085342675 0.46600002
0.00048350231 -0.085342675 0.46600002
0.0016947495 -0.085159533 0.46500003
0.002907034 -0.085159533 0.46500003
0.0041193189 -0.085159533 0.46500003
0.0053316033 -0.085159533 0.46500003
0.0065438878 -0.085159533 0.46500003
0.0077394927 -0.08497639 0.46400002
0.0089491699 -0.08497639 0.46400002
0.010158848 -0.08497639 0.46400002
0.011368525 -0.08497639 0.46400002
0.012578202 -0.08497639 0.46400002
0.013787881 -0.08497639 0.46400002
0.014965235 -0.084793255 0.46300003
0.016172305 -0.084793255 0.46300003
0.017379377 -0.084793255 0.46300003
0.018586447 -0.084793255 0.46300003
0.019793518 -0.084793255 0.46300003
0.021000588 -0.084793255 0.46300003
0.022207659 -0.084793255 0.46300003
0.023414729 -0.084793255 0.46300003
0.024621801 -0.084793255 0.46300003
0.02582887 -0.084793255 0.46300003
0.02703594 -0.084793255 0.46300003
0.028243013 -0.084793255 0.46300003
0.029450081 -0.084793255 0.46300003
0.030657154 -0.084793255 0.46300003
0.031933043 -0.08497639 0.46400002
0.033142723 -0.08497639 0.46400002
0.034352399 -0.08497639 0.46400002
0.035562076 -0.08497639 0.46400002
0.036851004 -0.085159533 0.46500003
0.038063291 -0.085159533 0.46500003
0.039360039 -0.085342675 0.46600002
0.040574931 -0.085342675 0.46600002
0.041879497 -0.085525811 0.46700001
0.043096993 -0.085525811 0.46700001
0.044409387 -0.085708953 0.46800002
0.045726988 -0.085892089 0.46900001
0.046949703 -0.085892089 0.46900001
0.048275132 -0.086075231 0.47000003
0.04950045 -0.086075231 0.47000003
0.050833698 -0.086258367 0.47100002
0.052061625 -0.086258367 0.47100002
0.053402692 -0.086441509 0.47200003
0.05463323 -0.086441509 0.47200003
0.055982117 -0.086624645 0.47300002
0.057215258 -0.086624645 0.47300002
0.0584484 -0.086624645 0.47300002
0.059807718 -0.086807787 0.47400004
0.061043467 -0.086807787 0.47400004
0.062410604 -0.086990923 0.47500002
0.063648954 -0.086990923 0.47500002
0.064887315 -0.086990923 0.47500002
0.066264875 -0.087174058 0.47600001
0.067505844 -0.087174058 0.47600001
0.068746805 -0.087174058 0.47600001
0.070134804 -0.087357201 0.47700003
0.071378373 -0.087357201 0.47700003
-0.019117467 -0.084849909 0.47000003
-0.017892146 -0.084849909 0.47000003
-0.016666828 -0.084849909 0.47000003
-0.015441508 -0.084849909 0.47000003
-0.014185939 -0.084669374 0.46900001
-0.012963227 -0.084669374 0.46900001
-0.011740513 -0.084669374 0.46900001
-0.010495376 -0.084488846 0.46800002
-0.0092752697 -0.084488846 0.46800002
-0.0080551635 -0.084488846 0.46800002
-0.0068204524 -0.084308311 0.46700001
-0.0056029535 -0.084308311 0.46700001
-0.0043760645 -0.084127784 0.46600002
-0.0031611728 -0.084127784 0.46600002
-0.0019462811 -0.084127784 0.46600002
-0.00072981993 -0.083947249 0.46500003
0.00048246476 -0.083947249 0.46500003
0.0016947495 -0.083947249 0.46500003
0.002907034 -0.083947249 0.46500003
0.0041193189 -0.083947249 0.46500003
0.0053316033 -0.083947249 0.46500003
0.0065438878 -0.083947249 0.46500003
0.0077394927 -0.083766714 0.46400002
0.0089491699 -0.083766714 0.46400002
0.010158848 -0.083766714 0.46400002
0.011368525 -0.083766714 0.46400002
0.012578202 -0.083766714 0.46400002
0.013787881 -0.083766714 0.46400002
0.014997558 -0.083766714 0.46400002
0.016172305 -0.083586186 0.46300003
0.017379377 -0.083586186 0.46300003
0.018586447 -0.083586186 0.46300003
0.019793518 -0.083586186 0.46300003
0.021000588 -0.083586186 0.46300003
0.022207659 -0.083586186 0.46300003
0.023414729 -0.083586186 0.46300003
0.024621801 -0.083586186 0.46300003
0.02582887 -0.083586186 0.46300003
0.02703594 -0.083586186 0.46300003
0.028243013 -0.083586186 0.46300003
0.029513687 -0.083766714 0.46400002
0.030723367 -0.083766714 0.46400002
0.031933043 -0.083766714 0.46400002
0.033142723 -0.083766714 0.46400002
0.034426436 -0.083947249 0.46500003
0.03563872 -0.083947249 0.46500003
0.036851004 -0.083947249 0.46500003
0.038145147 -0.084127784 0.46600002
0.039360039 -0.084127784 0.46600002
0.040661998 -0.084308311 0.46700001
0.041879497 -0.084308311 0.46700001
0.04318928 -0.084488846 0.46800002
0.044504277 -0.084669374 0.46900001
0.045726988 -0.084669374 0.46900001
0.047049813 -0.084849909 0.47000003
0.048275132 -0.084849909 0.47000003
0.049605772 -0.085030437 0.47100002
0.050833698 -0.085030437 0.47100002
0.052172158 -0.085210972 0.47200003
0.053515833 -0.085391499 0.47300002
0.054748978 -0.085391499 0.47300002
0.055982117 -0.085391499 0.47300002
0.057336222 -0.085572034 0.47400004
0.058571972 -0.085572034 0.47400004
0.059807718 -0.085572034 0.47400004
0.061172247 -0.085752569 0.47500002
0.062410604 -0.085752569 0.47500002
0.063782953 -0.085933097 0.47600001
0.065023914 -0.085933097 0.47600001
0.066404089 -0.086113632 0.47700003
0.067647666 -0.086113632 0.47700003
0.069324516 -0.086655222 0.48000002
-0.022841923 -0.083802514 0.47100002
-0.021568106 -0.083624586 0.47000003
-0.020342788 -0.083624586 0.47000003
-0.019117467 -0.083624586 0.47000003
-0.017892146 -0.083624586 0.47000003
-0.016666828 -0.083624586 0.47000003
-0.015441508 -0.083624586 0.47000003
-0.014185939 -0.083446659 0.46900001
-0.012990868 -0.083624586 0.47000003
-0.011740513 -0.083446659 0.46900001
-0.010517801 -0.083446659 0.46900001
-0.0092752697 -0.083268739 0.46800002
-0.0080379508 -0.083090812 0.46700001
-0.0068204524 -0.083090812 0.46700001
-0.0056029535 -0.083090812 0.46700001
-0.0043760645 -0.082912892 0.46600002
-0.0031611728 -0.082912892 0.46600002
-0.0019462811 -0.082912892 0.46600002
-0.00072981993 -0.082734965 0.46500003
0.00048246476 -0.082734965 0.46500003
0.0016947495 -0.082734965 0.46500003
0.002907034 -0.082734965 0.46500003
0.0041193189 -0.082734965 0.46500003
0.0053316033 -0.082734965 0.46500003
0.0065438878 -0.082734965 0.46500003
0.0077394927 -0.082557037 0.46400002
0.0089491699 -0.082557037 0.46400002
0.010158848 -0.082557037 0.46400002
0.011368525 -0.082557037 0.46400002
0.012578202 -0.082557037 0.46400002
0.013787881 -0.082557037 0.46400002
0.014997558 -0.082557037 0.46400002
0.016172305 -0.082379118 0.46300003
0.017379377 -0.082379118 0.46300003
0.018586447 -0.082379118 0.46300003
0.019793518 -0.082379118 0.46300003
0.021000588 -0.082379118 0.46300003
0.022159694 -0.08220119 0.46200001
0.023364156 -0.08220119 0.46200001
0.024621801 -0.082379118 0.46300003
0.02582887 -0.082379118 0.46300003
0.02703594 -0.082379118 0.46300003
0.028243013 -0.082379118 0.46300003
0.029513687 -0.082557037 0.46400002
0.030723367 -0.082557037 0.46400002
0.031933043 -0.082557037 0.46400002
0.033214152 -0.082734965 0.46500003
0.034426436 -0.082734965 0.46500003
0.03563872 -0.082734965 0.46500003
0.036930252 -0.082912892 0.46600002
0.038145147 -0.082912892 0.46600002
0.039444499 -0.083090812 0.46700001
0.040661998 -0.083090812 0.46700001
0.041969176 -0.083268739 0.46800002
0.043281566 -0.083446659 0.46900001
0.044504277 -0.083446659 0.46900001
0.04582449 -0.083624586 0.47000003
0.047149919 -0.083802514 0.47100002
0.048377845 -0.083802514 0.47100002
0.049605772 -0.083802514 0.47100002
0.050941627 -0.083980441 0.47200003
0.052282691 -0.084158361 0.47300002
0.053515833 -0.084158361 0.47300002
0.054748978 -0.084158361 0.47300002
0.056100477 -0.084336288 0.47400004
0.057336222 -0.084336288 0.47400004
0.058571972 -0.084336288 0.47400004
0.059933893 -0.084514216 0.47500002
0.061172247 -0.084514216 0.47500002
0.062410604 -0.084514216 0.47500002
0.063782953 -0.084692135 0.47600001
0.065023914 -0.084692135 0.47600001
0.066543303 -0.085047983 0.47800002
0.06835676 -0.085759684 0.48200002
0.07019107 -0.086471386 0.48600003
-0.022841923 -0.082574584 0.47100002
-0.021613996 -0.082574584 0.47100002
-0.02038607 -0.082574584 0.47100002
-0.019158142 -0.082574584 0.47100002
-0.017892146 -0.082399271 0.47000003
-0.016702289 -0.082574584 0.47100002
-0.015441508 -0.082399271 0.47000003
-0.014216186 -0.082399271 0.47000003
-0.012990868 -0.082399271 0.47000003
-0.011740513 -0.082223952 0.46900001
-0.010517801 -0.082223952 0.46900001
-0.0092752697 -0.082048632 0.46800002
-0.0080551635 -0.082048632 0.46800002
-0.0068204524 -0.081873313 0.46700001
-0.0056029535 -0.081873313 0.46700001
-0.0043760645 -0.081698 0.46600002
-0.0031611728 -0.081698 0.46600002
-0.0019421045 -0.081522681 0.46500003
-0.00072981993 -0.081522681 0.46500003
0.00048246476 -0.081522681 0.46500003
0.0016947495 -0.081522681 0.46500003
0.002907034 -0.081522681 0.46500003
0.0041193189 -0.081522681 0.46500003
0.0053316033 -0.081522681 0.46500003
0.0065438878 -0.081522681 0.46500003
0.0077394927 -0.081347361 0.46400002
0.0089491699 -0.081347361 0.46400002
0.010158848 -0.081347361 0.46400002
0.011368525 -0.081347361 0.46400002
0.012578202 -0.081347361 0.46400002
0.013787881 -0.081347361 0.46400002
0.014997558 -0.081347361 0.46400002
0.016172305 -0.081172049 0.46300003
0.017379377 -0.081172049 0.46300003
0.018586447 -0.081172049 0.46300003
0.019793518 -0.081172049 0.46300003
0.021000588 -0.081172049 0.46300003
0.022207659 -0.081172049 0.46300003
0.023414729 -0.081172049 0.46300003
0.024621801 -0.081172049 0.46300003
0.02582887 -0.081172049 0.46300003
0.02703594 -0.081172049 0.46300003
0.028304012 -0.081347361 0.46400002
0.029513687 -0.081347361 0.46400002
0.030723367 -0.081347361 0.46400002
0.032001868 -0.081522681 0.46500003
0.033214152 -0.081522681 0.46500003
0.034426436 -0.081522681 0.46500003
0.03571536 -0.081698 0.46600002
0.036930252 -0.081698 0.46600002
0.038227003 -0.081873313 0.46700001
0.039444499 -0.081873313 0.46700001
0.040749069 -0.082048632 0.46800002
0.042058852 -0.082223952 0.46900001
0.043281566 -0.082223952 0.46900001
0.044599172 -0.082399271 0.47000003
0.045921989 -0.082574584 0.47100002
0.047149919 -0.082574584 0.47100002
0.048480559 -0.082749903 0.47200003
0.049711093 -0.082749903 0.47200003
0.051049553 -0.082925223 0.47300002
0.052282691 -0.082925223 0.47300002
0.053515833 -0.082925223 0.47300002
0.054864727 -0.083100542 0.47400004
0.056100477 -0.083100542 0.47400004
0.057336222 -0.083100542 0.47400004
0.058571972 -0.083100542 0.47400004
0.059933893 -0.083275855 0.47500002
0.061172247 -0.083275855 0.47500002
0.062541991 -0.083451174 0.47600001
0.063782953 -0.083451174 0.47600001
0.06516052 -0.083626494 0.47700003
0.066682518 -0.083977126 0.47900003
0.06892404 -0.085204355 0.48600003
-0.022841923 -0.081346661 0.47100002
-0.021613996 -0.081346661 0.47100002
-0.02038607 -0.081346661 0.47100002
-0.019158142 -0.081346661 0.47100002
-0.017892146 -0.081173949 0.47000003
-0.016702289 -0.081346661 0.47100002
-0.015441508 -0.081173949 0.47000003
-0.014216186 -0.081173949 0.47000003
-0.012990868 -0.081173949 0.47000003
-0.011740513 -0.081001237 0.46900001
-0.010517801 -0.081001237 0.46900001
-0.0092752697 -0.080828533 0.46800002
-0.0080379508 -0.080655813 0.46700001
-0.0068204524 -0.080655813 0.46700001
-0.0056029535 -0.080655813 0.46700001
-0.0043760645 -0.080483109 0.46600002
-0.0031611728 -0.080483109 0.46600002
-0.0019421045 -0.080310397 0.46500003
-0.00072981993 -0.080310397 0.46500003
0.00048246476 -0.080310397 0.46500003
0.0016947495 -0.080310397 0.46500003
0.002907034 -0.080310397 0.46500003
0.0041193189 -0.080310397 0.46500003
0.0053316033 -0.080310397 0.46500003
0.0065438878 -0.080310397 0.46500003
0.0077394927 -0.080137685 0.46400002
0.0089491699 -0.080137685 0.46400002
0.010158848 -0.080137685 0.46400002
0.011368525 -0.080137685 0.46400002
0.012578202 -0.080137685 0.46400002
0.013787881 -0.080137685 0.46400002
0.014997558 -0.080137685 0.46400002
0.016172305 -0.07996498 0.46300003
0.017379377 -0.07996498 0.46300003
0.018586447 -0.07996498 0.46300003
0.019793518 -0.07996498 0.46300003
0.021000588 -0.07996498 0.46300003
0.022207659 -0.07996498 0.46300003
0.023414729 -0.07996498 0.46300003
0.024621801 -0.07996498 0.46300003
0.02582887 -0.07996498 0.46300003
0.027094333 -0.080137685 0.46400002
0.028304012 -0.080137685 0.46400002
0.029513687 -0.080137685 0.46400002
0.030789582 -0.080310397 0.46500003
0.032001868 -0.080310397 0.46500003
0.033214152 -0.080310397 0.46500003
0.034500469 -0.080483109 0.46600002
0.03571536 -0.080483109 0.46600002
0.0370095 -0.080655813 0.46700001
0.038227003 -0.080655813 0.46700001
0.039528966 -0.080828533 0.46800002
0.040836141 -0.081001237 0.46900001
0.042058852 -0.081001237 0.46900001
0.043373849 -0.081173949 0.47000003
0.044599172 -0.081173949 0.47000003
0.045921989 -0.081346661 0.47100002
0.047149919 -0.081346661 0.47100002
0.048480559 -0.081519373 0.47200003
0.049711093 -0.081519373 0.47200003
0.051049553 -0.081692077 0.47300002
0.052282691 -0.081692077 0.47300002
0.053628977 -0.081864797 0.47400004
0.054864727 -0.081864797 0.47400004
0.056100477 -0.081864797 0.47400004
0.057336222 -0.081864797 0.47400004
0.05869554 -0.082037501 0.47500002
0.059933893 -0.082037501 0.47500002
0.061172247 -0.082037501 0.47500002
0.062410604 -0.082037501 0.47500002
0.063782953 -0.082210213 0.47600001
0.065023914 -0.082210213 0.47600001
0.066543303 -0.082555629 0.47800002
0.070058592 -0.085319005 0.49400002
0.077812903 -0.089809477 0.52000004
-0.022841923 -0.080118731 0.47100002
-0.021613996 -0.080118731 0.47100002
-0.02038607 -0.080118731 0.47100002
-0.019158142 -0.080118731 0.47100002
-0.017930215 -0.080118731 0.47100002
-0.016666828 -0.079948634 0.47000003
-0.015441508 -0.079948634 0.47000003
-0.014216186 -0.079948634 0.47000003
-0.012990868 -0.079948634 0.47000003
-0.011740513 -0.079778522 0.46900001
-0.010517801 -0.079778522 0.46900001
-0.0092752697 -0.079608425 0.46800002
-0.0080551635 -0.079608425 0.46800002
-0.0068204524 -0.079438314 0.46700001
-0.0055909562 -0.079268217 0.46600002
-0.0043760645 -0.079268217 0.46600002
-0.0031611728 -0.079268217 0.46600002
-0.0019421045 -0.079098113 0.46500003
-0.00072981993 -0.079098113 0.46500003
0.00048246476 -0.079098113 0.46500003
0.0016947495 -0.079098113 0.46500003
0.002907034 -0.079098113 0.46500003
0.0041193189 -0.079098113 0.46500003
0.0053316033 -0.079098113 0.46500003
0.0065438878 -0.079098113 0.46500003
0.0077561731 -0.079098113 0.46500003
0.0089491699 -0.078928009 0.46400002
0.010158848 -0.078928009 0.46400002
0.011368525 -0.078928009 0.46400002
0.012578202 -0.078928009 0.46400002
0.013787881 -0.078928009 0.46400002
0.014997558 -0.078928009 0.46400002
0.016172305 -0.078757904 0.46300003
0.017379377 -0.078757904 0.46300003
0.018586447 -0.078757904 0.46300003
0.019793518 -0.078757904 0.46300003
0.021000588 -0.078757904 0.46300003
0.022207659 -0.078757904 0.46300003
0.023414729 -0.078757904 0.46300003
0.024621801 -0.078757904 0.46300003
0.02582887 -0.078757904 0.46300003
0.027094333 -0.078928009 0.46400002
0.028304012 -0.078928009 0.46400002
0.029577294 -0.079098113 0.46500003
0.030789582 -0.079098113 0.46500003
0.032001868 -0.079098113 0.46500003
0.033285577 -0.079268217 0.46600002
0.034500469 -0.079268217 0.46600002
0.035792001 -0.079438314 0.46700001
0.0370095 -0.079438314 0.46700001
0.038308859 -0.079608425 0.46800002
0.039613429 -0.079778522 0.46900001
0.040836141 -0.079778522 0.46900001
0.04214853 -0.079948634 0.47000003
0.043373849 -0.079948634 0.47000003
0.044694062 -0.080118731 0.47100002
0.045921989 -0.080118731 0.47100002
0.047250025 -0.080288842 0.47200003
0.048480559 -0.080288842 0.47200003
0.049816411 -0.080458939 0.47300002
0.051049553 -0.080458939 0.47300002
0.052282691 -0.080458939 0.47300002
0.053628977 -0.080629043 0.47400004
0.054864727 -0.080629043 0.47400004
0.056100477 -0.080629043 0.47400004
0.057336222 -0.080629043 0.47400004
0.058571972 -0.080629043 0.47400004
0.059933893 -0.080799147 0.47500002
0.061172247 -0.080799147 0.47500002
0.062410604 -0.080799147 0.47500002
0.063648954 -0.080799147 0.47500002
0.06516052 -0.081139356 0.47700003
0.076604262 -0.088623911 0.52100003
0.07886038 -0.089644529 0.52700001
-0.044962645 -0.088605605 0.52900004
-0.043583509 -0.088605605 0.52900004
-0.042204373 -0.088605605 0.52900004
-0.040825237 -0.088605605 0.52900004
-0.039446097 -0.088605605 0.52900004
-0.024120955 -0.079058304 0.47200003
-0.022890421 -0.079058304 0.47200003
-0.021613996 -0.078890808 0.47100002
-0.02038607 -0.078890808 0.47100002
-0.019158142 -0.078890808 0.47100002
-0.017930215 -0.078890808 0.47100002
-0.016702289 -0.078890808 0.47100002
-0.015474361 -0.078890808 0.47100002
-0.014216186 -0.078723311 0.47000003
-0.012990868 -0.078723311 0.47000003
-0.011740513 -0.078555815 0.46900001
-0.010517801 -0.078555815 0.46900001
-0.0092752697 -0.078388318 0.46800002
-0.0080551635 -0.078388318 0.46800002
-0.0068204524 -0.078220822 0.46700001
