# .PCD v0.7 - Point Cloud Data file format
VERSION 0.7
FIELDS x y z
SIZE 4 4 4
TYPE F F F
COUNT 1 1 1
WIDTH 1313
HEIGHT 1
VIEWPOINT 0 0 0 1 0 0 0
POINTS 1313
DATA ascii
-0.029952928 -0.042913355 0.46700001
-0.019401273 -0.043725025 0.46700001
-0.016560443 -0.043522105 0.46700001
-0.013516695 -0.043522105 0.46700001
-0.010472949 -0.043522108 0.46700001
-0.0074292016 -0.044130854 0.46700001
-0.040301666 -0.039260861 0.46700001
-0.037083991 -0.0401305 0.46700001
-0.034214176 -0.04047836 0.46700001
-0.031779174 -0.04047836 0.46700001
-0.028909357 -0.0401305 0.46700001
-0.025691682 -0.039260861 0.46700001
-0.023256686 -0.039260861 0.46700001
-0.01777794 -0.041695856 0.46700001
-0.014125445 -0.041695856 0.46700001
-0.043101918 -0.037312862 0.46700001
-0.040301666 -0.037434611 0.46700001
-0.037257921 -0.037434611 0.46700001
-0.034214176 -0.037434611 0.46700001
-0.031779174 -0.037434611 0.46700001
-0.028735429 -0.037434611 0.46700001
-0.025691682 -0.037434611 0.46700001
-0.022647934 -0.037434611 0.46700001
-0.020212939 -0.036825862 0.46700001
-0.045780413 -0.033782113 0.46700001
-0.043345418 -0.034390867 0.46700001
-0.040273339 -0.034366753 0.4666667
-0.037785586 -0.034317225 0.46600005
-0.034748357 -0.034317221 0.46600002
-0.031711128 -0.034317221 0.46600005
-0.028687285 -0.034334168 0.46622223
-0.025682295 -0.034378592 0.46683335
-0.022647934 -0.034390867 0.46700001
-0.020212939 -0.034390863 0.46700001
-0.046389163 -0.031347118 0.46700001
-0.04334541 -0.031347118 0.46700001
-0.040237274 -0.031297103 0.46625
-0.037785586 -0.031279996 0.46600002
-0.034748357 -0.031279996 0.46600005
-0.031711128 -0.031279996 0.46600002
-0.028703796 -0.031313341 0.46650004
-0.025691682 -0.031347118 0.46700001
-0.022647934 -0.031347118 0.46700001
-0.020212939 -0.030738369 0.46700001
-0.048215408 -0.027085872 0.46700001
-0.046389159 -0.028303372 0.46700001
-0.04334541 -0.028303372 0.46700001
-0.040229972 -0.028252432 0.4661667
-0.037785586 -0.028242767 0.46600005
-0.034756351 -0.028249212 0.46611112
-0.031756494 -0.0282823 0.4666667
-0.028735429 -0.028303372 0.46700001
-0.025813434 -0.028546873 0.46700001
-0.023459604 -0.029115038 0.46700001
-0.048621241 -0.02505671 0.46700001
-0.046389163 -0.025259625 0.46700001
-0.043345418 -0.025259623 0.46700001
-0.04023727 -0.025219385 0.46625
-0.037436552 -0.025094604 0.46620002
-0.034563992 -0.025370294 0.46680003
-0.031779174 -0.025259625 0.46700001
-0.029344179 -0.025868375 0.46700001
-0.049432907 -0.022824628 0.46700001
-0.04636465 -0.022812735 0.46675003
-0.043252598 -0.022775752 0.46600005
-0.040215373 -0.022775752 0.46600002
-0.037230458 -0.022808336 0.4666667
-0.034214176 -0.022824628 0.46700001
-0.03198209 -0.023027545 0.46700001
-0.054302901 -0.018563382 0.46700001
-0.052354909 -0.01953738 0.46700001
-0.049398199 -0.01976734 0.4666667
-0.046289828 -0.019738523 0.46600005
-0.043252595 -0.019738523 0.46600002
-0.040215373 -0.019738523 0.46600005
-0.037212729 -0.019757638 0.46644443
-0.034214176 -0.01978088 0.46700001
-0.032387923 -0.01978088 0.46700001
-0.055276901 -0.016615383 0.46700001
-0.052476656 -0.016737133 0.46700001
-0.049327057 -0.016701294 0.46600005
-0.046289828 -0.016701296 0.46600002
-0.043252598 -0.016701296 0.46600005
-0.040215373 -0.016701296 0.46600002
-0.037436552 -0.016830212 0.46620002
-0.034563992 -0.016608477 0.46680003
-0.032387923 -0.016737133 0.46700001
-0.060390394 -0.012475888 0.46700001
-0.058259774 -0.013389012 0.46700001
-0.0555204 -0.013693386 0.46700001
-0.052421123 -0.013678727 0.46650004
-0.049327053 -0.013664066 0.46600002
-0.046289828 -0.013664066 0.46600005
-0.043252595 -0.013664066 0.46600002
-0.040215373 -0.013664066 0.46600005
-0.037212726 -0.013676807 0.46644449
-0.034335926 -0.013936887 0.46700001
-0.032387923 -0.014910885 0.46700001
-0.061364401 -0.01052789 0.46700001
-0.058564149 -0.010649639 0.46700001
-0.0555204 -0.010649639 0.46700001
-0.052448887 -0.010643613 0.46675003
-0.049379986 -0.010637586 0.46650001
-0.046339493 -0.010637587 0.46650004
-0.043299008 -0.010637586 0.46650001
-0.040301666 -0.010649639 0.46700001
-0.037562296 -0.010954015 0.46700001
-0.064529896 -0.0073623932 0.46700001
-0.06160789 -0.0076058935 0.46700001
-0.058564145 -0.0076058931 0.46700001
-0.0555204 -0.0076058935 0.46700001
-0.052476659 -0.0076058921 0.46700001
-0.049432911 -0.0076058931 0.46700001
-0.046510912 -0.0078493934 0.46700001
-0.043649785 -0.0085190171 0.46700001
-0.040910419 -0.008823392 0.46700001
-0.064448729 -0.0047650631 0.46700001
-0.061607897 -0.0045621465 0.46700001
-0.058564149 -0.0045621465 0.46700001
-0.055520404 -0.0045621465 0.46700001
-0.052476656 -0.004562146 0.46700001
-0.049432907 -0.0045621465 0.46700001
-0.060796231 -0.0023300652 0.46700001
-0.058564145 -0.0015183995 0.46700001
-0.0555204 -0.0015183995 0.46700001
-0.052476659 -0.0015183995 0.46700001
-0.050346032 -0.0018227741 0.46700001
-0.057955399 0.00091659807 0.46700001
-0.0555204 0.0015253475 0.46700001
-0.052476656 0.0015253472 0.46700001
-0.050650407 0.00091659807 0.46700001
0.031733312 -0.13570069 0.47000003
0.034697898 -0.13592663 0.46866667
0.037779357 -0.13602331 0.46900001
0.039697893 -0.13631335 0.47000003
0.04214853 -0.13508803 0.47000003
0.02989533 -0.13386272 0.47000003
0.03182457 -0.13379557 0.46833336
0.034892559 -0.13402514 0.46800002
0.037902158 -0.13410647 0.46800002
0.040181901 -0.13404684 0.46850002
0.043488674 -0.13297594 0.46860003
0.046135429 -0.13276275 0.46900001
0.048785076 -0.13113248 0.46900004
0.010891926 -0.11474869 0.46950001
0.01311141 -0.11556286 0.46866667
0.0072185723 -0.111688 0.46950001
0.010435618 -0.11237297 0.46871427
0.013174678 -0.11255129 0.46800002
0.0053889323 -0.10874365 0.47000003
0.0078395726 -0.10813099 0.47000003
0.010280085 -0.10925622 0.46957144
0.013310243 -0.10961801 0.46850002
0.015126847 -0.10950102 0.46800002
0.0029382925 -0.10629301 0.47000003
0.0041636126 -0.10690568 0.47000003
0.0074311323 -0.10608879 0.47000003
0.010461758 -0.10652272 0.46985716
0.0133251 -0.10667821 0.46900001
0.015126847 -0.10645076 0.46800002
0.0029382922 -0.10322971 0.47000003
0.0050826026 -0.10322971 0.47000003
0.0071043805 -0.10347477 0.47000003
0.010278396 -0.10373213 0.46950004
0.013317671 -0.10356653 0.46875
0.015126847 -0.10401054 0.46800002
0.070830673 -0.10245232 0.46925002
0.073238686 -0.10362078 0.46900001
0.07568346 -0.10423279 0.46900001
-0.00073766743 -0.10016641 0.47000003
0.0017102812 -0.10006007 0.46950004
0.0046438389 -0.10032009 0.46900001
0.0073276572 -0.10023537 0.46860003
0.010084262 -0.10082246 0.46857142
0.012686635 -0.10157032 0.46800002
0.062710971 -0.099130116 0.46800002
0.06483642 -0.099678032 0.46866667
0.067490757 -0.10080814 0.46900001
0.069105573 -0.10077907 0.47000003
-0.0031883074 -0.097103111 0.47000003
-0.0013503274 -0.097715765 0.47000003
0.0017072441 -0.097438551 0.4686667
0.0045525967 -0.097503304 0.46800002
0.0065861065 -0.097910009 0.46800002
0.059050657 -0.096689902 0.46800002
0.061623123 -0.097507425 0.46900001
0.064204291 -0.098328426 0.47000003
-0.0099064447 -0.09322837 0.46900001
-0.0072727068 -0.094244033 0.47000003
-0.0042604622 -0.094499305 0.47000003
-0.0013491082 -0.094552644 0.46950004
0.0013578988 -0.094511047 0.46842861
0.056244064 -0.093502551 0.46833336
0.058607537 -0.094516911 0.46933332
0.060936768 -0.095469356 0.47000003
-0.010273258 -0.091272026 0.46900001
-0.0074689728 -0.091492385 0.46950001
-0.0044062361 -0.091426998 0.46916667
-0.0013460178 -0.091297515 0.46850002
0.00048557742 -0.091809481 0.46800002
0.052581143 -0.091060601 0.46833336
0.05556874 -0.09149152 0.46950004
0.058077693 -0.092201829 0.47000003
-0.015816225 -0.08752238 0.46900001
-0.013560329 -0.088242911 0.46850002
-0.010327109 -0.088551581 0.46828574
-0.0074573667 -0.088901788 0.46875
-0.004638867 -0.088881232 0.46800002
0.04955513 -0.087960526 0.46885711
0.052419115 -0.088732749 0.46980006
0.054401733 -0.089751191 0.47000003
-0.019117467 -0.084849909 0.47000003
-0.01665544 -0.085401513 0.46966669
-0.013574583 -0.085280731 0.46900001
-0.010651018 -0.085579008 0.46812499
-0.0077501372 -0.08601398 0.46800002
0.044034313 -0.084955722 0.46833336
0.046322096 -0.085860275 0.46883336
0.048683569 -0.085666798 0.47000003
-0.021568106 -0.083624586 0.47000003
-0.019730128 -0.083624586 0.47000003
-0.016666826 -0.082574315 0.47000003
-0.013598486 -0.082369618 0.46983334
-0.010665686 -0.082332633 0.46875003
-0.0080551635 -0.082048632 0.46800002
0.041184794 -0.082106203 0.46833336
0.043469664 -0.082136206 0.46937501
0.04582449 -0.083624586 0.47000003
-0.016054168 -0.079948634 0.47000003
-0.013603527 -0.079335973 0.47000003
-0.010334634 -0.079356275 0.46857142
-0.0080551635 -0.078998372 0.46800002
0.037929442 -0.078850858 0.46833336
0.040103033 -0.079532936 0.46900001
0.042761192 -0.079335973 0.47000003
-0.016421763 -0.07553748 0.47000003
-0.013596617 -0.076844759 0.46975002
-0.010511194 -0.076667212 0.46866667
0.034972727 -0.076293699 0.46825001
0.037819851 -0.076190658 0.46950004
0.040188022 -0.076517731 0.47000003
0.04214853 -0.077497989 0.47000003
-0.019525908 -0.073005155 0.47000003
-0.016649965 -0.073131703 0.46950004
-0.013569976 -0.073639221 0.46883333
-0.010906249 -0.073941216 0.46816668
0.029158063 -0.07228779 0.46800002
0.031747293 -0.073325656 0.4684
0.034373604 -0.07383889 0.46900007
0.037002187 -0.073331907 0.47000003
-0.021976545 -0.070554517 0.47000003
-0.019719958 -0.070721418 0.46975002
-0.016619978 -0.070558429 0.4686667
-0.013748991 -0.070660979 0.46800002
0.025525641 -0.069922194 0.46850002
0.028599277 -0.070582874 0.46883336
0.031716757 -0.070720769 0.46975002
0.034183949 -0.07075873 0.47000003
0.036021929 -0.071371399 0.47000003
-0.025069023 -0.067520387 0.47000003
-0.022157386 -0.067624278 0.46950004
-0.019681366 -0.067527823 0.46883336
-0.017008951 -0.067838505 0.46816668
0.023057535 -0.067407362 0.46800002
0.02555223 -0.067551397 0.46900001
0.028663523 -0.067679137 0.4698889
0.031529091 -0.068512306 0.47000003
-0.028103149 -0.064427912 0.47000003
-0.025843298 -0.064598083 0.46975002
-0.02273728 -0.064471908 0.46883336
-0.019849518 -0.064560451 0.46800002
0.023070179 -0.064391151 0.46825001
0.025566176 -0.064528674 0.46924999
0.028057352 -0.064632133 0.47000003
-0.030451678 -0.061262503 0.47000003
-0.028287724 -0.061525598 0.46966669
-0.025792761 -0.061416432 0.46883336
-0.023111654 -0.061735805 0.46816671
0.022624956 -0.061219495 0.46850005
0.025588987 -0.061524734 0.46966669
0.02744469 -0.062181491 0.47000003
-0.031112771 -0.058358364 0.4698
-0.028247137 -0.058381051 0.46900001
-0.025746698 -0.058256574 0.46800002
0.016661363 -0.05798234 0.46825004
0.019417942 -0.05831816 0.46850002
0.022279684 -0.058577754 0.46960002
0.024994053 -0.059118193 0.47000003
-0.033821307 -0.054829575 0.47000003
-0.031334452 -0.055376988 0.46944448
-0.028345838 -0.055521101 0.46860003
-0.026356751 -0.05581636 0.46800002
0.0074097612 -0.054469805 0.46866667
0.010446118 -0.054990653 0.46914291
0.013219615 -0.05563907 0.46960002
0.016399346 -0.055994611 0.46950004
0.019480111 -0.056667551 0.47000003
0.021318093 -0.056667551 0.47000003
-0.036271948 -0.051766273 0.47000003
-0.034433968 -0.052378934 0.47000003
-0.03130392 -0.052267488 0.46900001
-0.028064901 -0.052522074 0.46800002
-0.026356751 -0.0527661 0.46800002
0.0023157364 -0.051545992 0.46800002
0.0048866095 -0.052610707 0.46880001
0.0070180013 -0.052545566 0.46966669
0.0090648923 -0.052991595 0.47000003
-0.037252203 -0.049070567 0.47000003
-0.034379344 -0.04984894 0.46924999
-0.03128254 -0.049786646 0.46866667
-0.02818691 -0.049715828 0.46800002
-0.026356751 -0.049715832 0.46800002
-0.00073452841 -0.049105778 0.46800002
0.0018640558 -0.049388796 0.46925005
0.0047762725 -0.05054095 0.47000003
-0.042398546 -0.045639675 0.47000003
-0.040356345 -0.046048116 0.47000003
-0.037254579 -0.046430178 0.46914288
-0.034348708 -0.046749096 0.46883336
-0.031244881 -0.046676934 0.46811116
-0.028186912 -0.046665564 0.46800002
-0.025746701 -0.046665564 0.46800002
-0.023509838 -0.045852166 0.46800002
-0.003784793 -0.045445461 0.46800002
-0.0012240338 -0.046480332 0.46860003
0.00097736553 -0.046579525 0.46960002
-0.046074506 -0.04318903 0.47000003
-0.043608833 -0.043786377 0.46983334
-0.040474266 -0.043708496 0.46900001
-0.037377596 -0.043662548 0.46850005
-0.034287438 -0.0436153 0.46800002
-0.031542201 -0.043920331 0.46800002
-0.02818691 -0.0436153 0.46800002
-0.025746699 -0.043615304 0.46800002
-0.022696435 -0.0436153 0.46800002
-0.020256221 -0.043005247 0.46800002
-0.0074451105 -0.043005247 0.46800002
-0.0043986719 -0.043661684 0.46850002
-0.0013482391 -0.043755095 0.46950001
0.00048765255 -0.044414353 0.47000003
-0.049505401 -0.040003203 0.47000003
-0.046637714 -0.040695924 0.46950004
-0.043490086 -0.040614057 0.46855557
-0.040409867 -0.041197412 0.46825001
-0.037947755 -0.041785143 0.46800002
-0.02818691 -0.041785143 0.46800002
-0.025746698 -0.04117509 0.46800002
-0.022522135 -0.040913641 0.46799999
-0.019646168 -0.04056504 0.46800002
-0.01644339 -0.040412527 0.46799999
-0.013423629 -0.040321015 0.46800002
-0.010505053 -0.040602695 0.46844447
-0.007458149 -0.040636834 0.46883333
-0.0044099181 -0.040708922 0.46966669
-0.0015545475 -0.041555271 0.47000003
-0.052813768 -0.03767509 0.47000003
-0.049680334 -0.037622087 0.46933338
-0.046513658 -0.037535138 0.46825001
-0.044658337 -0.038124826 0.46800002
-0.019442817 -0.037718128 0.46800002
-0.016595906 -0.037514772 0.46800002
-0.013567022 -0.037574567 0.46875
-0.010521104 -0.037608076 0.46916667
-0.0074769268 -0.03767509 0.47000003
-0.0056389472 -0.038287751 0.47000003
-0.055141874 -0.034366727 0.47000003
-0.0527578 -0.034575839 0.46950004
-0.049598441 -0.03450571 0.46855557
-0.046793524 -0.034769535 0.46800002
-0.019036114 -0.034464508 0.46800002
-0.016606854 -0.034489054 0.46833336
-0.01357919 -0.034549989 0.46916667
-0.010690263 -0.034755424 0.46987504
-0.0080895871 -0.035837114 0.47000003
-0.05710239 -0.031548493 0.47000003
-0.055264406 -0.031548493 0.47000003
-0.052701395 -0.031481367 0.46900001
-0.049574912 -0.031436618 0.46833336
-0.019442817 -0.031617597 0.46800002
-0.016625019 -0.03146996 0.46883336
-0.013595966 -0.031531386 0.46975002
-0.011765547 -0.032161154 0.47000003
-0.057977613 -0.028310148 0.47000003
-0.055225641 -0.028465427 0.46966672
-0.052701395 -0.028424585 0.46900001
-0.049691275 -0.02851649 0.46799999
-0.025136646 -0.027143873 0.46800002
-0.022297382 -0.027966945 0.46816671
-0.019680932 -0.02841405 0.46883336
-0.016654428 -0.02846441 0.46966669
-0.014216186 -0.029097853 0.47000003
-0.061186779 -0.025217673 0.47000003
-0.058572769 -0.025544425 0.47000003
-0.055513632 -0.025245532 0.46900001
-0.052645862 -0.025340758 0.46850002
-0.050352167 -0.025517067 0.46800002
-0.030017069 -0.024703661 0.46800002
-0.027983559 -0.025110364 0.46800002
-0.025774205 -0.025340106 0.46850002
-0.022752577 -0.025376601 0.46916667
-0.019719306 -0.025408044 0.46975002
-0.017892146 -0.026034554 0.47000003
-0.063535318 -0.022052264 0.47000003
-0.061391007 -0.022358594 0.47000003
-0.058877882 -0.022335676 0.46950004
-0.05571913 -0.022295743 0.46866667
-0.05271104 -0.02250747 0.46800002
-0.03050511 -0.022019427 0.46800002
-0.028236881 -0.022302657 0.46883336
-0.025362685 -0.02217537 0.46937504
-0.022580689 -0.02275867 0.46983334
-0.020342788 -0.023583913 0.47000003
-0.06445431 -0.019295296 0.47000003
-0.061293367 -0.019264828 0.46924999
-0.058783934 -0.019244302 0.46875
-0.055883311 -0.019335195 0.46800002
-0.03062712 -0.019213185 0.46800002
-0.028247137 -0.019254237 0.46900001
-0.025234679 -0.019288234 0.46983337
-0.022793427 -0.019907953 0.47000003
-0.067211278 -0.015925664 0.47000003
-0.064590916 -0.016571846 0.46971431
-0.061260387 -0.016808813 0.46900001
-0.058721229 -0.01678226 0.46825004
-0.0568594 -0.017383028 0.46800002
-0.030643156 -0.016781608 0.46825001
-0.028136652 -0.016448386 0.46919999
-0.025652507 -0.016640434 0.47000003
-0.069355585 -0.012556034 0.47000003
-0.067482024 -0.013162015 0.46975002
-0.064317167 -0.013752031 0.46900004
-0.061558455 -0.013728031 0.46816668
-0.059299607 -0.014332763 0.46800002
-0.033677388 -0.012502604 0.46800002
-0.0311254 -0.013588197 0.46862504
-0.028405285 -0.013524039 0.46960002
-0.026469387 -0.013781353 0.47000003
-0.069764026 -0.010513834 0.47000003
-0.067373946 -0.010695249 0.46900001
-0.064825021 -0.010678472 0.46825001
-0.062959932 -0.011282498 0.46800002
-0.036727652 -0.010062391 0.46800002
-0.034305427 -0.01067782 0.46825004
-0.031336423 -0.010706433 0.46950004
-0.028920026 -0.011330714 0.47000003
-0.070372403 -0.0074954806 0.46962503
-0.067302771 -0.0076303226 0.46849999
-0.065400138 -0.0088422857 0.46800002
-0.045878444 -0.0064020744 0.46800002
-0.043212254 -0.0068928525 0.46820003
-0.040317476 -0.0073868879 0.46859998
-0.037416901 -0.007637308 0.46900001
-0.034415327 -0.0082626902 0.46975002
-0.032595985 -0.0088800741 0.47000003
-0.073031545 -0.0045914538 0.47000003
-0.070481658 -0.0045849406 0.46933338
-0.067266539 -0.0045740316 0.46825001
-0.065400138 -0.0039618625 0.46800002
-0.046513006 -0.0045740316 0.46825001
-0.043530177 -0.0045812498 0.46900001
-0.040538665 -0.0045886855 0.46975002
-0.038722586 -0.0052041137 0.47000003
-0.073031545 -0.0015281535 0.47000003
-0.070498347 -0.0015260575 0.46944448
-0.067326494 -0.0015233839 0.4686667
-0.064813375 -0.0015217583 0.46816668
-0.062146526 -0.0011149489 0.46800002
-0.048806697 -0.0012776296 0.46800002
-0.046571057 -0.0015239258 0.46883336
-0.044016402 -0.0019356171 0.46983334
-0.073031545 0.0015351463 0.47000003
-0.070531718 0.0015340574 0.46966669
-0.067373946 0.0015318799 0.46900001
-0.064317174 0.0015318799 0.46900001
-0.061162747 0.001529756 0.46825004
-0.058892906 0.0017319648 0.46800002
-0.049357206 0.0016528446 0.46860003
-0.046662003 0.0015346555 0.46975002
-0.044849187 0.0009224863 0.47000003
-0.070427738 0.0044452809 0.47000003
-0.067470156 0.0045956192 0.46966669
-0.064332694 0.0045900391 0.46911111
-0.061260387 0.0045886622 0.46900001
-0.058752477 0.0045846389 0.46850002
-0.055678923 0.0045830081 0.46833336
-0.052626487 0.0045830086 0.46833336
-0.049667269 0.0045917053 0.46922222
-0.046891388 0.0037815664 0.47000003
-0.067313388 0.0074575264 0.47000003
-0.06445431 0.0076617468 0.47000003
-0.061358675 0.0076579964 0.46975002
-0.058877662 0.0076542469 0.46950001
-0.055758178 0.0076454445 0.46900001
-0.05275758 0.0076542469 0.46950001
-0.050363127 0.0076617463 0.47000003
-0.063841648 0.0094997268 0.47000003
-0.061186779 0.0099081667 0.47000003
-0.058327708 0.010112386 0.47000003
-0.055264406 0.010112386 0.47000003
-0.052813768 0.0094997268 0.47000003
0.033714149 -0.13812394 0.47200003
0.037485 -0.13841657 0.47300002
0.030702721 -0.13656686 0.47300002
0.034870647 -0.1378313 0.47100002
0.036098573 -0.1378313 0.47100002
0.041010283 -0.13660339 0.47100002
0.044221133 -0.13580658 0.47250003
0.028117049 -0.13414752 0.47100002
0.047350131 -0.13471715 0.47300002
0.048583269 -0.13348401 0.47300002
0.023920447 -0.1297846 0.47300002
0.052061625 -0.13169168 0.47100002
0.0041724714 -0.10836106 0.47100002
0.0072422889 -0.10958898 0.47100002
0.0090841791 -0.11081691 0.47100002
0.0017166171 -0.10590521 0.47100002
0.0049910895 -0.10631452 0.47100005
0.0066283252 -0.10713313 0.47100002
-0.0013552888 -0.10232992 0.47150004
0.0011026536 -0.10344934 0.47099999
0.0041724714 -0.10467727 0.47100002
0.073629081 -0.10232992 0.47150004
0.075632341 -0.10316223 0.47250003
-0.0038218373 -0.10008328 0.47250003
-0.001967164 -0.10037953 0.47100002
0.06802468 -0.099765562 0.47100002
0.070517942 -0.10043248 0.47125003
0.073246092 -0.10080576 0.47300002
-0.0068788719 -0.096081786 0.47100002
-0.0048323269 -0.097719014 0.47099999
0.064773403 -0.0969344 0.47116664
0.067601986 -0.097583883 0.47233334
0.069957718 -0.098545007 0.47300002
-0.0081067989 -0.093625933 0.47100002
0.06151953 -0.094101496 0.47133335
0.064546667 -0.094539799 0.47250006
0.067080393 -0.095256634 0.47300002
0.059013199 -0.091039069 0.4716
0.061382182 -0.091764607 0.47280002
0.063792013 -0.092379309 0.47300002
0.053289551 -0.087486297 0.47100002
0.055560481 -0.088745177 0.4711667
0.058407646 -0.08841157 0.47266671
0.06091468 -0.089090928 0.47300002
0.050424393 -0.085439742 0.47100005
0.052825138 -0.085269846 0.4723334
0.055219084 -0.085601501 0.47280002
0.057831831 -0.086624645 0.47300002
-0.022350753 -0.082328998 0.47100002
-0.019772105 -0.081960618 0.47100002
-0.016702289 -0.081960618 0.47100002
0.046658747 -0.082328998 0.47100002
0.049329791 -0.082874857 0.47171429
0.052036066 -0.082431957 0.47299999
-0.024120955 -0.079058304 0.47200003
-0.022240084 -0.079546645 0.47125
-0.019772105 -0.079504773 0.47100002
-0.017009269 -0.079197794 0.47100002
0.044694062 -0.079504773 0.47100002
0.046586007 -0.079589173 0.47150004
0.049148485 -0.079757974 0.47250003
0.051460598 -0.080047898 0.47300002
-0.028262889 -0.075884201 0.47266671
-0.025204714 -0.076463707 0.47212508
-0.022267506 -0.076570623 0.47183335
-0.019772105 -0.076434955 0.47099999
-0.017009271 -0.077355891 0.47100002
0.041010283 -0.075207025 0.47100002
0.043631487 -0.076301426 0.47112501
0.046651442 -0.07662385 0.47216669
0.049199838 -0.076759517 0.47300002
0.051049549 -0.076759517 0.47300002
-0.030337762 -0.073060095 0.47300002
-0.02845859 -0.073598787 0.47250003
-0.025316114 -0.073417492 0.47133335
-0.022227962 -0.073365137 0.47100002
-0.02038607 -0.073979102 0.47100002
0.03855443 -0.072751172 0.47100002
0.040396318 -0.073365137 0.47100002
0.043513145 -0.073442802 0.47150004
0.046733558 -0.073676668 0.47300002
0.049199842 -0.073676668 0.47300002
0.051049553 -0.073676668 0.47300002
0.055982117 -0.073060095 0.47300002
-0.036452021 -0.070495181 0.47233334
-0.034604918 -0.070495181 0.47233334
-0.031333983 -0.070254743 0.47175002
-0.028377853 -0.070320629 0.47116664
-0.025297778 -0.070646152 0.47099999
-0.022841923 -0.071523249 0.47100002
0.034256682 -0.069067389 0.47100002
0.037479989 -0.070141822 0.47099999
0.040439423 -0.070369072 0.47150001
0.043579504 -0.070477448 0.47222227
0.046733558 -0.070593812 0.47300002
0.049199838 -0.070593812 0.47300002
0.05212855 -0.070439667 0.47300002
0.054748978 -0.071210384 0.47300002
-0.037442632 -0.067301743 0.47240001
-0.034580499 -0.067368232 0.47200003
-0.031448971 -0.067249067 0.4711667
-0.028367598 -0.067225501 0.47100002
-0.026525704 -0.067839459 0.47100002
0.032005485 -0.067020841 0.47100005
0.034256682 -0.067225501 0.47100002
0.037392974 -0.067344226 0.47183338
0.040524971 -0.067438945 0.47250003
0.043650705 -0.067510955 0.47300002
0.046733558 -0.067510955 0.47300002
0.049199842 -0.067510962 0.47300002
0.051460598 -0.067716487 0.47300002
-0.040613938 -0.063606016 0.47300002
-0.037719462 -0.064398125 0.47277778
-0.034580499 -0.064291894 0.47200003
-0.031437412 -0.064769648 0.47099999
-0.028981559 -0.065383606 0.47100002
0.029958937 -0.064769641 0.47100002
0.031951152 -0.064455234 0.47140002
0.034341756 -0.064314164 0.47216669
0.037321281 -0.064564899 0.47287503
0.040567853 -0.065044671 0.47300002
0.043826871 -0.064780429 0.47300002
0.046733558 -0.064428106 0.47300002
0.048994318 -0.065250196 0.47300002
-0.042669177 -0.061345257 0.47300002
-0.040819462 -0.061345257 0.47300002
-0.037710886 -0.061302025 0.47266671
-0.034525875 -0.061117966 0.47125
-0.03217417 -0.061945416 0.47100002
0.028935669 -0.061699826 0.47099999
0.031458605 -0.061419781 0.472
0.034402147 -0.061345253 0.47300002
0.036868431 -0.061961826 0.47300002
0.044883844 -0.061961826 0.47300002
0.046116985 -0.061961826 0.47300002
-0.042669177 -0.0582624 0.47300002
-0.040819462 -0.058262404 0.47300002
-0.037683856 -0.058796421 0.4723334
-0.034525875 -0.058661457 0.47125
-0.032665338 -0.059243977 0.47100002
0.023819303 -0.058016047 0.47100002
0.02599607 -0.058076333 0.47149998
0.028065894 -0.058408927 0.47220001
0.030995106 -0.059155814 0.47275004
-0.042669177 -0.054562978 0.47300002
-0.040798217 -0.05515071 0.47275001
-0.037622236 -0.05562602 0.47155559
-0.034814212 -0.055867173 0.47100002
0.013995888 -0.054332267 0.47100002
0.016451741 -0.054332267 0.47100005
0.019542282 -0.055003911 0.47150004
0.02263934 -0.055676669 0.47200003
0.025126999 -0.056352403 0.47250003
-0.045135457 -0.052096695 0.47300002
-0.043285742 -0.052713268 0.47300002
-0.040755063 -0.052630007 0.47225001
-0.037839111 -0.052635718 0.47119999
0.0078562526 -0.051876415 0.47100002
0.01056697 -0.052411638 0.47140002
0.013424542 -0.052656893 0.47250003
0.016268507 -0.052814029 0.47280002
0.019604452 -0.053329837 0.47300002
-0.046214454 -0.04947627 0.47300002
-0.043225173 -0.049561765 0.47233334
-0.040661465 -0.04943848 0.47116664
-0.038395669 -0.050239176 0.47100005
0.0047893012 -0.048832178 0.47125
0.0072581004 -0.049524184 0.47200003
0.010176976 -0.049967375 0.47285718
0.012822176 -0.050863553 0.47300002
-0.051301163 -0.045930989 0.47300002
-0.049451452 -0.046547558 0.47300002
-0.0465368 -0.04659215 0.47220007
-0.043716684 -0.04635074 0.47100002
-0.041260831 -0.046964705 0.47100002
0.0029445442 -0.04635074 0.47100002
0.0047921678 -0.046399947 0.47150001
0.007269524 -0.046522629 0.47275004
0.0091227526 -0.046547562 0.47300002
-0.063632578 -0.042231563 0.47300002
-0.061577335 -0.042642608 0.47300002
-0.05849449 -0.043053657 0.47300002
-0.055587437 -0.042825811 0.47275004
-0.052311398 -0.043254431 0.47237504
-0.049312487 -0.043343488 0.47166669
-0.046991155 -0.04409954 0.47100005
0.0018708896 -0.043138597 0.47112498
0.0048018955 -0.04341789 0.4725
0.0070675178 -0.044286799 0.47300002
-0.063632578 -0.040381856 0.47300002
-0.061782859 -0.040381856 0.47300002
-0.058597025 -0.040311363 0.47216669
-0.055500224 -0.040297132 0.47200003
-0.052580494 -0.040351234 0.47119999
-0.001148546 -0.040006451 0.47100005
0.0017221727 -0.040310491 0.47216669
0.004601236 -0.040587381 0.47300002
-0.06394086 -0.036990717 0.47300002
-0.061906178 -0.037545629 0.47299999
-0.058576778 -0.037835848 0.47200003
-0.055381991 -0.037755255 0.47100002
-0.0041774325 -0.037632458 0.47100002
-0.0012324987 -0.037465207 0.47200003
0.0015696341 -0.037442964 0.47287503
0.0041901888 -0.038532142 0.47300002
-0.064249143 -0.034216147 0.47300002
-0.061555576 -0.034527697 0.47220001
-0.058465883 -0.034693904 0.47111115
-0.055995952 -0.035913363 0.47100002
-0.0093347263 -0.033457506 0.47100002
-0.0073700426 -0.034439847 0.47100002
-0.0044294531 -0.034741841 0.4717778
-0.0016661875 -0.034813657 0.47275001
0.0004907652 -0.034832716 0.47300002
-0.066098861 -0.031133296 0.47300002
-0.064249143 -0.031749867 0.47300002
-0.061619915 -0.031666286 0.47175002
-0.05906577 -0.031615619 0.47100002
-0.010317069 -0.031492822 0.47100002
-0.0075044408 -0.031665638 0.47175002
-0.0046860282 -0.031859495 0.47280002
-0.069798276 -0.027433872 0.47300002
-0.067332 -0.028667016 0.47300002
-0.064377375 -0.02843136 0.47200006
-0.06154361 -0.028556334 0.47116664
-0.059679732 -0.029159762 0.47100002
-0.013325489 -0.028238818 0.47100002
-0.010579227 -0.028592071 0.4717778
-0.0076445239 -0.028901 0.47280002
-0.0056749405 -0.029900154 0.47300002
-0.072675608 -0.025378635 0.47300002
-0.070414849 -0.025584158 0.47300002
-0.06784115 -0.025543917 0.47225001
-0.064614736 -0.025485216 0.47116664
-0.062135588 -0.026089946 0.47100002
-0.016463274 -0.025363747 0.47120005
-0.013660762 -0.025529418 0.472
-0.010915791 -0.025892446 0.47300002
-0.075963981 -0.021884736 0.47300002
-0.07349769 -0.022501308 0.47299999
-0.070291005 -0.022462098 0.47216669
-0.067685418 -0.022414526 0.47116664
-0.065328196 -0.022651751 0.47100002
-0.021613996 -0.021178236 0.47100002
-0.019649312 -0.022160579 0.47100002
-0.016744761 -0.022463439 0.47222227
-0.013895881 -0.023323402 0.47300002
-0.075963981 -0.019418456 0.47300002
-0.073472239 -0.019411394 0.47283337
-0.070229091 -0.019367464 0.47175002
-0.067661256 -0.019336347 0.47100002
-0.022023305 -0.019131692 0.47100005
-0.019204294 -0.019384025 0.47216669
-0.016773211 -0.020035025 0.47300002
-0.075963981 -0.01571903 0.47300002
-0.07344678 -0.016324088 0.47266668
-0.070167176 -0.016278476 0.47133335
-0.068275221 -0.016880494 0.47100002
-0.02447916 -0.015447911 0.47100005
-0.02225134 -0.016282929 0.47150001
-0.019643327 -0.016740458 0.47283337
-0.075963981 -0.013252748 0.47300002
-0.073682703 -0.013364856 0.47260004
-0.070731074 -0.013196711 0.47100002
-0.025072634 -0.013085127 0.47140002
-0.022511704 -0.013448498 0.47266671
-0.07637503 -0.010580942 0.47300002
-0.073958233 -0.010764314 0.47200003
-0.071549691 -0.010945511 0.47100005
-0.028162941 -0.010536202 0.47100005
-0.025368089 -0.010770828 0.47233334
-0.022938916 -0.011403037 0.47300002
-0.078430273 -0.007087043 0.47300002
-0.076527022 -0.0076986193 0.47266671
-0.073827229 -0.0076741888 0.4711667
-0.071959004 -0.0088989669 0.47100002
-0.03450723 -0.0064431131 0.47100002
-0.031316318 -0.0075247148 0.47150001
-0.028599059 -0.0079464633 0.47280002
-0.02663834 -0.0089367544 0.47300002
-0.079046845 -0.0046207607 0.47300002
-0.076378495 -0.0046088751 0.47175002
-0.074414857 -0.0046012225 0.47100002
-0.037346896 -0.0044801231 0.47119999
-0.034579843 -0.0046103396 0.472
-0.032392997 -0.0048262845 0.47300002
-0.079509273 -0.0013837651 0.47300002
-0.076338351 -0.0015330306 0.47150001
-0.074414857 -0.0015314049 0.47100005
-0.04289807 -0.00071278698 0.47100005
-0.040703963 -0.0015322691 0.47166666
-0.038120631 -0.001947002 0.47266671
-0.03527033 -0.0027710488 0.47300002
-0.079608142 0.0015438563 0.47266671
-0.076338351 0.0015400456 0.47150004
-0.074414857 0.0015384124 0.47100002
-0.043507181 0.0016625117 0.47140002
-0.041024987 0.0013394216 0.47300002
-0.082129695 0.0058609387 0.47300002
-0.079663418 0.0046277978 0.47299999
-0.076391883 0.0046168175 0.47183338
-0.073800892 0.0046082293 0.47099999
-0.071959004 0.0058361567 0.47100002
-0.04619639 0.0055322731 0.47125
-0.043677259 0.004467295 0.47225004
-0.041436035 0.0033946568 0.47300002
-0.082129695 0.0070940806 0.47300002
-0.079663418 0.007710651 0.47300002
-0.076500252 0.0077025006 0.47250003
-0.073918737 0.0076906001 0.47175002
-0.070731081 0.0076780482 0.47099999
-0.068275221 0.008292011 0.47100002
-0.04862839 0.0076780478 0.47100002
-0.046268832 0.0076943492 0.47200003
-0.043902315 0.007710651 0.47300002
-0.078841321 0.0099714091 0.47300002
-0.076580554 0.010176932 0.47300002
-0.073420875 0.010166393 0.47250006
-0.070154652 0.010139607 0.47125
-0.067661256 0.010747865 0.47099999
-0.064766861 0.011098702 0.47099999
-0.061726276 0.011566482 0.47100005
-0.058451805 0.011975792 0.47100005
-0.055381991 0.011975792 0.47100002
-0.052136756 0.011098701 0.47099999
-0.049268167 0.010139607 0.47125003
-0.046574973 0.010045012 0.47260004
-0.07637503 0.012437691 0.47300002
-0.073480733 0.013256961 0.47288889
-0.070291005 0.013236859 0.47216669
-0.067769326 0.01384001 0.47175002
-0.064614736 0.013822789 0.47116664
-0.061521623 0.013817683 0.47100002
-0.058451805 0.013817683 0.47099999
-0.055381991 0.013817683 0.47100002
-0.052385781 0.013837674 0.47166669
-0.049398962 0.013246638 0.47250006
-0.047293454 0.012951501 0.47300002
-0.072881132 0.01634264 0.47300002
-0.070341066 0.016325364 0.47250003
-0.067804918 0.016308088 0.47200003
-0.064728588 0.01630809 0.47200003
-0.061652243 0.016308088 0.47200003
-0.05857591 0.016308088 0.47200003
-0.055528641 0.016317051 0.47225001
-0.05249685 0.016331557 0.47266671
-0.049656976 0.016137116 0.47300002
-0.07226456 0.01880892 0.47300002
-0.070414849 0.019425491 0.47300002
-0.067450225 0.019570021 0.47275004
-0.064454623 0.019232845 0.47257146
-0.061739322 0.019412672 0.47266671
-0.058838312 0.01926654 0.47287503
-0.055617157 0.018808922 0.47300002
-0.053150877 0.018192349 0.47300002
-0.070414849 0.021891773 0.47300002
-0.067332 0.021891773 0.47300002
-0.064249143 0.021891773 0.47300002
-0.062399436 0.021891773 0.47300002
0.032621257 -0.1387092 0.47400004
0.034547612 -0.14024021 0.47500002
0.037640892 -0.13962233 0.47500002
0.04012021 -0.13900185 0.47500002
0.043927558 -0.13805352 0.47600001
0.028355833 -0.13652514 0.47500002
0.042507242 -0.13747346 0.47400004
0.04640948 -0.13681255 0.47600001
0.050132371 -0.13433063 0.47600001
0.051265407 -0.13343056 0.47500002
0.0066846167 -0.11175803 0.47500002
0.077433541 -0.10330657 0.47600001
0.073749252 -0.099526502 0.47425002
0.076032512 -0.10061109 0.47500002
0.070517533 -0.097105689 0.47400007
0.073556669 -0.097516507 0.47499999
0.07619258 -0.098342724 0.47600001
0.068046041 -0.094634198 0.47400007
0.070495009 -0.094548419 0.47440004
0.073268719 -0.09432859 0.47542858
0.062279213 -0.090515032 0.47400004
0.065162621 -0.091338865 0.47400001
0.067864157 -0.091782607 0.47416672
0.070336595 -0.091695629 0.47499999
0.073308133 -0.091201328 0.47499999
0.061867297 -0.088455461 0.47400007
0.064234637 -0.088801377 0.47475001
0.067411296 -0.088290334 0.47533333
0.070534736 -0.088941984 0.47550005
0.073431492 -0.089121938 0.47580004
0.056100477 -0.084336288 0.47400004
0.058766533 -0.08524438 0.47414288
0.061769962 -0.085722052 0.47483334
0.064358331 -0.085872054 0.47566667
0.053628977 -0.081864797 0.47400004
0.0554826 -0.082482666 0.47400004
0.058634624 -0.082569458 0.47450003
0.061824273 -0.082700513 0.47525004
0.064196609 -0.082623869 0.47599998
0.05313468 -0.079146147 0.47400004
0.0554826 -0.079393297 0.47400001
0.05861403 -0.079449132 0.47433335
0.061791424 -0.079560794 0.47499999
0.063648954 -0.080179974 0.47500002
0.053011104 -0.076303929 0.47400004
0.055482604 -0.076303929 0.47400004
0.058593001 -0.076330967 0.47416672
0.061172247 -0.077084087 0.47500002
-0.032255523 -0.073214561 0.47400004
0.053011104 -0.073832437 0.47400004
0.055276643 -0.074038394 0.47400007
0.057748139 -0.074038394 0.47400007
-0.0328734 -0.071978815 0.47400004
0.053628977 -0.071978815 0.47400004
0.056100477 -0.071978815 0.47400004
0.038800001 -0.063328572 0.47400004
0.040653624 -0.063328572 0.47400004
0.043125115 -0.063328572 0.47400004
-0.045230884 -0.060857076 0.47400004
-0.043995135 -0.061474949 0.47400004
0.037873186 -0.061166015 0.47400004
0.040653624 -0.061474949 0.47400004
0.043495845 -0.06135137 0.47400004
-0.049041368 -0.057270397 0.47500002
-0.046312161 -0.058231108 0.47400001
-0.043686196 -0.058385577 0.47400004
0.028914014 -0.057149831 0.47400004
0.031646423 -0.057668246 0.47420007
0.034511462 -0.058446299 0.47450003
0.037626177 -0.058480807 0.47477776
0.040724877 -0.058487792 0.47483334
0.042949051 -0.059250474 0.47433338
-0.04963474 -0.055384029 0.47475001
-0.04646663 -0.055296201 0.47400001
-0.043583218 -0.055502165 0.47400007
0.023971019 -0.054678336 0.47400004
0.026049197 -0.055128705 0.47433338
0.028325986 -0.055353884 0.47450003
0.031463191 -0.055432092 0.47516668
0.034583978 -0.055470541 0.47550005
0.037411153 -0.055559773 0.47520003
0.04012021 -0.056032043 0.47500002
-0.054108463 -0.051186152 0.47600001
-0.052137256 -0.052316979 0.47499999
-0.049763739 -0.052542627 0.47480002
-0.046713777 -0.052948289 0.47400004
0.017792279 -0.05220684 0.47400004
0.019677311 -0.051670264 0.47475004
0.022030631 -0.052541059 0.47480002
0.025033023 -0.05310405 0.47540003
0.028415531 -0.053668078 0.47600001
0.030897453 -0.053668078 0.47600001
0.035240822 -0.053668078 0.47600001
-0.057831351 -0.048704229 0.47600001
-0.055684689 -0.049049672 0.47533336
-0.052720282 -0.049186546 0.47466668
-0.049432427 -0.049488187 0.47400004
-0.04770238 -0.050971087 0.47400004
0.010995664 -0.048499592 0.47400004
0.013596678 -0.049508654 0.47420001
0.016580395 -0.049804136 0.47466666
0.019108312 -0.049945191 0.47600001
-0.058040779 -0.04647325 0.47433338
-0.055793531 -0.046695825 0.4745
-0.052892525 -0.046769544 0.47400004
0.010995663 -0.046645973 0.47400004
0.013488794 -0.046719454 0.47475001
0.015788306 -0.047016378 0.47566667
-0.061295606 -0.044174474 0.47400004
-0.058824115 -0.044174474 0.47400004
-0.055734739 -0.04479235 0.47400004
-0.05388112 -0.04479235 0.47400004
0.0074943765 -0.042732764 0.47400007
0.010390822 -0.043607362 0.47455555
0.013206964 -0.044026997 0.47575003
-0.066378348 -0.039933424 0.47500002
-0.065002859 -0.040467229 0.47400004
0.0054347957 -0.039849356 0.47400004
0.0072925882 -0.040488247 0.47425002
0.01016129 -0.040710587 0.47540003
-0.066845745 -0.037193794 0.47480002
-0.065002859 -0.037995733 0.47400004
0.0029632994 -0.036142111 0.47400004
0.0049404963 -0.03713071 0.47400004
0.0073014493 -0.037443135 0.47483334
0.0096692834 -0.037751697 0.47560006
-0.072722897 -0.033812679 0.47600001
-0.070712581 -0.033741646 0.47500002
-0.067522675 -0.034312602 0.47433338
-0.00074394548 -0.033670612 0.47400004
0.001975951 -0.034179121 0.47420007
0.0048248693 -0.034342416 0.47475001
0.0071076527 -0.034615442 0.47566667
0.0091806138 -0.035053644 0.47600001
-0.075513147 -0.03046044 0.47533336
-0.073215194 -0.031276342 0.47516671
-0.070675693 -0.031867661 0.47475001
-0.067721501 -0.031940568 0.47400004
-0.0032154422 -0.031199118 0.47400004
-0.0013627773 -0.03122019 0.47433338
0.0017328745 -0.031278692 0.47522223
0.0046274662 -0.032135256 0.47566667
-0.079465285 -0.027578872 0.47550002
-0.076864213 -0.028154548 0.47475001
-0.07365308 -0.028109746 0.47400001
-0.070687294 -0.028974771 0.47400004
-0.068710096 -0.02996337 0.47400004
-0.0069226865 -0.027491873 0.47400004
-0.0042995918 -0.028595228 0.47437501
-0.0013661291 -0.028198048 0.47550002
0.00049387786 -0.028848832 0.47600001
-0.081823289 -0.025539599 0.47599998
-0.079339623 -0.025679141 0.47475001
-0.076742455 -0.025638252 0.47400004
-0.07447692 -0.025844209 0.47400007
-0.010012057 -0.025020376 0.47400004
-0.0075485143 -0.025664642 0.4745
-0.0047114864 -0.025837809 0.47540003
-0.082197942 -0.022439931 0.47542861
-0.079242028 -0.02255681 0.47416672
-0.077051394 -0.022857819 0.47400004
-0.013513344 -0.021725049 0.47400007
-0.010646503 -0.022585012 0.47477776
-0.0077734669 -0.023454605 0.47566667
-0.0057109334 -0.023884984 0.47600001
-0.08229927 -0.019641342 0.47540006
-0.079298168 -0.019480035 0.47450003
-0.077360332 -0.019459508 0.47400004
-0.015984841 -0.01925355 0.47400007
-0.013740684 -0.019489974 0.47475001
-0.011282748 -0.020140918 0.47550002
-0.082222745 -0.016247127 0.47557145
-0.079298168 -0.016387407 0.47450003
-0.077051394 -0.016679076 0.47400004
-0.018456338 -0.015546306 0.47400007
-0.01622452 -0.016403804 0.47500002
-0.014382547 -0.017041121 0.47550002
-0.085546173 -0.013543631 0.47599998
-0.082535721 -0.013318124 0.47533336
-0.079298168 -0.013294777 0.47450003
-0.077360332 -0.013280768 0.47400004
-0.021751666 -0.012662894 0.47400004
-0.019305982 -0.013299012 0.47466668
-0.016879594 -0.013957284 0.47600001
-0.085753009 -0.010854879 0.47600001
-0.082476974 -0.010832075 0.47499999
-0.079213962 -0.010809271 0.47400004
-0.077360332 -0.011427145 0.47400004
-0.022178879 -0.01061048 0.47433338
-0.020159973 -0.011046504 0.47533336
-0.087614447 -0.0077524739 0.47599998
-0.085633337 -0.007742051 0.47533336
-0.082400665 -0.0077292379 0.47455555
-0.0795229 -0.0080288379 0.47400004
-0.027930407 -0.0064841523 0.47400004
-0.02533032 -0.0075725978 0.47450003
-0.022654587 -0.0085734837 0.47566667
-0.020602481 -0.0089934357 0.47600001
-0.090096369 -0.0052705491 0.47600001
-0.088234924 -0.0046500675 0.47600001
-0.085572854 -0.0046402989 0.47500002
-0.082362078 -0.0046337862 0.47433338
-0.030835196 -0.0044273934 0.47433338
-0.028607856 -0.004639647 0.47500002
-0.026158653 -0.0052650128 0.47550002
-0.090923674 -0.0011340077 0.47600004
-0.088111788 -0.0015459288 0.47533336
-0.085543036 -0.0015443033 0.47483334
-0.082656398 -0.0017176948 0.47400001
-0.036992561 -0.00071732706 0.47400007
-0.034374639 -0.0011302145 0.47483334
-0.031714648 -0.0021636954 0.47516671
-0.029289218 -0.002788624 0.47600001
-0.093819253 0.0021752249 0.47600001
-0.091861874 0.0015531108 0.47550005
-0.088668741 0.0015514776 0.47499999
-0.085438065 0.001548702 0.47425002
-0.082921207 0.0015482113 0.47400004
-0.039464056 0.0017541694 0.47400007
-0.037276346 0.0015521293 0.47500002
-0.03549403 0.0009342627 0.47600001
-0.094276227 0.0049028634 0.47580004
-0.091764629 0.0046473653 0.47499999
-0.088627845 0.0046449015 0.47477776
-0.085392691 0.0046375818 0.47400001
-0.083044782 0.0043904325 0.47400004
-0.040174942 0.0047972682 0.4745
-0.037645768 0.0043451143 0.47575003
-0.094439737 0.0077595552 0.47600001
-0.091764629 0.0077432543 0.47500002
-0.088638067 0.0077407546 0.47483334
-0.085392699 0.0077269534 0.47400004
-0.083127163 0.0079329116 0.47400007
-0.042759389 0.0077269529 0.47400004
-0.04063651 0.0076229395 0.47520003
-0.093819253 0.010241481 0.47600001
-0.091861874 0.010230722 0.47550005
-0.088668741 0.010219965 0.47499999
-0.085438065 0.010204153 0.47425002
-0.082303338 0.010198449 0.47400001
-0.079831839 0.010816323 0.47400004
-0.045230884 0.010816323 0.47400004
-0.043399818 0.010204153 0.47425002
-0.041255984 0.010027916 0.47566667
-0.090923674 0.012930232 0.47600004
-0.088142462 0.013330738 0.47550002
-0.085572846 0.013315853 0.47499999
-0.082400084 0.013304263 0.47455555
-0.079213962 0.01328782 0.47400001
-0.076948412 0.01411165 0.47400007
-0.045744266 0.013541097 0.47420007
-0.043498844 0.013325632 0.47533336
-0.088234931 0.01582581 0.47600001
-0.085753009 0.016446292 0.47600001
-0.082535274 0.016423693 0.47533336
-0.079339623 0.016403429 0.47475001
-0.076742455 0.016377192 0.47400004
-0.07488884 0.016377192 0.47400004
-0.048938125 0.016995065 0.47400004
-0.046514776 0.016394684 0.47450003
-0.044180766 0.016446292 0.47600001
-0.10312648 0.020789659 0.47600001
-0.10002407 0.020789659 0.47600001
-0.098162621 0.020789659 0.47600001
-0.085132524 0.018307734 0.47600001
-0.08234036 0.018617975 0.47600001
-0.079464853 0.019529032 0.47550002
-0.076877587 0.019501219 0.47483334
-0.074006155 0.019643098 0.47400001
-0.057588365 0.02070231 0.47400004
-0.055734739 0.02070231 0.47400004
-0.052484334 0.019825872 0.47414288
-0.049608056 0.019487964 0.47450003
-0.046946112 0.019343199 0.47528574
-0.10349876 0.022527006 0.47600001
-0.10064455 0.022651102 0.47600001
-0.097542144 0.022651104 0.47600004
-0.094646566 0.022857929 0.47599998
-0.092578292 0.023271585 0.47600001
-0.078927711 0.022651102 0.47600001
-0.076312385 0.022611668 0.47516668
-0.07303521 0.022555932 0.47400004
-0.070563719 0.023173807 0.47400004
-0.06747435 0.023173807 0.47400007
-0.064384982 0.023173807 0.47400004
-0.061073799 0.022689285 0.47420001
-0.058267638 0.022580376 0.4745
-0.055881392 0.02261574 0.47525004
-0.05279259 0.021999767 0.47533336
-0.050385579 0.022030622 0.47600001
-0.10291966 0.024926201 0.47599998
-0.10064455 0.025753507 0.47600004
-0.097519383 0.025747497 0.47588894
-0.094439737 0.025753507 0.47600004
-0.091957808 0.025133027 0.47600001
-0.076231085 0.025578752 0.47562507
-0.073189728 0.025700277 0.47500002
-0.070467934 0.025885904 0.4751429
-0.067576028 0.02533162 0.47471428
-0.064554445 0.025093751 0.47525001
-0.061799169 0.024797039 0.47550005
-0.059072316 0.024512546 0.47600001
-0.10002407 0.028235434 0.47600001
-0.097542144 0.028855914 0.47600004
-0.095060222 0.028235434 0.47600001
-0.075204819 0.028235434 0.47600001
-0.073963858 0.028235434 0.47600001
-0.071481936 0.028235434 0.47600001
-0.096301183 0.030717358 0.47600001
0.03034058 -0.13834356 0.47700003
0.037801996 -0.1408307 0.47700003
0.041532706 -0.13958712 0.47700003
0.077596217 -0.10352361 0.47700003
0.077758893 -0.10062519 0.47800002
0.076514453 -0.097511493 0.47800002
0.075889632 -0.094394311 0.47800002
0.075889632 -0.09252505 0.47800002
0.070756584 -0.087357201 0.47700003
0.06686502 -0.085758418 0.47733334
0.06516052 -0.082382925 0.47700003
0.066612914 -0.083266377 0.47850001
-0.055465706 -0.05129369 0.47700003
0.022879165 -0.05129369 0.47700003
0.025677197 -0.05160458 0.47700003
0.028505076 -0.051969245 0.47750002
0.031639326 -0.052420478 0.47783336
0.034436405 -0.052619211 0.47775003
0.036558427 -0.053780831 0.47700003
0.019977503 -0.049221072 0.47700003
0.022292702 -0.049505729 0.47775003
0.025437208 -0.049566064 0.47833335
0.028580021 -0.049609348 0.47875005
0.030467793 -0.049635582 0.47900003
0.017082097 -0.04592064 0.47716668
0.01968707 -0.046664711 0.47800002
0.022127451 -0.047312904 0.47866669
0.025472661 -0.047762409 0.47900003
0.028594621 -0.047762409 0.47900003
0.031092187 -0.047762409 0.47900003
0.014174179 -0.043210488 0.47700003
0.016697116 -0.04330064 0.47800004
0.019228743 -0.044016056 0.47900003
0.01168704 -0.040101565 0.47700003
0.013559823 -0.040744364 0.47725001
0.016512271 -0.040657509 0.47866669
-0.069705315 -0.036863368 0.47800002
-0.068043754 -0.038939457 0.47800002
0.011376148 -0.037303537 0.47700003
0.013571769 -0.037666563 0.47766665
0.015968978 -0.037490316 0.47860003
-0.075520806 -0.033954751 0.47800002
-0.073808312 -0.034761857 0.47766671
-0.071010321 -0.035127286 0.47700003
0.0079563325 -0.033883717 0.47700003
0.010692185 -0.034381144 0.47700006
0.013580806 -0.034577839 0.47800002
0.016106784 -0.034650177 0.47900003
-0.079425164 -0.030279439 0.47900003
-0.07668668 -0.031741034 0.47750002
0.0050546699 -0.030567532 0.47700003
0.0073396727 -0.031417649 0.47733334
0.010458646 -0.031439878 0.47766665
0.013585757 -0.031472936 0.47816667
0.015482393 -0.032152615 0.47900003
-0.081751697 -0.027723869 0.47800002
-0.079799525 -0.028939743 0.47750002
0.0019884491 -0.028174898 0.47720003
0.0048553562 -0.028331807 0.47775003
0.0073499233 -0.028346958 0.47800002
0.010229265 -0.028506899 0.47860003
0.012984826 -0.028406262 0.47900003
-0.084067807 -0.025178732 0.47700003
-0.082997873 -0.026477695 0.47800002
-0.003235793 -0.025178732 0.47700003
-0.0012470235 -0.025458073 0.47760004
0.0015651456 -0.025602277 0.47828573
0.0050758636 -0.026116826 0.479
0.0073653003 -0.026533088 0.47900003
-0.085193969 -0.02271538 0.47749999
-0.0073858923 -0.021877535 0.47733334
-0.0044870386 -0.022731623 0.47785714
-0.0019984883 -0.023386039 0.47850001
-0.088166639 -0.019040387 0.47900003
-0.085596375 -0.019466784 0.47720003
-0.010391272 -0.019281715 0.47725001
-0.0078176269 -0.01984467 0.47833335
-0.0057469271 -0.02028917 0.47900003
-0.090664208 -0.015294035 0.47900003
-0.08848156 -0.01625957 0.47800002
-0.085466824 -0.016629193 0.47700003
-0.013502151 -0.016170837 0.47725001
-0.011142068 -0.016934751 0.47833335
-0.090890318 -0.013185144 0.47800002
-0.088466965 -0.013372153 0.47725001
-0.086554945 -0.012743038 0.47700003
-0.016096963 -0.013166466 0.47733334
-0.014062068 -0.013619217 0.47866669
-0.091422394 -0.010105504 0.47725001
-0.088544652 -0.010504613 0.47700006
-0.01867128 -0.010015265 0.4774
-0.016656052 -0.010599695 0.47850001
-0.094213456 -0.0071619591 0.47800002
-0.091594048 -0.0071519702 0.47733334
-0.089042082 -0.007146976 0.47700003
-0.022303857 -0.0069397143 0.47700003
-0.019699197 -0.0072893118 0.47820002
-0.099405698 -0.0040549831 0.47900003
-0.097431362 -0.0040507503 0.47850001
-0.094837196 -0.0046702577 0.47800004
-0.091777936 -0.0045354799 0.47700006
-0.025321927 -0.0043510608 0.47725001
-0.022557661 -0.0046689538 0.47800004
-0.02073233 -0.005303767 0.47900003
-0.099405698 -0.0015574162 0.479
-0.097363055 -0.0015551411 0.47816667
-0.094671428 -0.0015518898 0.47716668
-0.092358269 -0.0023799597 0.47700003
-0.031216104 -0.00030734396 0.47700003
-0.028640484 -0.0013031075 0.47760001
-0.025866751 -0.0019103993 0.47828576
-0.023229897 -0.0028061997 0.47900003
-0.099821962 0.0017726733 0.479
-0.097278319 0.0015601339 0.47775
-0.094845414 0.0013507485 0.47700003
-0.034090184 0.001683281 0.47720003
-0.031511489 0.0013551036 0.47833335
-0.029473815 0.00094015093 0.47900003
-0.099822201 0.0049318234 0.47860003
-0.097227745 0.0046718256 0.47749999
-0.095259935 0.0034233644 0.47700003
-0.036812168 0.0052887183 0.47700003
-0.034569774 0.0045237178 0.47825003
-0.099926323 0.0078003099 0.47850001
-0.097176522 0.0077802585 0.47725001
-0.039299306 0.0083976416 0.47700003
-0.037511777 0.0077928109 0.47800004
-0.035717733 0.0071840687 0.47900003
-0.10315204 0.010930419 0.47900003
-0.10027969 0.010417735 0.47840005
-0.097176515 0.010268049 0.47725004
-0.095259935 0.010262996 0.47700003
-0.039741293 0.010477863 0.47733334
-0.037772443 0.010091159 0.47866669
-0.10601626 0.01365988 0.47840005
-0.103632 0.013408427 0.47833335
-0.10060012 0.01324418 0.47799999
-0.097391769 0.013549574 0.47700003
-0.094638146 0.013371919 0.47700003
-0.092358261 0.014200966 0.47700003
-0.040750466 0.013233994 0.47762501
-0.038215298 0.012179203 0.47900003
-0.10652601 0.016491925 0.47733334
-0.10339762 0.016489154 0.47725004
-0.10085599 0.016480843 0.47700003
