# .PCD v0.7 - Point Cloud Data file format
VERSION 0.7
FIELDS x y z
SIZE 4 4 4
TYPE F F F
COUNT 1 1 1
WIDTH 1325
HEIGHT 1
VIEWPOINT 0 0 0 1 0 0 0
POINTS 1325
DATA ascii
0.074452996 -0.084549755 0.45363894
0.076839261 -0.081810601 0.45348677
-0.055517465 -0.079347089 0.45476907
-0.052979302 -0.077744581 0.4524312
-0.049123753 -0.075477473 0.45129585
-0.035788409 -0.078973815 0.45283547
-0.034188729 -0.076538451 0.45220092
0.064755164 -0.079842567 0.45262235
0.06720975 -0.07708393 0.45224509
0.078896597 -0.079381362 0.45358396
0.081802838 -0.076759003 0.45336676
-0.046936497 -0.073207989 0.45263752
-0.044518076 -0.07057111 0.45282632
-0.031786099 -0.073787078 0.45213836
-0.028957745 -0.071556553 0.45248684
0.069179617 -0.074017756 0.45278087
0.071250089 -0.071612328 0.45191944
0.084193252 -0.073980011 0.45366794
-0.041774042 -0.067311592 0.45216173
-0.026268939 -0.069002174 0.45197064
-0.02299618 -0.066231996 0.45265591
0.073700964 -0.067999087 0.45268336
0.075604975 -0.06591408 0.451767
0.087940812 -0.069861516 0.45426822
-0.037441894 -0.063551173 0.45267403
-0.03390101 -0.061183553 0.45273328
-0.020819595 -0.063305721 0.45137492
-0.01901065 -0.06146986 0.45293066
0.077716418 -0.062768921 0.45243281
0.091408461 -0.064960413 0.45459425
-0.031381726 -0.059958532 0.45333225
-0.028575376 -0.057535443 0.45413896
-0.016906051 -0.057575069 0.45225284
0.079899408 -0.059645701 0.45245254
0.082235843 -0.057168033 0.4524025
-0.026998404 -0.05247543 0.45241567
-0.015293226 -0.054679304 0.45125809
-0.012647069 -0.052145157 0.45253828
0.084279686 -0.054254659 0.45397481
0.08658845 -0.052305952 0.45197001
-0.025768569 -0.049609423 0.45293593
-0.022317899 -0.046508357 0.45329815
-0.0075387494 -0.047401272 0.45253438
0.088714153 -0.047950264 0.45293623
0.090071119 -0.046246339 0.45108545
-0.020522594 -0.044582095 0.45033669
-0.019064931 -0.042037282 0.45284131
-0.0051903129 -0.044620037 0.45005253
-0.0026799126 -0.042487416 0.45250696
0.089462474 -0.042405922 0.45260534
-0.016809164 -0.038121961 0.45217124
-0.014223486 -0.035159964 0.45329338
-0.0003256003 -0.038751539 0.45072332
0.0011019349 -0.037163921 0.45274752
0.084105559 -0.035920203 0.45294416
0.087002397 -0.038191311 0.45221999
-0.011543163 -0.032097004 0.45214853
-0.0095656365 -0.030283436 0.4546594
0.0035255938 -0.033412926 0.45188269
0.0058529428 -0.030946473 0.4523147
0.07847631 -0.031432748 0.45256466
0.081724145 -0.033930741 0.45227155
-0.0071637658 -0.02738975 0.45233959
0.0083793374 -0.027718214 0.45216489
0.010260552 -0.025009451 0.45279336
0.069445193 -0.025808617 0.4549396
0.072362304 -0.026885133 0.45235947
0.076102555 -0.029172743 0.45166141
-0.0054821479 -0.023875285 0.45255533
-0.0042504584 -0.021332681 0.45234245
0.012164828 -0.022339866 0.45242992
0.064186737 -0.02080686 0.45292634
0.067278698 -0.022869378 0.45225769
-0.0018854126 -0.017512493 0.4522835
0.014461805 -0.019743674 0.45152414
0.016917305 -0.017332586 0.45225433
0.058094352 -0.01643707 0.45271292
0.062173955 -0.018856969 0.45252192
-0.00046727061 -0.014483471 0.45427743
0.0012336404 -0.012300616 0.45218557
0.019607715 -0.014323835 0.45223665
0.021774752 -0.011880335 0.45224074
0.049197331 -0.010760839 0.45252004
0.052342948 -0.012769515 0.45233428
0.055591989 -0.014625499 0.45181838
0.0035345894 -0.0081549454 0.45301262
0.0054994449 -0.0060423296 0.45135012
0.024057448 -0.0087100463 0.45179614
0.025858911 -0.0062044603 0.45230901
0.044123478 -0.0059541524 0.45304585
0.046699241 -0.0082860114 0.45242214
0.0078350883 -0.002722872 0.45238638
0.010311007 -8.5987151e-05 0.45063764
0.018029362 -0.00084203482 0.45170394
0.028529974 -0.0027479951 0.45210302
0.030781476 -0.00096049841 0.45349875
0.038710359 -0.00097633153 0.45239496
0.04200821 -0.0034904028 0.45231572
0.012298271 0.0027119592 0.45229355
0.018362174 0.0014573137 0.45035383
0.023393352 0.0024348702 0.45220357
0.028139967 0.0036716787 0.45226881
0.032995023 0.0024778713 0.45222294
0.036265537 0.0020587966 0.45277283
0.013699467 0.0070555895 0.45212486
0.038186107 0.0064269216 0.45188957
0.042185064 0.0086493157 0.45282519
0.047719274 0.0094567947 0.45421875
0.050092682 0.009938471 0.45163333
0.072655916 0.0083230212 0.45056254
0.023650594 0.013125008 0.45217937
0.026492316 0.013033926 0.45116466
0.043785088 0.010852776 0.45060578
0.047244526 0.010895696 0.45121592
0.023764648 0.015794899 0.45115381
0.026443223 0.015280671 0.45036229
0.0031411257 -0.15662271 0.45999467
0.0060574082 -0.15555647 0.45896369
0.0079121683 -0.15257755 0.45883667
0.010894384 -0.15139994 0.45884368
0.0089688431 -0.14894065 0.45937309
0.012277991 -0.14833844 0.45940688
0.015115323 -0.14646065 0.45929581
0.013010321 -0.14215747 0.45805314
0.01688756 -0.14114955 0.45891252
0.014604667 -0.13945815 0.45831138
0.017414186 -0.13733345 0.45774463
0.020139724 -0.13517267 0.4553771
0.019507244 -0.13396829 0.45930696
0.021961717 -0.13237637 0.45752904
0.024485528 -0.12928633 0.45784065
0.026687682 -0.12709412 0.45725498
0.029093474 -0.1242973 0.45792025
0.0308304 -0.12181587 0.45732197
0.033245642 -0.11768341 0.45755187
0.035341579 -0.11536159 0.45703113
0.037332665 -0.11273117 0.45761555
0.052407108 -0.11174145 0.45748433
-0.045562215 -0.091560028 0.45744586
-0.044797182 -0.090901472 0.457111
0.053194147 -0.091220699 0.45740864
0.055084795 -0.090167597 0.45575088
0.069320574 -0.091271833 0.45761308
0.070243627 -0.090554096 0.45897514
-0.06538561 -0.089561671 0.45556214
-0.06331525 -0.087568842 0.45646477
-0.05965839 -0.085386753 0.45793542
-0.042395845 -0.087605983 0.45740911
0.053875078 -0.089649431 0.45922455
0.056976393 -0.087161131 0.45745322
0.072960928 -0.087410353 0.45731124
0.075131252 -0.085353538 0.45923302
-0.056834172 -0.082265906 0.45734268
-0.040205196 -0.084227279 0.45909065
-0.038601417 -0.082364328 0.45695341
0.059445672 -0.084119201 0.45821244
0.061792325 -0.082315333 0.45731154
0.077456787 -0.082444988 0.45747221
-0.055535484 -0.079020835 0.45709798
-0.053045813 -0.077026635 0.45758155
-0.036261201 -0.079415768 0.45782432
-0.033740621 -0.076749153 0.45734537
0.064559191 -0.079182379 0.4576256
0.066308826 -0.076894529 0.45742157
0.079714634 -0.079449549 0.45581669
0.082461484 -0.077137157 0.45777345
-0.047176823 -0.073531255 0.45741636
-0.044127602 -0.07087291 0.45787939
-0.031173609 -0.074050114 0.45758384
-0.02806234 -0.071361974 0.45747256
0.068796463 -0.073224403 0.45756114
0.070709899 -0.070800535 0.45708665
0.084601097 -0.073918536 0.45583984
0.08646185 -0.071965411 0.45770806
-0.041305002 -0.067595273 0.45787227
-0.039300796 -0.06534268 0.45784873
-0.025492519 -0.068936698 0.4565376
-0.023073141 -0.066463582 0.45751664
0.07269562 -0.06757918 0.45740739
0.088953972 -0.06903334 0.45719653
0.090548992 -0.066260673 0.45736036
-0.036822308 -0.06277632 0.45781508
-0.034321472 -0.060376119 0.45815635
-0.02060031 -0.064306073 0.45771527
-0.018516276 -0.061950702 0.45729786
0.074818015 -0.064403355 0.45792794
0.076950908 -0.062154658 0.45725954
0.090916574 -0.064111054 0.45885712
-0.031634055 -0.057926152 0.45762458
-0.029359691 -0.056627195 0.45610148
-0.016102152 -0.058007929 0.45730448
-0.014416441 -0.055599462 0.45951408
0.079919867 -0.059270032 0.45735773
0.081994109 -0.056911316 0.45743221
-0.027245073 -0.052535716 0.45737088
-0.012408325 -0.052637447 0.45730636
0.084037803 -0.054304495 0.45757064
0.086253263 -0.052092995 0.45734584
-0.025554871 -0.049466297 0.45794162
-0.023263367 -0.047136307 0.45786089
-0.0070135375 -0.047421072 0.45719108
0.088406391 -0.047249347 0.45744017
-0.020756086 -0.0445357 0.45800814
-0.018818514 -0.042038735 0.4575597
-0.0025609285 -0.042557605 0.45766401
0.08868368 -0.042431299 0.45754322
-0.016165158 -0.03801322 0.45772588
-0.014349859 -0.035821203 0.45751446
-0.00020864606 -0.038897716 0.45748019
0.0011780908 -0.036755811 0.45812392
0.083757408 -0.036194853 0.45755848
0.086788923 -0.038852721 0.45735696
-0.011794905 -0.032917619 0.45779076
-0.0095677376 -0.030384287 0.45755029
0.0036631897 -0.033782929 0.45749241
0.00611556 -0.031179843 0.45709795
0.077795006 -0.031866338 0.45742702
0.081147805 -0.034348093 0.45779616
-0.0072385939 -0.027510023 0.45766717
0.0086998073 -0.02783333 0.4573445
0.010086089 -0.026075548 0.45671731
0.069045104 -0.025744125 0.45818892
0.072317384 -0.028211392 0.45702353
0.075073332 -0.029940449 0.45602107
-0.0052648932 -0.024431005 0.45758522
-0.0041844123 -0.021998592 0.45760608
0.012636857 -0.022778174 0.45734844
0.063720211 -0.020917172 0.45727798
0.066692226 -0.023573181 0.45716307
-0.0023692355 -0.017435195 0.45726335
0.017579438 -0.017546946 0.45751128
0.057835732 -0.016819242 0.45735857
0.061427463 -0.019292984 0.45797586
-0.00061767868 -0.013965444 0.45785311
0.00061587855 -0.011376974 0.4576318
0.019996375 -0.014507934 0.45597452
0.021787601 -0.012219285 0.45744911
0.048613809 -0.010693035 0.45683861
0.052109271 -0.01307438 0.45719954
0.055130586 -0.014852846 0.45877892
0.0025719581 -0.0075164754 0.45715633
0.024238348 -0.0086980909 0.45743236
0.026335973 -0.0060165115 0.4574697
0.043212142 -0.0061180638 0.4573617
0.045929253 -0.0087090144 0.45737022
0.0043515563 -0.004899174 0.45915163
0.0071002147 -0.0026462425 0.45683277
0.010279179 -1.2166798e-05 0.45638224
0.023678869 -0.0011622533 0.45616609
0.027938025 -0.0023246824 0.45779875
0.031789254 -0.001106672 0.45763484
0.037897076 -0.0014843156 0.45771888
0.041060623 -0.0037403493 0.45718008
0.011978906 0.002498715 0.4575111
0.028221661 0.0014776736 0.45645347
0.03313002 0.0012136012 0.45741186
0.036773335 0.002699615 0.45740622
0.013886752 0.0072298078 0.45762715
0.039651245 0.0054392801 0.45712236
0.042536076 0.0071591162 0.45751858
0.047603425 0.0080895387 0.45718968
0.0032028272 -0.15586677 0.4619301
0.0041302359 -0.15336969 0.46313682
0.0057807048 -0.15194365 0.46131378
0.0084781665 -0.1476101 0.46193749
0.011884482 -0.14583108 0.46071795
0.0098753721 -0.14385065 0.46408373
0.01202829 -0.14234045 0.46213108
0.014134845 -0.13893029 0.46258646
0.016564734 -0.13642347 0.46210563
0.018777812 -0.13391429 0.4626489
0.021343997 -0.13156296 0.46211269
0.023921531 -0.12894762 0.46281072
0.026426574 -0.12666528 0.46219748
0.028726202 -0.1237123 0.46273372
0.030400263 -0.12117514 0.46237606
0.032664116 -0.11744505 0.46254352
0.034704883 -0.11449009 0.46319225
0.036435623 -0.11276831 0.46228743
0.052036129 -0.11263476 0.46217149
-0.063787788 -0.091097653 0.46196795
-0.045873743 -0.09214326 0.46238202
-0.04462257 -0.090150878 0.46265849
0.051314499 -0.091713049 0.46250489
0.069513366 -0.093049675 0.46310568
0.070904948 -0.091324508 0.46249294
-0.042959832 -0.087618023 0.4624168
0.053710498 -0.088215418 0.46290016
0.056194089 -0.086062953 0.46141449
0.073343292 -0.088396274 0.46187478
0.075410038 -0.085915133 0.46288046
-0.056601331 -0.083625987 0.46115443
-0.054399226 -0.081332482 0.46343058
-0.040683758 -0.084290445 0.46248746
-0.038375091 -0.081430249 0.46293756
0.05487287 -0.08483512 0.46473721
0.05816824 -0.083159357 0.46284372
0.061508287 -0.08089374 0.46205634
0.078034028 -0.082820192 0.46248475
0.080515467 -0.080465943 0.46265411
-0.052301206 -0.077034473 0.46261787
-0.035900094 -0.078912772 0.46219566
-0.033654433 -0.076433755 0.46169683
0.063860692 -0.07857988 0.46288836
0.066289917 -0.076191932 0.46248031
0.082732916 -0.077709951 0.46262529
-0.046922989 -0.073502302 0.46233529
-0.043356884 -0.070759021 0.46230167
-0.030890724 -0.073715948 0.46346557
-0.028445095 -0.071397625 0.46229643
0.06856589 -0.072313577 0.46259123
0.086610451 -0.072521076 0.46213818
-0.041236598 -0.067344703 0.4628613
-0.039487243 -0.065109171 0.46191952
-0.02615349 -0.06898009 0.46303508
-0.023588827 -0.066859297 0.46204677
0.069747657 -0.069149494 0.46338961
0.071957901 -0.067068025 0.46236488
0.089205012 -0.068299152 0.46271735
0.090399198 -0.06574291 0.46180752
-0.040474951 -0.064492285 0.46419331
-0.037604354 -0.062384583 0.46252221
-0.034815177 -0.060159363 0.46110529
-0.021124721 -0.064552277 0.46310282
-0.018700616 -0.061989594 0.46215257
0.074289136 -0.064058758 0.46267268
0.076624624 -0.061734762 0.46220389
0.09076611 -0.064294845 0.46345657
-0.035705734 -0.059647072 0.46378422
-0.033061288 -0.057394292 0.46219224
-0.016016226 -0.058292907 0.46258849
-0.014362941 -0.055543113 0.463617
0.079008356 -0.059184354 0.46278414
0.081876136 -0.056638792 0.46266511
-0.030608902 -0.054386761 0.46271166
-0.028340941 -0.05191331 0.46222958
-0.011967729 -0.052408937 0.46241146
-0.0098218471 -0.05053385 0.4628886
0.084124148 -0.054330755 0.46331626
0.086145595 -0.051837366 0.46239004
0.09857145 -0.053504273 0.46352291
0.10056844 -0.052625638 0.46396488
-0.026053656 -0.04886559 0.46298683
-0.023630621 -0.046440102 0.46211371
-0.007279404 -0.047838029 0.46236736
0.087781653 -0.047491759 0.4624981
-0.02137723 -0.042822257 0.46308336
-0.019300414 -0.041492458 0.46128321
-0.0029740531 -0.042785954 0.46227351
0.087890439 -0.042532958 0.46239287
-0.016971149 -0.037988819 0.46257505
-0.014116908 -0.035499871 0.4609071
-0.00046859184 -0.038810018 0.46231118
0.0013291141 -0.036581602 0.46276319
0.083485395 -0.036735639 0.46263245
0.085904375 -0.038914312 0.46266392
-0.01226138 -0.032559067 0.46304291
-0.0095943063 -0.03039662 0.46116108
0.0037967351 -0.033632651 0.46239001
0.006107206 -0.031078985 0.46313909
0.074265517 -0.030218909 0.46262327
0.077726215 -0.032274924 0.46229559
0.081121854 -0.034618832 0.46254146
-0.010994703 -0.029976822 0.46460953
-0.0081873704 -0.027311066 0.46267489
0.0087700337 -0.027907908 0.46215731
0.010394886 -0.025998585 0.46307975
0.069398791 -0.025935883 0.46217856
0.071639322 -0.028094338 0.46223924
-0.0059092119 -0.023409454 0.46269545
-0.0044446215 -0.02112327 0.46214885
0.012881888 -0.022921864 0.46265653
0.015187204 -0.020630285 0.46392268
0.064199805 -0.021167675 0.4623608
0.066885769 -0.023646224 0.46243066
-0.005010277 -0.019213062 0.46470007
-0.0030570328 -0.017541831 0.4623571
0.017839354 -0.017559838 0.46282524
0.05793155 -0.016381029 0.46231025
0.061347183 -0.018868092 0.46262223
-0.00079467893 -0.013156906 0.46281445
0.00033819379 -0.011308694 0.46237296
0.021429086 -0.012748781 0.46264058
0.048886448 -0.010558486 0.46042311
0.051695954 -0.012115806 0.46271124
0.055050284 -0.014313006 0.46231365
0.0021905561 -0.0076676188 0.46262833
0.023774525 -0.0089475615 0.46293947
0.026080161 -0.0063779764 0.46287909
0.043681528 -0.0062605035 0.46265668
0.046640206 -0.0088666184 0.46206373
0.0049773157 -0.0044824108 0.46129397
0.0074394345 -0.0022211631 0.4623414
0.028626991 -0.0042111138 0.46240449
0.03252368 -0.0013698293 0.46281925
0.037406992 -0.0019977535 0.46240377
0.040837672 -0.0041812793 0.46266344
0.012441841 0.0027360637 0.46253049
0.03285256 0.00020495057 0.46029419
0.037521396 0.0020942388 0.4620294
0.041413367 0.0040917317 0.46298352
0.014349346 0.0073718117 0.4627597
0.043262392 0.0059428131 0.46201587
0.046818592 0.0062978258 0.46243572
0.00093990722 -0.15579705 0.46722117
0.0020399787 -0.15393981 0.46773243
0.0065465136 -0.14885944 0.46734023
0.0096832933 -0.14399934 0.46817833
0.0117496 -0.14198852 0.46717036
0.022685975 -0.1421124 0.46839973
0.025581688 -0.14071813 0.46829408
0.013750066 -0.13886729 0.46771875
0.015923467 -0.13663921 0.46729898
0.021824986 -0.1372162 0.46614131
0.01865478 -0.13345763 0.46761012
0.021414362 -0.13152306 0.46708536
0.023551414 -0.12869215 0.46763828
0.026125394 -0.12610956 0.46732637
0.028173121 -0.12302873 0.46760982
0.03013438 -0.12098261 0.46641636
0.031773247 -0.11768034 0.46736741
0.034320485 -0.11413635 0.46738127
0.035764098 -0.1126495 0.46681833
0.049306482 -0.11472183 0.46893477
-0.066061571 -0.093588471 0.46892664
-0.063004464 -0.092531323 0.46759397
-0.045830261 -0.091699541 0.46751383
0.0493007 -0.093060702 0.46793622
0.050672509 -0.091370367 0.467172
0.069816217 -0.093396232 0.46676958
0.071741335 -0.091292679 0.46711528
-0.060892537 -0.088468879 0.46514457
-0.059198856 -0.088651881 0.4692266
-0.043062087 -0.087486602 0.46757442
0.052889347 -0.08767619 0.46738529
0.074174501 -0.08812654 0.46731684
0.075825676 -0.086072959 0.46799403
-0.052989077 -0.081631884 0.46796638
-0.040794503 -0.083877169 0.4677839
-0.038878907 -0.081786029 0.46767068
0.054616828 -0.084737219 0.46735743
0.057467729 -0.08236403 0.4675644
0.060562283 -0.080058031 0.46581286
0.078006864 -0.083450317 0.46720764
0.080493025 -0.080855042 0.46805117
-0.050426424 -0.076169036 0.46612948
-0.049300089 -0.075364463 0.46768087
-0.035957783 -0.078986764 0.46755266
-0.033546817 -0.076689228 0.46743405
0.059788734 -0.079890832 0.46869478
0.063066415 -0.077690944 0.46760169
0.065791637 -0.075134873 0.46635854
0.082875207 -0.077473082 0.46776634
-0.046694648 -0.073359057 0.46718675
-0.043755688 -0.071015514 0.46726242
-0.0311969 -0.073772296 0.46769488
-0.028813403 -0.071446352 0.46737033
0.067477539 -0.072520666 0.46756262
0.084977239 -0.074658267 0.46791703
0.086547047 -0.072330333 0.46688244
-0.042165402 -0.067607805 0.46745417
-0.026420124 -0.068954639 0.46819961
-0.023595572 -0.066552132 0.46789113
0.069425054 -0.069306046 0.46775967
0.07098721 -0.06712804 0.46727687
0.088810705 -0.06786786 0.4683027
0.090118155 -0.065900221 0.46561164
-0.041289113 -0.0637784 0.4672738
-0.038745947 -0.061446521 0.46664572
-0.020781165 -0.064029142 0.46718735
-0.017900441 -0.061379045 0.46730676
0.073847555 -0.06370753 0.46756741
0.076352142 -0.061196387 0.46720523
0.09205886 -0.061449666 0.46803671
-0.035833105 -0.05887812 0.46755078
-0.033454139 -0.056408107 0.46698257
-0.015637733 -0.058220267 0.46658099
-0.014317974 -0.056091588 0.46772742
0.07864283 -0.059074219 0.46748906
0.081378855 -0.056321785 0.46764526
0.09408766 -0.058957323 0.46746907
0.096211828 -0.056823391 0.46822032
-0.031119872 -0.053967763 0.46724194
-0.028801244 -0.051387299 0.46736458
-0.012000814 -0.052719872 0.46758652
-0.0099371076 -0.050682217 0.46887106
0.084236093 -0.052629884 0.46785179
0.085860737 -0.050995335 0.4664332
0.098846056 -0.054166175 0.46668625
0.10135579 -0.052945513 0.46766314
-0.026548356 -0.047873154 0.4676021
-0.024571553 -0.046001747 0.46617344
-0.0071015866 -0.047793314 0.46745628
0.086542927 -0.047566179 0.46733379
-0.022593984 -0.042603195 0.46724555
-0.0030534703 -0.04246293 0.46754014
0.086568467 -0.042423341 0.46730614
-0.020933911 -0.039893232 0.4689849
-0.017811557 -0.03727622 0.46725783
-0.00046323985 -0.038638659 0.4670434
0.0011441907 -0.036775038 0.46755692
0.082982674 -0.036858786 0.46738765
0.085640065 -0.039634425 0.46780396
-0.015394472 -0.034371518 0.46788651
-0.013349853 -0.032296281 0.46733761
0.0036105264 -0.034194224 0.46748146
0.0063758269 -0.031314276 0.46750137
0.074929088 -0.030508641 0.46919152
0.077881679 -0.032510005 0.46728668
-0.011094458 -0.028603479 0.46784839
-0.0094225602 -0.026525497 0.46716309
0.0088063581 -0.028136216 0.46732202
0.011073004 -0.025995746 0.46707609
0.06928885 -0.025370618 0.46645308
0.072332293 -0.028109353 0.46736377
-0.0071966979 -0.022621265 0.46738556
0.013009205 -0.023596944 0.46742439
0.015530741 -0.021032685 0.46776018
0.063656747 -0.020163715 0.46512288
0.067091063 -0.022679601 0.46779478
-0.005738935 -0.018536583 0.46777567
-0.0038104272 -0.016396632 0.46650118
0.018186437 -0.017979763 0.4676232
0.020355463 -0.015283973 0.46713579
0.058810938 -0.016062627 0.4673605
0.062234122 -0.018601997 0.46776807
-0.0016295486 -0.012753785 0.46779874
0.022010071 -0.012562151 0.46755788
0.052996539 -0.011979418 0.46688563
0.056284934 -0.014149484 0.46734563
0.0014737108 -0.007563984 0.4674767
0.024093339 -0.0091086403 0.46728912
0.026571088 -0.0067601842 0.46776643
0.04357687 -0.0057503856 0.46786919
0.04768616 -0.0083181309 0.4679395
0.00369821 -0.0044998303 0.46735036
0.0073468727 -0.0024488163 0.46786398
0.010068193 -0.00040211529 0.46814489
0.029006831 -0.0045138318 0.46729609
0.032729574 -0.002152378 0.46730995
0.037067626 -0.0018946127 0.4670344
0.04111572 -0.0041831834 0.46754345
0.012610189 0.0026034042 0.46750519
0.038455479 0.0013081431 0.46722475
0.0426802 0.003067516 0.4676618
0.046397123 0.0042058118 0.46869573
0.014580498 0.0057149432 0.46697715
0.015120149 0.007958469 0.46740338
0.046533763 0.0051385053 0.46654329
-0.00069976505 -0.15669598 0.47195944
0.00035202689 -0.15531389 0.470842
0.0012985654 -0.15406506 0.47174659
0.0093945097 -0.14552376 0.47210798
0.017105609 -0.14592525 0.47423637
0.0039605498 -0.14270569 0.47436824
0.0086360062 -0.14346983 0.47315285
0.011903909 -0.14194156 0.47277135
0.017322779 -0.14416781 0.47100979
0.022985175 -0.14233398 0.4730711
0.013929871 -0.13887383 0.47247505
0.016597258 -0.13642564 0.47213832
0.018768532 -0.13363951 0.47238269
0.021372376 -0.13104104 0.47231942
0.023941657 -0.12801488 0.47251269
0.02584751 -0.12553129 0.47248194
0.027879884 -0.12259779 0.47259066
0.030103654 -0.1200232 0.47481689
0.045855597 -0.12000728 0.47404134
0.031706221 -0.11763485 0.47229734
0.047581773 -0.11735154 0.47148839
-0.071227595 -0.11330676 0.47385129
-0.068599835 -0.11359701 0.47416082
0.034081504 -0.11387755 0.47255254
0.035382286 -0.11284953 0.47144189
-0.067713603 -0.09326046 0.47198576
-0.062008671 -0.091424592 0.47196749
-0.059188627 -0.090313338 0.47318819
-0.045951515 -0.093040362 0.47206765
-0.04466968 -0.091377273 0.47278583
0.048859138 -0.093373105 0.47188863
0.050788607 -0.091361918 0.47285593
0.069638088 -0.093833975 0.47135031
0.071242176 -0.091769397 0.47230634
-0.056147411 -0.087722264 0.47455662
-0.042578224 -0.087829515 0.47288239
0.053167753 -0.087573305 0.47271782
0.073688351 -0.088793255 0.47260815
0.076267615 -0.085879251 0.47210878
-0.051840566 -0.081826262 0.47286147
-0.040684998 -0.084331565 0.47217599
-0.037673604 -0.08191669 0.47255534
0.054834217 -0.084642902 0.47117707
0.057401776 -0.082276367 0.47259369
0.078500904 -0.082982644 0.47266644
0.080418222 -0.08013133 0.47269651
-0.050667882 -0.079377472 0.4728547
-0.049350422 -0.076622479 0.47327939
-0.035363834 -0.079640351 0.47216499
-0.032955609 -0.077457406 0.47281283
0.059752207 -0.079777785 0.47156975
0.062707312 -0.077268429 0.47232711
0.0825978 -0.07716959 0.47257605
-0.046554502 -0.073700108 0.47250694
-0.04419966 -0.071272001 0.47237056
-0.030803034 -0.07417573 0.47250518
-0.028833818 -0.071501903 0.4724904
0.064664245 -0.074696578 0.47406641
0.066884443 -0.072698824 0.47245461
0.084890418 -0.074410588 0.47256345
0.086130314 -0.07215634 0.4722822
-0.042497598 -0.067453496 0.47216141
-0.026649125 -0.069181636 0.47239071
-0.023220986 -0.066464409 0.47314143
0.069271177 -0.069134638 0.47245714
0.071075454 -0.066417143 0.47249138
0.08813598 -0.067703404 0.47264192
-0.041426666 -0.06335941 0.47211966
-0.038477469 -0.060905114 0.47263718
-0.020805115 -0.064272597 0.47230896
-0.017720748 -0.061276227 0.47236824
0.073787302 -0.06336236 0.47263998
0.076454177 -0.060676359 0.47230199
0.089777514 -0.064608216 0.47202873
0.092056714 -0.062365077 0.47288603
-0.036027119 -0.058654811 0.47175094
-0.033725288 -0.056262895 0.47231266
-0.015734576 -0.058714323 0.47157496
-0.014020521 -0.056530084 0.47257167
0.07865607 -0.058163296 0.47248966
0.0811157 -0.05591891 0.47256678
0.094276056 -0.05964148 0.47261459
0.09601184 -0.057656836 0.47234046
-0.031293616 -0.053523075 0.47238454
-0.029087838 -0.051221393 0.47211409
-0.011785414 -0.053271059 0.47249416
-0.0095743435 -0.050792444 0.4723582
0.083277263 -0.052563395 0.4725647
0.09895768 -0.054739628 0.47269267
0.10006139 -0.053757422 0.47164372
-0.026610093 -0.047827464 0.47255352
-0.02453508 -0.045173209 0.47167251
-0.0074045095 -0.047946557 0.47245708
0.084535956 -0.049156711 0.47400913
0.085734077 -0.047362182 0.47230166
-0.022685649 -0.04256497 0.47218826
-0.005281657 -0.044974532 0.47228473
-0.0029011189 -0.041999161 0.47302261
0.085760832 -0.042595249 0.4725872
-0.020408586 -0.039505087 0.47266677
-0.018077707 -0.037180055 0.47237167
-0.00081765652 -0.039241221 0.47191855
0.0011396892 -0.036987811 0.47251514
0.083452545 -0.037449796 0.4725309
-0.015753055 -0.034480102 0.47185141
-0.013712923 -0.031753499 0.47247952
0.003691101 -0.034309436 0.47273993
0.0061566955 -0.031579826 0.47240257
0.077676743 -0.031954415 0.47225749
0.080517896 -0.034587476 0.47244868
-0.011648128 -0.027894016 0.47234455
-0.0094657913 -0.025222963 0.47127739
0.0087758182 -0.02878141 0.4723576
0.010866806 -0.02648144 0.4723084
0.072618857 -0.027359903 0.47252148
0.075514078 -0.029886693 0.47419146
-0.0082276491 -0.022600843 0.47258499
0.013525289 -0.023931999 0.4721269
0.016122404 -0.021341508 0.47251621
0.068078078 -0.022562375 0.47263673
-0.0064385938 -0.017621182 0.47243738
-0.0045262426 -0.015307132 0.47093919
0.01850646 -0.018404266 0.47246158
0.020892501 -0.015637416 0.4719592
0.062171735 -0.017421098 0.47268313
0.065654904 -0.019892398 0.47452441
-0.0055664331 -0.014838256 0.47425517
-0.0028599075 -0.012070243 0.47240308
0.023078293 -0.012446132 0.47234818
0.054145634 -0.011066227 0.4721953
0.057229929 -0.013379769 0.47265169
-0.00094608043 -0.0078871772 0.47307745
0.0006878461 -0.0070167505 0.47128871
0.024484942 -0.0094137164 0.47119364
0.027020745 -0.0074624252 0.47258383
0.043504976 -0.0057112873 0.47182009
0.047428973 -0.0074602677 0.47261071
0.051766176 -0.0096368762 0.47213414
0.0079553323 -0.0017240619 0.47199771
0.01063028 -0.00021030009 0.4718363
0.031900037 -0.0033314324 0.47229385
0.037062664 -0.0016864969 0.47230253
0.041022781 -0.004176856 0.47250539
0.012621891 0.0023878303 0.47265312
0.038963292 0.00043692812 0.47216982
0.042646781 0.0018044123 0.47278124
0.045260124 0.0029589236 0.47242486
0.014754754 0.0066374885 0.47241202
0.015339526 0.0078744181 0.47226676
0.015415102 0.010073289 0.47466996
0.0099521279 -0.16161586 0.47894222
0.011474699 -0.1602712 0.47894096
-0.0019513372 -0.15654397 0.47760656
0.012290577 -0.1589096 0.4764941
-2.2377819e-05 -0.15462862 0.47679487
0.0014580316 -0.15325424 0.47820485
0.016874731 -0.14609668 0.47943833
-0.0026533976 -0.14112709 0.47676313
0.0023935523 -0.14083229 0.47598603
0.0082305819 -0.14282747 0.47700715
0.011907834 -0.14164601 0.47733197
0.018032283 -0.14482738 0.47505137
0.020682514 -0.14386532 0.4774372
-0.0058702826 -0.13898775 0.47885329
-0.0029413402 -0.13908572 0.47862244
0.0020588168 -0.13891746 0.47872332
0.007024134 -0.13891542 0.47795987
0.012984063 -0.13906223 0.47744995
0.016374385 -0.13681288 0.47747669
-0.015648812 -0.13241456 0.47970888
0.018670298 -0.1335393 0.4777582
0.021308441 -0.13116378 0.4773609
-0.025484771 -0.12548071 0.47960183
0.023841105 -0.12808757 0.47779191
0.025486946 -0.1256016 0.47701281
-0.029075488 -0.12035051 0.47755891
0.027464833 -0.12275568 0.47741961
0.030087799 -0.12013144 0.47772324
-0.067800216 -0.11575619 0.47813565
-0.062967181 -0.11579069 0.47936654
-0.03212272 -0.11724664 0.47827351
-0.02973176 -0.11813152 0.47960988
0.031981252 -0.1175699 0.47742164
-0.072260335 -0.11418726 0.47776344
-0.066005297 -0.11416428 0.47592956
-0.063304447 -0.11407018 0.47715017
-0.035944492 -0.11443598 0.47859848
-0.034219801 -0.11448774 0.47949225
0.033808131 -0.11401294 0.47722656
-0.0615955 -0.090882219 0.47644135
-0.059301525 -0.09031105 0.47688174
-0.045421589 -0.093998559 0.47689983
-0.043583099 -0.091486461 0.4776071
0.049045891 -0.093839772 0.47696897
0.051135901 -0.091444306 0.47750261
0.069176048 -0.093898676 0.47769123
0.071709454 -0.091134407 0.47722155
-0.056717992 -0.088917077 0.47765827
-0.053419597 -0.085760772 0.47835571
-0.041252486 -0.087791108 0.47749278
-0.039382666 -0.085478209 0.47845885
0.053959116 -0.087993152 0.47753367
0.055896357 -0.08557713 0.47821507
0.073728926 -0.088738002 0.47696972
0.075660072 -0.086324036 0.47765106
-0.052057348 -0.082153581 0.47775954
-0.037342168 -0.083124012 0.47670633
-0.034064837 -0.080745555 0.47844377
0.057735264 -0.083016194 0.47756788
0.060397148 -0.080581382 0.47970989
0.078326032 -0.082583562 0.47751871
-0.050872695 -0.078724459 0.47806287
-0.049025856 -0.077010117 0.47817972
-0.031953625 -0.077536866 0.47742531
-0.02983889 -0.075200744 0.47978109
0.062472291 -0.077613331 0.47729853
0.082063124 -0.077300951 0.47750074
-0.046114028 -0.073690407 0.47740847
-0.044178016 -0.071237743 0.4776414
-0.030439734 -0.074978873 0.47652528
-0.028307736 -0.072148599 0.47749147
0.066758625 -0.072436512 0.47751141
0.084657371 -0.073516436 0.47841248
0.085639663 -0.071722887 0.477458
-0.041906137 -0.067686334 0.47732157
-0.025902621 -0.069115587 0.47644767
-0.023132404 -0.066612698 0.47735867
0.069139689 -0.068835773 0.47753215
0.071249843 -0.066293187 0.47797927
0.087866157 -0.067438111 0.4771215
-0.040519956 -0.064183883 0.47777489
-0.038944438 -0.06204332 0.47748947
-0.02067636 -0.064068168 0.47836924
-0.018242398 -0.061815195 0.47762892
0.07366398 -0.063173801 0.47717559
0.075744689 -0.061103094 0.47785854
0.092204459 -0.063041508 0.47776034
-0.035843916 -0.059071101 0.47691846
-0.033682197 -0.056606721 0.47776228
-0.015850851 -0.059255823 0.4776791
-0.014074628 -0.056859881 0.47762457
0.078263789 -0.058090117 0.47752237
0.080732174 -0.055452522 0.47821218
0.094473504 -0.059471864 0.47797215
0.095975913 -0.057573758 0.47694725
-0.031353235 -0.05330044 0.47716686
-0.029193977 -0.050665785 0.47720572
-0.011376904 -0.052925486 0.47708169
-0.009706676 -0.050945301 0.47855052
0.082786821 -0.052581064 0.47732437
0.099481851 -0.053793199 0.47517329
-0.026482426 -0.047674257 0.47751045
-0.024734683 -0.045471229 0.47838828
-0.0071132299 -0.047393024 0.47749165
0.084350079 -0.048347943 0.47812325
0.085290469 -0.04678794 0.47699675
-0.022265295 -0.042499099 0.47719395
-0.0029528274 -0.042103052 0.47786003
0.085549146 -0.04246942 0.47737658
-0.01804373 -0.037526753 0.47786289
-0.00053538877 -0.039298877 0.47758433
0.001110656 -0.036998738 0.47760692
0.083391473 -0.037166372 0.47751346
0.085376143 -0.039763466 0.47717059
-0.015186682 -0.034172267 0.47780329
-0.013469189 -0.031575996 0.47780216
0.0037754118 -0.033823334 0.47794157
0.0065641915 -0.031065425 0.47739524
0.078320943 -0.031887673 0.47715944
0.081256397 -0.034180984 0.47842035
-0.011405082 -0.027957704 0.47711933
-0.0096768932 -0.025632614 0.47803092
0.0090733413 -0.028752366 0.47722387
0.011341278 -0.026699979 0.47757363
0.073026851 -0.026842833 0.47739211
0.075877339 -0.029469103 0.47755072
-0.0077009988 -0.022263981 0.47761056
0.013946688 -0.024201065 0.47694439
0.016175803 -0.021560889 0.47751918
0.068153903 -0.021619391 0.47787872
0.070563465 -0.024080973 0.47812837
-0.006353674 -0.018227145 0.47727013
0.018867118 -0.018303199 0.47705993
0.021058962 -0.015586946 0.47724652
0.062999152 -0.017074194 0.47751659
0.065998323 -0.019411508 0.47788858
-0.0056654513 -0.014133636 0.47562107
-0.0033648014 -0.011375582 0.47661531
0.023798417 -0.012692959 0.47662297
0.025343463 -0.010779763 0.47764176
0.058183115 -0.012763126 0.47728527
0.060631067 -0.014998145 0.47839054
-0.0019655328 -0.0088117598 0.47545132
0.027629767 -0.007590624 0.47688463
0.030056432 -0.0054836124 0.47841433
0.044017933 -0.0055840649 0.47736633
0.047651626 -0.0069692768 0.47718456
0.052454866 -0.0087746773 0.47735611
0.055003762 -0.0096048564 0.47844425
0.032198958 -0.0034911754 0.47745842
0.037709393 -0.0019309827 0.47727978
0.041616049 -0.0045002103 0.47748044
0.013146933 0.0029855478 0.47700846
0.039195269 0.00011570007 0.47644457
0.042239375 0.00090325391 0.47750309
0.01472754 0.0066293506 0.47759834
0.015373503 0.0088060033 0.47746512
0.0090909004 -0.16237432 0.48223382
0.010227382 -0.1607995 0.48390353
-0.0066964822 -0.15682405 0.48375571
-0.0035678456 -0.15605915 0.48242658
0.009729445 -0.15668878 0.48402295
0.010394551 -0.15887746 0.48333111
-0.0065911673 -0.15474363 0.48466223
-0.00077571161 -0.1544276 0.483457
0.00074318983 -0.15357412 0.48173699
0.0081695691 -0.14514044 0.48220614
0.016740233 -0.14676765 0.48203677
0.0093216784 -0.14363399 0.48262265
0.011383663 -0.14159112 0.48225346
0.019280672 -0.14471027 0.48159128
-0.037737288 -0.1358238 0.48431018
-0.034747764 -0.13688481 0.48479775
-0.012714109 -0.13723217 0.48127609
-0.0080364598 -0.13700028 0.48133966
-0.0024888841 -0.13673986 0.48211747
0.0022234828 -0.13671491 0.48250628
0.0062563359 -0.13647601 0.48197681
0.013757782 -0.13911822 0.48289129
0.016187621 -0.13675274 0.48232868
-0.041637152 -0.13175832 0.48411509
-0.037963137 -0.13261752 0.48366287
-0.016730379 -0.13047659 0.48119992
-0.012460454 -0.1325857 0.48210058
-0.0079761175 -0.13368183 0.48367652
-0.0035892029 -0.13485251 0.48442841
0.018715926 -0.13376111 0.48273036
0.020826019 -0.13138212 0.48232174
-0.041283164 -0.12934387 0.48453733
-0.037862614 -0.12853239 0.48433354
-0.025497258 -0.12605514 0.48366064
-0.022039458 -0.12695076 0.48236647
-0.017571067 -0.12757824 0.4831562
-0.013930833 -0.12878548 0.48424393
0.023328239 -0.12805703 0.48275357
0.025418401 -0.12545843 0.48220477
-0.055679858 -0.12086219 0.48450363
-0.052935895 -0.12273905 0.48459247
-0.030965218 -0.12365576 0.48268327
-0.027188547 -0.12236302 0.48161349
-0.022831725 -0.12286921 0.48339066
-0.019123783 -0.12417964 0.48445237
0.027593307 -0.12277261 0.48250586
0.03003793 -0.12029094 0.48210812
-0.071125045 -0.11590384 0.48252472
-0.067613088 -0.11718366 0.4826614
-0.061836828 -0.11789272 0.48259974
-0.057741709 -0.11791001 0.48356062
-0.054712981 -0.11924209 0.4848288
-0.031003207 -0.1157577 0.4804216
-0.027061682 -0.11762633 0.4821676
-0.024086222 -0.11880328 0.4840849
0.031996749 -0.1176202 0.48238984
0.043389052 -0.11904214 0.48258913
-0.072906651 -0.11480533 0.48261291
-0.05788219 -0.11438186 0.48183724
-0.031926036 -0.11455631 0.48067868
-0.028442912 -0.1147747 0.48340106
0.034047674 -0.11443796 0.48269805
0.047908444 -0.095216058 0.48272574
-0.058877341 -0.090372138 0.4814865
-0.043277945 -0.092877008 0.48231336
0.049003333 -0.093870908 0.48246241
0.051313564 -0.091761447 0.48216045
0.068600215 -0.093878113 0.48325062
0.071345747 -0.091103762 0.48297358
-0.055830479 -0.087123558 0.482838
-0.054518513 -0.086075783 0.48113856
-0.040816002 -0.088807523 0.48230901
-0.038650241 -0.086418986 0.48267323
0.053876791 -0.088863038 0.48207814
0.056109149 -0.086395964 0.48285082
0.073792361 -0.088304967 0.48208612
0.075782813 -0.0854761 0.48281088
-0.055222109 -0.084773168 0.48440012
-0.05354917 -0.082976088 0.48199597
-0.03612804 -0.083732478 0.48171249
-0.033483524 -0.081544578 0.4827103
0.058622696 -0.083286583 0.48247549
0.060612548 -0.080896385 0.48329344
0.078047343 -0.082187429 0.48266289
-0.051186483 -0.079022825 0.48236194
-0.0481098 -0.075872861 0.48260865
-0.031169239 -0.078034297 0.48219153
-0.029395565 -0.075750872 0.48323992
0.063060254 -0.077298917 0.48254687
0.07958293 -0.079791844 0.48341948
0.081786096 -0.077104308 0.48287675
-0.045599502 -0.074009269 0.48276806
-0.04390106 -0.071588263 0.48225415
-0.027370024 -0.072192937 0.48231906
0.066651598 -0.072241917 0.48242843
0.084216133 -0.073419474 0.48314601
0.085744575 -0.070635617 0.48230273
-0.041253053 -0.067855813 0.48223487
-0.03943634 -0.065707542 0.4842138
-0.025340388 -0.069167756 0.48281851
-0.023180339 -0.06668549 0.48233828
0.069203891 -0.068870991 0.48177391
0.070833437 -0.066815883 0.48306623
0.08828152 -0.067476891 0.48204747
0.09121269 -0.065112598 0.4828099
-0.039405823 -0.064072996 0.48093411
-0.020989925 -0.064266548 0.48282075
-0.018281439 -0.061852463 0.48261565
0.07310161 -0.06355311 0.48281842
0.075440742 -0.061008591 0.48215097
0.092724711 -0.062696181 0.48247162
-0.033443782 -0.056974545 0.48245928
-0.015829107 -0.059054241 0.48310137
-0.013975186 -0.056868494 0.48273656
0.078075133 -0.057800062 0.48238099
0.080361426 -0.05510062 0.48243919
0.094314694 -0.059164427 0.48243901
0.096002035 -0.056354504 0.48221266
-0.031271148 -0.052798633 0.48248228
-0.029676154 -0.050622251 0.48238385
-0.011451419 -0.053418167 0.4819833
-0.0094948011 -0.051055301 0.48235106
0.082253121 -0.052370481 0.48268431
-0.027332434 -0.048035454 0.48238513
-0.024267629 -0.04513013 0.48213944
-0.0071188752 -0.047713425 0.48229712
-0.0048354566 -0.0451741 0.48283476
0.084411182 -0.047641702 0.48247531
0.085605562 -0.045143317 0.48059329
-0.022092218 -0.042428017 0.48273459
-0.0030499399 -0.042420249 0.48228604
0.085345455 -0.042516846 0.48251107
-0.020016566 -0.039664991 0.48019192
-0.017966183 -0.037431881 0.482586
-0.00058989722 -0.03892019 0.48248217
0.00096618535 -0.036757879 0.4827612
0.083489187 -0.036994435 0.48251063
0.08511924 -0.039189775 0.48254499
-0.015446946 -0.03459638 0.48255596
-0.013730594 -0.032091804 0.48271465
0.0035742372 -0.033753291 0.48275888
0.0064175809 -0.031359009 0.4828701
0.078135557 -0.031331167 0.48194122
0.081313647 -0.034059323 0.48268342
-0.011324577 -0.028493181 0.48213893
-0.0093752593 -0.026101792 0.48321202
0.0092610121 -0.028579697 0.48306817
0.01153257 -0.026783781 0.48261011
0.072753504 -0.026500486 0.48265365
0.075881191 -0.029183784 0.48297122
-0.0065080267 -0.022142464 0.48305124
0.014061242 -0.024224266 0.48236659
0.016465286 -0.021473436 0.48229465
0.068249822 -0.022096246 0.48271778
0.070524089 -0.024215594 0.48185235
-0.0061454922 -0.019943234 0.48033068
-0.0042808675 -0.017702818 0.48271751
0.018820927 -0.01855818 0.48159513
0.02063803 -0.016423658 0.48256284
0.063668109 -0.016693793 0.48244169
0.066004373 -0.019180248 0.48301268
-0.0023169219 -0.013010448 0.48204151
0.023608774 -0.013180383 0.48196256
0.025402501 -0.010607108 0.48174679
0.05840724 -0.011381386 0.48160291
0.061182305 -0.013509621 0.48322046
0.027914179 -0.0076315254 0.4822399
0.030560054 -0.0053067915 0.48292357
0.04415074 -0.0051217489 0.48178089
0.048281789 -0.0065057632 0.48227894
0.053200036 -0.0081048282 0.48275787
0.056322947 -0.0095343534 0.48212442
0.032985695 -0.0036926318 0.48253509
0.037258513 -0.0015489948 0.48246118
0.041737352 -0.0032309655 0.48318961
0.014437661 0.0043884106 0.48127943
0.042095788 0.00039426051 0.48245502
0.014648557 0.0067170952 0.48087975
0.0153261 0.0076086251 0.48278722
0.017743051 0.011337731 0.4827925
0.0087085906 -0.16307262 0.48785216
0.01061815 -0.16121843 0.48719859
-0.011108938 -0.15642051 0.48906204
-0.0089274105 -0.15655628 0.48618907
0.0091452058 -0.15723717 0.48783159
0.010412052 -0.15921104 0.48808709
-0.011389191 -0.15359198 0.4877573
-0.0077219596 -0.15354224 0.48790982
-0.0031399184 -0.15417953 0.48749766
0.0014815615 -0.15241532 0.48767331
0.0090307444 -0.15283234 0.48869786
0.011577785 -0.15132172 0.48827219
0.0075858929 -0.14670095 0.48799103
0.013691525 -0.14938666 0.48744178
0.016616285 -0.14665268 0.48687813
0.0091951368 -0.14396462 0.48771042
0.011088922 -0.14148298 0.48738518
-0.041583832 -0.13582309 0.48803136
-0.039781407 -0.13550042 0.48520079
-0.032336023 -0.13635235 0.48640299
-0.028373916 -0.13759716 0.48842415
0.00041568279 -0.13502629 0.48717356
0.013961237 -0.13860564 0.48747751
0.016439717 -0.1360219 0.48749217
-0.046390157 -0.13100709 0.48830828
-0.043257557 -0.13315268 0.48701799
-0.035151109 -0.13082176 0.4852083
-0.032594468 -0.13251744 0.48670042
-0.028280938 -0.13309653 0.48848867
-0.010132551 -0.1305055 0.48557842
-0.0072486131 -0.13150005 0.48673907
-0.0026827806 -0.13297135 0.48756447
0.0024805665 -0.13401455 0.4882533
0.018553022 -0.13346887 0.48779052
0.020589959 -0.13102454 0.48761755
-0.051812347 -0.12649263 0.4873769
-0.047472868 -0.12765974 0.48624805
-0.042669754 -0.12724589 0.48592466
-0.037669014 -0.12644346 0.48730752
-0.033228435 -0.12797771 0.48745501
-0.026809692 -0.12760556 0.48521009
-0.015942365 -0.12584907 0.48558509
-0.012112514 -0.12721729 0.48666903
-0.0079321368 -0.12828764 0.48877883
0.022944931 -0.12769955 0.48765683
0.02537334 -0.12559402 0.48514673
-0.061661869 -0.12028332 0.48735607
-0.056932751 -0.12234214 0.48705742
-0.052714404 -0.12315851 0.48614118
-0.047991686 -0.12318874 0.48702648
-0.043314997 -0.12423854 0.48837471
-0.02100873 -0.12152699 0.48582569
-0.01734142 -0.1223767 0.48760492
-0.012948857 -0.12368073 0.48899004
-0.0097486377 -0.124896 0.48984167
0.027497273 -0.12253434 0.4873209
0.040143907 -0.12104806 0.4878
-0.071231231 -0.11642545 0.48756251
-0.067305118 -0.11848129 0.48732549
-0.063238002 -0.11947881 0.48680681
-0.052299194 -0.11773063 0.48697513
-0.049159452 -0.11957131 0.48867264
-0.025170833 -0.11503254 0.48638317
-0.022260966 -0.11735769 0.48712778
-0.018974666 -0.11841078 0.48920622
0.03216612 -0.11738744 0.48744377
0.042504549 -0.1180267 0.48750472
0.046805397 -0.11508979 0.48829997
-0.053285316 -0.11496194 0.48669514
-0.026105702 -0.11495887 0.48553115
0.033900797 -0.11499707 0.48560241
0.04700473 -0.11475848 0.48576909
-0.066033162 -0.096063547 0.48595843
-0.041698545 -0.096028872 0.48844814
0.047482777 -0.095543161 0.48781174
0.066986673 -0.09536761 0.48722845
-0.041764624 -0.09264525 0.48726273
0.049131561 -0.09371645 0.48759857
0.051524278 -0.091313317 0.48744467
0.068548054 -0.093762539 0.48793191
0.070424207 -0.091775961 0.48846138
-0.056143977 -0.086780921 0.48733509
-0.040246978 -0.08965832 0.48622769
-0.037991315 -0.08743351 0.48766977
0.053769596 -0.088795133 0.48743895
0.056190692 -0.086409263 0.48771477
0.073390365 -0.08820539 0.48746362
0.075232744 -0.085492551 0.4877187
-0.055554837 -0.084713489 0.48710588
-0.053675577 -0.082459681 0.48718295
-0.035207883 -0.084548101 0.48662555
-0.032932904 -0.082337558 0.4876923
0.058905207 -0.083313599 0.48742858
0.060776208 -0.080856226 0.48775256
0.077746138 -0.082114987 0.48789126
-0.05071738 -0.079349868 0.48722312
-0.048143052 -0.076646701 0.48630953
-0.030989548 -0.079483487 0.48695412
-0.029105352 -0.076996081 0.48755339
0.063435026 -0.077598989 0.4879137
0.065055013 -0.075184576 0.48740011
0.079898179 -0.078914396 0.48638779
0.081667952 -0.077180132 0.48776034
-0.045124531 -0.074230462 0.48616591
-0.042694282 -0.071671747 0.4874357
-0.0271331 -0.072626665 0.48758438
0.066639639 -0.072536215 0.4874638
0.084036119 -0.073677026 0.48776546
0.086143211 -0.070918962 0.4875392
-0.040642586 -0.068360209 0.48723531
-0.039331473 -0.066254295 0.48796216
-0.025268823 -0.069445439 0.48784757
-0.023611099 -0.067120589 0.48755822
0.069097318 -0.068816893 0.4874545
0.070936128 -0.066045769 0.48766872
0.088374116 -0.06839215 0.48707077
0.090891629 -0.065804109 0.48692906
-0.036331747 -0.062227439 0.48889133
-0.034933716 -0.060300995 0.48704275
-0.020893672 -0.06405431 0.48718393
-0.018079901 -0.061666738 0.48787996
0.07363759 -0.062872179 0.48733252
0.075982094 -0.060201764 0.48753306
0.092695013 -0.062314324 0.48737046
-0.033549011 -0.057552345 0.4874973
-0.015801787 -0.059213635 0.48718598
-0.013683389 -0.057027742 0.48770535
0.078248709 -0.057579644 0.48766571
0.093748726 -0.05796916 0.48797768
0.095698327 -0.05588356 0.48530433
-0.031468406 -0.053035047 0.48749524
-0.02991339 -0.050249189 0.48683071
-0.011232398 -0.053595047 0.48753819
-0.0091195405 -0.050808389 0.4880937
0.081791945 -0.052604385 0.48758695
-0.027153054 -0.047356624 0.48760292
-0.0066713965 -0.047406182 0.48719236
0.084000431 -0.04764419 0.48769525
-0.022782559 -0.042749524 0.48730764
-0.0028426528 -0.04216259 0.48727483
0.084792316 -0.042435274 0.48840919
0.085145876 -0.042725161 0.48699561
-0.020365277 -0.039842896 0.48774466
-0.01840356 -0.037166309 0.48730573
-0.00059308857 -0.038743827 0.48754442
0.0011876822 -0.036620203 0.4871951
0.083414942 -0.03749077 0.48750842
-0.015917778 -0.034013651 0.48766428
-0.013822293 -0.031585921 0.48729357
0.0034763117 -0.034139488 0.48808718
0.0067512905 -0.031178566 0.48780409
0.078336239 -0.031783212 0.4875772
0.081081524 -0.033988748 0.48764643
-0.011203004 -0.028285999 0.48734093
-0.0089751929 -0.025781393 0.4869155
0.0091336565 -0.029118963 0.48792294
0.011665097 -0.026751393 0.48752585
0.072843507 -0.027274767 0.48770458
0.075708382 -0.029483847 0.48679566
-0.0065448512 -0.023129456 0.48772916
-0.0045167208 -0.020714425 0.48891339
0.014026374 -0.024230277 0.48810315
0.016590834 -0.02135337 0.48774898
0.064950407 -0.020089544 0.48959956
0.067717612 -0.022483004 0.48754984
0.070814133 -0.024999157 0.48633096
-0.0025492106 -0.017429054 0.48743027
0.019148594 -0.018629698 0.48707715
0.021009501 -0.016665941 0.48785082
0.064026684 -0.017289752 0.48795393
0.06532795 -0.019036591 0.48611006
0.023558568 -0.013605251 0.48758098
0.025605015 -0.010763799 0.48779318
0.059147999 -0.010411721 0.48667255
0.062004514 -0.013042709 0.48744696
0.027968677 -0.0079485383 0.48788473
0.031179262 -0.0055088066 0.4879981
0.048663318 -0.0058735684 0.48676339
0.052099794 -0.0071067549 0.48791954
0.056634173 -0.0088271303 0.48777559
0.033949722 -0.0038294247 0.48786145
0.037556484 -0.0019899406 0.48785046
0.040750541 -0.00059627369 0.48666427
0.016653318 0.0075828447 0.48662525
0.018618271 0.011013668 0.48629239
0.020153016 0.01125516 0.48971716
0.0057440996 -0.16618347 0.493256
0.0091403574 -0.16359812 0.49278688
0.010564844 -0.16090225 0.49164847
-0.011391252 -0.15837926 0.49193716
0.0082423892 -0.15660672 0.49294299
0.010218243 -0.15920095 0.49309286
-0.012180469 -0.15125898 0.49154118
-0.007184031 -0.15127669 0.49211854
-0.0026077889 -0.15219535 0.4927046
0.0015018884 -0.15158011 0.49261644
0.008633961 -0.15396455 0.49242127
0.012524461 -0.15136623 0.49291953
-0.016247867 -0.1475092 0.49428236
-0.012410751 -0.14853388 0.49418631
-0.0089975838 -0.14898457 0.4943924
0.0044684936 -0.14969568 0.49250841
0.007536158 -0.14628658 0.49229974
0.014059037 -0.14922684 0.49453145
0.015961081 -0.14659832 0.49078724
-0.022250526 -0.14116314 0.49400762
-0.017614027 -0.14072961 0.49361521
-0.014404133 -0.14175995 0.4942815
0.0094142305 -0.14394909 0.49250188
0.011434042 -0.14152907 0.49256122
-0.043471023 -0.13583364 0.49230573
-0.02703063 -0.13676132 0.49255994
-0.022883521 -0.13783066 0.49299726
-0.019467279 -0.13850822 0.49427524
0.014141667 -0.13873892 0.49243075
0.01610259 -0.13612318 0.49257994
-0.050182313 -0.13044384 0.49439773
-0.047154937 -0.13228279 0.49244371
-0.044331372 -0.13475691 0.49171796
-0.032151412 -0.13207987 0.49430662
-0.027414864 -0.13339087 0.49361983
-0.024332017 -0.13455057 0.4941147
-0.001732558 -0.13133779 0.49107528
0.0012379885 -0.13177955 0.49189514
0.018729908 -0.13258143 0.49252665
0.020568708 -0.13008659 0.49243227
-0.055497672 -0.12594929 0.49291861
-0.052494671 -0.12804125 0.4922919
-0.049480319 -0.12942077 0.49059126
-0.035751134 -0.12508431 0.49162194
-0.032896604 -0.12724195 0.49273205
-0.0064555854 -0.12614457 0.49192157
-0.0029315306 -0.12801206 0.49306011
0.00031109154 -0.12936647 0.49437109
0.022523131 -0.12741403 0.49249166
-0.065581866 -0.12086204 0.49391305
-0.062201247 -0.12151787 0.4920446
-0.05755705 -0.12365027 0.49185607
-0.04606289 -0.12170116 0.49037892
-0.042487048 -0.12233819 0.49227908
-0.038169209 -0.12363864 0.49274155
-0.034031969 -0.12436289 0.49403346
-0.015699953 -0.1203235 0.49107373
-0.011747834 -0.12153223 0.49199441
-0.0080571901 -0.12284968 0.49369407
-0.0041624904 -0.12408689 0.49490127
0.024398565 -0.12483696 0.49310482
0.027075453 -0.12237162 0.4924573
0.038882524 -0.12169497 0.49207684
0.04033345 -0.12045705 0.49201316
-0.070423827 -0.1166421 0.49274209
-0.067846142 -0.11898664 0.4923906
-0.052140594 -0.11598542 0.49444354
-0.047782611 -0.11818584 0.49172068
-0.043743536 -0.11837057 0.49468192
-0.020496458 -0.11540088 0.49064332
-0.017026631 -0.11691707 0.49230483
-0.013404261 -0.11856084 0.49396187
0.029706299 -0.11965457 0.4930338
0.032089692 -0.1173721 0.49226651
0.041996572 -0.11799034 0.49269083
0.046947282 -0.11562151 0.49249813
-0.065624282 -0.096043922 0.49275663
-0.040530756 -0.095627531 0.49118987
-0.038783796 -0.096293181 0.49353892
0.047283869 -0.095511325 0.49242333
0.06667868 -0.095859654 0.4923684
-0.065572776 -0.09449771 0.4948619
-0.040579457 -0.093522973 0.49075449
-0.038737979 -0.092000842 0.49287361
0.048804019 -0.093221493 0.49282315
0.05104785 -0.090973832 0.49234661
0.068506353 -0.093918964 0.49262959
0.071281761 -0.09082485 0.49237165
-0.055883441 -0.087773398 0.49273714
-0.036538437 -0.08788684 0.49248463
-0.03424146 -0.085750706 0.49361834
0.0534348 -0.088199265 0.49239126
0.055907782 -0.085650504 0.49234173
0.073430777 -0.087814942 0.49328431
0.075092882 -0.085692652 0.49030039
-0.053137071 -0.08269868 0.49243155
-0.03201374 -0.082691438 0.49232244
0.058188263 -0.082981028 0.49269813
0.060414545 -0.080578268 0.49172521
0.07749296 -0.082683332 0.4926323
-0.048640605 -0.078806117 0.49313942
-0.030175433 -0.079785392 0.49108183
-0.028702892 -0.077656463 0.49253625
