# .PCD v0.7 - Point Cloud Data file format
VERSION 0.7
FIELDS x y z rgb
SIZE 4 4 4 4
TYPE F F F F
COUNT 1 1 1 1
WIDTH 1500
HEIGHT 1
VIEWPOINT 0 0 0 1 0 0 0
POINTS 1500
DATA ascii
0.073313579 -0.082112789 0.43000001 0
0.074261509 -0.081921831 0.42900002 0
0.075028524 -0.081539914 0.42700002 0
0.075785108 -0.08115799 0.42500001 0
0.076169409 -0.080394156 0.42100003 0
0.076716386 -0.079821274 0.41800001 0
0.077247724 -0.079248391 0.41500002 0
0.077763416 -0.078675516 0.41200003 0
0.078454815 -0.078293592 0.41000003 0
0.07894183 -0.077720709 0.40700001 0
0.079806335 -0.077529751 0.40600002 0
0.080466457 -0.077147834 0.40400001 0
0.081116147 -0.07676591 0.40200001 0
0 -0 0 0
0.082591236 -0.076193035 0.39900002 0
0.083212256 -0.07581111 0.39700001 0
0.084035054 -0.075620152 0.39600003 0
0.084637813 -0.075238235 0.39400002 0
0.085447572 -0.075047269 0.39300001 0
0.086472146 -0.075047269 0.39300001 0
0.087274089 -0.074856311 0.39200002 0
0.088296056 -0.074856311 0.39200002 0
0.089318022 -0.074856311 0.39200002 0
0.090339996 -0.074856311 0.39200002 0
0.091361962 -0.074856311 0.39200002 0
0.092383929 -0.074856311 0.39200002 0
0 -0 0 0
0 -0 0 0
0.11785133 -0.092424631 0.48400003 0
0.11911315 -0.092424631 0.48400003 0
0.12037497 -0.092424631 0.48400003 0
0.12188809 -0.092615589 0.48500001 0
0.12315253 -0.092615589 0.48500001 0
0.12441695 -0.092615589 0.48500001 0
0.12594052 -0.092806555 0.48600003 0
0.12720756 -0.092806555 0.48600003 0
0.12847458 -0.092806555 0.48600003 0
0.13000858 -0.092997514 0.48700002 0
0.13154778 -0.093188472 0.48800004 0
0.13282004 -0.093188472 0.48800004 0
0.13409227 -0.093188472 0.48800004 0
0.13564192 -0.09337943 0.48900002 0
0.13719675 -0.093570389 0.49000001 0
0.13875683 -0.093761355 0.49100003 0
0.14032209 -0.093952313 0.49200001 0
0.14189258 -0.094143271 0.49300003 0
0.14317787 -0.094143271 0.49300003 0
0.14475617 -0.09433423 0.49400002 0
0.14633971 -0.094525196 0.49500003 0
0.1476302 -0.094525196 0.49500003 0
0.1489207 -0.094525196 0.49500003 0
0.15051465 -0.094716154 0.49600002 0
0.15180776 -0.094716154 0.49600002 0
0.15340951 -0.094907112 0.49700001 0
0.15470524 -0.094907112 0.49700001 0
0.15600094 -0.094907112 0.49700001 0
0.15729666 -0.094907112 0.49700001 0
0.15891147 -0.095098071 0.49800003 0
0.16020979 -0.095098071 0.49800003 0
0.16183241 -0.095289029 0.49900001 0
0.16346025 -0.095479988 0.5 0
0.16509333 -0.095670953 0.50100005 0
0.1667316 -0.095861912 0.50200003 0
0.16837509 -0.09605287 0.50300002 0
0.17002378 -0.096243829 0.50400001 0
0.17201766 -0.096625753 0.50600004 0
0.1736794 -0.096816711 0.50700003 0
0.17534634 -0.09700767 0.50800002 0
0.17701849 -0.097198628 0.509 0
0.1786959 -0.097389594 0.51000005 0
0.18037848 -0.097580552 0.51100004 0
0.18171071 -0.097580552 0.51100004 0
0.1830429 -0.097580552 0.51100004 0
0.18437512 -0.097580552 0.51100004 0
0.18607076 -0.09777151 0.51200002 0
0.18740556 -0.09777151 0.51200002 0
0.18910901 -0.097962469 0.51300001 0
0.19081765 -0.098153427 0.514 0
0.1921577 -0.098153427 0.514 0
0.1938742 -0.098344393 0.51500005 0
0.19559589 -0.098535351 0.51600003 0
0.19770446 -0.098917268 0.51800001 0
0.19905493 -0.098917268 0.51800001 0
0.20117916 -0.099299192 0.52000004 0
0.20292433 -0.099490151 0.52100003 0
0.20467469 -0.099681109 0.52200001 0
0.20643027 -0.099872068 0.523 0
0.20819111 -0.10006303 0.52400005 0
0.20995712 -0.10025399 0.52500004 0
0.21132582 -0.10025399 0.52500004 0
0.21309966 -0.10044495 0.52600002 0
0.21447098 -0.10044495 0.52600002 0
0.21584229 -0.10044495 0.52600002 0
0.21762656 -0.10063591 0.52700001 0
0.21941602 -0.10082687 0.528 0
0.22079256 -0.10082687 0.528 0
0.22258988 -0.10101783 0.52900004 0
0.2243924 -0.10120879 0.53000003 0
0.22577414 -0.10120879 0.53000003 0
0.22758448 -0.10139975 0.53100002 0
0.22983126 -0.10178167 0.53300005 0
0.23165461 -0.10197263 0.53400004 0
0.23348321 -0.10216359 0.53500003 0
0.23531699 -0.10235455 0.53600001 0
0.23671439 -0.10235455 0.53600001 0
0.238556 -0.10254551 0.537 0
0.23995601 -0.10254551 0.537 0
0.24180546 -0.10273647 0.53800005 0
0.24366012 -0.10292743 0.53900003 0
0.24506532 -0.10292743 0.53900003 0
0.2469278 -0.10311839 0.54000002 0
0.24879548 -0.10330935 0.54100001 0
0.2502059 -0.10330935 0.54100001 0
0.25208145 -0.10350031 0.54200006 0
0.25396219 -0.10369127 0.54300004 0
0.25584811 -0.10388223 0.54400003 0
0.25773928 -0.10407319 0.54500002 0
0 -0 0 0
0 -0 0 0
0 -0 0 0
-0 -0 0 0
-0 -0 0 0
-0 -0 0 0
-0 -0 0 0
-0 -0 0 0
-0 -0 0 0
-0 -0 0 0
-0 -0 0 0
-0 -0 0 0
-0 -0 0 0
-0 -0 0 0
-0 -0 0 0
-0 -0 0 0
-0 -0 0 0
-0 -0 0 0
-0 -0 0 0
-0 -0 0 0
-0 -0 0 0
-0 -0 0 0
-0 -0 0 0
-0 -0 0 0
-0 -0 0 0
-0 -0 0 0
-0 -0 0 0
-0 -0 0 0
-0 -0 0 0
-0 -0 0 0
-0 -0 0 0
-0 -0 0 0
-0 -0 0 0
-0 -0 0 0
-0 -0 0 0
-0 -0 0 0
-0 -0 0 0
-0 -0 0 0
-0 -0 0 0
-0 -0 0 0
-0 -0 0 0
-0 -0 0 0
-0 -0 0 0
-0 -0 0 0
-0 -0 0 0
-0 -0 0 0
-0 -0 0 0
-0 -0 0 0
-0 -0 0 0
-0 -0 0 0
-0 -0 0 0
-0 -0 0 0
-0 -0 0 0
-0 -0 0 0
-0 -0 0 0
-0 -0 0 0
-0 -0 0 0
-0 -0 0 0
-0 -0 0 0
-0 -0 0 0
-0 -0 0 0
-0 -0 0 0
-0 -0 0 0
-0 -0 0 0
-0 -0 0 0
-0 -0 0 0
-0.19439176 -0.063663289 0.33800003 0
-0.19351058 -0.063663289 0.33800003 0
-0.19319929 -0.06385164 0.33900002 0
-0.19231549 -0.06385164 0.33900002 0
-0.1914317 -0.06385164 0.33900002 0
-0.19054791 -0.06385164 0.33900002 0
-0.18966411 -0.06385164 0.33900002 0
-0.18933718 -0.06403999 0.34 0
-0.18845078 -0.06403999 0.34 0
-0.18756439 -0.06403999 0.34 0
-0.18667796 -0.06403999 0.34 0
-0.18633802 -0.064228348 0.34100002 0
-0.18544902 -0.064228348 0.34100002 0
-0.18456002 -0.064228348 0.34100002 0
-0.18420961 -0.064416699 0.34200001 0
-0.183318 -0.064416699 0.34200001 0
-0.18295981 -0.064605057 0.34300002 0
-0.18206559 -0.064605057 0.34300002 0
-0.18169954 -0.0647934 0.34400001 0
-0.18080272 -0.0647934 0.34400001 0
-0.18042889 -0.064981759 0.34500003 0
-0.17952946 -0.064981759 0.34500003 0
-0.17863001 -0.064981759 0.34500003 0
-0.17773058 -0.064981759 0.34500003 0
-0.17734368 -0.065170109 0.34600002 0
-0.17644162 -0.065170109 0.34600002 0
-0.1755396 -0.065170109 0.34600002 0
-0.17463756 -0.065170109 0.34600002 0
-0.17373551 -0.065170109 0.34600002 0
-0.17333297 -0.06535846 0.347 0
-0.17242832 -0.06535846 0.347 0
-0.17152368 -0.06535846 0.347 0
-0.17061903 -0.06535846 0.347 0
-0.17020348 -0.065546818 0.34800002 0
-0.16929621 -0.065546818 0.34800002 0
-0.16838895 -0.065546818 0.34800002 0
-0.16796295 -0.065735169 0.34900001 0
-0.16705309 -0.065735169 0.34900001 0
-0.16661929 -0.065923527 0.35000002 0
-0.16570681 -0.065923527 0.35000002 0
-0.16479434 -0.065923527 0.35000002 0
-0.16435009 -0.066111878 0.35100001 0
-0.16343503 -0.066111878 0.35100001 0
-0.16251995 -0.066111878 0.35100001 0
-0.16206528 -0.066300228 0.35200003 0
-0.16114759 -0.066300228 0.35200003 0
-0.16068511 -0.066488579 0.35300002 0
-0.15976481 -0.066488579 0.35300002 0
-0.15929449 -0.06667693 0.354 0
-0.1583716 -0.06667693 0.354 0
-0.15789346 -0.066865288 0.35500002 0
-0.15741013 -0.067053638 0.35600001 0
-0.156482 -0.067053638 0.35600001 0
-0.15599085 -0.067241997 0.35700002 0
-0.15506013 -0.067241997 0.35700002 0
-0.1541294 -0.067241997 0.35700002 0
-0.1536278 -0.067430347 0.35800001 0
-0.15269448 -0.067430347 0.35800001 0
-0.15176114 -0.067430347 0.35800001 0
-0.15082783 -0.067430347 0.35800001 0
-0.14989449 -0.067430347 0.35800001 0
-0.14896116 -0.067430347 0.35800001 0
-0.14802784 -0.067430347 0.35800001 0
-0.14750539 -0.067618698 0.35900003 0
-0.14656946 -0.067618698 0.35900003 0
-0.14563352 -0.067618698 0.35900003 0
-0.14469758 -0.067618698 0.35900003 0
-0.14416209 -0.067807049 0.36000001 0
-0.14322355 -0.067807049 0.36000001 0
-0.142285 -0.067807049 0.36000001 0
-0.1417391 -0.067995407 0.36100003 0
-0.14079794 -0.067995407 0.36100003 0
-0.14024422 -0.068183757 0.36200002 0
-0.13930045 -0.068183757 0.36200002 0
-0.13835669 -0.068183757 0.36200002 0
-0.13779253 -0.068372108 0.36300001 0
-0.13722315 -0.068560466 0.36400002 0
-0.13627419 -0.068560466 0.36400002 0
-0.13532521 -0.068560466 0.36400002 0
-0.1347454 -0.068748817 0.36500001 0
-0.13379382 -0.068748817 0.36500001 0
-0.13284224 -0.068748817 0.36500001 0
-0.13225202 -0.068937168 0.36600003 0
-0.13129784 -0.068937168 0.36600003 0
-0.13069977 -0.069125518 0.36700001 0
-0.12974298 -0.069125518 0.36700001 0
-0.12878619 -0.069125518 0.36700001 0
-0.1281777 -0.069313876 0.36800003 0
-0.12721831 -0.069313876 0.36800003 0
-0.12660199 -0.069502227 0.36900002 0
-0.12563999 -0.069502227 0.36900002 0
-0.12501585 -0.069690578 0.37 0
-0.12405125 -0.069690578 0.37 0
-0.12341931 -0.069878936 0.37100002 0
-0.1224521 -0.069878936 0.37100002 0
-0.12148487 -0.069878936 0.37100002 0
-0.12084249 -0.070067286 0.37200001 0
-0.11987266 -0.070067286 0.37200001 0
-0.11922248 -0.070255645 0.37300003 0
-0.11825003 -0.070255645 0.37300003 0
-0.11727759 -0.070255645 0.37300003 0
-0.11630516 -0.070255645 0.37300003 0
-0.11533273 -0.070255645 0.37300003 0
-0.1143603 -0.070255645 0.37300003 0
-0.11338786 -0.070255645 0.37300003 0
-0.11271681 -0.070443995 0.37400001 0
-0.11174176 -0.070443995 0.37400001 0
-0.1110629 -0.070632346 0.37500003 0
-0.11008524 -0.070632346 0.37500003 0
-0.10939855 -0.070820697 0.37600002 0
-0.10841829 -0.070820697 0.37600002 0
-0.10772377 -0.071009047 0.377 0
-0.10702404 -0.071197405 0.37800002 0
-0.10603857 -0.071197405 0.37800002 0
-0.10533102 -0.071385756 0.37900001 0
-0.10434294 -0.071385756 0.37900001 0
-0.10362758 -0.071574114 0.38000003 0
-0.10263688 -0.071574114 0.38000003 0
-0.10191369 -0.071762465 0.38100001 0
-0.10092039 -0.071762465 0.38100001 0
-0.1001894 -0.071950816 0.38200003 0
-0.099193491 -0.071950816 0.38200003 0
-0.098197594 -0.071950816 0.38200003 0
-0.09720169 -0.071950816 0.38200003 0
-0.096457645 -0.072139166 0.38300002 0
-0.095459133 -0.072139166 0.38300002 0
-0.094460629 -0.072139166 0.38300002 0
-0.093462124 -0.072139166 0.38300002 0
-0.092705034 -0.072327517 0.384 0
-0.091703922 -0.072327517 0.384 0
-0.090702809 -0.072327517 0.384 0
-0.089935303 -0.072515875 0.38500002 0
-0.088931575 -0.072515875 0.38500002 0
-0.088156238 -0.072704226 0.38600001 0
-0.087149911 -0.072704226 0.38600001 0
-0.086366758 -0.072892584 0.38700002 0
-0.08535783 -0.072892584 0.38700002 0
-0.084566846 -0.073080935 0.38800001 0
-0.083555304 -0.073080935 0.38800001 0
-0.082756512 -0.073269285 0.38900003 0
-0.081952497 -0.073457636 0.39000002 0
-0.080935739 -0.073457636 0.39000002 0
-0.080123909 -0.073645994 0.39100003 0
-0.07910455 -0.073645994 0.39100003 0
-0.078284889 -0.073834345 0.39200002 0
-0.077262916 -0.073834345 0.39200002 0
-0.076435439 -0.074022695 0.39300001 0
-0.075410865 -0.074022695 0.39300001 0
-0.074575566 -0.074211054 0.39400002 0
-0.073548384 -0.074211054 0.39400002 0
-0.072521202 -0.074211054 0.39400002 0
-0.071494021 -0.074211054 0.39400002 0
-0.070645683 -0.074399404 0.39500001 0
-0.069615893 -0.074399404 0.39500001 0
-0.068586104 -0.074399404 0.39500001 0
-0.067556314 -0.074399404 0.39500001 0
-0.066526525 -0.074399404 0.39500001 0
-0.065496735 -0.074399404 0.39500001 0
-0.064466938 -0.074399404 0.39500001 0
-0.063437149 -0.074399404 0.39500001 0
-0.06224937 -0.074211054 0.39400002 0
-0.061222188 -0.074211054 0.39400002 0
-0.060195006 -0.074211054 0.39400002 0
-0.059017647 -0.074022695 0.39300001 0
-0.057993073 -0.074022695 0.39300001 0
-0 -0 0 0
-0 -0 0 0
-0 -0 0 0
-0 -0 0 0
-0 -0 0 0
-0 -0 0 0
-0 -0 0 0
-0 -0 0 0
-0 -0 0 0
-0 -0 0 0
-0 -0 0 0
-0 -0 0 0
-0 -0 0 0
-0 -0 0 0
-0 -0 0 0
-0 -0 0 0
-0 -0 0 0
-0 -0 0 0
-0 -0 0 0
-0 -0 0 0
-0 -0 0 0
-0 -0 0 0
-0 -0 0 0
-0 -0 0 0
-0 -0 0 0
-0 -0 0 0
-0 -0 0 0
-0 -0 0 0
-0 -0 0 0
-0 -0 0 0
-0.027165661 -0.076659635 0.40700001 0
-0.026104586 -0.076659635 0.40700001 0
-0.025105044 -0.076847993 0.40800002 0
-0.024100287 -0.077036344 0.40900001 0
-0.023090316 -0.077224702 0.41000003 0
-0.02207513 -0.077413052 0.41100001 0
-0.021003628 -0.077413052 0.41100001 0
-0.020029116 -0.077789754 0.41300002 0
-0.018952399 -0.077789754 0.41300002 0
-0.017918967 -0.077978112 0.41400003 0
-0.016880317 -0.078166462 0.41500002 0
-0.015836453 -0.078354813 0.41600001 0
-0.014751915 -0.078354813 0.41600001 0
-0.013700232 -0.078543171 0.41700003 0
-0.012613085 -0.078543171 0.41700003 0
-0.01155358 -0.078731522 0.41800001 0
-0.010463826 -0.078731522 0.41800001 0
-0.0093965009 -0.078919873 0.41900003 0
-0.0083041405 -0.078919873 0.41900003 0
-0.0072117806 -0.078919873 0.41900003 0
-0.0061340258 -0.079108223 0.42000002 0
-0.0050270613 -0.078919873 0.41900003 0
-0.0039440924 -0.079108223 0.42000002 0
-0.0028423422 -0.078919873 0.41900003 0
-0.0017541589 -0.079108223 0.42000002 0
-0.0006576227 -0.078919873 0.41900003 0
0.00043473707 -0.078919873 0.41900003 0
0.0015270968 -0.078919873 0.41900003 0
0.0026194565 -0.078919873 0.41900003 0
0.0037118164 -0.078919873 0.41900003 0
0.0048156418 -0.079108223 0.42000002 0
0.0059246817 -0.079296581 0.42100003 0
0.0070389356 -0.079484932 0.42200002 0
0.0081584025 -0.079673283 0.42300001 0
0.0093049789 -0.080049992 0.42500001 0
0.010437483 -0.08023835 0.42600003 0
0.0115752 -0.0804267 0.42700002 0
0.012718132 -0.080615051 0.42800003 0
0.013898598 -0.080991752 0.43000001 0
0.015054565 -0.081180111 0.43100002 0
0.016178211 -0.081180111 0.43100002 0
0.017301856 -0.081180111 0.43100002 0
0.018425498 -0.081180111 0.43100002 0
0.019549144 -0.081180111 0.43100002 0
0.020720752 -0.081368461 0.43200001 0
0.021847004 -0.081368461 0.43200001 0
0.022973256 -0.081368461 0.43200001 0
0.024099506 -0.081368461 0.43200001 0
0.025225759 -0.081368461 0.43200001 0
0.026352011 -0.081368461 0.43200001 0
0.027478261 -0.081368461 0.43200001 0
0.02867073 -0.081556819 0.43300003 0
0.029799588 -0.081556819 0.43300003 0
0.030928446 -0.081556819 0.43300003 0
0.032057304 -0.081556819 0.43300003 0
0.033262804 -0.08174517 0.43400002 0
0.034394268 -0.08174517 0.43400002 0
0.035525735 -0.08174517 0.43400002 0
0.036741666 -0.081933521 0.43500003 0
0.037962809 -0.082121871 0.43600002 0
0.039189164 -0.082310222 0.43700001 0
0.040328451 -0.082310222 0.43700001 0
0.041562632 -0.08249858 0.43800002 0
0.042704523 -0.08249858 0.43800002 0
0.043846421 -0.08249858 0.43800002 0
0.045091026 -0.082686931 0.43900001 0
0.046235528 -0.082686931 0.43900001 0
0.047272101 -0.08249858 0.43800002 0
0.048413996 -0.08249858 0.43800002 0
0.049555887 -0.08249858 0.43800002 0
0.050697785 -0.08249858 0.43800002 0
0.051839679 -0.08249858 0.43800002 0
0.05298157 -0.08249858 0.43800002 0
0.054123465 -0.08249858 0.43800002 0
0.05513918 -0.082310222 0.43700001 0
0.056278467 -0.082310222 0.43700001 0
0.057417754 -0.082310222 0.43700001 0
0.058423042 -0.082121871 0.43600002 0
0.059559721 -0.082121871 0.43600002 0
0.06055719 -0.081933521 0.43500003 0
0.061691269 -0.081933521 0.43500003 0
0.062680915 -0.08174517 0.43400002 0
0.063812375 -0.08174517 0.43400002 0
0.064943843 -0.08174517 0.43400002 0
0.065923065 -0.081556819 0.43300003 0
0.067051925 -0.081556819 0.43300003 0
0.068180777 -0.081556819 0.43300003 0
0.069149569 -0.081368461 0.43200001 0
0.070275821 -0.081368461 0.43200001 0
0.071236789 -0.081180111 0.43100002 0
0.072192542 -0.080991752 0.43000001 0
0.07314308 -0.080803402 0.42900002 0
0.073915303 -0.0804267 0.42700002 0
0.074677102 -0.080049992 0.42500001 0
0 -0 0 0
0 -0 0 0
0.076532856 -0.078543171 0.41700003 0
0 -0 0 0
0.077574663 -0.077413052 0.41100001 0
0.078072108 -0.076847993 0.40800002 0
0.078553915 -0.076282933 0.40500003 0
0.079216637 -0.075906232 0.40300003 0
0.079868935 -0.075529523 0.40100002 0
0.080712579 -0.075341165 0.40000001 0
0 -0 0 0
0.082177244 -0.074776106 0.39700001 0
0.08279305 -0.074399404 0.39500001 0
0.083610632 -0.074211054 0.39400002 0
0.084422998 -0.074022695 0.39300001 0
0.085447572 -0.074022695 0.39300001 0
0.086252116 -0.073834345 0.39200002 0
0.087274089 -0.073834345 0.39200002 0
0.088296056 -0.073834345 0.39200002 0
0.089318022 -0.073834345 0.39200002 0
0.090339996 -0.073834345 0.39200002 0
0.091361962 -0.073834345 0.39200002 0
0 -0 0 0
0 -0 0 0
0.11658951 -0.091162816 0.48400003 0
0.11785133 -0.091162816 0.48400003 0
0.11911315 -0.091162816 0.48400003 0
0.12062368 -0.091351166 0.48500001 0
0.12188809 -0.091351166 0.48500001 0
0.12315253 -0.091351166 0.48500001 0
0.12441695 -0.091351166 0.48500001 0
0.12594052 -0.091539524 0.48600003 0
0.12720756 -0.091539524 0.48600003 0
0.12873894 -0.091727875 0.48700002 0
0.13000858 -0.091727875 0.48700002 0
0.13127822 -0.091727875 0.48700002 0
0.13282004 -0.091916226 0.48800004 0
0.13436705 -0.092104577 0.48900002 0
0.13564192 -0.092104577 0.48900002 0
0.13747674 -0.092481285 0.49100003 0
0.13875683 -0.092481285 0.49100003 0
0.14032209 -0.092669636 0.49200001 0
0.14189258 -0.092857994 0.49300003 0
0.14346828 -0.093046345 0.49400002 0
0.14475617 -0.093046345 0.49400002 0
0.14633971 -0.093234695 0.49500003 0
0.1476302 -0.093234695 0.49500003 0
0.14922155 -0.093423046 0.49600002 0
0.15051465 -0.093423046 0.49600002 0
0.15180776 -0.093423046 0.49600002 0
0.15340951 -0.093611397 0.49700001 0
0.15470524 -0.093611397 0.49700001 0
0.15600094 -0.093611397 0.49700001 0
0.15729666 -0.093611397 0.49700001 0
0.15891147 -0.093799755 0.49800003 0
0.16020979 -0.093799755 0.49800003 0
0.16183241 -0.093988106 0.49900001 0
0.16346025 -0.094176456 0.5 0
0.16509333 -0.094364814 0.50100005 0
0.1667316 -0.094553165 0.50200003 0
0.16837509 -0.094741516 0.50300002 0
0.17002378 -0.094929866 0.50400001 0
0.17201766 -0.095306583 0.50600004 0
0.1736794 -0.095494933 0.50700003 0
0.17534634 -0.095683284 0.50800002 0
0.17701849 -0.095871635 0.509 0
0.1786959 -0.096059993 0.51000005 0
0.18037848 -0.096248344 0.51100004 0
0.18171071 -0.096248344 0.51100004 0
0.1830429 -0.096248344 0.51100004 0
0.18473592 -0.096436694 0.51200002 0
0.18607076 -0.096436694 0.51200002 0
0.18777157 -0.096625045 0.51300001 0
0.18910901 -0.096625045 0.51300001 0
0.19081765 -0.096813396 0.514 0
0.1921577 -0.096813396 0.514 0
0.1938742 -0.097001761 0.51500005 0
0.19597495 -0.097378463 0.51700002 0
0.19770446 -0.097566813 0.51800001 0
0.19943921 -0.097755171 0.51900005 0
0.20117916 -0.097943522 0.52000004 0
0.20292433 -0.098131873 0.52100003 0
0.20467469 -0.098320223 0.52200001 0
0.206825 -0.098696932 0.52400005 0
0.20858842 -0.098885283 0.52500004 0
0.20995712 -0.098885283 0.52500004 0
0.21132582 -0.098885283 0.52500004 0
0.21309966 -0.099073634 0.52600002 0
0.21447098 -0.099073634 0.52600002 0
0.21625262 -0.099261984 0.52700001 0
0.21803951 -0.099450335 0.528 0
0.21941602 -0.099450335 0.528 0
0.22121075 -0.0996387 0.52900004 0
0.22301064 -0.099827051 0.53000003 0
0.2243924 -0.099827051 0.53000003 0
0.22620012 -0.1000154 0.53100002 0
0.22801307 -0.10020375 0.53200001 0
0.23026246 -0.10058046 0.53400004 0
0.23208842 -0.10076881 0.53500003 0
0.23391962 -0.10095716 0.53600001 0
0.23531699 -0.10095716 0.53600001 0
0.23715602 -0.10114551 0.537 0
0.23900026 -0.10133388 0.53800005 0
0.24040286 -0.10133388 0.53800005 0
0.24225491 -0.10152223 0.53900003 0
0.24366012 -0.10152223 0.53900003 0
0.24551998 -0.10171058 0.54000002 0
0.24738507 -0.10189893 0.54100001 0
0.24879548 -0.10189893 0.54100001 0
0.25066844 -0.10208729 0.54200006 0
0.25254655 -0.10227564 0.54300004 0
0.25442988 -0.10246399 0.54400003 0
0.25631842 -0.10265234 0.54500002 0
0.25821218 -0.10284069 0.546 0
0 -0 0 0
0 -0 0 0
0 -0 0 0
0 -0 0 0
-0 -0 0 0
-0 -0 0 0
-0 -0 0 0
-0 -0 0 0
-0 -0 0 0
-0 -0 0 0
-0 -0 0 0
-0 -0 0 0
-0 -0 0 0
-0 -0 0 0
-0 -0 0 0
-0 -0 0 0
-0 -0 0 0
-0 -0 0 0
-0 -0 0 0
-0 -0 0 0
-0 -0 0 0
-0 -0 0 0
-0 -0 0 0
-0 -0 0 0
-0 -0 0 0
-0 -0 0 0
-0 -0 0 0
-0 -0 0 0
-0 -0 0 0
-0 -0 0 0
-0 -0 0 0
-0 -0 0 0
-0 -0 0 0
-0 -0 0 0
-0 -0 0 0
-0 -0 0 0
-0 -0 0 0
-0 -0 0 0
-0 -0 0 0
-0 -0 0 0
-0 -0 0 0
-0 -0 0 0
-0 -0 0 0
-0 -0 0 0
-0 -0 0 0
-0 -0 0 0
-0 -0 0 0
-0 -0 0 0
-0 -0 0 0
-0 -0 0 0
-0 -0 0 0
-0 -0 0 0
-0 -0 0 0
-0 -0 0 0
-0 -0 0 0
-0 -0 0 0
-0 -0 0 0
-0 -0 0 0
-0 -0 0 0
-0 -0 0 0
-0 -0 0 0
-0 -0 0 0
-0 -0 0 0
-0 -0 0 0
-0 -0 0 0
-0 -0 0 0
-0 -0 0 0
-0.19439176 -0.062782101 0.33800003 0
-0.19408308 -0.062967844 0.33900002 0
-0.19319929 -0.062967844 0.33900002 0
-0.19231549 -0.062967844 0.33900002 0
-0.19199638 -0.063153587 0.34 0
-0.19110999 -0.063153587 0.34 0
-0.19022359 -0.063153587 0.34 0
-0.18933718 -0.063153587 0.34 0
-0.18845078 -0.063153587 0.34 0
-0.18756439 -0.063153587 0.34 0
-0.18722703 -0.063339338 0.34100002 0
-0.18633802 -0.063339338 0.34100002 0
-0.18544902 -0.063339338 0.34100002 0
-0.18510124 -0.063525081 0.34200001 0
-0.18420961 -0.063525081 0.34200001 0
-0.18385403 -0.063710831 0.34300002 0
-0.18295981 -0.063710831 0.34300002 0
-0.18259639 -0.063896574 0.34400001 0
-0.18169954 -0.063896574 0.34400001 0
-0.18132833 -0.064082325 0.34500003 0
-0.18042889 -0.064082325 0.34500003 0
-0.17952946 -0.064082325 0.34500003 0
-0.17863001 -0.064082325 0.34500003 0
-0.17824572 -0.064268067 0.34600002 0
-0.17734368 -0.064268067 0.34600002 0
-0.17644162 -0.064268067 0.34600002 0
-0.1755396 -0.064268067 0.34600002 0
-0.17463756 -0.064268067 0.34600002 0
-0.17373551 -0.064268067 0.34600002 0
-0.17333297 -0.06445381 0.347 0
-0.17242832 -0.06445381 0.347 0
-0.17152368 -0.06445381 0.347 0
-0.17061903 -0.06445381 0.347 0
-0.17020348 -0.064639561 0.34800002 0
-0.16929621 -0.064639561 0.34800002 0
-0.16887282 -0.064825304 0.34900001 0
-0.16796295 -0.064825304 0.34900001 0
-0.16705309 -0.064825304 0.34900001 0
-0.16661929 -0.065011054 0.35000002 0
-0.16570681 -0.065011054 0.35000002 0
-0.16479434 -0.065011054 0.35000002 0
-0.16435009 -0.065196797 0.35100001 0
-0.16343503 -0.065196797 0.35100001 0
-0.16298297 -0.065382548 0.35200003 0
-0.16206528 -0.065382548 0.35200003 0
-0.16114759 -0.065382548 0.35200003 0
-0.16068511 -0.065568291 0.35300002 0
-0.15976481 -0.065568291 0.35300002 0
-0.15929449 -0.065754034 0.354 0
-0.1583716 -0.065754034 0.354 0
-0.15789346 -0.065939784 0.35500002 0
-0.15741013 -0.066125527 0.35600001 0
-0.156482 -0.066125527 0.35600001 0
-0.15599085 -0.06631127 0.35700002 0
-0.15506013 -0.06631127 0.35700002 0
-0.15456113 -0.066497013 0.35800001 0
-0.1536278 -0.066497013 0.35800001 0
-0.15269448 -0.066497013 0.35800001 0
-0.15176114 -0.066497013 0.35800001 0
-0.15082783 -0.066497013 0.35800001 0
-0.14989449 -0.066497013 0.35800001 0
-0.14896116 -0.066497013 0.35800001 0
-0.14844133 -0.066682763 0.35900003 0
-0.14750539 -0.066682763 0.35900003 0
-0.14656946 -0.066682763 0.35900003 0
-0.14563352 -0.066682763 0.35900003 0
-0.14469758 -0.066682763 0.35900003 0
-0.14416209 -0.066868506 0.36000001 0
-0.14322355 -0.066868506 0.36000001 0
-0.14268024 -0.067054257 0.36100003 0
-0.1417391 -0.067054257 0.36100003 0
-0.14118797 -0.06724 0.36200002 0
-0.14024422 -0.06724 0.36200002 0
-0.13930045 -0.06724 0.36200002 0
-0.13873889 -0.067425743 0.36300001 0
-0.13779253 -0.067425743 0.36300001 0
-0.13722315 -0.067611493 0.36400002 0
-0.13627419 -0.067611493 0.36400002 0
-0.13569698 -0.067797236 0.36500001 0
-0.1347454 -0.067797236 0.36500001 0
-0.13379382 -0.067797236 0.36500001 0
-0.1332062 -0.067982987 0.36600003 0
-0.13225202 -0.067982987 0.36600003 0
-0.13165657 -0.06816873 0.36700001 0
-0.13069977 -0.06816873 0.36700001 0
-0.12974298 -0.06816873 0.36700001 0
-0.12913711 -0.06835448 0.36800003 0
-0.1281777 -0.06835448 0.36800003 0
-0.12756401 -0.068540223 0.36900002 0
-0.12660199 -0.068540223 0.36900002 0
-0.12563999 -0.068540223 0.36900002 0
-0.12501585 -0.068725966 0.37 0
-0.12438653 -0.068911716 0.37100002 0
-0.12341931 -0.068911716 0.37100002 0
-0.1224521 -0.068911716 0.37100002 0
-0.12148487 -0.068911716 0.37100002 0
-0.12084249 -0.069097459 0.37200001 0
-0.11987266 -0.069097459 0.37200001 0
-0.11922248 -0.06928321 0.37300003 0
-0.11825003 -0.06928321 0.37300003 0
-0.11727759 -0.06928321 0.37300003 0
-0.11630516 -0.06928321 0.37300003 0
-0.11533273 -0.06928321 0.37300003 0
-0.11466689 -0.069468953 0.37400001 0
-0.11369184 -0.069468953 0.37400001 0
-0.11271681 -0.069468953 0.37400001 0
-0.11204054 -0.069654696 0.37500003 0
-0.1110629 -0.069654696 0.37500003 0
-0.1103788 -0.069840446 0.37600002 0
-0.10939855 -0.069840446 0.37600002 0
-0.10870663 -0.070026189 0.377 0
-0.10800952 -0.070211932 0.37800002 0
-0.10702404 -0.070211932 0.37800002 0
-0.10631909 -0.070397675 0.37900001 0
-0.10533102 -0.070397675 0.37900001 0
-0.10461825 -0.070583425 0.38000003 0
-0.10390028 -0.070769168 0.38100001 0
-0.10290698 -0.070769168 0.38100001 0
-0.10218119 -0.070954919 0.38200003 0
-0.10118528 -0.070954919 0.38200003 0
-0.1001894 -0.070954919 0.38200003 0
-0.099193491 -0.070954919 0.38200003 0
-0.098454654 -0.071140662 0.38300002 0
-0.097456142 -0.071140662 0.38300002 0
-0.096457645 -0.071140662 0.38300002 0
-0.095459133 -0.071140662 0.38300002 0
-0.094460629 -0.071140662 0.38300002 0
-0.093706146 -0.071326405 0.384 0
-0.092705034 -0.071326405 0.384 0
-0.091703922 -0.071326405 0.384 0
-0.090939023 -0.071512155 0.38500002 0
-0.089935303 -0.071512155 0.38500002 0
-0.088931575 -0.071512155 0.38500002 0
-0.088156238 -0.071697898 0.38600001 0
-0.087149911 -0.071697898 0.38600001 0
-0.086366758 -0.071883649 0.38700002 0
-0.08535783 -0.071883649 0.38700002 0
-0.084566846 -0.072069392 0.38800001 0
-0.083555304 -0.072069392 0.38800001 0
-0.082756512 -0.072255142 0.38900003 0
-0.081952497 -0.072440885 0.39000002 0
-0.080935739 -0.072440885 0.39000002 0
-0.080123909 -0.072626635 0.39100003 0
-0.079306863 -0.072812378 0.39200002 0
-0.078284889 -0.072812378 0.39200002 0
-0.077460013 -0.072998121 0.39300001 0
-0.076435439 -0.072998121 0.39300001 0
-0.075602747 -0.073183872 0.39400002 0
-0.074575566 -0.073183872 0.39400002 0
-0.073548384 -0.073183872 0.39400002 0
-0.072521202 -0.073183872 0.39400002 0
-0.071675472 -0.073369615 0.39500001 0
-0.070645683 -0.073369615 0.39500001 0
-0.069615893 -0.073369615 0.39500001 0
-0.068586104 -0.073369615 0.39500001 0
-0.067556314 -0.073369615 0.39500001 0
-0.066526525 -0.073369615 0.39500001 0
-0.065496735 -0.073369615 0.39500001 0
-0.064466938 -0.073369615 0.39500001 0
-0.063437149 -0.073369615 0.39500001 0
-0.06224937 -0.073183872 0.39400002 0
-0.061222188 -0.073183872 0.39400002 0
-0.060042225 -0.072998121 0.39300001 0
-0.059017647 -0.072998121 0.39300001 0
-0.057845511 -0.072812378 0.39200002 0
-0 -0 0 0
-0 -0 0 0
-0 -0 0 0
-0 -0 0 0
-0 -0 0 0
-0 -0 0 0
-0 -0 0 0
-0 -0 0 0
-0 -0 0 0
-0 -0 0 0
-0 -0 0 0
-0 -0 0 0
-0 -0 0 0
-0 -0 0 0
-0 -0 0 0
-0 -0 0 0
-0 -0 0 0
-0 -0 0 0
-0 -0 0 0
-0 -0 0 0
-0 -0 0 0
-0 -0 0 0
-0 -0 0 0
-0 -0 0 0
-0 -0 0 0
-0 -0 0 0
-0 -0 0 0
-0 -0 0 0
-0 -0 0 0
-0.028088029 -0.075227074 0.40500003 0
-0.027098915 -0.075412817 0.40600002 0
-0.026104586 -0.07559856 0.40700001 0
-0.025105044 -0.075784311 0.40800002 0
-0.024041362 -0.075784311 0.40800002 0
-0.023033997 -0.075970054 0.40900001 0
-0.02202142 -0.076155804 0.41000003 0
-0.021003628 -0.076341547 0.41100001 0
-0.019980621 -0.076527297 0.41200003 0
-0.018952399 -0.07671304 0.41300002 0
-0.017918967 -0.076898791 0.41400003 0
-0.016880317 -0.077084534 0.41500002 0
-0.015836453 -0.077270277 0.41600001 0
-0.014751915 -0.077270277 0.41600001 0
-0.013700232 -0.077456027 0.41700003 0
-0.012613085 -0.077456027 0.41700003 0
-0.01155358 -0.07764177 0.41800001 0
-0.010463826 -0.07764177 0.41800001 0
-0.0093965009 -0.077827513 0.41900003 0
-0.0083041405 -0.077827513 0.41900003 0
-0.0072289924 -0.078013264 0.42000002 0
-0.0061340258 -0.078013264 0.42000002 0
-0.0050390591 -0.078013264 0.42000002 0
-0.0039347019 -0.077827513 0.41900003 0
-0.0028491258 -0.078013264 0.42000002 0
-0.0017541589 -0.078013264 0.42000002 0
-0.00065919216 -0.078013264 0.42000002 0
0.00043473707 -0.077827513 0.41900003 0
0.0015270968 -0.077827513 0.41900003 0
0.0026194565 -0.077827513 0.41900003 0
0.0037118164 -0.077827513 0.41900003 0
0.0048156418 -0.078013264 0.42000002 0
0.0059246817 -0.078199007 0.42100003 0
0.0070389356 -0.07838475 0.42200002 0
0.0081776902 -0.078756243 0.42400002 0
0.0093049789 -0.078941986 0.42500001 0
0.010461983 -0.079313479 0.42700002 0
0.011602308 -0.07949923 0.42800003 0
0.012747847 -0.079684973 0.42900002 0
0.013898598 -0.079870716 0.43000001 0
0.015054565 -0.080056466 0.43100002 0
0.016215747 -0.080242209 0.43200001 0
0.017341997 -0.080242209 0.43200001 0
0.01846825 -0.080242209 0.43200001 0
0.019594502 -0.080242209 0.43200001 0
0.020720752 -0.080242209 0.43200001 0
0.021847004 -0.080242209 0.43200001 0
0.022973256 -0.080242209 0.43200001 0
0.024099506 -0.080242209 0.43200001 0
0.025225759 -0.080242209 0.43200001 0
0.026352011 -0.080242209 0.43200001 0
0.027478261 -0.080242209 0.43200001 0
0.02867073 -0.08042796 0.43300003 0
0.029799588 -0.08042796 0.43300003 0
0.030928446 -0.08042796 0.43300003 0
0.032057304 -0.08042796 0.43300003 0
0.033262804 -0.080613703 0.43400002 0
0.034394268 -0.080613703 0.43400002 0
0.035607595 -0.080799453 0.43500003 0
0.036741666 -0.080799453 0.43500003 0
0.037962809 -0.080985196 0.43600002 0
0.039189164 -0.081170939 0.43700001 0
0.040328451 -0.081170939 0.43700001 0
0.041562632 -0.081356689 0.43800002 0
0.042704523 -0.081356689 0.43800002 0
0.043946527 -0.081542432 0.43900001 0
0.045091026 -0.081542432 0.43900001 0
0.046130206 -0.081356689 0.43800002 0
0.047272101 -0.081356689 0.43800002 0
0.048413996 -0.081356689 0.43800002 0
0.049555887 -0.081356689 0.43800002 0
0.050697785 -0.081356689 0.43800002 0
0.051839679 -0.081356689 0.43800002 0
0.05298157 -0.081356689 0.43800002 0
0.053999893 -0.081170939 0.43700001 0
0.05513918 -0.081170939 0.43700001 0
0.056278467 -0.081170939 0.43700001 0
0.057286363 -0.080985196 0.43600002 0
0.058423042 -0.080985196 0.43600002 0
0.059559721 -0.080985196 0.43600002 0
0.06055719 -0.080799453 0.43500003 0
0.061691269 -0.080799453 0.43500003 0
0.062680915 -0.080613703 0.43400002 0
0.063812375 -0.080613703 0.43400002 0
0.064794205 -0.08042796 0.43300003 0
0.065770812 -0.080242209 0.43200001 0
0.066897064 -0.080242209 0.43200001 0
0.068023317 -0.080242209 0.43200001 0
0.0689895 -0.080056466 0.43100002 0
0.069950469 -0.079870716 0.43000001 0
0.070906222 -0.079684973 0.42900002 0
0.072024651 -0.079684973 0.42900002 0
0.072972588 -0.07949923 0.42800003 0
0.073742203 -0.079127736 0.42600003 0
0.074677102 -0.078941986 0.42500001 0
0.075250156 -0.07838475 0.42200002 0
0.075988486 -0.078013264 0.42000002 0
0.076165788 -0.077084534 0.41500002 0
0.076689303 -0.076527297 0.41200003 0
0.077008426 -0.075784311 0.40800002 0
0 -0 0 0
0.078165993 -0.074855581 0.40300003 0
0.078823499 -0.074484088 0.40100002 0
0.079470582 -0.074112594 0.39900002 0
0.080107242 -0.073741108 0.39700001 0
0.080937855 -0.073555365 0.39600003 0
0.081763253 -0.073369615 0.39500001 0
0.08258345 -0.073183872 0.39400002 0
0.083398417 -0.072998121 0.39300001 0
0.084208183 -0.072812378 0.39200002 0
0.085230149 -0.072812378 0.39200002 0
0.086252116 -0.072812378 0.39200002 0
0.087274089 -0.072812378 0.39200002 0
0.088296056 -0.072812378 0.39200002 0
0.089318022 -0.072812378 0.39200002 0
0.090339996 -0.072812378 0.39200002 0
0 -0 0 0
0 -0 0 0
0 -0 0 0
0.11658951 -0.089901 0.48400003 0
0.11785133 -0.089901 0.48400003 0
0.11911315 -0.089901 0.48400003 0
0.12037497 -0.089901 0.48400003 0
0.12188809 -0.090086743 0.48500001 0
0.12315253 -0.090086743 0.48500001 0
0.12441695 -0.090086743 0.48500001 0
0.12594052 -0.090272486 0.48600003 0
0.12720756 -0.090272486 0.48600003 0
0.12847458 -0.090272486 0.48600003 0
0.13000858 -0.090458229 0.48700002 0
0.13127822 -0.090458229 0.48700002 0
0.13282004 -0.09064398 0.48800004 0
0.13436705 -0.090829723 0.48900002 0
0.13564192 -0.090829723 0.48900002 0
0.13747674 -0.091201216 0.49100003 0
0.13903941 -0.091386959 0.49200001 0
0.1406073 -0.091572709 0.49300003 0
0.14189258 -0.091572709 0.49300003 0
0.14346828 -0.091758452 0.49400002 0
0.14504921 -0.091944203 0.49500003 0
0.14633971 -0.091944203 0.49500003 0
0.1476302 -0.091944203 0.49500003 0
0.14922155 -0.092129946 0.49600002 0
0.15051465 -0.092129946 0.49600002 0
0.15180776 -0.092129946 0.49600002 0
0.15340951 -0.092315689 0.49700001 0
0.15470524 -0.092315689 0.49700001 0
0.15600094 -0.092315689 0.49700001 0
0.15729666 -0.092315689 0.49700001 0
0.15891147 -0.092501439 0.49800003 0
0.16020979 -0.092501439 0.49800003 0
0.16183241 -0.092687182 0.49900001 0
0.16346025 -0.092872925 0.5 0
0.16509333 -0.093058683 0.50100005 0
0.1667316 -0.093244426 0.50200003 0
0.16837509 -0.093430169 0.50300002 0
0.17002378 -0.093615912 0.50400001 0
0.17201766 -0.093987405 0.50600004 0
0.1736794 -0.094173148 0.50700003 0
0.17569152 -0.094544642 0.509 0
0.17736629 -0.094730392 0.51000005 0
0.17904629 -0.094916135 0.51100004 0
0.18037848 -0.094916135 0.51100004 0
0.18206629 -0.095101878 0.51200002 0
0.18340111 -0.095101878 0.51200002 0
0.18473592 -0.095101878 0.51200002 0
0.18643416 -0.095287621 0.51300001 0
0.18777157 -0.095287621 0.51300001 0
0.18947764 -0.095473364 0.514 0
0.19081765 -0.095473364 0.514 0
0.19253157 -0.095659122 0.51500005 0
0.19425064 -0.095844865 0.51600003 0
0.19597495 -0.096030608 0.51700002 0
0.19770446 -0.096216351 0.51800001 0
0.19943921 -0.096402109 0.51900005 0
0.20156604 -0.096773595 0.52100003 0
0.20292433 -0.096773595 0.52100003 0
0.20506677 -0.097145081 0.523 0
0.206825 -0.097330831 0.52400005 0
0.20858842 -0.097516581 0.52500004 0
0.20995712 -0.097516581 0.52500004 0
0.21172835 -0.097702324 0.52600002 0
0.21309966 -0.097702324 0.52600002 0
0.21487871 -0.097888067 0.52700001 0
0.21625262 -0.097888067 0.52700001 0
0.21803951 -0.09807381 0.528 0
0.21983162 -0.098259561 0.52900004 0
0.22162892 -0.098445304 0.53000003 0
0.22301064 -0.098445304 0.53000003 0
0.22481577 -0.098631047 0.53100002 0
0.2266261 -0.09881679 0.53200001 0
0.22844169 -0.099002548 0.53300005 0
0.23069365 -0.099374034 0.53500003 0
0.23252223 -0.099559776 0.53600001 0
0.23391962 -0.099559776 0.53600001 0
0.23575601 -0.099745519 0.537 0
0.23759767 -0.099931277 0.53800005 0
0.23944449 -0.10011702 0.53900003 0
0.2408497 -0.10011702 0.53900003 0
0.24270435 -0.10030276 0.54000002 0
0.24411218 -0.10030276 0.54000002 0
0.24597465 -0.10048851 0.54100001 0
0.24784237 -0.10067426 0.54200006 0
0.24925539 -0.10067426 0.54200006 0
0.25113091 -0.10086001 0.54300004 0
0.25301164 -0.10104575 0.54400003 0
0.25489756 -0.10123149 0.54500002 0
0.25678873 -0.10141724 0.546 0
0.25868511 -0.10160299 0.54700005 0
0 -0 0 0
0 -0 0 0
0 -0 0 0
-0 -0 0 0
-0 -0 0 0
-0 -0 0 0
-0 -0 0 0
-0 -0 0 0
-0 -0 0 0
-0 -0 0 0
-0 -0 0 0
-0 -0 0 0
-0 -0 0 0
-0 -0 0 0
-0 -0 0 0
-0 -0 0 0
-0 -0 0 0
-0 -0 0 0
-0 -0 0 0
-0 -0 0 0
-0 -0 0 0
-0 -0 0 0
-0 -0 0 0
-0 -0 0 0
-0 -0 0 0
-0 -0 0 0
-0 -0 0 0
-0 -0 0 0
-0 -0 0 0
-0 -0 0 0
-0 -0 0 0
-0 -0 0 0
-0 -0 0 0
-0 -0 0 0
-0 -0 0 0
-0 -0 0 0
-0 -0 0 0
-0 -0 0 0
-0 -0 0 0
-0 -0 0 0
-0 -0 0 0
-0 -0 0 0
-0 -0 0 0
-0 -0 0 0
-0 -0 0 0
-0 -0 0 0
-0 -0 0 0
-0 -0 0 0
-0 -0 0 0
-0 -0 0 0
-0 -0 0 0
-0 -0 0 0
-0 -0 0 0
-0 -0 0 0
-0 -0 0 0
-0 -0 0 0
-0 -0 0 0
-0 -0 0 0
-0 -0 0 0
-0 -0 0 0
-0 -0 0 0
-0 -0 0 0
-0 -0 0 0
-0 -0 0 0
-0 -0 0 0
-0 -0 0 0
-0.19496687 -0.062084045 0.33900002 0
-0.19408308 -0.062084045 0.33900002 0
-0.19319929 -0.062084045 0.33900002 0
-0.19231549 -0.062084045 0.33900002 0
-0.19199638 -0.062267184 0.34 0
-0.19110999 -0.062267184 0.34 0
-0.19022359 -0.062267184 0.34 0
-0.18933718 -0.062267184 0.34 0
-0.18900506 -0.062450327 0.34100002 0
-0.18811606 -0.062450327 0.34100002 0
-0.18722703 -0.062450327 0.34100002 0
-0.18633802 -0.062450327 0.34100002 0
-0.18599285 -0.062633462 0.34200001 0
-0.18510124 -0.062633462 0.34200001 0
-0.18474825 -0.062816605 0.34300002 0
-0.18385403 -0.062816605 0.34300002 0
-0.18349321 -0.06299974 0.34400001 0
-0.18259639 -0.06299974 0.34400001 0
-0.18169954 -0.06299974 0.34400001 0
-0.18132833 -0.063182883 0.34500003 0
-0.18042889 -0.063182883 0.34500003 0
-0.17952946 -0.063182883 0.34500003 0
-0.17863001 -0.063182883 0.34500003 0
-0.17824572 -0.063366018 0.34600002 0
-0.17734368 -0.063366018 0.34600002 0
-0.17644162 -0.063366018 0.34600002 0
-0.1755396 -0.063366018 0.34600002 0
-0.17463756 -0.063366018 0.34600002 0
-0.17373551 -0.063366018 0.34600002 0
-0.17333297 -0.063549154 0.347 0
-0.17242832 -0.063549154 0.347 0
-0.17152368 -0.063549154 0.347 0
-0.17111072 -0.063732296 0.34800002 0
-0.17020348 -0.063732296 0.34800002 0
-0.16929621 -0.063732296 0.34800002 0
-0.16887282 -0.063915431 0.34900001 0
-0.16796295 -0.063915431 0.34900001 0
-0.16753176 -0.064098574 0.35000002 0
-0.16661929 -0.064098574 0.35000002 0
-0.16570681 -0.064098574 0.35000002 0
-0.16526519 -0.064281709 0.35100001 0
-0.16435009 -0.064281709 0.35100001 0
-0.16343503 -0.064281709 0.35100001 0
-0.16298297 -0.064464852 0.35200003 0
-0.16206528 -0.064464852 0.35200003 0
-0.16114759 -0.064464852 0.35200003 0
-0.16068511 -0.064647987 0.35300002 0
-0.15976481 -0.064647987 0.35300002 0
-0.15929449 -0.064831123 0.354 0
-0.15881898 -0.065014265 0.35500002 0
-0.15789346 -0.065014265 0.35500002 0
-0.15741013 -0.065197401 0.35600001 0
-0.156482 -0.065197401 0.35600001 0
-0.15599085 -0.065380543 0.35700002 0
-0.15506013 -0.065380543 0.35700002 0
-0.15456113 -0.065563686 0.35800001 0
-0.1536278 -0.065563686 0.35800001 0
-0.15269448 -0.065563686 0.35800001 0
-0.15176114 -0.065563686 0.35800001 0
-0.15082783 -0.065563686 0.35800001 0
-0.1503132 -0.065746821 0.35900003 0
-0.14937726 -0.065746821 0.35900003 0
-0.14844133 -0.065746821 0.35900003 0
-0.14750539 -0.065746821 0.35900003 0
-0.14656946 -0.065746821 0.35900003 0
-0.14563352 -0.065746821 0.35900003 0
-0.14510064 -0.065929964 0.36000001 0
-0.14416209 -0.065929964 0.36000001 0
-0.14322355 -0.065929964 0.36000001 0
-0.14268024 -0.066113099 0.36100003 0
-0.1417391 -0.066113099 0.36100003 0
-0.14118797 -0.066296242 0.36200002 0
-0.14024422 -0.066296242 0.36200002 0
-0.13930045 -0.066296242 0.36200002 0
-0.13873889 -0.066479377 0.36300001 0
-0.13779253 -0.066479377 0.36300001 0
-0.13722315 -0.06666252 0.36400002 0
-0.13627419 -0.06666252 0.36400002 0
-0.13569698 -0.066845655 0.36500001 0
-0.1347454 -0.066845655 0.36500001 0
-0.13379382 -0.066845655 0.36500001 0
-0.1332062 -0.067028798 0.36600003 0
-0.13225202 -0.067028798 0.36600003 0
-0.13165657 -0.067211933 0.36700001 0
-0.13069977 -0.067211933 0.36700001 0
-0.13009651 -0.067395076 0.36800003 0
-0.12913711 -0.067395076 0.36800003 0
-0.128526 -0.067578211 0.36900002 0
-0.12756401 -0.067578211 0.36900002 0
-0.12660199 -0.067578211 0.36900002 0
-0.12598048 -0.067761347 0.37 0
-0.12535375 -0.067944489 0.37100002 0
-0.12438653 -0.067944489 0.37100002 0
-0.12341931 -0.067944489 0.37100002 0
-0.12278215 -0.068127625 0.37200001 0
-0.12181231 -0.068127625 0.37200001 0
-0.12084249 -0.068127625 0.37200001 0
-0.1201949 -0.068310767 0.37300003 0
-0.11922248 -0.068310767 0.37300003 0
-0.11825003 -0.068310767 0.37300003 0
-0.11727759 -0.068310767 0.37300003 0
-0.11630516 -0.068310767 0.37300003 0
-0.11564193 -0.068493903 0.37400001 0
-0.11466689 -0.068493903 0.37400001 0
-0.11369184 -0.068493903 0.37400001 0
-0.11271681 -0.068493903 0.37400001 0
-0.11204054 -0.068677045 0.37500003 0
-0.1110629 -0.068677045 0.37500003 0
-0.1103788 -0.068860181 0.37600002 0
-0.1096895 -0.069043316 0.377 0
-0.10870663 -0.069043316 0.377 0
-0.10800952 -0.069226459 0.37800002 0
-0.10730717 -0.069409594 0.37900001 0
-0.10631909 -0.069409594 0.37900001 0
-0.10560894 -0.069592737 0.38000003 0
-0.10489356 -0.069775872 0.38100001 0
-0.10390028 -0.069775872 0.38100001 0
-0.10317708 -0.069959015 0.38200003 0
-0.10218119 -0.069959015 0.38200003 0
-0.10118528 -0.069959015 0.38200003 0
-0.1001894 -0.069959015 0.38200003 0
-0.099453151 -0.07014215 0.38300002 0
-0.098454654 -0.07014215 0.38300002 0
-0.097456142 -0.07014215 0.38300002 0
-0.096457645 -0.07014215 0.38300002 0
-0.09570837 -0.070325293 0.384 0
-0.094707258 -0.070325293 0.384 0
-0.093706146 -0.070325293 0.384 0
-0.092946455 -0.070508428 0.38500002 0
-0.091942742 -0.070508428 0.38500002 0
-0.090939023 -0.070508428 0.38500002 0
-0.089935303 -0.070508428 0.38500002 0
-0.089162566 -0.070691571 0.38600001 0
-0.088156238 -0.070691571 0.38600001 0
-0.087149911 -0.070691571 0.38600001 0
-0.086366758 -0.070874706 0.38700002 0
-0.08535783 -0.070874706 0.38700002 0
-0.084566846 -0.071057849 0.38800001 0
-0.083555304 -0.071057849 0.38800001 0
-0.082756512 -0.071240991 0.38900003 0
-0.081952497 -0.071424127 0.39000002 0
-0.080935739 -0.071424127 0.39000002 0
-0.080123909 -0.071607269 0.39100003 0
-0.079306863 -0.071790405 0.39200002 0
-0.078284889 -0.071790405 0.39200002 0
-0.077460013 -0.07197354 0.39300001 0
-0.076435439 -0.07197354 0.39300001 0
-0.075602747 -0.072156683 0.39400002 0
-0.074575566 -0.072156683 0.39400002 0
-0.073548384 -0.072156683 0.39400002 0
-0.072705261 -0.072339818 0.39500001 0
-0.071675472 -0.072339818 0.39500001 0
-0.070645683 -0.072339818 0.39500001 0
-0.069615893 -0.072339818 0.39500001 0
-0.068586104 -0.072339818 0.39500001 0
-0.067556314 -0.072339818 0.39500001 0
-0.066526525 -0.072339818 0.39500001 0
-0.065496735 -0.072339818 0.39500001 0
-0.064466938 -0.072339818 0.39500001 0
-0.063437149 -0.072339818 0.39500001 0
-0.06224937 -0.072156683 0.39400002 0
-0.061222188 -0.072156683 0.39400002 0
-0.060042225 -0.07197354 0.39300001 0
-0.059017647 -0.07197354 0.39300001 0
-0.057845511 -0.071790405 0.39200002 0
-0.05682354 -0.071790405 0.39200002 0
-0.055659223 -0.071607269 0.39100003 0
-0 -0 0 0
-0.05348336 -0.071424127 0.39000002 0
-0.052332077 -0.071240991 0.38900003 0
-0.05131793 -0.071240991 0.38900003 0
-0 -0 0 0
-0 -0 0 0
-0 -0 0 0
-0 -0 0 0
-0 -0 0 0
-0 -0 0 0
-0 -0 0 0
-0 -0 0 0
-0 -0 0 0
-0 -0 0 0
-0 -0 0 0
-0 -0 0 0
-0 -0 0 0
-0 -0 0 0
-0 -0 0 0
-0 -0 0 0
-0 -0 0 0
-0.034083214 -0.073438652 0.40100002 0
-0.033120167 -0.073621787 0.40200001 0
-0 -0 0 0
-0 -0 0 0
-0 -0 0 0
-0.029071933 -0.073988065 0.40400001 0
-0.028088029 -0.074171208 0.40500003 0
-0.027098915 -0.074354343 0.40600002 0
-0.026040448 -0.074354343 0.40600002 0
-0.025043512 -0.074537478 0.40700001 0
-0.024041362 -0.074720621 0.40800002 0
-0.023033997 -0.074903756 0.40900001 0
-0.02202142 -0.075086899 0.41000003 0
-0.021003628 -0.075270034 0.41100001 0
-0.019980621 -0.075453177 0.41200003 0
-0.018952399 -0.07563632 0.41300002 0
-0.017918967 -0.075819455 0.41400003 0
-0.016880317 -0.076002598 0.41500002 0
-0.015798384 -0.076002598 0.41500002 0
-0.014751915 -0.076185733 0.41600001 0
-0.013700232 -0.076368876 0.41700003 0
-0.012613085 -0.076368876 0.41700003 0
-0.01155358 -0.076552011 0.41800001 0
-0.010463826 -0.076552011 0.41800001 0
-0.0093965009 -0.076735154 0.41900003 0
-0.0083041405 -0.076735154 0.41900003 0
-0.0072117806 -0.076735154 0.41900003 0
-0.0061340258 -0.076918289 0.42000002 0
-0.0050390591 -0.076918289 0.42000002 0
-0.0039440924 -0.076918289 0.42000002 0
-0.0028491258 -0.076918289 0.42000002 0
-0.0017541589 -0.076918289 0.42000002 0
-0.00065919216 -0.076918289 0.42000002 0
0.00043577459 -0.076918289 0.42000002 0
0.0015270968 -0.076735154 0.41900003 0
0.0026194565 -0.076735154 0.41900003 0
0.0037206749 -0.076918289 0.42000002 0
0.0048156418 -0.076918289 0.42000002 0
0.005938754 -0.077284567 0.42200002 0
0.0070556151 -0.077467702 0.42300001 0
0.0081776902 -0.077650845 0.42400002 0
0.0093268733 -0.078017123 0.42600003 0
0.010461983 -0.078200258 0.42700002 0
0.011602308 -0.078383401 0.42800003 0
0.012777561 -0.078749672 0.43000001 0
0.013930921 -0.078932814 0.43100002 0
0.015089494 -0.07911595 0.43200001 0
0.016215747 -0.07911595 0.43200001 0
0.017341997 -0.07911595 0.43200001 0
0.01846825 -0.07911595 0.43200001 0
0.019594502 -0.07911595 0.43200001 0
0.020720752 -0.07911595 0.43200001 0
0.021847004 -0.07911595 0.43200001 0
0.022973256 -0.07911595 0.43200001 0
0.024099506 -0.07911595 0.43200001 0
0.025225759 -0.07911595 0.43200001 0
0.026352011 -0.07911595 0.43200001 0
0.027478261 -0.07911595 0.43200001 0
0.028604515 -0.07911595 0.43200001 0
0.029799588 -0.079299092 0.43300003 0
0.030928446 -0.079299092 0.43300003 0
0.032131337 -0.079482228 0.43400002 0
0.033262804 -0.079482228 0.43400002 0
0.034394268 -0.079482228 0.43400002 0
0.035607595 -0.07966537 0.43500003 0
0.03682613 -0.079848506 0.43600002 0
0.037962809 -0.079848506 0.43600002 0
0.039189164 -0.080031648 0.43700001 0
0.040328451 -0.080031648 0.43700001 0
0.041562632 -0.080214784 0.43800002 0
0.042704523 -0.080214784 0.43800002 0
0.043846421 -0.080214784 0.43800002 0
0.044988316 -0.080214784 0.43800002 0
0.046130206 -0.080214784 0.43800002 0
0.047272101 -0.080214784 0.43800002 0
0.048413996 -0.080214784 0.43800002 0
0.049555887 -0.080214784 0.43800002 0
0.050697785 -0.080214784 0.43800002 0
0.05172132 -0.080031648 0.43700001 0
0.052860606 -0.080031648 0.43700001 0
0.053999893 -0.080031648 0.43700001 0
0.05513918 -0.080031648 0.43700001 0
0.056149684 -0.079848506 0.43600002 0
0.057286363 -0.079848506 0.43600002 0
0.058423042 -0.079848506 0.43600002 0
0.059423119 -0.07966537 0.43500003 0
0.06055719 -0.07966537 0.43500003 0
0.061691269 -0.07966537 0.43500003 0
0.062680915 -0.079482228 0.43400002 0
0.063665345 -0.079299092 0.43300003 0
0.06464456 -0.07911595 0.43200001 0
0.065618567 -0.078932814 0.43100002 0
0.066587359 -0.078749672 0.43000001 0
0.067708395 -0.078749672 0.43000001 0
0.068829432 -0.078749672 0.43000001 0
0.069625117 -0.078383401 0.42800003 0
0.070575655 -0.078200258 0.42700002 0
0.071688876 -0.078200258 0.42700002 0
0.072461091 -0.07783398 0.42500001 0
0.073395997 -0.077650845 0.42400002 0
0.074325681 -0.077467702 0.42300001 0
0 -0 0 0
0.075626634 -0.076552011 0.41800001 0
0.075798728 -0.07563632 0.41300002 0
0.076317027 -0.075086899 0.41000003 0
0 -0 0 0
0.077115342 -0.07380493 0.40300003 0
0.07758411 -0.073255509 0.40000001 0
0 -0 0 0
0.078873061 -0.072522961 0.39600003 0
0.079703674 -0.072339818 0.39500001 0
0.080529079 -0.072156683 0.39400002 0
0.081349261 -0.07197354 0.39300001 0
0.082373843 -0.07197354 0.39300001 0
0.083186217 -0.071790405 0.39200002 0
0.083993368 -0.071607269 0.39100003 0
0.085012726 -0.071607269 0.39100003 0
0.086252116 -0.071790405 0.39200002 0
0.087274089 -0.071790405 0.39200002 0
0.08807081 -0.071607269 0.39100003 0
0.089318022 -0.071790405 0.39200002 0
0.090339996 -0.071790405 0.39200002 0
0 -0 0 0
0 -0 0 0
0 -0 0 0
0.11658951 -0.08863917 0.48400003 0
0.11785133 -0.08863917 0.48400003 0
0.11911315 -0.08863917 0.48400003 0
0.12037497 -0.08863917 0.48400003 0
0.12188809 -0.088822305 0.48500001 0
0.12315253 -0.088822305 0.48500001 0
0.12467348 -0.089005448 0.48600003 0
0.12594052 -0.089005448 0.48600003 0
0.12720756 -0.089005448 0.48600003 0
0.12873894 -0.089188583 0.48700002 0
0.13000858 -0.089188583 0.48700002 0
0.13154778 -0.089371726 0.48800004 0
0.13282004 -0.089371726 0.48800004 0
0.13436705 -0.089554861 0.48900002 0
0.13591929 -0.089738004 0.49000001 0
0.13747674 -0.089921139 0.49100003 0
0.13903941 -0.090104282 0.49200001 0
0.1406073 -0.090287417 0.49300003 0
0.1421804 -0.09047056 0.49400002 0
0.14346828 -0.09047056 0.49400002 0
0.14504921 -0.090653695 0.49500003 0
0.14633971 -0.090653695 0.49500003 0
0.14792843 -0.090836838 0.49600002 0
0.14922155 -0.090836838 0.49600002 0
0.15051465 -0.090836838 0.49600002 0
0.15211381 -0.091019973 0.49700001 0
0.15340951 -0.091019973 0.49700001 0
0.15470524 -0.091019973 0.49700001 0
0.15600094 -0.091019973 0.49700001 0
0.15761316 -0.091203116 0.49800003 0
0.15891147 -0.091203116 0.49800003 0
0.16053149 -0.091386251 0.49900001 0
0.16183241 -0.091386251 0.49900001 0
0.16346025 -0.091569386 0.5 0
0.16509333 -0.091752537 0.50100005 0
0.1667316 -0.091935672 0.50200003 0
0.16870983 -0.092301942 0.50400001 0
0.17036112 -0.092485078 0.505 0
0.17201766 -0.092668228 0.50600004 0
0.1736794 -0.092851363 0.50700003 0
0.17569152 -0.093217634 0.509 0
0.17736629 -0.093400784 0.51000005 0
0.17904629 -0.093583919 0.51100004 0
0.18073148 -0.093767054 0.51200002 0
0.18206629 -0.093767054 0.51200002 0
0.18340111 -0.093767054 0.51200002 0
0.18509673 -0.09395019 0.51300001 0
0.18643416 -0.09395019 0.51300001 0
0.18813761 -0.094133332 0.514 0
0.18947764 -0.094133332 0.514 0
0.19081765 -0.094133332 0.514 0
0.19253157 -0.094316475 0.51500005 0
0.19425064 -0.09449961 0.51600003 0
0.196354 -0.094865888 0.51800001 0
0.19770446 -0.094865888 0.51800001 0
0.19982348 -0.095232166 0.52000004 0
0.20156604 -0.095415309 0.52100003 0
0.20331381 -0.095598444 0.52200001 0
0.20506677 -0.09578158 0.523 0
0.206825 -0.095964722 0.52400005 0
0.20858842 -0.096147865 0.52500004 0
0.20995712 -0.096147865 0.52500004 0
0.21172835 -0.096331 0.52600002 0
0.21350479 -0.096514136 0.52700001 0
0.21487871 -0.096514136 0.52700001 0
