# .PCD v0.7 - Point Cloud Data file format
VERSION 0.7
FIELDS x y z
SIZE 4 4 4
TYPE F F F
COUNT 1 1 1
WIDTH 1315
HEIGHT 1
VIEWPOINT 0 0 0 1 0 0 0
POINTS 1315
DATA ascii
-0.014992207 -0.046265647 0.44523594
-0.013483942 -0.046357352 0.44525799
-0.01262024 -0.046425413 0.44604516
-0.011117727 -0.046516664 0.44606191
-0.010255963 -0.046584576 0.44684732
-0.0093941689 -0.046652485 0.44763273
-0.0085324049 -0.046720393 0.44841814
-0.0076706111 -0.046788305 0.44920355
-0.0074380338 -0.04683378 0.45076811
-0.0072015822 -0.04687956 0.45233619
-0.0069613159 -0.046925642 0.45390776
-0.0067171752 -0.046972029 0.45548281
-0.0064691901 -0.047018714 0.45706141
-0.0062174201 -0.047065705 0.4586435
-0.0065793991 -0.047091477 0.46101877
-0.0063179433 -0.047139227 0.46260962
-0.0066664517 -0.047166061 0.46499714
-0.0063953996 -0.047214568 0.46659678
-0.0067304373 -0.047242463 0.46899655
-0.0070578158 -0.047270961 0.47140339
-0.0067713857 -0.047320683 0.47301704
-0.0070852637 -0.047350243 0.47543612
-0.0073914528 -0.04738041 0.47786224
-0.0070896447 -0.047431342 0.47948989
-0.0067839324 -0.04748258 0.48112106
-0.007070899 -0.047514264 0.48356473
-0.00675565 -0.047566257 0.48520467
-0.0070291162 -0.047599003 0.48766056
-0.0067041814 -0.047651753 0.48930928
-0.0069642365 -0.04768556 0.49177745
-0.0066296756 -0.04773907 0.49343494
-0.00687626 -0.047773935 0.49591538
-0.0065321028 -0.047828205 0.49758163
-0.0067652166 -0.047864132 0.50007433
-0.0064114332 -0.047919158 0.5017494
-0.0060538054 -0.047974486 0.50342786
-0.0056923628 -0.048030119 0.50510991
0.09857145 -0.053504273 0.46352291
0.098861754 -0.053554296 0.46514004
0.099608123 -0.053613111 0.46582025
0.09990418 -0.053663589 0.46744269
0.10020408 -0.053714368 0.46906859
0.10006139 -0.053757422 0.47164372
0.099481851 -0.053793199 0.47517329
0.09240827 -0.053914495 0.50254118
0.092783213 -0.053971186 0.50423551
0.093593061 -0.054035004 0.50497353
0.094402894 -0.054098822 0.50571167
0.095212728 -0.054162636 0.5064497
-0.013418913 -0.045188967 0.44528764
-0.011914611 -0.045282975 0.44530609
-0.011052847 -0.045350879 0.4460915
-0.0095543265 -0.045444433 0.44610474
-0.0086944699 -0.045512188 0.44688839
-0.0078346133 -0.045579948 0.44767204
-0.0069747567 -0.045647703 0.44845569
-0.0061149001 -0.045715462 0.44923934
-0.0058821738 -0.045758337 0.45080397
-0.0056455731 -0.045801513 0.4523721
-0.0054051578 -0.045844994 0.45394373
-0.005160898 -0.045888778 0.45551887
-0.0055322051 -0.045908589 0.4578855
-0.0052783191 -0.045953128 0.45946944
-0.0056361854 -0.045973998 0.46184832
-0.0053726733 -0.046019297 0.46344098
-0.0057170391 -0.046041228 0.46583217
-0.0054439008 -0.046087287 0.4674336
-0.0057748258 -0.04611028 0.46983704
-0.0060980618 -0.046133876 0.47224751
-0.006413579 -0.046158083 0.47466499
-0.0061193109 -0.046205807 0.4762857
-0.0064213276 -0.046231072 0.47871545
-0.0061174631 -0.046279557 0.48034492
-0.0058096945 -0.046328343 0.48197794
-0.0060925484 -0.046355125 0.48442522
-0.0057751834 -0.046404667 0.48606697
-0.0060445368 -0.04643251 0.48852649
-0.0063061714 -0.04646096 0.49099308
-0.0059734285 -0.046511717 0.49264887
-0.006221652 -0.046541225 0.49512771
-0.0058792531 -0.046592742 0.49679226
-0.0055330396 -0.046644557 0.49846029
-0.0051829517 -0.046696678 0.50013185
-0.0054061413 -0.046728157 0.50263351
-0.0044712722 -0.046801828 0.50348556
-0.0041096509 -0.046854857 0.5051676
0.10056844 -0.052625638 0.46396488
0.10086083 -0.052673209 0.46558386
0.10160527 -0.052731872 0.46626234
0.10190341 -0.052779902 0.46788657
0.10220537 -0.05282823 0.46951431
0.093654037 -0.052939478 0.50500137
0.094892859 -0.053012569 0.50477791
0.095700771 -0.05307623 0.5055142
0.096508682 -0.053139895 0.5062505
-0.010349452 -0.044213492 0.44535059
-0.0094895959 -0.044281252 0.44613424
-0.0079950392 -0.0443771 0.4461439
-0.00713709 -0.044444706 0.44692579
-0.0062791705 -0.044512313 0.44770768
-0.0054212511 -0.044579919 0.44848961
-0.0051903129 -0.044620037 0.45005253
-0.0049555004 -0.04466046 0.45161897
-0.0047168434 -0.044701189 0.45318893
-0.0044743419 -0.044742219 0.4547624
-0.0042280257 -0.044783551 0.45633933
-0.0039778352 -0.044825189 0.45791981
-0.0043392479 -0.044840548 0.46029535
-0.0046929717 -0.044856519 0.46267787
-0.0044273734 -0.044899367 0.46427235
-0.0047675967 -0.044916399 0.46666718
-0.0044924021 -0.044960003 0.46827045
-0.005425036 -0.044952273 0.47147787
-0.005138278 -0.044996791 0.47309163
-0.0054496825 -0.045016095 0.47551271
-0.0051533282 -0.045061372 0.47713527
-0.0054512322 -0.045081735 0.47956866
-0.0051452816 -0.045127764 0.48119995
-0.0048354566 -0.0451741 0.48283476
-0.0051141381 -0.045195982 0.4852857
-0.0053851604 -0.045218468 0.48774362
-0.0050599575 -0.045266017 0.48939246
-0.0053174496 -0.045289565 0.49186265
-0.0049826503 -0.045337871 0.49352026
-0.0046439767 -0.045386478 0.49518135
-0.0048822761 -0.045411542 0.4976691
-0.0045339465 -0.04546091 0.49933898
-0.0041818023 -0.045510579 0.50101233
-0.0038258433 -0.045560554 0.50268924
-0.0034660101 -0.04561083 0.50436968
-0.002531141 -0.045684498 0.50522172
0.094953686 -0.051919643 0.50480562
0.095761597 -0.051983308 0.50554192
0.096569523 -0.052046973 0.50627828
0.097800508 -0.052122056 0.50604773
-0.0087883472 -0.043148912 0.44539145
-0.0079304278 -0.043216519 0.44617337
-0.0064398944 -0.043314669 0.44617942
-0.0055838823 -0.043382123 0.44695958
-0.0053566396 -0.043419339 0.44851905
-0.0044986904 -0.043486945 0.44930097
-0.0042656958 -0.043524612 0.45086572
-0.0034058392 -0.043592371 0.45164937
-0.0031670332 -0.043630496 0.45321938
-0.0029244125 -0.043668922 0.45479292
-0.0032951534 -0.043678321 0.45715982
-0.0030428767 -0.043717507 0.45874208
-0.003400147 -0.043727972 0.46112126
-0.0037497282 -0.043739036 0.46350744
-0.0040915906 -0.043750711 0.46590063
-0.0038181841 -0.043791562 0.46750221
-0.0041466057 -0.043804299 0.46990764
-0.0044673383 -0.043817639 0.47232014
-0.004178524 -0.043859705 0.47393572
-0.004485786 -0.043874107 0.47636047
-0.0041873455 -0.043916933 0.47798482
-0.0044811368 -0.043932397 0.48042187
-0.0041731 -0.043975975 0.48205498
-0.0044534206 -0.043992504 0.48450428
-0.0041357577 -0.044036843 0.48614618
-0.0044026375 -0.044054426 0.48860773
-0.0040753484 -0.044099525 0.4902584
-0.0043287277 -0.044118173 0.49273223
-0.0039918423 -0.044164024 0.49439165
-0.0036510825 -0.044210184 0.49605459
-0.0033065379 -0.044256646 0.49772105
-0.0029580891 -0.04430341 0.49939099
-0.0026057959 -0.044350479 0.50106442
-0.0022496581 -0.044397846 0.50274134
-0.0018897057 -0.044445522 0.50442183
-0.00095674396 -0.044519041 0.50527209
0.093831241 -0.050714169 0.50240254
0.095443234 -0.050841197 0.50387168
0.096249223 -0.05090471 0.50460625
0.097055227 -0.050968222 0.50534081
0.097861201 -0.051031735 0.50607538
-0.0080874562 -0.042021781 0.44464853
-0.0072314441 -0.042089239 0.44542867
-0.006375432 -0.042156689 0.44620883
-0.0055194497 -0.042224146 0.44698897
-0.0046634376 -0.0422916 0.44776911
-0.0038074255 -0.042359054 0.44854927
-0.0035761595 -0.042393971 0.45011234
-0.00271824 -0.042461574 0.45089424
-0.002481252 -0.042496946 0.45246255
-0.0022403896 -0.042532619 0.45403439
-0.0026127398 -0.042536665 0.45639968
-0.0023622811 -0.042573094 0.45798028
-0.0027211607 -0.042578202 0.46035779
-0.003072381 -0.042583913 0.46274236
-0.0028065145 -0.042621557 0.46433699
-0.0031442642 -0.042628329 0.46673384
-0.0028687418 -0.042666733 0.46833721
-0.0031930506 -0.042674564 0.47074631
-0.0035096407 -0.042683005 0.47316244
-0.00321877 -0.04272262 0.47477984
-0.0035218894 -0.042732123 0.47720823
-0.0032213926 -0.042772494 0.47883439
-0.0035110116 -0.042783059 0.48127508
-0.0032009184 -0.042824186 0.48291001
-0.0034771264 -0.042835809 0.48536295
-0.0031573772 -0.0428777 0.48700666
-0.0034201145 -0.042890385 0.48947185
-0.0030907691 -0.042933032 0.49112433
-0.0027575493 -0.042975981 0.49278033
-0.0024205148 -0.043019235 0.49443981
-0.0026582479 -0.04303389 0.4969278
-0.0023115873 -0.043077901 0.49859607
-0.0013863444 -0.043150812 0.49943936
-0.0016067326 -0.043166831 0.50194311
-0.0006776154 -0.043240048 0.50278986
-0.00031748414 -0.043285117 0.50447041
0.00061354041 -0.043358482 0.50531888
0.001544565 -0.043431848 0.50616741
0.095128432 -0.049704589 0.50220484
0.095932499 -0.049767952 0.50293767
0.096736565 -0.049831312 0.50367045
0.097540647 -0.049894676 0.50440329
0.098344713 -0.049958035 0.50513607
0.09914878 -0.050021399 0.50586891
0.099952847 -0.050084759 0.50660169
-0.0065327585 -0.040967155 0.44468385
-0.0056786835 -0.04103446 0.44546226
-0.0048245788 -0.041101761 0.44624066
-0.0039705038 -0.041169066 0.44701904
-0.0037429631 -0.041201077 0.44857866
-0.002886951 -0.041268528 0.44935882
-0.0020309389 -0.041335985 0.45013896
-0.0017957091 -0.041368604 0.4517056
-0.0015566349 -0.04140152 0.45327574
-0.0013137162 -0.041434743 0.45484939
-0.0016819239 -0.041433886 0.45721832
-0.0020424724 -0.041433636 0.45959422
-0.0017841458 -0.041468073 0.46118191
-0.0021312237 -0.041468881 0.46357012
-0.0024706125 -0.0414703 0.4659653
-0.002196908 -0.041505948 0.46756703
-0.0025227964 -0.041508425 0.46997449
-0.0028409958 -0.04151151 0.47238898
-0.0025519431 -0.041548371 0.47400475
-0.0028567016 -0.041552518 0.47643149
-0.0025579929 -0.041590136 0.47805598
-0.00225541 -0.041628059 0.47968397
-0.0025409162 -0.041633718 0.48212829
-0.0022287369 -0.041672397 0.48376504
-0.0025008023 -0.041679122 0.48622161
-0.0021789968 -0.041718561 0.48786715
-0.0024375916 -0.041726343 0.49033597
-0.0021061897 -0.041766539 0.49199027
-0.0017709136 -0.041807037 0.49364811
-0.001431793 -0.04184784 0.49530941
-0.0010888577 -0.041888945 0.49697423
-0.00074204803 -0.041930355 0.49864253
-0.0003914237 -0.041972063 0.50031435
0.000533849 -0.042044975 0.50115764
0.00089028478 -0.042087141 0.50283474
0.0012505651 -0.042129613 0.50451529
0.0021796525 -0.04220283 0.50536209
0.0031087697 -0.042276043 0.5062089
0.094817147 -0.04857349 0.50054133
0.095619291 -0.048636701 0.50127244
0.09642145 -0.048699912 0.50200343
0.097223595 -0.048763122 0.50273454
0.098025739 -0.048826329 0.50346559
0.098827884 -0.04888954 0.50419664
0.099209324 -0.048933677 0.50589651
0.10001339 -0.048997041 0.50662935
-0.0064684451 -0.039811783 0.44471318
-0.0056143701 -0.039879084 0.44549158
-0.0047602654 -0.039946385 0.44626999
-0.0039061904 -0.04001369 0.44704837
-0.0030521154 -0.040080994 0.44782677
-0.0021980405 -0.040148295 0.44860518
-0.0013439357 -0.040215597 0.44938356
-0.0011104941 -0.040245458 0.45094851
-0.00087317824 -0.040275626 0.45251697
-0.00063204765 -0.040306095 0.45408893
-0.0010018945 -0.040299885 0.45645624
-0.0013640821 -0.040294275 0.45883054
-0.0011075139 -0.040325958 0.4604165
-0.0014562309 -0.040321413 0.4628031
-0.0017972589 -0.040317476 0.46519667
-0.0015253127 -0.04035037 0.4667967
-0.0018528402 -0.04034749 0.46920255
-0.0015712976 -0.040381145 0.47081134
-0.0018853843 -0.040379327 0.47322944
-0.0015942454 -0.040413737 0.47484702
-0.0018948615 -0.040412981 0.47727743
-0.0015940666 -0.040448152 0.47890371
-0.0012894273 -0.04048362 0.48053354
-0.001570791 -0.040484384 0.4829815
-0.0018444955 -0.040485747 0.48543641
-0.001524508 -0.040522434 0.48708028
-0.0017847121 -0.040524859 0.48954749
-0.0014550686 -0.040562302 0.49120009
-0.0011215806 -0.040600047 0.4928562
-0.00078424811 -0.040638097 0.49451587
-0.00044307113 -0.040676445 0.49617898
0.00047641993 -0.040748902 0.497017
0.00082334876 -0.040787708 0.49868536
0.0011741519 -0.04082682 0.50035727
0.0015287697 -0.040866233 0.5020327
0.0024540424 -0.040939145 0.50287592
0.0033792853 -0.041012056 0.50371921
0.003741622 -0.041052073 0.50540161
0.0046688318 -0.041125134 0.50624663
0.094877541 -0.047488376 0.50056887
0.0956797 -0.047551587 0.50129998
0.096481845 -0.047614798 0.50203103
0.097283989 -0.047678005 0.50276208
0.098086149 -0.047741216 0.50349313
0.098888278 -0.047804426 0.50422418
0.099690437 -0.047867637 0.50495529
0.10049257 -0.047930844 0.50568628
0.10129473 -0.047994055 0.50641739
-0.0064041317 -0.038656402 0.44474253
-0.0055500567 -0.038723707 0.44552091
-0.0040658414 -0.038831808 0.44552144
-0.003841877 -0.038858313 0.44707772
-0.002361536 -0.038966112 0.44707471
-0.0021337271 -0.038992919 0.44863451
-0.0012796223 -0.03906022 0.44941291
-0.00042554736 -0.039127525 0.45019129
-0.00019001961 -0.039154936 0.45175806
4.9352646e-05 -0.039182656 0.45332834
-0.00032216311 -0.039171085 0.45569399
-7.3134899e-05 -0.039199557 0.45727307
-0.00043118 -0.039189048 0.45965099
-0.0007815063 -0.039179146 0.46203592
-0.0005171597 -0.039208833 0.46362901
-0.00085404515 -0.039199993 0.46602625
-0.0005800426 -0.03923044 0.46762806
-0.0009034276 -0.039222658 0.47003758
-0.0006197989 -0.039253861 0.47164816
-0.00092974305 -0.039247144 0.47406992
-0.0006365478 -0.0392791 0.47568932
-0.00033944845 -0.039311364 0.47731218
-0.00063017011 -0.039306164 0.47975147
-0.00091317296 -0.039301567 0.48219782
-0.00060069561 -0.039335042 0.48383468
-0.00087022781 -0.039331507 0.48629326
-0.0011321008 -0.039328579 0.48875889
-0.00080427527 -0.039363265 0.49040979
-0.00047254562 -0.03939826 0.49206424
0.00044116378 -0.039470263 0.49289697
0.00077864528 -0.039505705 0.49455667
0.0011199713 -0.039541457 0.49621987
0.0014651418 -0.03957751 0.49788657
0.0023846328 -0.039649967 0.49872458
0.0027355552 -0.039686471 0.50039649
0.0030903518 -0.039723285 0.50207198
0.0040136874 -0.039796043 0.50291348
0.0049370229 -0.039868802 0.50375497
0.0052994788 -0.039906219 0.50543749
0.0062247515 -0.03997913 0.50628078
0.09493795 -0.046403259 0.5005964
0.09574011 -0.04646647 0.50132751
0.096542239 -0.04652968 0.50205857
0.097344398 -0.046592891 0.50278962
0.098146543 -0.046656098 0.50352073
0.098948687 -0.046719309 0.50425172
0.099750832 -0.04678252 0.50498283
0.10055298 -0.04684573 0.50571388
0.10135514 -0.046908941 0.50644493
-0.007193923 -0.037433725 0.44399345
-0.0048538446 -0.037611887 0.44477406
-0.004001677 -0.037679039 0.44555071
-0.0031495094 -0.037746187 0.44632733
-0.0022973418 -0.037813339 0.44710398
-0.001445204 -0.037880491 0.44788063
-0.00059303641 -0.037947644 0.44865727
-0.00036123395 -0.037972149 0.45022061
0.00049284101 -0.038039453 0.45099902
0.00073045492 -0.038064413 0.45256761
0.00035730004 -0.038047489 0.45493165
-8.1062317e-06 -0.038031168 0.45730272
0.00024488568 -0.038057346 0.45888534
-0.00010710955 -0.038042087 0.46126866
0.00015550852 -0.038069021 0.46286002
-0.00018301606 -0.038054824 0.46525565
8.9168549e-05 -0.038082514 0.46685579
-0.00023585558 -0.038069379 0.46926367
4.6014786e-05 -0.038097829 0.47087258
0.00033169985 -0.03812658 0.47248501
2.5868416e-05 -0.038114958 0.47491041
0.00032114983 -0.038144466 0.47653162
2.8789043e-05 -0.038133908 0.47896928
-0.00025582314 -0.038123958 0.48141396
5.4866076e-05 -0.03815468 0.48304918
-0.00021630526 -0.038145788 0.48550615
0.00010401011 -0.038177267 0.48715013
-0.00015372038 -0.03816944 0.48961937
0.00075614452 -0.038241137 0.49044859
0.0010879636 -0.038273528 0.4921031
0.0014236867 -0.038306218 0.49376109
0.0017632246 -0.038339213 0.4954226
0.002106607 -0.038372513 0.49708763
0.0030241907 -0.038444817 0.49792388
0.0033733547 -0.038478572 0.49959415
0.0042928457 -0.038551029 0.50043213
0.0046477616 -0.038585238 0.50210768
0.00556916 -0.038657844 0.50294745
0.0059298873 -0.038692508 0.50462818
0.0068532228 -0.038765267 0.50546974
0.0077765584 -0.038838029 0.50631124
0.09499836 -0.045318142 0.50062394
0.095800504 -0.045381352 0.50135505
0.096602648 -0.045444563 0.5020861
0.097404808 -0.045507774 0.50281715
0.098206937 -0.045570981 0.50354826
0.099009097 -0.045634191 0.50427926
0.099811226 -0.045697402 0.50501037
0.10061339 -0.045760613 0.50574142
0.10141554 -0.045823824 0.50647247
-0.0033077002 -0.036572266 0.44480199
-0.0024574697 -0.036639266 0.44557688
-0.0016072392 -0.036706265 0.44635177
-0.00075697899 -0.036773264 0.44712666
9.3251467e-05 -0.036840267 0.44790155
0.00032329559 -0.036862019 0.44946319
0.0011754632 -0.036929172 0.45023981
0.0014112592 -0.036951378 0.45180675
0.001036495 -0.036929097 0.45416915
0.0012819171 -0.036952063 0.45574483
0.00092062354 -0.036930844 0.45811954
0.0011756718 -0.036954567 0.45970398
0.00082784891 -0.036934409 0.46209094
0.0010925233 -0.036958892 0.46368411
0.00075814128 -0.036939792 0.46608338
0.0010324121 -0.036965035 0.46768534
0.0013105273 -0.036990575 0.46929082
0.00099542737 -0.036972992 0.47170761
0.0012831688 -0.036999293 0.47332186
0.00098150969 -0.036982775 0.47575086
0.0012788475 -0.037009832 0.4773739
0.0009906292 -0.036994372 0.47981521
0.00071012974 -0.036979519 0.48226354
0.00043734908 -0.036965273 0.48471889
0.0007558465 -0.036993999 0.48636118
0.001078248 -0.03702303 0.48800695
0.00082466006 -0.037010297 0.49047986
0.001734525 -0.037081994 0.49130911
0.0020684302 -0.037111934 0.4929654
0.0024061799 -0.037142176 0.49462521
0.0027478039 -0.03717272 0.49628854
0.0036634505 -0.037244875 0.49712303
0.0040108562 -0.037275873 0.49879164
0.0049284101 -0.037348181 0.49962789
0.0052815676 -0.037379634 0.50130177
0.0062010586 -0.037452091 0.50213975
0.0071205497 -0.037524547 0.50297773
0.0074813664 -0.037556607 0.50465858
0.0084027946 -0.037629217 0.50549835
0.009324193 -0.037701823 0.50633812
0.095860898 -0.044296235 0.50138259
0.096663058 -0.044359446 0.5021137
0.097465202 -0.044422656 0.50284469
0.098267347 -0.044485867 0.5035758
0.099491566 -0.044578709 0.50333947
0.099871635 -0.044612285 0.5050379
0.10067378 -0.044675495 0.50576895
0.10147594 -0.044738706 0.50650001
-0.0032436848 -0.035422094 0.44483119
-0.0023934543 -0.035489094 0.44560608
-0.0015431941 -0.035556093 0.44638097
-0.0006929636 -0.035623096 0.44715583
0.00015726686 -0.035690092 0.44793075
0.0010074973 -0.035757095 0.44870564
0.0018577278 -0.035824094 0.44948053
0.0020917952 -0.035843547 0.45104572
0.0017153621 -0.03581591 0.45340654
0.0019590259 -0.035836123 0.45498052
0.0015960932 -0.035809547 0.45735359
0.0018493533 -0.035830516 0.45893636
0.0021064878 -0.035851792 0.46052262
0.0017627776 -0.035826731 0.46291322
0.0020295382 -0.035848763 0.46450824
0.0016992688 -0.035824765 0.46691114
0.0019756258 -0.035847552 0.46851492
0.0022558272 -0.035870645 0.47012219
0.00194484 -0.035848163 0.47254261
0.0022346675 -0.035872012 0.47415867
0.0019371212 -0.035850592 0.47659135
0.0022365451 -0.035875197 0.4782162
0.0019524693 -0.035854839 0.48066115
0.0016761124 -0.035835084 0.48311311
0.0014074743 -0.035815936 0.4855721
0.0017280281 -0.03584221 0.4872162
0.0020524859 -0.03586879 0.4888638
0.0023807585 -0.035895672 0.49051496
0.0027129054 -0.035922855 0.49216959
0.003048867 -0.03595034 0.4938277
0.0033887029 -0.035978135 0.49548933
0.0043024421 -0.036050137 0.4963221
0.0046480298 -0.036078382 0.49798897
0.0049974918 -0.036106933 0.49965942
0.0059150755 -0.036179237 0.50049567
0.0068326294 -0.036251541 0.50133193
0.0071897805 -0.036280699 0.50300932
0.0081092715 -0.036353156 0.50384736
0.0090287626 -0.036425613 0.50468528
0.0099482536 -0.036498066 0.50552332
0.010867745 -0.036570523 0.50636137
0.096350938 -0.04324396 0.50044972
0.096723452 -0.043274328 0.50214124
0.097525597 -0.043337539 0.50287223
0.098327756 -0.04340075 0.50360334
0.099129885 -0.04346396 0.50433439
0.099932045 -0.043527167 0.50506544
0.10073417 -0.043590378 0.50579649
0.10153633 -0.043653589 0.50652754
-0.001701802 -0.03438998 0.44485539
-0.00085347891 -0.03445683 0.44562852
-5.1856041e-06 -0.034523681 0.44640166
0.0008431375 -0.034590527 0.44717482
0.0016914606 -0.034657374 0.44794795
0.0025397539 -0.034724221 0.44872108
0.0027720034 -0.034740921 0.4502846
0.002393961 -0.03470793 0.45264381
0.0026358366 -0.03472539 0.45421609
0.0028815567 -0.034743149 0.45579189
0.0025227666 -0.034711674 0.4581686
0.0027781129 -0.034730192 0.45975319
0.0030373037 -0.034749016 0.46134126
0.002697736 -0.034719054 0.46373549
0.0029665232 -0.034738634 0.46533233
0.0032391548 -0.034758516 0.46693268
0.0029188395 -0.034730069 0.46934447
0.0032011271 -0.034750715 0.47095358
0.0034872293 -0.034771658 0.47256622
0.0031861663 -0.034744732 0.47499549
0.0028927624 -0.034718409 0.47743183
0.0031942427 -0.034740563 0.4790585
0.0029143095 -0.034715302 0.48150706
0.0026420951 -0.034690648 0.48396266
0.0023775697 -0.034666598 0.48642531
0.0027002096 -0.034690421 0.48807123
0.0030267239 -0.03471455 0.48972064
0.0033570826 -0.03473898 0.49137363
0.0036912858 -0.034763716 0.49303007
0.0040293336 -0.03478875 0.49469
0.0043712258 -0.034814093 0.49635345
0.0052849352 -0.034886092 0.49718621
0.0056326389 -0.03491189 0.49885494
0.0059841573 -0.034937989 0.50052714
0.0069017112 -0.035010293 0.5013634
0.0078192949 -0.035082601 0.50219965
0.0081785023 -0.035109304 0.50387889
0.0090979934 -0.035181761 0.50471687
0.010017484 -0.035254218 0.50555491
0.010936975 -0.035326675 0.5063929
0.096783847 -0.042189211 0.50216877
0.097586006 -0.042252421 0.50289983
0.09838815 -0.042315632 0.50363088
0.099190295 -0.042378843 0.50436193
0.099992439 -0.042442054 0.50509298
0.10079458 -0.042505264 0.50582409
0.10159674 -0.042568475 0.50655514
-0.0010104775 -0.033296071 0.44410461
-0.00016409159 -0.033362769 0.44487599
5.8710575e-05 -0.033376109 0.4464308
0.0015286803 -0.033496164 0.44641876
0.0023750961 -0.033562858 0.44719014
0.0026036501 -0.033576652 0.44875023
0.0028360188 -0.033590749 0.45031381
0.0030722916 -0.033605155 0.4518809
0.0033123493 -0.033619858 0.45345154
0.0035563111 -0.033634864 0.45502564
0.0038040876 -0.033650175 0.45660326
0.0040557086 -0.033665791 0.45818439
0.0037068427 -0.033629868 0.46057001
0.0039681196 -0.033646237 0.4621599
0.0036326647 -0.033611376 0.46455777
0.0039035678 -0.033628508 0.46615642
0.0041782558 -0.033645939 0.46775863
0.0044568181 -0.033663675 0.46936429
0.0041463971 -0.033630785 0.47178495
0.0044345856 -0.033649273 0.4733994
0.004137665 -0.033617444 0.47583234
0.0038483739 -0.033586223 0.47827229
0.0035668314 -0.033555605 0.4807193
0.0038761497 -0.033575766 0.482353
0.003608048 -0.033546209 0.48481223
0.0039270222 -0.033567131 0.48645476
0.004249841 -0.033588354 0.48810074
0.0045765042 -0.033609875 0.48975024
0.0043333769 -0.033582289 0.49223229
0.0046696663 -0.033604573 0.49389055
0.0050097704 -0.03362716 0.4955523
0.0059215724 -0.03369901 0.49638331
0.0062674582 -0.033722054 0.49805033
0.0071811974 -0.033794057 0.49888307
0.0075328648 -0.033817552 0.5005554
0.0078883767 -0.033841353 0.50223118
0.0088059306 -0.033913657 0.50306743
0.0097235143 -0.033985961 0.50390369
0.010641068 -0.034058265 0.50473994
0.011558622 -0.034130573 0.50557619
0.012476206 -0.034202877 0.50641239
0.097646415 -0.041167304 0.50292736
0.098448545 -0.041230515 0.50365841
0.099250704 -0.041293725 0.50438952
0.099633157 -0.04131965 0.50608981
0.10085499 -0.041420147 0.50585163
-0.00010034442 -0.032217801 0.44490504
0.00074604154 -0.032284498 0.44567642
0.0015924275 -0.032351196 0.44644782
0.0024388134 -0.03241789 0.44721919
0.0032851994 -0.032484587 0.4479906
0.0041315854 -0.032551285 0.44876197
0.0043641627 -0.032562777 0.45032561
0.0046005249 -0.032574579 0.45189279
0.0048407614 -0.032586683 0.45346346
0.0050848424 -0.032599084 0.45503765
0.0047266483 -0.032557201 0.45741463
0.0049803257 -0.032570362 0.45899758
0.0046355724 -0.03252954 0.46138683
0.0048989058 -0.032543462 0.46297854
0.0051660538 -0.032557685 0.46457377
0.0054370761 -0.032572214 0.46617249
0.005117327 -0.032533355 0.46858454
0.0053979754 -0.032548644 0.47019202
0.005091697 -0.032510854 0.47261631
0.0053819418 -0.032526895 0.47423261
0.0050891638 -0.032490164 0.47666919
0.0048040152 -0.032454036 0.47911277
0.005109638 -0.032471292 0.48074308
0.0048379898 -0.032436229 0.48319894
0.0051532388 -0.032454245 0.48483798
0.005472362 -0.032472558 0.48648053
0.0052199662 -0.032439012 0.48895395
0.005548656 -0.032458086 0.49060526
0.0058812499 -0.032477468 0.49226007
0.0062176585 -0.032497145 0.49391842
0.0065579116 -0.032517131 0.49558026
0.0069020092 -0.032537416 0.49724561
0.0078138113 -0.032609269 0.49807662
0.0081636906 -0.032630011 0.49974719
0.0085174441 -0.032651059 0.50142133
0.0094330907 -0.032723211 0.5022558
0.0097925961 -0.032744713 0.50393522
0.01071015 -0.032817017 0.50477147
0.011627734 -0.032889321 0.50560772
0.012545288 -0.032961629 0.50644398
0.098085552 -0.040105205 0.50465178
0.098889619 -0.040168568 0.50538462
0.099693686 -0.040231928 0.50611746
0.00058859587 -0.031131549 0.44415227
0.0014330745 -0.031198094 0.44492191
0.0022775531 -0.03126464 0.44569153
0.0031220019 -0.031331182 0.44646117
0.0039664805 -0.03139773 0.44723079
0.0048109293 -0.031464271 0.44800043
0.0044280291 -0.031415209 0.45035475
0.0052763522 -0.03148206 0.45112789
0.0055147707 -0.031491406 0.45269686
0.0057570934 -0.031501058 0.45426935
0.0060032308 -0.031511016 0.45584539
0.0056491792 -0.031464227 0.458226
0.0059049129 -0.03147494 0.45981076
0.005564332 -0.031429213 0.46220365
0.0058297217 -0.031440686 0.46379718
0.0060989261 -0.031452458 0.46539423
0.0063720345 -0.031464536 0.46699476
0.006056428 -0.031420782 0.46941045
0.0063391328 -0.031433616 0.47101977
0.006036967 -0.03139092 0.47344771
0.006329298 -0.03140451 0.4750658
0.0060406327 -0.03136288 0.47750601
0.0063425601 -0.03137723 0.47913286
0.0060673356 -0.031336658 0.48158538
0.0063788891 -0.031351767 0.48322096
0.0066942871 -0.031367179 0.48486006
0.0064383447 -0.031328123 0.48733008
0.0067633688 -0.031344295 0.488978
0.0070922375 -0.031360768 0.49062937
0.0068554878 -0.031323224 0.49311692
0.0071939528 -0.031340457 0.49477708
0.0075363219 -0.031357992 0.49644077
0.0084461868 -0.031429693 0.49726999
0.0087942481 -0.031447675 0.49893892
0.0091462135 -0.03146597 0.50061131
0.010059953 -0.031537969 0.5014441
0.01041767 -0.031556718 0.50312173
0.011333317 -0.031628873 0.5039562
0.012248963 -0.031701028 0.50479072
0.01316458 -0.03177318 0.50562525
0.014080226 -0.031845331 0.50645971
0.098950177 -0.039080851 0.50541222
0.099754244 -0.039144211 0.50614506
0.0021198392 -0.03011689 0.44416726
0.0029623806 -0.030183282 0.44493514
0.0038049221 -0.030249678 0.445703
0.0046474636 -0.03031607 0.44647089
0.0048745275 -0.030321907 0.44802943
0.0057190061 -0.030388452 0.44879904
0.0059518516 -0.030394744 0.45036286
0.0061885417 -0.03040134 0.45193017
0.0064290464 -0.030408235 0.45350096
0.0066734254 -0.030415438 0.45507526
0.0069216192 -0.030422939 0.45665312
0.0065717101 -0.030371252 0.45903736
0.00682953 -0.030379513 0.46062395
0.0064930618 -0.030328887 0.46302047
0.0067605376 -0.030337907 0.46461582
0.0070318282 -0.030347232 0.46621469
0.007306993 -0.030356858 0.46781704
0.0075860023 -0.03036679 0.46942291
0.0072802901 -0.030318584 0.4718475
0.007568866 -0.030329274 0.47346213
0.0072766542 -0.030282132 0.47589901
0.0075749159 -0.030293576 0.4775224
0.0072961152 -0.030247498 0.4799715
0.007604003 -0.030259702 0.48160368
0.0079156756 -0.030272204 0.48323935
0.0076561272 -0.030227643 0.485706
0.0079774559 -0.03024091 0.48735043
0.0077314079 -0.030197404 0.48982939
0.0080623627 -0.03021143 0.49148259
0.0083971024 -0.030225754 0.4931393
0.0087357759 -0.030240383 0.49479949
0.0090782344 -0.030255314 0.49646327
0.0094245672 -0.030270549 0.49813047
0.0097747147 -0.030286087 0.49980122
0.010686517 -0.030357936 0.50063217
0.011042476 -0.030373931 0.50230819
0.011956185 -0.030445933 0.50314093
0.012869895 -0.030517936 0.50397366
0.013783604 -0.030589938 0.5048064
0.014697313 -0.030661937 0.5056392
0.017069042 -0.03086089 0.5064491
0.11626484 -0.040064082 0.44142082
0.11695543 -0.040118501 0.44205022
0.099010706 -0.037993133 0.50543988
0.099814788 -0.038056493 0.50617266
0.0030258298 -0.029043518 0.44496408
0.0038683712 -0.029109914 0.44573194
0.0047109127 -0.029176306 0.44649982
0.0055534542 -0.029242698 0.44726771
0.0063959956 -0.029309094 0.44803557
0.006627053 -0.029312631 0.44959769
0.0068619549 -0.02931647 0.45116332
0.0071007311 -0.029320614 0.45273244
0.0073432922 -0.029325061 0.45430505
0.0075897574 -0.029329814 0.45588118
0.0078400373 -0.029334866 0.45746085
0.007494241 -0.029278278 0.45984873
0.0077541173 -0.029284088 0.46143714
0.0080178976 -0.029290203 0.46302903
0.0076913238 -0.029235128 0.46543449
0.0079647005 -0.029242001 0.46703514
0.0082419217 -0.02924918 0.46863931
0.0085229874 -0.029256659 0.470247
0.0082214177 -0.029203556 0.47267523
0.0085121095 -0.029211791 0.47429168
0.0088066459 -0.029220331 0.47591165
0.0085243285 -0.029168744 0.4783574
0.008828491 -0.029178042 0.47998613
0.0085596144 -0.029127516 0.48244414
0.0088733733 -0.02913757 0.48408166
0.0091910064 -0.029147932 0.48572266
0.0089413524 -0.029098921 0.48819819
0.0092686117 -0.029110037 0.48984796
0.0090324581 -0.029062089 0.4923358
0.0093693137 -0.029073965 0.49399433
0.0097100139 -0.029086143 0.49565634
0.010616034 -0.029157538 0.49648207
0.010402948 -0.029111408 0.49899095
0.011312813 -0.029183106 0.4998202
0.011666954 -0.029196344 0.50149453
0.012578756 -0.029268194 0.50232553
0.013490528 -0.029340044 0.50315648
0.01440233 -0.029411893 0.50398743
0.015314132 -0.029483745 0.50481844
0.016225934 -0.029555595 0.50564945
0.11631683 -0.039129894 0.44144455
0.11700742 -0.039184313 0.44207394
0.11769798 -0.039238729 0.44270331
0.11838856 -0.039293148 0.44333267
0.099071264 -0.036905412 0.50546747
0.099875331 -0.036968775 0.50620031
0.0037102401 -0.027969975 0.44420749
0.0045508742 -0.028036214 0.44497362
0.0053914785 -0.028102458 0.44573972
0.0062320828 -0.028168701 0.44650584
0.0064594448 -0.02816933 0.44806451
0.0073019862 -0.028235722 0.44883239
0.0075351 -0.028236812 0.4503963
0.0077720881 -0.028238203 0.45196378
0.0080129206 -0.028239895 0.45353469
0.0082575679 -0.02824189 0.45510915
0.0085060894 -0.02824419 0.45668709
0.0087584257 -0.028246794 0.45826858
0.0084167719 -0.028185304 0.4606601
0.0086787343 -0.028188664 0.46225032
0.0083505511 -0.028128235 0.46465415
0.0086221397 -0.028132353 0.46625313
0.0088975728 -0.028136775 0.4678556
0.0091768801 -0.028141502 0.46946162
0.0094600022 -0.02814653 0.47107109
0.009162575 -0.028088525 0.47350299
0.0094553232 -0.02809431 0.47512126
0.0097519159 -0.028100401 0.47674301
0.010052383 -0.02810679 0.47836834
0.0097799897 -0.028050762 0.48082298
0.010090023 -0.028057911 0.48245701
0.0098310709 -0.028002936 0.48492396
0.01015076 -0.028010845 0.48656675
0.010474265 -0.028019056 0.48821309
0.010234565 -0.027965602 0.49069753
0.010567725 -0.02797457 0.49235263
0.010904759 -0.027983844 0.49401122
0.011245579 -0.027993418 0.49567333
0.011590272 -0.028003298 0.49733892
0.01193881 -0.028013479 0.49900806
0.012291193 -0.028023964 0.50068069
0.013201058 -0.028095664 0.5015099
0.014110923 -0.028167361 0.50233912
0.014470994 -0.028178453 0.50401878
0.015930653 -0.028310759 0.50399762
0.016840547 -0.02838246 0.5048269
0.017750412 -0.028454157 0.50565612
0.021556526 -0.02878865 0.50642198
0.11523429 -0.038089018 0.44178569
0.11592679 -0.038143586 0.44241685
0.11661929 -0.038198158 0.44304797
0.11731178 -0.038252726 0.44367909
0.11800429 -0.038307298 0.44431022
0.11869678 -0.038361866 0.44494134
0.099935889 -0.035881054 0.50622785
0.0046141744 -0.026899055 0.44500247
0.0054547787 -0.026965298 0.44576859
0.006295383 -0.027031537 0.44653472
0.0071360171 -0.02709778 0.44730085
0.0079766214 -0.02716402 0.44806698
0.008207947 -0.027162354 0.44962922
0.0090504885 -0.02722875 0.45039707
0.0092876256 -0.027227538 0.45196459
0.0089251101 -0.027159175 0.45433697
0.0091718137 -0.027158717 0.45591325
0.0094224215 -0.02715857 0.45749301
0.0090790987 -0.027091723 0.45988292
0.0093393028 -0.027092332 0.46147147
0.0096033216 -0.027093239 0.46306351
0.0092792809 -0.027027909 0.46547097
0.0095529556 -0.027029578 0.46707177
0.0098304451 -0.027031548 0.46867606
0.010111809 -0.027033824 0.4702839
0.010397017 -0.027036404 0.47189522
0.01068607 -0.027039282 0.47351006
0.010978967 -0.027042467 0.47512841
0.010697216 -0.026980471 0.47757441
0.010999739 -0.026984412 0.47920153
0.011306107 -0.026988657 0.48083213
0.011616349 -0.026993204 0.48246625
0.011359572 -0.026933182 0.48493505
0.011679411 -0.026938487 0.48657796
0.011436105 -0.026879519 0.489059
0.011765569 -0.026885586 0.49071068
0.012098879 -0.026891954 0.49236581
0.011874855 -0.026834507 0.49486443
0.01221776 -0.026841629 0.49652836
0.01256451 -0.026849061 0.49819577
0.013470531 -0.026920456 0.4990215
0.013823062 -0.026928339 0.50069422
0.01473099 -0.026999883 0.50152171
0.015638947 -0.027071431 0.5023492
0.015999168 -0.027079921 0.50402892
0.017454833 -0.027214527 0.50400412
0.01836279 -0.027286075 0.50483167
0.019812703 -0.027420225 0.50480163
0.020718724 -0.027491622 0.50562739
0.11230969 -0.036877863 0.44179934
0.11414815 -0.037042633 0.4421235
0.11484259 -0.037097353 0.44275638
0.11597893 -0.037206795 0.44244063
0.11667143 -0.037261367 0.44307175
0.11736393 -0.037315935 0.44370288
0.11805645 -0.037370507 0.444334
0.11874893 -0.037425075 0.44496512
0.11944143 -0.037479647 0.44559628
0.0052962005 -0.025833162 0.44424394
0.0061348975 -0.025899252 0.44500831
0.0069735944 -0.025965342 0.44577268
0.0078122914 -0.026031433 0.44653705
0.0080399215 -0.02602686 0.44809583
0.0088805556 -0.026093103 0.44886196
0.0091139376 -0.026088987 0.45042601
0.0099564791 -0.026155379 0.4511939
0.0095923245 -0.026081659 0.45356467
0.0098372996 -0.026078453 0.45513925
0.010086089 -0.026075548 0.45671731
0.0097411275 -0.026003344 0.45910564
0.0099995732 -0.026001196 0.46069247
0.010261834 -0.025999354 0.46228284
0.010527939 -0.025997814 0.46387669
0.010797918 -0.025996577 0.46547404
0.011071712 -0.025995644 0.46707493
0.01134938 -0.025995012 0.46867931
0.011046767 -0.025926147 0.47110617
0.011334032 -0.025926271 0.47271931
0.011625141 -0.025926702 0.474336
0.011920124 -0.025927436 0.47595614
0.012218922 -0.025928471 0.4775798
0.012521595 -0.025929812 0.47920698
0.012255549 -0.025863824 0.48166716
0.012567818 -0.025865924 0.48330307
0.012315214 -0.025800996 0.4857755
0.012637079 -0.025803849 0.48742023
0.012962848 -0.025807008 0.48906845
0.012729466 -0.025743598 0.4915584
0.013064861 -0.025747515 0.49321538
0.013404071 -0.025751734 0.49487588
0.013747156 -0.025756259 0.49653986
0.014094025 -0.025761083 0.49820736
0.014998108 -0.025832329 0.49903134
0.015350819 -0.02583761 0.50070405
0.016256839 -0.025909007 0.50152981
0.017162859 -0.025980402 0.50235558
0.01806888 -0.026051797 0.50318128
0.0189749 -0.026123192 0.50400698
0.019880921 -0.026194587 0.50483274
0.02132681 -0.026331037 0.50479919
0.022230923 -0.02640228 0.50562316
0.027438074 -0.026880145 0.50631487
0.11006279 -0.035709657 0.44243035
0.11121438 -0.035822913 0.44212857
0.11191267 -0.035877936 0.44276497
0.11305848 -0.035990737 0.44245791
0.11375481 -0.036045611 0.44309255
0.11445117 -0.036100484 0.4437272
0.11558929 -0.036212679 0.44341314
0.11628371 -0.0362674 0.44404602
0.11697814 -0.036322124 0.4446789
0.11767256 -0.036376841 0.44531178
0.11836699 -0.036431566 0.44594467
0.11906141 -0.036486287 0.44657755
0.096795827 -0.033403613 0.50601363
0.0061980486 -0.024764694 0.4450371
0.0076514781 -0.024904352 0.44501048
0.0078754425 -0.024896875 0.44656584
0.0087141395 -0.024962965 0.44733021
0.0089438558 -0.024955943 0.44889084
0.0097844601 -0.025022183 0.44965696
0.010019928 -0.025015615 0.45122284
0.010259271 -0.025009349 0.4527922
0.010502458 -0.025003389 0.45436513
0.010749489 -0.024997734 0.45594153
0.011000335 -0.024992377 0.45752141
0.010659516 -0.024915271 0.45991337
0.010920018 -0.024910673 0.46150202
0.011184365 -0.024906382 0.46309417
0.011452526 -0.024902388 0.46468985
0.011724561 -0.0248987 0.46628904
0.012000471 -0.024895318 0.46789175
0.012280196 -0.024892237 0.46949798
0.012563735 -0.024889458 0.47110766
0.012851179 -0.024886984 0.47272086
0.013142467 -0.024884813 0.47433758
0.013437539 -0.024882942 0.47595784
0.013162136 -0.024810992 0.47840935
0.013466865 -0.024809882 0.48003834
0.013775468 -0.024809074 0.48167086
0.013519317 -0.02473864 0.48413992
0.013270855 -0.024668813 0.48661599
0.013594806 -0.024669215 0.48826253
0.013922632 -0.024669923 0.48991257
0.014254272 -0.024670936 0.49156609
0.014030814 -0.02460308 0.49406496
0.01437211 -0.02460485 0.49572727
0.014717251 -0.024606921 0.49739307
0.015619427 -0.024678014 0.49821529
0.01597029 -0.02468054 0.49988636
0.016874403 -0.024751786 0.50071037
0.017778486 -0.024823029 0.50153434
0.018682599 -0.024894271 0.50235832
0.019586682 -0.024965517 0.50318229
0.020490795 -0.02503676 0.50400627
0.021394879 -0.025108006 0.50483024
0.022836804 -0.025246754 0.50479311
0.02373898 -0.025317844 0.50561535
0.027505726 -0.025664922 0.50634575
0.028932244 -0.025802454 0.50629461
0.10896024 -0.034646291 0.44275275
0.11011553 -0.034762457 0.4424544
0.11081573 -0.034817632 0.44309255
0.11196524 -0.03493334 0.44278893
0.11266351 -0.034988366 0.44342533
0.11380726 -0.035103619 0.44311646
0.11450361 -0.035158493 0.4437511
0.11519995 -0.035213366 0.44438574
0.1158963 -0.03526824 0.44502038
0.11659265 -0.035323109 0.44565502
0.11728899 -0.035377983 0.44628966
0.11798534 -0.035432857 0.44692427
0.096856654 -0.032310691 0.50604141
0.0068777204 -0.023706455 0.44427663
0.0077144802 -0.023772396 0.44503924
0.0085512698 -0.023838334 0.44580185
0.0093880296 -0.023904271 0.44656447
0.0096159875 -0.023894496 0.4481234
0.010454684 -0.02396059 0.44888777
0.010688394 -0.023951266 0.45045194
0.010925919 -0.023942247 0.45201963
0.011167318 -0.02393353 0.45359084
0.011412591 -0.023925118 0.45516557
0.011661679 -0.023917012 0.45674378
0.011914611 -0.023909204 0.45832551
0.011577934 -0.023827199 0.46072108
0.011840492 -0.023820151 0.46231157
0.012106895 -0.023813408 0.46390554
0.012377143 -0.023806967 0.46550304
0.012651235 -0.023800828 0.46710405
0.012929201 -0.023794994 0.4687086
0.013211012 -0.023789462 0.47031662
0.013496637 -0.023784231 0.47192812
0.013786137 -0.023779307 0.47354314
0.014079452 -0.023774683 0.47516167
0.01437664 -0.023770362 0.47678375
0.014677674 -0.023766346 0.47840929
0.014412165 -0.023689952 0.48086971
0.014722824 -0.023686692 0.48250407
0.014470816 -0.023611356 0.48497677
0.014791071 -0.023608856 0.48661983
0.014552504 -0.023534581 0.48910484
0.014882386 -0.023532838 0.49075666
0.015216112 -0.0235314 0.49241203
0.015553683 -0.023530263 0.49407089
0.015895128 -0.023529429 0.49573323
0.016240388 -0.0235289 0.49739912
0.016589522 -0.023528676 0.4990685
0.017491698 -0.02359977 0.49989074
0.018393874 -0.023670863 0.50071299
0.01929605 -0.023741957 0.50153518
0.020198226 -0.023813047 0.50235736
0.021100402 -0.02388414 0.50317967
0.022002578 -0.023955233 0.50400186
0.022904754 -0.024026327 0.50482404
0.02380693 -0.024097417 0.50564629
0.025242925 -0.024238311 0.50560385
0.026675045 -0.024378903 0.50555789
0.028999746 -0.024589829 0.50632536
0.03042227 -0.024729662 0.50627065
0.03184095 -0.024869196 0.50621235
0.10901311 -0.033696495 0.44277686
0.11016825 -0.033815254 0.44247845
0.11086845 -0.033870429 0.44311661
0.11201783 -0.033988744 0.44281292
0.11271609 -0.034043767 0.44344932
0.11341436 -0.034098789 0.44408569
0.11411265 -0.034153815 0.44472209
0.11481091 -0.034208842 0.44535848
0.11594874 -0.03432624 0.44504428
0.11664508 -0.034381114 0.44567892
0.11734143 -0.034435987 0.44631356
0.11803778 -0.034490861 0.4469482
0.11873412 -0.034545735 0.44758284
0.096917495 -0.031217765 0.50606912
0.0083919764 -0.022719212 0.44427684
0.0092268288 -0.022785001 0.44503769
0.0094510615 -0.022772316 0.4465932
0.010287821 -0.022838254 0.44735584
0.011124581 -0.022904191 0.44811845
0.011356533 -0.022892118 0.44968095
0.011592299 -0.022880349 0.45124695
0.011831909 -0.022868875 0.45281646
0.012075365 -0.022857711 0.45438948
0.012322694 -0.022846848 0.45596603
0.012573868 -0.02283629 0.45754606
0.012828857 -0.022826031 0.4591296
0.012496322 -0.022739127 0.46152881
0.013350397 -0.022806428 0.46230721
0.013029426 -0.022720434 0.46471691
0.01330173 -0.022711538 0.46631622
0.013577908 -0.022702951 0.46791905
0.014439702 -0.022770859 0.46870446
0.014721632 -0.022762723 0.47031257
0.01442951 -0.022679001 0.47274858
0.015297055 -0.022747368 0.47353926
0.015016466 -0.022664554 0.4759858
0.015315711 -0.022657782 0.47760966
0.015618801 -0.022651315 0.47923702
0.015357435 -0.022570018 0.48170111
0.01567018 -0.022564307 0.48333725
0.015422314 -0.022484075 0.48581359
0.015744627 -0.022479121 0.4874585
0.015510201 -0.022399947 0.48994714
0.01584214 -0.022395752 0.49160078
0.016177922 -0.022391863 0.49325794
0.01651758 -0.022388279 0.49491861
0.017414004 -0.022458915 0.49573559
0.017759413 -0.022455782 0.49740154
0.018657744 -0.02252657 0.49822024
0.019008934 -0.022523895 0.49989146
0.019909203 -0.022594836 0.50071192
0.020266145 -0.022592615 0.50238836
0.021168321 -0.022663709 0.5032106
0.022070527 -0.022734798 0.50403285
0.023510188 -0.022878598 0.50399381
0.024410456 -0.022949539 0.50481427
0.025310695 -0.02302048 0.50563478
0.026742697 -0.023163676 0.50558871
0.030489624 -0.023519639 0.50630134
0.031908154 -0.023661774 0.50624305
0.033322841 -0.023803603 0.50618124
0.10720307 -0.032569539 0.44245434
0.10836387 -0.03269136 0.44216108
0.10906598 -0.032746688 0.44280097
0.10976809 -0.032802016 0.44344085
0.11092117 -0.032923229 0.44314063
0.11162136 -0.032978408 0.44377878
0.11276868 -0.033099167 0.44347328
0.11346695 -0.033154193 0.44410968
0.11416522 -0.03320922 0.44474608
0.11486349 -0.033264242 0.44538248
0.11556175 -0.033319268 0.44601884
0.11626002 -0.033374291 0.44665524
0.11695831 -0.033429317 0.44729164
0.11765657 -0.03348434 0.44792801
0.11835484 -0.033539366 0.44856441
0.0084548593 -0.021589857 0.44430551
0.0092897117 -0.021655641 0.44506636
0.010124564 -0.02172143 0.44582722
0.010350823 -0.021706302 0.44738457
0.011187613 -0.021772239 0.44814718
0.012024373 -0.021838177 0.44890979
0.012258381 -0.021823652 0.45047411
0.012496233 -0.021809429 0.45204192
0.0127379 -0.021795508 0.45361328
0.012983441 -0.021781892 0.4551881
0.013232827 -0.021768577 0.45676649
0.013486058 -0.021755569 0.45834833
0.013743132 -0.021742858 0.4599337
0.014004052 -0.021730457 0.46152255
0.014268816 -0.021718353 0.46311495
0.014537424 -0.021706559 0.4647108
0.014809906 -0.021695066 0.4663102
0.015086204 -0.021683872 0.46791309
0.015366375 -0.021672983 0.46951947
0.015650392 -0.021662399 0.47112942
0.015938252 -0.021652117 0.4727428
0.016229928 -0.021642141 0.47435972
0.015953481 -0.021554425 0.47680989
0.016254783 -0.021545202 0.47843558
0.016559958 -0.021536287 0.48006478
0.016302735 -0.021450087 0.48253247
0.016617537 -0.021441929 0.48417047
0.016373813 -0.021356791 0.48665044
0.016698182 -0.021349389 0.48829713
0.017026454 -0.021342292 0.48994738
0.016801924 -0.021258667 0.4924449
0.017694473 -0.021329001 0.49325836
0.01803425 -0.021322813 0.49491909
0.0183779 -0.021316927 0.49658334
0.019274294 -0.021387566 0.49740031
0.019623697 -0.021382134 0.49906981
0.020522028 -0.021452926 0.49988854
0.02142036 -0.021523714 0.50070727
0.021777481 -0.02151889 0.50238383
0.02267772 -0.021589831 0.50320429
0.023577988 -0.021660771 0.50402474
0.024478257 -0.021731712 0.5048452
0.025912002 -0.021877661 0.50480086
0.026810333 -0.021948449 0.50561953
0.028238341 -0.022093944 0.50556993
0.02966249 -0.022239134 0.50551689
0.031975374 -0.022454355 0.50627369
0.033389926 -0.022598788 0.50621182
0.10655206 -0.031561654 0.44183686
0.10771461 -0.031686231 0.44154531
0.10841674 -0.03174156 0.44218519
0.10911885 -0.031796888 0.44282508
0.10982096 -0.031852216 0.44346499
0.11097389 -0.031976029 0.44316468
0.1116741 -0.032031208 0.44380283
0.11237429 -0.032086384 0.44444096
0.11307448 -0.032141559 0.44507912
0.11377469 -0.032196738 0.44571728
0.11447486 -0.032251913 0.4463554
0.11517507 -0.032307088 0.44699356
0.11587526 -0.032362264 0.44763169
0.11657545 -0.032417439 0.44826984
0.11727566 -0.032472618 0.44890797
0.0085177124 -0.020460505 0.44433418
0.0093525648 -0.02052629 0.44509503
0.010187417 -0.020592079 0.44585589
0.01102227 -0.020657867 0.44661677
0.011857122 -0.020723652 0.44737762
0.012087375 -0.020706221 0.44893855
0.012924165 -0.020772159 0.44970116
0.013160229 -0.020755183 0.4512673
0.013400137 -0.020738512 0.45283693
0.013643861 -0.02072214 0.45441008
0.014486432 -0.020788532 0.45517796
0.014735937 -0.020772617 0.45675635
0.014398247 -0.020674847 0.45915061
0.014657378 -0.020659689 0.46073776
0.014920384 -0.020644832 0.46232843
0.015187204 -0.020630285 0.46392268
0.015457898 -0.020616036 0.46552035
0.015732437 -0.020602092 0.46712157
0.016010791 -0.020588446 0.46872628
0.016293049 -0.02057511 0.47033447
0.016579121 -0.020562075 0.47194624
0.016869038 -0.020549342 0.47356144
0.0171628 -0.020536911 0.47518018
0.016890496 -0.020444296 0.47763398
0.017193884 -0.020432625 0.47926152
0.017501116 -0.020421259 0.48089251
0.017248034 -0.020330157 0.48336387
0.017564893 -0.020319548 0.48500365
0.017325282 -0.020229507 0.48748726
0.017651737 -0.020219654 0.4891358
0.017982066 -0.020210106 0.49078783
0.018316209 -0.020200856 0.49244341
0.018654227 -0.020191915 0.49410248
0.01899609 -0.02018328 0.49576503
0.019890547 -0.020253766 0.49658024
0.020238191 -0.020245578 0.49824804
0.021134585 -0.020316213 0.49906501
0.021488011 -0.020308487 0.50073808
0.022386342 -0.020379275 0.50155681
0.023284674 -0.020450067 0.50237554
0.024183005 -0.020520855 0.50319427
0.025081322 -0.020591643 0.50401294
0.025979638 -0.020662434 0.50483167
0.02687797 -0.020733222 0.5056504
0.028305829 -0.020881318 0.50560075
0.033456981 -0.021393966 0.50624239
0.034867555 -0.021540701 0.50617695
0.10473286 -0.030426141 0.44150573
0.10590103 -0.030553769 0.44121939
0.10660508 -0.03060925 0.44186103
0.1073091 -0.030664727 0.44250268
0.10846961 -0.030791758 0.4422093
0.10917172 -0.030847086 0.44284919
0.10987383 -0.030902414 0.4434891
0.11057596 -0.030957742 0.44412899
0.11127807 -0.031013068 0.44476891
0.11242701 -0.031139184 0.44446504
0.1131272 -0.031194359 0.44510317
0.11382741 -0.031249538 0.44574133
0.11452758 -0.031304713 0.44637945
0.11478867 -0.031289708 0.44796836
0.11549078 -0.031345032 0.44860828
0.010027528 -0.019483365 0.44433063
0.010860443 -0.019549001 0.44508976
0.011085123 -0.019528512 0.44664544
0.011919975 -0.019594301 0.44740629
0.012754828 -0.019660085 0.44816718
0.01358968 -0.019725874 0.44892803
0.013823926 -0.019706141 0.4504925
0.014660716 -0.019772079 0.45125511
0.014900774 -0.0197528 0.45282483
0.015144676 -0.019733835 0.45439804
0.015392423 -0.019715164 0.45597476
0.015644014 -0.019696798 0.457555
0.01589945 -0.019678731 0.45913875
0.015571654 -0.01957652 0.46154186
0.015836716 -0.019559212 0.46313435
0.016105592 -0.01954221 0.46473038
0.016378343 -0.019525513 0.4663299
0.016654968 -0.019509114 0.46793294
0.016935408 -0.019493021 0.46953946
0.017219722 -0.019477233 0.47114947
0.017507851 -0.019461751 0.47276306
0.017799854 -0.019446567 0.47438008
0.018095672 -0.019431688 0.47600064
0.017827511 -0.019334175 0.47845808
0.018132955 -0.019320048 0.48008743
0.018442273 -0.019306228 0.48172027
0.018193305 -0.019210231 0.48419523
0.018512249 -0.019197166 0.48583686
0.018835008 -0.019184407 0.48748195
0.019161642 -0.019171953 0.48913056
0.018937707 -0.019077927 0.49162832
0.019273907 -0.019066226 0.49328572
0.020164549 -0.019136406 0.49409741
0.020506561 -0.019125167 0.49576002
0.020852387 -0.01911423 0.49742618
0.021746874 -0.019184716 0.49824139
0.022098511 -0.019174233 0.49991277
0.022994906 -0.019244868 0.50072974
0.0238913 -0.019315504 0.50154674
0.024250627 -0.019305632 0.50322509
0.025148958 -0.019376419 0.50404382
0.026047289 -0.019447211 0.50486255
0.027476937 -0.019598059 0.50481457
0.028373331 -0.019668695 0.50563157
0.029797196 -0.019819088 0.50557828
0.10337409 -0.02935987 0.44024315
0.10408005 -0.029415501 0.44088656
0.10478601 -0.029471133 0.44152999
0.10595405 -0.029601365 0.44124356
0.1066581 -0.029656846 0.44188523
0.10736212 -0.029712323 0.44252688
0.10806617 -0.029767804 0.44316852
0.10922459 -0.029897282 0.4428733
0.1099267 -0.02995261 0.44351321
0.11062883 -0.030007938 0.44415313
0.11133094 -0.030063264 0.44479302
0.11203307 -0.030118592 0.4454329
0.11273518 -0.03017392 0.44607282
0.11343729 -0.030229248 0.4467127
0.11413941 -0.030284576 0.44735259
0.11440256 -0.030267119 0.44894338
0.010090262 -0.01835661 0.44435924
0.010923177 -0.018422246 0.44511837
0.011756092 -0.018487882 0.44587746
0.012589037 -0.018553518 0.44663659
0.013421953 -0.018619154 0.44739568
0.013652533 -0.018596523 0.4489567
0.014487386 -0.018662311 0.44971755
0.015322238 -0.018728096 0.45047843
0.015560478 -0.018706061 0.45204648
