# .PCD v0.7 - Point Cloud Data file format
VERSION 0.7
FIELDS x y z
SIZE 4 4 4
TYPE F F F
COUNT 1 1 1
WIDTH 1364
HEIGHT 1
VIEWPOINT 0 0 0 1 0 0 0
POINTS 1364
DATA ascii
0.013031354 -0.14580604 0.505
0.076808736 -0.14566234 0.50450003
0.078356288 -0.1454352 0.50600004
0.0084233703 -0.14119807 0.505
0.01039822 -0.14317292 0.505
0.078899734 -0.14258453 0.50525004
0.0058017019 -0.13883933 0.50600004
0.0071068029 -0.13922453 0.505
0.079479933 -0.13948247 0.50475001
0.0044748834 -0.13689923 0.50533336
0.080396585 -0.13680951 0.505
0.0031571013 -0.13461523 0.505
0.080674492 -0.1336917 0.50400001
0.082313813 -0.13356262 0.50600004
-0.0007926001 -0.13000855 0.505
0.082440257 -0.1302717 0.50475001
-0.0034325183 -0.12696676 0.50600004
-0.0021070789 -0.12724864 0.50450003
0.08338505 -0.12724864 0.50450003
-0.0040806262 -0.12395984 0.50450003
0.083302416 -0.12449397 0.50400001
0.084952161 -0.124988 0.50600004
-0.0060708667 -0.12103047 0.50600004
-0.0042129615 -0.12161615 0.50460005
0.083302416 -0.12186605 0.50400001
0.084868208 -0.12222809 0.50550002
-0.0060708667 -0.11905172 0.50600004
-0.0039534038 -0.11855207 0.505
-0.0021049906 -0.11726719 0.50400001
-0.049505584 -0.11618329 0.505
-0.0034325183 -0.11641337 0.50600004
-0.0014515354 -0.11552436 0.505
0.0011804283 -0.114753 0.50450003
0.086271331 -0.11509419 0.50600004
-0.057518665 -0.11113667 0.50600004
-0.054826085 -0.1130043 0.50550002
-0.00079416961 -0.11377502 0.50600004
0.0014032392 -0.11326034 0.50566667
0.0040299487 -0.1123406 0.50449997
0.037970789 -0.11201135 0.50400001
0.040598713 -0.11266834 0.50400001
0.043007642 -0.11244934 0.50400001
0.046511531 -0.11201135 0.50400001
0.049796432 -0.11266834 0.50400001
0.052424356 -0.11266834 0.50400001
0.054833278 -0.11244934 0.50400001
0.057680193 -0.11201135 0.50400001
0.080097549 -0.11212247 0.50450003
0.08289206 -0.11300365 0.50550002
0.085743666 -0.11271968 0.50600004
0.088118181 -0.11219201 0.50600004
0.091218241 -0.11212604 0.50600004
0.094658516 -0.11223359 0.505
0.096442014 -0.11201135 0.50400001
0.10038389 -0.11332531 0.50400001
0.0051349052 -0.1096715 0.50533336
0.0076244646 -0.1092064 0.50440007
0.010158637 -0.10850745 0.50400001
0.013005551 -0.10806946 0.50400001
0.01694743 -0.10806946 0.50400001
0.019794343 -0.10850745 0.50400001
0.02220327 -0.10872644 0.50400001
0.02548817 -0.10806946 0.50400001
0.028773071 -0.10806946 0.50400001
0.032057971 -0.10806946 0.50400001
0.034948684 -0.10859505 0.50400001
0.037983563 -0.10941917 0.50416666
0.040652413 -0.10952724 0.50466669
0.043240715 -0.10941916 0.50416666
0.046511531 -0.10938343 0.50400001
0.049665038 -0.10964622 0.50400001
0.052424356 -0.11004041 0.50400001
0.055052273 -0.11069739 0.50400001
0.057023212 -0.11069739 0.50400001
0.068848848 -0.10806946 0.50400001
0.07103879 -0.10850745 0.50400001
0.073447719 -0.10872644 0.50400001
0.076075636 -0.10938341 0.50400001
0.07936053 -0.10938343 0.50400001
0.082754754 -0.10952897 0.50466663
0.08524321 -0.10925137 0.50459999
0.088615954 -0.10945576 0.50433332
0.091933623 -0.1108072 0.50450003
0.0058017019 -0.10717914 0.50600004
0.007776293 -0.1064666 0.50575006
0.010403042 -0.10636134 0.50524998
0.013671133 -0.10616826 0.50433332
0.016964242 -0.10620312 0.50449997
0.019604806 -0.10625608 0.50475001
0.022247326 -0.10630903 0.505
0.025513455 -0.10620314 0.50450009
0.028801616 -0.10620313 0.50450003
0.031432144 -0.10620313 0.50450003
0.034450106 -0.10631361 0.50439996
0.037651159 -0.10617737 0.505
0.04069908 -0.10636134 0.50524998
0.04309297 -0.10652847 0.505
0.045945533 -0.10696732 0.505
0.061804824 -0.10575536 0.50550002
0.064553969 -0.106019 0.50466669
0.067351982 -0.10635597 0.50460005
0.07053645 -0.10613449 0.50480002
0.073520586 -0.10620313 0.50450003
0.076188512 -0.10625608 0.50475001
0.079097748 -0.10622992 0.50400001
0.082645431 -0.1067555 0.50400001
0.08461637 -0.1067555 0.50400001
0.0084400503 -0.1045408 0.50600004
0.010638674 -0.10410108 0.50600004
0.01305716 -0.10388122 0.50600004
0.016333112 -0.1037439 0.50533336
0.019634262 -0.10377856 0.50550002
0.022291381 -0.10388122 0.50600004
0.025572022 -0.10381234 0.50566667
0.028858706 -0.10377791 0.50550002
0.031494446 -0.10377791 0.50550002
0.03413019 -0.10377791 0.50550002
0.037095722 -0.1041077 0.50550002
0.055270739 -0.10322163 0.50600004
0.058568675 -0.10388122 0.50600004
0.061866611 -0.10388122 0.50600004
0.064504959 -0.10388122 0.50600004
0.067143306 -0.1045408 0.50600004
0.070441246 -0.10388122 0.50600004
0.073739186 -0.10388122 0.50600004
0.076301396 -0.10377856 0.50550002
0.079097748 -0.10360201 0.50400001
0.013716747 -0.10190245 0.50600004
0.01661893 -0.10137478 0.50600004
0.019521113 -0.10084711 0.50600004
0.022291381 -0.10124286 0.50600004
0.025589315 -0.10124286 0.50600004
0.02866739 -0.10146272 0.50600004
0.031525601 -0.10190245 0.50600004
0.044057757 -0.0992641 0.50600004
0.046867128 -0.099594548 0.505
0.050046913 -0.10016041 0.50520003
0.052632391 -0.10058328 0.50600004
0.055270735 -0.10058328 0.50600004
0.057579294 -0.10091306 0.50600004
0.062526196 -0.10190245 0.50600004
0.074398771 -0.10058328 0.50600004
0.076184705 -0.10076706 0.50560004
0.078046575 -0.10084268 0.50400001
-0.054880317 -0.09794493 0.50600004
0.038121469 -0.096625753 0.50600004
0.04075982 -0.097285345 0.50600004
0.043398172 -0.097285345 0.50600004
0.046603814 -0.097093076 0.50500005
0.049969662 -0.097236946 0.50575006
0.052632391 -0.097285338 0.50600004
0.055270739 -0.097285338 0.50600004
0.057689223 -0.097065479 0.50600004
0.073910028 -0.097001821 0.50566667
0.076150455 -0.098311551 0.50450003
-0.054880317 -0.093987405 0.50600004
0.038781058 -0.095306583 0.50600004
0.04075982 -0.09464699 0.50600004
0.043398172 -0.09464699 0.50600004
0.046036519 -0.09464699 0.50600004
0.049334455 -0.09464699 0.50600004
0.052632391 -0.09464699 0.50600004
0.055270739 -0.095306583 0.50600004
0.057249498 -0.095306583 0.50600004
0.071689509 -0.094554119 0.50550002
0.073325008 -0.094617456 0.50466663
-0.069391236 -0.09134905 0.50600004
-0.057291314 -0.09098798 0.50400001
-0.056199491 -0.091349058 0.50600004
0.041419409 -0.092668228 0.50600004
0.043398172 -0.092668228 0.50600004
0.046036519 -0.092668228 0.50600004
0.070786417 -0.092106402 0.50533336
-0.069116957 -0.089674026 0.50400001
-0.068072058 -0.087391533 0.50600004
-0.057291314 -0.088360064 0.50400001
-0.055722743 -0.087773681 0.50566667
-0.066555001 -0.085158914 0.50450003
-0.057291314 -0.085732147 0.50400001
-0.055456601 -0.085286491 0.50524998
-0.064518094 -0.082447246 0.50400001
-0.055374604 -0.082529038 0.50450003
-0.053561144 -0.082774423 0.50600004
-0.061395187 -0.080249488 0.50533336
-0.058243509 -0.07970418 0.50466663
-0.055448215 -0.079344295 0.50516671
-0.052901555 -0.079476483 0.50600004
-0.050922792 -0.078157313 0.50600004
-0.054880317 -0.076838143 0.50600004
-0.052901555 -0.076178551 0.50600004
-0.050483067 -0.075958692 0.50600004
-0.052647274 -0.073712051 0.50566667
-0.049505148 -0.073395289 0.50500005
-0.046494603 -0.073272325 0.50566667
-0.052241966 -0.071561441 0.50600004
-0.050064534 -0.071278587 0.50400001
-0.045646098 -0.066284746 0.50600004
0.00577877 -0.031859782 0.50400001
-0.0060708667 -0.024071168 0.50600004
-0.0040853219 -0.025340162 0.505
-0.0014521873 -0.026656728 0.505
-0.0060588685 -0.022048742 0.505
-0.004732911 -0.023976022 0.50400001
0.02308704 -0.19274229 0.509
0.025052898 -0.19321647 0.50850004
0.027649149 -0.19349739 0.50750005
0.019977333 -0.19040616 0.50866669
0.022378836 -0.1903777 0.50800002
0.025655875 -0.19122915 0.50733334
0.049626946 -0.19008832 0.509
0.052280936 -0.19075181 0.509
0.062233403 -0.1900883 0.509
0.06475991 -0.18971485 0.50800002
0.084792323 -0.1900883 0.509
0.013798071 -0.18610731 0.509
0.016435033 -0.18747135 0.50849998
0.019710639 -0.18820506 0.50750005
0.043733254 -0.18726118 0.50733334
0.04629451 -0.18737251 0.50883335
0.049295198 -0.18842956 0.509
0.058584165 -0.18710256 0.509
0.061487962 -0.18785189 0.50833338
0.064454198 -0.18770266 0.50733334
0.085455813 -0.18876131 0.509
0.013346703 -0.18377553 0.50866669
0.015741386 -0.18489668 0.50750005
0.043685772 -0.18460852 0.50779998
0.046088289 -0.18389566 0.509
0.056261923 -0.18411683 0.509
0.058223478 -0.18402672 0.50875002
0.061207157 -0.18463974 0.5075714
0.013107466 -0.18110633 0.50800002
0.041501265 -0.18008894 0.50700003
0.043438308 -0.18150261 0.50800002
0.04564596 -0.18146282 0.509
0.055598423 -0.18146284 0.509
0.058109038 -0.18101753 0.50775003
0.060006201 -0.18074983 0.50700003
0.013095215 -0.17894346 0.50750005
0.041501265 -0.17810626 0.50700003
0.04361324 -0.1786332 0.50849998
0.046309456 -0.17814533 0.509
0.052944437 -0.17814533 0.509
0.055488542 -0.1784582 0.50800002
0.058023531 -0.17876716 0.50700003
0.041501265 -0.17612359 0.50700003
0.043526821 -0.1756364 0.50750005
0.046218477 -0.17581008 0.50800002
0.04950995 -0.17560843 0.50780004
0.052585453 -0.17591459 0.50766671
0.054719076 -0.17612359 0.50700003
0.032312397 -0.17117341 0.50800002
0.034231469 -0.17281914 0.50700003
0.036214139 -0.17215824 0.50700003
0.031481169 -0.16938356 0.50740004
0.034231465 -0.16951467 0.50700003
0.036214139 -0.17083646 0.50700003
0.079832919 -0.16819289 0.50700003
0.02960523 -0.16554934 0.50700003
0.031665456 -0.16661969 0.50825
0.034264572 -0.16637415 0.50750005
0.074545801 -0.16554934 0.50700003
0.076799519 -0.16609877 0.50733334
0.079250112 -0.16637349 0.50750005
0.081154704 -0.16621023 0.50700003
0.026351349 -0.16256359 0.50800002
0.028684279 -0.16330676 0.50825
0.031680703 -0.16405059 0.50850004
0.033570576 -0.16356666 0.50700003
0.073884904 -0.16356666 0.50700003
0.076679409 -0.16388929 0.50800002
0.079432294 -0.16344042 0.50866663
0.082030751 -0.16333334 0.50833338
0.084792323 -0.1622214 0.509
0.017744128 -0.15925393 0.50800002
0.022423541 -0.15956742 0.509
0.025064889 -0.16015252 0.50874996
0.028603071 -0.16110806 0.50800002
0.031618401 -0.16174334 0.50750005
0.07420323 -0.161355 0.50766671
0.076780044 -0.16078816 0.50866669
0.079484344 -0.1602309 0.509
0.08213833 -0.1602309 0.509
0.085621037 -0.16046974 0.50885719
0.013743855 -0.15629688 0.50700003
0.016690038 -0.15719655 0.50820005
0.019730059 -0.15726799 0.50800002
0.022356808 -0.15777409 0.50750005
0.025639888 -0.15827954 0.50700003
0.074545801 -0.15827954 0.50700003
0.076792948 -0.15749985 0.50875002
0.079484344 -0.15757692 0.509
0.08213833 -0.15757692 0.509
0.085455813 -0.15757692 0.509
0.088494442 -0.15725212 0.50866669
0.090585493 -0.15660515 0.50800002
0.013321333 -0.15473826 0.50766665
0.016147355 -0.15469038 0.50779998
0.076642655 -0.15454279 0.50775003
0.079484344 -0.15492292 0.509
0.081917167 -0.15514408 0.509
0.085787565 -0.15525466 0.509
0.08877331 -0.15492292 0.509
0.091206133 -0.15470175 0.509
0.093417794 -0.15425941 0.509
0.0078265928 -0.15160543 0.509
0.011100293 -0.15233153 0.50700003
0.013134575 -0.15193719 0.509
0.015526041 -0.15209037 0.50766671
0.077265486 -0.15182087 0.50750005
0.079617046 -0.15187082 0.509
0.081474833 -0.15293244 0.509
0.08545582 -0.15293244 0.509
0.08877331 -0.15293244 0.509
0.091427304 -0.15293244 0.509
0.094214 -0.15187082 0.509
0.01114408 -0.14828795 0.509
0.012879871 -0.14856215 0.50766671
0.079196267 -0.14839444 0.50800002
0.081474833 -0.14762445 0.509
0.095883042 -0.1499832 0.50800002
0.0084900903 -0.14497046 0.509
0.010231963 -0.14547364 0.50766665
0.079911649 -0.14520544 0.50750005
0.081474833 -0.14563397 0.509
0.0058360989 -0.14231648 0.509
0.0075849243 -0.1428266 0.50766665
0.081810452 -0.14257152 0.50833333
0.0044995928 -0.13971919 0.50800002
0.08239004 -0.13985573 0.50850004
0.0014103511 -0.13594611 0.50833338
0.082476482 -0.13580926 0.50700003
0.084128827 -0.1356815 0.509
-0.00079730863 -0.13276616 0.50800002
0.00052707974 -0.13409054 0.50800002
0.083963543 -0.13276616 0.50800002
0.084128827 -0.13435449 0.509
-0.0041163666 -0.12971002 0.509
-0.0021216969 -0.13144176 0.50800002
0.083798267 -0.13118301 0.50700003
0.08545582 -0.13037351 0.509
-0.039281745 -0.12639253 0.509
-0.0061068595 -0.12705603 0.509
-0.0041048876 -0.12800403 0.50750005
0.085993402 -0.12753068 0.50825
-0.039868072 -0.12415633 0.50800002
-0.0067583597 -0.12415762 0.50800002
-0.0047610831 -0.1258959 0.50700003
0.086527072 -0.12403607 0.50750005
0.088109806 -0.12440202 0.509
-0.0078664497 -0.12136742 0.50833338
-0.052551698 -0.11710355 0.509
-0.0078033092 -0.11826362 0.50828576
0.091427304 -0.11710355 0.509
0.10581465 -0.11885877 0.50800002
-0.052398138 -0.11609627 0.50750005
-0.037880182 -0.1168735 0.50800002
-0.00610286 -0.11569988 0.50866669
-0.0042393613 -0.1152377 0.50779998
0.088424504 -0.11532165 0.50700003
0.091338143 -0.11566284 0.50849998
0.094650418 -0.11500064 0.50849998
0.097841114 -0.11489189 0.509
0.099856205 -0.11422472 0.50800002
-0.0034528689 -0.11312257 0.509
-0.0015930908 -0.11272279 0.50840002
0.00096698181 -0.11187012 0.50733334
0.089085393 -0.11399987 0.50700003
0.091068067 -0.11399987 0.50700003
0.09371163 -0.11399987 0.50700003
-0.00079887809 -0.11046857 0.509
0.0011907038 -0.10975082 0.50875002
0.0031727306 -0.10948084 0.50750005
-0.045826513 -0.10627838 0.50800002
-0.044589728 -0.10781459 0.509
0.0018551127 -0.10781459 0.509
0.0040585208 -0.10653353 0.50816667
-0.051224701 -0.10250661 0.509
-0.049897708 -0.1038336 0.509
0.0048820651 -0.10371591 0.50842857
0.0076726265 -0.10328261 0.50760001
0.010219105 -0.10254443 0.50700003
0.012422075 -0.10210384 0.50700003
0.06066709 -0.10210384 0.50700003
0.064632431 -0.10210384 0.50700003
0.067276001 -0.10276473 0.50700003
0.070580453 -0.10210384 0.50700003
0.073224016 -0.10210384 0.50700003
0.0058360989 -0.10117961 0.509
0.0078224223 -0.10046642 0.50874996
0.01045934 -0.10031798 0.50800002
0.013095867 -0.10021925 0.50750005
0.016056973 -0.099790715 0.50700003
0.020352762 -0.099460274 0.50700003
0.022335432 -0.099460274 0.50700003
0.024318106 -0.099460274 0.50700003
0.058684424 -0.10012116 0.50700003
0.061327983 -0.10012116 0.50700003
0.06469617 -0.10021925 0.50749999
0.067408688 -0.10031864 0.50800002
0.070649184 -0.10021969 0.50749999
0.073224016 -0.10012116 0.50700003
-0.053772844 -0.098332055 0.50800002
0.0084900903 -0.097862124 0.509
0.010480583 -0.097862124 0.509
0.013121672 -0.097765341 0.50849998
0.016413918 -0.097637601 0.5078333
0.019691871 -0.098138496 0.50700003
0.021674542 -0.098138496 0.50700003
0.036214139 -0.096816711 0.50700003
0.058684424 -0.098138496 0.50700003
0.06136917 -0.09754169 0.50733334
0.064759918 -0.097669862 0.50800002
0.067408688 -0.097669862 0.50800002
0.070672393 -0.097605772 0.50766665
0.073224016 -0.098138496 0.50700003
-0.055097234 -0.093034498 0.50800002
-0.053772844 -0.095019788 0.50800002
0.01114408 -0.095871635 0.509
0.013134574 -0.095871635 0.509
0.02960523 -0.094173148 0.50700003
0.031587902 -0.094173148 0.50700003
0.034276482 -0.094296105 0.50766665
0.037107233 -0.094423957 0.50716668
0.052178226 -0.093034498 0.50800002
0.055434581 -0.093603827 0.50750005
0.058247782 -0.094055817 0.50779998
0.061489839 -0.094419651 0.50833333
0.064844899 -0.094481856 0.50866669
0.067430586 -0.094389409 0.50816673
0.06995371 -0.094881132 0.50725001
-0.055097234 -0.09104792 0.50800002
-0.053436365 -0.091005981 0.509
0.019769549 -0.090563647 0.509
0.022412203 -0.091182008 0.50875002
0.025660815 -0.091606207 0.50742859
0.02869335 -0.091442801 0.5075714
0.031619269 -0.091618977 0.50749999
0.034298986 -0.09104792 0.50800002
0.037747085 -0.091476217 0.50762498
0.040708192 -0.091265224 0.50700003
0.043505702 -0.090913177 0.50725001
0.046172984 -0.090957657 0.50750005
0.049518902 -0.091688305 0.50788891
0.053014465 -0.091515884 0.50840002
0.055598423 -0.091890641 0.509
0.057588916 -0.091890641 0.509
0.067762546 -0.091448307 0.509
0.069691569 -0.091333233 0.50775003
-0.054988775 -0.088886023 0.50700003
-0.052774757 -0.088370845 0.50860006
0.022423541 -0.089236654 0.509
0.025064889 -0.088529319 0.50875002
0.028339235 -0.088399149 0.50799996
0.031650204 -0.088399142 0.50800002
0.034298986 -0.088399142 0.50800002
0.037359882 -0.08856611 0.50819999
0.040571157 -0.088370323 0.50860006
0.043634355 -0.088529319 0.50875002
0.046309456 -0.089236654 0.509
0.04829995 -0.089236654 0.509
0.070277326 -0.08861988 0.50799996
-0.068341121 -0.08574906 0.50800002
-0.052446712 -0.085750371 0.50799996
0.02574103 -0.086582661 0.509
0.028375993 -0.085862465 0.50866669
0.031681355 -0.085834116 0.50849998
0.034366503 -0.085919164 0.509
0.03702049 -0.086582661 0.509
-0.067016728 -0.083763786 0.50800002
-0.064965487 -0.081696063 0.50750005
-0.051759794 -0.083061025 0.50775003
-0.049565956 -0.082269929 0.509
-0.063167661 -0.079947688 0.509
-0.060996234 -0.0790499 0.50750005
-0.058954116 -0.078311779 0.50700003
-0.051023427 -0.080294445 0.50700003
-0.049160685 -0.079167694 0.50825
-0.047243718 -0.078620695 0.509
-0.058409505 -0.077141851 0.50800002
-0.055906985 -0.076158546 0.50733334
-0.048852265 -0.076600015 0.50733334
-0.046557017 -0.076592885 0.50875002
-0.055151463 -0.07390289 0.50849998
-0.053666994 -0.073024645 0.50700003
-0.045826513 -0.074493065 0.50800002
-0.044589728 -0.0746397 0.509
-0.053772844 -0.071844287 0.50800002
-0.043753631 -0.066415742 0.50700003
-0.040554252 -0.067253463 0.50833338
-0.037954751 -0.066677734 0.509
-0.046535116 -0.065286547 0.50849998
-0.043883078 -0.064623043 0.50849998
-0.040567975 -0.064623475 0.50850004
-0.037512418 -0.064466067 0.509
-0.035300758 -0.064023741 0.509
-0.040276993 -0.062365003 0.509
-0.037158553 -0.061635155 0.509
-0.035300758 -0.061369747 0.509
-0.031983271 -0.05473477 0.509
0.031049011 -0.056061771 0.509
-0.031983271 -0.052744277 0.509
-0.029992778 -0.052744277 0.509
0.026961669 -0.051876146 0.50700003
-0.031319771 -0.050753787 0.509
-0.029550446 -0.050311457 0.509
0.020392904 -0.04535652 0.50800002
0.0071490216 -0.033437029 0.50800002
0.0038349247 -0.031420141 0.50750005
-0.00079730863 -0.028139474 0.50800002
0.00052811729 -0.02952186 0.509
-0.012741837 -0.025540875 0.509
-0.010751343 -0.025540873 0.509
-0.0075891018 -0.025669441 0.50825
-0.0041129747 -0.026841477 0.50849998
-0.0078713186 -0.022429563 0.50866669
0.017404847 -0.19261152 0.51100004
0.019837195 -0.19407108 0.51075006
0.022260247 -0.19413447 0.51033336
0.084958918 -0.19378579 0.51000005
0.08845602 -0.19349964 0.51100004
0.091786548 -0.19283354 0.51100004
0.09445098 -0.19283354 0.51100004
0.09711539 -0.19283354 0.51100004
0.09955778 -0.19305557 0.51100004
0.010542355 -0.18987386 0.51200002
0.013408219 -0.18994708 0.51100004
0.016159413 -0.19022273 0.51025003
0.019143591 -0.19179139 0.51000005
0.053270057 -0.18957539 0.51000005
0.055840623 -0.19019584 0.51000005
0.058366865 -0.19046178 0.51000005
0.060361274 -0.19112659 0.51000005
0.086510122 -0.1913482 0.51000005
0.088947721 -0.1904618 0.51000005
0.091741979 -0.19007577 0.51075006
0.094450973 -0.19016913 0.51100004
0.097115383 -0.19016913 0.51100004
0.099113703 -0.19083522 0.51100004
0.0085401302 -0.18720421 0.51200002
0.010526586 -0.18759675 0.51125002
0.012955114 -0.187604 0.51066673
0.049281251 -0.18691617 0.51000005
0.052383658 -0.18713777 0.51000005
0.055707663 -0.18713777 0.51000005
0.057702065 -0.18780257 0.51000005
0.08695332 -0.18780257 0.51000005
0.088947721 -0.18713777 0.51000005
0.091786556 -0.18750469 0.51100004
0.094497502 -0.1875961 0.51125002
0.097020052 -0.1875264 0.51166672
0.10064247 -0.1872042 0.51200002
0.10397951 -0.18720421 0.51200002
0.10664915 -0.18720421 0.51200002
0.008002867 -0.18419553 0.51180005
0.010516291 -0.18475018 0.51075006
0.012495578 -0.18514337 0.51000005
0.047065243 -0.18514337 0.51000005
0.049059648 -0.18447855 0.51000005
0.052383658 -0.18447857 0.51000005
0.055042859 -0.18447855 0.51000005
0.089788236 -0.18550639 0.51100004
0.091831788 -0.18493038 0.51125002
0.09441334 -0.18542446 0.51200002
0.097305439 -0.18586941 0.51200002
0.099307664 -0.18586941 0.51200002
0.0078685516 -0.18110874 0.51175004
0.010379786 -0.18163359 0.51060009
0.047065243 -0.18181935 0.51000005
0.049140025 -0.18145013 0.51083344
0.052265964 -0.18178853 0.51071435
0.0078643821 -0.17835358 0.5115
0.010292431 -0.17872781 0.51066673
0.046400443 -0.17982496 0.51000005
0.049059648 -0.17849535 0.51000005
0.052383658 -0.17938174 0.51000005
0.0078643821 -0.17568655 0.5115
0.010292431 -0.17562193 0.51066673
0.0058704964 -0.17318864 0.51200002
0.0072053131 -0.17385605 0.51200002
0.020043375 -0.16042948 0.51033336
0.02251165 -0.16152661 0.51100004
0.08296451 -0.1538977 0.51000005
0.085291319 -0.1538977 0.51000005
0.0052030883 -0.15116417 0.51200002
0.0078643821 -0.15101656 0.5115
0.010516291 -0.15146123 0.51075006
0.012495578 -0.15190329 0.51000005
0.082299709 -0.1512385 0.51000005
0.085391372 -0.1514305 0.51020002
0.088582948 -0.15116458 0.51020002
0.09160693 -0.15123849 0.51000005
0.093601339 -0.1505737 0.51000005
0.0042019757 -0.14916195 0.51200002
0.0078643821 -0.14901629 0.51150006
0.0098363729 -0.1485793 0.51000005
0.082629763 -0.1489951 0.51066673
0.085125491 -0.14887062 0.51100004
0.088671446 -0.14862621 0.51114291
0.091741323 -0.14879745 0.51075006
0.094404444 -0.14879745 0.51075006
0.096703738 -0.1483577 0.51000005
0.0045305989 -0.14501575 0.5115
0.0076250597 -0.14623749 0.51033336
0.08296451 -0.1459201 0.51000005
0.085125498 -0.1455401 0.5110001
0.08812692 -0.14595157 0.51166672
0.091876365 -0.1463486 0.5115
0.09454339 -0.1463486 0.51150006
0.097210415 -0.1463486 0.5115
0.099307664 -0.14449009 0.51200002
0.004188688 -0.14273523 0.51050007
0.08296451 -0.14392568 0.51000005
0.085209444 -0.14234871 0.5115
0.001419893 -0.13950518 0.51166672
0.00318836 -0.13993688 0.51000005
0.085168123 -0.13961375 0.51125002
-0.00080201717 -0.13621463 0.51100004
0.00053019245 -0.13754684 0.51100004
0.085404366 -0.13719161 0.51133341
-0.0041325414 -0.13288411 0.51100004
-0.0016882415 -0.13426325 0.51033336
0.085791603 -0.13421631 0.51100004
0.08729431 -0.13247673 0.51200002
-0.0065837926 -0.13016753 0.51166672
-0.0041244542 -0.13129446 0.51000005
0.086288519 -0.13062966 0.51000005
0.087876469 -0.13034645 0.5115
-0.040848084 -0.12713747 0.51200002
-0.0081341248 -0.127618 0.51125002
0.088900961 -0.12733322 0.51099998
-0.040768307 -0.12555695 0.51100004
-0.010809757 -0.12440706 0.51175004
-0.008786669 -0.1247693 0.51050007
0.089700386 -0.1247693 0.51050007
-0.030169554 -0.12046339 0.51200002
-0.012816936 -0.12046339 0.51200002
-0.010788634 -0.12150085 0.51075006
-0.0087780626 -0.12265204 0.51000005
0.10654566 -0.12101316 0.5115
-0.054196253 -0.11779376 0.51200002
-0.051526617 -0.11912858 0.51200002
-0.034174003 -0.11779376 0.51200002
-0.03271091 -0.11866324 0.51000005
-0.012816936 -0.11912858 0.51200002
-0.010652441 -0.11853588 0.51060003
0.094450973 -0.1188959 0.51100004
0.097464122 -0.11860695 0.51166672
0.10057782 -0.11771706 0.51166672
0.10397951 -0.11846117 0.51200002
-0.056088716 -0.11556539 0.51100004
-0.010804802 -0.11634521 0.5115
-0.0081255184 -0.11550852 0.51075006
0.098919742 -0.11600403 0.51000005
0.10111202 -0.11623149 0.51100004
0.10311033 -0.11623149 0.51100004
-0.05930296 -0.11201522 0.51000005
-0.056643754 -0.11201522 0.51000005
-0.0065789246 -0.11319622 0.51133335
-0.004463898 -0.11217865 0.51075006
-0.0034709584 -0.10971251 0.51166672
-0.0016001936 -0.1092177 0.51060009
0.0005291549 -0.10802642 0.51000005
-0.047336537 -0.10536721 0.51000005
-0.044677336 -0.10669681 0.51000005
-0.0012480024 -0.10660055 0.51166672
0.001194475 -0.10613596 0.51050007
-0.00080358662 -0.10444559 0.51200002
0.0011965566 -0.10362584 0.51125002
0.00318836 -0.102708 0.51000005
0.0018660467 -0.10177596 0.51200002
0.0040804059 -0.10043344 0.51083338
-0.052313253 -0.096692413 0.51100004
0.0051939683 -0.097611509 0.51116669
0.0075130863 -0.097104289 0.51025003
0.0098363729 -0.096059993 0.51000005
-0.052449413 -0.094043553 0.51060003
-0.050191801 -0.093767054 0.51200002
0.0058704964 -0.09443447 0.51200002
0.0076353103 -0.094472058 0.51100004
0.010501174 -0.094730392 0.51000005
-0.051802088 -0.091688156 0.51033336
-0.049714189 -0.091483057 0.51166672
0.055707663 -0.090741582 0.51000005
0.058664765 -0.091303401 0.51066673
0.061175972 -0.091629431 0.51125002
0.06447538 -0.091585167 0.5110001
0.067140669 -0.090919502 0.51100004
-0.069939785 -0.088082373 0.51000005
-0.051325344 -0.089411974 0.51000005
-0.049403161 -0.088878013 0.51075006
-0.04685476 -0.08842779 0.51200002
0.011209763 -0.08842779 0.51200002
0.013211988 -0.08842779 0.51200002
0.016695354 -0.088485718 0.51137507
0.019705983 -0.088485412 0.5108
0.022467598 -0.088082373 0.51000005
0.046714325 -0.087810136 0.51100004
0.049155191 -0.088253774 0.51100004
0.052521046 -0.08897832 0.51133341
0.055816889 -0.089587294 0.51100004
0.057928342 -0.089762606 0.51200002
0.065937243 -0.089762606 0.51200002
0.067966267 -0.088555023 0.51120001
0.069668487 -0.088082373 0.51000005
-0.07007692 -0.086922877 0.51100004
-0.049236149 -0.085756615 0.51040012
-0.04691451 -0.085357726 0.51120007
-0.044852536 -0.085090749 0.51200002
0.020513337 -0.086922877 0.51100004
0.022653421 -0.085889563 0.51120007
0.025023142 -0.085256711 0.51060009
0.028450809 -0.084093571 0.51000005
0.031774815 -0.084093571 0.51000005
0.034468431 -0.084176019 0.51050007
0.03716661 -0.084923908 0.51100004
0.040294845 -0.085945882 0.51085722
0.043633122 -0.086534642 0.51133335
0.045825318 -0.086922877 0.51100004
0.069805086 -0.086922877 0.51100004
-0.048666142 -0.08276397 0.51000005
-0.046740044 -0.082220227 0.51075006
-0.044852536 -0.082421117 0.51200002
0.025892746 -0.083088525 0.51200002
0.028854245 -0.082633115 0.51125002
0.031635415 -0.082535408 0.51133335
0.034535948 -0.083007388 0.5115
-0.064874783 -0.080418892 0.51200002
-0.061962169 -0.07877516 0.51000005
-0.046480205 -0.079713918 0.51033336
-0.043732643 -0.0795248 0.51140004
-0.060751449 -0.077597409 0.51100004
-0.05856986 -0.075870007 0.51133341
-0.043417256 -0.07690642 0.51083338
-0.040848084 -0.076414444 0.51200002
-0.056310754 -0.073599912 0.51100004
-0.043347728 -0.07478635 0.51000005
-0.054090403 -0.070936359 0.51100004
-0.037400499 -0.069536045 0.51050007
-0.035040762 -0.070139892 0.51166672
-0.037142921 -0.067695141 0.51000005
-0.034756023 -0.067573093 0.51075006
-0.032839186 -0.067738138 0.51200002
-0.048761562 -0.065607525 0.51100004
-0.046572153 -0.0638723 0.51133341
-0.03669972 -0.065479137 0.51000005
-0.03450596 -0.065078728 0.51033336
-0.032155745 -0.064369649 0.51174998
-0.043432724 -0.062276345 0.51100004
-0.040297642 -0.060682565 0.51066673
-0.038029321 -0.060160723 0.51000005
-0.034040511 -0.061490327 0.51000005
-0.031640828 -0.061247487 0.51114291
0.043245364 -0.060396645 0.51200002
-0.039513268 -0.059061829 0.51200002
-0.037438437 -0.058279719 0.51100004
-0.034705311 -0.058166318 0.51000005
-0.03142146 -0.058242355 0.51066673
-0.028834736 -0.058394421 0.51200002
0.032503221 -0.057614263 0.51100004
-0.036807656 -0.055669717 0.5115
-0.034739986 -0.055561531 0.51050007
-0.031063639 -0.05586705 0.51025009
-0.02813917 -0.055670369 0.5115
0.029174004 -0.055617254 0.51100004
-0.03465401 -0.052571289 0.51120007
-0.028084155 -0.052899718 0.51050007
-0.026165104 -0.053055152 0.51200002
0.025892746 -0.052387744 0.51200002
0.027227564 -0.05372256 0.51200002
-0.03169645 -0.049334101 0.5108
-0.027945826 -0.049296822 0.51040006
-0.025600513 -0.049392886 0.51140004
-0.028167328 -0.047048476 0.51200002
-0.026165104 -0.047048476 0.51200002
0.020513337 -0.046956584 0.51100004
-0.019216442 -0.040892549 0.51179999
-0.016821386 -0.039706986 0.51200002
-0.019457469 -0.037639014 0.5111112
-0.016365496 -0.036791202 0.51166672
-0.019216962 -0.034487516 0.51180005
-0.016129989 -0.034317702 0.51125002
-0.014151753 -0.03370031 0.51200002
0.0058590309 -0.033634491 0.51100004
-0.018156203 -0.032365493 0.51200002
-0.016130641 -0.031651326 0.51125002
-0.013464266 -0.031651981 0.51125002
-0.011029705 -0.031455413 0.51166672
-0.0088124862 -0.031030677 0.51200002
0.0011949937 -0.030970071 0.51100004
0.0031946118 -0.032302283 0.51100004
-0.015805151 -0.028666401 0.5115
-0.013438581 -0.028929561 0.51025003
-0.010783028 -0.02894406 0.51050007
-0.0074597616 -0.02896296 0.51083332
-0.0043577063 -0.028769055 0.51133335
-0.0016901569 -0.029194662 0.5110001
-0.013586223 -0.025630156 0.5108
-0.010571554 -0.022531874 0.51100004
-0.0087952744 -0.021644605 0.51100004
-0.007463065 -0.020312395 0.51100004
0.0058819624 -0.18355758 0.51300001
0.0054361545 -0.18132854 0.51300001
0.0018733358 -0.17721523 0.514
0.0048132739 -0.17854431 0.51319999
0.0018733358 -0.1752052 0.514
0.0045463243 -0.17563044 0.5132857
0.0014266589 -0.17230178 0.514
0.0038773895 -0.17227371 0.51324999
-0.00080829521 -0.1695042 0.51500005
0.0012038392 -0.1700103 0.51450002
0.0032133665 -0.16984507 0.514
0.0045445384 -0.15012199 0.51300001
0.0048804572 -0.14785334 0.51324999
0.0018696912 -0.14544101 0.51300001
0.003207115 -0.14610973 0.51300001
0.088802226 -0.14477229 0.51300001
0.091477074 -0.14477229 0.51300001
0.094820634 -0.14477229 0.51300001
0.097495481 -0.14477229 0.51300001
-0.00080829521 -0.14198013 0.51500005
0.0012014981 -0.14223529 0.51349998
0.088276893 -0.142327 0.51383334
0.091532141 -0.14261055 0.51424998
0.094619535 -0.14246592 0.51433331
0.097812235 -0.14255823 0.51466668
0.10030969 -0.14221621 0.51440001
0.10324614 -0.14130881 0.51500005
0.1052601 -0.14130881 0.51500005
-0.0034935712 -0.13862352 0.51500005
-0.0014773927 -0.139025 0.514
0.088139676 -0.13933828 0.51433331
0.10123218 -0.13996616 0.51500005
0.10593142 -0.13929485 0.51500005
-0.0061728475 -0.13647759 0.51450002
-0.0041551068 -0.13627832 0.51374996
-0.0021425798 -0.13674775 0.51300001
0.088139676 -0.13620895 0.51433331
-0.010206761 -0.13325298 0.51500005
-0.0072375163 -0.13347797 0.51380002
-0.0048174271 -0.13407291 0.51300001
0.08852952 -0.13388759 0.514
0.090491086 -0.13325298 0.51500005
-0.039744794 -0.13191034 0.51500005
-0.013563355 -0.12922508 0.51500005
-0.010873124 -0.13117564 0.51475
-0.0083953636 -0.13112213 0.51366663
0.088802226 -0.13139807 0.51300001
0.090821482 -0.13084535 0.51433331
-0.01624863 -0.12721109 0.51500005
-0.013550838 -0.12708759 0.51450002
-0.010982511 -0.1278033 0.51359999
0.091584593 -0.12753478 0.51359999
0.093847677 -0.12721109 0.51500005
-0.042347677 -0.12428533 0.51400006
-0.02805315 -0.12406069 0.514
-0.01624863 -0.12452583 0.51500005
-0.013530759 -0.1242239 0.51374996
0.11331593 -0.12385451 0.51500005
-0.047129303 -0.12251187 0.51500005
-0.028518597 -0.1219066 0.51433331
-0.016233508 -0.12172225 0.51450002
-0.013742798 -0.12166957 0.51333332
0.098164193 -0.12069867 0.51300001
0.10036559 -0.12093395 0.514
0.10348698 -0.12151806 0.51420003
0.10572571 -0.12227397 0.514
-0.057199087 -0.11714133 0.51500005
-0.055130899 -0.11904024 0.51450002
-0.052964676 -0.11936124 0.51300001
-0.034374241 -0.11714133 0.51500005
-0.031627432 -0.11892325 0.514
-0.016014775 -0.1193015 0.51466674
-0.013742798 -0.11854631 0.51333332
0.10017033 -0.11936124 0.51300001
0.10284518 -0.11936124 0.51300001
-0.058541723 -0.11512737 0.51500005
-0.056976952 -0.11401156 0.51300001
-0.036915597 -0.1166864 0.51300001
-0.013305333 -0.11639136 0.51366663
-0.010857608 -0.11490317 0.514
-0.008829698 -0.11401156 0.51300001
-0.042430069 -0.11177077 0.51500005
-0.010206761 -0.11311341 0.51500005
-0.0077695646 -0.11200241 0.51359999
-0.043645211 -0.10943647 0.51349998
-0.0072452365 -0.10976293 0.51440001
-0.0048221224 -0.10943647 0.51349998
-0.047039092 -0.10552229 0.51400006
-0.0061788466 -0.10774285 0.51500005
-0.0041574542 -0.10686297 0.514
-0.0021425798 -0.105987 0.51300001
-0.052448228 -0.10227291 0.51450002
-0.049719155 -0.10418227 0.51400006
-0.0034901793 -0.10428426 0.51450002
-0.0016104302 -0.10320423 0.51380002
-0.052422415 -0.10021252 0.51425004
-0.0012553179 -0.10051674 0.51466674
0.001067652 -0.10044777 0.51339996
-0.051627256 -0.097962469 0.51300001
-0.049972992 -0.097322859 0.51433331
0.0012038392 -0.09757825 0.51450002
0.003207115 -0.097293757 0.51300001
-0.04946183 -0.094964772 0.51366663
-0.047322135 -0.094702981 0.51466674
0.0018751582 -0.094894916 0.51450002
0.0038789525 -0.094711125 0.51349998
-0.071898222 -0.092213556 0.51450002
-0.048952408 -0.092612773 0.51300001
-0.046175595 -0.091836505 0.514
-0.043325156 -0.090736113 0.51500005
0.0018769805 -0.092973836 0.51500005
0.0032133665 -0.092793301 0.514
-0.07182835 -0.088773206 0.514
-0.04627756 -0.089937925 0.51300001
-0.043672238 -0.088074841 0.51383334
-0.04108743 -0.087603293 0.51500005
0.0085734893 -0.087433182 0.514
0.010562945 -0.087263077 0.51300001
0.013237793 -0.087263077 0.51300001
0.015243928 -0.087263077 0.51300001
0.05001694 -0.087263077 0.51300001
0.052124485 -0.087433182 0.514
0.055743091 -0.087968677 0.514
0.058823988 -0.088771909 0.514
0.061504707 -0.089441925 0.51400006
0.064318761 -0.089039661 0.51400006
0.066641487 -0.087879859 0.514
-0.042975195 -0.085340038 0.51349998
-0.04061329 -0.085310601 0.51466674
0.0079105105 -0.086176902 0.51450002
0.010593831 -0.085505582 0.51450002
0.013263596 -0.085423134 0.514
0.016608721 -0.085395217 0.51383334
0.019944331 -0.08533939 0.51349998
0.021931045 -0.08458823 0.51300001
0.041323692 -0.08458823 0.51300001
0.044278618 -0.085143961 0.51366669
0.046787437 -0.08546371 0.51425004
0.049444422 -0.08609315 0.514
0.052225903 -0.086260654 0.51500005
0.068270549 -0.086176902 0.51450002
0.070078298 -0.085925654 0.51300001
-0.042954594 -0.082622662 0.51324999
-0.04037622 -0.082823567 0.51450002
0.013289403 -0.083575375 0.51500005
0.016645996 -0.083575375 0.51500005
0.020002592 -0.083575375 0.51500005
0.02266584 -0.082822919 0.51450002
0.025084546 -0.082465641 0.51366663
0.027949452 -0.081913382 0.51300001
0.032630432 -0.081913382 0.51300001
0.034670983 -0.081993222 0.51349998
0.037366293 -0.082701854 0.51375002
0.040064208 -0.083413087 0.514
0.042156119 -0.083575375 0.51500005
-0.06244814 -0.078052968 0.514
-0.042265289 -0.080575965 0.51300001
-0.040317684 -0.080024399 0.51374996
-0.037835274 -0.079217672 0.51460004
0.026044462 -0.080890104 0.51500005
0.028003935 -0.080733031 0.514
0.03135401 -0.080733031 0.514
0.03410029 -0.080890104 0.51500005
-0.061226998 -0.076862186 0.51500005
-0.04003625 -0.077455312 0.51300001
-0.031688966 -0.072834276 0.51500005
-0.055747986 -0.07135281 0.514
-0.034240745 -0.07121399 0.51300001
-0.031906702 -0.070576563 0.51420003
-0.030926652 -0.067936584 0.51349998
-0.028537372 -0.067420058 0.51466674
-0.049047831 -0.064652659 0.514
-0.047800623 -0.063435808 0.51500005
-0.030562833 -0.064861231 0.51300001
-0.028422099 -0.064409807 0.51420003
-0.04502774 -0.061972596 0.514
-0.042976499 -0.060573585 0.51349998
-0.028249197 -0.061242945 0.51349998
-0.026318416 -0.061421849 0.51500005
0.044841394 -0.060750533 0.51500005
-0.042430069 -0.059407894 0.51500005
-0.04056184 -0.058399186 0.514
-0.027553629 -0.058508471 0.51300001
-0.025621541 -0.058679551 0.51450002
-0.039744794 -0.056722622 0.51500005
-0.038290303 -0.055887386 0.51349998
-0.025584515 -0.055915575 0.51374996
-0.023185594 -0.055379983 0.51500005
0.027387101 -0.055379979 0.51500005
-0.037023537 -0.053313557 0.51450002
-0.035647523 -0.05125235 0.514
-0.024894947 -0.05252504 0.51333332
-0.023059893 -0.05234484 0.51420003
-0.020947862 -0.052023388 0.51500005
0.024653858 -0.05125235 0.514
-0.034240745 -0.049815215 0.51300001
-0.032903325 -0.048477791 0.51300001
-0.022894289 -0.049194403 0.51349998
-0.019849868 -0.049146626 0.51440001
0.020633765 -0.048572291 0.514
0.023268471 -0.049815215 0.51300001
-0.030734079 -0.046784714 0.514
-0.028250501 -0.045847587 0.51349998
-0.025324589 -0.046248753 0.51300001
-0.022884119 -0.046493977 0.51324999
-0.019560376 -0.046547364 0.51383334
-0.01691995 -0.046652831 0.51500005
0.019331273 -0.045981515 0.51500005
-0.027661053 -0.044638876 0.51500005
-0.02539012 -0.044133544 0.51433331
-0.022917233 -0.04388218 0.514
-0.019534996 -0.043811258 0.51316667
-0.016224641 -0.04390385 0.51424998
-0.014234674 -0.04329624 0.51500005
-0.024975777 -0.041953605 0.51500005
-0.022917667 -0.040532976 0.514
-0.02086651 -0.041790675 0.51300001
-0.015858734 -0.040807974 0.51324999
-0.013686563 -0.040311418 0.51460004
-0.022694765 -0.037405368 0.514
-0.015516816 -0.0377784 0.51300001
-0.013530107 -0.037164271 0.51375002
-0.011549398 -0.037254371 0.51500005
-0.02226886 -0.034534879 0.51450002
-0.02086651 -0.033766132 0.51300001
-0.013296121 -0.034680557 0.51333332
-0.010856304 -0.034502618 0.514
-0.0078491895 -0.034200523 0.51450002
-0.0048362087 -0.033897776 0.51500005
0.0038820785 -0.033831954 0.51400006
-0.022290502 -0.032555137 0.51500005
-0.019828591 -0.031675261 0.51380002
-0.010167122 -0.032428708 0.51300001
-0.0072301105 -0.031919025 0.51339996
-0.0041561509 -0.031822558 0.514
-0.0014777852 -0.031838361 0.51425004
0.0012014981 -0.032460317 0.51349998
-0.018698312 -0.029402981 0.51466674
-0.016887095 -0.027800512 0.51400006
-0.0034800037 -0.02975386 0.51300001
-0.015547063 -0.025120448 0.51400006
-0.013538321 -0.023111705 0.51400006
-0.011526971 -0.021771675 0.514
-0.010206761 -0.020471398 0.51500005
-0.008829698 -0.020391895 0.51300001
-0.057532281 -0.15090993 0.51800001
-0.033674169 -0.15068485 0.51800001
-0.03119833 -0.15090993 0.51800001
-0.028722489 -0.15068486 0.51800001
-0.033674169 -0.14843409 0.51800001
-0.03119833 -0.14820901 0.51800001
-0.02866704 -0.14814754 0.51700002
-0.03322402 -0.14550811 0.51800001
-0.03119833 -0.14550811 0.51800001
-0.028415544 -0.14575937 0.5165
-0.03322402 -0.14348242 0.51800001
-0.031873561 -0.14280719 0.51800001
-0.0041810642 -0.14185758 0.51700002
-0.0021551095 -0.14158319 0.51600003
0.096047767 -0.14158319 0.51600003
-0.0061908443 -0.14023794 0.51600003
-0.0043971846 -0.13978952 0.51600003
0.089321539 -0.1388927 0.51600003
0.091339417 -0.13956532 0.51600003
0.094121017 -0.13969991 0.5165
0.09748739 -0.13969989 0.5165
0.10053191 -0.13934112 0.51600003
0.10344661 -0.13956532 0.51600003
0.10882759 -0.1388927 0.51600003
-0.039976314 -0.13605487 0.51800001
-0.037913993 -0.13592421 0.51750004
0.089321539 -0.13754745 0.51600003
0.09142857 -0.13700745 0.5165
0.094333611 -0.13664126 0.51766664
0.097644091 -0.13655359 0.51733333
0.1009514 -0.13646616 0.51700002
0.1034321 -0.1366291 0.51660001
0.10604346 -0.13652351 0.51620001
0.10931138 -0.13646998 0.51616669
0.11240813 -0.13511831 0.51700002
-0.042677231 -0.13267875 0.51800001
-0.040825173 -0.13340655 0.51733333
-0.01833351 -0.13242261 0.51700002
-0.016087091 -0.13287188 0.51700002
-0.013823112 -0.13270114 0.51633334
0.091675729 -0.13384804 0.51600003
0.094303891 -0.13322525 0.51750004
0.097095273 -0.13335398 0.51800001
0.10034125 -0.13318235 0.51733333
0.10374151 -0.13344863 0.51679999
0.1063953 -0.13339686 0.51660001
0.10915747 -0.13364066 0.5165
0.11162549 -0.13364108 0.5165
-0.043072458 -0.13025983 0.51733333
-0.041246992 -0.13107476 0.51700002
-0.019381858 -0.13006477 0.51620001
-0.016280182 -0.1301486 0.51600003
-0.013589691 -0.13082123 0.51600003
0.094121665 -0.13027471 0.5165
0.097349927 -0.13031675 0.51719999
0.10074151 -0.1307881 0.51800001
0.10364709 -0.13107476 0.51700002
0.10566887 -0.13107476 0.51700002
-0.045378152 -0.12795213 0.51800001
-0.043270074 -0.12770513 0.51700002
-0.025770944 -0.12715405 0.51750004
-0.022124808 -0.12766913 0.51740003
-0.018980188 -0.12752019 0.51625001
0.094702527 -0.12813073 0.51600003
0.096907832 -0.12837905 0.51700002
0.11353596 -0.12678549 0.51600003
0.11510383 -0.12703119 0.51700002
-0.057532281 -0.12322553 0.51800001
-0.055506594 -0.12390076 0.51800001
-0.05280567 -0.12457599 0.51800001
-0.049365044 -0.12486581 0.51733333
-0.046404395 -0.12497188 0.51739997
-0.043942697 -0.12501073 0.51700002
-0.025771379 -0.12445488 0.51749998
-0.022411309 -0.12452225 0.51777786
-0.018989705 -0.12488852 0.5165
0.1061371 -0.124095 0.51600003
0.10950021 -0.12476762 0.51600003
0.11286333 -0.12544024 0.51600003
-0.058179744 -0.12114167 0.51775002
-0.055345863 -0.1215228 0.5165
-0.052860413 -0.12238064 0.51633334
-0.049238682 -0.12274976 0.51600003
-0.02816318 -0.12050768 0.51600003
-0.025796495 -0.12119984 0.51800001
-0.022082731 -0.12153745 0.51800001
-0.018989705 -0.12152215 0.5165
-0.060233198 -0.11782369 0.51800001
-0.058357675 -0.1185715 0.51733333
-0.033159882 -0.11759624 0.51700002
-0.030913459 -0.11804465 0.51700002
-0.02866704 -0.11849394 0.51700002
-0.025796495 -0.11917415 0.51800001
-0.021069888 -0.11917415 0.51800001
-0.019026469 -0.11838455 0.51750004
-0.016515341 -0.11789302 0.51633334
-0.060233198 -0.11579801 0.51800001
-0.033899248 -0.11647324 0.51800001
-0.018368971 -0.11647324 0.51800001
-0.01633572 -0.11574179 0.51775002
-0.013823112 -0.11520079 0.51633334
-0.061464772 -0.11355268 0.51700002
-0.042677231 -0.11107139 0.51800001
-0.015668051 -0.11377232 0.51800001
-0.013491777 -0.11256017 0.51739997
-0.011252332 -0.11214927 0.51675004
-0.010798472 -0.1093656 0.51759994
-0.0088899396 -0.10872929 0.5165
-0.04605338 -0.10634479 0.51800001
-0.043857701 -0.10795207 0.51600003
-0.010266216 -0.10702002 0.51800001
-0.0075538973 -0.10645671 0.51714289
-0.0048455996 -0.10526157 0.51600003
0.10452279 -0.10566956 0.51800001
-0.049332801 -0.10344379 0.51700002
-0.046728611 -0.1043191 0.51800001
-0.0066649928 -0.10386895 0.51800001
-0.0044065751 -0.10321914 0.51700002
-0.049348269 -0.10078079 0.51716667
-0.046728611 -0.10026772 0.51800001
-0.0041857595 -0.10084552 0.51750004
-0.0021551095 -0.099880598 0.51600003
-0.049238682 -0.098535351 0.51600003
-0.046652567 -0.097634919 0.51716667
-0.04402769 -0.096216351 0.51800001
-0.0035139218 -0.098242044 0.51800001
-0.0014855331 -0.097346194 0.51683336
-0.045875572 -0.095172241 0.51600003
-0.043268114 -0.094009474 0.51700002
-0.041326772 -0.093515426 0.51800001
-0.0014878407 -0.094144873 0.51775002
0.00053538021 -0.094499618 0.51600003
-0.073737785 -0.090814508 0.51800001
-0.042512458 -0.091809124 0.51600003
-0.040592361 -0.091357604 0.51725
-0.038175702 -0.091264665 0.51800001
-0.00081300363 -0.092164971 0.51800001
0.00053641776 -0.091987044 0.51700002
-0.072107844 -0.08777339 0.51600003
-0.040296108 -0.088727795 0.51633334
-0.037931986 -0.088746294 0.51775002
-0.035924934 -0.088113591 0.51800001
0.059726156 -0.08777339 0.51600003
0.061744027 -0.08777339 0.51600003
0.06376189 -0.08777339 0.51600003
-0.039821967 -0.086428151 0.51600003
-0.03787671 -0.085922368 0.51700002
-0.035924934 -0.085412681 0.51800001
0.0053927498 -0.085582271 0.51740009
0.0077194013 -0.084742673 0.51666671
0.047803517 -0.084062219 0.51800001
0.049733009 -0.084572561 0.51700002
0.05247942 -0.084655002 0.51750004
0.054989636 -0.085515797 0.51700002
0.058550622 -0.08600416 0.5175001
0.062094711 -0.085649274 0.51779997
0.064642638 -0.085356839 0.51766664
0.067030452 -0.085696198 0.51700002
0.069142871 -0.085082904 0.51600003
-0.037683968 -0.08269392 0.51620001
-0.035232365 -0.081997268 0.51775002
0.0086318702 -0.083305851 0.51750004
0.010780093 -0.082820095 0.51700002
0.013347137 -0.081916779 0.51725006
0.016177444 -0.082312889 0.51719999
0.019412166 -0.081903465 0.51716667
0.022753296 -0.081125706 0.5165
0.024749788 -0.08104717 0.51600003
0.035511747 -0.08104717 0.51600003
0.037566632 -0.081125706 0.5165
0.04031786 -0.081916772 0.51725
0.043645915 -0.083184794 0.51675004
0.045973014 -0.083107822 0.5176667
0.062658571 -0.081361301 0.51800001
0.064009026 -0.081361301 0.51800001
-0.035405431 -0.079407968 0.51700002
0.020794339 -0.080010846 0.51800001
0.022820029 -0.080010846 0.51800001
0.025496311 -0.079258382 0.51750004
0.028167382 -0.07918115 0.51700002
0.031537011 -0.079181142 0.51700002
0.034727011 -0.079509206 0.5176667
0.036999848 -0.080010846 0.51800001
-0.062934116 -0.077309921 0.51800001
-0.030464178 -0.073117122 0.51700002
-0.029172642 -0.073258542 0.51800001
-0.057532281 -0.071908087 0.51800001
-0.030405253 -0.071630448 0.51600003
-0.028441748 -0.071095996 0.51700002
-0.026471725 -0.069207169 0.51800001
-0.027714763 -0.068267345 0.51600003
-0.025987504 -0.066869944 0.51733333
-0.050006725 -0.064354777 0.51700002
-0.025733268 -0.064325288 0.51675004
-0.023770805 -0.063805334 0.51800001
-0.04807907 -0.062454872 0.51800001
-0.04591937 -0.061600097 0.5165
-0.02504852 -0.0616014 0.5165
-0.023305357 -0.061515246 0.51766664
0.042993754 -0.062334307 0.51700002
-0.043352462 -0.059078731 0.51800001
-0.041326772 -0.057053041 0.51800001
-0.022201577 -0.058724545 0.51742858
-0.019719429 -0.057053041 0.51800001
0.031536143 -0.058740035 0.51700002
0.046453059 -0.059753958 0.51800001
-0.039899141 -0.055595044 0.51700002
-0.038476724 -0.054142267 0.51600003
-0.021898927 -0.055971771 0.51633334
-0.019689575 -0.054611042 0.51725
0.026145604 -0.054922424 0.51700002
0.028785523 -0.056832761 0.51600003
-0.037914649 -0.052276574 0.51750004
-0.018988401 -0.052174911 0.5165
-0.017018512 -0.052326433 0.51800001
0.023495259 -0.051651202 0.51800001
0.024845717 -0.053001661 0.51800001
-0.03511361 -0.049433913 0.51600003
-0.018298049 -0.050106537 0.51600003
-0.016311081 -0.049530368 0.51700002
-0.014317594 -0.048950285 0.51800001
0.020794339 -0.050300743 0.51800001
0.022102049 -0.05020364 0.51700002
-0.033835109 -0.047507934 0.51700002
-0.031812027 -0.046160083 0.51700002
-0.015622682 -0.046789367 0.5165
-0.013635453 -0.046902273 0.51775002
0.019406345 -0.047507934 0.51700002
-0.030523101 -0.044898905 0.51800001
-0.02841424 -0.044094965 0.5165
-0.026395069 -0.042748418 0.5165
-0.013265897 -0.043759305 0.5165
-0.011273455 -0.043190464 0.51775002
-0.025522923 -0.040319394 0.51700002
-0.010914065 -0.04007569 0.51675004
-0.0084656039 -0.039947227 0.51800001
-0.025097016 -0.037434563 0.51750004
-0.023679027 -0.036654085 0.51600003
-0.010226579 -0.037326708 0.51600003
-0.0075542578 -0.037423592 0.51733333
-0.0041891513 -0.036796153 0.51800001
-0.023747861 -0.034736253 0.51750004
-0.0068634665 -0.035308842 0.51600003
-0.0039510308 -0.034883235 0.51633334
-0.0014857524 -0.034720451 0.51725
0.001210603 -0.034721099 0.51725
0.0045850105 -0.035422888 0.51766664
0.0072616045 -0.035308842 0.51600003
-0.022856072 -0.031374115 0.5176667
-0.019679623 -0.028636271 0.51700002
-0.016985659 -0.025267074 0.51700002
-0.015668051 -0.023291564 0.51800001
-0.013617331 -0.021898748 0.51700002
-0.011571825 -0.020511147 0.51600003
-0.0082259234 -0.019203044 0.51700002
0.10018151 -0.18063959 0.52000004
0.10385916 -0.18089101 0.51975006
0.10617984 -0.18114243 0.51950002
0.10037416 -0.17894955 0.52100003
0.10279882 -0.179061 0.52066672
0.10645192 -0.17889208 0.52083331
0.10899339 -0.17860606 0.52000004
0.10730139 -0.17555383 0.52100003
0.10966142 -0.17569017 0.52060002
0.10376986 -0.17215814 0.52100003
0.10614685 -0.1724977 0.52100003
-0.072527081 -0.14781862 0.51900005
-0.070497483 -0.14781862 0.51900005
-0.067791343 -0.14781862 0.51900005
-0.064408682 -0.14781862 0.51900005
-0.061026014 -0.14781862 0.51900005
-0.058319882 -0.14781862 0.51900005
-0.055613756 -0.14781862 0.51900005
-0.052907616 -0.14781862 0.51900005
-0.067791343 -0.14646554 0.51900005
-0.064408682 -0.14646554 0.51900005
-0.061026014 -0.14646554 0.51900005
-0.058319882 -0.14646554 0.51900005
-0.056290288 -0.14646554 0.51900005
-0.034641225 -0.14578901 0.51900005
-0.078089513 -0.14132506 0.52000004
-0.076056004 -0.14132506 0.52000004
-0.073344663 -0.14132506 0.52000004
-0.0341 -0.14213574 0.51900005
-0.031935096 -0.14105329 0.51900005
-0.076056004 -0.13996938 0.52000004
-0.042842012 -0.13861372 0.52000004
-0.040582556 -0.13906561 0.52000004
-0.037407327 -0.13924712 0.51983339
-0.034030132 -0.13996938 0.52000004
-0.043519847 -0.1365802 0.52000004
-0.041486338 -0.1365802 0.52000004
-0.051526841 -0.1329944 0.52100003
-0.049036663 -0.13344716 0.52099997
-0.046275649 -0.13399822 0.5205
-0.043689996 -0.13392319 0.51933336
-0.060582042 -0.12937231 0.52100003
-0.058544621 -0.12937231 0.52100003
-0.055601686 -0.12982507 0.52100003
-0.052704014 -0.13018729 0.52100003
-0.049368326 -0.12971647 0.52020007
-0.04616484 -0.13096866 0.51925004
-0.04411269 -0.13158181 0.51900005
-0.060582042 -0.12733489 0.52100003
-0.058544621 -0.12733489 0.52100003
-0.055774488 -0.12721334 0.52050006
-0.052958585 -0.12696895 0.51950002
-0.049834259 -0.12707968 0.5194
-0.046818823 -0.12819916 0.51900005
-0.063298605 -0.12393919 0.52100003
-0.061232112 -0.12455887 0.52075005
-0.058583289 -0.12444564 0.51933336
-0.056290288 -0.12481649 0.51900005
-0.063298605 -0.12190178 0.52100003
-0.061144248 -0.12166845 0.51999998
-0.023140166 -0.1207573 0.51900005
-0.063298605 -0.11850607 0.52100003
-0.061291158 -0.1190299 0.51933336
