# .PCD v0.7 - Point Cloud Data file format
VERSION 0.7
FIELDS x y z
SIZE 4 4 4
TYPE F F F
COUNT 1 1 1
WIDTH 1361
HEIGHT 1
VIEWPOINT 0 0 0 1 0 0 0
POINTS 1361
DATA ascii
0.043397564 -0.14894617 0.48866668
0.047589384 -0.1482937 0.48735294
0.052543249 -0.14754376 0.48685718
0.057360634 -0.1474164 0.48717651
0.061113846 -0.14840811 0.48812503
0.054051239 -0.1443736 0.48900002
0.055326093 -0.1443736 0.48900002
-0.032572094 -0.1237224 0.48800004
-0.046110053 -0.10753319 0.4876667
-0.045788862 -0.10431705 0.48650002
0.085922599 -0.10102855 0.48900002
0.093571723 -0.10485312 0.48900002
0.08401031 -0.099116273 0.48900002
-0.060945541 -0.090272486 0.486
-0.057591219 -0.091917098 0.48800004
0.080327332 -0.094073586 0.48600003
-0.063742146 -0.089371726 0.48800004
0.04121824 -0.053748813 0.48800004
0.0043053525 -0.025653802 0.48600003
0.0062257079 -0.027640048 0.48750001
0.00050529104 -0.021264151 0.48700005
-0.00076748803 -0.019437889 0.48900002
0.00050321588 -0.019278888 0.48500001
0.017185258 -0.17219549 0.49200001
0.021607889 -0.17294928 0.49050003
0.027558234 -0.16645603 0.49400002
0.024881309 -0.16321677 0.49200001
0.043811712 -0.16151609 0.49333334
0.04690057 -0.16150743 0.49199998
0.052779943 -0.1615262 0.4924286
0.057571273 -0.16076635 0.49366668
0.039149236 -0.15615292 0.49400002
0.041831922 -0.15776443 0.49150002
0.048413198 -0.15999836 0.49000001
0.05224558 -0.15935963 0.49000001
0.057918895 -0.15824632 0.49116668
0.061873872 -0.15667436 0.49240002
0.0095084934 -0.1506957 0.49300003
0.038654339 -0.15224656 0.49316669
0.040799595 -0.15252727 0.49062502
0.062979899 -0.15238535 0.491
0.024982452 -0.14584981 0.49400002
0.027865607 -0.14609796 0.49375004
0.032236643 -0.146511 0.49333334
0.037270244 -0.14735396 0.49300003
0.042025886 -0.14722319 0.49187505
0.046041392 -0.14612398 0.49060002
0.063377045 -0.146955 0.49100003
0.066150248 -0.14703928 0.49366668
0.019186951 -0.14069825 0.49400002
0.023118826 -0.14213707 0.49273336
0.027489154 -0.14226928 0.49275005
0.03200094 -0.14234136 0.49300003
0.036566313 -0.14324476 0.4939
0.042783309 -0.14408384 0.49383333
0.047588192 -0.14283608 0.49249998
0.052138135 -0.14240147 0.49100003
0.05756155 -0.14281791 0.49066672
0.062473498 -0.14293548 0.49106675
0.067090444 -0.14208457 0.49300003
0.014240137 -0.13588452 0.49366668
0.017993338 -0.13709068 0.4930667
0.022819975 -0.13747454 0.49300003
0.027527532 -0.13796626 0.49344444
0.032049946 -0.13805191 0.49374998
0.03528557 -0.13941036 0.49400002
0.048989695 -0.13888699 0.49366668
0.052871332 -0.13768807 0.4930667
0.057647802 -0.13769965 0.49250007
0.06273929 -0.13760246 0.49215001
0.067323864 -0.1371534 0.49283338
0.070058592 -0.13683458 0.49400005
0.0095277801 -0.13039513 0.49400002
0.013071307 -0.13175426 0.49315387
0.017345844 -0.13251457 0.49349999
0.054603912 -0.13425881 0.49400002
0.057823636 -0.13425881 0.49400002
0.063232772 -0.13366804 0.49385715
0.067437701 -0.13352425 0.49366665
0.070058592 -0.13361485 0.49400002
0.0090126246 -0.12807694 0.49400002
0.012608394 -0.12720017 0.49359998
0.015967228 -0.1284633 0.49400002
-0.035404433 -0.11960581 0.49200001
0.093051851 -0.1061401 0.49300003
-0.046853088 -0.10400189 0.49100003
0.084054872 -0.10056968 0.49300003
0.086565137 -0.10264209 0.49266669
0.090114221 -0.10400189 0.49100003
0.079873674 -0.095041424 0.49100003
0.082209587 -0.098741151 0.49350002
-0.066457704 -0.09047056 0.49400002
-0.058415938 -0.091260523 0.49133337
0.077953577 -0.09312132 0.49100003
-0.0620846 -0.088909909 0.49250001
0.071346477 -0.08660689 0.49400002
-0.00076905749 -0.020755099 0.49000001
0.00051255396 -0.024788197 0.49400002
-0.002063225 -0.01963664 0.49400002
0.038678203 -0.18548648 0.49899998
0.040846411 -0.18505284 0.49900001
0.018655615 -0.17524117 0.49700001
0.022958694 -0.17757252 0.49900001
0.025652096 -0.17799617 0.49866667
0.017935295 -0.17389074 0.49500003
0.043419238 -0.16586202 0.49866667
0.048256315 -0.166632 0.49759999
0.052380066 -0.16628264 0.49733332
0.05710797 -0.16618943 0.49900001
0.025159456 -0.16374043 0.4975
0.039085425 -0.16152821 0.49866667
0.0419656 -0.16297856 0.49685714
0.04761672 -0.164212 0.49500003
0.052860949 -0.16446079 0.49575001
0.057881247 -0.16314569 0.49633336
0.062166631 -0.16212513 0.49783334
0.037774321 -0.15730236 0.49712503
0.040518988 -0.15905002 0.49500003
0.063446544 -0.1589403 0.49600002
0.066148743 -0.15822452 0.49850002
0.028458428 -0.15107726 0.49850002
0.032551002 -0.15181363 0.49750003
0.036244892 -0.15278435 0.49612504
0.067201398 -0.1518178 0.4966667
0.019322239 -0.14558613 0.4975
0.022401506 -0.14769526 0.4975
0.026760608 -0.1485589 0.49628571
0.031485509 -0.14872605 0.49500003
0.068574853 -0.14753564 0.49657145
0.071154058 -0.14636119 0.49866667
0.014364558 -0.14097196 0.498
0.017912894 -0.14283298 0.49644449
0.021161536 -0.14485456 0.49500003
0.038368154 -0.14184339 0.49500003
0.042196635 -0.14201547 0.49500003
0.04568097 -0.14098307 0.49500003
0.068909906 -0.14356406 0.49500003
0.071846277 -0.14254424 0.49744448
0.0091777155 -0.13587014 0.49833336
0.012489521 -0.13772431 0.49662504
0.01599955 -0.13969257 0.49500003
0.02374253 -0.13582109 0.49500003
0.026968772 -0.13582109 0.49500003
0.032130755 -0.13582109 0.49500003
0.037583753 -0.13760683 0.49562499
0.042600531 -0.13757986 0.49670005
0.047307514 -0.13714366 0.49600005
0.051488206 -0.13582109 0.49500003
0.072789468 -0.13774215 0.49650002
0.07597138 -0.13561769 0.49900001
0.0044205161 -0.13041399 0.49900001
0.0078467317 -0.13233522 0.49644449
0.011267729 -0.13410042 0.49500003
0.019548416 -0.13162696 0.49500003
0.022497823 -0.13286053 0.49600002
0.026946357 -0.13247526 0.4964737
0.032150794 -0.13267748 0.49531248
0.037403077 -0.13265443 0.49643749
0.042766128 -0.13226494 0.49862507
0.048035376 -0.1323355 0.49817652
0.052721892 -0.13234611 0.49650002
0.05799878 -0.132082 0.4955
0.062308747 -0.1316563 0.49528575
0.066974163 -0.13130434 0.49500006
0.072354108 -0.13237043 0.49546158
0.076170668 -0.13187005 0.49860001
0.0034826493 -0.12733506 0.49785712
0.0069702435 -0.12711656 0.49536368
0.014709054 -0.1254971 0.49500003
0.018239573 -0.12743144 0.49571428
0.022562297 -0.12805422 0.49741673
0.027273038 -0.12771574 0.49784628
0.032256443 -0.12793139 0.49693757
0.037414964 -0.1277989 0.49768758
0.0427978 -0.12716168 0.49900004
0.047587562 -0.12769388 0.49900004
0.053042203 -0.12786409 0.49869999
0.057017796 -0.12761061 0.49822229
0.062014282 -0.12785038 0.4966251
0.067135081 -0.12773784 0.49618742
0.072265126 -0.12765713 0.49587497
0.077077001 -0.12700403 0.4986667
-0.036414698 -0.12211182 0.49700004
-0.00078318303 -0.12260845 0.49900001
0.0024206918 -0.12238356 0.49747062
0.0076228548 -0.12245385 0.49574995
0.012794519 -0.12246938 0.49581254
0.017995477 -0.12267096 0.4966251
0.022562081 -0.12286705 0.4974167
0.027118597 -0.12295047 0.4977501
0.032414738 -0.12244549 0.49778953
0.037352767 -0.12295895 0.49866673
0.042797796 -0.1232589 0.49900004
0.046050109 -0.12390937 0.49900001
0.057906251 -0.12339015 0.49887502
0.061992459 -0.12255398 0.49761117
0.067253463 -0.12278007 0.49706262
0.072607428 -0.12237987 0.49752632
0.076836348 -0.12266403 0.49870005
-0.035692275 -0.11928511 0.49600002
0.0035507146 -0.11884233 0.49866673
0.0077882218 -0.11796226 0.49806678
0.012854273 -0.1178461 0.49812508
0.017778443 -0.11808721 0.49835724
0.022252051 -0.11781784 0.49878576
0.027163109 -0.11795048 0.49856257
0.031733841 -0.11790109 0.49890003
0.03564271 -0.11870568 0.49900001
0.063297398 -0.11863697 0.49871436
0.067288771 -0.11873648 0.49863642
0.071707919 -0.11897079 0.49875003
0.10459173 -0.11610383 0.49900001
-0.048623309 -0.1128196 0.49600002
0.011575602 -0.1148029 0.49900001
0.027837163 -0.1148029 0.49899998
0.098591328 -0.11001115 0.49500003
0.08815185 -0.1054846 0.49800003
0.091953076 -0.10732356 0.4975
0.095844775 -0.10926975 0.4975
0.083247587 -0.10172693 0.49739999
0.086889423 -0.10440725 0.49700001
0.078699678 -0.096348651 0.49775004
0.080768391 -0.098049611 0.49650002
-0.056864686 -0.092684783 0.49700004
0.073320515 -0.091325201 0.49866667
0.076482512 -0.093423046 0.49600002
-0.066131145 -0.088172831 0.498
-0.062184408 -0.087412924 0.49727279
-0.059205912 -0.089254335 0.49800003
-0.061926648 -0.083905935 0.49900001
0.041978408 -0.056035791 0.49700001
0.00051774172 -0.026340013 0.49900001
-0.0012142089 -0.024091654 0.49733338
-0.0033782492 -0.019795641 0.49800003
0.032057971 -0.19150594 0.50400001
0.023517232 -0.18559311 0.50400001
0.028097497 -0.18663834 0.5036667
0.03250182 -0.18767476 0.50307697
0.036475658 -0.18663369 0.50150007
0.018467871 -0.18196906 0.50366664
0.022120766 -0.18230182 0.50216669
0.026947409 -0.18321352 0.50180006
0.03279179 -0.18392318 0.50183338
0.037826993 -0.18344994 0.50209999
0.06490697 -0.18033728 0.50400001
0.067489795 -0.18175007 0.5036667
0.014917061 -0.17569542 0.50200003
0.01754267 -0.17841478 0.50228572
0.021080166 -0.17884785 0.50075006
0.034662951 -0.17759097 0.5036667
0.036310486 -0.17893386 0.50375003
0.064343847 -0.17733394 0.50400001
0.067834519 -0.17733945 0.5031876
0.071773924 -0.17649329 0.50214291
0.043226633 -0.17113955 0.50400001
0.047026828 -0.17063022 0.50250006
0.052320343 -0.17145698 0.50300002
0.057637766 -0.1716692 0.50362498
0.06319882 -0.17219074 0.50400007
0.067347184 -0.17282893 0.50400001
0.072092853 -0.1732928 0.50371438
0.075418659 -0.17245352 0.50400001
0.027995061 -0.16760412 0.50185716
0.038958278 -0.16738354 0.50342858
0.042541571 -0.1682511 0.50174999
0.047445923 -0.16847776 0.5
0.052660052 -0.16847776 0.5
0.057772677 -0.16837978 0.50099999
0.062954977 -0.16795081 0.50292313
0.066483729 -0.16746046 0.50400001
0.026276385 -0.1640238 0.50233334
0.034685891 -0.16062787 0.50400001
0.037734974 -0.16302741 0.50214291
0.063173294 -0.16435122 0.50066668
0.067507312 -0.16260612 0.50280011
0.01232407 -0.15506376 0.50300002
0.027459111 -0.15602902 0.50400001
0.033106778 -0.15715297 0.5022223
0.036220077 -0.15923639 0.50099999
0.068146653 -0.15779158 0.50125003
0.070456497 -0.15726526 0.50374997
0.011450703 -0.15287901 0.50300002
0.017604409 -0.15011619 0.50400001
0.02246972 -0.15216543 0.50262499
0.027315281 -0.15325667 0.50137502
0.031182278 -0.15429306 0.50050002
0.069745176 -0.15314279 0.50099999
0.072519809 -0.15202537 0.50325
0.014946776 -0.14654127 0.50300002
0.017337609 -0.14756911 0.50171435
0.020111902 -0.14922264 0.50100005
0.072842725 -0.14779636 0.50133342
0.075368784 -0.1473916 0.50366664
0.09437307 -0.14892478 0.5
0.013340622 -0.14318207 0.50180006
0.07489492 -0.14189777 0.50050002
0.076747075 -0.1424723 0.50285715
0.0077219103 -0.13783281 0.50233334
0.010947034 -0.13980007 0.5
0.077941783 -0.13748223 0.50225002
0.0040028542 -0.13224371 0.50099999
0.0057386397 -0.13406876 0.50050002
0.078235954 -0.1328959 0.50100005
0.080962971 -0.1323124 0.50374997
-0.0011175587 -0.12713543 0.50275004
0.001041336 -0.12770107 0.50059998
0.048314944 -0.12633024 0.5
0.051095814 -0.12598263 0.5
0.078730687 -0.12872005 0.5
0.08144661 -0.12723792 0.50244445
-0.038088456 -0.1226899 0.50200003
-0.0020996621 -0.12245376 0.50209999
0.038321201 -0.12057297 0.5
0.042883568 -0.12089885 0.5
0.047590304 -0.12209022 0.50027269
0.052060299 -0.12232327 0.50049996
0.056728058 -0.12128767 0.5001111
0.078348666 -0.12076177 0.50033337
0.081590869 -0.12257833 0.50227273
-0.047998171 -0.11572316 0.50300002
-0.0018105608 -0.11819872 0.50300002
0.0021529673 -0.11673423 0.50124997
0.0072994381 -0.11533968 0.50019997
0.014205864 -0.11503296 0.5
0.017464692 -0.11503296 0.5
0.022027053 -0.11503296 0.5
0.025285883 -0.11503296 0.5
0.033126365 -0.11584358 0.50028569
0.037866041 -0.11705922 0.50086665
0.042866707 -0.11742988 0.50133336
0.047390565 -0.11719603 0.50153846
0.052177317 -0.11736668 0.501625
0.057328809 -0.11720654 0.50093746
0.062078182 -0.1164413 0.50045449
0.067928053 -0.11600424 0.50044441
0.072864801 -0.11731414 0.5
0.077259362 -0.11856385 0.50060004
0.08109007 -0.11953828 0.50250006
0.10631708 -0.11787532 0.50100005
-0.051125593 -0.11407062 0.50150001
0.0035848415 -0.11364957 0.50350004
0.0077208471 -0.11227436 0.50225002
0.012928138 -0.11199573 0.50099999
0.017517086 -0.11210816 0.50150001
0.02210415 -0.1121631 0.50174999
0.027301986 -0.11202384 0.50112504
0.032562096 -0.11213544 0.501625
0.037915591 -0.11249921 0.50325006
0.04254128 -0.11259273 0.5036667
0.047127813 -0.11256929 0.50356257
0.05239835 -0.11261148 0.50375003
0.057393827 -0.11275604 0.50314295
0.062351771 -0.11352597 0.50157148
0.066479832 -0.1139569 0.50100005
0.077783786 -0.11096017 0.50400001
0.080674492 -0.11069739 0.50400001
0.093501262 -0.11033133 0.50233334
0.097364582 -0.11156686 0.50200003
0.10038389 -0.11332531 0.50400001
0.0087351799 -0.10905494 0.50400001
0.013322963 -0.10786974 0.50358343
0.017592767 -0.10799711 0.50366664
0.022416936 -0.10848333 0.50388891
0.02744095 -0.10799712 0.5036667
0.032693967 -0.10799734 0.5036667
0.036875825 -0.10850745 0.50400001
0.043445628 -0.10894544 0.50400001
0.047168512 -0.10872643 0.50400001
0.051767375 -0.10938343 0.50400001
0.06490697 -0.1067555 0.50400001
0.067972876 -0.10719349 0.50400001
0.072312936 -0.10795002 0.50400007
0.077743359 -0.10776626 0.50400007
0.082262501 -0.10701427 0.50366664
0.087661304 -0.10777626 0.50262505
0.091477402 -0.10894937 0.50200003
0.078587212 -0.10240944 0.50385714
0.081620485 -0.10284574 0.50175005
-0.053736571 -0.095766425 0.50150001
0.077302858 -0.097735323 0.50237501
0.080194294 -0.09958937 0.50100005
-0.057120152 -0.091699407 0.50250006
-0.054554936 -0.094741516 0.50300002
0.072621375 -0.092744403 0.50283337
0.075119376 -0.094553165 0.50200003
-0.067374915 -0.087572902 0.50325
-0.062093854 -0.085542947 0.50033337
-0.058325127 -0.087287694 0.50263637
0.070980415 -0.088399529 0.50050002
-0.065175071 -0.083104223 0.50400001
-0.062534623 -0.082407735 0.50155562
-0.057801805 -0.082240969 0.50275004
-0.050721511 -0.071278587 0.50400001
-0.049407553 -0.071935564 0.50400001
0.00577877 -0.031859782 0.50400001
-0.0021022062 -0.025694517 0.50333333
-0.0041916738 -0.022835447 0.50199997
0.019106053 -0.1900883 0.509
0.023066854 -0.19201206 0.50857139
0.027435349 -0.19207166 0.50690913
0.030805012 -0.19254419 0.505
0.04896345 -0.1900883 0.509
0.051838607 -0.19053064 0.509
0.062233403 -0.1900883 0.509
0.084128827 -0.1900883 0.509
0.08545582 -0.1900883 0.509
0.013798071 -0.18610731 0.509
0.017073384 -0.18699346 0.50779998
0.022043604 -0.18806253 0.50639999
0.026552105 -0.18845208 0.50550002
0.043279018 -0.18631862 0.50716668
0.047110435 -0.18768799 0.5088889
0.050953943 -0.18876131 0.509
0.058584165 -0.18710256 0.509
0.062243342 -0.18721417 0.50784612
0.065668665 -0.18717547 0.50650001
0.084128827 -0.18876131 0.509
0.086119317 -0.18876131 0.509
0.013209996 -0.18225026 0.50828576
0.016345385 -0.18277664 0.50575006
0.038704414 -0.18069509 0.505
0.042297814 -0.18220237 0.50699997
0.045911361 -0.18292253 0.509
0.054934926 -0.18146282 0.509
0.057531476 -0.18261136 0.50849992
0.061768625 -0.18233609 0.50646156
0.065726236 -0.18341897 0.50524998
0.013302393 -0.17832743 0.50700003
0.015021063 -0.17889783 0.50550002
0.033877 -0.17586768 0.505
0.037722126 -0.17708555 0.50555563
0.042038236 -0.17775621 0.50730765
0.046707559 -0.17734915 0.509
0.053375583 -0.17743027 0.50837505
0.05795579 -0.1772421 0.50641668
0.062004089 -0.17730178 0.50533336
0.033160936 -0.17245866 0.50650001
0.037467401 -0.17250657 0.50608337
0.041824128 -0.1734367 0.50610006
0.047355689 -0.17379875 0.50599998
0.052683096 -0.17462942 0.50650001
0.057822268 -0.17419845 0.50524998
0.06174434 -0.17411225 0.505
0.068327174 -0.17082083 0.505
0.072276868 -0.17060138 0.50500005
0.076652519 -0.17075655 0.50520003
0.029517639 -0.16703439 0.50550002
0.032945298 -0.16771699 0.50756252
0.036655571 -0.16805865 0.50580007
0.068458833 -0.16779272 0.505
0.072402596 -0.16715929 0.50587505
0.077678166 -0.16730997 0.5067333
0.081154704 -0.16621023 0.50700003
0.024414035 -0.16089439 0.509
0.0279634 -0.1624779 0.50760001
0.0327502 -0.16314325 0.50736362
0.036071278 -0.16423798 0.505
0.072651982 -0.16255373 0.50653851
0.077604309 -0.16283989 0.50838459
0.081935562 -0.16242836 0.50869226
0.086076692 -0.16147822 0.50874996
0.013770963 -0.15594165 0.50800002
0.016901808 -0.15708601 0.50799996
0.022531221 -0.1576139 0.50736362
0.027135476 -0.15823989 0.5061667
0.031285405 -0.15940188 0.50566667
0.073080637 -0.15796734 0.50600004
0.077600881 -0.15772985 0.50890905
0.08213833 -0.1575769 0.50899994
0.087075725 -0.15719575 0.50892299
0.090674654 -0.15609579 0.50849998
0.0084643736 -0.15164715 0.50766665
0.012829217 -0.15267266 0.50814283
0.017034709 -0.15289159 0.50666672
0.02072471 -0.15402676 0.50533336
0.074325249 -0.15385829 0.50550002
0.077150613 -0.15277667 0.50760001
0.080590166 -0.15271127 0.509
0.087888651 -0.15359592 0.509
0.093019694 -0.15279973 0.50899994
0.0098170843 -0.14629745 0.509
0.012423058 -0.14751895 0.50711113
0.015035922 -0.14939272 0.50600004
0.078348808 -0.14759964 0.50688887
0.081032507 -0.14762445 0.509
0.096353889 -0.14902836 0.50700003
0.0045091035 -0.14098947 0.509
0.0077956826 -0.14244741 0.50709999
0.011056504 -0.14383121 0.505
0.079346314 -0.14312665 0.50600004
0.081810452 -0.14235167 0.50833338
0.0027932909 -0.13700162 0.50757152
0.0058017019 -0.13883933 0.50600004
0.07951799 -0.13988149 0.505
0.082188666 -0.13719866 0.50725001
-0.0017915111 -0.13137642 0.50775003
0.0018420905 -0.13435289 0.50650001
0.083271116 -0.13276967 0.50700003
0.08545582 -0.13037351 0.509
-0.039281745 -0.12639253 0.509
-0.0065491912 -0.12639253 0.509
-0.003882068 -0.12765826 0.50700003
0.084017612 -0.12776171 0.50566667
0.086416677 -0.12703766 0.50840002
-0.040608741 -0.12373853 0.509
-0.039127398 -0.12457412 0.50700003
-0.0069175838 -0.12221601 0.50749999
-0.0047423015 -0.12210784 0.505
0.084896185 -0.12292819 0.50566667
0.087054648 -0.12393689 0.50800008
-0.05244932 -0.11643203 0.50799996
-0.049505584 -0.11618329 0.505
-0.037880182 -0.1168735 0.50800002
-0.0072895749 -0.11795471 0.50809997
-0.0037283343 -0.1166099 0.50622225
0.087706782 -0.11524583 0.50666672
0.091789737 -0.11626186 0.50880003
0.09739878 -0.11577656 0.509
0.10581465 -0.11885877 0.50800002
-0.057518665 -0.11113667 0.50600004
-0.054826085 -0.1130043 0.50550002
-0.0061068595 -0.11444957 0.509
-0.00200272 -0.11313829 0.50799996
0.0018444572 -0.11194614 0.50646156
0.083271019 -0.11232301 0.50540006
0.087610036 -0.11248083 0.50611115
0.091979966 -0.11276543 0.50620002
0.097436115 -0.11391643 0.50779998
-0.045826513 -0.10627838 0.50800002
-0.044589728 -0.10781459 0.509
0.0031742917 -0.10786116 0.50809091
0.0074451095 -0.10721738 0.50566667
0.01204393 -0.1059799 0.505
0.017639339 -0.10565075 0.505
0.021965204 -0.106215 0.50500005
0.027513593 -0.10565075 0.505
0.032779861 -0.10565075 0.505
0.037826698 -0.10652846 0.50500005
0.041453864 -0.1074236 0.50508338
0.045945533 -0.10696732 0.505
0.062442943 -0.10572049 0.50533336
0.067169584 -0.10595591 0.50520003
0.072276875 -0.10565075 0.505
0.07600715 -0.10608961 0.505
0.083467692 -0.10960045 0.505
0.086759105 -0.10960045 0.505
-0.051224701 -0.10250661 0.509
-0.049897708 -0.1038336 0.509
0.0041751396 -0.10378195 0.50874996
0.0078039831 -0.10288929 0.50762498
0.012407565 -0.10264531 0.50641668
0.017003605 -0.10249732 0.50568759
0.022291381 -0.10256205 0.50600004
0.027421629 -0.10263887 0.50573337
0.032554977 -0.10340282 0.50560004
0.037095726 -0.1041077 0.50550002
0.04792038 -0.1003845 0.505
0.052830003 -0.10141826 0.50577784
0.057765778 -0.10262808 0.50607693
0.062210325 -0.10247353 0.50650001
0.067251369 -0.10272486 0.50681251
0.072473183 -0.10263707 0.50637501
0.076301396 -0.10246068 0.50550002
-0.054106724 -0.097257309 0.50700003
0.0088692307 -0.098715194 0.509
0.012460653 -0.097780824 0.50858325
0.016879108 -0.098328106 0.50736362
0.021894841 -0.099019684 0.50700003
0.034231469 -0.095494933 0.50700003
0.037498035 -0.096060783 0.50650001
0.042231206 -0.096828707 0.50600004
0.047291595 -0.097152106 0.50531256
0.052632391 -0.097285353 0.50600004
0.057278428 -0.097333521 0.50625002
0.062051147 -0.097573236 0.50749999
0.067408688 -0.09766987 0.50799996
0.072390862 -0.097559206 0.5067333
0.075643122 -0.098507732 0.50550002
-0.069391236 -0.09134905 0.50600004
-0.05564836 -0.091529585 0.50700003
-0.053813625 -0.092309996 0.50840008
0.019106053 -0.090563647 0.509
0.022687715 -0.091055356 0.50857145
0.027796328 -0.091801569 0.5073846
0.032955207 -0.092314906 0.50768745
0.037572503 -0.092280306 0.50749999
0.042130973 -0.092120819 0.506625
0.047456026 -0.092199162 0.50706255
0.052680772 -0.092453308 0.50773329
0.057324696 -0.093221635 0.50812501
0.062203486 -0.093834698 0.50875002
0.067815393 -0.092798114 0.50838459
0.070732392 -0.092439979 0.50620002
-0.068251431 -0.086296551 0.50733334
-0.056125443 -0.087277256 0.50533336
-0.053048965 -0.087214276 0.50792307
0.023418788 -0.088904902 0.509
0.027830925 -0.087274887 0.5083999
0.032709155 -0.087311991 0.50828564
0.036991134 -0.087574385 0.5086
0.042297777 -0.088507406 0.50862503
0.046972957 -0.089236654 0.509
0.069531873 -0.089236654 0.509
0.070650056 -0.088311486 0.50750005
-0.066400237 -0.083542198 0.50666672
-0.06358166 -0.080955334 0.50700003
-0.05313221 -0.082562216 0.5064286
-0.049565956 -0.082269929 0.509
-0.061329283 -0.079380989 0.50750005
-0.057443839 -0.077967584 0.50649995
-0.052907847 -0.077507049 0.50606251
-0.048174992 -0.077460162 0.50807691
-0.055151463 -0.07390289 0.50849998
-0.052408494 -0.073044531 0.50600004
-0.047327053 -0.073614225 0.50585717
-0.044589728 -0.0746397 0.509
-0.046238776 -0.065619282 0.50766665
-0.042233143 -0.066255912 0.50779998
-0.038750947 -0.066412337 0.509
-0.04214317 -0.063560449 0.50883335
-0.037101682 -0.062317602 0.50899994
0.031049011 -0.056061771 0.509
-0.031888485 -0.053028636 0.509
-0.02966103 -0.051749032 0.509
0.026961669 -0.051876146 0.50700003
-0.029992778 -0.049426794 0.509
0.020392904 -0.04535652 0.50800002
0.0038349247 -0.031420141 0.50750005
0.0071490216 -0.033437029 0.50800002
-0.011149443 -0.026071673 0.509
-0.0074221194 -0.026162557 0.50816673
-0.0031776589 -0.026784455 0.50740004
0.00052811729 -0.02952186 0.509
-0.010751344 -0.02421388 0.509
-0.0072478326 -0.022979692 0.507375
0.013852288 -0.19083522 0.51100004
0.01768925 -0.19219069 0.51066673
0.021553453 -0.19407125 0.5104
0.053713258 -0.19046177 0.51000005
0.057258863 -0.19090497 0.51000005
0.060361274 -0.19112659 0.51000005
0.084294118 -0.19445059 0.51000005
0.087785706 -0.19186711 0.51020008
0.092432849 -0.19212593 0.51088899
0.09711539 -0.19216745 0.5110001
0.10044591 -0.19349964 0.51100004
0.0094235791 -0.18730526 0.51166672
0.012250666 -0.18773511 0.51090014
0.015154784 -0.18913218 0.51000005
0.048838049 -0.18602978 0.51000005
0.052504528 -0.18695647 0.51000011
0.056076996 -0.18765485 0.51000005
0.088803492 -0.18751554 0.51012504
0.092467964 -0.18753494 0.51108342
0.096873678 -0.18747272 0.51161546
0.1026447 -0.18720421 0.51200002
0.10664915 -0.18720421 0.51200002
0.0045445384 -0.18088274 0.51300001
0.0080011291 -0.18232712 0.51180011
0.011165976 -0.18248415 0.51000005
0.048708998 -0.1819967 0.51050007
0.052301269 -0.1823961 0.51050007
0.055042859 -0.18381375 0.51000005
0.092574142 -0.18441443 0.51166672
0.0035439448 -0.1770422 0.51349998
0.007677603 -0.17742911 0.51185721
0.011165976 -0.17783055 0.51000005
0.047730044 -0.17916015 0.51000005
0.052383658 -0.17938174 0.51000005
0.0028756233 -0.17252469 0.51366663
0.0074650841 -0.17398617 0.51160002
0.0025433511 -0.16917506 0.514
0.021845547 -0.16152661 0.51100004
0.019143591 -0.15988092 0.51000005
0.020473193 -0.15988092 0.51000005
0.0045401091 -0.15064308 0.51250005
0.0082621155 -0.15125348 0.51140004
0.011616475 -0.15155938 0.51033336
0.083230443 -0.15230218 0.51000011
0.087386042 -0.15182939 0.51020014
0.092005812 -0.15110555 0.51000005
0.0035384749 -0.14750557 0.51262504
0.007499916 -0.14796442 0.51123083
0.08351732 -0.14766437 0.51066667
0.08783336 -0.14760977 0.51125008
0.092671119 -0.14771283 0.51107705
0.096449032 -0.14713693 0.5110001
0.0024706002 -0.1427193 0.51218182
0.0058475654 -0.14392568 0.51000005
0.084160417 -0.14255279 0.51080006
0.08729814 -0.14287134 0.51272732
0.092265524 -0.14362039 0.51366663
0.097590111 -0.14384136 0.51349998
0.1010356 -0.14237444 0.514
-0.0061668484 -0.13567428 0.514
-0.002591518 -0.13713437 0.51333332
0.0015280462 -0.13887841 0.51100004
0.084294118 -0.13794246 0.51000005
0.086917087 -0.13774076 0.51314288
-0.01018694 -0.13031416 0.514
-0.0073315511 -0.13233066 0.51337498
-0.0032995178 -0.13315248 0.51075006
0.087108418 -0.13277745 0.51187503
0.090315364 -0.13098417 0.514
-0.040808193 -0.12634721 0.5115
-0.011349232 -0.12734342 0.51349998
-0.0078486139 -0.1279128 0.51128578
0.088678926 -0.12777731 0.51100004
0.091584593 -0.12753478 0.51359999
-0.042265289 -0.12337352 0.51300001
-0.030169554 -0.12046339 0.51200002
-0.028598282 -0.12288387 0.51374996
-0.015547063 -0.12160396 0.514
-0.012294308 -0.12267979 0.51233333
-0.0087780626 -0.12331684 0.51000005
0.089612529 -0.12398165 0.51000005
0.098929882 -0.12081631 0.51349998
0.10299455 -0.12087513 0.51375002
0.10613568 -0.12164357 0.51274997
-0.055585299 -0.11724269 0.51250005
-0.052895848 -0.11876119 0.51233339
-0.036915597 -0.1166864 0.51300001
-0.032341138 -0.11873321 0.5126
-0.015547063 -0.11959392 0.514
-0.011907952 -0.11751463 0.51225007
-0.0081218677 -0.11611776 0.51050007
0.093784869 -0.1188959 0.51100004
0.097863495 -0.1182351 0.51142865
0.10224426 -0.1179288 0.51200002
-0.05741962 -0.11323532 0.51100004
-0.01018694 -0.1142338 0.514
-0.0074881818 -0.11260295 0.51269233
-0.0039086794 -0.11171714 0.51066667
-0.046807051 -0.10567711 0.5115
-0.043989252 -0.10852325 0.51233333
-0.0061668484 -0.10887367 0.514
-0.0026761196 -0.10795675 0.51220006
0.0010614109 -0.10651405 0.51040006
-0.053067923 -0.1015035 0.514
-0.048952408 -0.10464959 0.51300001
-0.0015711881 -0.10339735 0.51342857
0.0021699928 -0.10199065 0.51153857
0.0058475654 -0.1000488 0.51000005
-0.05156932 -0.096966214 0.5124445
-0.049047831 -0.095473364 0.514
0.0029995525 -0.097446874 0.51300001
0.0070360932 -0.096903004 0.51055557
-0.07182835 -0.091453269 0.514
-0.051660407 -0.092729911 0.51070011
-0.04726788 -0.092185847 0.51359999
0.0036570905 -0.093625605 0.51366669
0.0077225594 -0.094382718 0.51100004
0.011165976 -0.094730392 0.51000005
0.057481922 -0.091078669 0.51040012
0.062508509 -0.091629758 0.51125008
0.066209599 -0.091303401 0.51066673
-0.070952639 -0.087848037 0.51250005
-0.069939785 -0.088082373 0.51000005
-0.050709561 -0.089499637 0.51050007
-0.047985069 -0.087502338 0.51126677
-0.043800786 -0.087160006 0.51337498
0.0092386827 -0.086720645 0.51374996
0.012569081 -0.087261334 0.51300001
0.017213603 -0.087746665 0.51193756
0.022170387 -0.087004028 0.51083344
0.025791602 -0.085423172 0.51000005
0.038128097 -0.085839316 0.51050007
0.042517211 -0.086297989 0.51125002
0.047709323 -0.087407306 0.51172733
0.052149191 -0.0881387 0.51245457
0.057138458 -0.089025378 0.51288891
0.063148931 -0.089704975 0.51319999
0.067836791 -0.088106304 0.51208335
0.070078298 -0.085925654 0.51300001
-0.064874783 -0.080418892 0.51200002
-0.047125269 -0.082462192 0.51060009
-0.042931553 -0.082582906 0.51300001
-0.039667618 -0.080733031 0.514
0.013263596 -0.084753118 0.514
0.017283689 -0.084753118 0.514
0.023105659 -0.083771646 0.513125
0.027886067 -0.082680427 0.51185715
0.032226738 -0.08240325 0.5119167
0.037015624 -0.083451286 0.51260006
0.042310048 -0.084419161 0.51359999
-0.061720584 -0.078141846 0.51166672
-0.05856986 -0.075870007 0.51133341
-0.046006937 -0.07877516 0.51000005
-0.042798992 -0.077661335 0.51141673
-0.039100736 -0.078260757 0.51359999
-0.056170061 -0.073038131 0.51175004
-0.054090403 -0.070936359 0.51100004
-0.043347728 -0.07478635 0.51000005
-0.035508819 -0.071075179 0.51200002
-0.032945212 -0.070859857 0.51366663
-0.048761562 -0.065607525 0.51100004
-0.03645486 -0.067780063 0.51030004
-0.032386974 -0.067508809 0.51242864
-0.02894737 -0.066662706 0.514
-0.046758406 -0.063648425 0.51240003
-0.04264259 -0.061502691 0.51150006
-0.038732708 -0.060219705 0.51050007
-0.032118037 -0.062300742 0.51118755
-0.028356981 -0.062321387 0.51371425
0.043245364 -0.060396645 0.51200002
-0.041007645 -0.059292536 0.514
-0.037325617 -0.057365336 0.51153857
-0.032071095 -0.057548713 0.51041681
-0.027415736 -0.057323623 0.51272732
-0.024927277 -0.055942457 0.514
0.029897196 -0.056392197 0.51200002
0.032503221 -0.057614263 0.51100004
-0.035804562 -0.053227998 0.51240003
-0.033187483 -0.052898202 0.51050001
-0.027445052 -0.052729495 0.51100004
-0.023956256 -0.052372091 0.51371425
0.024653858 -0.05125235 0.514
0.027190372 -0.053650871 0.51133341
-0.031846415 -0.048560329 0.51212502
-0.027477324 -0.047673687 0.51158339
-0.022882489 -0.047832381 0.51324999
-0.019031141 -0.046964251 0.514
0.021471858 -0.04844803 0.51266664
-0.026267309 -0.044552196 0.514
-0.022341939 -0.04273133 0.5135833
-0.01765294 -0.042321954 0.51293337
-0.014207033 -0.040532105 0.514
-0.021745728 -0.037307758 0.51266664
-0.017475013 -0.037297457 0.51164293
-0.013362604 -0.036662087 0.51374996
-0.020886848 -0.033129029 0.51349998
-0.01748343 -0.032731839 0.51178581
-0.012149875 -0.032372285 0.51208335
-0.0076646032 -0.032286212 0.51337498
-0.0032165889 -0.031395651 0.51359999
0.002088689 -0.032154869 0.51216668
0.0058590309 -0.033634491 0.51100004
-0.016259825 -0.028376499 0.51228577
-0.012533992 -0.028270878 0.5103637
-0.007459762 -0.028962962 0.51083332
-0.003089085 -0.029092144 0.51142853
-0.011861037 -0.023014236 0.51185715
-0.0083626788 -0.020782964 0.51166672
0.10472459 -0.18164527 0.51900005
0.10607765 -0.18164527 0.51900005
-0.00080829521 -0.17084683 0.51500005
0.00053434272 -0.17084683 0.51500005
-0.00080829521 -0.16816156 0.51500005
0.00053434272 -0.1695042 0.51500005
-0.057532281 -0.15090993 0.51800001
-0.032259408 -0.15081348 0.51800007
-0.028722489 -0.15068486 0.51800001
-0.071850553 -0.14781862 0.51900005
-0.067501403 -0.14723873 0.51900005
-0.062379085 -0.14714208 0.51900005
-0.057643354 -0.14714208 0.51900005
-0.053584147 -0.14781862 0.51900005
-0.032559913 -0.14735554 0.51816672
-0.028424496 -0.14715448 0.51666671
-0.032918911 -0.14294396 0.51850003
-0.029116325 -0.14455327 0.51700002
-0.0061908443 -0.14023794 0.51600003
-0.0029256833 -0.14139064 0.51600003
0.089148439 -0.14130881 0.51500005
0.092594847 -0.14077337 0.51550007
0.09773542 -0.1412807 0.51544452
0.1024502 -0.14077337 0.51550007
0.1052601 -0.14130881 0.51500005
-0.038422279 -0.13630767 0.51785713
-0.0061788466 -0.1372809 0.51500005
-0.0034967011 -0.1391608 0.51533335
0.089234985 -0.13808614 0.51550007
0.092723332 -0.13765639 0.51683342
0.097262941 -0.13704124 0.51735723
0.10203166 -0.13734245 0.5165
0.10728881 -0.13751251 0.51587492
0.1116268 -0.13566026 0.5165
-0.045916781 -0.13067977 0.51900005
-0.0425197 -0.13254261 0.51812506
-0.039783381 -0.13271102 0.51550007
-0.017141819 -0.13182209 0.51662499
-0.012462337 -0.13193192 0.51566672
-0.0088641224 -0.13325298 0.51500005
0.089148439 -0.13459562 0.51500005
0.092434749 -0.13273017 0.51610005
0.097262509 -0.13277847 0.51790917
0.10246928 -0.13264887 0.51707703
0.10743134 -0.133186 0.51663643
0.11136547 -0.13404638 0.51633334
-0.052231088 -0.12616956 0.51900005
-0.046919629 -0.127086 0.51844448
-0.04327007 -0.1277061 0.51700008
-0.02575882 -0.12641869 0.51725006
-0.022092549 -0.127262 0.51733333
-0.017618354 -0.12739669 0.51574999
-0.013899015 -0.12821808 0.51500005
0.094128236 -0.12835117 0.51580006
0.09731219 -0.12918775 0.51700002
0.10114664 -0.12997782 0.51800001
0.10950022 -0.12544024 0.51600003
0.11252703 -0.12577656 0.51600003
0.11510383 -0.12703119 0.51700002
-0.060349483 -0.1207573 0.51900005
-0.05740013 -0.12234665 0.51790911
-0.053227898 -0.12328862 0.51700002
-0.047535222 -0.12358793 0.51628572
-0.043857701 -0.124095 0.51600003
-0.026625575 -0.1221578 0.51700008
-0.022424391 -0.12256905 0.51808339
-0.018187901 -0.12241279 0.51600003
0.10324614 -0.12251187 0.51500005
0.10748235 -0.124095 0.51600003
0.11331593 -0.12385451 0.51500005
-0.060879532 -0.11698832 0.51857144
-0.058162767 -0.11773089 0.51639998
-0.054513812 -0.1198266 0.51500005
-0.036896337 -0.11579605 0.51900005
-0.032472584 -0.11690255 0.51761544
-0.027163336 -0.11789799 0.51833338
-0.022264527 -0.11840487 0.51885718
-0.017634142 -0.11719742 0.517353
-0.014262314 -0.11602354 0.51600003
-0.061464772 -0.11355268 0.51700002
-0.058541723 -0.11445605 0.51500005
-0.042553648 -0.11142108 0.5165
-0.016705537 -0.11359879 0.51875007
-0.012401536 -0.1127126 0.51686674
-0.0088641224 -0.11042813 0.51500005
-0.046635795 -0.10591573 0.51700002
-0.043576669 -0.10837049 0.51800007
-0.011324628 -0.1082893 0.51833338
-0.0076688635 -0.10722581 0.51663643
-0.0048409039 -0.10583089 0.51550007
0.10452279 -0.10566956 0.51800001
-0.051062167 -0.10218277 0.51540005
-0.047965229 -0.10206769 0.51800007
-0.010286036 -0.1045205 0.51900005
-0.0072749322 -0.10295025 0.51866674
-0.0037758197 -0.10201565 0.51660007
-0.051206231 -0.099783815 0.51550007
-0.04710108 -0.097450823 0.51672739
-0.042747479 -0.096762158 0.51885718
-0.0025495284 -0.097745962 0.51742858
0.00053468853 -0.097063668 0.51533341
-0.073366545 -0.092456803 0.51775002
-0.045592096 -0.093929976 0.51533341
-0.042452887 -0.092491083 0.51666671
-0.038305581 -0.09170337 0.51825005
-0.0014886676 -0.093514562 0.51800007
0.0010722277 -0.09338627 0.51580006
-0.072107844 -0.08777339 0.51600003
-0.041443035 -0.087982126 0.51525009
-0.037769794 -0.087472931 0.51740009
-0.034641225 -0.087607175 0.51900005
0.0041378103 -0.085861959 0.51800007
0.0069943271 -0.085653447 0.51620001
0.048964195 -0.085082904 0.51600003
0.052630626 -0.085682251 0.5161429
0.057983588 -0.086440518 0.51681817
0.062679037 -0.087227218 0.51646149
0.066927604 -0.085777208 0.51671433
-0.037813488 -0.082755342 0.51616675
-0.034032736 -0.081837647 0.5185715
0.0045976914 -0.084224507 0.51900005
0.0084590223 -0.083621874 0.51737499
0.012461209 -0.082248919 0.51707697
0.017392648 -0.08191368 0.51725
0.022204436 -0.081375062 0.51654553
0.026044462 -0.080890104 0.51500005
0.03410029 -0.080890104 0.51500005
0.037887245 -0.080963738 0.51720011
0.042787015 -0.082584962 0.51722223
0.047303546 -0.083669648 0.51744443
0.052112907 -0.083665289 0.51833338
0.057705536 -0.083886236 0.51900005
0.062595323 -0.082536951 0.51860011
0.066796675 -0.084170409 0.51866668
-0.062080555 -0.077086054 0.5165
-0.036440216 -0.078991339 0.51575005
0.023241226 -0.078990705 0.51840007
0.027695501 -0.078769967 0.51762497
0.031971868 -0.078852199 0.51750004
0.035718214 -0.078812249 0.51900005
-0.057532281 -0.071908087 0.51800001
-0.030918738 -0.071844496 0.51560009
-0.027982648 -0.07172291 0.51787508
0.062779538 -0.073399976 0.51900005
-0.052231085 -0.065281585 0.51900005
-0.02654448 -0.067614861 0.51709092
-0.023816697 -0.065958112 0.51900005
-0.050583925 -0.064904228 0.51600003
-0.047327798 -0.062353101 0.51716667
-0.026025839 -0.062871292 0.51587504
-0.022817815 -0.062296774 0.51828569
0.043609638 -0.061806381 0.51633334
-0.042309843 -0.058536727 0.51680005
-0.039821967 -0.056158833 0.51600003
-0.022737546 -0.057754491 0.51650006
-0.019400198 -0.0567705 0.51850003
0.027492154 -0.056269631 0.51700002
0.031536143 -0.058740035 0.51700002
0.046453059 -0.059753958 0.51800001
-0.040053491 -0.05445705 0.51900005
-0.037416521 -0.051982421 0.51683336
-0.021493053 -0.052984219 0.51520002
-0.0179534 -0.052055724 0.51721436
-0.014345235 -0.050397854 0.51900005
0.022809342 -0.051289313 0.51775002
0.026095033 -0.054142267 0.51600003
-0.035994291 -0.049044788 0.51900005
-0.032926288 -0.047042903 0.51683336
-0.016562637 -0.047595467 0.51585716
-0.013355812 -0.047420405 0.51814288
0.019406345 -0.04751141 0.51700002
-0.030523101 -0.044898905 0.51800001
-0.027081447 -0.042767808 0.51675004
-0.02452823 -0.04240115 0.51500005
-0.015577312 -0.044638876 0.51500005
-0.012260205 -0.042773556 0.51678574
-0.0089243632 -0.041563496 0.51850003
-0.025447408 -0.03846582 0.51775002
-0.023679027 -0.036652345 0.51600003
-0.011058622 -0.03780454 0.515625
-0.0075520412 -0.037413929 0.51716679
-0.0031080018 -0.036527626 0.51800001
0.0025631436 -0.035445694 0.51800001
0.0065947147 -0.035343055 0.5165
-0.022552554 -0.032268997 0.51657146
-0.0061788466 -0.033897776 0.51500005
-0.0025371548 -0.033369374 0.51571435
0.0018788871 -0.033963595 0.51600003
-0.021049552 -0.029338328 0.51750004
-0.018494103 -0.027611643 0.51675004
-0.016087959 -0.024144299 0.51700002
-0.012649584 -0.021587342 0.51600003
-0.0082259234 -0.019203044 0.51700002
-0.0021676393 -0.0165712 0.51900005
0.099503674 -0.18063959 0.52000004
0.10289285 -0.18063959 0.52000004
0.10628203 -0.18063959 0.52000004
0.099695027 -0.17894955 0.52100003
0.10262487 -0.17793013 0.52145451
0.10716442 -0.1775901 0.52099997
0.11034906 -0.17589472 0.52000004
0.10383626 -0.17294872 0.52133334
0.10668142 -0.17338842 0.52112502
-0.076733842 -0.14132506 0.52000004
-0.073344663 -0.14132506 0.52000004
-0.076056004 -0.13996938 0.52000004
-0.042164177 -0.13752918 0.52000004
-0.037419319 -0.13942711 0.52000004
-0.034030132 -0.13996938 0.52000004
-0.055148922 -0.1307306 0.52100003
-0.051979601 -0.13186251 0.52099997
-0.048016313 -0.13305549 0.52069229
-0.044197682 -0.1345467 0.52000004
-0.062350765 -0.12713757 0.52158326
-0.057317838 -0.12774919 0.52076918
-0.052365702 -0.12852894 0.52033335
-0.049168486 -0.12867211 0.52000004
-0.066609442 -0.12202884 0.523
-0.062971108 -0.12248689 0.5210833
-0.067138925 -0.11686778 0.52340001
-0.063654341 -0.11785471 0.52112502
-0.038774993 -0.11556727 0.52000004
-0.030640954 -0.11556727 0.52000004
-0.027251769 -0.11556727 0.52000004
-0.022778047 -0.11610954 0.52000004
-0.070493601 -0.11099184 0.52400005
-0.067633115 -0.11282526 0.52299994
-0.064064972 -0.11325727 0.52060002
-0.040778935 -0.11207137 0.52085716
-0.037485067 -0.11237422 0.52091664
-0.032710049 -0.1122982 0.52056247
-0.027275104 -0.11227156 0.52043748
-0.022528557 -0.11228464 0.5205
-0.018113013 -0.11168405 0.52033335
-0.014372875 -0.11014458 0.52000004
-0.076413371 -0.1059828 0.52400005
-0.07259094 -0.10743421 0.523
-0.068929605 -0.10863148 0.52250004
-0.04555336 -0.10607756 0.52000004
-0.041805167 -0.10698612 0.5213846
-0.037587222 -0.10723355 0.52233338
-0.032964151 -0.10735414 0.52149993
-0.0272914 -0.10758752 0.52074999
-0.022545096 -0.10761659 0.52088886
-0.017796215 -0.10763983 0.52099997
-0.0134737 -0.10701533 0.5201667
-0.076299526 -0.10313676 0.52400005
-0.073876202 -0.10256086 0.52280003
-0.045914177 -0.10341591 0.52025008
-0.042425532 -0.10247643 0.52130765
-0.037563235 -0.10240287 0.52200001
-0.03256214 -0.10265102 0.52128565
-0.027304178 -0.10288584 0.52099997
-0.022550195 -0.10288584 0.52099997
-0.017810915 -0.10297101 0.52143747
-0.012495132 -0.10270992 0.52079993
-0.0084982906 -0.10110676 0.52000004
-0.04113245 -0.098218657 0.5204286
-0.037473287 -0.097406954 0.52074999
-0.032737296 -0.097452752 0.52099997
-0.027304176 -0.097452745 0.52099997
-0.022560364 -0.097499169 0.52124995
-0.017844256 -0.097720556 0.52243745
-0.012392658 -0.097673476 0.52218747
-0.007607331 -0.097420476 0.52083331
-0.0048831622 -0.095910013 0.52000004
-0.075740561 -0.092283234 0.52250004
-0.036515534 -0.093424611 0.52000004
-0.032704573 -0.092609785 0.5205
-0.027151186 -0.092503063 0.52107692
-0.022596434 -0.092210181 0.52208334
-0.017884739 -0.092482917 0.52362508
-0.012231303 -0.092778094 0.5236429
-0.0077581499 -0.092492655 0.52263635
-0.0042127161 -0.092668228 0.52083331
-0.075957999 -0.089134224 0.52400005
-0.07423602 -0.088025264 0.52150005
-0.032026518 -0.087860368 0.5205
-0.027480716 -0.087942235 0.52179992
-0.022654144 -0.086986713 0.5234167
-0.018191427 -0.088548757 0.52400011
-0.012206599 -0.089134224 0.52400005
-0.0035546238 -0.08503592 0.52400005
0.0012178859 -0.085824907 0.52050006
-0.071631998 -0.083404563 0.52233332
-0.068995565 -0.080783151 0.523
-0.031687494 -0.082941823 0.5205
-0.027616885 -0.083911121 0.52266669
-0.0013677119 -0.083878122 0.52359998
0.0024466722 -0.082584552 0.52233332
0.007133536 -0.081398807 0.52071428
0.010707079 -0.08031977 0.52000004
0.042620838 -0.080422737 0.52066672
0.047391001 -0.081133083 0.52087498
0.053125776 -0.081590705 0.5212
0.057390593 -0.081622481 0.52074999
0.060754575 -0.081977472 0.52020001
0.065611839 -0.083031118 0.52000004
-0.066723943 -0.078964293 0.52300006
-0.063457988 -0.076592296 0.52233332
-0.025751846 -0.075590752 0.52166671
-0.022926252 -0.075932696 0.52340001
0.0037297744 -0.078635469 0.52383345
0.007497611 -0.077796817 0.52310008
0.012100513 -0.077177718 0.52168745
0.01751907 -0.077076577 0.52099997
0.022762613 -0.076507874 0.52090907
0.027216431 -0.075943388 0.52137506
0.032756992 -0.076184556 0.52139997
0.03761366 -0.077199198 0.5218333
0.042233523 -0.077177659 0.52259994
0.047618132 -0.077428751 0.52337503
0.052533746 -0.077640332 0.52354544
0.056939371 -0.077349156 0.5225333
0.061072152 -0.077184595 0.52174997
-0.060930885 -0.074107103 0.52400005
-0.059451103 -0.072602175 0.523
-0.026051063 -0.073055178 0.52040005
-0.022606168 -0.072510503 0.52233332
-0.019947842 -0.070691854 0.52400005
0.012606393 -0.073628165 0.52383345
0.017593749 -0.073318303 0.52325004
0.022379927 -0.073353335 0.52350003
0.027156722 -0.073353335 0.52350008
0.032615911 -0.073353335 0.52350003
0.037715837 -0.072557777 0.52377784
0.041977186 -0.072402686 0.52307689
0.047686137 -0.072466962 0.52353853
0.052455533 -0.074107103 0.52400005
0.05587079 -0.074107103 0.52400005
0.061778922 -0.074276142 0.52200001
-0.053893883 -0.065658927 0.52200001
-0.022281304 -0.067855842 0.52109998
-0.019363852 -0.066876024 0.523
0.038111471 -0.068642698 0.52400005
0.042252567 -0.067675963 0.52286667
0.047231905 -0.06769257 0.5231539
-0.051220473 -0.063335702 0.52250004
-0.048418526 -0.061536074 0.52166671
-0.021171577 -0.063435435 0.52050006
-0.017998429 -0.062251143 0.52238458
-0.014483435 -0.060446091 0.52400005
0.028293619 -0.061299145 0.52350003
0.031629272 -0.061423618 0.52300006
0.041911013 -0.064026907 0.52200001
0.046852071 -0.063379519 0.52242857
-0.045684762 -0.059475951 0.52149999
-0.043624785 -0.057409696 0.52125001
-0.017258957 -0.057811458 0.52077782
-0.013271147 -0.057474934 0.52337503
0.023438711 -0.056765188 0.52280009
0.026630664 -0.058419656 0.52216673
0.031720016 -0.059984669 0.52000004
-0.040764365 -0.053443313 0.52233332
-0.038924128 -0.051368307 0.52200001
-0.015728548 -0.053884141 0.52000004
-0.012241974 -0.052841041 0.52173328
-0.0086732004 -0.051883679 0.52375007
0.018721264 -0.05169614 0.523
0.022455484 -0.053691201 0.52177775
-0.036918774 -0.048012685 0.52250004
-0.033462673 -0.045216728 0.52166671
-0.010774695 -0.047635108 0.52083337
-0.0079062758 -0.047088023 0.52280003
-0.0049207252 -0.045418974 0.52400005
0.017917812 -0.048377838 0.52275002
-0.031252582 -0.043485414 0.52266669
-0.028908476 -0.041563146 0.5213334
-0.0072182016 -0.042625155 0.52085716
-0.0033936745 -0.042285368 0.5227778
0.00054368074 -0.04132067 0.52400005
-0.026940182 -0.037884183 0.52180004
-0.0024003729 -0.03926079 0.52083343
0.0023977405 -0.038312905 0.52190906
0.0064502493 -0.037606698 0.523
-0.025331417 -0.033016101 0.52233332
-0.023908477 -0.030895695 0.52100003
-0.022356447 -0.027867969 0.52280009
-0.019871702 -0.026193196 0.52200001
-0.017824767 -0.023801707 0.52175003
-0.011702381 -0.01937638 0.52166671
-0.080551259 -0.10675536 0.52500004
-0.077775829 -0.10831417 0.52500004
-0.07404989 -0.10983495 0.52500004
-0.086395644 -0.10346185 0.52600002
-0.082179092 -0.10273973 0.52571434
-0.078384139 -0.10230705 0.52500004
-0.081334814 -0.097497493 0.52675003
-0.078686766 -0.096841335 0.52580005
-0.080667414 -0.091191158 0.528
-0.078250587 -0.092657454 0.52628577
-0.01382672 -0.090673029 0.52500004
-0.077334277 -0.088069104 0.52716666
-0.074876599 -0.085360482 0.52600002
-0.018160965 -0.087023139 0.52500004
-0.01382672 -0.088619962 0.52500004
-0.075161301 -0.084308513 0.528
-0.072293527 -0.082111098 0.52716672
-0.012070348 -0.081520796 0.52600002
-0.0074807205 -0.082158364 0.52557147
-0.0034093286 -0.082156621 0.52500004
-0.067505479 -0.078014202 0.52733332
-0.06402757 -0.075905301 0.52700001
-0.021354618 -0.077670299 0.52500004
-0.017755346 -0.077461548 0.52557147
-0.012494519 -0.07790041 0.52656245
-0.0076920907 -0.07791578 0.5266667
-0.0028819779 -0.07778012 0.52575004
0.0019135304 -0.077000357 0.52510011
0.0067039067 -0.075617239 0.52500004
0.05118693 -0.075617239 0.52500004
-0.061776459 -0.073201992 0.52733332
-0.059678454 -0.071511112 0.52500004
-0.017652886 -0.072450295 0.52542865
-0.012509186 -0.072496042 0.52718747
-0.007707695 -0.072572656 0.52774996
-0.0028895459 -0.072504058 0.52724999
0.0026028254 -0.072365724 0.52625
0.0073958188 -0.072274275 0.52558339
0.011914277 -0.071290813 0.52540004
0.017657287 -0.070843458 0.52512509
0.02246543 -0.070893563 0.5255
0.027240528 -0.070843458 0.52512503
0.032709368 -0.070826761 0.52500004
0.036587376 -0.07059864 0.52500004
0.049818221 -0.070142403 0.52500004
0.05256705 -0.071525961 0.52511114
0.057711367 -0.071951106 0.52592313
0.062124282 -0.072359823 0.52720004
0.065368295 -0.073435098 0.52900004
-0.05599574 -0.065160275 0.52900004
-0.016866075 -0.06763757 0.52528578
-0.01250043 -0.06764102 0.52683336
-0.0077075213 -0.06776192 0.52777773
-0.002893493 -0.067101888 0.52799994
0.0026113882 -0.067069143 0.52774996
0.0074318689 -0.067110412 0.52808332
0.012249538 -0.067107797 0.52806252
0.017747575 -0.067075536 0.52781248
0.022378292 -0.067347154 0.52669996
0.027250739 -0.067447782 0.5253334
0.032709368 -0.067404985 0.52500004
0.037304316 -0.067013927 0.52500004
0.049818221 -0.066036284 0.52500004
0.052697092 -0.067308389 0.52639997
0.057756715 -0.068576023 0.52875006
-0.052643634 -0.062557139 0.52700001
-0.048728786 -0.060561445 0.52500004
-0.015879784 -0.063983217 0.52500004
-0.012333903 -0.062823728 0.52560008
-0.0076916558 -0.062814377 0.5266667
-0.0028881438 -0.06217612 0.52708334
0.0026131908 -0.062274639 0.52791661
0.0072721606 -0.062574401 0.52900004
0.011581963 -0.063781142 0.52900004
0.019511998 -0.062057219 0.52900004
0.02263725 -0.062623024 0.52663636
0.026559774 -0.063323237 0.52520001
0.033241645 -0.063603021 0.52500004
0.037218917 -0.063033737 0.5253334
0.049361985 -0.063298859 0.52500004
0.051381927 -0.064913921 0.52700001
-0.050479192 -0.059643731 0.52900004
-0.047230147 -0.058273472 0.5266
-0.044223085 -0.055612799 0.52566671
-0.010747127 -0.058166206 0.52500004
-0.0076744002 -0.057195175 0.52550006
-0.0028829253 -0.057275724 0.52625
0.0026139622 -0.057451773 0.52787501
0.0066170706 -0.058540422 0.52900004
0.013880524 -0.055966031 0.52900004
0.017869582 -0.057265922 0.52740002
0.021904599 -0.058394063 0.52520007
0.047170483 -0.057934169 0.52600002
-0.042288393 -0.052563936 0.52716666
-0.0068463078 -0.052622937 0.52500004
-0.0028837521 -0.052498337 0.52649999
0.0017547685 -0.052870255 0.52850002
0.013637113 -0.052698191 0.52850002
0.01653818 -0.052889396 0.52583337
-0.040748056 -0.049895272 0.528
-0.038357899 -0.047250852 0.5266667
-0.0062988242 -0.048927423 0.52500004
-0.0027438034 -0.047805332 0.5262
0.0017892083 -0.04745375 0.52840006
0.013862451 -0.049467932 0.52833337
0.016076557 -0.048761431 0.52566671
-0.035931505 -0.044389155 0.528
-0.032436732 -0.042254731 0.52716672
-0.029566867 -0.040030818 0.52500004
-0.0012802264 -0.043680709 0.52500004
0.0029467307 -0.042744383 0.52608335
0.0071157813 -0.041739076 0.52733332
0.011808604 -0.041472387 0.52883333
0.016158406 -0.042580068 0.52833337
-0.029131496 -0.037160166 0.52700007
0.0083062928 -0.038230419 0.5253334
0.011550859 -0.038159251 0.52749997
-0.027153432 -0.032387216 0.52683336
-0.025557734 -0.029191934 0.52700001
-0.023094896 -0.02617934 0.52720004
-0.020789683 -0.023741208 0.528
-0.018196424 -0.022736199 0.52600002
-0.01320912 -0.01868155 0.52766669
-0.0070050852 -0.016810667 0.52649999
-0.0042713266 -0.015482031 0.528
0.097822584 -0.097017452 0.53300005
0.1006017 -0.096918195 0.53300005
0.097822577 -0.094486453 0.53300005
0.1006017 -0.094139062 0.53300005
-0.06784641 -0.077028275 0.53000003
-0.063701183 -0.07426478 0.53000003
0.064110123 -0.07081043 0.53000003
0.065491863 -0.0715013 0.53000003
-0.057591792 -0.065406628 0.53100002
0.054437917 -0.065283448 0.53000003
0.057697956 -0.066936977 0.53033334
0.062076092 -0.068549879 0.53033334
