# .PCD v0.7 - Point Cloud Data file format
VERSION 0.7
FIELDS x y z
SIZE 4 4 4
TYPE F F F
COUNT 1 1 1
WIDTH 1380
HEIGHT 1
VIEWPOINT 0 0 0 1 0 0 0
POINTS 1380
DATA ascii
-0.11811262 -0.088332474 0.49445963
-0.11628327 -0.087478206 0.49404246
-0.11508378 -0.086870596 0.49446827
-0.1138843 -0.086262971 0.49489406
-0.11206385 -0.085413218 0.49447384
-0.11086658 -0.08480674 0.49489886
-0.1096693 -0.084200248 0.49532387
-0.10847202 -0.083593756 0.49574888
-0.10727474 -0.082987279 0.49617389
-0.10546759 -0.082144275 0.49574897
-0.10427254 -0.081538916 0.49617317
-0.10307747 -0.080933541 0.49659741
-0.10127923 -0.080095023 0.49616933
-0.10008636 -0.079490781 0.49659276
-0.098294705 -0.078655601 0.49616227
-0.097104102 -0.078052491 0.49658492
-0.095319122 -0.077220716 0.49615207
-0.094130725 -0.076618724 0.49657393
-0.09235242 -0.075790308 0.49613878
-0.090578526 -0.074964143 0.49570203
-0.089394569 -0.074364401 0.49612233
-0.087627381 -0.073541589 0.49568319
-0.085864544 -0.072721049 0.49524248
-0.084684998 -0.072123542 0.4956612
-0.082928866 -0.071306363 0.49521816
-0.081751555 -0.070709974 0.49563608
-0.015133083 -0.038701639 0.49368948
-0.014476925 -0.038296863 0.49498883
-0.013350591 -0.037726313 0.49538866
-0.011760741 -0.036993369 0.49488658
-0.011097923 -0.036585219 0.49618831
-0.0099716038 -0.036014676 0.49658811
-0.0083884001 -0.0352851 0.49608371
-0.0072642863 -0.034715667 0.49648273
-0.0061401725 -0.034146249 0.49688178
-0.0050160736 -0.033576816 0.49728081
-0.0038919598 -0.033007398 0.49767986
-0.0023220628 -0.032284558 0.49717072
-0.0012001693 -0.031716257 0.49756896
-7.8260899e-05 -0.031147957 0.49796721
0.0014827847 -0.030429594 0.49745482
0.002602458 -0.029862419 0.4978523
0.0041568428 -0.029147454 0.49733764
0.0052742958 -0.028581396 0.49773431
0.0063917637 -0.028015338 0.49813101
0.0075092316 -0.027449287 0.49852768
0.0090525001 -0.026739918 0.49800906
0.010167748 -0.026174985 0.49840495
0.011704385 -0.025469005 0.49788401
0.012817413 -0.02490519 0.49827909
0.014347389 -0.02420257 0.49775577
0.015458196 -0.023639888 0.49815008
0.016981557 -0.022940621 0.49762434
0.018090159 -0.022379056 0.49801788
0.019606829 -0.021683171 0.49748984
0.02071321 -0.021122731 0.49788257
0.022223219 -0.020430215 0.49735215
0.023728848 -0.019739941 0.49682015
0.025230005 -0.019051932 0.49628657
0.060471252 -0.0019242987 0.49813205
0.060883388 -0.001570724 0.50041127
0.061634883 -0.0011176541 0.50174445
0.062719077 -0.00056844205 0.50212932
0.063477233 -0.00011200458 0.50346494
0.064563647 0.00043832511 0.50385058
0.065650076 0.00098866224 0.50423622
0.06673649 0.0015389919 0.50462186
0.068140104 0.0021775961 0.50405365
0.069224298 0.0027268082 0.50443852
0.070308506 0.0032760128 0.50482345
0.071392715 0.0038252212 0.50520825
0.072785228 0.0044582114 0.50463617
0.073867217 0.0050062984 0.50502026
0.074949205 0.005554378 0.50540435
0.076031193 0.0061024651 0.50578845
0.077412635 0.0067298412 0.50521231
0.078492403 0.0072768033 0.50559562
0.079867184 0.0079008043 0.50501722
0.080944732 0.0084466487 0.5053997
0.08202228 0.0089924857 0.50578225
0.083388209 0.0096119978 0.50520062
0.084463537 0.010156713 0.50558233
0.085538864 0.010701429 0.50596404
0.086895913 0.011316448 0.50537932
0.087969035 0.011860043 0.50576031
0.089042157 0.012403637 0.50614125
0.090115279 0.012947228 0.50652218
0.091188401 0.013490818 0.50690311
0.092261508 0.014034413 0.50728405
0.09333463 0.014578007 0.50766498
0.094673932 0.015184047 0.50707394
0.095744833 0.015726516 0.5074541
0.096815735 0.016268985 0.50783426
0.09814617 0.016870521 0.50724006
0.099472187 0.01746982 0.50664437
0.10053866 0.018010043 0.50702292
0.10160512 0.018550266 0.50740147
0.10292225 0.019145072 0.50680256
0.1039865 0.019684173 0.50718033
0.10505075 0.020223271 0.50755811
0.106115 0.020762373 0.50793594
0.10742106 0.021351565 0.50733316
0.10848308 0.021889541 0.5077101
0.1097825 0.02247536 0.50710487
0.11084232 0.023012212 0.5074811
0.11190213 0.023549063 0.50785732
0.11296195 0.024085922 0.50823355
0.11402176 0.024622774 0.50860977
0.11530785 0.025201853 0.5079999
0.11636544 0.025737587 0.50837529
0.11742304 0.026273314 0.50875074
0.11848064 0.026809048 0.50912619
0.11975566 0.02738251 0.50851226
0.12081104 0.027917119 0.50888693
0.12186642 0.028451728 0.50926155
0.12313255 0.029020699 0.50864458
0.12418571 0.029554183 0.50901842
0.12523887 0.030087667 0.50939226
0.12629203 0.030621151 0.5097661
0.1275471 0.031184509 0.50914526
0.12859805 0.031716872 0.50951827
0.12964898 0.032249235 0.50989139
0.1308952 0.032808095 0.50926721
0.13194391 0.033339329 0.5096395
0.13299266 0.03387057 0.51001179
0.13422996 0.034424942 0.50938463
0.13527647 0.034955055 0.50975609
0.13650714 0.035506062 0.50912642
0.13755143 0.036035053 0.50949717
0.13859573 0.036564048 0.50986791
0.13981754 0.03711056 0.50923514
0.1408596 0.037638426 0.50960505
0.14207476 0.038181566 0.50896996
0.14311463 0.038708314 0.50933909
0.14415447 0.039235055 0.50970817
0.14536075 0.039773703 0.50907004
0.1463984 0.040299326 0.50943834
0.14743605 0.04082495 0.50980663
0.14847368 0.041350573 0.51017499
0.14951132 0.041876197 0.51054335
0.15070429 0.042408105 0.50990039
0.15173972 0.042932604 0.51026797
0.15277515 0.043457106 0.5106355
0.15381058 0.043981604 0.51100302
0.15484601 0.044506103 0.51137066
0.15602568 0.045031272 0.51072288
0.15705889 0.045554653 0.51108968
0.1580921 0.046078026 0.51145649
0.1591253 0.0466014 0.51182318
0.16029389 0.047120959 0.51117158
0.16132489 0.047643207 0.51153761
0.16235587 0.048165463 0.51190358
0.16351558 0.048680529 0.51124877
0.16454436 0.049201656 0.51161397
0.16557314 0.049722787 0.51197916
0.16660191 0.050243922 0.51234436
0.16763069 0.050765049 0.51270956
0.16877711 0.051273368 0.51205009
0.16980366 0.051793374 0.51241446
0.17083022 0.05231338 0.51277888
0.17196776 0.052817214 0.51211619
0.1729921 0.053336099 0.51247984
0.17401645 0.05385498 0.51284349
0.17514512 0.054354317 0.51217771
0.17616725 0.054872081 0.51254052
0.17718935 0.055389844 0.51290333
0.17830917 0.055884685 0.51223439
0.17932907 0.056401327 0.51259643
0.18034898 0.056917965 0.51295847
0.18145993 0.057408325 0.51228642
0.18247761 0.057923838 0.51264763
0.18349528 0.058439348 0.51300895
0.18451299 0.058954868 0.51337016
0.18561284 0.0594396 0.51269418
0.18662831 0.059953988 0.51305467
0.18764378 0.060468383 0.5134151
0.18865925 0.060982771 0.51377559
0.18974802 0.061461899 0.51309562
0.19076127 0.061975162 0.51345527
0.19177453 0.062488433 0.51381499
0.19278778 0.0630017 0.5141747
0.19380103 0.06351497 0.51453435
0.19487649 0.063987352 0.51384974
0.19588754 0.064499505 0.51420856
0.19689856 0.065011643 0.51456749
0.19790961 0.065523796 0.51492643
0.19892065 0.066035934 0.51528525
0.19998281 0.066501573 0.51459587
0.20099163 0.067012608 0.51495397
0.20200044 0.067523621 0.51531208
0.20305374 0.067984782 0.51461959
0.20406035 0.068494678 0.51497686
0.205107 0.068952464 0.51428193
0.20611139 0.069461234 0.51463842
0.20711577 0.069970012 0.51499498
0.20812015 0.070478782 0.51535153
0.20915569 0.070930958 0.51465273
0.21015786 0.071438603 0.51500845
0.21116003 0.071946263 0.51536417
0.21218672 0.072393931 0.51466221
0.21318667 0.072900467 0.51501715
0.21420671 0.073344767 0.5143128
0.21520443 0.07385017 0.51466697
0.21620218 0.074355587 0.51502115
0.21721333 0.074795395 0.5143137
0.21820885 0.07529968 0.51466703
0.21921337 0.07573612 0.51395714
0.22020668 0.07623928 0.51430976
0.22119996 0.076742433 0.51466238
0.22219561 0.077174395 0.51394939
0.22318669 0.077676423 0.51430118
0.22417778 0.078178465 0.51465297
0.22516885 0.0786805 0.51500481
0.22615993 0.079182535 0.51535666
0.22714229 0.079607755 0.51463884
0.22813116 0.080108672 0.51498985
0.22912002 0.080609582 0.51534092
0.23010887 0.081110492 0.51569194
0.23108016 0.081530094 0.5149703
0.2320668 0.082029879 0.51532054
0.23305345 0.082529671 0.51567078
0.23401582 0.082944781 0.51494598
0.23500025 0.083443448 0.51529539
0.23598467 0.083942115 0.51564485
0.23693821 0.084352724 0.5149169
0.23792042 0.084850274 0.51526558
0.23890263 0.085347816 0.51561421
0.23988485 0.085845359 0.51596284
0.24082728 0.08625035 0.51523101
0.2418073 0.086746782 0.51557887
0.24278727 0.087243199 0.51592672
0.24372084 0.087643698 0.51519167
0.24469861 0.088138998 0.51553875
0.2456764 0.088634297 0.51588583
0.2466011 0.089030311 0.51514769
0.24757665 0.089524485 0.51549399
0.24849468 0.089917116 0.51475334
0.24940832 0.090307519 0.51401126
0.25037944 0.090799443 0.51435602
0.25135058 0.091291375 0.51470077
0.25225532 0.091677293 0.51395541
0.25322419 0.092168078 0.51429939
0.25419313 0.092658892 0.51464331
0.25516203 0.093149692 0.51498723
0.25605571 0.093529992 0.514238
0.25702238 0.094019666 0.5145812
0.25798908 0.094509348 0.51492441
0.25895578 0.09499903 0.51526749
0.25992247 0.09548872 0.51561069
0.26088914 0.095978394 0.51595378
0.26185584 0.096468076 0.51629698
0.26282254 0.096957758 0.51664019
0.26369625 0.09732794 0.5158838
0.26466072 0.097816505 0.51622617
0.26562521 0.098305061 0.51656854
-0.22079912 -0.1364622 0.49099636
-0.21875596 -0.1355025 0.49065533
-0.21748772 -0.13486007 0.49110553
-0.21545121 -0.13390373 0.49076217
-0.21418521 -0.13326241 0.49121156
-0.21215534 -0.13230945 0.49086583
-0.21012989 -0.1313587 0.49051848
-0.20886827 -0.13071965 0.49096629
-0.20684949 -0.12977228 0.49061659
-0.20483515 -0.12882717 0.49026534
-0.20282528 -0.12788431 0.48991251
-0.2008197 -0.12694368 0.48955807
-0.19956705 -0.1263091 0.49000275
-0.19756821 -0.12537187 0.48964599
-0.1963177 -0.12473843 0.49008989
-0.19432554 -0.12380452 0.48973072
-0.19307724 -0.12317222 0.49017385
-0.191829 -0.12253991 0.49061695
-0.1905807 -0.12190756 0.49106005
-0.18933243 -0.12127526 0.49150315
-0.18808416 -0.12064295 0.49194628
-0.18683591 -0.12001063 0.49238938
-0.18558761 -0.1193783 0.49283251
-0.18361536 -0.11845452 0.4924663
-0.18236932 -0.11782333 0.49290863
-0.18112329 -0.11719212 0.49335095
-0.17987719 -0.11656094 0.49379328
-0.17791608 -0.11564279 0.49342313
-0.17595932 -0.11472684 0.49305138
-0.17471769 -0.11409789 0.49349213
-0.17276767 -0.11318535 0.49311802
-0.17082205 -0.11227506 0.49274236
-0.16958484 -0.11164835 0.49318153
-0.1676459 -0.11074144 0.49280351
-0.16641095 -0.11011586 0.49324191
-0.16447863 -0.10921228 0.49286154
-0.16255072 -0.10831097 0.49247953
-0.16062728 -0.10741192 0.49209598
-0.15939894 -0.10678968 0.49253201
-0.15748218 -0.10589401 0.4921461
-0.15556982 -0.10500057 0.49175867
-0.1543459 -0.10438059 0.49219313
-0.15244016 -0.10349049 0.49180326
-0.1512185 -0.10287166 0.49223694
-0.14931947 -0.10198493 0.49184468
-0.14809999 -0.10136722 0.49227759
-0.14688054 -0.10074951 0.49271047
-0.14499041 -0.099867299 0.49231514
-0.14377317 -0.099250689 0.49274722
-0.14255592 -0.098634109 0.49317932
-0.14067462 -0.097756371 0.49278086
-0.13945958 -0.097140893 0.49321216
-0.13758492 -0.096266553 0.49281135
-0.13637212 -0.095652193 0.49324185
-0.13515931 -0.095037833 0.49367237
-0.13329348 -0.094167963 0.49326834
-0.13208291 -0.093554735 0.49369809
-0.13022378 -0.092688262 0.49329168
-0.12901542 -0.092076153 0.49372062
-0.1271629 -0.091213018 0.49331191
-0.12595674 -0.09060204 0.49374008
-0.12411094 -0.089742303 0.49332902
-0.12290701 -0.089132443 0.49375638
-0.12106782 -0.088276058 0.49334297
-0.1198661 -0.087667316 0.49376956
-0.11866438 -0.087058574 0.49419615
-0.11746266 -0.086449847 0.49462271
-0.11563453 -0.085599065 0.49420524
-0.11443502 -0.084991455 0.49463105
-0.11323553 -0.084383845 0.49505684
-0.11203602 -0.083776236 0.49548262
-0.110219 -0.082931072 0.49506134
-0.10902175 -0.082324594 0.49548635
-0.10782444 -0.081718087 0.49591136
-0.1066272 -0.08111161 0.49633637
-0.10482123 -0.080272079 0.49591115
-0.10362616 -0.079666704 0.49633536
-0.10243112 -0.079061329 0.49675959
-0.10063407 -0.078226298 0.49633121
-0.0994412 -0.077622056 0.49675465
-0.097650737 -0.076790363 0.49632385
-0.095864803 -0.075960942 0.49589148
-0.094676405 -0.075358935 0.49631333
-0.093487978 -0.074756943 0.49673522
-0.091710865 -0.073932 0.49629974
-0.089938194 -0.073109306 0.49586272
-0.088169962 -0.072288863 0.49542406
-0.086988211 -0.071690239 0.49584356
-0.085226566 -0.070873156 0.49540254
-0.014525086 -0.03694059 0.49384204
-0.013400972 -0.036371171 0.49424106
-0.012276858 -0.035801753 0.49464011
-0.011152744 -0.03523232 0.49503914
-0.01002863 -0.034662902 0.49543819
-0.0089045167 -0.034093469 0.49583721
-0.0077804029 -0.033524051 0.49623626
-0.0066562891 -0.032954633 0.49663529
-0.0055321902 -0.0323852 0.49703434
-0.0039590597 -0.031663597 0.49652645
-0.0028371662 -0.031095296 0.4969247
-0.0017152727 -0.030526996 0.49732295
-0.00059336424 -0.02995868 0.49772123
0.00096869469 -0.029242679 0.49720931
0.0020883828 -0.028675504 0.49760678
0.003643766 -0.027962871 0.4970926
0.004761219 -0.02739682 0.4974893
0.0058786869 -0.02683077 0.49788597
0.0069961548 -0.026264705 0.49828264
0.0085404515 -0.025557704 0.4977645
0.0096556842 -0.024992771 0.49816039
0.011193335 -0.024289131 0.49763992
0.012306362 -0.023725316 0.49803504
0.013837367 -0.023025051 0.49751219
0.014948189 -0.022462368 0.49790651
0.016472548 -0.021765456 0.49738127
0.017992482 -0.021070793 0.49685448
0.019098848 -0.020510353 0.49724725
0.020612106 -0.019819066 0.49671808
0.022120953 -0.019130021 0.49618736
0.023222893 -0.018571824 0.49657854
0.05930461 -0.00097183883 0.49978992
0.060052872 -0.00051754713 0.50112182
0.06113708 3.1664968e-05 0.50150669
0.062221289 0.00058086962 0.50189161
0.062978417 0.0010396615 0.50322664
0.064064831 0.0015899912 0.50361234
0.065151259 0.0021403283 0.50399798
0.066237673 0.002690658 0.50438368
0.067324102 0.0032409877 0.50476933
0.06872651 0.0038761199 0.50420082
0.069810703 0.0044253282 0.50458568
0.070894912 0.0049745366 0.50497055
0.07197912 0.005523745 0.50535542
0.073063314 0.0060729533 0.50574028
0.07445243 0.0067013502 0.50516713
0.075534403 0.0072494298 0.50555116
0.076616392 0.0077975169 0.50593525
0.077996641 0.0084214173 0.50535882
0.079076409 0.0089683793 0.50574219
0.080449998 0.0095889121 0.50516343
0.081527546 0.010134749 0.50554597
0.082605094 0.010680586 0.50592846
0.083682656 0.011226423 0.50631094
0.085045144 0.011841349 0.50572824
0.086120486 0.012386065 0.50610995
0.087195814 0.012930781 0.50649172
0.088271141 0.013475496 0.50687343
0.089346483 0.014020212 0.5072552
0.090695679 0.014628388 0.50666779
0.091768801 0.015171982 0.50704873
0.092841923 0.015715577 0.50742966
0.09391503 0.016259167 0.50781059
0.09525314 0.016861727 0.50721931
0.096324041 0.017404197 0.50759941
0.097394943 0.017946666 0.50797957
0.098724186 0.018544737 0.50738513
0.099792875 0.019086082 0.50776446
0.10111547 0.019680783 0.5071677
0.10218193 0.020221006 0.50754619
0.1032484 0.020761229 0.5079248
0.10456212 0.021351431 0.50732481
0.10562637 0.021890532 0.50770259
0.10669062 0.02242963 0.50808036
0.10775486 0.022968732 0.50845814
0.1090575 0.023553327 0.50785422
0.11011953 0.024091303 0.50823128
0.11141553 0.024672529 0.50762498
0.11247534 0.025209388 0.50800115
0.11353516 0.025746239 0.50837737
0.11459497 0.026283091 0.5087536
0.11587986 0.026858699 0.50814342
0.11693745 0.027394425 0.50851882
0.11799505 0.027930159 0.50889426
0.11905265 0.028465889 0.50926971
0.12032647 0.029035883 0.50865549
0.12138186 0.029570492 0.5090301
0.122649 0.030137116 0.50841367
0.12370217 0.0306706 0.50878751
0.12475532 0.031204084 0.50916135
0.12580849 0.031737566 0.50953519
0.12706457 0.032298569 0.50891483
0.12811552 0.032830931 0.50928783
0.12916645 0.03336329 0.50966096
0.13041368 0.033919804 0.50903726
0.13146241 0.034451045 0.50940955
0.13251114 0.034982279 0.50978184
0.13374946 0.035534304 0.50915515
0.13479596 0.036064416 0.50952661
0.13584247 0.036594532 0.50989807
0.13707197 0.037142061 0.50926816
0.13811627 0.037671056 0.50963891
0.13916056 0.038200051 0.51000959
0.14038116 0.038743086 0.50937659
0.14142324 0.039270952 0.50974649
0.14246531 0.039798822 0.51011646
0.14367704 0.040337361 0.50948024
0.1447169 0.04086411 0.50984931
0.14575677 0.041390859 0.5102185
0.14679661 0.0419176 0.51058757
0.14783648 0.042444348 0.5109567
0.1490349 0.042976156 0.51031584
0.15007254 0.043501779 0.51068413
0.1511102 0.044027403 0.51105249
0.15214783 0.044553027 0.51142085
0.15318549 0.04507865 0.5117892
0.15437061 0.045603711 0.51114357
0.15540603 0.046128213 0.51151109
0.15644145 0.046652712 0.51187873
0.15761772 0.047173284 0.51122987
0.15865092 0.047696657 0.51159668
0.15968412 0.048220038 0.51196343
0.16085151 0.048736118 0.51131153
0.1618825 0.049258374 0.5116775
0.1629135 0.04978063 0.51204348
0.16407201 0.050292213 0.51138842
0.16510078 0.050813343 0.51175356
0.16612956 0.051334478 0.51211882
0.16715834 0.051855605 0.51248395
0.16830578 0.052361578 0.51182497
0.16933233 0.052881584 0.51218939
0.17035888 0.053401589 0.51255381
0.17149743 0.053903073 0.5118916
0.17252177 0.054421958 0.51225519
0.17354612 0.054940838 0.51261884
0.17457047 0.055459723 0.51298249
0.17569795 0.055955589 0.51231641
0.17672005 0.056473352 0.51267922
0.17784089 0.056965843 0.51201075
0.1788608 0.057482485 0.51237279
0.17988069 0.057999123 0.51273483
0.18099266 0.058487128 0.51206326
0.18201035 0.059002642 0.51242453
0.18302803 0.059518151 0.51278579
0.18413113 0.060001671 0.51211107
0.1851466 0.060516059 0.51247156
0.18616207 0.061030447 0.51283199
0.18717754 0.061544843 0.51319247
0.18826954 0.062022734 0.51251376
0.1892828 0.062536009 0.51287341
0.19029605 0.063049272 0.51323313
0.1913093 0.063562542 0.51359284
0.19232255 0.064075813 0.51395249
0.19333582 0.064589083 0.51431215
0.19434907 0.065102346 0.51467186
0.19536233 0.065615617 0.51503158
0.19637556 0.06612888 0.51539123
0.19744541 0.066595547 0.5147047
0.19845645 0.067107685 0.51506358
0.19946747 0.06761983 0.51542246
0.20052844 0.068082005 0.51473272
0.20153725 0.068593025 0.51509082
0.20259158 0.069051832 0.51439881
0.20359817 0.069561735 0.51475614
0.20460479 0.070071638 0.51511347
0.20565023 0.070525937 0.51441824
0.20665462 0.071034715 0.5147748
0.20765899 0.071543485 0.51513129
0.20869556 0.071993306 0.51443297
0.20969772 0.072500959 0.51478875
0.2106999 0.073008612 0.51514447
0.2117276 0.073453933 0.51444292
0.21272756 0.073960468 0.51479793
0.21372752 0.074467003 0.51515287
0.21474634 0.074907824 0.51444817
0.21574409 0.075413242 0.51480234
0.21675625 0.075850695 0.51409543
0.21775177 0.07635498 0.51444876
0.21874727 0.076859258 0.51480216
0.21975061 0.077292234 0.51409197
0.22074389 0.077795386 0.51444459
0.22173722 0.078298554 0.51479715
0.22273163 0.078727022 0.51408386
0.22372274 0.079229072 0.51443565
0.22471382 0.079731107 0.5147875
0.22570489 0.080233142 0.51513934
0.22669597 0.080735177 0.51549113
0.22767714 0.081156917 0.51477301
0.22866599 0.081657827 0.51512408
0.22965485 0.082158737 0.51547509
0.23064373 0.082659662 0.51582611
0.23161379 0.083075784 0.51510417
0.23260044 0.083575577 0.51545441
0.23358707 0.084075369 0.51580465
0.23454826 0.084487006 0.5150795
0.23553267 0.084985659 0.51542902
0.23651712 0.085484341 0.51577842
0.23750153 0.085982993 0.51612794
0.23845166 0.086389013 0.51539886
0.23943388 0.086886555 0.51574755
0.24041609 0.087384097 0.51609617
0.24135734 0.087785631 0.51536399
0.24233732 0.088282049 0.5157119
0.24331732 0.088778473 0.51605976
0.24424967 0.0891755 0.51532435
0.24522746 0.0896708 0.51567149
0.24620523 0.090166099 0.51601851
0.24712873 0.090558633 0.51528007
0.24804778 0.090948917 0.51453996
0.24902114 0.091441974 0.51488543
0.24993354 0.09182889 0.51414305
0.25090468 0.092320822 0.51448774
0.25187582 0.092812762 0.5148325
0.25277933 0.093195178 0.5140869
0.25374824 0.093685992 0.51443088
0.25471717 0.094176792 0.5147748
0.25568607 0.094667606 0.51511872
0.25665498 0.095158406 0.51546264
0.25754523 0.095534094 0.51471239
0.25851193 0.096023776 0.51505554
0.25947863 0.096513465 0.51539874
0.2604453 0.09700314 0.51574183
0.26141202 0.097492822 0.51608503
0.26237869 0.097982503 0.51642817
0.26325342 0.098350339 0.51567233
0.26421791 0.098838903 0.5160147
0.26518238 0.09932746 0.51635706
-0.22138241 -0.13511546 0.4907178
-0.21933827 -0.1341581 0.49037725
-0.21807003 -0.13351567 0.49082744
-0.21603248 -0.13256167 0.49048457
-0.21476647 -0.13192038 0.49093398
-0.21273559 -0.13096976 0.49058872
-0.2114718 -0.13032958 0.49103734
-0.2094475 -0.1293823 0.49068967
-0.20742771 -0.1284373 0.49034044
-0.20541236 -0.12749453 0.48998967
-0.20340145 -0.12655401 0.48963735
-0.2021465 -0.12591831 0.49008283
-0.20014217 -0.12498116 0.48972806
-0.19814235 -0.12404627 0.48937178
-0.19689187 -0.12341282 0.48981568
-0.19489864 -0.12248129 0.48945701
-0.19365039 -0.12184897 0.48990011
-0.19240209 -0.12121665 0.49034324
-0.19115382 -0.12058434 0.49078634
-0.18990555 -0.11995202 0.49122944
-0.18865731 -0.11931971 0.49167255
-0.18740901 -0.11868739 0.49211568
-0.18616074 -0.11805508 0.49255881
-0.18491244 -0.11742273 0.49300191
-0.18294144 -0.11650243 0.4926354
-0.18169537 -0.11587125 0.49307773
-0.18044931 -0.11524005 0.49352005
-0.17848721 -0.11432424 0.49315041
-0.17652941 -0.11341065 0.49277914
-0.17528778 -0.1127817 0.49321988
-0.17333671 -0.11187151 0.49284622
-0.17209736 -0.1112437 0.49328619
-0.1701529 -0.11033687 0.49291024
-0.16821292 -0.10943229 0.49253273
-0.16697797 -0.1088067 0.49297112
-0.16504464 -0.10790551 0.49259123
-0.16311571 -0.10700652 0.49220973
-0.16188517 -0.1063832 0.49264655
-0.15996292 -0.10548759 0.49226266
-0.15804514 -0.10459428 0.49187729
-0.15681902 -0.10397318 0.49231252
-0.15490785 -0.10308321 0.49192476
-0.15368399 -0.10246325 0.49235922
-0.15177944 -0.10157661 0.49196905
-0.15055779 -0.10095778 0.49240273
-0.14865991 -0.10007454 0.49201021
-0.14744046 -0.099456832 0.49244305
-0.14622101 -0.098839089 0.49287596
-0.14433202 -0.097960353 0.49248034
-0.14311478 -0.097343758 0.49291241
-0.14189759 -0.096727163 0.49334452
-0.14001745 -0.095852911 0.49294576
-0.13880244 -0.095237449 0.49337706
-0.13692895 -0.094366565 0.49297592
-0.13571617 -0.093752205 0.49340644
-0.13450336 -0.09313786 0.49383697
-0.13263872 -0.092271447 0.49343261
-0.13142815 -0.09165822 0.49386236
-0.12957022 -0.090795219 0.49345565
-0.12771669 -0.089934438 0.49304745
-0.12651053 -0.089323461 0.49347559
-0.12466371 -0.088466063 0.49306503
-0.12345979 -0.087856203 0.49349239
-0.12225583 -0.087246358 0.49391976
-0.12105191 -0.086636484 0.49434716
-0.11921611 -0.085784703 0.49393263
-0.11801443 -0.085175961 0.49435923
-0.11681268 -0.084567219 0.49478582
-0.11498576 -0.083719909 0.49436802
-0.11378625 -0.083112299 0.49479383
-0.11258677 -0.08250469 0.49521962
-0.11138728 -0.08189708 0.49564543
-0.1101878 -0.08128947 0.49607122
-0.10837415 -0.080448911 0.49564883
-0.1071769 -0.079842418 0.49607384
-0.10597959 -0.079235941 0.49649885
-0.10417488 -0.078399867 0.49607334
-0.10297981 -0.077794507 0.49649754
-0.10118175 -0.076961815 0.49606964
-0.099988908 -0.076357573 0.4964931
-0.09819743 -0.075528219 0.49606279
-0.097006798 -0.07492511 0.49648544
-0.095222026 -0.074099161 0.49605277
-0.094033629 -0.073497154 0.49647462
-0.092255503 -0.07267458 0.49603966
-0.091069311 -0.072073705 0.49646071
-0.089297831 -0.071254484 0.49602339
-0.088113844 -0.070654728 0.49644366
-0.08634904 -0.069838874 0.49600396
-0.011205539 -0.033884123 0.49389094
-0.010083646 -0.033315822 0.49428919
-0.0089617372 -0.032747522 0.49468744
-0.0078398585 -0.032179222 0.49508572
-0.0067179501 -0.031610921 0.49548396
-0.0055960566 -0.031042621 0.49588221
-0.0044741631 -0.03047432 0.49628046
-0.0033522695 -0.02990602 0.49667871
-0.002230376 -0.029337719 0.49707696
-0.00066506863 -0.028622933 0.49656633
0.00045460463 -0.028055757 0.4969638
0.0015742928 -0.027488582 0.49736127
0.0031307042 -0.026778303 0.49684757
0.0042481571 -0.026212245 0.49724427
0.0053656101 -0.025646187 0.49764094
0.006483078 -0.025080137 0.49803761
0.008028388 -0.024375476 0.49751997
0.0091436356 -0.023810543 0.49791586
0.010682315 -0.023109257 0.49739587
0.011795342 -0.022545457 0.49779099
0.01332736 -0.021847531 0.49726862
0.014438167 -0.021284848 0.49766293
0.015963554 -0.020590283 0.49713817
0.017484501 -0.019897968 0.49661189
0.018590868 -0.019337535 0.49700463
0.020105153 -0.018648595 0.49647596
0.021615013 -0.017961904 0.49594572
0.057725847 -0.00037296116 0.49916857
0.058470875 8.2567334e-05 0.50049925
0.059555069 0.00063177198 0.50088406
0.060306758 0.0010906681 0.50221717
0.061393172 0.0016409978 0.50260282
0.0624796 0.0021913275 0.50298846
0.063566014 0.0027416572 0.5033741
0.064652443 0.0032919906 0.50375974
0.065738857 0.003842324 0.50414538
0.066825271 0.0043926537 0.50453109
0.067911699 0.0049429871 0.50491673
0.068998113 0.0054933168 0.50530243
0.070397109 0.0061238557 0.50473285
0.071481317 0.0066730641 0.50511765
0.072565526 0.0072222725 0.50550258
0.073649719 0.0077714808 0.50588739
0.075037628 0.0083963946 0.50531393
0.076119617 0.0089444816 0.50569797
0.077201605 0.0094925687 0.50608206
0.078283593 0.010040656 0.50646615
0.079660416 0.010659955 0.5058887
0.080740184 0.011206917 0.50627196
0.082110345 0.011822857 0.50569218
0.083187908 0.012368694 0.50607467
0.084265456 0.012914531 0.50645721
0.085343003 0.013460368 0.50683975
0.086420566 0.014006212 0.50722224
0.087777421 0.014615409 0.50663763
0.088852763 0.015160125 0.5070194
0.089928091 0.01570484 0.50740111
0.091003418 0.016249556 0.50778282
0.092349201 0.016853139 0.5071944
0.093422323 0.017396729 0.50757527
0.094495445 0.01794032 0.50795627
0.095832348 0.018539412 0.50736463
0.09690325 0.019081881 0.50774479
0.097974151 0.019624351 0.50812495
0.099302202 0.020218942 0.50753009
0.10037088 0.02076029 0.50790948
0.10169227 0.02135152 0.50731242
0.10275874 0.021891743 0.50769097
0.1038252 0.022431966 0.50806952
0.10513773 0.023018699 0.50746918
0.10620198 0.023557797 0.50784701
0.10726622 0.024096899 0.50822479
0.10833047 0.024636 0.50860262
0.10963191 0.025217116 0.50799835
0.11069395 0.025755093 0.50837541
0.11198874 0.026332846 0.50776875
0.11304855 0.026869701 0.50814497
0.11410837 0.027406557 0.5085212
0.11539427 0.02797981 0.5079115
0.11645187 0.028515536 0.50828695
0.11750947 0.02905127 0.50866234
0.11856706 0.029587001 0.50903773
0.1198419 0.030154647 0.50842404
0.12089729 0.030689256 0.50879872
0.12216546 0.031253524 0.50818276
0.12321862 0.031787008 0.5085566
0.12427178 0.032320492 0.50893044
0.12532493 0.032853976 0.50930429
0.12658204 0.033412632 0.50868434
0.12763299 0.033944994 0.5090574
0.12868392 0.034477353 0.50943047
0.12993217 0.03503152 0.5088073
0.13098089 0.035562754 0.50917959
0.13202962 0.036093995 0.50955188
0.13326897 0.036643662 0.50892568
0.13431548 0.037173778 0.50929713
0.13536198 0.03770389 0.50966865
0.13659248 0.038249075 0.50903916
0.13763678 0.038778067 0.5094099
0.13868108 0.039307062 0.50978065
0.13972537 0.039836049 0.51015133
0.14094478 0.040375613 0.50951803
0.14198685 0.040903483 0.50988793
0.14302893 0.041431352 0.51025784
0.144071 0.041959219 0.51062775
0.14511308 0.042487092 0.51099765
0.14631918 0.043019913 0.51035953
0.14735903 0.043546662 0.51072872
0.14839889 0.044073403 0.51109779
0.14943874 0.044600151 0.51146698
0.1504786 0.045126893 0.51183605
0.15151848 0.045653649 0.51220524
0.15270907 0.046178609 0.51156169
0.15374669 0.046704233 0.51192999
0.15493062 0.047225822 0.51128411
0.15596604 0.04775032 0.51165164
0.15700147 0.048274819 0.51201916
0.15817654 0.048791923 0.51137012
0.15920973 0.049315296 0.51173687
0.16024294 0.049838677 0.51210368
0.16140914 0.050351277 0.51145148
0.16244012 0.050873533 0.51181746
0.16347112 0.051395789 0.51218343
0.16462843 0.0519039 0.51152802
0.16565721 0.052425034 0.51189315
0.16668598 0.052946161 0.51225841
0.16771476 0.053467296 0.51262355
0.168861 0.053969793 0.51196432
0.16988754 0.054489799 0.51232874
0.17091411 0.055009805 0.51269311
0.17205146 0.055507816 0.5120306
0.17307581 0.056026697 0.51239425
0.17410016 0.056545582 0.5127579
0.17522866 0.057039097 0.51209223
0.17625076 0.05755686 0.51245511
0.17727289 0.058074616 0.51281798
0.17839251 0.058563642 0.51214916
0.17941242 0.05908028 0.51251119
0.18052541 0.059565935 0.51184011
0.18154308 0.060081448 0.51220137
0.18256077 0.060596958 0.51256263
0.18366489 0.061078124 0.51188838
0.18468036 0.061592512 0.51224887
0.18569583 0.0621069 0.51260936
0.18671131 0.062621295 0.51296985
0.18780431 0.063096836 0.51229155
0.18881758 0.063610114 0.51265126
0.18983082 0.064123377 0.51301098
0.19084407 0.064636648 0.51337063
0.19185732 0.065149918 0.51373029
0.19287059 0.065663189 0.51409
0.19388384 0.066176452 0.51444972
0.1948971 0.066689722 0.51480937
0.19591033 0.067202985 0.51516902
0.19698121 0.067667305 0.51448298
0.19799224 0.068179443 0.51484191
0.19900326 0.068691589 0.51520079
0.20006526 0.069151416 0.51451159
0.20107406 0.069662429 0.51486969
0.20208289 0.070173457 0.51522779
0.203136 0.070628785 0.51453543
0.20414262 0.071138687 0.51489276
0.2051492 0.071648583 0.51525009
0.20619346 0.072099417 0.5145545
0.20719784 0.072608188 0.51491106
0.20823543 0.07305567 0.5142132
0.20923759 0.073563315 0.51456892
0.21023975 0.074070975 0.51492471
0.21124192 0.074578613 0.51528049
0.21226844 0.075020477 0.51457864
0.2132684 0.075527012 0.51493359
0.21426834 0.076033533 0.51528859
0.21528599 0.076470897 0.51458359
0.21628371 0.076976299 0.51493776
0.21728145 0.077481702 0.51529193
0.21829019 0.077914566 0.51458383
0.21928574 0.078418851 0.51493728
0.22028124 0.078923136 0.51529062
0.22128116 0.079351507 0.51457936
0.22227444 0.079854667 0.51493192
0.22326773 0.080357827 0.51528454
0.22426103 0.08086098 0.51563716
0.22524984 0.081283741 0.51492202
0.22624093 0.081785783 0.51527381
0.22723201 0.082287818 0.5156256
0.22821197 0.082706079 0.51490724
0.22920083 0.083206989 0.51525831
0.23018971 0.083707914 0.51560926
0.23117857 0.084208824 0.51596034
0.23216742 0.084709734 0.51631135
0.23313406 0.085121267 0.51558828
0.23412071 0.085621051 0.51593852
0.23510735 0.086120836 0.51628876
0.23606513 0.086527884 0.51556259
0.23704955 0.087026544 0.51591206
0.238034 0.087525219 0.51626146
0.2389829 0.087927759 0.51553214
0.23996511 0.088425301 0.51588082
0.24094732 0.088922851 0.51622945
0.24188736 0.089320898 0.51549697
0.24286737 0.089817323 0.51584482
0.24384736 0.09031374 0.51619273
0.24477853 0.090707295 0.51545703
0.2457563 0.091202594 0.51580417
0.24673408 0.091697887 0.51615119
0.24765638 0.092086956 0.51541245
0.24857424 0.092473768 0.51467204
0.24954759 0.092966817 0.51501751
0.25045881 0.093350276 0.51427484
0.25142995 0.093842216 0.51461959
0.25240105 0.094334133 0.51496434
0.25330341 0.094713092 0.51421839
0.25427228 0.095203891 0.51456237
0.25524122 0.095694706 0.51490629
0.25621012 0.096185505 0.51525021
0.25710139 0.096558847 0.51450038
0.25806808 0.097048528 0.51484358
0.25903478 0.097538218 0.51518673
0.26000145 0.098027892 0.51552987
0.26096815 0.098517574 0.51587307
0.2618461 0.09888418 0.51511848
0.26281059 0.099372737 0.51546085
0.26377505 0.099861301 0.51580322
0.26473954 0.10034986 0.51614559
-0.2219657 -0.13376872 0.49043921
-0.21992055 -0.13281371 0.49009916
-0.21865234 -0.13217127 0.49054936
-0.21738407 -0.13152884 0.49099955
-0.21534774 -0.13057832 0.49065638
-0.21408173 -0.12993704 0.49110577
-0.21205208 -0.12898989 0.49076024
-0.21002674 -0.12804495 0.49041304
-0.20800593 -0.1271023 0.49006429
-0.20598957 -0.12616189 0.489714
-0.20473245 -0.12552507 0.49016026
-0.2027227 -0.12458803 0.48980764
-0.20071736 -0.1236532 0.48945338
-0.19946465 -0.12301865 0.48989806
-0.19821194 -0.1223841 0.49034274
-0.19621551 -0.12145379 0.48998538
-0.19496503 -0.12082034 0.49042928
-0.19371453 -0.12018691 0.49087319
-0.19172695 -0.11926109 0.49051264
-0.19047868 -0.11862877 0.49095574
-0.18923041 -0.11799645 0.49139884
-0.18798217 -0.11736414 0.49184194
-0.18673387 -0.11673182 0.49228507
-0.18548557 -0.11609949 0.4927282
-0.18423733 -0.11546718 0.4931713
-0.18226749 -0.11455035 0.4928045
-0.18102142 -0.11391915 0.49324682
-0.17905828 -0.1130057 0.49287766
-0.1770995 -0.11209446 0.49250689
-0.17585787 -0.11146551 0.49294764
-0.17390579 -0.11055768 0.49257445
-0.1726664 -0.10992986 0.49301443
-0.17072096 -0.10902537 0.49263898
-0.16877997 -0.10812315 0.49226192
-0.16754499 -0.10749757 0.49270031
-0.16561064 -0.10659871 0.49232092
-0.1636807 -0.1057021 0.4919399
-0.16245016 -0.10507876 0.49237671
-0.1605269 -0.10418552 0.49199334
-0.1592986 -0.10356331 0.49242935
-0.15738198 -0.10267344 0.49204367
-0.15546981 -0.10178581 0.49165639
-0.15424591 -0.10116585 0.49209085
-0.15234035 -0.10028158 0.49170116
-0.15111867 -0.099662736 0.49213484
-0.14989701 -0.099043891 0.49256852
-0.14800033 -0.098164126 0.49217567
-0.14678088 -0.097546414 0.49260858
-0.14556146 -0.096928701 0.49304143
-0.14367369 -0.096053421 0.49264553
-0.14245644 -0.095436826 0.49307761
-0.1412392 -0.094820231 0.49350971
-0.13936028 -0.093949452 0.49311063
-0.13814527 -0.093333974 0.49354193
-0.136273 -0.092466578 0.49314052
-0.13506022 -0.091852233 0.49357101
-0.13319454 -0.090988159 0.49316719
-0.13198397 -0.090374947 0.49359691
-0.13012502 -0.089514285 0.49319071
-0.12891665 -0.088902175 0.49361965
-0.12706432 -0.088044852 0.49321112
-0.12585819 -0.087433875 0.49363929
-0.12465206 -0.086822897 0.49406743
-0.12280861 -0.085970104 0.49365577
-0.12160468 -0.085360259 0.49408317
-0.12040076 -0.084750399 0.49451053
-0.11856619 -0.083902076 0.49409571
-0.11736444 -0.083293349 0.4945223
-0.11616275 -0.082684606 0.49494889
-0.11496103 -0.082075864 0.49537545
-0.11375931 -0.081467137 0.49580204
-0.111938 -0.080625549 0.4953824
-0.11073852 -0.080017939 0.49580818
-0.109539 -0.079410329 0.496234
-0.1077266 -0.078573242 0.49581131
-0.10652933 -0.07796675 0.49623632
-0.10533205 -0.077360272 0.49666134
-0.10352853 -0.07652767 0.49623549
-0.10233346 -0.07592231 0.49665973
-0.10053658 -0.075093091 0.49623153
-0.099343747 -0.074488848 0.49665496
-0.097553462 -0.073662981 0.49622437
-0.095767677 -0.072839372 0.49579218
-0.094579279 -0.07223738 0.49621403
-0.092800111 -0.071417145 0.49577954
-0.091613919 -0.070816271 0.49620062
-0.089841425 -0.069999404 0.49576378
-0.088657469 -0.069399647 0.49618405
-0.087473482 -0.068799905 0.49660435
-0.08570987 -0.067987524 0.49616432
-0.010598749 -0.032126546 0.4940432
-0.0094768405 -0.031558245 0.49444145
-0.0083549619 -0.030989945 0.4948397
-0.0072330534 -0.030421644 0.49523795
-0.0061111599 -0.029853344 0.49563619
-0.0049892664 -0.029285043 0.49603444
-0.0038673729 -0.028716743 0.49643269
-0.0027454793 -0.028148443 0.49683097
-0.0011791587 -0.027436018 0.49632081
-5.9485435e-05 -0.026868843 0.49671829
0.0010602027 -0.02630166 0.49711576
0.0026176274 -0.025593735 0.49660257
0.0037350953 -0.025027685 0.49699923
0.0048525482 -0.024461627 0.4973959
0.0059700161 -0.023895569 0.49779257
0.0075163394 -0.023193255 0.49727541
0.008631587 -0.022628322 0.49767131
0.010171264 -0.021929383 0.49715182
0.011284292 -0.021365583 0.49754691
0.012817353 -0.020670012 0.49702504
0.014345974 -0.019976676 0.49650156
0.015870139 -0.019285589 0.49597657
0.01697652 -0.018725149 0.4963693
0.018494025 -0.018037438 0.49584192
0.055065095 -0.00032217056 0.49816316
0.056147084 0.0002259165 0.49854726
0.056888863 0.0006826669 0.49987662
0.057635099 0.0011416674 0.50120759
0.058721513 0.0016920045 0.50159323
0.059807926 0.0022423342 0.50197887
0.060563028 0.0027058199 0.50331306
0.061651662 0.0032572821 0.50369948
0.062740296 0.0038087294 0.5040859
0.063828945 0.0043601841 0.50447237
0.064917579 0.0049116388 0.50485885
0.066006213 0.0054630935 0.50524527
0.067412883 0.0060946532 0.50467849
0.068499297 0.0066449828 0.50506413
0.069585726 0.0071953163 0.50544983
0.070983514 0.0078223757 0.50487995
0.072067723 0.0083715841 0.50526482
0.073151916 0.0089207925 0.50564969
0.074236125 0.0094700009 0.50603455
0.075622827 0.010091446 0.50546074
0.076704815 0.010639526 0.50584483
0.077786803 0.011187613 0.50622892
0.078868791 0.0117357 0.50661302
0.080244407 0.012351535 0.50603521
0.08132419 0.012898497 0.50641847
0.08269316 0.013510957 0.50583839
0.083770707 0.014056794 0.50622094
0.084848255 0.014602637 0.50660348
0.085925817 0.015148478 0.5069859
0.087003365 0.015694315 0.50736845
0.088080913 0.016240155 0.50775099
0.089158475 0.016785992 0.50813347
0.090509698 0.017389469 0.50754702
0.09158504 0.017934188 0.50792873
0.092660367 0.0184789 0.50831044
0.094002724 0.01907789 0.50772095
0.095075846 0.01962148 0.50810182
0.096411556 0.020217096 0.50750995
0.097482458 0.020759566 0.50789011
0.09855336 0.021302035 0.50827026
0.099624261 0.021844504 0.50865042
0.10094889 0.022434499 0.50805449
0.10201757 0.022975847 0.50843388
0.10333555 0.023562476 0.50783569
0.10440202 0.024102699 0.50821424
0.10546848 0.024642926 0.50859284
0.10677759 0.025225062 0.50799143
0.10784183 0.02576416 0.50836921
0.10890608 0.026303262 0.50874698
0.11020632 0.026880905 0.50814247
0.11126836 0.027418885 0.50851953
0.11256196 0.027993163 0.50791264
0.11362177 0.028530015 0.5082888
0.11468159 0.02906687 0.50866503
0.11596628 0.029636655 0.50805503
0.11702389 0.030172385 0.50843048
0.11808148 0.030708116 0.50880587
0.11913908 0.03124385 0.50918126
0.12041272 0.031808011 0.50856733
0.1214681 0.03234262 0.50894195
0.12273507 0.032903418 0.50832564
0.12378823 0.033436902 0.50869954
0.12484139 0.033970386 0.50907338
0.12589456 0.034503873 0.50944722
0.12715046 0.035059053 0.50882697
0.1282014 0.035591416 0.50920004
0.12945065 0.036143228 0.50857735
0.13049939 0.03667447 0.50894964
0.13154811 0.037205704 0.50932193
0.13259685 0.037736945 0.50969422
0.13364556 0.038268182 0.51006651
0.1348815 0.038813252 0.50943917
0.135928 0.039343368 0.50981069
0.13715731 0.039885074 0.5091809
0.13820161 0.040414069 0.50955164
0.1392459 0.040943056 0.50992233
0.1402902 0.041472051 0.51029301
0.14133447 0.042001043 0.51066375
0.14255047 0.042536013 0.51002932
0.14359254 0.043063879 0.51039922
0.14463463 0.043591753 0.51076913
0.1456767 0.044119626 0.51113909
0.14671877 0.044647492 0.511509
0.14776085 0.045175359 0.51187891
0.14880294 0.045703225 0.51224887
0.149845 0.046231098 0.51261878
0.15104105 0.046755955 0.5119772
0.15208089 0.047282696 0.51234633
0.15312076 0.047809444 0.51271546
0.15430792 0.048329808 0.51207083
0.15534556 0.048855431 0.51243919
0.15652606 0.049372431 0.51179218
0.15756148 0.049896929 0.51215971
0.1585969 0.050421428 0.51252723
0.15976855 0.050933935 0.51187706
0.16080177 0.051457308 0.51224387
0.16196676 0.051966444 0.51159132
0.16299775 0.052488692 0.51195735
0.16402873 0.053010948 0.51232332
0.16518486 0.053515591 0.51166761
0.16621363 0.054036718 0.51203281
0.16724241 0.054557852 0.512398
0.16838966 0.055058002 0.51173919
0.16941622 0.055578008 0.51210362
0.17044277 0.056098014 0.51246798
0.17158115 0.056593675 0.51180601
0.1726055 0.057112556 0.5121696
0.17362984 0.05763144 0.51253325
0.17465417 0.058150325 0.5128969
0.17578147 0.058640361 0.51223099
0.17680359 0.059158124 0.51259387
0.17792425 0.0596448 0.51192552
0.17894414 0.060161438 0.51228756
0.17996405 0.060678076 0.5126496
0.18107583 0.061160255 0.51197821
0.1820935 0.061675765 0.51233947
0.18311121 0.062191285 0.51270074
0.18421412 0.062668964 0.51202619
0.18522958 0.06318336 0.51238668
0.18624505 0.063697755 0.51274717
0.18726052 0.064212143 0.51310766
0.18827601 0.064726539 0.51346809
0.1893656 0.065197483 0.51278877
0.19037886 0.065710753 0.51314843
0.19139211 0.066224016 0.51350808
0.19240536 0.066737287 0.51386786
0.19341861 0.06725055 0.51422751
0.19443187 0.06776382 0.51458716
0.19544511 0.068277083 0.51494688
0.19651699 0.068739057 0.51426131
0.19752803 0.069251202 0.51462018
0.19853906 0.06976334 0.51497912
0.19955011 0.070275493 0.515338
0.20061088 0.070731834 0.51464844
0.2016197 0.071242861 0.51500654
0.20267384 0.071695842 0.51431471
0.20368044 0.072205745 0.51467204
0.20468704 0.07271564 0.51502931
0.20573232 0.073164128 0.51433432
0.20673668 0.073672898 0.51469082
0.20774108 0.074181676 0.51504737
0.20877746 0.074625671 0.51434922
0.20977962 0.075133324 0.51470494
0.21078178 0.075640969 0.51506066
0.21180932 0.076080471 0.51435935
0.21280928 0.076587006 0.51471436
0.21380922 0.077093527 0.51506931
0.21480918 0.077600062 0.51542425
0.21582562 0.078033946 0.51471901
0.21682335 0.078539349 0.51507318
0.21782109 0.079044752 0.51542735
0.21882866 0.079474159 0.51471901
0.21982417 0.079978436 0.51507235
0.22081968 0.080482721 0.51542574
0.22181839 0.08090762 0.51471412
0.22281168 0.081410781 0.51506674
0.22380498 0.081913933 0.51541936
0.22479829 0.082417101 0.51577199
0.22579159 0.082920261 0.51612455
0.22677697 0.083338425 0.51540828
0.22776806 0.08384046 0.51576012
0.22875912 0.084342495 0.51611197
0.22975023 0.08484453 0.51646376
0.23072453 0.085257083 0.51574349
0.23171338 0.085757993 0.51609457
0.23270226 0.086258911 0.51644552
0.2336677 0.086666957 0.51572222
0.23465434 0.087166741 0.51607245
0.23561314 0.087571442 0.51534677
0.23659755 0.088070095 0.51569617
0.237582 0.088568777 0.51604563
0.23856643 0.089067444 0.51639509
0.23951414 0.089466497 0.51566541
0.24049635 0.089964047 0.5160141
0.24147856 0.090461589 0.51636279
0.24241741 0.090856172 0.51563001
0.2433974 0.091352589 0.51597786
0.2443774 0.091849014 0.51632571
0.24530736 0.092239097 0.51558971
0.24628514 0.092734389 0.51593685
0.24720846 0.093121104 0.51519853
0.24818403 0.093615279 0.51554489
0.24910069 0.093998618 0.51480412
0.25007403 0.094491675 0.51514965
0.25098407 0.094871663 0.51440668
0.25195515 0.09536358 0.51475132
0.25292629 0.095855512 0.51509607
0.25389743 0.096347444 0.51544082
0.25479636 0.096721806 0.51469386
0.25576526 0.097212605 0.51503778
0.25673419 0.097703412 0.51538169
0.25770307 0.098194219 0.51572561
0.25859094 0.098562963 0.51497477
0.2595576 0.099052638 0.51531792
0.26052433 0.09954232 0.51566112
0.261491 0.100032 0.5160042
0.26236778 0.10039514 0.51524937
0.26333225 0.1008837 0.51559174
0.26429671 0.10137226 0.51593411
-0.22254905 -0.13242196 0.49016064
-0.22050285 -0.13146931 0.48982108
-0.21923462 -0.13082688 0.49027127
-0.21796638 -0.13018444 0.49072146
-0.215929 -0.12923628 0.49037877
-0.214663 -0.12859498 0.49082819
-0.21263233 -0.12765019 0.49048311
-0.21060598 -0.1267076 0.49013641
-0.20858416 -0.12576729 0.48978814
-0.2073248 -0.12512937 0.49023518
-0.20530966 -0.12419243 0.48988461
-0.20329887 -0.12325773 0.48953247
-0.20204395 -0.12262204 0.48997793
-0.20003983 -0.12169069 0.48962337
-0.19878712 -0.12105614 0.49006805
-0.19678965 -0.1201282 0.4897112
-0.19553918 -0.11949475 0.49015507
-0.1942887 -0.11886132 0.49059901
-0.1930382 -0.11822787 0.49104288
-0.19178769 -0.11759442 0.49148679
-0.18980357 -0.11667322 0.49112514
-0.18855527 -0.1160409 0.49156824
-0.18730703 -0.11540857 0.49201137
-0.18605873 -0.11477625 0.49245447
-0.18481043 -0.11414394 0.4928976
-0.1828396 -0.11322945 0.49253127
-0.18159354 -0.11259827 0.4929736
-0.17962939 -0.11168715 0.49260491
-0.17766955 -0.11077827 0.49223462
-0.17642793 -0.11014932 0.49267536
-0.17518631 -0.10952038 0.49311611
-0.17323545 -0.10861601 0.49274266
-0.171289 -0.10771388 0.49236768
-0.16934699 -0.10681403 0.49199113
-0.16811201 -0.10618843 0.49242952
-0.16617665 -0.10529192 0.49205062
-0.1649439 -0.10466745 0.49248824
-0.16301516 -0.10377431 0.49210688
-0.16109088 -0.10288343 0.49172398
-0.15986255 -0.10226122 0.49216002
-0.15794495 -0.1013737 0.49177483
-0.15671882 -0.10075261 0.49221006
-0.15480784 -0.099868461 0.49182248
-0.15358397 -0.099248484 0.49225694
-0.15167961 -0.098367706 0.49186698
-0.15045795 -0.097748861 0.49230063
-0.14923626 -0.097130015 0.49273428
-0.1473408 -0.096253708 0.49234116
-0.14612135 -0.09563601 0.49277404
-0.1449019 -0.095018283 0.49320692
-0.14301533 -0.09414649 0.4928107
-0.14179811 -0.093529895 0.4932428
-0.14058086 -0.0929133 0.4936749
-0.13870314 -0.092045978 0.49327552
-0.1374881 -0.0914305 0.49370682
-0.13561705 -0.09056659 0.49330509
-0.13440427 -0.08995223 0.49373561
-0.13253981 -0.089091644 0.49333146
-0.13132921 -0.088478416 0.49376121
-0.12947145 -0.087621242 0.49335468
-0.12826309 -0.087009132 0.49378362
-0.12705472 -0.086397022 0.49421257
-0.12520584 -0.085544318 0.49380296
-0.12399969 -0.084933341 0.49423113
-0.12215745 -0.084084004 0.49381915
-0.12095353 -0.083474159 0.49424651
-0.11974958 -0.082864299 0.49467391
-0.11854565 -0.08225444 0.49510127
-0.11734173 -0.081644595 0.49552864
-0.11551276 -0.080801994 0.49511197
-0.11431107 -0.080193251 0.49553856
-0.11310932 -0.079584502 0.49596512
-0.11128923 -0.078746408 0.49554518
-0.11008975 -0.078138798 0.49597099
-0.10827634 -0.077304065 0.49554878
-0.10707906 -0.076697573 0.4959738
-0.10527226 -0.075866193 0.49554923
-0.10407722 -0.075260833 0.49597344
-0.10227713 -0.074432835 0.49554655
-0.10108426 -0.073828593 0.49596998
-0.099891424 -0.073224351 0.49639341
-0.098100156 -0.072400838 0.49596328
-0.096909493 -0.071797729 0.49638593
-0.09512493 -0.070977591 0.49595344
-0.093936503 -0.070375599 0.49637529
-0.092158556 -0.069558837 0.49594051
-0.090972334 -0.068957962 0.49636158
-0.089786172 -0.068357088 0.49678266
-0.088017076 -0.06754481 0.49634472
-0.086833119 -0.066945069 0.49676502
-0.085649133 -0.066345312 0.49718532
-0.0061719716 -0.028517805 0.49448544
-0.0050522983 -0.027950622 0.49488291
-0.0039326102 -0.027383447 0.49528039
-0.002812922 -0.026816271 0.49567783
-0.0016932487 -0.026249088 0.4960753
-0.0005735755 -0.025681905 0.49647278
0.00054611266 -0.02511473 0.49687022
0.0021045506 -0.024409153 0.49635753
0.0032220185 -0.023843102 0.4967542
0.0043394864 -0.023277052 0.49715087
0.0054569542 -0.022710986 0.49754757
0.0070042908 -0.022011034 0.49703088
0.0081195235 -0.021446101 0.49742678
0.009660244 -0.020749509 0.49690777
0.010773271 -0.020185709 0.49730286
0.012307316 -0.019492477 0.49678147
0.01383698 -0.018801495 0.49625847
0.015362158 -0.018112771 0.49573395
0.01646854 -0.017552331 0.49612671
0.041186303 -0.0056184642 0.49743932
0.05313845 0.00018436462 0.49848425
0.053877011 0.00064234436 0.49981239
0.05496344 0.001192674 0.50019807
0.055708647 0.0016540214 0.5015285
0.056797281 0.0022054762 0.50191498
0.057885915 0.0027569309 0.50230145
0.058974549 0.0033083856 0.50268787
0.060063183 0.0038598403 0.50307429
0.061151832 0.0044112951 0.50346076
0.062240466 0.0049627498 0.50384724
0.063329101 0.0055142045 0.50423366
0.06441775 0.0060656592 0.50462008
0.065506384 0.0066171139 0.50500655
0.066914052 0.0072463229 0.50444031
0.068000481 0.0077966526 0.50482595
0.069086909 0.008346986 0.50521159
0.070173323 0.0088973157 0.50559723
0.07156992 0.0095209032 0.50502706
0.072654128 0.010070112 0.50541198
0.073738322 0.01061932 0.50579679
0.07482253 0.011168528 0.50618172
0.07620804 0.011786506 0.5056076
0.077290028 0.012334593 0.5059917
0.078372002 0.012882672 0.50637579
0.079454005 0.013430759 0.50675988
0.080535978 0.013978846 0.50714391
0.081908196 0.014590081 0.50656503
0.082987964 0.015137043 0.50694835
0.084067732 0.015684005 0.50733161
0.085431069 0.016290745 0.50674963
0.086508617 0.016836582 0.50713217
0.087586164 0.017382422 0.50751472
0.088663727 0.017928259 0.5078972
0.089741275 0.0184741 0.50827968
0.091091305 0.019074105 0.50769293
0.092166632 0.01961882 0.50807464
0.093510017 0.020215452 0.50748563
0.094583139 0.020759046 0.50786656
0.095656261 0.02130264 0.50824749
0.096990764 0.021894785 0.50765526
0.098061666 0.022437254 0.50803542
0.099132568 0.022979723 0.50841558
0.10020347 0.023522193 0.50879574
0.1015269 0.024108715 0.50819957
0.10259558 0.024650063 0.5085789
0.10391235 0.02523322 0.50798041
0.10497883 0.025773447 0.50835896
0.10604529 0.026313666 0.50873756
0.1073532 0.026892327 0.50813586
0.10841744 0.027431428 0.50851363
0.10948169 0.02797053 0.50889146
0.11078074 0.028544705 0.5082866
0.11184277 0.029082678 0.50866365
0.11313517 0.02965348 0.5080564
0.11419498 0.030190336 0.50843263
0.11525479 0.030727191 0.50880885
0.1163146 0.031264044 0.50918508
0.1175959 0.03182923 0.50857401
0.11865349 0.032364961 0.5089494
0.11992815 0.032926776 0.50833589
0.12098354 0.033461384 0.5087105
0.12225152 0.034019832 0.50809467
0.12330468 0.034553315 0.50846857
0.12435784 0.035086799 0.50884241
0.125411 0.035620287 0.50921631
0.12666792 0.03617312 0.50859654
0.12771887 0.036705479 0.50896955
0.12876981 0.037237842 0.50934267
0.13001788 0.037786178 0.50871968
0.13106659 0.03831742 0.50909197
0.13211533 0.038848657 0.50946426
0.13316405 0.039379895 0.50983655
