# .PCD v0.7 - Point Cloud Data file format
VERSION 0.7
FIELDS x y z
SIZE 4 4 4
TYPE F F F
COUNT 1 1 1
WIDTH 1
HEIGHT 481
VIEWPOINT 0 0 0 1 0 0 0
POINTS 481
DATA ascii
-0.14295596 -0.17068927 0.43985909
-0.15077697 -0.16125394 0.43918642
-0.14608546 -0.16525513 0.43966198
-0.16219008 -0.15159452 0.43972743
-0.15595372 -0.15555565 0.43913493
-0.17164782 -0.14143498 0.43969515
-0.16569306 -0.14500755 0.43978938
-0.18137735 -0.13132687 0.43499747
-0.17546706 -0.13481876 0.43867606
-0.16911882 -0.13881178 0.43983901
-0.18192145 -0.12626952 0.43432963
-0.17655531 -0.12468363 0.43696284
-0.16941632 -0.1201366 0.43983567
-0.17359175 -0.11729962 0.43751583
-0.16903408 -0.11860406 0.43983558
-0.14094347 -0.17223172 0.4413605
-0.13435869 -0.1737763 0.44446126
-0.12850635 -0.17755629 0.44828501
-0.14331332 -0.16283235 0.44291639
-0.13599181 -0.16625516 0.44444332
-0.15334833 -0.15403223 0.44402349
-0.14807492 -0.15870334 0.44567239
-0.16250476 -0.14336881 0.44397682
-0.15818565 -0.14782599 0.44495776
-0.17170003 -0.1322806 0.44337493
-0.16733266 -0.13652465 0.44510889
-0.17191041 -0.12663101 0.44351172
-0.1694058 -0.12433101 0.44690305
-0.1691412 -0.11762504 0.44212109
-0.12479249 -0.18130158 0.45649612
-0.13046005 -0.17290498 0.45455885
-0.1282514 -0.17810784 0.45548406
-0.14237653 -0.16183041 0.45524251
-0.13563201 -0.16593389 0.45521954
-0.15345468 -0.15352081 0.4553318
-0.1474677 -0.15885665 0.45445457
-0.16145495 -0.1423229 0.45531759
-0.15820614 -0.1469723 0.45554215
-0.1657916 -0.13508002 0.45530322
-0.17073676 -0.12412585 0.4588356
-0.16908035 -0.12703469 0.45457387
-0.17436716 -0.11655244 0.45733225
-0.12519328 -0.1831962 0.46587124
-0.13170138 -0.1746842 0.46468431
-0.1293394 -0.1791846 0.46386823
-0.14475131 -0.16271713 0.4656215
-0.13551597 -0.16872317 0.46286297
-0.15408605 -0.15451735 0.46558082
-0.14899856 -0.15932849 0.4636538
-0.16115631 -0.14177993 0.4646773
-0.1587107 -0.14671384 0.46506047
-0.16536054 -0.13499062 0.46509969
-0.17161471 -0.12725884 0.46666896
-0.1695618 -0.12911306 0.46383709
-0.17626847 -0.11782718 0.46233141
-0.12008654 -0.19001442 0.47687525
-0.11958783 -0.19120933 0.47987574
-0.13088836 -0.18088287 0.47686765
-0.12526251 -0.18532981 0.47558585
-0.1400317 -0.17009099 0.47686067
-0.13510181 -0.174924 0.47571039
-0.15031868 -0.16046515 0.47785324
-0.14579545 -0.16432342 0.47597182
-0.13856357 -0.16954 0.47186139
-0.15449892 -0.15604088 0.47535008
-0.16192073 -0.14304624 0.47492704
-0.15921374 -0.14847828 0.47384626
-0.17123227 -0.13156751 0.47623652
-0.16607942 -0.13677527 0.47504035
-0.17447199 -0.12684484 0.47500059
-0.17718349 -0.11926698 0.47283113
-0.12044536 -0.1904175 0.48587513
-0.11665072 -0.19263725 0.48722544
-0.13157488 -0.18134475 0.48553404
-0.12551118 -0.18595821 0.485816
-0.14082602 -0.17116062 0.48700327
-0.137141 -0.17538004 0.4868007
-0.15030724 -0.16058052 0.48385328
-0.1455909 -0.16495378 0.4861185
-0.16026527 -0.15065478 0.48784599
-0.1552822 -0.15637225 0.48557946
-0.16293541 -0.14460149 0.48596346
-0.17270716 -0.13274035 0.48533589
-0.16783355 -0.13759609 0.4847284
-0.18025137 -0.12432518 0.48783028
-0.17808254 -0.12657593 0.48703194
-0.1016117 -0.20027286 0.49938738
-0.11342736 -0.19220896 0.49384812
-0.10516124 -0.19442834 0.49774158
-0.13167855 -0.18071146 0.49224222
-0.12411117 -0.18376622 0.4950977
-0.11532032 -0.18539137 0.49806026
-0.10583105 -0.1857622 0.49959677
-0.14029534 -0.17123617 0.4908607
-0.13496181 -0.1750097 0.49578369
-0.12665603 -0.17880927 0.49905711
-0.11935599 -0.17958756 0.49987388
-0.14311288 -0.1637734 0.49418437
-0.1380727 -0.16547981 0.49877274
-0.1601935 -0.1506978 0.49284604
-0.15447013 -0.15403394 0.49564347
-0.14579217 -0.15595564 0.49807909
-0.13895728 -0.15804975 0.49985921
-0.1627923 -0.14349993 0.49533057
-0.15722837 -0.14705043 0.49834701
-0.17258348 -0.13326456 0.49600276
-0.16798204 -0.13822101 0.49683952
-0.17504875 -0.12484191 0.49584758
-0.18409562 -0.11390171 0.49976385
-0.17316489 -0.1165323 0.49887654
-0.16510265 -0.11039615 0.49983642
-0.18208095 -0.10909946 0.49982664
-0.17751077 -0.10779099 0.49982899
-0.101138 -0.21197359 0.43675625
-0.097134531 -0.21469775 0.43729201
-0.11045888 -0.20069951 0.4372946
-0.10498558 -0.20519911 0.43812317
-0.11399189 -0.19457129 0.43843192
-0.10881705 -0.19826724 0.43950325
-0.12232008 -0.18461441 0.4392831
-0.11823525 -0.18875346 0.43878204
-0.12716098 -0.1791334 0.43968132
-0.016988242 -0.16505475 0.43967295
-0.027474951 -0.1520834 0.43893975
-0.040703624 -0.14038637 0.43891999
-0.034181759 -0.14470334 0.4376286
-0.029313207 -0.14917763 0.43718362
-0.041235447 -0.13944168 0.43974805
-0.039680094 -0.13986704 0.43928409
-0.16824028 -0.11193536 0.4392662
-0.16549969 -0.10460184 0.43713912
-0.15818663 -0.10145453 0.43907928
-0.16300723 -0.098057404 0.43558085
-0.15501298 -0.095377065 0.43649185
-0.14759885 -0.092517994 0.43801978
-0.1513572 -0.08872167 0.43376139
-0.14373679 -0.08583618 0.43506208
-0.13776579 -0.082196265 0.43724874
-0.13438626 -0.076041482 0.43619579
-0.12609759 -0.072858319 0.438016
-0.11754384 -0.071146548 0.43912974
-0.1309766 -0.068079948 0.43539464
-0.12417372 -0.065703705 0.43560404
-0.11626434 -0.06454619 0.43762296
-0.11521813 -0.058253713 0.43747389
-0.094257772 -0.21255121 0.44400579
-0.089028507 -0.21407863 0.44766158
-0.1022343 -0.2028444 0.44361791
-0.097939454 -0.20752306 0.44546708
-0.11191055 -0.19181746 0.44383836
-0.1070512 -0.19642228 0.4448511
-0.12320372 -0.18238357 0.44469547
-0.11655895 -0.18724191 0.44483367
-0.13317423 -0.17334744 0.44527259
-0.12821345 -0.17815918 0.44457528
-0.014579326 -0.17143477 0.44769934
-0.14271837 -0.16287732 0.44635266
-0.13779144 -0.16748427 0.44557506
-0.021868041 -0.16138245 0.44454837
-0.015086391 -0.16518751 0.44499728
-0.15181246 -0.15243579 0.44775879
-0.14814284 -0.1578262 0.44780901
-0.025360888 -0.15494205 0.44503912
-0.16106433 -0.1424758 0.44882587
-0.15677778 -0.14720793 0.44820827
-0.033841085 -0.14283006 0.44417688
-0.028708989 -0.14810638 0.44516623
-0.050981808 -0.13070519 0.44210777
-0.045266706 -0.13487165 0.44496787
-0.038616266 -0.13909578 0.44598225
-0.17190178 -0.12202621 0.44863626
-0.062741123 -0.12169289 0.44587946
-0.054796681 -0.12609102 0.44555953
-0.049284566 -0.12918009 0.44669458
-0.17066796 -0.11833481 0.44504523
-0.16713741 -0.11385042 0.44544905
-0.07300321 -0.11402629 0.4494369
-0.066663601 -0.11916129 0.44863009
-0.16226849 -0.10793412 0.44335443
-0.15623505 -0.10349247 0.4449684
-0.082713626 -0.10290244 0.44810507
-0.076780058 -0.106781 0.44793221
-0.15164785 -0.099224493 0.44230825
-0.14590065 -0.094341509 0.44464713
-0.092342027 -0.09153913 0.44747147
-0.088112041 -0.095934242 0.44806114
-0.14111756 -0.08876925 0.44262338
-0.13535459 -0.084361263 0.44400743
-0.12561959 -0.081866235 0.44690758
-0.11394639 -0.081833735 0.44769475
-0.10184222 -0.082277738 0.44568971
-0.097716309 -0.086717322 0.44782266
-0.13125831 -0.079036489 0.44057667
-0.12431345 -0.077541746 0.44251093
-0.11464998 -0.074649177 0.44270718
-0.10532365 -0.074777506 0.44522581
-0.11179213 -0.065530404 0.44365075
-0.10939257 -0.069231994 0.44627106
-0.11200011 -0.059291668 0.44111159
-0.092557125 -0.21140601 0.45521754
-0.088473618 -0.21394557 0.45439452
-0.10167563 -0.20255314 0.45522398
-0.097744629 -0.20750879 0.45468313
-0.11131334 -0.19078687 0.45562133
-0.10640566 -0.19549905 0.45461348
-0.12347952 -0.18230015 0.45535427
-0.1162354 -0.18718936 0.45464826
-0.1332397 -0.174366 0.45531857
-0.12850015 -0.17912161 0.45450923
-0.013146632 -0.17356426 0.45337915
-0.0098419739 -0.1721371 0.4572995
-0.14376619 -0.16293797 0.4549686
-0.13779135 -0.16783297 0.45510268
-0.021272158 -0.16076988 0.45448741
-0.014637771 -0.16481794 0.45499307
-0.0098516643 -0.16996132 0.45292237
-0.15209314 -0.15319015 0.45510039
-0.14880782 -0.15802333 0.45511383
-0.025202157 -0.15538071 0.45510191
-0.1618257 -0.14196515 0.45495141
-0.15721087 -0.1470333 0.45499212
-0.034083676 -0.14363687 0.45513079
-0.028744981 -0.14866981 0.45427942
-0.17052221 -0.13164875 0.45329908
-0.16691679 -0.13572805 0.45512232
-0.04341238 -0.1341199 0.45485666
-0.039100047 -0.1390112 0.45432472
-0.17151873 -0.12574464 0.45474598
-0.06134069 -0.1209377 0.45497197
-0.055346318 -0.12471696 0.45515487
-0.048366047 -0.12873933 0.45457807
-0.16615978 -0.11525369 0.45437074
-0.071629547 -0.11357161 0.45075172
-0.066502236 -0.11539653 0.45491758
-0.16093482 -0.10938823 0.4561438
-0.15568618 -0.10415907 0.45497561
-0.082022071 -0.10117599 0.45166147
-0.074825458 -0.1049042 0.45496273
-0.069385171 -0.10922064 0.45754924
-0.15111767 -0.098612644 0.45710289
-0.14596567 -0.094199114 0.4538652
-0.090331919 -0.090722777 0.45440027
-0.085001916 -0.09542796 0.45486644
-0.078707919 -0.098417141 0.45852926
-0.14076328 -0.089732498 0.45135748
-0.13400362 -0.087640032 0.45381993
-0.12454017 -0.085884482 0.45484936
-0.11788651 -0.085442819 0.45374975
-0.10044539 -0.080616422 0.45442238
-0.095566235 -0.085811228 0.45482183
-0.11024758 -0.070277721 0.45776147
-0.10457725 -0.075407557 0.45467162
-0.11230141 -0.066881657 0.45402345
-0.093209371 -0.21349011 0.46584022
-0.088528432 -0.217499 0.46404585
-0.102587 -0.20314607 0.46507785
-0.097868137 -0.20789115 0.46492597
-0.1122257 -0.19209991 0.46560389
-0.10716085 -0.19678186 0.4644458
-0.12297469 -0.18246238 0.46461853
-0.11762326 -0.1877057 0.46463746
-0.032320231 -0.1889797 0.46986538
-0.13294533 -0.17432468 0.46483254
-0.1281224 -0.17904049 0.46517763
-0.010754539 -0.17235547 0.46645892
-0.009748837 -0.17400867 0.46297878
-0.14373899 -0.1631497 0.46484029
-0.1376548 -0.16815335 0.46514291
-0.020568941 -0.16042891 0.46429533
-0.015336229 -0.16482088 0.46486893
-0.15191524 -0.15296952 0.46459281
-0.14853576 -0.1578729 0.46544361
-0.030512013 -0.15104181 0.4681038
-0.025240712 -0.15586928 0.46443036
-0.16223651 -0.14195091 0.46428299
-0.15657337 -0.14652973 0.46510774
-0.035496052 -0.14454991 0.46515
-0.17057313 -0.13098484 0.46555409
-0.16737305 -0.13594109 0.46438578
-0.044111557 -0.13450906 0.46521932
-0.039533511 -0.13911924 0.46257573
-0.17169777 -0.12533033 0.46486551
-0.060783338 -0.12037918 0.46363464
-0.055252146 -0.12484245 0.46530902
-0.048966724 -0.12903932 0.46312332
-0.17064829 -0.11940076 0.46756512
-0.16711777 -0.11542093 0.46404582
-0.070966691 -0.11058632 0.46845812
-0.064889379 -0.11536065 0.46437162
-0.16215867 -0.10871249 0.46656451
-0.1574164 -0.10367551 0.46492809
-0.073789783 -0.10484937 0.46474409
-0.15174749 -0.09820836 0.46558443
-0.14698339 -0.094984896 0.46341068
-0.1325801 -0.091287345 0.46574858
-0.090855666 -0.0906564 0.46618161
-0.084858648 -0.093601093 0.46468702
-0.077911697 -0.098018572 0.4648096
-0.13315675 -0.089735597 0.46064943
-0.12793899 -0.088655926 0.46150351
-0.10042998 -0.080911651 0.46727887
-0.095597535 -0.085380331 0.46457449
-0.11163358 -0.071602054 0.46596083
-0.10511554 -0.076721884 0.46454975
-0.12014115 -0.06670846 0.46563837
-0.11542565 -0.068061799 0.46419206
-0.090737313 -0.22038524 0.4773334
-0.08879403 -0.22091594 0.4760803
-0.09410283 -0.21519957 0.47523436
-0.10420014 -0.20311971 0.47527114
-0.097772829 -0.20797426 0.47509903
-0.11393698 -0.19317394 0.47537005
-0.1087431 -0.19813298 0.47487673
-0.036824584 -0.19185644 0.47470763
-0.1228203 -0.18277521 0.47452754
-0.11866978 -0.1878354 0.47498685
-0.13269158 -0.17308165 0.4749389
-0.12798385 -0.17820875 0.47503406
-0.011053251 -0.17223191 0.47519356
-0.008975151 -0.1751247 0.47684413
-0.14351498 -0.16320938 0.47524199
-0.13781434 -0.16810851 0.47437167
-0.021666547 -0.16136678 0.4761709
-0.015820535 -0.1665009 0.47486472
-0.15148117 -0.15139875 0.47491893
-0.14784893 -0.15622592 0.47457585
-0.031816822 -0.1516258 0.47554538
-0.026175121 -0.15628223 0.47465298
-0.16276775 -0.14145267 0.47456476
-0.1561563 -0.14617889 0.47438645
-0.040210456 -0.1400045 0.47867319
-0.036346141 -0.14491101 0.47446105
-0.17210248 -0.13374312 0.4754464
-0.16787347 -0.1383689 0.47514924
-0.050924927 -0.13062435 0.47716245
-0.044931363 -0.13522619 0.47481114
-0.039749514 -0.13925162 0.47346559
-0.17383891 -0.12562133 0.47543752
-0.06140776 -0.12107034 0.47519681
-0.055506878 -0.12598941 0.47496381
-0.17115402 -0.11764778 0.47465327
-0.16750149 -0.11252297 0.47564751
-0.072034352 -0.11208343 0.47565708
-0.06617628 -0.11664864 0.47449708
-0.16342944 -0.10764891 0.47531036
-0.1567657 -0.10244058 0.47507799
-0.14859727 -0.10017589 0.47987559
-0.075794809 -0.10491734 0.47496507
-0.15122117 -0.098882712 0.47294456
-0.14644308 -0.097980648 0.47488841
-0.13969849 -0.09694764 0.47614294
-0.091617025 -0.091171592 0.47550914
-0.084622234 -0.095147438 0.47514099
-0.078808501 -0.099036276 0.47408986
-0.10105967 -0.081183851 0.47489819
-0.096655793 -0.086163774 0.47461283
-0.11315288 -0.072870702 0.47583875
-0.10567875 -0.077991948 0.47458452
-0.13186273 -0.067670509 0.4783701
-0.12432279 -0.067791022 0.47469711
-0.11792892 -0.069027722 0.47388473
-0.09030804 -0.22043985 0.48142055
-0.086403958 -0.2207406 0.48447716
-0.093547538 -0.21521695 0.48498687
-0.086714 -0.21891554 0.48834267
-0.10258543 -0.20291425 0.48438653
-0.097768158 -0.20743312 0.48593453
-0.051883716 -0.20276594 0.48946223
-0.049550027 -0.20247015 0.48747796
-0.1137076 -0.19303851 0.4849478
-0.10689984 -0.19755127 0.48538271
-0.051289529 -0.19887331 0.48987478
-0.045121752 -0.19740424 0.48419341
-0.12285689 -0.18318444 0.48492903
-0.11855622 -0.18822891 0.48534524
-0.1321847 -0.17226197 0.48449501
-0.1278367 -0.17705713 0.48569527
-0.011278031 -0.17070159 0.48493832
-0.007603996 -0.17428838 0.48457199
-0.14292076 -0.16294093 0.48504204
-0.13713312 -0.16748235 0.48565155
-0.022406749 -0.162453 0.48552454
-0.016544323 -0.16744624 0.4848662
-0.15179752 -0.15242475 0.48505491
-0.14767224 -0.15730035 0.48539352
-0.033070628 -0.15229344 0.48551872
-0.026834408 -0.15711902 0.48494151
-0.16374984 -0.14222014 0.48508736
-0.15718706 -0.14757057 0.4849306
-0.040190212 -0.14053921 0.48432052
-0.037701942 -0.14543526 0.48483703
-0.17234151 -0.13399585 0.48506081
-0.16863641 -0.1387012 0.48520774
-0.051339582 -0.13105072 0.48549369
-0.045293208 -0.13579437 0.48503032
-0.17373911 -0.1248861 0.48508334
-0.062117007 -0.12160379 0.48503885
-0.056630172 -0.12647462 0.48502472
-0.17166488 -0.11735427 0.4859333
-0.16654643 -0.11270923 0.48671448
-0.072996624 -0.11317246 0.48559812
-0.066826172 -0.1180966 0.48563659
-0.16254562 -0.10829698 0.48400384
-0.15530105 -0.10534644 0.48550197
-0.14647612 -0.10210623 0.48490584
-0.08048749 -0.1000291 0.48312718
-0.077143326 -0.10502101 0.48575631
-0.14230512 -0.099381141 0.48114786
-0.092491634 -0.091868147 0.48566198
-0.084846802 -0.096826233 0.4854787
-0.07993716 -0.099648863 0.48973751
-0.10253382 -0.082100607 0.48552507
-0.097108051 -0.087183155 0.48471278
-0.11479601 -0.073478825 0.48554286
-0.10787386 -0.078589134 0.48449901
-0.1340494 -0.068161435 0.48612404
-0.12523219 -0.0687849 0.4852019
-0.11956599 -0.069308847 0.48094565
-0.091677167 -0.2121139 0.49224821
-0.08502233 -0.21454071 0.49376261
-0.075681806 -0.21368463 0.49459636
-0.067207664 -0.21169972 0.49404627
-0.10115973 -0.20104077 0.49130702
-0.094997197 -0.20493154 0.49552035
-0.065062851 -0.2049984 0.49532005
-0.056909282 -0.20340671 0.49241656
-0.11315504 -0.19166733 0.4927898
-0.10451116 -0.19462165 0.49523333
-0.064771436 -0.19931693 0.4963026
-0.056802846 -0.19925201 0.49294394
-0.12189496 -0.18263541 0.4928762
-0.13101961 -0.1710294 0.49202663
-0.12480349 -0.17468585 0.495419
-0.011875758 -0.17175093 0.49531356
-0.0081331804 -0.17612393 0.49525556
-0.14172769 -0.1611985 0.49227929
-0.13453567 -0.16461721 0.49513423
-0.021746734 -0.16202036 0.49418151
-0.017176548 -0.16641198 0.49564794
-0.15216134 -0.15175362 0.49359989
-0.14507736 -0.15510841 0.49576223
-0.032985616 -0.15256511 0.49523216
-0.026141647 -0.15728724 0.49600717
-0.16348316 -0.14237559 0.49412894
-0.15567629 -0.14576168 0.49669117
-0.040489316 -0.14086396 0.49358258
-0.037790395 -0.14546821 0.49635726
-0.17105776 -0.13275141 0.49324811
-0.16680528 -0.13641568 0.49656835
-0.051421605 -0.1306099 0.49243316
-0.044906422 -0.1344602 0.49550223
-0.039846718 -0.1388223 0.49908602
-0.17141999 -0.12633355 0.49271461
-0.16739041 -0.12372409 0.4971993
-0.061116584 -0.12119226 0.49253622
-0.055514164 -0.12573773 0.49559772
-0.048568506 -0.12917452 0.49965361
-0.17050388 -0.11951277 0.49062574
-0.16388199 -0.11639451 0.49396428
-0.15552524 -0.11347382 0.49679631
-0.071743578 -0.11189964 0.49184677
-0.065578669 -0.11547182 0.49524152
-0.059616864 -0.11945951 0.49880466
-0.15284692 -0.108729 0.49352109
-0.14917876 -0.10660098 0.49330685
-0.073306173 -0.10445234 0.494073
-0.069193289 -0.10777745 0.49842644
-0.092388295 -0.091480896 0.49479112
-0.084946416 -0.09549024 0.49520528
-0.077174127 -0.098767258 0.49625248
-0.10229176 -0.081876531 0.49489143
-0.097279467 -0.086782843 0.49568251
-0.120702 -0.070214212 0.49232388
-0.11470632 -0.074177504 0.49556237
-0.10727739 -0.078721374 0.49618918
-0.14246061 -0.068821132 0.49489668
-0.13521801 -0.067973658 0.49570411
-0.12525444 -0.068549313 0.49536988
-0.090597719 -0.090915114 0.50031066
-0.10088477 -0.080844104 0.50133854
-0.11302939 -0.072204806 0.50178319
