# .PCD v0.7 - Point Cloud Data file format
VERSION 0.7
FIELDS x y z
SIZE 4 4 4
TYPE F F F
COUNT 1 1 1
WIDTH 1
HEIGHT 256
VIEWPOINT 0 0 0 1 0 0 0
POINTS 256
DATA ascii
-0.032025721 -0.042467963 0.43933135
-0.028692966 -0.041584019 0.43851289
-0.025098421 -0.034718059 0.43807229
-0.019533301 -0.030812552 0.4366506
-0.022420678 -0.026800353 0.43793657
-0.016371863 -0.024206879 0.43763599
-0.012023076 -0.016806183 0.43829048
-0.0074511608 -0.012073099 0.43791068
-0.0033950824 -0.0084671024 0.43854442
0.0015055388 -0.0074286312 0.43925175
-0.034218397 -0.041935537 0.4429622
-0.031058878 -0.039039593 0.44303098
-0.0272827 -0.035338104 0.44322446
-0.022201635 -0.024872446 0.44186458
-0.018063169 -0.021451989 0.44425142
-0.015243193 -0.018299103 0.4421638
-0.0070962161 -0.011901557 0.44843155
-0.0031084812 -0.0059404592 0.44244641
0.0034465205 -0.0030880852 0.44535816
0.0079149269 0.0052748444 0.44805259
0.013339976 0.0062003224 0.44520867
0.02242581 0.0097252019 0.44244596
0.0078887278 0.012662455 0.44758722
0.014779247 0.014357466 0.44463006
0.02522105 0.01537896 0.44500089
0.03235336 0.014651247 0.44410002
0.026716232 0.021992726 0.44840601
0.14388268 -0.073470481 0.45828152
-0.032153096 -0.041203775 0.45285234
-0.030789524 -0.03977 0.45152402
-0.029189974 -0.038659647 0.45219001
-0.017044894 -0.021805979 0.45320046
-0.013313167 -0.019422058 0.4538933
0.0032579363 -0.0019323335 0.45251566
0.013402954 -0.0015513413 0.4570806
0.0050307154 0.0028860474 0.4528693
0.019145682 0.0053682327 0.4506925
0.042001262 0.0072413534 0.45346743
0.0076906104 0.013990129 0.45304066
0.015545992 0.017596545 0.45475248
0.022054935 0.019651946 0.45376882
0.024500178 0.022255657 0.45370224
0.14535901 -0.074448012 0.46609876
0.14371394 -0.069064356 0.46492246
-0.012918343 -0.021090096 0.46233797
-0.001671657 -0.012521982 0.46563175
0.0032876544 -0.004271552 0.46537238
0.015400708 -0.003323704 0.46170938
0.00577005 0.0015837997 0.4625755
0.02498965 0.0029868595 0.46364316
0.047414437 0.0052497275 0.461386
0.014012769 0.015261757 0.46651894
0.023566291 0.020708282 0.46021527
0.14666963 -0.080471411 0.47753417
0.15214065 -0.082423627 0.47823918
0.14462605 -0.07478293 0.4747484
0.15128943 -0.072836302 0.47626433
0.14662437 -0.069933154 0.47620711
-0.024234712 -0.040688928 0.47667599
-0.021409899 -0.03876318 0.47654915
-0.019573882 -0.037350789 0.47562128
-0.0039651915 -0.0185341 0.47840944
0.0059214085 -0.0063843261 0.47729939
0.026727065 -0.0035844594 0.47749886
0.055704638 0.0069571882 0.47485715
0.014792055 0.014909759 0.47352535
0.087742068 -0.1426677 0.48766682
0.093740873 -0.14364901 0.48605314
0.10047966 -0.14205004 0.48931837
0.088025555 -0.13832697 0.4890824
0.094569348 -0.13472244 0.48719469
0.10358117 -0.1337519 0.48804897
0.096042007 -0.12597995 0.48771307
0.10478009 -0.12443426 0.48730928
0.11132982 -0.12487941 0.48910305
0.099208429 -0.11917957 0.48972577
0.10592535 -0.11670363 0.4890331
0.11390424 -0.11389618 0.48899388
0.12064938 -0.11119099 0.48987353
0.11604744 -0.10471077 0.4890478
0.12362392 -0.10377172 0.48855522
0.13056906 -0.10142438 0.48973781
0.11809438 -0.097450554 0.48910886
0.12521039 -0.095335647 0.48829499
0.13402931 -0.093821727 0.48922586
0.14056133 -0.090839967 0.48960054
0.13578449 -0.088114969 0.48964387
0.14401209 -0.084217131 0.48724917
0.1528866 -0.085654788 0.48561838
0.13892299 -0.075147785 0.48892787
0.14302662 -0.07459344 0.48506287
0.15341656 -0.070462763 0.48485142
0.14376287 -0.068355531 0.48755443
0.15222359 -0.069720715 0.48926702
-0.024767607 -0.04245868 0.48542726
-0.020974733 -0.039523087 0.48620185
-0.016193461 -0.036091153 0.48657718
0.097392187 -0.033446837 0.48720092
0.10097581 -0.035872303 0.48783582
0.11558212 -0.03998024 0.48116115
-0.011443447 -0.025685938 0.48598146
-0.0067104036 -0.021304276 0.48562765
0.00033333898 -0.019225203 0.48970693
0.026992396 -0.0053135492 0.48151597
0.034041986 -0.0017357841 0.48709255
0.08764714 -0.15178743 0.49906927
0.098352864 -0.15140064 0.49136174
0.10635355 -0.15086216 0.4966507
0.078063063 -0.14317375 0.49755323
0.083601788 -0.14592451 0.49465591
0.099311188 -0.14813256 0.49016649
0.10544411 -0.14444689 0.49335942
0.11304381 -0.14338864 0.49810329
0.069027275 -0.13150813 0.49982223
0.076000012 -0.13483879 0.49820778
0.084704764 -0.13454136 0.49368685
0.10762127 -0.13680232 0.49134785
0.11496271 -0.13510655 0.4950605
0.12178928 -0.13283652 0.49912214
0.069069937 -0.12855762 0.49986938
0.075534366 -0.12803526 0.49948379
0.085316904 -0.12540373 0.49649692
0.092000283 -0.12341529 0.49171782
0.11623182 -0.12490509 0.49221095
0.12409835 -0.12387791 0.49711302
0.053136956 -0.1136949 0.4986715
0.087106392 -0.11658595 0.49830666
0.095089279 -0.11506589 0.49398771
0.10355774 -0.1125323 0.49128827
0.11866627 -0.11655547 0.49045134
0.12494753 -0.11491802 0.49339738
0.13282555 -0.11343621 0.49731976
0.03811821 -0.10068316 0.49344623
0.04544653 -0.10343007 0.4957864
0.051588513 -0.10675819 0.49842405
0.089986518 -0.10990909 0.49932188
0.09604533 -0.10582922 0.49825668
0.10483707 -0.10508472 0.49428684
0.11119216 -0.10381977 0.49111322
0.12692666 -0.1078935 0.49125844
0.13475461 -0.10492108 0.49367887
0.1436477 -0.10381199 0.49803591
0.036568042 -0.097254865 0.4972927
0.043534759 -0.098024927 0.49836859
0.099847212 -0.098608986 0.49923015
0.10655212 -0.096524537 0.49707603
0.11405345 -0.094245911 0.49348816
0.12214109 -0.091417447 0.49079987
0.13794817 -0.097633921 0.49163905
0.14489341 -0.094672762 0.49313864
0.15457788 -0.093047835 0.49582216
0.16482905 -0.091893904 0.4977397
0.11638986 -0.087475009 0.49722147
0.12491411 -0.084811814 0.49443564
0.13460617 -0.084648401 0.49112451
0.1471443 -0.089230694 0.49062201
0.15526645 -0.088883266 0.49083772
0.16395126 -0.089233913 0.49275625
0.17502995 -0.089907363 0.49985373
0.12779611 -0.075872123 0.49782452
0.13410564 -0.07505434 0.49339709
0.15634103 -0.070142671 0.49032694
0.16358413 -0.071255073 0.49833733
0.12973617 -0.068731785 0.4988029
0.13566747 -0.065875821 0.49579546
0.14468823 -0.064997628 0.49314061
0.15490988 -0.068585679 0.49571562
-0.031310704 -0.052696843 0.49871498
-0.02725569 -0.055063866 0.49694046
0.13674302 -0.059851021 0.49780676
-0.031611942 -0.047058325 0.4976263
-0.02744315 -0.043920401 0.49427336
0.098328471 -0.040866956 0.49948382
0.10480038 -0.042635787 0.49810046
0.11473254 -0.044146713 0.49619937
0.12393332 -0.045808032 0.49690238
-0.022684347 -0.036493599 0.49641138
-0.01682066 -0.033465389 0.49296299
0.08916451 -0.032506496 0.49999636
0.095524207 -0.034346838 0.49755478
0.10264383 -0.038134106 0.49438578
-0.020044342 -0.029472202 0.49954611
-0.01433182 -0.025747787 0.49591827
-0.00829041 -0.021951752 0.4939543
0.076633029 -0.020962371 0.4996883
0.086047217 -0.023370706 0.49902645
0.094032906 -0.025493631 0.49723083
-0.0032557459 -0.017654013 0.49751216
0.0036021424 -0.013508966 0.49583772
0.058841154 -0.011063468 0.49946904
0.065447114 -0.013576028 0.49810752
0.074803226 -0.015034318 0.49867332
0.085293159 -0.017543495 0.49929732
0.091916978 -0.018623682 0.49891946
0.0062757418 -0.0082243001 0.4984369
0.011528984 -0.0044973521 0.4973529
0.033204064 -0.0089844 0.49743918
0.045059923 -0.0019631945 0.49884221
0.058708575 -0.0052942727 0.49906451
0.064642228 -0.0064538554 0.49680462
0.072889857 -0.0084148459 0.49676281
0.015713412 0.0036118575 0.49674278
0.046111628 0.00010531396 0.49657243
0.051927425 0.0013519637 0.49725688
0.023797583 0.017283458 0.49480951
0.030827627 0.019215107 0.4968442
0.035328109 0.0210607 0.49648476
0.040819213 0.023310397 0.49829525
0.1000023 -0.15894666 0.50007641
0.080737993 -0.14993048 0.50076514
0.1166086 -0.14645192 0.50194085
0.071837172 -0.13763019 0.50154245
0.1260967 -0.13572675 0.50327981
0.074159183 -0.12351114 0.50120044
0.08065623 -0.122156 0.50029641
0.12803414 -0.1268836 0.50137222
0.055596244 -0.11547821 0.50116616
0.083425879 -0.11366574 0.50169766
0.13745113 -0.11614509 0.50175828
0.056293517 -0.10439343 0.50171888
0.092437267 -0.10275353 0.50072396
0.14687203 -0.10736656 0.50233537
0.15476272 -0.1053813 0.50501704
0.10368188 -0.093018688 0.50215125
0.15612052 -0.098311968 0.50148982
0.16527186 -0.096799619 0.50458866
0.11427852 -0.083328493 0.50298041
0.1207716 -0.080690756 0.50072384
0.17967041 -0.089494556 0.50389022
0.12321661 -0.074436411 0.5027011
0.16619076 -0.070770569 0.50337815
0.17359254 -0.075268149 0.50459838
0.12524697 -0.064963691 0.5022406
0.1323251 -0.061524011 0.50099564
0.15651251 -0.06745293 0.50062442
0.16398275 -0.068797208 0.50600415
0.11485674 -0.055355228 0.50368959
0.12464535 -0.055206355 0.50305849
0.13396882 -0.055298485 0.50304371
0.094381429 -0.045118365 0.50373244
0.10426319 -0.047170945 0.50142008
0.11536175 -0.047378559 0.50120199
0.12432814 -0.048887573 0.5014025
0.13421428 -0.047939599 0.50338912
0.084876157 -0.034913216 0.50337988
0.091599032 -0.037696619 0.50151485
0.074474059 -0.025613349 0.50255567
0.083234914 -0.027744453 0.50084788
0.097561255 -0.020940617 0.50026149
0.063220829 -0.018204842 0.50136393
0.079852536 -0.011461277 0.5005855
0.085333325 -0.014286784 0.50143355
0.095534533 -0.015582338 0.50440145
0.011367025 -0.0018088056 0.5022369
0.038614944 -0.007411086 0.50259888
0.053815007 -0.0047941827 0.50172424
