# .PCD v0.7 - Point Cloud Data file format
VERSION 0.7
FIELDS x y z
SIZE 4 4 4
TYPE F F F
COUNT 1 1 1
WIDTH 1394
HEIGHT 1
VIEWPOINT 0 0 0 1 0 0 0
POINTS 1394
DATA ascii
0.28488332 -0.015029434 0.51858544
0.29466334 -0.014609107 0.51925981
0.30407527 -0.012362468 0.51942879
0.31114727 -0.010927964 0.51966888
-0.3222492 -0.0018627197 0.51139957
-0.31522843 -0.0039653117 0.51050484
-0.30492589 -0.0048926417 0.51042426
-0.29508466 -0.0051119807 0.51074195
-0.28488207 -0.0051122555 0.51110542
-0.27500963 -0.004915202 0.51232934
-0.26479328 -0.004878046 0.51267207
-0.25456709 -0.0048550204 0.51251179
-0.24488479 -0.0050330791 0.51206487
-0.23469186 -0.005139777 0.51161659
-0.22484662 -0.0046527833 0.51159036
-0.21512461 -0.0044733803 0.51131898
-0.2050931 -0.0029322021 0.51086026
-0.19527112 -0.001954512 0.51041716
-0.18469509 -0.0042175767 0.5103699
-0.17513153 -0.005224356 0.51107061
-0.16503713 -0.0048238463 0.51162827
-0.15481499 -0.0050564157 0.51203334
-0.14478858 -0.0047189831 0.5122261
-0.13504921 -0.0052349982 0.51223689
-0.12494947 -0.0050294194 0.5130645
-0.11501772 -0.0049903938 0.51397669
-0.10487091 -0.0051110326 0.51372677
-0.094889738 -0.0049931202 0.51336128
-0.085098475 -0.0046869037 0.51375717
-0.074818552 -0.0051093288 0.51406837
-0.065017618 -0.0053572101 0.51518375
-0.054970048 -0.005044145 0.51477277
-0.045117233 -0.0048014103 0.51381153
-0.035223655 -0.0051987991 0.51276249
-0.025113344 -0.0049494142 0.51325744
-0.015010002 -0.0049222023 0.5143249
-0.0048424439 -0.0049748551 0.51395994
0.0050032246 -0.0050497628 0.5155459
0.015160574 -0.0051133847 0.51720119
0.025211489 -0.0049858787 0.51688772
0.035097726 -0.005015926 0.51574725
0.04510694 -0.004875381 0.51527882
0.055044852 -0.0051899557 0.51556545
0.064991944 -0.0052160751 0.51711458
0.074963443 -0.0049953284 0.51722062
0.084966183 -0.0050223968 0.5173372
0.095060788 -0.0049285544 0.51739264
0.10509533 -0.0050801546 0.51725477
0.11503725 -0.0051169563 0.51736146
0.12499444 -0.0048746639 0.51744699
0.134893 -0.0050959224 0.51725239
0.14505433 -0.0050246334 0.51680291
0.1551044 -0.0050752433 0.51714295
0.16503055 -0.0049877968 0.51893902
0.17505278 -0.0049398094 0.51871955
0.18513672 -0.005027818 0.51826781
0.194971 -0.0050437194 0.51854551
0.20496419 -0.0049912897 0.51898992
0.21500145 -0.0050809756 0.51880467
0.22415756 -0.006469714 0.51949936
0.23470785 -0.0071518864 0.51963389
0.24567832 -0.005936496 0.51915365
0.25511956 -0.0051592374 0.51875031
0.26505578 -0.0046781264 0.51943713
0.27495369 -0.0050534471 0.51930624
0.28547844 -0.0060245884 0.51935458
0.29463631 -0.0063765962 0.5195815
0.30484459 -0.0053535919 0.51951069
0.31106117 -0.0062052398 0.51958477
-0.3245315 0.0056180093 0.51131845
-0.31477419 0.0049722577 0.51106727
-0.30495739 0.0048038107 0.51084083
-0.29551053 0.0045606871 0.51047766
-0.28410366 0.0030108129 0.51041764
-0.27498749 0.0046516112 0.51133358
-0.26491168 0.0051349159 0.51207721
-0.25508609 0.0051711123 0.51331902
-0.24478373 0.0053094164 0.51369625
-0.23497914 0.0050223153 0.51308364
-0.22523196 0.0048548719 0.51268297
-0.21510026 0.004874819 0.51272887
-0.20509417 0.0052207652 0.51297766
-0.19507632 0.0044968156 0.51235121
-0.18500538 0.0049234177 0.5116626
-0.17485994 0.004820657 0.5116061
-0.16492409 0.0051249 0.51221156
-0.15497927 0.005165095 0.51231551
-0.14503154 0.005248785 0.5125826
-0.13508058 0.0048966547 0.51277417
-0.12498387 0.0046605142 0.51287395
-0.1151297 0.004932696 0.51421416
-0.10502181 0.0048771501 0.5144012
-0.094885841 0.0050503681 0.5135746
-0.085046642 0.0052048536 0.51414108
-0.074941605 0.0048091146 0.51536399
-0.065073982 0.0048416909 0.51603436
-0.055112362 0.0049981466 0.51516533
-0.044829667 0.0053682597 0.51410985
-0.034790162 0.0048416401 0.51278174
-0.024678459 0.0048748981 0.51221877
-0.014985708 0.0050402279 0.51390755
-0.0049125613 0.0050465106 0.51443321
0.0050377515 0.0051472085 0.51451844
0.015006401 0.0048610005 0.51497084
0.025033802 0.0050335424 0.51571798
0.034997329 0.0051477053 0.51603031
0.045032997 0.0051766722 0.51631284
0.055090498 0.0051161037 0.51647496
0.064891882 0.0048045013 0.51741385
0.075077958 0.0049765469 0.5173735
0.085105151 0.0049824277 0.51736271
0.094996653 0.0050243251 0.51744395
0.10493769 0.0049896194 0.51690543
0.11500272 0.0051323688 0.51682127
0.12510136 0.0051437761 0.51712447
0.13521577 0.0049773026 0.51762527
0.14498819 0.0049997661 0.51786768
0.1550391 0.0049357391 0.51732242
0.16494842 0.0051331604 0.51820695
0.17497844 0.0050961655 0.5188278
0.18496381 0.0049578757 0.51824164
0.19498859 0.0051017059 0.51886475
0.20501786 0.0050501698 0.51894051
0.2150957 0.0048801536 0.51860255
0.22326791 0.006160134 0.51943767
0.23525068 0.0059650908 0.51987094
0.24814874 0.0016985638 0.51980072
0.25469843 0.00155822 0.51973975
0.26535019 0.0035376481 0.5196653
0.27495787 0.0044944468 0.51931101
0.28527775 0.0050313785 0.51970649
0.29176489 0.0069434973 0.51959854
0.3055442 0.0033185878 0.51977515
-0.33022162 0.010890059 0.51024359
-0.32336512 0.014048195 0.51055688
-0.31506187 0.014988004 0.5108707
-0.30502728 0.015022677 0.51098347
-0.29513964 0.015203276 0.51098555
-0.2850472 0.01614289 0.51062322
-0.27457383 0.015135701 0.51082206
-0.26498339 0.015317527 0.51193357
-0.25516996 0.015076191 0.51337463
-0.24529523 0.014948299 0.51449537
-0.23509364 0.015225603 0.51451117
-0.22469851 0.015048546 0.51402754
-0.21486093 0.014666369 0.51380765
-0.20496701 0.014872454 0.51388252
-0.19487095 0.015047347 0.51370269
-0.18476409 0.015275665 0.51287091
-0.17510287 0.015002487 0.51262397
-0.16515379 0.015222616 0.51254946
-0.15487111 0.015187256 0.51293093
-0.14482085 0.015190804 0.5136075
-0.1349653 0.015159456 0.51319635
-0.12466611 0.01505525 0.51221138
-0.11466887 0.014920225 0.51286125
-0.10535864 0.01493926 0.51437747
-0.094932169 0.01502167 0.51334494
-0.085112534 0.015181499 0.5134806
-0.07507024 0.015125794 0.51515049
-0.065060288 0.015014656 0.51614529
-0.054904107 0.015130585 0.51539654
-0.045067873 0.015400498 0.51470536
-0.035014629 0.01517902 0.51357168
-0.02495162 0.01495752 0.51283234
-0.014962219 0.01495702 0.51406068
-0.0050703706 0.015082481 0.51525015
0.0049438253 0.015175995 0.51546228
0.014950588 0.015129977 0.51584357
0.025010729 0.015059728 0.51648527
0.035064131 0.015092125 0.51686132
0.044900425 0.015279018 0.51746976
0.055014316 0.015300521 0.5175249
0.065134242 0.014957241 0.51787686
0.07503365 0.015129527 0.51849109
0.085078761 0.014987103 0.51847786
0.094983965 0.015076754 0.51810431
0.10491499 0.015185897 0.51759559
0.11485986 0.015026337 0.51751763
0.12506378 0.014908792 0.51743048
0.13492453 0.014841835 0.51856393
0.14498241 0.012778783 0.51941991
0.15525912 0.014883291 0.51827615
0.1651374 0.014977901 0.51841974
0.17511418 0.014857437 0.5189352
0.18513422 0.014971175 0.51832879
0.19502488 0.014938965 0.51778966
0.20493536 0.014983946 0.51863849
0.21486051 0.01481416 0.51861084
0.22494823 0.014924562 0.51900828
0.23173477 0.014967632 0.51975805
0.24221267 0.010279261 0.51999563
0.26456952 0.012665078 0.51977772
0.27355024 0.011437678 0.51979935
0.28818777 0.011717517 0.51970506
0.29210535 0.013864964 0.51965272
-0.34199828 0.028655197 0.51198053
-0.33493263 0.025836688 0.51108032
-0.32493103 0.025349809 0.510692
-0.31452602 0.024765218 0.510737
-0.30462596 0.025299121 0.51117116
-0.29466283 0.025157318 0.5118717
-0.2845524 0.025240865 0.51253551
-0.27474567 0.025156427 0.51272368
-0.26509658 0.025066094 0.51361716
-0.25480315 0.024978746 0.51442027
-0.24487053 0.024942253 0.51468319
-0.23514928 0.02502005 0.51472193
-0.22523327 0.024788616 0.51459682
-0.21521004 0.025045069 0.51352555
-0.20504637 0.025063744 0.51182187
-0.19496274 0.025092144 0.51125085
-0.18484898 0.024973826 0.51208919
-0.17499413 0.025200736 0.51309294
-0.16507646 0.025233516 0.51333922
-0.15519378 0.025056003 0.5128684
-0.14534633 0.025350861 0.51297659
-0.13513866 0.025229398 0.51298428
-0.12501635 0.025285019 0.51255447
-0.11481929 0.02494631 0.51286852
-0.10501734 0.025127338 0.5140909
-0.09482684 0.025283922 0.51358801
-0.084656671 0.024943659 0.51287371
-0.07494019 0.025026031 0.51367038
-0.065128893 0.025063647 0.5150975
-0.054913022 0.025180427 0.51553863
-0.044854108 0.025146531 0.5156759
-0.034992635 0.025305171 0.51621312
-0.025007486 0.024960905 0.51667607
-0.015258792 0.025023945 0.51732785
-0.0050606956 0.025120981 0.51748788
0.005140333 0.025058823 0.51690465
0.01492114 0.025040159 0.51743805
0.025161717 0.024973653 0.51705122
0.03523013 0.025090788 0.51672232
0.045127489 0.02506597 0.51701665
0.055086631 0.025049226 0.51752007
0.064944424 0.025137665 0.51835418
0.07508491 0.025248362 0.51861918
0.085035935 0.025130158 0.51911098
0.095036045 0.025107836 0.51861966
0.10503938 0.025069948 0.51862216
0.115376 0.024507925 0.51909178
0.12507473 0.024750721 0.51868737
0.13486902 0.024868598 0.51845616
0.14258124 0.026167491 0.51923674
0.15735255 0.022965383 0.5193975
0.16525167 0.024531644 0.5192681
0.17499259 0.024973005 0.51836938
0.18493843 0.024818348 0.51904303
0.19500299 0.024929902 0.51901907
0.20511524 0.024859596 0.51910615
0.21393485 0.023335045 0.51959312
0.22511537 0.021879876 0.51972246
0.2349292 0.024597863 0.51983446
0.24539177 0.025673673 0.51971495
0.25221217 0.027459769 0.51970029
0.26094976 0.027923072 0.51988977
0.2941952 0.020161645 0.51994425
-0.34385371 0.03581224 0.51175964
-0.33514956 0.035209205 0.51185596
-0.32534677 0.035055313 0.51224667
-0.31490543 0.034684159 0.51268625
-0.30506289 0.035220958 0.51300114
-0.29515499 0.034751046 0.51312178
-0.28508621 0.035184972 0.51409143
-0.27483156 0.035074815 0.51418024
-0.26484236 0.035079729 0.51396865
-0.25471032 0.034872871 0.51384407
-0.24506676 0.03530122 0.51397622
-0.23512851 0.034794487 0.51449692
-0.22503656 0.034917038 0.51483899
-0.21471359 0.035148121 0.51386327
-0.20475076 0.035045277 0.51235515
-0.19487888 0.035051581 0.51181638
-0.18504846 0.034788851 0.51263142
-0.17519751 0.034716256 0.51400435
-0.16527374 0.035259113 0.51481843
-0.15491326 0.035067614 0.51420218
-0.14491437 0.035119891 0.51332611
-0.13485447 0.035215549 0.51322597
-0.12497982 0.035131853 0.51404589
-0.11500245 0.035024185 0.51496017
-0.10502888 0.034740236 0.51572782
-0.095117316 0.034986198 0.51529336
-0.085157134 0.035097498 0.51418871
-0.0748851 0.035057522 0.5133068
-0.064873837 0.034930158 0.51409608
-0.055213213 0.034774505 0.51588595
-0.045329399 0.034840818 0.5169096
-0.035087984 0.03530544 0.51719135
-0.024842007 0.03507923 0.51757401
-0.014874873 0.034941323 0.51875073
-0.0046647838 0.034992017 0.51826948
0.0051869405 0.034869611 0.51757264
0.014977516 0.034998909 0.51731825
0.025048932 0.035023522 0.51672161
0.03494218 0.034921259 0.51684511
0.044965118 0.034835085 0.51671839
0.054978009 0.034742963 0.51688367
0.065020517 0.035219219 0.51822972
0.075089693 0.035253678 0.51902848
0.085123532 0.034905124 0.5186922
0.094986632 0.034991201 0.51868862
0.10480393 0.035090771 0.51889205
0.11256896 0.031889118 0.51970851
0.12662223 0.031504612 0.51963919
0.1356947 0.033668555 0.51938272
0.14422864 0.034764241 0.51939505
0.16706686 0.033996996 0.51970518
0.17473578 0.033412892 0.5192613
0.18554032 0.032584455 0.51928151
0.19531892 0.034784161 0.51915902
0.20400414 0.034280244 0.51942575
0.21026333 0.032062802 0.51982379
0.24662451 0.034457818 0.51973003
0.25278455 0.035729922 0.5196774
-0.35300845 0.046792105 0.51259196
-0.34479946 0.045121048 0.51252788
-0.33471632 0.04504611 0.51278704
-0.3248516 0.044834293 0.51328605
-0.31473634 0.044872977 0.51401502
-0.30507433 0.044961866 0.51423424
-0.29527628 0.044973679 0.51433998
-0.28517669 0.044932764 0.51508474
-0.27485979 0.044980563 0.51527607
-0.26511973 0.045358852 0.5143398
-0.25525549 0.045111332 0.51331079
-0.24515076 0.044976506 0.51339769
-0.23515347 0.04479913 0.51430547
-0.22503383 0.04492167 0.51506668
-0.21507272 0.045110639 0.51508504
-0.20530525 0.045259524 0.51436514
-0.19495687 0.044883721 0.51354295
-0.18470742 0.045008253 0.51387191
-0.17500713 0.045077037 0.51485234
-0.16509959 0.044978574 0.51588595
-0.15515178 0.044809155 0.51608837
-0.14508761 0.045088068 0.51546943
-0.13492003 0.045175131 0.51481414
-0.12500702 0.045025747 0.51545084
-0.11508067 0.044824794 0.51647407
-0.10509495 0.044792872 0.51699597
-0.095240541 0.044970851 0.51632404
-0.085088111 0.045106847 0.51540399
-0.075043999 0.045063801 0.51494753
-0.064846247 0.045029666 0.51530576
-0.055241808 0.044909921 0.51689035
-0.045083161 0.044884443 0.51692444
-0.034911599 0.045103207 0.51667416
-0.025004996 0.045147318 0.51707739
-0.015111119 0.045032114 0.51861447
-0.0051214676 0.044709034 0.51858777
0.0048343446 0.04497166 0.51727021
0.014778814 0.044929553 0.51684016
0.024985237 0.045110021 0.51717275
0.035047714 0.04503784 0.51752162
0.045001112 0.044973705 0.51718956
0.055007532 0.044837389 0.51706088
0.065186448 0.045175247 0.5177846
0.074938454 0.045104474 0.51880687
0.084969193 0.044859871 0.51878023
0.09509439 0.044836443 0.51875031
0.10504045 0.045175876 0.51872987
0.11405949 0.046553943 0.51953632
0.12430594 0.047197018 0.51977903
0.13513879 0.04410271 0.51981419
0.14541808 0.041057646 0.51981652
0.16707999 0.044848152 0.51978046
0.17218426 0.045672696 0.51983011
0.19733568 0.042895712 0.51958358
0.20301968 0.044393066 0.51972091
0.24607563 0.043185323 0.51976287
0.25324228 0.042514931 0.5197255
0.26028502 0.045114562 0.5199644
-0.36275551 0.056806572 0.51481378
-0.35461786 0.055103272 0.51440525
-0.34497139 0.0549605 0.51431042
-0.3348631 0.054973584 0.51411068
-0.32463309 0.054852646 0.5140298
-0.31495246 0.054946888 0.51392531
-0.30517763 0.054984305 0.51363796
-0.29493558 0.055127315 0.51378757
-0.28462738 0.055005103 0.51446724
-0.27504817 0.054994557 0.51574838
-0.26491266 0.054997243 0.5156368
-0.25463095 0.055135861 0.51412386
-0.24452738 0.054973971 0.51372856
-0.23461363 0.054615509 0.51457077
-0.22499098 0.055452254 0.51513618
-0.21498646 0.055139869 0.51531512
-0.20475417 0.054747269 0.51493698
-0.19455366 0.054965623 0.51395315
-0.18515003 0.05488744 0.5138247
-0.1751215 0.05490502 0.51463723
-0.16499482 0.055136207 0.51513237
-0.15514967 0.055041768 0.51595396
-0.1450724 0.054938085 0.51646036
-0.13491224 0.055134665 0.51579601
-0.12498704 0.055074789 0.51587927
-0.11491827 0.054759461 0.51691413
-0.10516096 0.055085268 0.51745814
-0.095049307 0.055288069 0.51682001
-0.084860213 0.05493962 0.5161432
-0.074920021 0.05494713 0.51570463
-0.06484846 0.054901805 0.51563805
-0.054934442 0.055082295 0.5174306
-0.044853799 0.05509752 0.51773614
-0.034887008 0.054938458 0.51782948
-0.025007665 0.055036489 0.51832813
-0.014850878 0.054877024 0.51789689
-0.0047242125 0.054890208 0.51771492
0.0050278013 0.055060688 0.51710445
0.015147283 0.055075623 0.51666301
0.025097342 0.054993961 0.5174045
0.034728285 0.054975562 0.51840508
0.045072619 0.055033293 0.51754004
0.055062976 0.054938283 0.51751125
0.065066352 0.055069722 0.51841831
0.074743658 0.054652609 0.51905704
0.084914833 0.053672876 0.51934868
0.094990835 0.054928858 0.51936156
0.10506935 0.054912709 0.51877683
0.11420234 0.054808177 0.51942968
0.12328199 0.052355558 0.51973361
0.1674864 0.050706007 0.51997763
0.17658877 0.054871559 0.51984733
-0.36430058 0.065464348 0.51370388
-0.35510802 0.065191217 0.51324844
-0.34492019 0.064962015 0.51288521
-0.33489129 0.065060832 0.51274514
-0.32476652 0.065206587 0.51304346
-0.31446615 0.065089397 0.51312226
-0.30515644 0.064893782 0.51334047
-0.29527184 0.06517984 0.51357055
-0.28452125 0.064903967 0.51426721
-0.27479291 0.065094769 0.51539248
-0.26512358 0.064925276 0.51577049
-0.25518802 0.065261118 0.51496142
-0.24484071 0.064678594 0.5138312
-0.23491511 0.065144904 0.51451707
-0.2250413 0.065119497 0.5156492
-0.2149737 0.064980574 0.51616049
-0.20503107 0.065061912 0.51583236
-0.19481415 0.06506113 0.51464295
-0.18490157 0.065095834 0.51448351
-0.17502567 0.064961746 0.51446426
-0.16496864 0.064899839 0.51431149
-0.15477136 0.064819776 0.51501346
-0.14492236 0.065048061 0.51606011
-0.13509904 0.065070771 0.51589996
-0.12513007 0.065001711 0.51527482
-0.11500522 0.064887807 0.51593351
-0.10497134 0.065334901 0.51697814
-0.094820678 0.064885326 0.51756734
-0.084990799 0.065023251 0.51770586
-0.074950613 0.065036006 0.51713586
-0.064796813 0.064979486 0.51654339
-0.05497551 0.064988069 0.5174123
-0.045001656 0.064976878 0.51834732
-0.035011385 0.064865947 0.51852262
-0.024911832 0.065199919 0.51894552
-0.014954649 0.064960897 0.51810259
-0.0051334421 0.065098584 0.51763451
0.0049332888 0.064897858 0.51737827
0.015091233 0.065033138 0.51702404
0.025046114 0.064826094 0.51798981
0.033506222 0.06498646 0.51951814
0.04570365 0.063606963 0.51938885
0.054963484 0.065058865 0.51893753
0.064862825 0.064948328 0.51874554
0.074626729 0.065538056 0.51896882
0.084683768 0.06671875 0.51972055
0.095273122 0.06514848 0.51914698
0.10504597 0.064931214 0.51892281
0.11347734 0.064386033 0.5195024
0.12356332 0.06639687 0.51982641
0.21718282 0.068188287 0.51980364
-0.37233409 0.076996036 0.51241481
-0.36489218 0.075324491 0.51162302
-0.35496095 0.074636452 0.51078391
-0.3456406 0.073721863 0.5105058
-0.33469266 0.074457869 0.5105204
-0.32473937 0.074984536 0.51144546
-0.31481206 0.07506752 0.51253676
-0.3050344 0.074927844 0.51337898
-0.29512712 0.075015597 0.51380461
-0.28505152 0.074921817 0.51419055
-0.27459618 0.075137414 0.51402915
-0.26484182 0.074718349 0.51442158
-0.2552776 0.075297356 0.51572627
-0.24497221 0.075093396 0.51562947
-0.23516279 0.074885391 0.51556069
-0.22505122 0.074860662 0.5160042
-0.21497501 0.075060569 0.51568907
-0.20496076 0.075063229 0.51469266
-0.19498196 0.075102121 0.51488781
-0.18520622 0.075117163 0.51609093
-0.1750001 0.07510265 0.51654327
-0.1650299 0.074921213 0.51649058
-0.1551016 0.075034559 0.51690716
-0.14491628 0.0750155 0.51665896
-0.13483179 0.075033687 0.51584697
-0.12459806 0.074963033 0.51537383
-0.11493921 0.075036749 0.51624805
-0.10522187 0.074987464 0.51707971
-0.095067993 0.074904174 0.5174076
-0.084988758 0.074968129 0.51712668
-0.074893318 0.074939594 0.51688457
-0.065025285 0.075189896 0.51689559
-0.055002615 0.074936219 0.51720089
-0.044959959 0.075056463 0.51759064
-0.034912359 0.074898042 0.51814204
-0.025153507 0.07488963 0.51834887
-0.015083773 0.075023837 0.51798397
-0.0050102044 0.075039819 0.51782125
0.0048997412 0.075084709 0.51817441
0.015111011 0.074927434 0.51812232
0.025101736 0.075013302 0.51899624
0.034923781 0.075047642 0.51935238
0.045125112 0.075692795 0.51940566
0.055107918 0.075220004 0.51905972
0.064861283 0.074935906 0.51900524
0.074897595 0.074768968 0.51906866
0.08502721 0.074995495 0.51925468
0.094992831 0.074973933 0.51872075
0.10410549 0.074924573 0.51889062
0.11421888 0.07214459 0.51989973
0.12529315 0.073748574 0.51980495
0.1315769 0.076048747 0.51986766
-0.38123652 0.087795764 0.51359028
-0.3744773 0.085220695 0.51288468
-0.36496741 0.085269988 0.5119862
-0.35466018 0.084751643 0.51099658
-0.34504306 0.085339449 0.51077253
-0.33476791 0.085460939 0.5105083
-0.324882 0.085273787 0.51118016
-0.31537557 0.084927805 0.5132944
-0.30526635 0.08499933 0.51499009
-0.29494449 0.085014872 0.51521546
-0.28490627 0.085017204 0.51498014
-0.27484569 0.085198022 0.51466823
-0.26460531 0.0847743 0.51454371
-0.25503355 0.084946416 0.51647604
-0.24492757 0.085100152 0.51795644
-0.2349786 0.084757723 0.51806742
-0.22492248 0.08529003 0.51790822
-0.2149224 0.085026465 0.51667666
-0.20465319 0.084961794 0.51484144
-0.19472952 0.085039228 0.51449358
-0.18528219 0.08508049 0.51646578
-0.17530911 0.084996134 0.51743203
-0.16491224 0.084987901 0.51729476
-0.15497637 0.084962748 0.5176813
-0.1448179 0.085172623 0.51734346
-0.13485742 0.084864788 0.51654977
-0.12492377 0.085040584 0.51683593
-0.11500605 0.085010283 0.51752412
-0.10487001 0.085062481 0.51784921
-0.094944052 0.084840514 0.51727217
-0.085014246 0.08500129 0.51669508
-0.075055666 0.085007846 0.51687723
-0.06482958 0.084979661 0.51762575
-0.055051759 0.084909454 0.51827544
-0.045182087 0.084967479 0.51882243
-0.035276759 0.08474908 0.5193246
-0.024555141 0.084423013 0.51918501
-0.014935141 0.084970616 0.51838088
-0.005003328 0.085067421 0.51834023
0.0051402808 0.08511468 0.51907206
0.015293249 0.084863283 0.51926357
0.024525614 0.084850058 0.5195502
0.035290439 0.084331483 0.51949704
0.045079764 0.084573478 0.5192551
0.054889861 0.08485917 0.51919383
0.063893385 0.082670733 0.51953793
0.076246113 0.081154376 0.51986009
0.08599367 0.082407005 0.51965386
0.095461227 0.083059385 0.51939666
0.10483211 0.084116399 0.51950181
0.12841743 0.082205802 0.51990563
-0.38399976 0.095728062 0.51321971
-0.37489754 0.095243447 0.51320857
-0.36483878 0.095050521 0.51264352
-0.35459006 0.094766945 0.51198572
-0.34509638 0.095185101 0.51190776
-0.33519667 0.0951574 0.51171201
-0.32484463 0.094769247 0.51196384
-0.31489041 0.094819099 0.51397622
-0.30541673 0.0950642 0.51600689
-0.29502338 0.095026277 0.51641017
-0.28456053 0.095359124 0.51622081
-0.2748158 0.094984472 0.51605678
-0.26456681 0.095063798 0.51608765
-0.25481305 0.094703004 0.51690966
-0.24512333 0.095028147 0.51841575
-0.23501588 0.095012031 0.51823187
-0.22526027 0.09497001 0.51789653
-0.21501014 0.095202774 0.51744288
-0.20501271 0.095006943 0.51629025
-0.19499622 0.095052078 0.51591909
-0.18481311 0.094861269 0.5168488
-0.1746124 0.095096163 0.51738572
-0.16482382 0.094940156 0.51807934
-0.15496111 0.0952354 0.51847726
-0.14516902 0.094914049 0.51846087
-0.13464434 0.094981074 0.51776725
-0.12478518 0.095025636 0.51795036
-0.11493899 0.095150694 0.51833999
-0.10510737 0.094929397 0.51868379
-0.095114447 0.09499681 0.51845729
-0.084847771 0.094966084 0.51781207
-0.074807383 0.095032923 0.51776952
-0.065113559 0.095041297 0.51835686
-0.054970417 0.094871454 0.51887876
-0.044992849 0.095115118 0.5194515
-0.035529658 0.095468163 0.51959014
-0.02459519 0.095914707 0.51951194
-0.015113508 0.094998732 0.5189898
-0.0049487669 0.095097706 0.51903093
0.0052302764 0.094997935 0.51889634
0.014152663 0.094495013 0.51963949
0.023618257 0.094079509 0.51977581
0.032435682 0.091181025 0.51985395
0.044354737 0.090740398 0.51988143
0.10757422 0.091404974 0.5198372
0.11015029 0.093984738 0.51998532
-0.3925854 0.10640802 0.51286674
-0.38464952 0.10491487 0.51283336
-0.37502849 0.10511422 0.51342016
-0.36497796 0.10503051 0.51336831
-0.35474896 0.10506897 0.51307917
-0.34469634 0.10486526 0.5131765
-0.33522782 0.10521659 0.5135417
-0.32520208 0.10476389 0.51361626
-0.31489521 0.10477533 0.514108
-0.3049202 0.10499996 0.51513946
-0.29515496 0.1052864 0.5157339
-0.28529486 0.10500054 0.51616722
-0.27509287 0.10500974 0.5164839
-0.26493397 0.1047857 0.51605123
-0.25454539 0.10522383 0.51605189
-0.24498549 0.10517111 0.51771408
-0.23526154 0.10508188 0.51831126
-0.22503234 0.10494544 0.51794773
-0.21492837 0.10501994 0.51750869
-0.2047666 0.10510379 0.51707411
-0.19494414 0.10495813 0.51725972
-0.1851607 0.1049945 0.51764649
-0.17485686 0.10486241 0.51747751
-0.16493089 0.10496649 0.51758456
-0.15522732 0.10492167 0.51819718
-0.14496684 0.10499773 0.51821965
-0.13475135 0.10507581 0.51753473
-0.12500304 0.10500717 0.51821041
-0.11509446 0.10477318 0.51914048
-0.10536977 0.103273 0.5195924
-0.094797224 0.10189199 0.51962066
-0.084149316 0.10439392 0.5190509
-0.074767724 0.10493284 0.51854002
-0.064922638 0.10490011 0.51872933
-0.055129919 0.104948 0.51930636
-0.044931311 0.10498346 0.51939499
-0.034876857 0.10503408 0.51936436
-0.025227044 0.10302176 0.51970822
-0.015602585 0.10200536 0.51971424
-0.006447407 0.10095403 0.51968712
0.0048395842 0.10220169 0.51962727
0.01238364 0.10285851 0.51976305
-0.40084234 0.11825063 0.51494128
-0.39391837 0.11546487 0.51440555
-0.38493419 0.11455326 0.51490778
-0.37494239 0.11516222 0.51536244
-0.36454496 0.11487985 0.51500201
-0.35450241 0.11516842 0.51470178
-0.34456727 0.11455037 0.51446909
-0.33521038 0.11518212 0.51484293
-0.32504079 0.11482532 0.51483369
-0.31508347 0.11469488 0.51438558
-0.30498129 0.11482774 0.51394027
-0.29483378 0.11500649 0.51434362
-0.28514898 0.11490735 0.51577735
-0.27492818 0.11479939 0.51655841
-0.26470816 0.11513615 0.51632953
-0.25460586 0.11486047 0.51604164
-0.2452094 0.11500123 0.51757973
-0.23506746 0.11503287 0.51891631
-0.22474842 0.11535291 0.51899058
-0.2150012 0.11486639 0.51875192
-0.2049285 0.11495066 0.51830906
-0.19480538 0.11490563 0.51837271
-0.18522021 0.11514103 0.5186007
-0.17517175 0.11495809 0.51758385
-0.16482699 0.11480466 0.51648414
-0.15490615 0.11512338 0.51764011
-0.14483827 0.1149736 0.51890624
-0.13472649 0.11474866 0.51879871
-0.12500906 0.11452707 0.51913756
-0.11491341 0.11260395 0.51966405
-0.081661105 0.11292565 0.51982516
-0.074239314 0.11459462 0.51940405
-0.064982004 0.11493713 0.51905829
-0.054846648 0.11495528 0.51919913
-0.04469778 0.11486145 0.51880091
-0.034750368 0.11512391 0.51890403
-0.026389763 0.11589601 0.5198257
0.017312786 0.1191658 0.51984906
0.023624368 0.11937394 0.51990598
-0.40356547 0.1256267 0.5146991
-0.39424333 0.12505966 0.51527029
-0.38528961 0.12506185 0.51697999
-0.37508571 0.12504274 0.51764435
-0.36478722 0.12476373 0.51715732
-0.3545166 0.12502007 0.51645422
-0.34474376 0.12474138 0.51630598
-0.33500436 0.12517419 0.51665747
-0.32526654 0.12527613 0.51708025
-0.31494144 0.12488931 0.51638484
-0.30457988 0.12503752 0.51562124
-0.29458535 0.12511121 0.51608431
-0.28498209 0.12459947 0.51745129
-0.27504972 0.12510277 0.5183636
-0.26514459 0.12492779 0.51820385
-0.25508991 0.12490263 0.51767451
-0.2449297 0.12514171 0.51856077
-0.23460165 0.12490001 0.51917821
-0.22492597 0.1249747 0.519256
-0.21514069 0.12479721 0.51952475
-0.20503542 0.12462829 0.51943719
-0.19545169 0.12331805 0.51947629
-0.18415338 0.12270804 0.51934797
-0.17474583 0.12516566 0.51872933
-0.16477475 0.12507699 0.51750654
-0.15485156 0.12475499 0.5177846
-0.14670594 0.12452237 0.51942444
-0.13244389 0.12015098 0.51976746
-0.12719974 0.12204138 0.51979411
-0.11436483 0.12915586 0.51978701
-0.10560959 0.12775451 0.51994497
-0.072577789 0.12177646 0.51970786
-0.064220756 0.12447646 0.51930922
-0.055049047 0.12500475 0.51892477
-0.045105543 0.12503438 0.51819104
-0.034942225 0.12483278 0.51836586
-0.027787346 0.12488009 0.51959139
0.017293893 0.12429024 0.51970935
0.024332657 0.12420201 0.51952404
-0.41224417 0.13614739 0.51425856
-0.40469742 0.13499738 0.51449889
-0.39540124 0.13523549 0.51537681
-0.38504419 0.13488673 0.51704335
-0.37513489 0.1347408 0.51807839
-0.36581725 0.13487774 0.51780629
-0.35525987 0.1350444 0.51703233
-0.34507102 0.13483797 0.51672959
-0.33500469 0.13507947 0.51680464
-0.32492027 0.13474624 0.51690936
-0.3147271 0.13523969 0.51655614
-0.30454826 0.13531625 0.51665711
-0.29454482 0.13503549 0.5177235
-0.2849474 0.13485235 0.51907849
-0.27478087 0.1351493 0.51938528
-0.26471695 0.13489106 0.51919568
-0.25464323 0.13486081 0.51894182
-0.24510911 0.13494675 0.51938617
-0.23536667 0.13379326 0.51967376
-0.22546387 0.13278049 0.51942396
-0.2160733 0.13312326 0.51971495
-0.20666234 0.13138126 0.51977861
-0.19433394 0.13237505 0.5199343
-0.18322219 0.13585939 0.51956725
-0.1750593 0.13513003 0.51873678
-0.16500632 0.13503385 0.51833308
-0.15515192 0.13497075 0.51875651
-0.1464521 0.13424343 0.51959795
-0.12346753 0.13543266 0.5198217
-0.11432776 0.13602047 0.51970088
-0.10558911 0.13495339 0.51972342
-0.094994307 0.1358453 0.51973379
-0.08817333 0.13742486 0.5196929
-0.061491966 0.13021578 0.5199188
-0.053816233 0.13430004 0.51931697
-0.044946831 0.13465306 0.519063
-0.035070796 0.13391112 0.51933151
-0.025920333 0.13477835 0.51968634
-0.018112093 0.13672286 0.51997387
-0.42239764 0.14793582 0.51674837
-0.41484329 0.14499316 0.51593357
-0.4051038 0.14511544 0.51602691
-0.39516929 0.14487487 0.51650208
-0.38520983 0.14477015 0.51702303
-0.37532786 0.14504035 0.51735598
-0.36498749 0.14475888 0.51744688
-0.35472125 0.1453132 0.51780277
-0.34496582 0.1446908 0.51861095
-0.33453056 0.14433335 0.51854956
-0.32503286 0.14491929 0.51802403
-0.31456321 0.14470565 0.5169239
-0.30466339 0.14516765 0.51663548
-0.29517755 0.14500612 0.51787478
-0.28511065 0.14496316 0.51885897
-0.27530646 0.14494634 0.51903021
-0.26547021 0.14525059 0.51925528
-0.2552934 0.14469156 0.51961398
-0.24497415 0.14596611 0.51962256
-0.23843388 0.14900561 0.51967561
-0.18316974 0.14480357 0.51945943
-0.17490275 0.14505585 0.51809436
-0.16510232 0.14498691 0.5178287
-0.15498999 0.1451436 0.51864862
-0.1457023 0.1461706 0.51947492
-0.13786396 0.14704274 0.51970637
-0.12283026 0.14174417 0.51978922
-0.11571829 0.14258385 0.51989818
-0.10564085 0.14455336 0.51974088
-0.094078876 0.14492302 0.51967287
-0.084657691 0.14487435 0.51919538
-0.078355618 0.1482596 0.51982945
-0.051739901 0.14185175 0.519889
-0.045956809 0.14139035 0.5198006
-0.4305037 0.15605944 0.51850599
-0.42495176 0.15494095 0.51823008
-0.41483012 0.15500984 0.51762426
-0.40480161 0.15507852 0.51709908
-0.39497063 0.15490322 0.51708806
-0.38472748 0.15491004 0.51716751
-0.37478027 0.15504642 0.51703656
-0.36492962 0.154805 0.51719844
-0.35504353 0.15507239 0.51809257
-0.34714678 0.15625276 0.51938355
-0.32454646 0.1544797 0.51963371
-0.31505206 0.15473023 0.51899004
-0.304701 0.15534891 0.51856714
-0.29511541 0.15509705 0.51920944
-0.28506625 0.1547879 0.51914388
-0.27474675 0.15498506 0.51838118
-0.26497614 0.15503703 0.51846492
-0.25522867 0.15496215 0.51918286
-0.24495701 0.15495457 0.51901758
-0.23537493 0.15591417 0.51926392
-0.22515053 0.15544878 0.51906455
-0.21506037 0.15535516 0.51904887
-0.20570999 0.15614936 0.51956868
-0.18159604 0.15330145 0.51982766
-0.17476802 0.15495741 0.51898623
-0.16503097 0.15483488 0.51782686
-0.15499371 0.15504791 0.51785064
-0.14507225 0.15504354 0.51885116
-0.13656096 0.1547904 0.51961058
-0.11187062 0.15866667 0.51998651
-0.10514624 0.15449743 0.51983166
-0.092786387 0.15174973 0.51973766
-0.085653596 0.15220347 0.51956713
-0.079831988 0.15124363 0.51957059
-0.42398432 0.16003743 0.51865643
-0.41253272 0.16065703 0.5176056
-0.40423414 0.16191478 0.51717031
-0.39464942 0.16288206 0.51710916
-0.38467759 0.16421002 0.51644212
-0.37514377 0.16520603 0.51579481
-0.3648392 0.16503669 0.51526731
-0.3548519 0.16469939 0.51560342
-0.34501806 0.16495076 0.5166083
-0.33529279 0.16534185 0.51761645
-0.32500392 0.16519871 0.51810539
-0.31478927 0.16495465 0.51788282
-0.30460808 0.16505477 0.5177083
-0.29489538 0.16483137 0.51852715
-0.28495732 0.16493581 0.51853192
-0.27476737 0.16505501 0.51763755
-0.26482818 0.16485654 0.51792437
-0.25504985 0.16495621 0.51874882
-0.24488972 0.1650975 0.51845902
-0.23511329 0.16484484 0.51825726
-0.22519714 0.16494158 0.51818216
-0.21483611 0.16491337 0.51837146
-0.20498914 0.16493674 0.5191161
-0.19934654 0.1667701 0.5197618
-0.17208362 0.16326204 0.51951218
-0.1646966 0.16516709 0.51876068
-0.15465102 0.16482702 0.51859927
-0.14587581 0.16410959 0.51947802
-0.13649599 0.16413058 0.51967657
-0.37163648 0.17042847 0.51444173
-0.36402774 0.17172015 0.51389718
-0.35431898 0.17290364 0.51392132
-0.3448149 0.17444831 0.51442903
-0.33529398 0.17474465 0.51549965
-0.32543001 0.17520723 0.5171575
-0.31507945 0.17516164 0.51816356
-0.30484602 0.17465001 0.51862323
-0.29508606 0.17432404 0.51900715
-0.2850593 0.17429216 0.51869965
-0.2751874 0.175032 0.51827574
-0.26515439 0.17488848 0.51834989
-0.25560448 0.1749 0.51907879
-0.24511491 0.17502986 0.51901394
-0.23527314 0.17496018 0.51894349
-0.22500934 0.17373778 0.51907045
-0.214698 0.173932 0.51920664
-0.20564742 0.17394386 0.51945436
-0.19873889 0.17368169 0.51969212
-0.170028 0.171994 0.51991063
-0.16351864 0.17149051 0.51960939
-0.1559779 0.17092781 0.51973587
-0.14740488 0.1706575 0.51995432
-0.13466956 0.17053527 0.51995546
-0.12264493 0.17250319 0.5199542
-0.11892554 0.17148332 0.51997674
-0.33164519 0.18078439 0.51572484
-0.32467654 0.18242429 0.51760828
-0.3149595 0.18442905 0.51928008
-0.30789009 0.18624498 0.51964629
-0.27426714 0.18130942 0.51956815
-0.2650654 0.18197423 0.51963723
-0.25486007 0.18145144 0.51982343
-0.24473877 0.18293743 0.51971585
-0.23748465 0.18262993 0.51964849
-0.21179953 0.1800466 0.51983285
-0.20570207 0.18022886 0.5199883
-0.19622608 0.18194686 0.51992679
-0.18846235 0.18463308 0.51988995
-0.30433547 0.19110505 0.51970863
0.28777924 -0.022638213 0.52017599
0.2903704 -0.021451667 0.52030087
0.26580808 -0.011464989 0.52022016
0.29912701 -0.013266273 0.52004439
0.30447987 -0.011654605 0.52012414
0.31104001 -0.01050292 0.52014482
0.16709481 -0.0035184398 0.52003717
0.22614641 -0.0030052161 0.52035522
0.23531559 -0.0036060559 0.52047372
0.2430165 -0.0025172469 0.52034372
0.25178954 -0.00089461607 0.52017367
0.26499036 -0.00628844 0.52018106
0.27640799 -0.0061087147 0.52006906
0.28421766 -0.0031763189 0.5202952
0.29559696 -0.0033979178 0.52047127
0.30550835 -0.0040874067 0.52018499
0.31136507 -0.0073365122 0.52013057
0.22661881 0.00366063 0.52049047
0.23482129 0.0047612959 0.52038479
0.24467941 0.0053034425 0.5205577
0.25501204 0.0053465357 0.52059728
0.26476574 0.0060930131 0.5204612
0.27503842 0.0073251282 0.52017725
0.28461796 0.0048937718 0.52030998
0.29539955 0.0047178282 0.52106768
0.30411062 0.004803678 0.5208025
0.13882101 0.017502384 0.5202167
0.14516136 0.01661239 0.52064395
0.15056254 0.018550171 0.52032667
0.22545327 0.01535503 0.52013248
0.23563394 0.014730006 0.52059257
0.2450337 0.014958178 0.5206148
0.25505993 0.015013128 0.52109432
0.26502213 0.015434356 0.52086937
0.27519253 0.015231845 0.52092785
0.28472915 0.015185207 0.52100563
0.29579255 0.015229565 0.52097797
0.30244088 0.014309401 0.52153683
0.11348035 0.028553691 0.5202238
0.1207573 0.029536767 0.52036214
0.14683162 0.024492808 0.52069026
0.15400536 0.026207736 0.5206486
0.16294658 0.028479256 0.5202949
0.21625145 0.026189489 0.52036458
0.22504561 0.026007427 0.52051932
0.23501576 0.025077082 0.52048254
0.24471748 0.024249921 0.52031153
0.2553041 0.024744136 0.5208298
0.26522022 0.024792308 0.52107775
0.27508906 0.02486629 0.52105874
0.28505096 0.024870215 0.5214901
0.29496747 0.024844935 0.52116191
0.30086058 0.022013195 0.52131176
0.10961308 0.034756228 0.52020645
0.11516827 0.035396397 0.52089578
0.12443183 0.035702299 0.52096945
0.13313407 0.037756328 0.52040154
0.14720365 0.0356557 0.52020556
0.15500112 0.035148963 0.52101713
0.16407593 0.035723783 0.52053529
0.17556354 0.037433408 0.52055788
0.18476737 0.037117336 0.52064562
0.19169253 0.038199328 0.52024686
0.20765321 0.03701197 0.52044243
0.21512777 0.034936674 0.52102357
0.224957 0.035024617 0.52134985
0.23496437 0.035190787 0.52092546
0.24406835 0.035365485 0.52041304
0.25605112 0.034578223 0.5204854
0.26494625 0.035106502 0.52154851
0.27502468 0.03487898 0.52201968
0.28502196 0.03496499 0.52207541
0.29392719 0.034461591 0.52203786
0.11626098 0.042999476 0.52067935
0.12526906 0.044649672 0.52062035
0.13505954 0.04496954 0.52071464
0.14500409 0.045387026 0.52072245
0.1549473 0.045194596 0.52122444
0.16414674 0.044909194 0.52054971
0.17525972 0.044844866 0.52080065
0.18490319 0.045022715 0.52149844
0.19418623 0.045805871 0.52074838
0.20605144 0.045375552 0.52052391
0.2150141 0.044902604 0.52169573
0.22508854 0.045146078 0.52192509
0.23508713 0.044994023 0.5215897
0.24478519 0.045342632 0.52056944
0.25549886 0.045714587 0.52062702
0.26502594 0.045072455 0.52136397
0.27503932 0.045046803 0.52268296
0.2849426 0.044905592 0.52224731
0.29196757 0.044093128 0.52259809
0.077160455 0.058662146 0.52018046
0.084754162 0.057559013 0.52027696
0.092264079 0.057381719 0.52016336
0.1169212 0.055519633 0.52024925
0.12537052 0.055450302 0.52055079
0.13511826 0.054896887 0.52098775
0.145 0.054845516 0.52146894
0.15511109 0.055219106 0.52142835
0.16494851 0.054968454 0.52110803
0.17478646 0.055040736 0.52057469
0.18499483 0.054952182 0.52111936
0.19504905 0.054928772 0.5217042
0.20504628 0.055090867 0.52116644
0.21497656 0.055014923 0.52151126
0.22496903 0.055016831 0.52137184
0.23502505 0.055039998 0.52241242
0.24510542 0.054913934 0.52160889
0.25505885 0.055068694 0.52186573
0.2651467 0.054884754 0.52256072
0.27501777 0.055066314 0.52289319
0.28487122 0.054778222 0.52322173
0.2907058 0.051062852 0.52192467
0.036598139 0.06533166 0.5202769
0.043976657 0.067057483 0.52038938
0.078071587 0.061685696 0.52036703
0.085413143 0.063603528 0.52041876
0.090378806 0.063744113 0.52024567
0.11691783 0.065832242 0.52031273
0.12537634 0.064587936 0.52052385
0.13494684 0.065067984 0.52095693
0.14499536 0.064976394 0.52128375
0.15501989 0.065026298 0.52096635
0.16507079 0.064960897 0.52121449
0.17507103 0.065049753 0.52119946
0.18510328 0.064984411 0.52191234
0.1950063 0.065077588 0.52247775
0.2049841 0.064918838 0.5218001
0.2150111 0.064943619 0.52091187
0.22492255 0.064980075 0.52103573
0.23492473 0.065083146 0.52175629
0.24494724 0.065014593 0.52210939
0.2550672 0.064971969 0.52302468
0.26494572 0.064891458 0.5231244
0.27491549 0.064971179 0.52271503
0.28358087 0.064565495 0.52378201
0.036827847 0.071082972 0.52002919
0.044299126 0.071504906 0.52026516
0.074702464 0.079063043 0.5200808
0.083171651 0.078626193 0.52008897
0.10894041 0.075529158 0.52032721
0.11510625 0.075134553 0.52059174
0.12497383 0.075421989 0.52045679
0.13532765 0.074886553 0.52091032
0.14513941 0.075022571 0.5220322
0.15512469 0.074985638 0.52184522
0.16501193 0.075016372 0.52130055
0.17496508 0.075032987 0.52139258
0.18498403 0.075051077 0.52207494
0.19508784 0.074913114 0.52289099
0.20505942 0.075064629 0.52272153
0.21508141 0.074971229 0.52174044
0.2250798 0.074980974 0.52217817
0.23507573 0.074887469 0.52261996
0.24494651 0.075023375 0.52235782
0.25497028 0.07495641 0.5224973
0.26501638 0.075000279 0.52276111
0.2750349 0.074942753 0.5226205
0.28164503 0.073839985 0.5229103
-0.043058097 0.089130379 0.52010095
-0.031974655 0.087895647 0.52027512
-0.028301302 0.08875645 0.52034152
0.011997648 0.087962195 0.52008379
0.026726108 0.086635917 0.52017653
0.034551881 0.088031128 0.52017438
0.045950796 0.089127883 0.52034009
0.05761192 0.088934116 0.52015251
0.065859281 0.086449757 0.52073091
0.075179562 0.085282154 0.52089047
0.084656417 0.086195201 0.52075595
0.094377369 0.087461129 0.52051526
0.10578756 0.086481757 0.5202415
0.11485107 0.085061088 0.52105933
0.12492739 0.0849723 0.52116013
0.13518994 0.084876359 0.52102339
0.14499399 0.084993884 0.522084
0.15496556 0.084969267 0.52197313
0.1650915 0.085085094 0.52167284
0.17506741 0.084904239 0.52178204
0.18496709 0.08514154 0.5229196
0.19504768 0.085005149 0.52363092
0.20509031 0.084818609 0.52219582
0.21494846 0.08502274 0.52217335
0.22495146 0.084983669 0.52308059
0.23501466 0.085035294 0.52308857
0.24511409 0.084895104 0.52289134
0.25505337 0.085018195 0.52232772
0.2649796 0.085067935 0.5223459
0.2744461 0.084640361 0.52333456
0.2802535 0.080379404 0.52384019
-0.040146381 0.090280741 0.52008098
-0.033059936 0.093561411 0.52018404
-0.027022 0.09201096 0.52028263
0.016603554 0.095915116 0.52025646
0.025512077 0.095469639 0.52037573
0.035310868 0.095421113 0.52058983
0.045033779 0.095227271 0.52119875
0.055116713 0.094967484 0.52143461
0.06501811 0.094961599 0.52160895
0.074867025 0.094950885 0.52183717
0.084861435 0.094894677 0.52182579
0.095047541 0.095055789 0.5216859
0.10492292 0.09524595 0.52091885
0.11502648 0.09493605 0.52098787
0.12493189 0.095039703 0.52234751
0.1351224 0.095014542 0.52198887
0.14495295 0.094899528 0.52170169
0.15498203 0.094987422 0.52178311
0.16491595 0.094978049 0.52223587
0.17487991 0.094940655 0.52200276
0.18493585 0.095102906 0.52326185
0.19493362 0.094859742 0.52413851
0.20506898 0.095029369 0.52295673
0.21512769 0.094868921 0.52240098
0.2251628 0.094998695 0.52241731
0.23505546 0.095072031 0.52260876
0.24499737 0.09490177 0.52381694
0.25503981 0.094972 0.52365255
0.26501408 0.094936423 0.52316004
0.27288592 0.094790652 0.52352935
-0.11404264 0.10934607 0.52023125
-0.10469004 0.10715391 0.52047074
-0.095311292 0.10651098 0.52072155
-0.087644473 0.10759414 0.52034324
-0.025086589 0.10680093 0.52030379
-0.01462097 0.10650656 0.52063328
-0.0047389911 0.10568569 0.52066243
0.0051042601 0.10649814 0.52042234
0.0155651 0.10515804 0.52068686
0.025290156 0.1049448 0.52107048
0.03521296 0.10507678 0.5208298
0.044853542 0.10496403 0.52167618
0.054859135 0.10511557 0.52223611
0.065063007 0.10502706 0.52221066
0.075122915 0.10491926 0.52211195
0.085041814 0.10486203 0.52212411
0.09492863 0.10506956 0.52241051
0.10504522 0.10498249 0.52231091
0.11522657 0.10496643 0.5223158
0.12497608 0.10503145 0.52300322
0.13485405 0.10496973 0.52240306
0.14491795 0.10494865 0.52165043
0.15496311 0.10499887 0.52251011
0.16497481 0.10504454 0.52344161
0.17514347 0.10493553 0.52285349
0.18509877 0.10502254 0.52388525
0.19503459 0.10500769 0.52466935
0.20503661 0.10504043 0.52404803
0.21496505 0.10492789 0.52386898
0.22500005 0.10495472 0.52275515
0.23501873 0.10490654 0.52298003
0.24498723 0.1050059 0.52432102
0.25506812 0.10501888 0.52533704
0.26514581 0.10495969 0.52550852
0.27131924 0.10362336 0.52462006
-0.13245347 0.1195327 0.52032554
-0.12337455 0.11898717 0.52030122
-0.11479108 0.11564521 0.52036363
-0.10493989 0.11510779 0.520814
-0.095158063 0.1149515 0.52133316
-0.085828774 0.1153917 0.52089018
-0.078526415 0.11657166 0.52018899
-0.024356274 0.1143839 0.52037829
-0.015205495 0.11507363 0.52073407
-0.0050425683 0.11500698 0.52092427
0.0047901729 0.11501315 0.52115089
0.014886946 0.11461467 0.52082372
0.025235279 0.11484212 0.52128994
0.035019189 0.11509866 0.52141452
0.044858154 0.11492127 0.52142656
0.054951988 0.11499877 0.52125943
0.06506335 0.11494339 0.52165616
0.075103313 0.11489005 0.52168912
0.084937312 0.11505827 0.52203178
0.094956726 0.11495549 0.52308011
0.10504882 0.11497862 0.52325517
0.11511327 0.11495418 0.52281028
0.12503599 0.1150301 0.52278858
0.13495523 0.11488625 0.52286822
0.1449862 0.11501803 0.52246761
0.15505007 0.11488415 0.52285528
0.16501306 0.1151735 0.52415323
0.17502685 0.11495569 0.52318811
0.18497561 0.11491267 0.52357793
0.19502033 0.11499803 0.52449304
0.20497584 0.11502856 0.5243836
0.21502344 0.11495475 0.52425283
0.22496404 0.11509231 0.52542245
0.23513006 0.11503218 0.52510375
0.24507803 0.11491633 0.52457923
0.25493503 0.11501382 0.52527791
0.26418367 0.11449996 0.52578056
-0.21126762 0.12850812 0.52012497
-0.20455465 0.12724157 0.52014762
-0.19418396 0.12757052 0.5202812
-0.18599573 0.12710299 0.52038759
-0.14325356 0.12590288 0.52031291
-0.13528511 0.12534907 0.5206244
-0.12462105 0.12526672 0.5204947
-0.11543904 0.12469749 0.52067554
-0.10522595 0.12456428 0.52052522
-0.09506999 0.12514715 0.52095634
-0.085053101 0.12490605 0.52134472
-0.075603306 0.12596451 0.52086014
-0.06806159 0.12711541 0.52024633
-0.023283383 0.12503526 0.52052373
-0.015174606 0.12516366 0.521146
-0.0050014989 0.124908 0.52090186
0.0047777775 0.1251121 0.52133697
0.013923289 0.12526459 0.52055961
0.027092002 0.12630977 0.52031362
0.034966361 0.12490527 0.52137858
0.044966936 0.12501951 0.52209508
0.055039931 0.12479892 0.52154428
0.065131739 0.12497068 0.52136219
0.075059034 0.12491485 0.52183646
0.08511474 0.12506671 0.52249134
0.095033355 0.12496016 0.52389598
0.10508578 0.12501208 0.52356434
0.11482803 0.12500943 0.52292943
0.12493537 0.12480135 0.52277339
0.1349363 0.1249657 0.52309495
0.14506294 0.12501039 0.52295917
0.15503234 0.12495867 0.52359021
0.16491435 0.12493289 0.52423483
0.17498904 0.12505442 0.5241155
0.18503968 0.12498421 0.52374333
0.19509362 0.12504852 0.52427852
0.20502031 0.12498771 0.52487099
0.21504568 0.12501191 0.52433759
0.22505414 0.12494221 0.52469772
0.23493576 0.12504058 0.52574283
0.24494958 0.12498164 0.52481246
0.25502583 0.12493507 0.52482498
0.2624217 0.12456487 0.52507454
-0.26725444 0.1371439 0.52000207
-0.24120227 0.13836919 0.5201602
-0.23480253 0.13755938 0.52027822
-0.22477287 0.13753267 0.52033925
-0.21479927 0.13614558 0.52040559
-0.20470914 0.13559765 0.52067059
-0.19501746 0.13501005 0.52056289
-0.18708193 0.13392127 0.52039033
-0.15095225 0.13850963 0.52000606
-0.14356573 0.13562839 0.52031291
-0.13518691 0.13485341 0.52059609
-0.125521 0.13478847 0.52044344
-0.11570521 0.13403495 0.52031767
-0.10356879 0.13472325 0.52020836
-0.094993867 0.13399132 0.52029669
-0.084156476 0.13467696 0.52117813
-0.075077206 0.13515536 0.52277607
-0.065072663 0.1351864 0.52174956
-0.057407301 0.13741545 0.52067447
-0.042909611 0.13926876 0.5201264
-0.0346018 0.13834302 0.52030867
-0.024054883 0.13502975 0.5202679
-0.014975091 0.13491023 0.52095801
-0.0049998239 0.13512887 0.52158099
0.005141852 0.13501875 0.5217514
0.015100784 0.13507257 0.52184254
0.025002452 0.13499241 0.52200139
0.03516404 0.13502504 0.52288747
0.044829816 0.13506033 0.52426553
0.054929212 0.13494502 0.52329361
0.065020636 0.13501319 0.52239621
0.07479573 0.13511062 0.5232814
0.084978886 0.1350819 0.52356035
0.095040403 0.1349387 0.52429253
0.1051015 0.13493533 0.52373511
0.11510186 0.13496028 0.52310354
0.12514575 0.13486117 0.52288228
0.13506643 0.13497387 0.52351218
0.14510867 0.13496187 0.52337396
0.15502474 0.13494249 0.52384412
0.16502643 0.13508564 0.52499175
0.17497617 0.1349564 0.52475572
0.18503736 0.13500544 0.52386755
0.19487754 0.13501425 0.52413094
0.20498401 0.13502412 0.5253492
0.21501783 0.13489813 0.52508181
0.22495429 0.13501911 0.52481419
0.23497978 0.13485393 0.52492344
0.24492076 0.13503319 0.52536249
0.25499788 0.13496108 0.52623165
0.26101655 0.13301943 0.52548063
-0.34177712 0.14972183 0.52019656
-0.33763966 0.14904869 0.52018362
-0.26352477 0.14389655 0.52004862
-0.25453559 0.14561252 0.52015996
-0.24405913 0.14343707 0.52014565
-0.23469926 0.14473978 0.52066445
-0.22485997 0.14498216 0.52093869
-0.21492647 0.14529274 0.5209586
-0.20503341 0.14500022 0.52123082
-0.1950298 0.14520827 0.5211131
-0.18802823 0.1456096 0.52038145
-0.15024838 0.14055276 0.5201835
-0.14346939 0.1426623 0.52033466
-0.13439597 0.14449978 0.52040118
-0.12543754 0.14550641 0.52051377
-0.11501992 0.14557469 0.52039552
-0.10420736 0.14533167 0.52024865
-0.096319214 0.1452494 0.5201748
-0.080097586 0.14025146 0.52101594
-0.074724615 0.14468192 0.52183223
-0.065121867 0.14521804 0.52274084
-0.055080555 0.14526124 0.52122653
-0.044862311 0.14579879 0.52077389
-0.03505791 0.14498064 0.5210855
-0.024733985 0.14500248 0.52116996
-0.015056023 0.14503309 0.52212358
-0.0051288363 0.14509232 0.523184
0.0051364792 0.14492844 0.52302599
0.014929087 0.14484425 0.52335691
0.02509705 0.14484073 0.52285379
0.035065576 0.14507554 0.52245134
0.044830102 0.14496955 0.52352965
0.054887388 0.14507374 0.52339572
0.06522882 0.14487697 0.52227318
0.075124092 0.14501837 0.52341676
0.085018717 0.14521919 0.52458543
0.094921589 0.14501192 0.52474815
0.10494164 0.1449158 0.52382737
0.11502021 0.14501356 0.52342159
0.12509818 0.14497143 0.52327889
0.13505003 0.14499465 0.5235799
0.1450081 0.14509331 0.5233807
0.15509395 0.14496304 0.5233804
0.1650258 0.14495079 0.52488476
0.17515254 0.14510199 0.52543998
0.18510632 0.14494495 0.52464515
0.19516985 0.14497079 0.52534908
0.20503728 0.14511175 0.52628237
0.21497668 0.14496972 0.5265649
0.22504349 0.14506854 0.52579045
0.23506221 0.1449637 0.52587897
0.24505407 0.14500412 0.52675956
0.25395989 0.14453377 0.52794141
-0.34359285 0.15424664 0.52044415
-0.33499882 0.15513472 0.5208106
-0.3259156 0.15634516 0.5203374
-0.23472111 0.15111715 0.52027327
-0.22316459 0.15113601 0.52021521
-0.21402296 0.15088551 0.52025533
-0.20401761 0.15270567 0.52044034
-0.19557138 0.15525715 0.52107
-0.18585865 0.15541297 0.52072597
-0.17932838 0.15775524 0.52022386
-0.13218038 0.15502976 0.52036321
-0.12503551 0.15505959 0.52079475
-0.1150561 0.15499203 0.52054715
-0.10448118 0.15531293 0.52029669
-0.095438547 0.1558544 0.52043045
-0.084363446 0.15659052 0.52059025
-0.074816473 0.15492494 0.52178961
-0.065183796 0.15517563 0.52306062
-0.054836828 0.15499906 0.52225602
-0.044840552 0.15499763 0.52176929
-0.034974415 0.15490296 0.52209002
-0.025173785 0.1550805 0.52278173
-0.015017054 0.15509301 0.52342057
-0.0049634357 0.1548 0.52396727
0.0050293761 0.15514417 0.52405608
0.014817595 0.15469068 0.52423745
0.024991367 0.15507238 0.52357739
0.035064384 0.15497243 0.5226264
0.045214102 0.15489551 0.52207887
0.054977786 0.15496266 0.52244031
0.064990714 0.15510044 0.52191341
