# .PCD v0.7 - Point Cloud Data file format
VERSION 0.7
FIELDS x y z
SIZE 4 4 4
TYPE F F F
COUNT 1 1 1
WIDTH 1
HEIGHT 304
VIEWPOINT 0 0 0 1 0 0 0
POINTS 304
DATA ascii
0.037328269 -0.011821593 0.44969189
-0.005313498 -0.0067978799 0.44765702
0.026855987 -0.0029960366 0.44776201
0.032112397 -0.0063035823 0.44911963
0.0091757737 0.0068467967 0.44887361
0.014973721 0.0052894112 0.44686458
0.02207304 0.0036587492 0.44549164
0.0092210323 0.010106891 0.44892329
0.014485079 0.011160167 0.44655547
-0.0045297444 -0.010914238 0.45489985
0.028909823 -0.011042613 0.45822772
0.035594407 -0.013221566 0.45457098
0.042684697 -0.016685607 0.4561443
-0.0078736469 -0.0072172582 0.45165345
0.0042882413 -0.0068365764 0.45749816
0.026324665 -0.0076116808 0.45386991
0.032803249 -0.0088238688 0.45161083
0.0092445072 0.0051737414 0.45232224
0.011696168 0.0014249411 0.45434108
0.11535488 -0.10505506 0.46978572
0.094931602 -0.081577621 0.46833822
0.094284832 -0.077269875 0.46521842
-0.0283622 -0.027716406 0.46027598
0.045828506 -0.020689204 0.46406507
-0.0030309458 -0.013667788 0.46408811
0.027996691 -0.011831795 0.46665701
0.034068793 -0.015045695 0.4648912
0.040410839 -0.018649463 0.46253961
0.0077344775 -0.006045239 0.46234575
0.017554753 -0.0033490863 0.46673572
0.023945443 -0.007847894 0.46427023
0.012228981 0.0078874417 0.46255976
0.046637278 -0.1620474 0.47779366
0.05103799 -0.16152605 0.47843254
0.046459965 -0.15875435 0.47906238
0.051740602 -0.15996882 0.47983611
0.11680384 -0.11126842 0.47878465
0.12133799 -0.11197618 0.47799787
0.11643224 -0.10484034 0.47411558
0.12328254 -0.10523001 0.47577375
0.096205786 -0.084035493 0.47452527
0.10393576 -0.085712165 0.47558051
0.09331353 -0.079928897 0.47242728
-0.032156661 -0.036771163 0.4784939
-0.020448446 -0.022719428 0.47081906
0.045026015 -0.022830904 0.4761675
0.053282175 -0.02560644 0.47593766
0.006713666 -0.013024909 0.47222832
0.011027083 -0.010587715 0.47381473
0.028101012 -0.011491055 0.47743505
0.035140589 -0.017038755 0.47490951
0.014800921 -0.0063128918 0.47573534
0.023018301 -0.0069580283 0.47513324
0.017636046 0.0067571625 0.47872865
0.059386715 -0.17131877 0.48911154
0.039561719 -0.16098785 0.48992151
0.043257516 -0.16402471 0.48522782
0.055838142 -0.16427688 0.48294842
0.062568486 -0.16348614 0.48804051
0.038276505 -0.15400323 0.48808473
0.044703938 -0.15465647 0.48363099
0.054473173 -0.15449524 0.4832761
0.064248651 -0.15404743 0.48596692
0.071764015 -0.15299915 0.48889673
0.036164947 -0.14738971 0.4883624
0.045309965 -0.14830425 0.48767099
0.055430874 -0.1470934 0.48750833
0.064984567 -0.14583917 0.48719487
0.074108787 -0.14412461 0.48871982
0.080506392 -0.14283937 0.4897407
0.015423142 -0.13179997 0.48662668
0.077239729 -0.13884278 0.48956624
0.083618909 -0.13517679 0.48962966
0.090198889 -0.13042961 0.48971426
0.0077953227 -0.12475585 0.48712105
0.01402974 -0.1281424 0.48651293
0.095287845 -0.12470805 0.48982099
-0.002875088 -0.11321744 0.48573998
0.0025896693 -0.11579484 0.48549023
0.098505571 -0.11937946 0.48999321
0.10621865 -0.11431535 0.48943916
0.11387493 -0.11412695 0.48658335
0.12272996 -0.11698881 0.48716965
-0.010549821 -0.10332009 0.48726964
-0.0054617133 -0.10628292 0.48502922
0.0019157678 -0.10790803 0.48837399
0.10810191 -0.1080837 0.4892835
0.11470812 -0.10518551 0.48585418
0.12457015 -0.10240953 0.48562986
0.099801108 -0.091274232 0.48917711
0.10451829 -0.091888584 0.48649752
0.1121535 -0.093719967 0.48669785
0.096023038 -0.084861912 0.4853836
0.10276438 -0.089792222 0.48181373
0.096980013 -0.077010773 0.48641321
0.10180534 -0.076230898 0.48692125
0.067703322 -0.051212586 0.48914871
0.075176284 -0.052805752 0.48808575
0.080526575 -0.052802768 0.48883528
-0.038080245 -0.041876718 0.4870106
0.067585275 -0.046350956 0.48692265
0.073733993 -0.047797758 0.48474687
-0.031579193 -0.037459943 0.48622647
-0.029319473 -0.036471188 0.48502004
-0.017270073 -0.034932762 0.48011646
0.067141749 -0.036673181 0.48667336
-0.02238673 -0.027939875 0.48609436
-0.016931258 -0.023149595 0.48488128
0.038912907 -0.020865863 0.48753396
0.04517372 -0.02448564 0.48571563
0.054674026 -0.028315144 0.48511967
0.061859518 -0.028469395 0.48602962
0.0044207373 -0.016598063 0.48556241
0.014071241 -0.013844067 0.48485273
0.026568556 -0.012462706 0.48823667
0.033693966 -0.017039306 0.48439479
0.022897987 -0.0080466839 0.48491022
0.018800601 0.003292311 0.48866898
0.020211533 0.0060984939 0.48838431
0.05696328 -0.18059605 0.49877211
0.0452215 -0.17327818 0.49616894
0.053638596 -0.1774815 0.49612731
0.065518342 -0.17418845 0.495821
0.071584061 -0.17177793 0.49904522
0.038064133 -0.16324113 0.4971607
0.042168319 -0.16742082 0.49298462
0.066819228 -0.16572204 0.49217147
0.074768186 -0.16369104 0.49689293
0.080825821 -0.16242433 0.49958372
0.02891461 -0.15140867 0.49860406
0.034758713 -0.15554586 0.49481434
0.068707213 -0.1587638 0.49020484
0.076309361 -0.15520038 0.49271646
0.08391735 -0.15441036 0.49709624
0.090142086 -0.15098764 0.49860072
0.019159093 -0.14296891 0.49769554
0.023588624 -0.14600483 0.4975369
0.036124997 -0.14368422 0.49440446
0.045029622 -0.14360331 0.49467811
0.054571059 -0.14249001 0.49318373
0.064112261 -0.1412891 0.49096456
0.078717418 -0.14730422 0.49042761
0.085237704 -0.14527003 0.49297327
0.094093755 -0.14410421 0.49664885
0.0085202958 -0.13148272 0.49808258
0.013363334 -0.13427842 0.49461272
0.025351167 -0.13346308 0.49526301
0.030180439 -0.13586247 0.49982423
0.04660074 -0.13989872 0.49891531
0.056032401 -0.13787995 0.49780351
0.065353438 -0.13596343 0.4961037
0.074555047 -0.13442892 0.49273786
0.085200414 -0.1340286 0.49070632
0.094843186 -0.13470609 0.49247506
0.10445989 -0.13461012 0.49693909
0.11186177 -0.13189654 0.49891257
-0.0018010458 -0.12215519 0.49801603
0.0043276944 -0.12564316 0.49461576
0.017262395 -0.12453979 0.49437702
0.022856779 -0.12602308 0.49788341
0.069197647 -0.12899736 0.49937996
0.0762178 -0.12570246 0.4973985
0.084791534 -0.12468151 0.49263453
0.094443284 -0.12492616 0.49052814
0.10478195 -0.12456619 0.49183846
0.11444944 -0.1244064 0.49483505
0.12375187 -0.123084 0.49598131
0.13135891 -0.12303963 0.49785125
-0.0056394367 -0.11537301 0.49534884
0.0084672514 -0.11161573 0.49291119
0.014812324 -0.11522587 0.49741718
0.079058014 -0.11650326 0.49931493
0.08537107 -0.11531757 0.49646837
0.094601579 -0.11461011 0.49262372
0.10258419 -0.11570363 0.49049503
0.11416227 -0.1193304 0.49088466
0.12873535 -0.11896983 0.49101233
0.13187571 -0.11983296 0.49333155
-0.010647148 -0.10678622 0.49685419
-0.0078373458 -0.10739009 0.49338475
0.0050186608 -0.10614458 0.49544352
0.011712107 -0.1087873 0.49822164
0.087888114 -0.1075481 0.49919653
0.095557012 -0.10524219 0.49657643
0.1043662 -0.10436358 0.49264333
0.11279922 -0.10150869 0.49132022
0.12415731 -0.1007553 0.4936766
0.13599117 -0.10653476 0.49311021
0.14131136 -0.10949568 0.49744099
-0.017202806 -0.096586548 0.49875075
0.089542642 -0.090058684 0.49987388
0.095564075 -0.09480419 0.49652603
0.10452648 -0.096298851 0.49279749
0.11428299 -0.097511418 0.49126056
0.12232468 -0.099048175 0.49394003
0.087129131 -0.082928799 0.49821711
0.093094543 -0.085700668 0.49447989
0.1181909 -0.083351493 0.49521768
0.12151672 -0.086384498 0.49796659
0.085810125 -0.074987844 0.49678433
0.093853794 -0.074631654 0.49152216
0.10368644 -0.073620118 0.49443036
-0.049009725 -0.060134202 0.49956292
-0.030619383 -0.063238129 0.49893561
-0.026985331 -0.063366145 0.49938795
0.069091186 -0.060548987 0.49913254
0.076033123 -0.062123042 0.49760899
0.085498229 -0.065153301 0.49660039
0.094068013 -0.06594535 0.49550998
0.1026337 -0.069580883 0.49815768
-0.052250389 -0.053922359 0.49674091
-0.047657032 -0.052811228 0.49276569
-0.030082569 -0.058966119 0.4991805
-0.025809785 -0.05725228 0.49898353
0.059024915 -0.051299572 0.49965
0.064839929 -0.054273214 0.49509785
0.074576527 -0.057013705 0.49196142
0.084987111 -0.055503335 0.49304879
0.0922397 -0.058760963 0.49734288
-0.052155599 -0.048247561 0.49784487
-0.045325071 -0.047270566 0.49675134
-0.033903927 -0.042500552 0.49902689
0.057741124 -0.043850262 0.49715668
0.062871493 -0.044581473 0.49248716
0.081811413 -0.048859041 0.49117234
-0.030829713 -0.035504062 0.49847195
-0.027345838 -0.033295583 0.49600816
0.04718826 -0.032917429 0.49822301
0.055112623 -0.035338532 0.49578324
0.06415756 -0.035256617 0.49267405
0.07070978 -0.030908383 0.49723953
-0.023520751 -0.02737331 0.49713415
-0.01542122 -0.022719815 0.49685013
-0.0076858699 -0.020733545 0.49428749
0.0072632693 -0.025009174 0.49719554
0.013576265 -0.022709228 0.49823079
0.037556261 -0.022475202 0.49663231
0.043847013 -0.027421787 0.49492177
0.051891129 -0.029415675 0.49113309
0.065585986 -0.028405316 0.49028271
0.070262745 -0.029315546 0.49634755
-0.011654705 -0.018766979 0.49902424
-0.004597113 -0.016357981 0.4970035
0.0012237646 -0.012794198 0.49649146
0.016664185 -0.017956564 0.49675366
0.026029658 -0.014295209 0.49615967
0.032001842 -0.017523952 0.49515781
0.062911674 -0.015098833 0.49579495
0.0064647049 -0.0065428698 0.49574929
0.018779315 -0.00019101612 0.49786368
0.026409864 -0.0091358107 0.49073547
0.019613281 0.0013407953 0.4961507
0.020728722 0.0034089945 0.49695113
0.068577841 -0.17971213 0.50115788
0.077367961 -0.16877855 0.50157642
0.08828114 -0.15694307 0.50124794
0.03771726 -0.14053634 0.50102353
0.044537425 -0.14019892 0.50043041
0.098343492 -0.14813681 0.50149482
0.029036872 -0.13092148 0.50070286
0.054265123 -0.13335736 0.50180602
0.062986173 -0.13123176 0.5007742
0.10744485 -0.13906029 0.50137615
0.11554826 -0.13596644 0.50385261
0.06481044 -0.12437771 0.50196558
0.072061948 -0.12291256 0.50076288
0.11862876 -0.12909245 0.50043434
0.12527181 -0.1280634 0.50212419
0.13519724 -0.12705511 0.50397277
0.018638467 -0.11312531 0.50055832
0.074576683 -0.11455742 0.50149775
0.081249818 -0.11110596 0.50043428
0.14652288 -0.1119778 0.5028348
0.074792296 -0.1048562 0.50311959
0.084508196 -0.10429021 0.50165975
0.091318987 -0.10221258 0.50025278
0.13809659 -0.10542341 0.50034022
0.14466177 -0.10782456 0.50524116
0.085084058 -0.095023476 0.50265473
0.091116212 -0.095958687 0.50041711
0.075418644 -0.08483462 0.50390458
0.08364825 -0.085688345 0.50148499
0.075170375 -0.074948154 0.50380599
0.081002623 -0.074047714 0.50090027
0.10900799 -0.072665028 0.50206321
0.074224077 -0.066838302 0.50300837
0.081171915 -0.068143182 0.50073564
0.099190012 -0.062636741 0.50219303
0.10417879 -0.066648245 0.50355589
-0.02167578 -0.055337168 0.50084031
0.062190861 -0.058118027 0.501647
0.097042672 -0.055975594 0.50547314
0.053478099 -0.045841016 0.50223595
0.043953992 -0.036174249 0.50204539
0.050205886 -0.039347239 0.50094813
0.074014559 -0.031445421 0.50055391
-0.018838659 -0.021401193 0.50079268
0.0078269839 -0.028401902 0.50098252
0.016309697 -0.026507156 0.50156391
0.02532945 -0.025275594 0.50331575
0.034320362 -0.025626602 0.50228298
0.0012088865 -0.010047454 0.50187415
0.018968806 -0.019154787 0.50055152
0.024721265 -0.018809149 0.5010702
