# .PCD v0.7 - Point Cloud Data file format
VERSION 0.7
FIELDS x y z rgb
SIZE 4 4 4 4
TYPE F F F U
COUNT 1 1 1 1
WIDTH 1024
HEIGHT 1
VIEWPOINT 0 0 0 1 0 0 0
POINTS 1024
DATA ascii
0.12485782 -0.05896838 0.12320547 4284769380
0.12291315 -0.058244951 0.11736632 4284769380
0.12016121 -0.057463225 0.11186936 4284769380
0.11665734 -0.056638911 0.10682514 4284769380
0.112472 -0.055788595 0.10233509 4284769380
0.10768934 -0.054929368 0.098489478 4284769380
0.10240555 -0.054078508 0.095365644 4284769380
0.096726865 -0.053253129 0.093026407 4284769380
0.090767473 -0.052469827 0.091518804 4284769380
0.084647216 -0.051744349 0.090873152 4284769380
0.078489155 -0.051091284 0.091102421 4284769380
0.072417125 -0.050523769 0.092202015 4284769380
0.12263569 -0.0582719 0.118021 4284769380
0.12067394 -0.057547122 0.11218774 4284769380
0.11790591 -0.056764357 0.10669902 4284769380
0.11438724 -0.055939339 0.10166522 4284769380
0.1101887 -0.055088665 0.097187571 4284769380
0.10539472 -0.054229435 0.093356095 4284769380
0.10010169 -0.053378932 0.09024784 4284769380
0.094416045 -0.052554253 0.087925315 4284769380
0.088452116 -0.051771984 0.086435214 4284769380
0.082329832 -0.051047854 0.08580751 4284769380
0.0761723 -0.050396428 0.086054817 4284769380
0.070103332 -0.049830798 0.087172166 4284769380
0.064244971 -0.049362343 0.089137085 4284769380
0.11772528 -0.056804724 0.10738608 4284769380
0.11494116 -0.056020923 0.10190565 4284769380
0.11140773 -0.055195209 0.096882328 4284769380
0.10719603 -0.054344181 0.092417113 4284769380
0.10239077 -0.053484958 0.088599801 4284769380
0.097088546 -0.052634817 0.085507154 4284769380
0.091395989 -0.051810846 0.083201356 4284769380
0.085427575 -0.051029619 0.081728779 4284769380
0.079303317 -0.050306845 0.081119031 4284769380
0.073146358 -0.049657058 0.081384368 4284769380
0.067080513 -0.049093325 0.082519457 4284769380
0.061227743 -0.048626978 0.084501475 4284769380
0.055705748 -0.048267394 0.087290563 4284769380
0.11132772 -0.055248145 0.097587384 4284769380
0.10777955 -0.054421742 0.092574574 4284769380
0.10355473 -0.053570371 0.088121839 4284769380
0.098738208 -0.052711163 0.084318727 4284769380
0.093426839 -0.051861387 0.081241712 4284769380
0.087727427 -0.051038131 0.078952663 4284769380
0.08175458 -0.050257955 0.077497616 4284769380
0.0756284 -0.049536541 0.076905824 4284769380
0.069472075 -0.0488884 0.077189185 4284769380
0.063409388 -0.048326563 0.078342013 4284769380
0.057562269 -0.047862329 0.080341116 4284769380
0.052048281 -0.047505029 0.083146289 4284769380
0.046978302 -0.047261853 0.08670114 4284769380
0.098812968 -0.063482501 0.20734239 4284769380
0.1039478 -0.063741125 0.20388301 4284769380
0.10854959 -0.063881241 0.19973515 4284769380
0.1125258 -0.063900046 0.19498225 4284769380
0.11579646 -0.063797154 0.18971984 4284769380
0.11829582 -0.063574634 0.18405375 4284769380
0.11997361 -0.063236967 0.17809793 4284769380
0.12079611 -0.06279093 0.17197214 4284769380
0.12074675 -0.062245507 0.16579956 4284769380
0.11982656 -0.061611656 0.1597043 4284769380
0.11805401 -0.060902126 0.15380892 4284769380
0.11546475 -0.060131181 0.148232 4284769380
0.11211087 -0.059314329 0.14308564 4284769380
0.10784222 -0.063804701 0.19974403 4284769380
0.11243202 -0.063942343 0.19558284 4284769380
0.11639445 -0.06395863 0.19081841 4284769380
0.11964984 -0.063853249 0.18554661 4284769380
0.12213273 -0.063628301 0.17987338 4284769380
0.12379319 -0.063288324 0.17391284 4284769380
0.12459783 -0.062840149 0.16778484 4284769380
0.12453047 -0.062292784 0.16161259 4284769380
0.12359247 -0.061657239 0.15552022 4284769380
0.12180269 -0.060946293 0.14963023 4284769380
0.11919711 -0.060174245 0.14406106 4284769380
0.11582813 -0.059356619 0.13892469 4284769380
0.1117635 -0.058509853 0.13432442 4284769380
0.1156948 -0.063891873 0.19092952 4284769380
0.11964343 -0.063905656 0.18615365 4284769380
0.12288351 -0.063797779 0.18087246 4284769380
0.12534991 -0.06357041 0.17519215 4284769380
0.12699303 -0.063228123 0.16922693 4284769380
0.12777981 -0.06277781 0.16309677 4284769380
0.12769444 -0.062228512 0.15692492 4284769380
0.12673865 -0.061591279 0.15083548 4284769380
0.12493164 -0.060878929 0.14495093 4284769380
0.12230976 -0.060105782 0.13938957 4284769380
0.11892572 -0.059287384 0.13426323 4284769380
0.11484757 -0.058440197 0.12967502 4284769380
0.11015733 -0.05758125 0.12571716 4284769380
0.12220623 -0.063742206 0.18108346 4284769380
0.12543099 -0.063631833 0.17579293 4284769380
0.12788089 -0.063402049 0.17010558 4284769380
0.12950663 -0.06305746 0.16413574 4284769380
0.13027555 -0.062605008 0.15800346 4284769380
0.13017218 -0.062053777 0.15183206 4284769380
0.1291986 -0.061414864 0.14574564 4284769380
0.12737438 -0.060701113 0.13986655 4284769380
0.12473622 -0.059926875 0.13431305 4284769380
0.12133715 -0.059107717 0.12919679 4284769380
0.11724553 -0.058260113 0.12462067 4284769380
0.11254362 -0.057401106 0.12067669 4284769380
0.10732599 -0.05654797 0.11744416 4284769380
0.12724015 -0.063358821 0.17041205 4284769380
0.12967351 -0.063126616 0.16471769 4284769380
0.13128188 -0.062779732 0.15874328 4284769380
0.13203293 -0.062325142 0.15260895 4284769380
0.13191156 -0.061771993 0.14643805 4284769380
0.1309202 -0.061131403 0.14035466 4284769380
0.12907879 -0.060416251 0.13448112 4284769380
0.12642437 -0.059640929 0.12893552 4284769380
0.12301029 -0.058821015 0.12382938 4284769380
0.11890522 -0.057973001 0.11926538 4284769380
0.1141917 -0.057113942 0.11533531 4284769380
0.10896453 -0.056261111 0.11211817 4284769380
0.10332879 -0.055431653 0.10967866 4284769380
0.13069113 -0.062749758 0.1591388 4284769380
0.13228212 -0.062400579 0.15315987 4284769380
0.13301529 -0.061943859 0.14702353 4284769380
0.13287592 -0.061388791 0.14085318 4284769380
0.13186678 -0.060746528 0.1347729 4284769380
0.13000821 -0.060029991 0.12890492 4284769380
0.12733753 -0.059253588 0.12336729 4284769380
0.12390849 -0.058432925 0.11827131 4284769380
0.11979001 -0.057584513 0.11371949 4284769380
0.11506492 -0.056725409 0.10980334 4284769380
0.10982823 -0.055872884 0.10660162 4284769380
0.10418525 -0.055044085 0.1041787 4284769380
0.098249428 -0.054255679 0.1025833 4284769380
0.13248689 -0.061927773 0.14749981 4284769380
0.13320218 -0.061468929 0.14136153 4284769380
0.13304481 -0.060911942 0.13519178 4284769380
0.13201793 -0.060268018 0.12911464 4284769380
0.13014218 -0.059550095 0.12325232 4284769380
0.12745529 -0.05877262 0.11772268 4284769380
0.1240113 -0.057951219 0.11263691 4284769380
0.11987945 -0.057102412 0.1080973 4284769380
0.11514282 -0.056243267 0.10419512 4284769380
0.10989667 -0.055391058 0.10100883 4284769380
0.10424648 -0.054562926 0.098602526 4284769380
0.098305874 -0.053775523 0.097024567 4284769380
0.092194304 -0.053044677 0.096306697 4284769380
0.13258982 -0.060910072 0.13573886 4284769380
0.13241445 -0.060351178 0.12956978 4284769380
0.1313698 -0.059705593 0.12349585 4284769380
0.12947692 -0.058986295 0.1176392 4284769380
0.12677383 -0.05820775 0.1121176 4284769380
0.12331493 -0.057385616 0.10704209 4284769380
0.11916974 -0.056536425 0.10251473 4284769380
0.11442162 -0.055677246 0.098626547 4284769380
0.10916605 -0.054825366 0.095455736 4284769380
0.10350871 -0.053997904 0.093066052 4284769380
0.097563364 -0.053211506 0.09150555 4284769380
0.091449559 -0.052481987 0.090805605 4284769380
0.085290231 -0.051824011 0.090980299 4284769380
0.13099776 -0.059717979 0.12410227 4284769380
0.12993538 -0.05907074 0.11803158 4284769380
0.12802537 -0.058350071 0.11218067 4284769380
0.12530613 -0.057570469 0.10666717 4284769380
0.12183233 -0.056747608 0.10160195 4284769380
0.11767383 -0.055898037 0.097086877 4284769380
0.11291426 -0.055038836 0.093212731 4284769380
0.10764932 -0.054187283 0.090057418 4284769380
0.10198488 -0.053360503 0.087684378 4284769380
0.09603484 -0.052575123 0.08614134 4284769380
0.089918844 -0.051846929 0.085459329 4284769380
0.083759882 -0.05119057 0.085652061 4284769380
0.077681802 -0.050619245 0.086715654 4284769380
0.12774406 -0.058376458 0.11283373 4284769380
0.12581694 -0.057654426 0.10698859 4284769380
0.12308154 -0.056873769 0.10148323 4284769380
0.11959289 -0.056050189 0.096428357 4284769380
0.11542113 -0.055200245 0.091925606 4284769380
0.11065014 -0.054341029 0.088065527 4284769380
0.10537588 -0.053489815 0.084925734 4284769380
0.099704385 -0.052663725 0.082569368 4284769380
0.093749702 -0.051879365 0.081043817 4284769380
0.087631576 -0.051152509 0.080379739 4284769380
0.08147303 -0.050497774 0.080590509 4284769380
0.075397909 -0.049928322 0.081671871 4284769380
0.069528364 -0.049455609 0.083602093 4284769380
0.12289687 -0.056913603 0.10216925 4284769380
0.12014535 -0.056131903 0.096672088 4284769380
0.11664187 -0.055307608 0.09162759 4284769380
0.11245688 -0.054457299 0.087137207 4284769380
0.10767452 -0.053598072 0.083291225 4284769380
0.10239097 -0.052747205 0.080166988 4284769380
0.09671247 -0.051921807 0.077827312 4284769380
0.090753205 -0.051138479 0.07631924 4284769380
0.084633 -0.050412964 0.075673118 4284769380
0.078474924 -0.049759857 0.075901918 4284769380
0.072402813 -0.049192291 0.077001043 4284769380
0.066538759 -0.048721679 0.078948393 4284769380
0.061000686 -0.048357483 0.081704818 4284769380
0.11655769 -0.055360053 0.092332207 4284769380
0.11303942 -0.054535057 0.087298132 4284769380
0.10884123 -0.053684391 0.082820147 4284769380
0.10404754 -0.05282516 0.078988299 4284769380
0.098754756 -0.051974647 0.075879641 4284769380
0.093069293 -0.051149949 0.073556669 4284769380
0.087105483 -0.050367653 0.072066113 4284769380
0.080983251 -0.04964349 0.071437933 4284769380
0.074825704 -0.048992019 0.071684763 4284769380
0.068756655 -0.048426341 0.07280165 4284769380
0.062898144 -0.04795783 0.074766114 4284769380
0.057367984 -0.047595911 0.077538677 4284769380
0.052277368 -0.047347855 0.081063569 4284769380
0.10885931 -0.053748347 0.083528601 4284769380
0.10464796 -0.05289733 0.079063058 4284769380
0.099842981 -0.052038107 0.075245373 4284769380
0.094540998 -0.051187955 0.072152317 4284769380
0.088848628 -0.050363965 0.069846079 4284769380
0.082880333 -0.049582712 0.068373039 4284769380
0.076756127 -0.048859902 0.067762814 4284769380
0.070599154 -0.04821007 0.068027675 4284769380
0.064533219 -0.047646288 0.069162294 4284769380
0.058680307 -0.047179885 0.071143866 4284769380
0.053158101 -0.046820242 0.073932536 4284769380
0.04807765 -0.046574593 0.077472225 4284769380
0.043541111 -0.046447877 0.081691764 4284769380
0.11161562 -0.063698791 0.193819 4284769380
0.11622968 -0.063841447 0.1896849 4284769380
0.12021998 -0.06386283 0.18494383 4284769380
0.12350629 -0.063762501 0.17969112 4284769380
0.12602253 -0.06354247 0.17403242 4284769380
0.12771811 -0.063207172 0.16808151 4284769380
0.1285589 -0.062763341 0.16195804 4284769380
0.12852803 -0.06221991 0.15578516 4284769380
0.12762611 -0.061587803 0.14968698 4284769380
0.12587127 -0.06087973 0.14378615 4284769380
0.1232988 -0.060109928 0.13820128 4284769380
0.11996043 -0.059293881 0.13304473 4284769380
0.11592329 -0.058447994 0.12842014 4284769380
0.11951972 -0.063795641 0.18505077 4284769380
0.12349629 -0.063814513 0.18029815 4284769380
0.12676735 -0.063711688 0.175036 4284769380
0.12926714 -0.063489228 0.1693701 4284769380
0.1309454 -0.06315162 0.16341442 4284769380
0.13176836 -0.062705643 0.15728869 4284769380
0.13171947 -0.062160268 0.15111609 4284769380
0.13079974 -0.061526462 0.14502075 4284769380
0.12902765 -0.06081697 0.13912523 4284769380
0.12643883 -0.060046058 0.1335481 4284769380
0.12308534 -0.059229225 0.12840147 4284769380
0.11903462 -0.058382902 0.12378888 4284769380
0.11436811 -0.0575241 0.11980303 4284769380
0.12608887 -0.06365563 0.17524298 4284769380
0.12934467 -0.063550308 0.16997139 4284769380
0.131828 -0.063325427 0.16429837 4284769380
0.13348891 -0.06298551 0.15833795 4284769380
0.13429402 -0.062537394 0.15221 4284769380
0.13422713 -0.061990079 0.14603774 4284769380
0.13328961 -0.061354578 0.1399453 4284769380
0.13150027 -0.060643673 0.13405517 4284769380
0.12889512 -0.059871655 0.12848578 4284769380
0.12552653 -0.059054047 0.12334916 4284769380
0.12146226 -0.058207292 0.11874857 4284769380
0.11678402 -0.057348415 0.11477652 4284769380
0.11158588 -0.05649469 0.1115129 4284769380
0.1311855 -0.063281685 0.16460103 4284769380
0.13365233 -0.063054375 0.15892091 4284769380
0.1352959 -0.062712155 0.15295582 4284769380
0.13608316 -0.062261894 0.1468257 4284769380
0.13599826 -0.061712645 0.14065385 4284769380
0.13504294 -0.06107546 0.13456434 4284769380
0.13323638 -0.060363144 0.12867963 4284769380
0.13061494 -0.059590027 0.12311807 4284769380
0.12723128 -0.058771651 0.11799147 4284769380
0.1231535 -0.057924472 0.11340293 4284769380
0.11846356 -0.057065528 0.10944472 4284769380
0.11325578 -0.05621209 0.10619643 4284769380
0.10763487 -0.05538132 0.10372337 4284769380
0.13470286 -0.06268163 0.15334783 4284769380
0.13632907 -0.062337104 0.14737812 4284769380
0.13709846 -0.061884705 0.1412459 4284769380
0.13699555 -0.06133353 0.13507448 4284769380
0.13602245 -0.060694657 0.12898797 4284769380
0.13419868 -0.059980944 0.12310875 4284769380
0.13156095 -0.059206732 0.11755504 4284769380
0.12816226 -0.058387592 0.11243852 4284769380
0.124071 -0.057539999 0.10786208 4284769380
0.1193694 -0.056680996 0.10391773 4284769380
0.11415203 -0.055827852 0.10068479 4284769380
0.10852378 -0.054997727 0.098228283 4284769380
0.10259783 -0.05420731 0.09659759 4284769380
0.13656728 -0.061868038 0.14171907 4284769380
0.1373188 -0.061413508 0.13558479 4284769380
0.1371979 -0.060860407 0.12941387 4284769380
0.13620701 -0.060219862 0.12333041 4284769380
0.13436605 -0.059504751 0.11745671 4284769380
0.13171205 -0.058729451 0.11191091 4284769380
0.12829837 -0.057909559 0.10680451 4284769380
0.12419366 -0.057061557 0.1022402 4284769380
0.11948045 -0.056202501 0.098309748 4284769380
0.11425351 -0.055349659 0.0950922 4284769380
0.10861797 -0.054520182 0.092652254 4284769380
0.10268713 -0.053730752 0.09103898 4284769380
0.096580252 -0.052997246 0.090284802 4284769380
0.13673972 -0.060857952 0.12995829 4284769380
0.13660081 -0.060302932 0.12378792 4284769380
0.13559216 -0.059660714 0.11770754 4284769380
0.13373402 -0.058944214 0.11183943 4284769380
0.13106379 -0.058167838 0.10630158 4284769380
0.12763512 -0.057347197 0.10120534 4284769380
0.123517 -0.056498796 0.096653193 4284769380
0.11879221 -0.055639692 0.092736684 4284769380
0.11355577 -0.054787159 0.089534551 4284769380
0.10791298 -0.053958341 0.08711119 4284769380
0.10197729 -0.05316991 0.085515335 4284769380
0.095868073 -0.052437712 0.084779076 4284769380
0.089708164 -0.051776472 0.084917217 4284769380
0.13521656 -0.059672523 0.11831178 4284769380
0.13419014 -0.05902864 0.11223456 4284769380
0.13231485 -0.058310758 0.10637207 4284769380
0.12962839 -0.057533309 0.10084222 4284769380
0.12618479 -0.056711927 0.095756188 4284769380
0.12205329 -0.055863131 0.091216259 4284769380
0.11731697 -0.055003986 0.087313704 4284769380
0.11207107 -0.05415177 0.084127016 4284769380
0.10642107 -0.053323619 0.08172027 4284769380
0.10048059 -0.05253619 0.08014185 4284769380
0.094369076 -0.051805306 0.07942351 4284769380
0.088209428 -0.051145677 0.079579689 4284769380
0.0821255 -0.050570559 0.08060725 4284769380
0.1320297 -0.058336582 0.10702349 4284769380
0.13013726 -0.057617318 0.10116669 4284769380
0.12743461 -0.056838803 0.095644884 4284769380
0.1239761 -0.056016691 0.090569101 4284769380
0.11983126 -0.055167507 0.086041413 4284769380
0.11508344 -0.054308333 0.082152866 4284769380
0.10982812 -0.053456441 0.078981645 4284769380
0.10417097 -0.05262896 0.076591529 4284769380
0.098225743 -0.051842537 0.075030565 4284769380
0.092111997 -0.05111298 0.074330151 4284769380
0.085952662 -0.050454963 0.074504368 4284769380
0.079871595 -0.049881712 0.075549714 4284769380
0.073991068 -0.049404755 0.077445164 4284769380
0.1272459 -0.056878101 0.096329831 4284769380
0.12452708 -0.056098528 0.090816118 4284769380
0.12105367 -0.055275686 0.085750632 4284769380
0.11689553 -0.054426122 0.081235237 4284769380
0.11213626 -0.053566922 0.077360719 4284769380
0.10687157 -0.052715361 0.074204996 4284769380
0.10120731 -0.051888566 0.071831517 4284769380
0.095257394 -0.051103156 0.070288025 4284769380
0.089141458 -0.050374929 0.069605544 4284769380
0.082982488 -0.049718529 0.069797799 4284769380
0.076904327 -0.049147151 0.070860922 4284769380
0.071029194 -0.048672289 0.072773546 4284769380
0.065475233 -0.048303489 0.075497195 4284769380
0.12096534 -0.055327635 0.086454771 4284769380
0.11747707 -0.054504074 0.081399627 4284769380
0.11330566 -0.053654138 0.076896548 4284769380
0.10853498 -0.052794922 0.073036097 4284769380
0.10326096 -0.051943701 0.069895901 4284769380
0.097589642 -0.051117588 0.067539096 4284769380
0.091635086 -0.050333202 0.066013075 4284769380
0.085517012 -0.049606312 0.065348528 4284769380
0.079358459 -0.048951533 0.065558821 4284769380
0.073283255 -0.048382033 0.066639721 4284769380
0.067413568 -0.047909267 0.068569489 4284769380
0.061867427 -0.047542736 0.071309328 4284769380
0.056756351 -0.047289815 0.074804142 4284769380
0.11331955 -0.05371765 0.077605128 4284769380
0.10913491 -0.052867349 0.073114417 4284769380
0.10435285 -0.052008122 0.06926807 4284769380
0.099069543 -0.051157247 0.066143416 4284769380
0.093391225 -0.050331831 0.0638033 4284769380
0.087432072 -0.049548473 0.062294777 4284769380
0.081311926 -0.048822924 0.061648175 4284769380
0.075153835 -0.048169773 0.061876502 4284769380
0.069081642 -0.047602158 0.062975161 4284769380
0.063217446 -0.04713149 0.064922065 4284769380
0.057679169 -0.046767235 0.067678064 4284769380
0.052578166 -0.046516713 0.071187735 4284769380
0.048017021 -0.046384964 0.075380512 4284769380
0.10446868 -0.052081868 0.069966249 4284769380
0.09967529 -0.051222637 0.066134028 4284769380
0.094382748 -0.050372116 0.06302496 4284769380
0.088697463 -0.0495474 0.060701553 4284769380
0.08273378 -0.048765078 0.059210531 4284769380
0.076611593 -0.048040878 0.058581881 4284769380
0.070454031 -0.047389362 0.058828238 4284769380
0.0643849 -0.046823636 0.059944652 4284769380
0.058526248 -0.046355069 0.06190867 4284769380
0.052995875 -0.04599309 0.0646808 4284769380
0.047904994 -0.04574497 0.068205304 4284769380
0.043355972 -0.045615707 0.072411306 4284769380
0.039440282 -0.045607895 0.077214234 4284769380
0.12244295 -0.063556664 0.17866693 4284769380
0.12644731 -0.063580617 0.17393774 4284769380
0.12974924 -0.063482843 0.16869479 4284769380
0.13228233 -0.063265309 0.16304353 4284769380
0.13399567 -0.062932387 0.15709756 4284769380
0.13485478 -0.062490769 0.15097648 4284769380
0.13484238 -0.061949335 0.14480336 4284769380
0.13395874 -0.061318975 0.13870233 4284769380
0.13222162 -0.060612366 0.13279606 4284769380
0.12966597 -0.059843715 0.12720335 4284769380
0.12634315 -0.059028476 0.12203663 4284769380
0.12231998 -0.058183044 0.1173998 4284769380
0.11767738 -0.057324421 0.11338611 4284769380
0.12906958 -0.063426308 0.16889775 4284769380
0.1323563 -0.063326046 0.1636453 4284769380
0.13487297 -0.063106082 0.15798679 4284769380
0.13656899 -0.062770844 0.15203601 4284769380
0.13741027 -0.062327072 0.1459126 4284769380
0.13737987 -0.06178369 0.13973971 4284769380
0.13647842 -0.061151627 0.13364147 4284769380
0.13472404 -0.060443591 0.12774049 4284769380
0.13215199 -0.05967382 0.12215543 4284769380
0.12881403 -0.058857791 0.11699861 4284769380
0.12477724 -0.058011916 0.11237371 4284769380
0.12012282 -0.057153199 0.10837375 4284769380
0.11494435 -0.056298915 0.10507914 4284769380
0.13422874 -0.063061811 0.15828566 4284769380
0.13672897 -0.062839419 0.15261996 4284769380
0.13840768 -0.06250187 0.1466644 4284769380
0.1392311 -0.062055949 0.14053872 4284769380
0.1391827 -0.061510623 0.13436611 4284769380
0.13826343 -0.060876861 0.1282707 4284769380
0.13649179 -0.060167406 0.12237505 4284769380
0.1339034 -0.059396524 0.11679771 4284769380
0.13055031 -0.058579709 0.11165082 4284769380
0.12649995 -0.057733398 0.10703791 4284769380
0.12183375 -0.056874599 0.10305171 4284769380
0.11664555 -0.056020588 0.099772371 4284769380
0.11103968 -0.055188533 0.097265854 4284769380
0.13781236 -0.062470786 0.14705291 4284769380
0.13947372 -0.062130928 0.14109261 4284769380
0.14027931 -0.061682865 0.13496473 4284769380
0.14021289 -0.061135601 0.12879246 4284769380
0.13927583 -0.060500145 0.12269994 4284769380
0.13748695 -0.059789278 0.11680967 4284769380
0.13488223 -0.059017286 0.11124008 4284769380
0.13151406 -0.0581997 0.10610319 4284769380
0.12745014 -0.057352956 0.10150228 4284769380
0.12277219 -0.056494083 0.097529873 4284769380
0.11757431 -0.055640347 0.094265848 4284769380
0.11196099 -0.054808922 0.091775835 4284769380
0.10604512 -0.054016523 0.090109907 4284769380
0.13974537 -0.061665624 0.13543476 4284769380
0.14053309 -0.061215416 0.12930471 4284769380
0.14044867 -0.060666222 0.12313283 4284769380
0.13949382 -0.060029078 0.11704325 4284769380
0.13768771 -0.059316803 0.1111584 4284769380
0.13506669 -0.058543712 0.10559663 4284769380
0.13168345 -0.057725355 0.10046977 4284769380
0.12760602 -0.05687819 0.095880911 4284769380
0.12291638 -0.056019247 0.091922335 4284769380
0.11770885 -0.055165801 0.088673644 4284769380
0.11208814 -0.054335013 0.086200148 4284769380
0.10616727 -0.05354359 0.084551603 4284769380
0.1000653 -0.052807443 0.083761148 4284769380
0.1399873 -0.060663182 0.12367454 4284769380
0.13988489 -0.060112059 0.11750311 4284769380
0.13891225 -0.059473231 0.11141652 4284769380
0.13708894 -0.058759555 0.10553715 4284769380
0.13445163 -0.057985373 0.09998323 4284769380
0.13105334 -0.057166252 0.094866447 4284769380
0.12696242 -0.056318671 0.090289682 4284769380
0.12226114 -0.055459667 0.086344972 4284769380
0.11704401 -0.054606516 0.083111636 4284769380
0.11141595 -0.053776372 0.080654688 4284769380
0.10549013 -0.052985929 0.07902354 4284769380
0.099385716 -0.052251082 0.078250982 4284769380
0.093225449 -0.051586606 0.078352563 4284769380
0.1385331 -0.059484459 0.11201855 4284769380
0.13754268 -0.058843959 0.105935 4284769380
0.13570218 -0.058128886 0.10006116 4284769380
0.13304861 -0.057353616 0.094515145 4284769380
0.12963532 -0.056533743 0.08940848 4284769380
0.12553096 -0.055685751 0.084843844 4284769380
0.12081805 -0.054826695 0.08091303 4284769380
0.11559137 -0.053973846 0.077695079 4284769380
0.10995601 -0.053144354 0.075254701 4284769380
0.1040253 -0.052354898 0.073640965 4284769380
0.097918488 -0.051621355 0.072886318 4284769380
0.09175837 -0.050958473 0.073005937 4284769380
0.085668817 -0.050379582 0.073997416 4284769380
0.1354132 -0.058154143 0.10071091 4284769380
0.13355553 -0.057437681 0.09484265 4284769380
0.13088572 -0.05666133 0.089304589 4284769380
0.12745745 -0.055840712 0.084208079 4284769380
0.12333968 -0.054992318 0.079655617 4284769380
0.1186152 -0.054133214 0.075738735 4284769380
0.11337901 -0.053280674 0.0725362 4284769380
0.1077364 -0.052451842 0.0701124 4284769380
0.10180084 -0.05166338 0.068516091 4284769380
0.095691681 -0.050931148 0.067779355 4284769380
0.089531764 -0.050269868 0.067917019 4284769380
0.083444968 -0.049692836 0.068926312 4284769380
0.077553675 -0.049211655 0.070786931 4284769380
0.13069296 -0.056700092 0.08998844 4284769380
0.12800694 -0.055922672 0.084458381 4284769380
0.12456372 -0.055101309 0.079372078 4284769380
0.12043258 -0.054252524 0.074831821 4284769380
0.11569656 -0.053393379 0.070928909 4284769380
0.1104509 -0.052541155 0.067741811 4284769380
0.10480109 -0.051712986 0.065334626 4284769380
0.098860733 -0.05092553 0.063755751 4284769380
0.092749283 -0.050194614 0.063036934 4284769380
0.086589627 -0.049534939 0.063192636 4284769380
0.080505632 -0.048959773 0.064219728 4284769380
0.074619628 -0.048480675 0.06609755 4284769380
0.069049984 -0.048107285 0.068788335 4284769380
0.12447123 -0.055152759 0.080075718 4284769380
0.1210131 -0.054330666 0.074999668 4284769380
0.11686862 -0.053481489 0.070471659 4284769380
0.1121211 -0.052622315 0.066582747 4284769380
0.10686602 -0.051770415 0.063411117 4284769380
0.10120906 -0.05094292 0.061020557 4284769380
0.095263965 -0.05015647 0.059459135 4284769380
0.089150272 -0.04942688 0.058758248 4284769380
0.082990929 -0.048768815 0.058931991 4284769380
0.076909781 -0.048195515 0.059976868 4284769380
0.071029119 -0.047718506 0.061871871 4284769380
0.065467194 -0.047347382 0.064578891 4284769380
0.060335837 -0.047089599 0.0680435 4284769380
0.11687832 -0.053544555 0.071180351 4284769380
0.11272052 -0.052695002 0.066664629 4284769380
0.10796155 -0.051835801 0.062789746 4284769380
0.1026971 -0.050984234 0.059633613 4284769380
0.097033031 -0.050157417 0.057259701 4284769380
0.091083243 -0.04937198 0.055715743 4284769380
0.08496736 -0.048643719 0.05503279 4284769380
0.078808382 -0.047987275 0.055224568 4284769380
0.072730139 -0.047415849 0.056287229 4284769380
0.066854872 -0.04694093 0.058199398 4284769380
0.061300706 -0.046572071 0.060922626 4284769380
0.056179337 -0.046316687 0.064402156 4284769380
0.051593743 -0.046179913 0.068568014 4284769380
0.10807324 -0.051909156 0.06348864 4284769380
0.10330286 -0.05104994 0.05962782 4284769380
0.098029085 -0.050198708 0.05648721 4284769380
0.092357956 -0.04937258 0.054129966 4284769380
0.086403519 -0.048588168 0.052603491 4284769380
0.080285504 -0.047861241 0.051938474 4284769380
0.074126936 -0.04720642 0.05214829 4284769380
0.068051659 -0.046636872 0.053228721 4284769380
0.062181827 -0.046164047 0.055158038 4284769380
0.056635477 -0.045797456 0.057897452 4284769380
0.051524136 -0.045544472 0.061391871 4284769380
0.04695059 -0.045410179 0.065571032 4284769380
0.043006796 -0.045397274 0.070350893 4284769380
0.098240428 -0.050280817 0.057161678 4284769380
0.092957363 -0.049429934 0.054036617 4284769380
0.08727923 -0.0486045 0.051696062 4284769380
0.081320204 -0.047821112 0.050187077 4284769380
0.075200103 -0.04709553 0.049540006 4284769380
0.069042005 -0.046442337 0.049767856 4284769380
0.062969729 -0.04587467 0.050866049 4284769380
0.057105392 -0.045403946 0.052812502 4284769380
0.051566903 -0.045039631 0.055568073 4284769380
0.046465635 -0.044789046 0.059077356 4284769380
0.04190417 -0.044657234 0.063269779 4284769380
0.037974231 -0.044646844 0.068061046 4284769380
0.034754843 -0.044758085 0.073354803 4284769380
0.1310863 -0.063058861 0.16217811 4284769380
0.13440382 -0.06296365 0.15694498 4284769380
0.13695376 -0.062748611 0.15130119 4284769380
0.13868482 -0.062418066 0.14536023 4284769380
0.13956223 -0.061978661 0.13924159 4284769380
0.13956833 -0.061439231 0.13306828 4284769380
0.13870299 -0.060810626 0.12696445 4284769380
0.1369836 -0.060105488 0.12105282 4284769380
0.13444477 -0.059337988 0.11545229 4284769380
0.13113752 -0.058523569 0.11027545 4284769380
0.12712838 -0.057678599 0.10562642 4284769380
0.12249795 -0.056820076 0.10159867 4284769380
0.11733933 -0.05596526 0.098273195 4284769380
0.13630781 -0.062703818 0.15159625 4284769380
0.13884133 -0.062486347 0.14594516 4284769380
0.14055511 -0.062153481 0.13999933 4284769380
0.1414147 -0.061711922 0.13387831 4284769380
0.14140278 -0.061170541 0.12770519 4284769380
0.14051962 -0.060540225 0.12160408 4284769380
0.13878295 -0.059833653 0.11569767 4284769380
0.13622773 -0.059065029 0.11010475 4284769380
0.1329053 -0.058249813 0.10493778 4284769380
0.1288825 -0.057404391 0.10030063 4284769380
0.1242402 -0.056545772 0.09628658 4284769380
0.11907177 -0.055691212 0.092976324 4284769380
0.11348112 -0.054857902 0.090436436 4284769380
0.13995755 -0.062121846 0.14038433 4284769380
0.14165403 -0.06178667 0.13443367 4284769380
0.14249577 -0.061342955 0.12831032 4284769380
0.14246584 -0.060799625 0.12213743 4284769380
0.14156486 -0.060167607 0.1160391 4284769380
0.13981093 -0.059459608 0.11013798 4284769380
0.13723932 -0.058689866 0.10455273 4284769380
0.13390176 -0.05787386 0.099395648 4284769380
0.12986533 -0.057027996 0.094770439 4284769380
0.12521122 -0.056169283 0.09077011 4284769380
0.12003301 -0.055314992 0.087475099 4284769380
0.11443482 -0.054482296 0.084951669 4284769380
0.10852923 -0.053687941 0.08325056 4284769380
0.1419591 -0.06132514 0.12877721 4284769380
0.142783 -0.060879275 0.12265159 4284769380
0.14273506 -0.060334004 0.11647898 4284769380
0.14181627 -0.059700288 0.1103835 4284769380
0.14004509 -0.05899087 0.1044877 4284769380
0.13745713 -0.058220014 0.098910153 4284769380
0.13410443 -0.057403222 0.093763016 4284769380
0.13005443 -0.056556921 0.089149781 4284769380
0.12538853 -0.055698127 0.085163213 4284769380
0.12020059 -0.054844104 0.081883475 4284769380
0.11459491 -0.054012034 0.079376526 4284769380
0.10868423 -0.05321864 0.077692769 4284769380
0.10258738 -0.052479882 0.076866068 4284769380
0.14227054 -0.060330383 0.11701797 4284769380
0.1422046 -0.059783172 0.11084569 4284769380
0.141268 -0.05914776 0.10475309 4284769380
0.13947958 -0.058436926 0.098862678 4284769380
0.13687529 -0.057664968 0.093292892 4284769380
0.13350751 -0.056847401 0.088155732 4284769380
0.12944394 -0.056000669 0.083554514 4284769380
0.12476631 -0.055141795 0.079581738 4284769380
0.11956868 -0.054288056 0.07631731 4284769380
0.11395556 -0.053456612 0.073826864 4284769380
0.10803982 -0.052664191 0.072160475 4284769380
0.10194042 -0.051926717 0.071351655 4284769380
0.09578 -0.051259026 0.071416669 4284769380
0.14088532 -0.059158407 0.10535289 4284769380
0.13993093 -0.058521308 0.099263236 4284769380
0.13812529 -0.05780907 0.093378246 4284769380
0.13550469 -0.057036009 0.087816261 4284769380
0.13212185 -0.056217674 0.082689136 4284769380
0.12804475 -0.055370517 0.078099966 4284769380
0.12335543 -0.054511577 0.074141026 4284769380
0.11814816 -0.053658124 0.070891924 4284769380
0.11252764 -0.052827317 0.068417996 4284769380
0.1066069 -0.052035868 0.066768996 4284769380
0.100505 -0.051299687 0.065978073 4284769380
0.094344631 -0.050633579 0.066061132 4284769380
0.088249668 -0.05005094 0.067016505 4284769380
0.13783249 -0.057833761 0.094026297 4284769380
0.13600963 -0.057120122 0.088146791 4284769380
0.13337275 -0.056345966 0.082592666 4284769380
0.12997487 -0.055526868 0.077475615 4284769380
0.12588431 -0.054679297 0.072898529 4284769380
0.12118333 -0.053820293 0.068953454 4284769380
0.11596645 -0.052967135 0.065719709 4284769380
0.11033858 -0.052136976 0.063262329 4284769380
0.1044129 -0.051346507 0.061630722 4284769380
0.098308541 -0.050611623 0.060857695 4284769380
0.092148274 -0.049947105 0.060958799 4284769380
0.086055957 -0.049366314 0.061931998 4284769380
0.080154099 -0.048880927 0.063757718 4284769380
0.13317597 -0.056384187 0.0832754 4284769380
0.13052283 -0.055608951 0.07772918 4284769380
0.12710994 -0.054789096 0.072622247 4284769380
0.12300593 -0.053941116 0.068057291 4284769380
0.11829333 -0.05308206 0.064126112 4284769380
0.1130669 -0.052229203 0.060907755 4284769380
0.10743173 -0.051399693 0.058466937 4284769380
0.10150115 -0.050610211 0.056852743 4284769380
0.095394395 -0.049876634 0.056097627 4284769380
0.089234278 -0.049213711 0.056216773 4284769380
0.083144657 -0.048634771 0.057207786 4284769380
0.077247985 -0.04815146 0.059050739 4284769380
0.071662843 -0.047773492 0.061708573 4284769380
0.1270133 -0.054840047 0.073325366 4284769380
0.12358543 -0.054019447 0.068228595 4284769380
0.119468 -0.053171065 0.063675806 4284769380
0.11474383 -0.052311961 0.059758559 4284769380
0.10950789 -0.051459413 0.056555618 4284769380
0.10386547 -0.050630562 0.054131385 4284769380
0.097930036 -0.049842075 0.052534614 4284769380
0.09182094 -0.049109809 0.051797409 4284769380
0.085661024 -0.048448484 0.051934596 4284769380
0.079574145 -0.047871403 0.05294342 4284769380
0.073682718 -0.04739017 0.054803587 4284769380
0.068105198 -0.04701446 0.057477698 4284769380
0.06295374 -0.046751827 0.06091198 4284769380
0.11947352 -0.053233676 0.064384587 4284769380
0.11534272 -0.052384902 0.059844006 4284769380
0.11060701 -0.051525757 0.055940721 4284769380
0.1053616 -0.050673526 0.052753218 4284769380
0.099711977 -0.049845342 0.050345596 4284769380
0.093771748 -0.049057856 0.048766263 4284769380
0.087660357 -0.048326906 0.048046976 4284769380
0.081500694 -0.04766719 0.048202205 4284769380
0.075416625 -0.047091972 0.049228825 4284769380
0.06953048 -0.046612822 0.051106192 4284769380
0.063960627 -0.046239369 0.053796556 4284769380
0.05881907 -0.045979131 0.057245821 4284769380
0.054209191 -0.045837335 0.061384622 4284769380
0.11071455 -0.05159872 0.056640308 4284769380
0.10596734 -0.050739545 0.052751023 4284769380
0.10071252 -0.049887639 0.049578987 4284769380
0.095055744 -0.049060125 0.047187991 4284769380
0.089110769 -0.048273649 0.045626108 4284769380
0.082997136 -0.047544021 0.044924751 4284769380
0.076837778 -0.046885915 0.045098018 4284769380
0.070756562 -0.046312567 0.046142429 4284769380
0.064875759 -0.045835502 0.048036978 4284769380
0.059313625 -0.045464318 0.050743572 4284769380
0.054182008 -0.045206472 0.054207787 4284769380
0.049584094 -0.045067154 0.058359962 4284769380
0.045612343 -0.045049164 0.063116603 4284769380
0.10091987 -0.049969424 0.050254736 4284769380
0.095655657 -0.049117845 0.047098197 4284769380
0.089991778 -0.048291009 0.044723846 4284769380
0.084042102 -0.047505546 0.04317943 4284769380
0.077926286 -0.046777252 0.042496003 4284769380
0.071767293 -0.046120763 0.042687308 4284769380
0.065688975 -0.045549288 0.0437495 4284769380
0.059813559 -0.045074314 0.045661218 4284769380
0.054259192 -0.044705395 0.048384018 4284769380
0.049137559 -0.044449948 0.051863156 4284769380
0.044551652 -0.044313107 0.056028664 4284769380
0.04059368 -0.044297628 0.06079679 4284769380
0.037343238 -0.044403821 0.066071644 4284769380
0.09029457 -0.048379906 0.045361601 4284769380
0.084623627 -0.047553759 0.04300392 4284769380
0.07866931 -0.046769317 0.04147698 4284769380
0.072551355 -0.046042357 0.040811494 4284769380
0.066392772 -0.045387492 0.041020833 4284769380
0.060317412 -0.044817895 0.042100798 4284769380
0.054447439 -0.044345014 0.044029664 4284769380
0.04890088 -0.043978367 0.04676865 4284769380
0.043789279 -0.043725315 0.050262678 4284769380
0.039215412 -0.043590959 0.054441489 4284769380
0.035271257 -0.043577988 0.059221055 4284769380
0.032036126 -0.043686673 0.064505264 4284769380
0.029575067 -0.043914825 0.070187859 4284769380
0.13737917 -0.062214982 0.14467028 4284769380
0.13994591 -0.062002439 0.13903402 4284769380
0.14169471 -0.061674275 0.13309814 4284769380
0.1425904 -0.061237086 0.12698199 4284769380
0.14261498 -0.060699664 0.12080854 4284769380
0.14176793 -0.060072821 0.11470196 4284769380
0.14006631 -0.059369158 0.10878503 4284769380
0.13754433 -0.058602821 0.10317672 4284769380
0.1342527 -0.057789225 0.09798982 4284769380
0.13025759 -0.056944732 0.093328625 4284769380
0.12563936 -0.056086317 0.089286856 4284769380
0.12049088 -0.055231243 0.085945792 4284769380
0.11491566 -0.054396704 0.083372623 4284769380
0.14109491 -0.061642084 0.13347961 4284769380
0.14282644 -0.061311599 0.12753879 4284769380
0.14370431 -0.060872249 0.1214202 4284769380
0.14371088 -0.060332872 0.11524688 4284769380
0.142846 -0.059704315 0.10914298 4284769380
0.14112708 -0.058999211 0.10323122 4284769380
0.13858868 -0.058231745 0.097630486 4284769380
0.13528183 -0.057417344 0.09245339 4284769380
0.13127305 -0.056572389 0.087804042 4284769380
0.12664293 -0.05571387 0.083775938 4284769380
0.12148457 -0.054859046 0.080450065 4284769380
0.11590171 -0.05402511 0.077893309 4284769380
0.11000661 -0.053228833 0.076157078 4284769380
0.14316492 -0.060853861 0.12188391 4284769380
0.14402497 -0.060412355 0.11576296 4284769380
0.14401352 -0.059871025 0.10958982 4284769380
0.14313082 -0.059240758 0.10348865 4284769380
0.14139462 -0.058534224 0.097582109 4284769380
0.13883981 -0.057765629 0.091988988 4284769380
0.13551779 -0.056950431 0.086821742 4284769380
0.13149536 -0.056105025 0.082184292 4284769380
0.12685336 -0.055246405 0.078169875 4284769380
0.12168519 -0.054391839 0.074859217 4284769380
0.11609475 -0.053558514 0.072318897 4284769380
0.11019444 -0.052763183 0.070599996 4284769380
0.10410293 -0.052021839 0.069737062 4284769380
0.14354584 -0.05986682 0.11012607 4284769380
0.14351639 -0.059323542 0.10395317 4284769380
0.14261587 -0.058691569 0.097854771 4284769380
0.14086239 -0.057983607 0.091953509 4284769380
0.13829122 -0.057213895 0.086368054 4284769380
0.13495405 -0.056397907 0.08121071 4284769380
0.13091798 -0.055552054 0.076585189 4284769380
0.12626417 -0.054693345 0.072584495 4284769380
0.12108622 -0.053839047 0.069289088 4284769380
0.11548824 -0.053006332 0.066765226 4284769380
0.10958278 -0.052211955 0.065063655 4284769380
0.10348861 -0.051471885 0.064218603 4284769380
0.097328261 -0.050801001 0.064247049 4284769380
0.14222968 -0.058701634 0.09845233 4284769380
0.14131135 -0.058067963 0.092356764 4284769380
0.13954063 -0.057358582 0.086460829 4284769380
0.1369531 -0.056587756 0.080883078 4284769380
0.1336008 -0.055770986 0.075735673 4284769380
0.12955114 -0.054924693 0.071122125 4284769380
0.12488557 -0.054065902 0.067135192 4284769380
0.11969788 -0.053211872 0.063855059 4284769380
0.11409239 -0.052379783 0.061347675 4284769380
0.10818184 -0.051586367 0.059663463 4284769380
0.10208506 -0.050847575 0.058836289 4284769380
0.095924653 -0.050178263 0.058882784 4284769380
0.089824498 -0.049591895 0.059802014 4284769380
0.13924402 -0.057382707 0.087107174 4284769380
0.13745606 -0.056671914 0.081216611 4284769380
0.13485219 -0.055899981 0.075646624 4284769380
0.13148481 -0.055082433 0.070509203 4284769380
0.1274216 -0.054235712 0.065907665 4284769380
0.12274428 -0.053376842 0.061934531 4284769380
0.1175469 -0.052523095 0.058669697 4284769380
0.11193398 -0.051691636 0.056178812 4284769380
0.10601836 -0.050899185 0.054511968 4284769380
0.099919029 -0.050161678 0.053702679 4284769380
0.093758613 -0.049493946 0.053767219 4284769380
0.087660998 -0.048909415 0.05470429 4284769380
0.081748784 -0.048419837 0.056495052 4284769380
0.13465139 -0.055937663 0.076328218 4284769380
0.13203122 -0.055164631 0.070766032 4284769380
0.12864877 -0.054346316 0.065638646 4284769380
0.12457205 -0.05349917 0.061049156 4284769380
0.11988303 -0.052640233 0.05708985 4284769380
0.11467601 -0.051786773 0.053840347 4284769380
0.10905568 -0.050955951 0.051365983 4284769380
0.10313507 -0.050164472 0.049716521 4284769380
0.097033232 -0.049428258 0.048925128 4284769380
0.090872861 -0.048762109 0.04900771 4284769380
0.084777832 -0.048179422 0.049962614 4284769380
0.078870706 -0.047691908 0.051770639 4284769380
0.073270269 -0.047309376 0.054395422 4284769380
0.12854798 -0.054396767 0.066341221 4284769380
0.12515049 -0.053577688 0.061223902 4284769380
0.12106028 -0.052730128 0.0566465 4284769380
0.1163596 -0.051871125 0.05270106 4284769380
0.11114298 -0.051017959 0.049466912 4284769380
0.10551531 -0.050187781 0.047009096 4284769380
0.09958975 -0.049397286 0.045377027 4284769380
0.09348546 -0.048662368 0.044603534 4284769380
0.087325186 -0.04799781 0.044704162 4284769380
0.081232794 -0.04741697 0.045676891 4284769380
0.075330801 -0.046931528 0.04750216 4284769380
0.069737889 -0.046551246 0.050143264 4284769380
0.064566515 -0.046283774 0.053547099 4284769380
0.1210616 -0.052792288 0.057355337 4284769380
0.11695795 -0.051944315 0.052790064 4284769380
0.11224565 -0.051085263 0.048858516 4284769380
0.10701947 -0.050232396 0.045639757 4284769380
0.1013845 -0.04940287 0.043198504 4284769380
0.095454037 -0.048613362 0.041583847 4284769380
0.089347348 -0.047879752 0.040828258 4284769380
0.083187222 -0.047216784 0.040946931 4284769380
0.077097528 -0.046637796 0.041937474 4284769380
0.071200728 -0.046154432 0.043779977 4284769380
0.065615386 -0.045776404 0.046437383 4284769380
0.060453817 -0.045511317 0.049856257 4284769380
0.055819813 -0.045364507 0.053967852 4284769380
0.11234906 -0.051157828 0.04955877 4284769380
0.10762519 -0.050298728 0.045641154 4284769380
0.10238949 -0.049446173 0.042437807 4284769380
0.096747272 -0.048617303 0.040013138 4284769380
0.09081196 -0.04782879 0.038415909 4284769380
0.084702924 -0.047096487 0.037678231 4284769380
0.078543 -0.046435125 0.037814945 4284769380
0.072456054 -0.045857996 0.038823299 4284769380
0.066564485 -0.045376707 0.040683012 4284769380
0.060986765 -0.045000937 0.043356694 4284769380
0.05583505 -0.044738241 0.046790581 4284769380
0.051212933 -0.044593904 0.050915625 4284769380
0.047213357 -0.044570826 0.055648871 4284769380
0.10259283 -0.049527626 0.043114811 4284769380
0.097347669 -0.048675388 0.039926901 4284769380
0.091698237 -0.047847185 0.03751884 4284769380
0.085758135 -0.047059674 0.035939045 4284769380
0.079646803 -0.046328686 0.035219289 4284769380
0.073487133 -0.04566893 0.035374045 4284769380
0.067402989 -0.045093663 0.036400195 4284769380
0.061516706 -0.044614457 0.038277112 4284769380
0.055946652 -0.044240948 0.040967047 4284769380
0.050804835 -0.043980643 0.044415917 4284769380
0.046194643 -0.043838784 0.048554365 4284769380
0.04220878 -0.043818217 0.053299177 4284769380
0.038927399 -0.043919355 0.058554944 4284769380
0.091997236 -0.047935821 0.038158417 4284769380
0.086340651 -0.047108293 0.035766982 4284769380
0.080395795 -0.046321787 0.034204639 4284769380
0.074282221 -0.045592126 0.03350281 4284769380
0.068122864 -0.044933978 0.033675604 4284769380
0.062041566 -0.044360582 0.034719545 4284769380
0.056160621 -0.043883462 0.036613643 4284769380
0.050598286 -0.043512214 0.03931981 4284769380
0.045466404 -0.043254308 0.042783633 4284769380
0.040868178 -0.043114923 0.046935454 4284769380
0.036896061 -0.043096866 0.051691789 4284769380
0.033629935 -0.0432005 0.056956999 4284769380
0.03113547 -0.043423742 0.062625207 4284769380
0.080784202 -0.046415754 0.034793392 4284769380
0.074834652 -0.045630261 0.033248518 4284769380
0.068718888 -0.04490193 0.032564618 4284769380
0.062559888 -0.0442454 0.032755449 4284769380
0.056481492 -0.043673877 0.033817172 4284769380
0.050605934 -0.043198846 0.03572844 4284769380
0.045051362 -0.042829867 0.038450815 4284769380
0.039929464 -0.042574357 0.041929558 4284769380
0.035343241 -0.042437453 0.046094719 4284769380
0.031384908 -0.042421907 0.05086254 4284769380
0.028134059 -0.042528033 0.056137148 4284769380
0.025656071 -0.042753696 0.061812479 4284769380
0.024000766 -0.043094363 0.067774415 4284769380
-0.039836984 -0.054221056 0.23388043 4284769380
-0.034481447 -0.054685228 0.23696321 4284769380
-0.028739929 -0.055094514 0.23925848 4284769380
-0.022727884 -0.055440687 0.24072006 4284769380
-0.016566204 -0.055716783 0.2413186 4284769380
-0.010378791 -0.055917256 0.24104202 4284769380
-0.0042900639 -0.056038067 0.23989591 4284769380
0.001577544 -0.056076791 0.23790331 4284769380
0.0071060439 -0.056032654 0.23510431 4284769380
0.012184267 -0.055906534 0.23155515 4284769380
0.016710099 -0.055700973 0.22732721 4284769380
0.020592529 -0.055420104 0.22250554 4284769380
0.023753494 -0.055069573 0.21718706 4284769380
-0.029057184 -0.055027578 0.23862508 4284769380
-0.023308909 -0.055435643 0.24090359 4284769380
-0.017292548 -0.055780441 0.24234763 4284769380
-0.011129082 -0.056055028 0.24292819 4284769380
-0.0049424493 -0.056253895 0.2426336 4284769380
0.0011429477 -0.056373037 0.24146977 4284769380
0.0070047416 -0.056410059 0.23946011 4284769380
0.012525061 -0.056364216 0.23664501 4284769380
0.017592903 -0.056236427 0.2330811 4284769380
0.022106359 -0.056029271 0.22884005 4284769380
0.02597467 -0.055746906 0.22400713 4284769380
0.029120056 -0.055395011 0.2186795 4284769380
0.031479262 -0.054980662 0.21296434 4284769380
-0.017698338 -0.05571489 0.24176681 4284769380
-0.011677714 -0.056058303 0.24319331 4284769380
-0.0055125155 -0.056331385 0.24375591 4284769380
0.000673284 -0.056528643 0.2434433 4284769380
0.0067552989 -0.056646112 0.24226174 4284769380
0.012611229 -0.056681428 0.24023502 4284769380
0.018123321 -0.056633882 0.23740388 4284769380
0.023180736 -0.056504432 0.23382527 4284769380
0.027681779 -0.056295674 0.22957112 4284769380
0.031535938 -0.056011815 0.22472697 4284769380
0.034665719 -0.055658557 0.21939027 4284769380
0.037008177 -0.055243008 0.2136683 4284769380
0.038516216 -0.054773517 0.20767613 4284769380
-0.0059983437 -0.056268591 0.24323982 4284769380
0.00016853493 -0.056540161 0.24378446 4284769380
0.0063534486 -0.056735814 0.24345382 4284769380
0.012432029 -0.056851607 0.24225456 4284769380
0.018282045 -0.05688522 0.2402108 4284769380
0.023785863 -0.056835972 0.23736364 4284769380
0.02883281 -0.056704853 0.23377033 4284769380
0.033321399 -0.056494504 0.22950312 4284769380
0.037161376 -0.056209151 0.22464782 4284769380
0.040275522 -0.055854537 0.21930206 4284769380
0.042601213 -0.055437785 0.21357334 4284769380
0.04409169 -0.05496728 0.20757686 4284769380
0.044716977 -0.054452483 0.20143318 4284769380
0.0057977587 -0.056677092 0.24301328 4284769380
0.011981734 -0.056871131 0.24266462 4284769380
0.018056829 -0.056985252 0.24144766 4284769380
0.02390088 -0.057017159 0.23938689 4284769380
0.029396378 -0.056966208 0.23652373 4284769380
0.034432814 -0.056833427 0.23291576 4284769380
0.038908914 -0.056621484 0.22863553 4284769380
0.042734668 -0.056334645 0.2237691 4284769380
0.045833152 -0.055978671 0.21841435 4284769380
0.048142061 -0.055560723 0.21267892 4284769380
0.049614958 -0.055089209 0.20667818 4284769380
0.050222233 -0.054573603 0.20053276 4284769380
0.049951673 -0.054024283 0.19436626 4284769380
0.017442914 -0.056931835 0.24109189 4284769380
0.02351447 -0.057044279 0.23985726 4284769380
0.029352508 -0.05707448 0.23777948 4284769380
0.034839638 -0.057021827 0.23490034 4284769380
0.039865516 -0.056887385 0.23127775 4284769380
0.044329088 -0.056673851 0.22698453 4284769380
0.048140593 -0.056385521 0.22210702 4284769380
0.051223394 -0.056028195 0.21674332 4284769380
0.05351549 -0.055609059 0.21100125 4284769380
0.054970801 -0.055136535 0.20499629 4284769380
0.05556006 -0.054620128 0.19884919 4284769380
0.055271417 -0.054070227 0.19268355 4284769380
0.054110676 -0.053497881 0.18662336 4284769380
0.028693229 -0.057027481 0.23751593 4284769380
0.034525204 -0.057055976 0.23542117 4284769380
0.040003918 -0.057001624 0.23252609 4284769380
0.045019202 -0.056865517 0.2288889 4284769380
0.049470205 -0.056650396 0.22458273 4284769380
0.053267427 -0.056360584 0.21969418 4284769380
0.056334514 -0.056001905 0.21432157 4284769380
0.058609787 -0.055581581 0.20857289 4284769380
0.060047496 -0.055108055 0.20256378 4284769380
0.060618732 -0.054590851 0.19641504 4284769380
0.060312007 -0.054040372 0.19025032 4284769380
0.059133489 -0.053467687 0.1841936 4284769380
0.057106879 -0.052884307 0.17836666 4284769380
0.039313082 -0.056962032 0.23236029 4284769380
0.044783331 -0.056905981 0.22944927 4284769380
0.049787976 -0.056768216 0.22579752 4284769380
0.054226372 -0.056551505 0.22147845 4284769380
0.058009282 -0.05626021 0.2165789 4284769380
0.061060626 -0.055900186 0.21119741 4284769380
0.063319057 -0.055478673 0.20544219 4284769380
0.064739153 -0.05500415 0.19942896 4284769380
0.065292358 -0.054486156 0.19327864 4284769380
0.064967558 -0.053935103 0.18711491 4284769380
0.06377127 -0.053362079 0.1810617 4284769380
0.061727565 -0.052778605 0.17524074 4284769380
0.058877528 -0.05219641 0.16976908 4284769380
0.049080048 -0.056736857 0.22573292 4284769380
0.054074008 -0.056597434 0.22206663 4284769380
0.058499765 -0.056379136 0.21773468 4284769380
0.06226832 -0.056086361 0.21282418 4284769380
0.065303899 -0.055724993 0.20743388 4284769380
0.067545466 -0.055302303 0.20167215 4284769380
0.068947934 -0.054826781 0.19565487 4284769380
0.069483116 -0.054307997 0.18950301 4284769380
0.069140233 -0.053756382 0.18334031 4284769380
0.067926198 -0.053183027 0.17729068 4284769380
0.065865405 -0.052599456 0.17147575 4284769380
0.062999316 -0.052017413 0.16601247 4284769380
0.059385538 -0.051448595 0.16101068 4284769380
0.057789575 -0.056356672 0.21777266 4284769380
0.062202651 -0.056136794 0.21342787 4284769380
0.065956831 -0.055842541 0.20850645 4284769380
0.068976618 -0.055479832 0.20310737 4284769380
0.071201295 -0.055055961 0.19733919 4284769380
0.072586127 -0.054579452 0.1913179 4284769380
0.073103271 -0.054059885 0.18516459 4284769380
0.072742321 -0.053507708 0.17900296 4284769380
0.071510531 -0.052934021 0.17295694 4284769380
0.069432683 -0.052350368 0.1671481 4284769380
0.066550553 -0.051768478 0.16169325 4284769380
