# .PCD v0.7 - Point Cloud Data file format
VERSION 0.7
FIELDS x y z rgb
SIZE 4 4 4 4
TYPE F F F U
COUNT 1 1 1 1
WIDTH 1031
HEIGHT 1
VIEWPOINT 0 0 0 1 0 0 0
POINTS 1031
DATA ascii
0.089277022 -0.010817999 0.095549166 4294901760
0.081159778 -0.013083471 0.093977407 4294901760
0.073076904 -0.014504305 0.091499366 4294901760
0.065197311 -0.015050807 0.088166825 4294901760
0.057685692 -0.014711556 0.084049441 4294901760
0.050699029 -0.013493642 0.079233259 4294901760
0.12541676 0.012048759 0.088574469 4294901760
0.1204619 0.0062324875 0.092461996 4294901760
0.11463039 0.00075515459 0.095541723 4294901760
0.1080441 -0.0042687668 0.097749293 4294901760
0.10084067 -0.0087342793 0.099038564 4294901760
0.093170658 -0.012548058 0.099382587 4294901760
0.085194357 -0.015630396 0.098774187 4294901760
0.077078462 -0.017916875 0.097226068 4294901760
0.068992592 -0.01935971 0.094770581 4294901760
0.061105743 -0.019928744 0.091459058 4294901760
0.053582743 -0.019612085 0.087360695 4294901760
0.04658081 -0.018416354 0.08256115 4294901760
0.040246293 -0.01636654 0.077160731 4294901760
0.11560057 0.0017869461 0.094897568 4294901760
0.10978999 -0.0037004945 0.09799879 4294901760
0.1032213 -0.0087373368 0.10022926 4294901760
0.0960318 -0.013218313 0.10154238 4294901760
0.088371731 -0.017049776 0.10191071 4294901760
0.08040119 -0.020151649 0.10132654 4294901760
0.072286755 -0.022459103 0.099802077 4294901760
0.06419801 -0.023923917 0.097369187 4294901760
0.056304011 -0.024515476 0.09407872 4294901760
0.048769727 -0.024221417 0.089999437 4294901760
0.041752629 -0.023047883 0.085216604 4294901760
0.035399366 -0.021019405 0.079830162 4294901760
0.029842719 -0.018178374 0.073952697 4294901760
0.10433791 -0.007774116 0.099733114 4294901760
0.097786926 -0.012823811 0.10198647 4294901760
0.090611443 -0.01732019 0.10332342 4294901760
0.082961433 -0.021169284 0.10371604 4294901760
0.074996762 -0.024290647 0.1031561 4294901760
0.066883892 -0.026619049 0.10165533 4294901760
0.058792382 -0.028105821 0.099245064 4294901760
0.050891332 -0.028719896 0.095975697 4294901760
0.043345876 -0.028448438 0.091915555 4294901760
0.036313701 -0.027297122 0.087149486 4294901760
0.029941784 -0.025290007 0.081777096 4294901760
0.024363289 -0.022469042 0.075910673 4294901760
0.019694801 -0.018893184 0.069672816 4294901760
0.091852315 -0.016444659 0.10298512 4294901760
0.084690951 -0.02095638 0.10434589 4294901760
0.077051096 -0.024823053 0.10476279 4294901760
0.069092408 -0.027963867 0.1042271 4294901760
0.060981218 -0.030313179 0.10275003 4294901760
0.052887049 -0.031821892 0.10036243 4294901760
0.044979066 -0.032458477 0.097114205 4294901760
0.037422534 -0.032209624 0.093073249 4294901760
0.030375384 -0.031080537 0.088324018 4294901760
0.023984896 -0.029094813 0.082965754 4294901760
0.018384626 -0.026293954 0.077110454 4294901760
0.01369162 -0.022736493 0.07088048 4294901760
0.010003954 -0.018496782 0.064406037 4294901760
0.12753068 0.10302385 -0.0052578719 4294901760
0.13244985 0.098913714 0.00043431678 4294901760
0.13636957 0.094106235 0.0063517732 4294901760
0.13920791 0.088701867 0.012370826 4294901760
0.14090559 0.082813568 0.018365681 4294901760
0.14142708 0.076564401 0.024211049 4294901760
0.14076151 0.070084967 0.029784765 4294901760
0.1389228 0.063510679 0.034970343 4294901760
0.13594934 0.056978937 0.039659407 4294901760
0.13190331 0.050626248 0.043753963 4294901760
0.12686923 0.044585388 0.04716843 4294901760
0.12095236 0.038982596 0.04983145 4294901760
0.11427632 0.033934977 0.051687371 4294901760
0.13555269 0.09490867 0.0052984087 4294901760
0.13949904 0.09011779 0.011211639 4294901760
0.14236581 0.084727302 0.017229659 4294901760
0.14409314 0.07884986 0.023226697 4294901760
0.14464489 0.072608307 0.029077418 4294901760
0.14400955 0.066133074 0.034659546 4294901760
0.14220038 0.059559502 0.039856415 4294901760
0.13925521 0.053024966 0.044559415 4294901760
0.13523559 0.046666037 0.048670262 4294901760
0.13022551 0.040615615 0.052103035 4294901760
0.12432969 0.035000149 0.054785993 4294901760
0.11767136 0.029936993 0.056663066 4294901760
0.11038965 0.02553197 0.057695024 4294901760
0.14173223 0.085645959 0.016145503 4294901760
0.14462741 0.080269419 0.022162409 4294901760
0.14638436 0.074402921 0.028161548 4294901760
0.14696635 0.068169057 0.034017541 4294901760
0.14636125 0.06169812 0.039608002 4294901760
0.14458168 0.055125352 0.044816092 4294901760
0.14166482 0.048588112 0.049532969 4294901760
0.13767166 0.042223029 0.05366005 4294901760
0.13268565 0.036163129 0.057111081 4294901760
0.12681097 0.030535059 0.059813939 4294901760
0.12017042 0.025456442 0.061712138 4294901760
0.11290278 0.021033416 0.062766008 4294901760
0.10515993 0.017358422 0.062953517 4294901760
0.14594662 0.07541956 0.027068118 4294901760
0.14773318 0.069564074 0.033069275 4294901760
0.14834543 0.063337997 0.038930461 4294901760
0.14777055 0.05687144 0.044529177 4294901760
0.14602059 0.050299566 0.049748421 4294901760
0.14313211 0.043759711 0.054479104 4294901760
0.13916546 0.037388563 0.058622364 4294901760
0.13420357 0.031319264 0.062091608 4294901760
0.12835012 0.02567867 0.064814329 4294901760
0.12172745 0.020584656 0.066733629 4294901760
0.11447397 0.016143691 0.067809395 4294901760
0.10674127 0.012448583 0.068019137 4294901760
0.098690972 0.0095765609 0.067358479 4294901760
0.14811224 0.064432442 0.03784946 4294901760
0.1487547 0.058214229 0.043715756 4294901760
0.14821009 0.05175215 0.049322657 4294901760
0.14648975 0.045181256 0.054552976 4294901760
0.14362967 0.038638879 0.059297405 4294901760
0.13968961 0.032261748 0.063456789 4294901760
0.1347519 0.026183138 0.066944197 4294901760
0.12891977 0.020530092 0.069686748 4294901760
0.12231506 0.015420754 0.071627118 4294901760
0.11507585 0.010961907 0.07272476 4294901760
0.1073534 0.0072467369 0.072956741 4294901760
0.099309132 0.0043528881 0.072318196 4294901760
0.091111153 0.0023408409 0.070822477 4294901760
0.14818607 0.052902684 0.048275538 4294901760
0.14767171 0.046445165 0.053890541 4294901760
0.14598104 0.039875343 0.059131868 4294901760
0.14314941 0.03333053 0.063889973 4294901760
0.13923596 0.026947502 0.068065427 4294901760
0.13432252 0.020859664 0.071570948 4294901760
0.12851176 0.015194247 0.074333288 4294901760
0.12192512 0.010069654 0.076294713 4294901760
0.11470027 0.005592986 0.077414222 4294901760
0.10698818 0.0018578032 0.077668421 4294901760
0.098950058 -0.0010578322 0.077052005 4294901760
0.090753876 -0.0030929849 0.075577855 4294901760
0.082570933 -0.0042051217 0.073276773 4294901760
0.14616668 0.041059125 0.058139417 4294901760
0.14450569 0.03449047 0.063391678 4294901760
0.14170253 0.027943308 0.068163402 4294901760
0.13781577 0.021554472 0.072354861 4294901760
0.13292666 0.015457488 0.075878456 4294901760
0.12713736 0.0097797755 0.078660548 4294901760
0.12056887 0.0046399971 0.080642991 4294901760
0.11335848 0.00014557043 0.081784353 4294901760
0.10565686 -0.0036095742 0.082060777 4294901760
0.097624987 -0.0065469565 0.081466496 4294901760
0.089430712 -0.0086051868 0.080013923 4294901760
0.081245296 -0.0097412504 0.077733412 4294901760
0.073239803 -0.0099314023 0.074672632 4294901760
0.14209414 0.029136842 0.067245319 4294901760
0.13931949 0.022587422 0.072030589 4294901760
0.13545947 0.016192866 0.076237999 4294901760
0.13059475 0.010086819 0.079779617 4294901760
0.12482699 0.0043968898 0.082581423 4294901760
0.11827675 -0.00075800426 0.084584855 4294901760
0.11108091 -0.0052701291 0.085748054 4294901760
0.10338986 -0.0090451837 0.086046703 4294901760
0.095364347 -0.012004273 0.085474558 4294901760
0.087172098 -0.014085554 0.084043585 4294901760
0.07898432 -0.015245527 0.08178369 4294901760
0.07097213 -0.015459952 0.078742087 4294901760
0.063302986 -0.014724346 0.074982367 4294901760
0.13604927 0.017372465 0.075412504 4294901760
0.13221604 0.010972276 0.079635806 4294901760
0.12737577 0.0048572477 0.083195396 4294901760
0.12162964 -0.00084482087 0.086016878 4294901760
0.11509772 -0.0060147601 0.088041283 4294901760
0.10791653 -0.010544521 0.089226298 4294901760
0.10023617 -0.014339435 0.089547165 4294901760
0.092217125 -0.017320191 0.08899717 4294901760
0.084027007 -0.019424492 0.087587819 4294901760
0.075836979 -0.02060836 0.085348554 4294901760
0.06781821 -0.020847054 0.082326181 4294901760
0.060138281 -0.020135585 0.078583866 4294901760
0.052957702 -0.018488821 0.074199818 4294901760
0.12815206 0.0059994957 0.082478873 4294901760
0.12333632 -0.00012442979 0.086056389 4294901760
0.11761189 -0.0058385604 0.088897504 4294901760
0.11109839 -0.011023474 0.090942845 4294901760
0.10393196 -0.01557081 0.092149667 4294901760
0.096262366 -0.019385532 0.092492744 4294901760
0.088249907 -0.022387912 0.091964908 4294901760
0.080062039 -0.024515206 0.090577193 4294901760
0.071869873 -0.025722954 0.088358596 4294901760
0.063844621 -0.025985913 0.08535549 4294901760
0.056154016 -0.02529859 0.081630632 4294901760
0.048958778 -0.023675347 0.07726188 4294901760
0.042409286 -0.02115011 0.072340526 4294901760
0.11855926 -0.0047563333 0.088304169 4294901760
0.1128566 -0.010482448 0.091164887 4294901760
0.10636161 -0.015682265 0.093231142 4294901760
0.099210024 -0.020247115 0.09445975 4294901760
0.091551319 -0.024081592 0.094825037 4294901760
0.083545551 -0.027105557 0.094319366 4294901760
0.075360037 -0.029255815 0.092953302 4294901760
0.067165844 -0.030487424 0.09075541 4294901760
0.059134226 -0.030774646 0.087771609 4294901760
0.051433045 -0.030111477 0.08406426 4294901760
0.044223245 -0.028511778 0.079710856 4294901760
0.03765551 -0.02600898 0.074802369 4294901760
0.031867098 -0.022655392 0.069441386 4294901760
0.10746125 -0.01468154 0.092772782 4294901760
0.10098486 -0.019896191 0.094859913 4294901760
0.093848221 -0.02447849 0.096110292 4294901760
0.086200505 -0.028332669 0.096497782 4294901760
0.07820154 -0.03137818 0.096014284 4294901760
0.070018493 -0.033551373 0.094669901 4294901760
0.061822385 -0.034806825 0.092492737 4294901760
0.053784512 -0.035118308 0.089528278 4294901760
0.046072859 -0.034479301 0.085838497 4294901760
0.038848598 -0.032903168 0.0815005 4294901760
0.032262705 -0.030422844 0.076604947 4294901760
0.026452828 -0.027090168 0.071254149 4294901760
0.021540387 -0.022974789 0.065559946 4294901760
0.095078319 -0.023579128 0.095796004 4294901760
0.087956734 -0.028178815 0.097068138 4294901760
0.080320112 -0.032052644 0.097477823 4294901760
0.072328053 -0.035119656 0.097016498 4294901760
0.064147584 -0.037315752 0.095693812 4294901760
0.055949673 -0.038595036 0.093537405 4294901760
0.04790565 -0.03893077 0.090592332 4294901760
0.040183634 -0.038315941 0.086920165 4294901760
0.032945007 -0.036763392 0.082597636 4294901760
0.026341053 -0.034305576 0.077715084 4294901760
0.020509789 -0.030993856 0.072374552 4294901760
0.015573083 -0.026897447 0.066687651 4294901760
0.011634113 -0.022101963 0.060773242 4294901760
0.12673892 0.10481137 -0.0030761401 4294901760
0.13187528 0.10021091 0.0020175735 4294901760
0.13601887 0.094897978 0.00731812 4294901760
0.13908312 0.088983625 0.012714721 4294901760
0.14100397 0.082591467 0.018094594 4294901760
0.14174126 0.075855084 0.023345297 4294901760
0.14127962 0.068915263 0.0283571 4294901760
0.13962868 0.06191704 0.033025257 4294901760
0.13682292 0.055006679 0.037252203 4294901760
0.13292101 0.048328601 0.040949605 4294901760
0.12800449 0.04202237 0.044040181 4294901760
0.1221761 0.036219787 0.046459347 4294901760
0.11555767 0.031042118 0.048156541 4294901760
0.13516197 0.095790818 0.0063750953 4294901760
0.13933207 0.090494752 0.011671728 4294901760
0.14242475 0.084594265 0.017067276 4294901760
0.14437537 0.078212671 0.022448979 4294901760
0.14514318 0.071483344 0.027704362 4294901760
0.14471211 0.06454692 0.032723587 4294901760
0.14309119 0.05754837 0.037401762 4294901760
0.14031428 0.050633956 0.041641109 4294901760
0.13643943 0.043948188 0.045353033 4294901760
0.1315476 0.037630793 0.048459958 4294901760
0.12574105 0.031813797 0.050896946 4294901760
0.11914112 0.026618777 0.052613072 4294901760
0.11188574 0.022154301 0.053572465 4294901760
0.14175028 0.085605219 0.016095774 4294901760
0.14487135 0.079718672 0.021490198 4294901760
0.14685173 0.073347732 0.026873657 4294901760
0.14765003 0.06662555 0.032133646 4294901760
0.14724955 0.059692625 0.037160229 4294901760
0.14565867 0.05269384 0.041848354 4294901760
0.14291064 0.045775473 0.046100046 4294901760
0.1390629 0.039082102 0.049826443 4294901760
0.13419583 0.032753628 0.052949671 4294901760
0.12841119 0.026922302 0.055404451 4294901760
0.12182985 0.021709999 0.057139482 4294901760
0.11458937 0.017225653 0.058118504 4294901760
0.10684107 0.013562983 0.058321055 4294901760
0.14637309 0.074456736 0.02589296 4294901760
0.1483832 0.068096541 0.031278104 4294901760
0.14921197 0.061381605 0.036542624 4294901760
0.14884208 0.054452267 0.041576497 4294901760
0.14728127 0.047453344 0.046274513 4294901760
0.14456217 0.04053111 0.050538488 4294901760
0.14074157 0.033830237 0.054279309 4294901760
0.13589935 0.027490765 0.057418797 4294901760
0.13013668 0.021645188 0.059891336 4294901760
0.12357404 0.016415676 0.061645251 4294901760
0.11634855 0.011911518 0.062643886 4294901760
0.10861123 0.0082268519 0.062866375 4294901760
0.10052378 0.0054386831 0.062308062 4294901760
0.14893866 0.062566653 0.035572197 4294901760
0.1497979 0.055859048 0.040841181 4294901760
0.14945862 0.048933394 0.04588227 4294901760
0.1479279 0.041934427 0.050590109 4294901760
0.14523773 0.035008423 0.054866314 4294901760
0.14144434 0.028300134 0.058621507 4294901760
0.13662702 0.021949755 0.061777212 4294901760
0.13088644 0.016090006 0.064267471 4294901760
0.12434256 0.010843353 0.066040248 4294901760
0.11713216 0.006319447 0.067058489 4294901760
0.10940593 0.0026128346 0.067300908 4294901760
0.10132533 -0.00019901842 0.06676244 4294901760
0.093059264 -0.0020573458 0.065454349 4294901760
0.14939606 0.050170954 0.044941373 4294901760
0.14908737 0.043249078 0.049989611 4294901760
0.14758676 0.036250163 0.054707214 4294901760
0.14492559 0.029320486 0.058995586 4294901760
0.14115946 0.022604872 0.062765099 4294901760
0.13636711 0.016243672 0.065936983 4294901760
0.13064866 0.010369831 0.06844493 4294901760
0.12412366 0.0051061097 0.070236541 4294901760
0.11692844 0.00056251592 0.071274363 4294901760
0.1092134 -0.003165992 0.07153672 4294901760
0.10113978 -0.0060014906 0.071018107 4294901760
0.0928763 -0.0078847203 0.06972938 4294901760
0.08459568 -0.008776322 0.067697473 4294901760
0.14773621 0.037515678 0.053814523 4294901760
0.14626573 0.030516913 0.058541823 4294901760
0.14363357 0.023583656 0.062842302 4294901760
0.13989477 0.016860809 0.066626087 4294901760
0.13512744 0.010488873 0.069814101 4294901760
0.12943122 0.0046010218 0.072339706 4294901760
0.12292515 -0.0006796961 0.074150123 4294901760
0.11574523 -0.0052429154 0.075207524 4294901760
0.1080415 -0.008993268 0.075489804 4294901760
0.099974945 -0.011852374 0.074991055 4294901760
0.091714174 -0.01376048 0.073721714 4294901760
0.083431832 -0.014677707 0.071708307 4294901760
0.075300999 -0.014584887 0.068992905 4294901760
0.14399204 0.024852008 0.062015537 4294901760
0.14138895 0.017915266 0.066328071 4294901760
0.13767751 0.011185276 0.070126072 4294901760
0.13293527 0.0048026941 0.073330171 4294901760
0.12726136 -0.0010990897 0.075873397 4294901760
0.12077434 -0.0063967318 0.077702604 4294901760
0.1136098 -0.010979515 0.078779563 4294901760
0.10591746 -0.014751661 0.079081759 4294901760
0.097858101 -0.017634334 0.078602888 4294901760
0.089600153 -0.01956729 0.077352948 4294901760
0.081316195 -0.020510131 0.075358063 4294901760
0.073179372 -0.020443151 0.072659932 4294901760
0.065359719 -0.019367751 0.069314934 4294901760
0.13823789 0.01243129 0.069381639 4294901760
0.13455386 0.0056942515 0.073193803 4294901760
0.12983678 -0.00069889124 0.076413944 4294901760
0.12418524 -0.0066145263 0.078974761 4294901760
0.11771736 -0.01192902 0.080822729 4294901760
0.1105683 -0.016531304 0.081919231 4294901760
0.10288747 -0.020325191 0.082241349 4294901760
0.094835408 -0.023231395 0.081782348 4294901760
0.086580396 -0.025189174 0.080551833 4294901760
0.07829494 -0.026157616 0.078575507 4294901760
0.070152223 -0.026116477 0.075894676 4294901760
0.062322412 -0.02506662 0.072565377 4294901760
0.054969147 -0.023029985 0.068657175 4294901760
0.13058797 0.00050005276 0.075766623 4294901760
0.12589611 -0.0059035635 0.07900276 4294901760
0.12026703 -0.011832969 0.081581131 4294901760
0.11381835 -0.017164243 0.083447836 4294901760
0.10668487 -0.021785963 0.084563866 4294901760
0.099015661 -0.025601543 0.0849059 4294901760
0.090971008 -0.028531235 0.084466778 4294901760
0.082719035 -0.030513812 0.083255693 4294901760
0.074432202 -0.031507842 0.081297956 4294901760
0.066283703 -0.031492546 0.078634463 4294901760
0.058443841 -0.030468244 0.075320899 4294901760
0.051076453 -0.028456347 0.071426511 4294901760
0.044335518 -0.025498899 0.06703268 4294901760
0.12119408 -0.010704891 0.081043765 4294901760
0.11558753 -0.016647985 0.083639644 4294901760
0.10915817 -0.021995967 0.085525058 4294901760
0.10204036 -0.026637062 0.086660601 4294901760
0.094382867 -0.030474281 0.087022543 4294901760
0.086345732 -0.033427421 0.086603321 4294901760
0.078096911 -0.035434771 0.08541169 4294901760
0.069808818 -0.036454372 0.08347255 4294901760
0.06165465 -0.036464918 0.080826446 4294901760
0.053804837 -0.035466187 0.077528663 4294901760
0.046423431 -0.033479057 0.073648125 4294901760
0.039664697 -0.03054505 0.069265947 4294901760
0.033669889 -0.026725492 0.064473696 4294901760
0.11024271 -0.020961145 0.085108317 4294901760
0.10383274 -0.02632576 0.087012418 4294901760
0.096730709 -0.030986167 0.088167459 4294901760
0.089085035 -0.034844972 0.088549301 4294901760
0.081055522 -0.037821524 0.088149972 4294901760
0.072809979 -0.039853614 0.08697781 4294901760
0.064520724 -0.040898774 0.085057311 4294901760
0.056361005 -0.040935162 0.082428619 4294901760
0.04850135 -0.039962016 0.079146661 4294901760
0.041106023 -0.037999678 0.075280041 4294901760
0.034329582 -0.035089154 0.07090956 4294901760
0.028313648 -0.031291276 0.066126563 4294901760
0.023183955 -0.026685415 0.061031003 4294901760
0.097951204 -0.030065142 0.087879606 4294901760
0.090865038 -0.034744799 0.089054137 4294901760
0.0832313 -0.038625136 0.08945588 4294901760
0.075209521 -0.041625056 0.089076445 4294901760
0.066967361 -0.04368186 0.087923765 4294901760
0.058677062 -0.044752568 0.08602193 4294901760
0.050511897 -0.044814799 0.083410688 4294901760
0.042642508 -0.043867249 0.080144607 4294901760
0.035233364 -0.041929729 0.076291949 4294901760
0.028439306 -0.03904273 0.071933232 4294901760
0.022402329 -0.035266582 0.067159548 4294901760
0.017248604 -0.030680211 0.062070668 4294901760
0.013085837 -0.025379466 0.056772944 4294901760
0.12605201 0.10640319 -0.00071471289 4294901760
0.13137679 0.10136607 0.0037312326 4294901760
0.13571462 0.095603034 0.008364059 4294901760
0.13897485 0.089234538 0.013086942 4294901760
0.14108932 0.082393676 0.017801177 4294901760
0.14201385 0.075223416 0.022408241 4294901760
0.14172912 0.067873619 0.026811847 4294901760
0.14024107 0.06049788 0.030919963 4294901760
0.13758083 0.05325035 0.034646735 4294901760
0.13380396 0.046282504 0.037914269 4294901760
0.12898941 0.039739963 0.040654283 4294901760
0.1232378 0.033759456 0.042809509 4294901760
0.11666934 0.028465981 0.044334903 4294901760
0.13482296 0.096576385 0.0075404616 4294901760
0.1391872 0.090830438 0.01216971 4294901760
0.14247587 0.084475785 0.016891519 4294901760
0.14462024 0.077645235 0.021607205 4294901760
0.14557548 0.070481539 0.026218215 4294901760
0.14532164 0.063134417 0.030628178 4294901760
0.14386404 0.055757422 0.034744933 4294901760
0.1412331 0.048504721 0.038482439 4294901760
0.13748385 0.041527897 0.041762587 4294901760
0.13269462 0.034972757 0.044516824 4294901760
0.12696551 0.028976301 0.046687584 4294901760
0.12041625 0.023663851 0.048229508 4294901760
0.11318372 0.019146431 0.04911036 4294901760
0.14176594 0.085568935 0.016041949 4294901760
0.145083 0.079228215 0.020762619 4294901760
0.14725722 0.072408073 0.025479693 4294901760
0.14824317 0.065251037 0.030094584 4294901760
0.14802022 0.057906698 0.034510847 4294901760
0.14659306 0.050528541 0.038636182 4294901760
0.14399149 0.043270767 0.042384375 4294901760
0.14026989 0.036285058 0.045677092 4294901760
0.13550605 0.02971741 0.048445512 4294901760
0.1297995 0.023705084 0.050631784 4294901760
0.12326954 0.018373733 0.052190207 4294901760
0.11605263 0.013834778 0.053088222 4294901760
0.10829959 0.010183082 0.053307053 4294901760
0.14674309 0.073599324 0.024621012 4294901760
0.14894715 0.066789679 0.029339407 4294901760
0.14996378 0.059639409 0.033958118 4294901760
0.14977174 0.052297954 0.038380619 4294901760
0.14837503 0.044918738 0.042514481 4294901760
0.14580286 0.037655987 0.04627331 4294901760
0.14210898 0.03066149 0.049578547 4294901760
0.13737057 0.024081424 0.052361116 4294901760
0.13168669 0.01805331 0.054562863 4294901760
0.1251761 0.01270313 0.056137774 4294901760
0.1179749 0.0081427004 0.057052933 4294901760
0.11023357 0.0044673313 0.057289213 4294901760
0.1021139 0.0017538357 0.056841675 4294901760
0.14965566 0.060905132 0.033107374 4294901760
0.15070295 0.053761721 0.037729841 4294901760
0.15054181 0.046423241 0.042158522 4294901760
0.1491756 0.039043073 0.046300851 4294901760
0.14663285 0.031775445 0.050070263 4294901760
0.14296672 0.024772253 0.053387977 4294901760
0.13825384 0.018179858 0.056184657 4294901760
0.13259268 0.012136037 0.058401853 4294901760
0.12610157 0.0067671025 0.059993226 4294901760
0.11891618 0.0021852606 0.060925517 4294901760
0.11118665 -0.001513731 0.061179243 4294901760
0.10307455 -0.0042525656 0.060749099 4294901760
0.094749413 -0.0059740026 0.059644077 4294901760
0.15044582 0.047738306 0.041332591 4294901760
0.15031557 0.040402908 0.045767389 4294901760
0.14897986 0.033021882 0.04991813 4294901760
0.14646658 0.025749477 0.053698078 4294901760
0.14282826 0.018737689 0.057028223 4294901760
0.13814095 0.012133054 0.059838973 4294901760
0.1325026 0.0060736104 0.062071588 4294901760
0.12603106 0.00068599283 0.063679397 4294901760
0.11886156 -0.0039171996 0.06462881 4294901760
0.11114396 -0.0076397634 0.064899981 4294901760
0.10303954 -0.010403899 0.064487234 4294901760
0.094717681 -0.012151838 0.063399211 4294901760
0.086352311 -0.01284705 0.061658639 4294901760
0.14909789 0.034360182 0.049133416 4294901760
0.1477927 0.026978398 0.053292517 4294901760
0.14530891 0.019701315 0.05708294 4294901760
0.14169845 0.012681024 0.060425475 4294901760
0.13703679 0.0060642422 0.063250259 4294901760
0.13142131 -1.0743312e-05 0.065498255 4294901760
0.12496942 -0.0054169698 0.067122489 4294901760
0.11781593 -0.010041449 0.068089008 4294901760
0.11011035 -0.013787535 0.068377614 4294901760
0.10201372 -0.016576935 0.067982279 4294901760
0.093695268 -0.018351352 0.066911265 4294901760
0.085328825 -0.019073702 0.065186948 4294901760
0.07708925 -0.018728891 0.062845372 4294901760
0.14563863 0.021036293 0.056355011 4294901760
0.14318438 0.013754633 0.060155869 4294901760
0.13960184 0.0067259353 0.063510738 4294901760
0.13496587 9.7095253e-05 0.066349521 4294901760
0.12937336 -0.0059933485 0.068612874 4294901760
0.1229412 -0.01141811 0.070253506 4294901760
0.11580381 -0.016063815 0.071237117 4294901760
0.10811036 -0.019833371 0.071543157 4294901760
0.10002164 -0.022647996 0.071165234 4294901760
0.091706686 -0.024448868 0.070111237 4294901760
0.083339296 -0.025198348 0.068403207 4294901760
0.075094327 -0.024880772 0.066076823 4294901760
0.067144096 -0.02350278 0.063180715 4294901760
0.1401367 0.0080310935 0.062854044 4294901760
0.13658211 0.00099408475 0.066221215 4294901760
0.13197191 -0.0056467233 0.069073953 4294901760
0.12640244 -0.011752543 0.071352631 4294901760
0.1199901 -0.017195765 0.073009633 4294901760
0.11286891 -0.021862632 0.074010327 4294901760
0.10518769 -0.025655605 0.074333802 4294901760
0.097106978 -0.028495418 0.073973291 4294901760
0.088795654 -0.030322719 0.072936334 4294901760
0.080427423 -0.031099318 0.071244605 4294901760
0.072177172 -0.030808985 0.06893345 4294901760
0.064217322 -0.029457787 0.066051178 4294901760
0.056714237 -0.027073966 0.062658027 4294901760
0.13270129 -0.0043972908 0.068501525 4294901760
0.12811692 -0.011049977 0.07136818 4294901760
0.12257057 -0.017171087 0.073662154 4294901760
0.11617814 -0.022632698 0.07533551 4294901760
0.10907324 -0.027320661 0.076353267 4294901760
0.10140436 -0.031137003 0.076694168 4294901760
0.093331777 -0.034001965 0.076351084 4294901760
0.085024193 -0.03585567 0.075331174 4294901760
0.076655231 -0.036659375 0.073655769 4294901760
0.068399809 -0.036396287 0.071359873 4294901760
0.060430445 -0.035071906 0.068491474 4294901760
0.052913707 -0.032713905 0.06511052 4294901760
0.046006683 -0.029371567 0.061287668 4294901760
0.12348001 -0.016002178 0.073185354 4294901760
0.11795684 -0.022138499 0.075494595 4294901760
0.11158441 -0.027618419 0.077184282 4294901760
0.10449591 -0.032327417 0.078219093 4294901760
0.096839465 -0.036167074 0.078577414 4294901760
0.088775113 -0.039057147 0.078251757 4294901760
0.080471374 -0.04093723 0.077248916 4294901760
0.072101809 -0.041768033 0.075589858 4294901760
0.063841321 -0.041532196 0.07330925 4294901760
0.055862557 -0.040234644 0.070454769 4294901760
0.048332267 -0.037902497 0.067086056 4294901760
0.041407827 -0.034584496 0.063273519 4294901760
0.035233956 -0.030349981 0.059096847 4294901760
0.11265585 -0.026553236 0.07681258 4294901760
0.10630351 -0.032051396 0.078518569 4294901760
0.099231489 -0.036781363 0.07957042 4294901760
0.091587603 -0.040644281 0.07994616 4294901760
0.083531588 -0.043559425 0.07963793 4294901760
0.07523182 -0.045465861 0.078652166 4294901760
0.066861749 -0.046323754 0.077009484 4294901760
0.058596317 -0.046115167 0.074744195 4294901760
0.050608259 -0.044844463 0.071903661 4294901760
0.04306452 -0.042538203 0.068547241 4294901760
0.036122762 -0.039244581 0.064745083 4294901760
0.02992806 -0.035032433 0.06057664 4294901760
0.024609882 -0.029989786 0.056129042 4294901760
0.10044366 -0.035841044 0.079311192 4294901760
0.09338823 -0.040591914 0.080380075 4294901760
0.085756995 -0.044478044 0.080773219 4294901760
0.077709429 -0.047418218 0.080482423 4294901760
0.069413736 -0.049350984 0.079513758 4294901760
0.061043292 -0.050235949 0.077887461 4294901760
0.052773021 -0.050054617 0.075637534 4294901760
0.044775777 -0.048810784 0.072810993 4294901760
0.037218694 -0.046530437 0.069466904 4294901760
0.03025971 -0.043261241 0.065675162 4294901760
0.024044262 -0.039071515 0.061515018 4294901760
0.018702252 -0.034048822 0.057073407 4294901760
0.014345323 -0.028298136 0.052443162 4294901760
0.14342934 0.068053916 -0.012753516 4294901760
0.14528172 0.070457533 -0.0047358028 4294901760
0.14600207 0.072448112 0.0035714877 4294901760
0.14557533 0.073984072 0.011994737 4294901760
0.14401041 0.075033292 0.020357907 4294901760
0.14134005 0.075573862 0.028486209 4294901760
0.13762002 0.07559447 0.03620977 4294901760
0.13292809 0.075094685 0.04336717 4294901760
0.1273623 0.074084967 0.049808826 4294901760
0.12103899 0.072586402 0.055400111 4294901760
0.1140903 0.070630319 0.060024168 4294901760
0.10666147 0.0682576 0.063584358 4294901760
0.098907739 0.065517828 0.06600628 4294901760
0.14575359 0.072043084 0.0020899442 4294901760
0.14650312 0.074044764 0.010391985 4294901760
0.14610565 0.075592756 0.018814463 4294901760
0.14456947 0.076654717 0.027181352 4294901760
0.14192671 0.077208452 0.035317786 4294901760
0.13823259 0.077242382 0.043053728 4294901760
0.13356432 0.076755799 0.050227493 4294901760
0.12801947 0.075758867 0.056689154 4294901760
0.12171391 0.074272431 0.062303673 4294901760
0.11477942 0.072327562 0.066953704 4294901760
0.10736094 0.069964886 0.070542067 4294901760
0.09961351 0.067233801 0.07299377 4294901760
0.091699041 0.064191371 0.074257568 4294901760
0.14605902 0.075264037 0.01729442 4294901760
0.1456908 0.076824062 0.025716009 4294901760
0.1441834 0.077898741 0.034086503 4294901760
0.14156827 0.078465633 0.04223096 4294901760
0.13790013 0.078512885 0.049979173 4294901760
0.13325559 0.078039497 0.057169206 4294901760
0.12773173 0.07705538 0.063650787 4294901760
0.121444 0.075581096 0.069288462 4294901760
0.11452381 0.073647454 0.07396441 4294901760
0.10711579 0.071294859 0.077580892 4294901760
0.099374764 0.068572491 0.080062345 4294901760
0.091462508 0.065537244 0.08135689 4294901760
0.083544381 0.062252551 0.081437483 4294901760
0.14433953 0.077652864 0.032558128 4294901760
0.1428609 0.078740261 0.040932115 4294901760
0.14027347 0.079320297 0.049084485 4294901760
0.13663132 0.07938087 0.056844864 4294901760
0.13201058 0.078920692 0.064051062 4294901760
0.1265078 0.077949397 0.070552483 4294901760
0.12023799 0.07648728 0.076213241 4294901760
0.1133322 0.074564889 0.080915026 4294901760
0.10593474 0.072222419 0.08455959 4294901760
0.098200217 0.069508813 0.087070748 4294901760
0.090290278 0.066480786 0.088396028 4294901760
0.082370244 0.063201621 0.088507727 4294901760
0.074605629 0.05973985 0.087403513 4294901760
0.14062929 0.079162143 0.047578119 4294901760
0.13806958 0.079755329 0.055738289 4294901760
0.13445349 0.079829209 0.063510731 4294901760
0.1298566 0.079382256 0.070733003 4294901760
0.12437496 0.078423791 0.077254161 4294901760
0.11812317 0.076973863 0.082937919 4294901760
0.11123186 0.075062759 0.087665491 4294901760
0.10384506 0.072730429 0.091338076 4294901760
0.096117154 0.070025623 0.093878917 4294901760
0.088209644 0.067004852 0.095234908 4294901760
0.080287799 0.063731268 0.095377713 4294901760
0.072517179 0.060273271 0.094304353 4294901760
0.065060183 0.056703139 0.092037253 4294901760
0.13500191 0.079761915 0.062056269 4294901760
0.13141192 0.079849117 0.069840662 4294901760
0.12683895 0.079415381 0.077078909 4294901760
0.12137855 0.078469768 0.083619721 4294901760
0.11514485 0.077032045 0.089326404 4294901760
0.10826811 0.075132251 0.094079696 4294901760
0.10089208 0.072810106 0.097780257 4294901760
0.093170896 0.070114128 0.10035074 4294901760
0.08526592 0.067100659 0.10173742 4294901760
0.077342376 0.063832693 0.10191134 4294901760
0.069565862 0.060378518 0.10086884 4294901760
0.062098887 0.056810327 0.09863171 4294901760
0.055097517 0.053202692 0.095246717 4294901760
0.12756909 0.079440273 0.075705215 4294901760
0.12302011 0.079019763 0.082959332 4294901760
0.117581 0.078087017 0.089519709 4294901760
0.11136547 0.07666152 0.095249243 4294901760
0.10450342 0.074773066 0.10002819 4294901760
0.097138241 0.072461128 0.10375667 4294901760
0.08942388 0.069774017 0.10635676 4294901760
0.081521556 0.066767901 0.10777412 4294901760
0.073596418 0.063505597 0.10797913 4294901760
0.065814108 0.060055289 0.10696751 4294901760
0.05833726 0.056489084 0.10476039 4294901760
0.05132214 0.05288152 0.10140391 4294901760
0.044915359 0.049307987 0.096968219 4294901760
0.11847838 0.078203611 0.088254057 4294901760
0.11306065 0.07728374 0.09483391 4294901760
0.10686339 0.075870484 0.10058621 4294901760
0.10001609 0.0739934 0.10539075 4294901760
0.092661887 0.071691699 0.1091471 4294901760
0.084954455 0.069013499 0.11177676 4294901760
0.077054881 0.066014759 0.11322478 4294901760
0.06912826 0.06275817 0.11346089 4294901760
0.061340265 0.059311777 0.11248016 4294901760
0.053853646 0.055747613 0.11030308 4294901760
0.046824872 0.052140165 0.10697516 4294901760
0.040400844 0.048564825 0.10256594 4294901760
0.034715813 0.045096323 0.097167574 4294901760
0.10791019 0.07607647 0.099453717 4294901760
0.10173126 0.074675485 0.10522871 4294901760
0.094898827 0.072809786 0.11005877 4294901760
0.087555684 0.07051836 0.11384294 4294901760
0.079855286 0.0678491 0.11650214 4294901760
0.071958572 0.064857796 0.1179808 4294901760
0.06403058 0.061606955 0.11824801 4294901760
0.056237001 0.058164522 0.11729818 4294901760
0.048740715 0.054602444 0.11515117 4294901760
0.041698385 0.050995164 0.11185185 4294901760
0.035257194 0.047418073 0.10746916 4294901760
0.029551759 0.043945927 0.10209472 4294901760
0.02470132 0.040651295 0.095840842 4294901760
0.096074268 0.073101074 0.10908191 4294901760
0.089256793 0.07124678 0.11393742 4294901760
0.081924811 0.068965659 0.11774936 4294901760
0.07423155 0.066305384 0.12043807 4294901760
0.066337809 0.063321538 0.12194734 4294901760
0.058408551 0.060076501 0.12224564 4294901760
0.050609495 0.056638077 0.12132673 4294901760
0.043103639 0.053078134 0.11920982 4294901760
0.036047846 0.049471069 0.11593914 4294901760
0.029589584 0.045892272 0.11158306 4294901760
0.02386382 0.042416535 0.10623261 4294901760
0.018990222 0.039116498 0.099999622 4294901760
0.015070646 0.03606113 0.093014345 4294901760
0.083205558 0.069336466 0.11694753 4294901760
0.075884841 0.067065679 0.12078719 4294901760
0.06819883 0.064414412 0.12350535 4294901760
0.060308162 0.06143808 0.12504523 4294901760
0.052377746 0.058198884 0.12537462 4294901760
0.044573322 0.054764517 0.12448663 4294901760
0.037058 0.051206756 0.12239984 4294901760
0.029988844 0.04759996 0.11915787 4294901760
0.023513595 0.044019505 0.11482844 4294901760
0.01776758 0.040540222 0.10950206 4294901760
0.01287089 0.037234824 0.10329004 4294901760
0.0089258607 0.034172393 0.096322209 4294901760
0.0060149417 0.031416934 0.088744193 4294901760
0.069559477 0.064857371 0.12289446 4294901760
0.061880812 0.062215161 0.12564206 4294901760
0.053993329 0.059246376 0.12721249 4294901760
0.046061862 0.056013066 0.12757297 4294901760
0.038252179 0.0525828 0.12671593 4294901760
0.030727493 0.049027272 0.1246593 4294901760
0.023645068 0.045420788 0.12144605 4294901760
0.01715292 0.041838728 0.11714335 4294901760
0.011386734 0.038355947 0.11184111 4294901760
0.0064670183 0.035045233 0.10565015 4294901760
0.0024965906 0.031975783 0.09869986 4294901760
-0.00044156858 0.029211745 0.091135487 4294901760
-0.002286054 0.026810883 0.083115131 4294901760
0.055406857 0.059752703 0.12680466 4294901760
0.047522664 0.056791507 0.12840566 4294901760
0.039590254 0.053564124 0.12879722 4294901760
0.031775415 0.050138008 0.12797113 4294901760
0.024241472 0.046584763 0.12594467 4294901760
0.017145874 0.042978644 0.12276021 4294901760
0.010636919 0.039395019 0.11848429 4294901760
0.004850639 0.035908788 0.11320626 4294901760
-9.2036251e-05 0.032592807 0.10703644 4294901760
-0.0040878081 0.029516378 0.10010378 4294901760
-0.0070531676 0.026743799 0.092553169 4294901760
-0.0089261401 0.024333011 0.084542394 4294901760
-0.0096675819 0.022334401 0.076238886 4294901760
0.14231706 0.070734411 -0.013153308 4294901760
0.14447454 0.072402731 -0.0050259265 4294901760
0.14550941 0.073635377 0.0033944095 4294901760
0.1454 0.074406587 0.01193172 4294901760
0.14414862 0.074700236 0.020407582 4294901760
0.14178142 0.074510187 0.028644852 4294901760
0.13834786 0.073840424 0.036471382 4294901760
0.13391973 0.072704934 0.043723598 4294901760
0.12858954 0.071127452 0.050249934 4294901760
0.12246871 0.069140948 0.055913992 4294901760
0.11568514 0.06678693 0.060597401 4294901760
0.10838063 0.0641146 0.064202279 4294901760
0.10070782 0.061179817 0.066653289 4294901760
0.14520468 0.073365904 0.0018926469 4294901760
0.14626856 0.074610032 0.010307677 4294901760
0.14618842 0.075393252 0.018844219 4294901760
0.14496596 0.07569921 0.027323864 4294901760
0.14262672 0.075521499 0.035569392 4294901760
0.13921958 0.074863844 0.04340848 4294901760
0.13481575 0.073739983 0.050677292 4294901760
0.12950727 0.072173409 0.05722392 4294901760
0.12340509 0.07019686 0.06291154 4294901760
0.11663673 0.06785164 0.067621283 4294901760
0.10934366 0.065186769 0.071254715 4294901760
0.10167827 0.062257938 0.073735908 4294901760
0.093800798 0.059126362 0.075013004 4294901760
0.14608437 0.075202942 0.017303532 4294901760
0.14603351 0.075998172 0.025839187 4294901760
0.14483999 0.076316431 0.0343225 4294901760
0.14252873 0.076151058 0.042576175 4294901760
0.13914804 0.075505525 0.050427716 4294901760
0.13476859 0.07439331 0.057713028 4294901760
0.1294819 0.072837666 0.064279854 4294901760
0.12339845 0.070871092 0.069990955 4294901760
0.11664538 0.06853471 0.074726962 4294901760
0.10936384 0.065877326 0.078388907 4294901760
0.10170599 0.062954493 0.080900259 4294901760
0.093831897 0.059827287 0.082208522 4294901760
0.085906103 0.056561071 0.082286358 4294901760
0.14493865 0.076209053 0.032773469 4294901760
0.14377408 0.076539613 0.041260336 4294901760
0.14149083 0.076386586 0.049522042 4294901760
0.13813666 0.075753175 0.057385929 4294901760
0.13378164 0.07465262 0.064687639 4294901760
0.12851679 0.073107921 0.071274579 4294901760
0.12245217 0.071151361 0.077009082 4294901760
0.11571449 0.068823837 0.081771299 4294901760
0.10844458 0.066173986 0.085461698 4294901760
0.10079437 0.06325718 0.088003166 4294901760
0.09292376 0.060134396 0.089342579 4294901760
0.084997222 0.056870889 0.089451946 4294901760
0.07718043 0.053534862 0.08832898 4294901760
0.14179029 0.076364279 0.047995415 4294901760
0.1395351 0.076223597 0.056265041 4294901760
0.13620746 0.075602323 0.064141162 4294901760
0.13187695 0.074513443 0.071459174 4294901760
0.12663402 0.072979718 0.078066133 4294901760
0.12058829 0.071033195 0.083823964 4294901760
0.11386609 0.068714559 0.088612318 4294901760
0.10660791 0.06607227 0.092331134 4294901760
0.098965451 0.063161545 0.094902679 4294901760
0.091098428 0.060043219 0.096273221 4294901760
0.083171256 0.056782462 0.096414119 4294901760
0.075349614 0.053447425 0.095322415 4294901760
0.06779696 0.050107803 0.093020931 4294901760
0.13670173 0.075665526 0.062667236 4294901760
0.13340071 0.075056396 0.070555493 4294901760
0.12909473 0.073979214 0.077889703 4294901760
0.12387381 0.072456472 0.084516592 4294901760
0.11784706 0.070520014 0.090297662 4294901760
0.11114042 0.068210304 0.095112093 4294901760
0.10389408 0.065575615 0.098859265 4294901760
0.096259467 0.062671006 0.10146087 4294901760
0.088396139 0.059557181 0.10286252 4294901760
0.080468446 0.056299224 0.10303494 4294901760
0.072642058 0.052965216 0.10197452 4294901760
0.065080553 0.049624842 0.099703409 4294901760
0.057941951 0.046347912 0.096269093 4294901760
0.12977402 0.074126676 0.076497734 4294901760
0.12549265 0.073061191 0.083848044 4294901760
0.1202938 0.071549468 0.090494774 4294901760
0.11428611 0.069623098 0.096299008 4294901760
0.10759515 0.067322344 0.10113945 4294901760
0.10036073 0.064695284 0.10491493 4294901760
0.092734069 0.061796829 0.10754655 4294901760
0.084874548 0.058687553 0.10897929 4294901760
0.07694643 0.055432435 0.10918323 4294901760
0.069115415 0.052099507 0.1081541 4294901760
0.061545148 0.048758425 0.10591341 4294901760
0.054393861 0.045479018 0.10250799 4294901760
0.047810998 0.042329818 0.098008998 4294901760
0.12114462 0.07177826 0.089212388 4294901760
0.11596791 0.070277572 0.095878869 4294901760
0.10997937 0.068361312 0.10170619 4294901760
0.10330415 0.066069543 0.10657258 4294901760
0.096081764 0.063450158 0.11037631 4294901760
0.088463157 0.060557898 0.1130379 4294901760
0.080607556 0.057453211 0.11450172 4294901760
0.072679125 0.054200977 0.11473718 4294901760
0.06484358 0.050869174 0.11373936 4294901760
0.057264663 0.047527429 0.11152911 4294901760
0.050100781 0.044245586 0.10815262 4294901760
0.043501649 0.041092232 0.10368046 4294901760
0.037605181 0.038133267 0.098206103 4294901760
0.11098484 0.068666898 0.10055884 4294901760
0.10501552 0.066760786 0.10640918 4294901760
0.09835615 0.064478032 0.11130144 4294901760
0.091145895 0.061866354 0.11513337 4294901760
0.083535448 0.058980327 0.1178249 4294901760
0.075683862 0.055880267 0.11931978 4294901760
0.06775523 0.052630965 0.11958676 4294901760
0.059915259 0.049300332 0.11862025 4294901760
0.052327797 0.045957971 0.11644047 4294901760
0.045151416 0.042673737 0.11309297 4294901760
0.038536102 0.039516266 0.1086477 4294901760
0.032620106 0.036551554 0.10319758 4294901760
0.027527068 0.033841558 0.096856505 4294901760
0.099496305 0.064854339 0.1103119 4294901760
0.092852868 0.062580638 0.11522996 4294901760
0.08565484 0.059976701 0.11909005 4294901760
0.078052655 0.057096947 0.12181149 4294901760
0.070205197 0.054001559 0.1233374 4294901760
0.062276475 0.050755233 0.12363589 4294901760
0.054432187 0.04742581 0.12270072 4294901760
0.046836283 0.04408288 0.12055144 4294901760
0.039647505 0.040796299 0.11723297 4294901760
0.033016093 0.037634764 0.11281466 4294901760
0.027080648 0.03466434 0.10738884 4294901760
0.021965208 0.031947114 0.10106892 4294901760
0.017776689 0.02953987 0.093986981 4294901760
0.086907059 0.060416259 0.11827796 4294901760
0.079721354 0.0578201 0.12216615 4294901760
0.072127543 0.054946657 0.12491746 4294901760
0.064284317 0.051855985 0.12647438 4294901760
0.056355607 0.048612677 0.12680438 4294901760
0.048507113 0.045284513 0.12590055 4294901760
0.040902864 0.041941054 0.12378181 4294901760
0.033701785 0.038652178 0.12049241 4294901760
0.027054375 0.035486612 0.11610111 4294901760
0.021099558 0.032510523 0.11069968 4294901760
0.015961787 0.029786104 0.10440101 4294901760
0.011748439 0.027370295 0.097336732 4294901760
0.0085475678 0.025313586 0.089654498 4294901760
0.073466972 0.055440746 0.12429894 4294901760
0.065881625 0.052573655 0.12708007 4294901760
0.058042742 0.04948774 0.12866798 4294901760
0.050114151 0.046247493 0.12902948 4294901760
0.04226156 0.042920634 0.12815702 4294901760
0.034649074 0.039576698 0.12606883 4294901760
0.027435793 0.036285564 0.12280855 4294901760
0.020772468 0.033116017 0.11844432 4294901760
0.014798364 0.030134298 0.11306736 4294901760
0.00963833 0.027402723 0.10679002 4294901760
0.0054002106 0.024978383 0.099743508 4294901760
0.0021725786 0.02291194 0.092075095 4294901760
2.2889435e-05 0.021246586 0.083945036 4294901760
0.059442792 0.050026551 0.12825531 4294901760
0.051608358 0.046945434 0.12987418 4294901760
0.043680001 0.043708295 0.13026719 4294901760
0.035823412 0.040382788 0.12942611 4294901760
0.028202793 0.037038416 0.12736849 4294901760
0.020977408 0.033745073 0.12413739 4294901760
0.014298264 0.030571586 0.11980028 4294901760
0.0083049517 0.027584279 0.11444785 4294901760
0.0031227265 0.024845587 0.10819193 4294901760
-0.0011401065 0.022412745 0.10116328 4294901760
-0.0043944563 0.0203366 0.093508787 4294901760
-0.0065723094 0.01866054 0.085388429 4294901760
-0.0076281498 0.017419595 0.076971918 4294901760
0.14120395 0.073441766 -0.013268738 4294901760
0.14366677 0.074367426 -0.0051096929 4294901760
0.14501639 0.074834533 0.0033432825 4294901760
0.14522454 0.074833333 0.011913526 4294901760
0.14428693 0.074363835 0.020421924 4294901760
0.14222312 0.073435865 0.028690659 4294901760
0.13907625 0.07206881 0.036546916 4294901760
0.13491209 0.070291236 0.043826506 4294901760
0.12981768 0.068140306 0.050377294 4294901760
0.12389947 0.065660961 0.056062367 4294901760
0.11728115 0.062905028 0.060762912 4294901760
0.11010105 0.059930097 0.06438069 4294901760
0.10250922 0.056798343 0.066840097 4294901760
0.14465536 0.074701987 0.001835682 4294901760
0.14603382 0.075180963 0.010283334 4294901760
0.14627127 0.075191751 0.018852809 4294901760
0.14536275 0.074734122 0.02736501 4294901760
0.14332724 0.073817648 0.035642039 4294901760
0.14020729 0.072461478 0.043510906 4294901760
0.13606809 0.070693962 0.050807163 4294901760
0.13099617 0.068552025 0.057378322 4294901760
0.12509751 0.066080451 0.063087046 4294901760
0.1184954 0.063330874 0.06781403 4294901760
0.11132781 0.060360778 0.071460478 4294901760
0.10374454 0.057232223 0.073950186 4294901760
0.09590409 0.0540106 0.07523112 4294901760
0.14610974 0.075141236 0.017306162 4294901760
0.14637648 0.075164013 0.025874753 4294901760
0.14549705 0.074718259 0.03439064 4294901760
0.14348987 0.073813297 0.042675849 4294901760
0.14039688 0.072468035 0.050557222 4294901760
0.13628271 0.070710585 0.057870045 4294901760
0.13123335 0.068577684 0.064461485 4294901760
0.12535432 0.066113904 0.070193782 4294901760
0.1187685 0.063370734 0.074947134 4294901760
0.11161352 0.060405508 0.078622207 4294901760
0.10403892 0.057280194 0.081142187 4294901760
0.096203007 0.054060113 0.082454406 4294901760
0.088269539 0.050812565 0.082531452 4294901760
0.14553821 0.074750781 0.032835644 4294901760
0.14468792 0.074316911 0.041355103 4294901760
0.14270909 0.073423475 0.049648378 4294901760
0.13964309 0.072089136 0.057542149 4294901760
0.135554 0.070341781 0.064871438 4294901760
0.13052727 0.068217941 0.071483068 4294901760
0.12466795 0.065761983 0.077238858 4294901760
0.11809851 0.063025258 0.082018524 4294901760
0.11095624 0.060064942 0.085722163 4294901760
0.10339042 0.056942914 0.088272378 4294901760
0.09555915 0.053724423 0.089615874 4294901760
0.087626114 0.050476726 0.089724563 4294901760
0.079757102 0.047267705 0.08859618 4294901760
0.14295211 0.073538378 0.048115898 4294901760
0.14100167 0.072656475 0.05641713 4294901760
0.13796271 0.071333081 0.064323187 4294901760
0.13389876 0.069595851 0.071668841 4294901760
0.12889473 0.067481093 0.078300573 4294901760
0.1230552 0.065033004 0.084079787 4294901760
0.11650224 0.06230275 0.088885687 4294901760
0.10937277 0.059347391 0.092617854 4294901760
0.10181582 0.05622869 0.095198266 4294901760
0.093989313 0.053011827 0.09657301 4294901760
0.086056814 0.049764033 0.096713357 4294901760
0.078184105 0.046553183 0.095616356 4294901760
0.070535734 0.043446384 0.093304947 4294901760
0.13840279 0.071528099 0.062843643 4294901760
0.13539092 0.070215657 0.070761882 4294901760
0.13135214 0.068488576 0.0781238 4294901760
0.12637088 0.06638293 0.084775545 4294901760
0.12055124 0.063942745 0.090578094 4294901760
0.11401483 0.061219003 0.095410176 4294901760
0.10689827 0.058268636 0.099170804 4294901760
0.099350289 0.055153307 0.10178139 4294901760
0.091528639 0.051938117 0.10318737 4294901760
0.083596788 0.048690271 0.10335935 4294901760
0.075720504 0.045477636 0.10229375 4294901760
0.068064392 0.042367365 0.10001284 4294901760
0.060788464 0.039424453 0.096564285 4294901760
0.13198054 0.068759829 0.076726548 4294901760
0.127967 0.06704291 0.084104635 4294901760
0.12300858 0.064946413 0.090776302 4294901760
0.11720888 0.062514156 0.096602105 4294901760
0.11068913 0.059796967 0.1014603 4294901760
0.10358556 0.056851633 0.10524935 4294901760
0.096046671 0.053739715 0.10789006 4294901760
0.088229984 0.050526246 0.10932726 4294901760
0.080298886 0.047278386 0.10953089 4294901760
0.072419122 0.044064015 0.1084967 4294901760
0.06475538 0.040950309 0.10624631 4294901760
0.057467818 0.038002342 0.10282676 4294901760
0.050708748 0.035281729 0.098309495 4294901760
0.12381281 0.065288521 0.08948908 4294901760
0.11887728 0.063201196 0.096180573 4294901760
0.11309762 0.060776904 0.10202956 4294901760
0.1065946 0.058066301 0.1069138 4294901760
0.099504143 0.055126045 0.11073121 4294901760
0.091974422 0.052017581 0.11340202 4294901760
0.084162816 0.048805874 0.11487041 4294901760
0.076232582 0.045558047 0.11510568 4294901760
0.068349451 0.042341981 0.11410292 4294901760
0.060678173 0.039224885 0.1118831 4294901760
0.053379077 0.036271907 0.10849258 4294901760
0.046604712 0.033544764 0.10400226 4294901760
0.040496655 0.031100444 0.098505951 4294901760
0.11406174 0.061183076 0.10087792 4294901760
0.10830218 0.058766779 0.10675001 4294901760
0.10181598 0.056062803 0.11166023 4294901760
0.094738714 0.053127658 0.11550596 4294901760
0.087218285 0.050022691 0.11820682 4294901760
0.079411864 0.046812791 0.11970638 4294901760
0.071482591 0.043565042 0.11997329 4294901760
0.063596196 0.040347323 0.11900198 4294901760
0.055917494 0.037226882 0.11681274 4294901760
0.048606966 0.034268931 0.11345132 4294901760
0.041817397 0.03153529 0.10898799 4294901760
0.035690684 0.029083094 0.103516 4294901760
0.030354874 0.026963588 0.097149752 4294901760
0.10292084 0.056524977 0.11066703 4294901760
0.096451566 0.053827662 0.11560316 4294901760
0.089387588 0.050897673 0.11947715 4294901760
0.081876546 0.047796242 0.12220804 4294901760
0.074075408 0.044588193 0.12373874 4294901760
0.066147216 0.041340567 0.12403729 4294901760
0.058257665 0.038121238 0.12309743 4294901760
0.050571643 0.034997493 0.12093881 4294901760
0.043249782 0.032034609 0.11760653 4294901760
0.036445104 0.029294513 0.11317025 4294901760
0.030299818 0.026834471 0.10772268 4294901760
