# .PCD v0.7 - Point Cloud Data file format
VERSION 0.7
FIELDS x y z
SIZE 4 4 4
TYPE F F F
COUNT 1 1 1
WIDTH 1422
HEIGHT 1
VIEWPOINT 0 0 0 1 0 0 0
POINTS 1422
DATA ascii
0.11905187 -0.13268913 0.43100002
0.11961539 -0.1320734 0.42900002
0.12044992 -0.13176554 0.42800003
0.12099522 -0.13114981 0.42600003
0.12153012 -0.13053408 0.42400002
0.12176538 -0.12961049 0.42100003
0.12227688 -0.12899476 0.41900003
0.12248352 -0.12807117 0.41600001
0.1229716 -0.12745546 0.41400003
0.12344927 -0.12683973 0.41200003
0.12361429 -0.12591612 0.40900001
0.12406856 -0.12530039 0.40700001
0.12481985 -0.12499254 0.40600002
0.1252559 -0.12437681 0.40400001
0.12599419 -0.12406895 0.40300003
0.12641203 -0.12345322 0.40100002
0.1271373 -0.12314536 0.40000001
0.12785739 -0.1228375 0.39900002
0.1288953 -0.1228375 0.39900002
0.12960757 -0.12252963 0.39800003
0.13031465 -0.12222177 0.39700001
0.13101652 -0.12191391 0.39600003
0.13171317 -0.12160604 0.39500001
0.13274069 -0.12160604 0.39500001
0.13342954 -0.12129818 0.39400002
0.13445447 -0.12129818 0.39400002
0.18185967 -0.16039683 0.52100003
0.1828633 -0.16008897 0.52000004
0.18421599 -0.16008897 0.52000004
0.18556866 -0.16008897 0.52000004
0.18692133 -0.16008897 0.52000004
0.18827401 -0.16008897 0.52000004
0.18962669 -0.16008897 0.52000004
0.19097938 -0.16008897 0.52000004
0.19233204 -0.16008897 0.52000004
0.19368473 -0.16008897 0.52000004
0.19503739 -0.16008897 0.52000004
0.19639008 -0.16008897 0.52000004
0.19812302 -0.16039683 0.52100003
0.1994783 -0.16039683 0.52100003
0.20083357 -0.16039683 0.52100003
0.20257692 -0.16070469 0.52200001
0.20393482 -0.16070469 0.52200001
0.2052927 -0.16070469 0.52200001
0.20704645 -0.16101255 0.523
0.20840693 -0.16101255 0.523
0.2097674 -0.16101255 0.523
0.21112789 -0.16101255 0.523
0.21248837 -0.16101255 0.523
0.21384886 -0.16101255 0.523
0.21520934 -0.16101255 0.523
0.21656981 -0.16101255 0.523
0.2179303 -0.16101255 0.523
0.21929078 -0.16101255 0.523
0.22065125 -0.16101255 0.523
0.22201173 -0.16101255 0.523
0.22337222 -0.16101255 0.523
0.2247327 -0.16101255 0.523
0.22566089 -0.16070469 0.52200001
0.22745366 -0.16101255 0.523
0.22837664 -0.16070469 0.52200001
0.22973453 -0.16070469 0.52200001
0.23109241 -0.16070469 0.52200001
0.23245029 -0.16070469 0.52200001
0.23380816 -0.16070469 0.52200001
0.23516604 -0.16070469 0.52200001
0.23652393 -0.16070469 0.52200001
0.23788181 -0.16070469 0.52200001
0.23878138 -0.16039683 0.52100003
0.24013665 -0.16039683 0.52100003
0.24195543 -0.16070469 0.52200001
0.24331333 -0.16070469 0.52200001
0.24467121 -0.16070469 0.52200001
0.24602908 -0.16070469 0.52200001
0.24738696 -0.16070469 0.52200001
0.24874485 -0.16070469 0.52200001
0.25010273 -0.16070469 0.52200001
0.25194231 -0.16101255 0.523
-0.27865332 -0.15293632 0.50100005
-0.27735007 -0.15293632 0.50100005
-0.27604681 -0.15293632 0.50100005
-0.27474359 -0.15293632 0.50100005
-0.2734403 -0.15293632 0.50100005
-0.27268022 -0.15324157 0.50200003
-0.2713744 -0.15324157 0.50200003
-0.27006853 -0.15324157 0.50200003
-0.26876271 -0.15324157 0.50200003
-0.26745683 -0.15324157 0.50200003
-0.26615095 -0.15324157 0.50200003
-0.26484513 -0.15324157 0.50200003
-0.26353925 -0.15324157 0.50200003
-0.26223344 -0.15324157 0.50200003
-0.26092756 -0.15324157 0.50200003
-0.25962171 -0.15324157 0.50200003
-0.25883043 -0.15354684 0.50300002
-0.25752196 -0.15354684 0.50300002
-0.25621352 -0.15354684 0.50300002
-0.25439829 -0.15324157 0.50200003
-0.2535966 -0.15354684 0.50300002
-0.25228816 -0.15354684 0.50300002
-0.25097969 -0.15354684 0.50300002
-0.24967124 -0.15354684 0.50300002
-0.24836278 -0.15354684 0.50300002
-0.24705434 -0.15354684 0.50300002
-0.24574587 -0.15354684 0.50300002
-0.24443741 -0.15354684 0.50300002
-0.24312896 -0.15354684 0.50300002
-0.24133976 -0.15324157 0.50200003
-0.24003391 -0.15324157 0.50200003
-0.23920359 -0.15354684 0.50300002
-0.23789515 -0.15354684 0.50300002
-0.23658669 -0.15354684 0.50300002
-0.23527823 -0.15354684 0.50300002
-0.23443492 -0.15385209 0.50400001
-0.23312385 -0.15385209 0.50400001
-0.23227274 -0.15415736 0.505
-0.23095909 -0.15415736 0.505
-0.22964543 -0.15415736 0.505
-0.22833177 -0.15415736 0.505
-0.22701812 -0.15415736 0.505
-0.22570446 -0.15415736 0.505
-0.2243908 -0.15415736 0.505
-0.22307715 -0.15415736 0.505
-0.22176348 -0.15415736 0.505
-0.22044982 -0.15415736 0.505
-0.21913618 -0.15415736 0.505
-0.21782252 -0.15415736 0.505
-0.21650887 -0.15415736 0.505
-0.21519519 -0.15415736 0.505
-0.21388154 -0.15415736 0.505
-0.21214697 -0.15385209 0.50400001
-0.21083592 -0.15385209 0.50400001
-0.20952486 -0.15385209 0.50400001
-0.20780067 -0.15354684 0.50300002
-0.20649222 -0.15354684 0.50300002
-0.20518377 -0.15354684 0.50300002
-0.20387532 -0.15354684 0.50300002
-0.20296957 -0.15385209 0.50400001
-0.20165852 -0.15385209 0.50400001
-0.20034745 -0.15385209 0.50400001
-0.19943132 -0.15415736 0.505
-0.19811766 -0.15415736 0.505
-0.19680399 -0.15415736 0.505
-0.19549033 -0.15415736 0.505
-0.19417667 -0.15415736 0.505
-0.19286303 -0.15415736 0.505
-0.19154938 -0.15415736 0.505
-0.1902357 -0.15415736 0.505
-0.18892205 -0.15415736 0.505
-0.18760839 -0.15415736 0.505
-0.18629473 -0.15415736 0.505
-0.18498108 -0.15415736 0.505
-0.18366742 -0.15415736 0.505
-0.18199266 -0.15385209 0.50400001
-0.18068162 -0.15385209 0.50400001
-0.17937057 -0.15385209 0.50400001
-0.17805949 -0.15385209 0.50400001
-0.17674844 -0.15385209 0.50400001
-0.17543739 -0.15385209 0.50400001
-0.17412634 -0.15385209 0.50400001
-0.17281528 -0.15385209 0.50400001
-0.17150421 -0.15385209 0.50400001
-0.17053084 -0.15415736 0.505
-0.16921718 -0.15415736 0.505
-0.16790353 -0.15415736 0.505
-0.16658989 -0.15415736 0.505
-0.16527621 -0.15415736 0.505
-0.16396256 -0.15415736 0.505
-0.16297099 -0.15446264 0.50600004
-0.16165474 -0.15446264 0.50600004
-0.16002159 -0.15415736 0.505
-0.15870792 -0.15415736 0.505
-0.15739428 -0.15415736 0.505
-0.15608062 -0.15415736 0.505
-0.15476696 -0.15415736 0.505
-0.15345329 -0.15415736 0.505
-0.15213963 -0.15415736 0.505
-0.15082598 -0.15415736 0.505
-0.14921626 -0.15385209 0.50400001
-0.14790522 -0.15385209 0.50400001
-0.14659415 -0.15385209 0.50400001
-0.14528309 -0.15385209 0.50400001
-0.14425769 -0.15415736 0.505
-0.14294404 -0.15415736 0.505
-0.14163038 -0.15415736 0.505
-0.14031672 -0.15415736 0.505
-0.13927834 -0.15446264 0.50600004
-0.13796207 -0.15446264 0.50600004
-0.13664582 -0.15446264 0.50600004
-0.13559701 -0.15476789 0.50700003
-0.13427813 -0.15476789 0.50700003
-0.13295928 -0.15476789 0.50700003
-0.13164042 -0.15476789 0.50700003
-0.13032156 -0.15476789 0.50700003
-0.12900269 -0.15476789 0.50700003
-0.127432 -0.15446264 0.50600004
-0.12611574 -0.15446264 0.50600004
-0.12479949 -0.15446264 0.50600004
-0.12348323 -0.15446264 0.50600004
-0.12216697 -0.15446264 0.50600004
-0.1208507 -0.15446264 0.50600004
-0.11953445 -0.15446264 0.50600004
-0.11821819 -0.15446264 0.50600004
-0.11713296 -0.15476789 0.50700003
-0.1158141 -0.15476789 0.50700003
-0.11472106 -0.15507315 0.50800002
-0.11362283 -0.1553784 0.509
-0.11229877 -0.1553784 0.509
-0.11119274 -0.15568368 0.51000005
-0.10986608 -0.15568368 0.51000005
-0.10853941 -0.15568368 0.51000005
-0.10721274 -0.15568368 0.51000005
-0.10588608 -0.15568368 0.51000005
-0.10455941 -0.15568368 0.51000005
-0.10323276 -0.15568368 0.51000005
-0.10190609 -0.15568368 0.51000005
-0.10057943 -0.15568368 0.51000005
-0.09925276 -0.15568368 0.51000005
-0.097926095 -0.15568368 0.51000005
-0.09659943 -0.15568368 0.51000005
-0.095272765 -0.15568368 0.51000005
-0.093761891 -0.1553784 0.509
-0.092437826 -0.1553784 0.509
-0.091113761 -0.1553784 0.509
-0.089966111 -0.15568368 0.51000005
-0.088639446 -0.15568368 0.51000005
-0.087312788 -0.15568368 0.51000005
-0.085986122 -0.15568368 0.51000005
-0.084659457 -0.15568368 0.51000005
-0.083332792 -0.15568368 0.51000005
-0.082006127 -0.15568368 0.51000005
-0.080679461 -0.15568368 0.51000005
-0.079352796 -0.15568368 0.51000005
-0.078026138 -0.15568368 0.51000005
-0.076699473 -0.15568368 0.51000005
-0.075372808 -0.15568368 0.51000005
-0.074046142 -0.15568368 0.51000005
-0.072719477 -0.15568368 0.51000005
-0.071392812 -0.15568368 0.51000005
-0.070066147 -0.15568368 0.51000005
-0.068739489 -0.15568368 0.51000005
-0.067412823 -0.15568368 0.51000005
-0.066086158 -0.15568368 0.51000005
-0.064759493 -0.15568368 0.51000005
-0.063432828 -0.15568368 0.51000005
-0.062106166 -0.15568368 0.51000005
-0.060779501 -0.15568368 0.51000005
-0.059336256 -0.1553784 0.509
-0.058012195 -0.1553784 0.509
-0.056799509 -0.15568368 0.51000005
-0.055472843 -0.15568368 0.51000005
-0.054146182 -0.15568368 0.51000005
-0.052819517 -0.15568368 0.51000005
-0.051492851 -0.15568368 0.51000005
-0.05016619 -0.15568368 0.51000005
-0.048743758 -0.1553784 0.509
-0.047512859 -0.15568368 0.51000005
-0.046186194 -0.15568368 0.51000005
-0.044859532 -0.15568368 0.51000005
-0.043532867 -0.15568368 0.51000005
-0.042206202 -0.15568368 0.51000005
-0.04087954 -0.15568368 0.51000005
-0.039552875 -0.15568368 0.51000005
-0.03822621 -0.15568368 0.51000005
-0.036899548 -0.15568368 0.51000005
-0.035572883 -0.15568368 0.51000005
-0.034246217 -0.15568368 0.51000005
-0.032919556 -0.15568368 0.51000005
-0.031592891 -0.15568368 0.51000005
-0.030266227 -0.15568368 0.51000005
-0.028939562 -0.15568368 0.51000005
-0.027612897 -0.15568368 0.51000005
-0.02623469 -0.1553784 0.509
-0.024910627 -0.1553784 0.509
-0.023586564 -0.1553784 0.509
-0.022262502 -0.1553784 0.509
-0.020938439 -0.1553784 0.509
-0.019614376 -0.1553784 0.509
-0.018290313 -0.1553784 0.509
-0.01696625 -0.1553784 0.509
-0.015611458 -0.15507315 0.50800002
-0.014289996 -0.15507315 0.50800002
-0.012968535 -0.15507315 0.50800002
-0.011647073 -0.15507315 0.50800002
0.0071409266 -0.11661012 0.38200003
0.016458577 -0.13614689 0.44600001
0.017618757 -0.13614689 0.44600001
0.018778939 -0.13614689 0.44600001
0.019983826 -0.13645217 0.44700003
0.021193916 -0.13675742 0.44800001
0.02240921 -0.13706268 0.44900003
0.023577193 -0.13706268 0.44900003
0.024800289 -0.13736795 0.45000002
0.02602859 -0.13767321 0.45100003
0.027322402 -0.13828373 0.45300001
0.028563712 -0.13858899 0.45400003
0.029810216 -0.13889426 0.45500001
0.031130046 -0.13950478 0.45700002
0.032531001 -0.14042056 0.46000001
0.03387424 -0.14103109 0.46200001
0.035227887 -0.14164162 0.46400002
0.036670461 -0.1425574 0.46700001
0.038047519 -0.14316793 0.46900001
0.039434981 -0.14377844 0.47100002
0.040832851 -0.14438897 0.47300002
0.042241123 -0.1449995 0.47500002
0.043659803 -0.14561002 0.47700003
0.045088887 -0.14622055 0.47900003
0.046431638 -0.14652582 0.48000002
0.047779601 -0.14683108 0.48100004
0.049132761 -0.14713633 0.48200002
0.050491124 -0.1474416 0.48300001
0.051961832 -0.14805211 0.48500001
0.053333204 -0.14835739 0.48600003
0.054709777 -0.14866264 0.48700002
0.055976607 -0.14866264 0.48700002
0.057360988 -0.14896791 0.48800004
0.058630422 -0.14896791 0.48800004
0.060022604 -0.14927317 0.48900002
0.061419982 -0.14957842 0.49000001
0.062694624 -0.14957842 0.49000001
0.063969262 -0.14957842 0.49000001
0.0652439 -0.14957842 0.49000001
0.066654287 -0.14988369 0.49100003
0.067931525 -0.14988369 0.49100003
0.069067813 -0.14957842 0.49000001
0.070486009 -0.14988369 0.49100003
0.071763247 -0.14988369 0.49100003
0.072891727 -0.14957842 0.49000001
0.074166365 -0.14957842 0.49000001
0.075441003 -0.14957842 0.49000001
0.076559074 -0.14927317 0.48900002
0.077671953 -0.14896791 0.48800004
0.07894139 -0.14896791 0.48800004
0.08004646 -0.14866264 0.48700002
0.08131329 -0.14866264 0.48700002
0.082410559 -0.14835739 0.48600003
0.08350262 -0.14805211 0.48500001
0.084589474 -0.14774686 0.48400003
0.085671134 -0.1474416 0.48300001
0.086747587 -0.14713633 0.48200002
0.087818846 -0.14683108 0.48100004
0.08888489 -0.14652582 0.48000002
0.089945741 -0.14622055 0.47900003
0.090811007 -0.14561002 0.47700003
0.091858841 -0.14530475 0.47600001
0.092901483 -0.1449995 0.47500002
0.093938917 -0.14469424 0.47400004
0.09497115 -0.14438897 0.47300002
0.095998183 -0.14408371 0.47200003
0.09702 -0.14377844 0.47100002
0.097828045 -0.14316793 0.46900001
0.098836862 -0.14286266 0.46800002
0.099840485 -0.1425574 0.46700001
0.1006225 -0.14194688 0.46500003
0.10161311 -0.14164162 0.46400002
0.10259853 -0.14133635 0.46300003
0.10335454 -0.14072584 0.46100003
0.10432693 -0.14042056 0.46000001
0.10529414 -0.14011531 0.45900002
0.10602414 -0.13950478 0.45700002
0.10697833 -0.13919953 0.45600003
0.10769012 -0.13858899 0.45400003
0.10863131 -0.13828373 0.45300001
0.10932489 -0.13767321 0.45100003
0.11000806 -0.13706268 0.44900003
0.11092843 -0.13675742 0.44800001
0.11159339 -0.13614689 0.44600001
0.11250076 -0.13584164 0.44500002
0.11314753 -0.13523111 0.44300002
0.11404189 -0.13492586 0.44200003
0.11493105 -0.13462059 0.44100001
0.11555178 -0.13401006 0.43900001
0.11642795 -0.1337048 0.43800002
0.11703048 -0.13309428 0.43600002
0.11789363 -0.13278902 0.43500003
0.11875156 -0.13248375 0.43400002
0.11960431 -0.1321785 0.43300003
0.12017304 -0.13156797 0.43100002
0.12073135 -0.13095744 0.42900002
0.12156328 -0.13065219 0.42800003
0.12210338 -0.13004166 0.42600003
0.12234383 -0.12912586 0.42300001
0.1225687 -0.12821008 0.42000002
0.12307239 -0.12759955 0.41800001
0.12326863 -0.12668377 0.41500002
0.1237489 -0.12607324 0.41300002
0.12421876 -0.12546273 0.41100001
0.1243734 -0.12454694 0.40800002
0.12512729 -0.12424167 0.40700001
0.12556595 -0.12363116 0.40500003
0.12630682 -0.12332589 0.40400001
0.12672727 -0.12271536 0.40200001
0.12745516 -0.1224101 0.40100002
0.12817782 -0.12210484 0.40000001
0.1288953 -0.12179958 0.39900002
0.12960757 -0.12149432 0.39800003
0.13031465 -0.12118905 0.39700001
0.13101652 -0.12088379 0.39600003
0.13171317 -0.12057853 0.39500001
0.13240464 -0.12027327 0.39400002
0.13342954 -0.12027327 0.39400002
0.13445447 -0.12027327 0.39400002
0.18185967 -0.15904155 0.52100003
0.18321495 -0.15904155 0.52100003
0.18457024 -0.15904155 0.52100003
0.18556866 -0.1587363 0.52000004
0.18728079 -0.15904155 0.52100003
0.18827401 -0.1587363 0.52000004
0.18999135 -0.15904155 0.52100003
0.19097938 -0.1587363 0.52000004
0.19270191 -0.15904155 0.52100003
0.19405718 -0.15904155 0.52100003
0.19503739 -0.1587363 0.52000004
0.19676775 -0.15904155 0.52100003
0.19812302 -0.15904155 0.52100003
0.1994783 -0.15904155 0.52100003
0.20083357 -0.15904155 0.52100003
0.20257692 -0.15934682 0.52200001
0.20393482 -0.15934682 0.52200001
0.2052927 -0.15934682 0.52200001
0.20665057 -0.15934682 0.52200001
0.20840693 -0.15965207 0.523
0.2097674 -0.15965207 0.523
0.21112789 -0.15965207 0.523
0.21248837 -0.15965207 0.523
0.21384886 -0.15965207 0.523
0.21520934 -0.15965207 0.523
0.21656981 -0.15965207 0.523
0.2179303 -0.15965207 0.523
0.21929078 -0.15965207 0.523
0.22065125 -0.15965207 0.523
0.22201173 -0.15965207 0.523
0.22294514 -0.15934682 0.52200001
0.22430301 -0.15934682 0.52200001
0.22566089 -0.15934682 0.52200001
0.22701876 -0.15934682 0.52200001
0.22837664 -0.15934682 0.52200001
0.22973453 -0.15934682 0.52200001
0.23064971 -0.15904155 0.52100003
0.23200499 -0.15904155 0.52100003
0.23336026 -0.15904155 0.52100003
0.23471554 -0.15904155 0.52100003
0.23607083 -0.15904155 0.52100003
0.2374261 -0.15904155 0.52100003
0.23878138 -0.15904155 0.52100003
0.24013665 -0.15904155 0.52100003
0.24149193 -0.15904155 0.52100003
0.24284722 -0.15904155 0.52100003
0.24420249 -0.15904155 0.52100003
0.24602908 -0.15934682 0.52200001
0.24738696 -0.15934682 0.52200001
0.24874485 -0.15934682 0.52200001
0.25010273 -0.15934682 0.52200001
0.25146061 -0.15934682 0.52200001
-0.27865332 -0.15163307 0.50100005
-0.27735007 -0.15163307 0.50100005
-0.27604681 -0.15163307 0.50100005
-0.27474359 -0.15163307 0.50100005
-0.2734403 -0.15163307 0.50100005
-0.27268022 -0.15193573 0.50200003
-0.2713744 -0.15193573 0.50200003
-0.27006853 -0.15193573 0.50200003
-0.26876271 -0.15193573 0.50200003
-0.26745683 -0.15193573 0.50200003
-0.26615095 -0.15193573 0.50200003
-0.26484513 -0.15193573 0.50200003
-0.26353925 -0.15193573 0.50200003
-0.26223344 -0.15193573 0.50200003
-0.26092756 -0.15193573 0.50200003
-0.25962171 -0.15193573 0.50200003
-0.25831586 -0.15193573 0.50200003
-0.25700998 -0.15193573 0.50200003
-0.25621352 -0.15223838 0.50300002
-0.25490505 -0.15223838 0.50300002
-0.2535966 -0.15223838 0.50300002
-0.25228816 -0.15223838 0.50300002
-0.25097969 -0.15223838 0.50300002
-0.24967124 -0.15223838 0.50300002
-0.24836278 -0.15223838 0.50300002
-0.24705434 -0.15223838 0.50300002
-0.24574587 -0.15223838 0.50300002
-0.24443741 -0.15223838 0.50300002
-0.24312896 -0.15223838 0.50300002
-0.24182051 -0.15223838 0.50300002
-0.24051206 -0.15223838 0.50300002
-0.23920359 -0.15223838 0.50300002
-0.23789515 -0.15223838 0.50300002
-0.23705703 -0.15254104 0.50400001
-0.23574598 -0.15254104 0.50400001
-0.23443492 -0.15254104 0.50400001
-0.2335864 -0.1528437 0.505
-0.23227274 -0.1528437 0.505
-0.23095909 -0.1528437 0.505
-0.22964543 -0.1528437 0.505
-0.22833177 -0.1528437 0.505
-0.22701812 -0.1528437 0.505
-0.22615142 -0.15314637 0.50600004
-0.22483516 -0.15314637 0.50600004
-0.22351891 -0.15314637 0.50600004
-0.22220264 -0.15314637 0.50600004
-0.22088638 -0.15314637 0.50600004
-0.21913618 -0.1528437 0.505
-0.21782252 -0.1528437 0.505
-0.21650887 -0.1528437 0.505
-0.21519519 -0.1528437 0.505
-0.21345802 -0.15254104 0.50400001
-0.21214697 -0.15254104 0.50400001
-0.21083592 -0.15254104 0.50400001
-0.20910914 -0.15223838 0.50300002
-0.20780067 -0.15223838 0.50300002
-0.20649222 -0.15223838 0.50300002
-0.20518377 -0.15223838 0.50300002
-0.20387532 -0.15223838 0.50300002
-0.20256685 -0.15223838 0.50300002
-0.20165852 -0.15254104 0.50400001
-0.20034745 -0.15254104 0.50400001
-0.19943132 -0.1528437 0.505
-0.19811766 -0.1528437 0.505
-0.19680399 -0.1528437 0.505
-0.19549033 -0.1528437 0.505
-0.19417667 -0.1528437 0.505
-0.19286303 -0.1528437 0.505
-0.1919287 -0.15314637 0.50600004
-0.1902357 -0.1528437 0.505
-0.18892205 -0.1528437 0.505
-0.18760839 -0.1528437 0.505
-0.18629473 -0.1528437 0.505
-0.18498108 -0.1528437 0.505
-0.18366742 -0.1528437 0.505
-0.18235376 -0.1528437 0.505
-0.18104011 -0.1528437 0.505
-0.17937057 -0.15254104 0.50400001
-0.17805949 -0.15254104 0.50400001
-0.17674844 -0.15254104 0.50400001
-0.17543739 -0.15254104 0.50400001
-0.17412634 -0.15254104 0.50400001
-0.17315817 -0.1528437 0.505
-0.1718445 -0.1528437 0.505
-0.17053084 -0.1528437 0.505
-0.16921718 -0.1528437 0.505
-0.16790353 -0.1528437 0.505
-0.16658989 -0.1528437 0.505
-0.16527621 -0.1528437 0.505
-0.16428725 -0.15314637 0.50600004
-0.16297099 -0.15314637 0.50600004
-0.16165474 -0.15314637 0.50600004
-0.16002159 -0.1528437 0.505
-0.15870792 -0.1528437 0.505
-0.15739428 -0.1528437 0.505
-0.15608062 -0.1528437 0.505
-0.15476696 -0.1528437 0.505
-0.15345329 -0.1528437 0.505
-0.15213963 -0.1528437 0.505
-0.15082598 -0.1528437 0.505
-0.14951234 -0.1528437 0.505
-0.14790522 -0.15254104 0.50400001
-0.14659415 -0.15254104 0.50400001
-0.14557135 -0.1528437 0.505
-0.14425769 -0.1528437 0.505
-0.14294404 -0.1528437 0.505
-0.14163038 -0.1528437 0.505
-0.14031672 -0.1528437 0.505
-0.13927834 -0.15314637 0.50600004
-0.13796207 -0.15314637 0.50600004
-0.13691586 -0.15344903 0.50700003
-0.13559701 -0.15344903 0.50700003
-0.13427813 -0.15344903 0.50700003
-0.13295928 -0.15344903 0.50700003
-0.13164042 -0.15344903 0.50700003
-0.13032156 -0.15344903 0.50700003
-0.12900269 -0.15344903 0.50700003
-0.12768383 -0.15344903 0.50700003
-0.12611574 -0.15314637 0.50600004
-0.12479949 -0.15314637 0.50600004
-0.12348323 -0.15314637 0.50600004
-0.12216697 -0.15314637 0.50600004
-0.1208507 -0.15314637 0.50600004
-0.11953445 -0.15314637 0.50600004
-0.11845183 -0.15344903 0.50700003
-0.11713296 -0.15344903 0.50700003
-0.11604253 -0.15375169 0.50800002
-0.11472106 -0.15375169 0.50800002
-0.11362283 -0.15405434 0.509
-0.11229877 -0.15405434 0.509
-0.11119274 -0.15435702 0.51000005
-0.10986608 -0.15435702 0.51000005
-0.10853941 -0.15435702 0.51000005
-0.10721274 -0.15435702 0.51000005
-0.10588608 -0.15435702 0.51000005
-0.10455941 -0.15435702 0.51000005
-0.10323276 -0.15435702 0.51000005
-0.10190609 -0.15435702 0.51000005
-0.10057943 -0.15435702 0.51000005
-0.09925276 -0.15435702 0.51000005
-0.097926095 -0.15435702 0.51000005
-0.09659943 -0.15435702 0.51000005
-0.095272765 -0.15435702 0.51000005
-0.093761891 -0.15405434 0.509
-0.092437826 -0.15405434 0.509
-0.091113761 -0.15405434 0.509
-0.089789696 -0.15405434 0.509
-0.088465638 -0.15405434 0.509
-0.087312788 -0.15435702 0.51000005
-0.085986122 -0.15435702 0.51000005
-0.084659457 -0.15435702 0.51000005
-0.083332792 -0.15435702 0.51000005
-0.082006127 -0.15435702 0.51000005
-0.080679461 -0.15435702 0.51000005
-0.079352796 -0.15435702 0.51000005
-0.078026138 -0.15435702 0.51000005
-0.076699473 -0.15435702 0.51000005
-0.075372808 -0.15435702 0.51000005
-0.074046142 -0.15435702 0.51000005
-0.072719477 -0.15435702 0.51000005
-0.071392812 -0.15435702 0.51000005
-0.070066147 -0.15435702 0.51000005
-0.068739489 -0.15435702 0.51000005
-0.067412823 -0.15435702 0.51000005
-0.066086158 -0.15435702 0.51000005
-0.064759493 -0.15435702 0.51000005
-0.063432828 -0.15435702 0.51000005
-0.062106166 -0.15435702 0.51000005
-0.060779501 -0.15435702 0.51000005
-0.059452835 -0.15435702 0.51000005
-0.058126174 -0.15435702 0.51000005
-0.056799509 -0.15435702 0.51000005
-0.055472843 -0.15435702 0.51000005
-0.054146182 -0.15435702 0.51000005
-0.052819517 -0.15435702 0.51000005
-0.051492851 -0.15435702 0.51000005
-0.05016619 -0.15435702 0.51000005
-0.048839524 -0.15435702 0.51000005
-0.047512859 -0.15435702 0.51000005
-0.046186194 -0.15435702 0.51000005
-0.044859532 -0.15435702 0.51000005
-0.043532867 -0.15435702 0.51000005
-0.042206202 -0.15435702 0.51000005
-0.04087954 -0.15435702 0.51000005
-0.039552875 -0.15435702 0.51000005
-0.03822621 -0.15435702 0.51000005
-0.036899548 -0.15435702 0.51000005
-0.035572883 -0.15435702 0.51000005
-0.034246217 -0.15435702 0.51000005
-0.032855004 -0.15405434 0.509
-0.031530943 -0.15405434 0.509
-0.030206878 -0.15405434 0.509
-0.028882815 -0.15405434 0.509
-0.027558751 -0.15405434 0.509
-0.02623469 -0.15405434 0.509
-0.024910627 -0.15405434 0.509
-0.023586564 -0.15405434 0.509
-0.022262502 -0.15405434 0.509
-0.020938439 -0.15405434 0.509
-0.019614376 -0.15405434 0.509
-0.018290313 -0.15405434 0.509
-0.01696625 -0.15405434 0.509
-0.015642188 -0.15405434 0.509
-0.014318124 -0.15405434 0.509
-0.012968535 -0.15375169 0.50800002
-0.011647073 -0.15375169 0.50800002
0.0051535317 -0.11561643 0.38200003
0.0061472291 -0.11561643 0.38200003
0.0071409266 -0.11561643 0.38200003
0.015264096 -0.13468406 0.44500002
0.016458577 -0.13498671 0.44600001
0.017618757 -0.13498671 0.44600001
0.018778939 -0.13498671 0.44600001
0.019983826 -0.13528939 0.44700003
0.021193916 -0.13559204 0.44800001
0.02240921 -0.1358947 0.44900003
0.023629703 -0.13619736 0.45000002
0.024855401 -0.13650003 0.45100003
0.026144015 -0.13710535 0.45300001
0.027382718 -0.137408 0.45400003
0.028689543 -0.13801333 0.45600003
0.030006768 -0.13861865 0.45800003
0.031402521 -0.13952664 0.46100003
0.03274316 -0.14013195 0.46300003
0.034167524 -0.14103994 0.46600002
0.035531577 -0.14164525 0.46800002
0.036984555 -0.14255324 0.47100002
0.038290892 -0.1428559 0.47200003
0.039769884 -0.14376388 0.47500002
0.04109183 -0.14406654 0.47600001
0.042507909 -0.14467186 0.47800002
0.043934394 -0.14527719 0.48000002
0.045371279 -0.1458825 0.48200002
0.046721838 -0.14618516 0.48300001
0.048077602 -0.14648783 0.48400003
0.049438566 -0.14679049 0.48500001
0.050909273 -0.1473958 0.48700002
0.052283246 -0.14769848 0.48800004
0.053552683 -0.14769848 0.48800004
0.054934457 -0.14800113 0.48900002
0.056321431 -0.14830379 0.49000001
0.057713613 -0.14860646 0.49100003
0.059110999 -0.14890912 0.49200001
0.060390837 -0.14890912 0.49200001
0.061670676 -0.14890912 0.49200001
0.063078471 -0.14921178 0.49300003
0.064360909 -0.14921178 0.49300003
0.065643355 -0.14921178 0.49300003
0.066925794 -0.14921178 0.49300003
0.068208233 -0.14921178 0.49300003
0.069490679 -0.14921178 0.49300003
0.070773117 -0.14921178 0.49300003
0.072055563 -0.14921178 0.49300003
0.073338002 -0.14921178 0.49300003
0.07446909 -0.14890912 0.49200001
0.075748928 -0.14890912 0.49200001
0.077028766 -0.14890912 0.49200001
0.078149445 -0.14860646 0.49100003
0.079264916 -0.14830379 0.49000001
0.080539554 -0.14830379 0.49000001
0.081647225 -0.14800113 0.48900002
0.082749702 -0.14769848 0.48800004
0.083846956 -0.1473958 0.48700002
0.084939018 -0.14709316 0.48600003
0.086025879 -0.14679049 0.48500001
0.087107539 -0.14648783 0.48400003
0.088183992 -0.14618516 0.48300001
0.089255244 -0.1458825 0.48200002
0.090321295 -0.14557986 0.48100004
0.091382146 -0.14527719 0.48000002
0.092437789 -0.14497453 0.47900003
0.093292646 -0.1443692 0.47700003
0.09433528 -0.14406654 0.47600001
0.095372722 -0.14376388 0.47500002
0.096201561 -0.14315856 0.47300002
0.097225994 -0.1428559 0.47200003
0.098245218 -0.14255324 0.47100002
0.099048048 -0.14194791 0.46900001
0.10005428 -0.14164525 0.46800002
0.10105529 -0.1413426 0.46700001
0.10183211 -0.14073728 0.46500003
0.10282012 -0.14043461 0.46400002
0.10357873 -0.13982929 0.46200001
0.10455374 -0.13952664 0.46100003
0.10552353 -0.13922396 0.46000001
0.10625614 -0.13861865 0.45800003
0.10721293 -0.13831599 0.45700002
0.10792731 -0.13771066 0.45500001
0.10887111 -0.137408 0.45400003
0.10956728 -0.13680269 0.45200002
0.11049808 -0.13650003 0.45100003
0.11142365 -0.13619736 0.45000002
0.11209381 -0.13559204 0.44800001
0.11275357 -0.13498671 0.44600001
0.11365835 -0.13468406 0.44500002
0.1142999 -0.13407874 0.44300002
0.11519166 -0.13377608 0.44200003
0.11607821 -0.13347341 0.44100001
0.11695959 -0.13317075 0.44000003
0.11756732 -0.13256544 0.43800002
0.11843566 -0.13226277 0.43700001
0.11929881 -0.13196011 0.43600002
0.11988053 -0.13135479 0.43400002
0.12045185 -0.13074946 0.43200001
0.12129419 -0.13044681 0.43100002
0.1218473 -0.12984149 0.42900002
0.12239 -0.12923616 0.42700002
0.12292229 -0.12863085 0.42500001
0.12315237 -0.12772286 0.42200002
0.12336683 -0.12681489 0.41900003
0.1238627 -0.12620956 0.41700003
0.12404854 -0.12530158 0.41400003
0.124521 -0.12469625 0.41200003
0.12467823 -0.12378827 0.40900001
0.12543473 -0.12348561 0.40800002
0.12587598 -0.12288029 0.40600002
0.12630682 -0.12227497 0.40400001
0.12704252 -0.12197231 0.40300003
0.12777299 -0.12166964 0.40200001
0.12817782 -0.12106432 0.40000001
0.1288953 -0.12076166 0.39900002
0.12960757 -0.12045901 0.39800003
0.13031465 -0.12015634 0.39700001
0.13101652 -0.11985368 0.39600003
0.13171317 -0.11955102 0.39500001
0.13274069 -0.11955102 0.39500001
0.13342954 -0.11924836 0.39400002
0.13513552 -0.1189457 0.39300001
0.18457024 -0.15768628 0.52100003
0.18592551 -0.15768628 0.52100003
0.18728079 -0.15768628 0.52100003
0.18863606 -0.15768628 0.52100003
0.18999135 -0.15768628 0.52100003
0.19134663 -0.15768628 0.52100003
0.19270191 -0.15768628 0.52100003
0.19405718 -0.15768628 0.52100003
0.19541246 -0.15768628 0.52100003
0.19676775 -0.15768628 0.52100003
0.19812302 -0.15768628 0.52100003
0.1994783 -0.15768628 0.52100003
0.20083357 -0.15768628 0.52100003
0.20257692 -0.15798894 0.52200001
0.20393482 -0.15798894 0.52200001
0.2052927 -0.15798894 0.52200001
0.20665057 -0.15798894 0.52200001
0.20800845 -0.15798894 0.52200001
0.2097674 -0.15829159 0.523
0.21112789 -0.15829159 0.523
0.21248837 -0.15829159 0.523
0.21384886 -0.15829159 0.523
0.21520934 -0.15829159 0.523
0.21656981 -0.15829159 0.523
0.2179303 -0.15829159 0.523
0.21929078 -0.15829159 0.523
0.22065125 -0.15829159 0.523
0.22158724 -0.15798894 0.52200001
0.22294514 -0.15798894 0.52200001
0.22430301 -0.15798894 0.52200001
0.22566089 -0.15798894 0.52200001
0.22701876 -0.15798894 0.52200001
0.22793914 -0.15768628 0.52100003
0.22929443 -0.15768628 0.52100003
0.23064971 -0.15768628 0.52100003
0.23200499 -0.15768628 0.52100003
0.23336026 -0.15768628 0.52100003
0.23471554 -0.15768628 0.52100003
0.23607083 -0.15768628 0.52100003
0.2374261 -0.15768628 0.52100003
0.23878138 -0.15768628 0.52100003
0.24013665 -0.15768628 0.52100003
0.24149193 -0.15768628 0.52100003
0.24284722 -0.15768628 0.52100003
0.24420249 -0.15768628 0.52100003
0.24555777 -0.15768628 0.52100003
0.24691305 -0.15768628 0.52100003
0.24826834 -0.15768628 0.52100003
0.25010273 -0.15798894 0.52200001
0.25146061 -0.15798894 0.52200001
-0.27865332 -0.15032983 0.50100005
-0.27735007 -0.15032983 0.50100005
-0.27604681 -0.15032983 0.50100005
-0.27474359 -0.15032983 0.50100005
-0.2739861 -0.15062988 0.50200003
-0.27268022 -0.15062988 0.50200003
-0.2713744 -0.15062988 0.50200003
-0.27006853 -0.15062988 0.50200003
-0.26876271 -0.15062988 0.50200003
-0.26745683 -0.15062988 0.50200003
-0.26615095 -0.15062988 0.50200003
-0.26484513 -0.15062988 0.50200003
-0.26353925 -0.15062988 0.50200003
-0.26223344 -0.15062988 0.50200003
-0.26092756 -0.15062988 0.50200003
-0.25962171 -0.15062988 0.50200003
-0.25831586 -0.15062988 0.50200003
-0.25700998 -0.15062988 0.50200003
-0.25621352 -0.15092993 0.50300002
-0.25490505 -0.15092993 0.50300002
-0.2535966 -0.15092993 0.50300002
-0.25228816 -0.15092993 0.50300002
-0.25097969 -0.15092993 0.50300002
-0.24967124 -0.15092993 0.50300002
-0.24836278 -0.15092993 0.50300002
-0.24705434 -0.15092993 0.50300002
-0.24574587 -0.15092993 0.50300002
-0.24443741 -0.15092993 0.50300002
-0.24312896 -0.15092993 0.50300002
-0.24182051 -0.15092993 0.50300002
-0.24051206 -0.15092993 0.50300002
-0.23920359 -0.15092993 0.50300002
-0.23836808 -0.15122999 0.50400001
-0.23705703 -0.15122999 0.50400001
-0.23574598 -0.15122999 0.50400001
-0.23490006 -0.15153004 0.505
-0.2335864 -0.15153004 0.505
-0.23227274 -0.15153004 0.505
-0.23095909 -0.15153004 0.505
-0.2301002 -0.15183012 0.50600004
-0.22878394 -0.15183012 0.50600004
-0.22746767 -0.15183012 0.50600004
-0.22615142 -0.15183012 0.50600004
-0.22483516 -0.15183012 0.50600004
-0.22351891 -0.15183012 0.50600004
-0.22220264 -0.15183012 0.50600004
-0.22088638 -0.15183012 0.50600004
-0.21913618 -0.15153004 0.505
-0.21782252 -0.15153004 0.505
-0.21650887 -0.15153004 0.505
-0.21519519 -0.15153004 0.505
-0.21345802 -0.15122999 0.50400001
-0.21214697 -0.15122999 0.50400001
-0.2104176 -0.15092993 0.50300002
-0.20910914 -0.15092993 0.50300002
-0.20780067 -0.15092993 0.50300002
-0.20649222 -0.15092993 0.50300002
-0.20518377 -0.15092993 0.50300002
-0.20387532 -0.15092993 0.50300002
-0.20256685 -0.15092993 0.50300002
-0.20165852 -0.15122999 0.50400001
-0.20034745 -0.15122999 0.50400001
-0.19943132 -0.15153004 0.505
-0.19811766 -0.15153004 0.505
-0.19680399 -0.15153004 0.505
-0.19549033 -0.15153004 0.505
-0.19417667 -0.15153004 0.505
-0.19286303 -0.15153004 0.505
-0.1919287 -0.15183012 0.50600004
-0.1902357 -0.15153004 0.505
-0.18892205 -0.15153004 0.505
-0.18760839 -0.15153004 0.505
-0.18629473 -0.15153004 0.505
-0.18498108 -0.15153004 0.505
-0.18366742 -0.15153004 0.505
-0.18235376 -0.15153004 0.505
-0.18104011 -0.15153004 0.505
-0.17937057 -0.15122999 0.50400001
-0.17841278 -0.15153004 0.505
-0.17709912 -0.15153004 0.505
-0.17543739 -0.15122999 0.50400001
-0.17447183 -0.15153004 0.505
-0.17315817 -0.15153004 0.505
-0.1718445 -0.15153004 0.505
-0.17053084 -0.15153004 0.505
-0.16921718 -0.15153004 0.505
-0.16790353 -0.15153004 0.505
-0.16658989 -0.15153004 0.505
-0.16527621 -0.15153004 0.505
-0.16428725 -0.15183012 0.50600004
-0.16297099 -0.15183012 0.50600004
-0.16165474 -0.15183012 0.50600004
-0.16002159 -0.15153004 0.505
-0.15870792 -0.15153004 0.505
-0.15739428 -0.15153004 0.505
-0.15608062 -0.15153004 0.505
-0.15476696 -0.15153004 0.505
-0.15345329 -0.15153004 0.505
-0.15213963 -0.15153004 0.505
-0.15082598 -0.15153004 0.505
-0.14951234 -0.15153004 0.505
-0.14819868 -0.15153004 0.505
-0.14688501 -0.15153004 0.505
-0.14557135 -0.15153004 0.505
-0.14425769 -0.15153004 0.505
-0.14294404 -0.15153004 0.505
-0.14163038 -0.15153004 0.505
-0.14059459 -0.15183012 0.50600004
-0.13927834 -0.15183012 0.50600004
-0.13823472 -0.15213017 0.50700003
-0.13691586 -0.15213017 0.50700003
-0.13559701 -0.15213017 0.50700003
-0.13427813 -0.15213017 0.50700003
-0.13295928 -0.15213017 0.50700003
-0.13164042 -0.15213017 0.50700003
-0.13032156 -0.15213017 0.50700003
-0.12900269 -0.15213017 0.50700003
-0.12768383 -0.15213017 0.50700003
-0.12611574 -0.15183012 0.50600004
-0.12479949 -0.15183012 0.50600004
-0.12348323 -0.15183012 0.50600004
-0.12216697 -0.15183012 0.50600004
-0.1208507 -0.15183012 0.50600004
-0.11977068 -0.15213017 0.50700003
-0.11845183 -0.15213017 0.50700003
-0.11713296 -0.15213017 0.50700003
-0.11604253 -0.15243024 0.50800002
-0.11472106 -0.15243024 0.50800002
-0.11362283 -0.15273029 0.509
-0.11229877 -0.15273029 0.509
-0.1109747 -0.15273029 0.509
-0.10986608 -0.15303037 0.51000005
-0.10853941 -0.15303037 0.51000005
-0.10721274 -0.15303037 0.51000005
-0.10588608 -0.15303037 0.51000005
-0.10455941 -0.15303037 0.51000005
-0.10323276 -0.15303037 0.51000005
-0.10190609 -0.15303037 0.51000005
-0.10057943 -0.15303037 0.51000005
-0.09925276 -0.15303037 0.51000005
-0.097926095 -0.15303037 0.51000005
-0.09659943 -0.15303037 0.51000005
-0.095272765 -0.15303037 0.51000005
-0.093946107 -0.15303037 0.51000005
-0.092437826 -0.15273029 0.509
-0.091113761 -0.15273029 0.509
-0.089789696 -0.15273029 0.509
-0.088465638 -0.15273029 0.509
-0.087141581 -0.15273029 0.509
-0.085817508 -0.15273029 0.509
-0.084659457 -0.15303037 0.51000005
-0.083332792 -0.15303037 0.51000005
-0.082006127 -0.15303037 0.51000005
-0.080679461 -0.15303037 0.51000005
-0.079352796 -0.15303037 0.51000005
-0.078026138 -0.15303037 0.51000005
-0.076699473 -0.15303037 0.51000005
-0.075372808 -0.15303037 0.51000005
-0.074046142 -0.15303037 0.51000005
-0.072719477 -0.15303037 0.51000005
-0.071392812 -0.15303037 0.51000005
-0.070066147 -0.15303037 0.51000005
-0.068739489 -0.15303037 0.51000005
-0.067412823 -0.15303037 0.51000005
-0.066086158 -0.15303037 0.51000005
-0.064759493 -0.15303037 0.51000005
-0.063432828 -0.15303037 0.51000005
-0.062106166 -0.15303037 0.51000005
-0.060779501 -0.15303037 0.51000005
-0.059452835 -0.15303037 0.51000005
-0.058126174 -0.15303037 0.51000005
-0.056799509 -0.15303037 0.51000005
-0.055472843 -0.15303037 0.51000005
-0.054146182 -0.15303037 0.51000005
-0.052819517 -0.15303037 0.51000005
-0.051492851 -0.15303037 0.51000005
-0.05016619 -0.15303037 0.51000005
-0.048839524 -0.15303037 0.51000005
-0.047512859 -0.15303037 0.51000005
-0.046186194 -0.15303037 0.51000005
-0.044859532 -0.15303037 0.51000005
-0.043532867 -0.15303037 0.51000005
-0.042206202 -0.15303037 0.51000005
-0.04087954 -0.15303037 0.51000005
-0.039552875 -0.15303037 0.51000005
-0.03822621 -0.15303037 0.51000005
-0.036899548 -0.15303037 0.51000005
-0.035503127 -0.15273029 0.509
-0.034179065 -0.15273029 0.509
-0.032855004 -0.15273029 0.509
-0.031530943 -0.15273029 0.509
-0.030206878 -0.15273029 0.509
-0.028882815 -0.15273029 0.509
-0.027558751 -0.15273029 0.509
-0.02623469 -0.15273029 0.509
-0.024910627 -0.15273029 0.509
-0.023586564 -0.15273029 0.509
-0.022262502 -0.15273029 0.509
-0.020938439 -0.15273029 0.509
-0.019614376 -0.15273029 0.509
-0.018290313 -0.15273029 0.509
-0.01696625 -0.15273029 0.509
-0.015611458 -0.15243024 0.50800002
-0.014318124 -0.15273029 0.509
-0.012994062 -0.15273029 0.509
0.0051670223 -0.11492279 0.38300002
0.0061472291 -0.11462273 0.38200003
0.0071409266 -0.11462273 0.38200003
0.015264096 -0.13352649 0.44500002
0.016421674 -0.13352649 0.44500002
0.017618757 -0.13382654 0.44600001
0.018778939 -0.13382654 0.44600001
0.019983826 -0.1341266 0.44700003
0.021193916 -0.13442665 0.44800001
0.02240921 -0.13472672 0.44900003
0.023629703 -0.13502678 0.45000002
0.024910513 -0.1356269 0.45200002
0.026259441 -0.13652708 0.45500001
0.027563661 -0.13712719 0.45700002
0.02887829 -0.13772732 0.45900002
0.030268835 -0.13862748 0.46200001
0.031674992 -0.13952768 0.46500003
0.033026036 -0.14012779 0.46700001
0.034460809 -0.14102797 0.47000003
0.035835266 -0.14162809 0.47200003
0.037220128 -0.14222822 0.47400004
0.038615391 -0.14282833 0.47600001
0.040021062 -0.14342844 0.47800002
0.041437142 -0.14402856 0.48000002
0.042863626 -0.14462869 0.48200002
0.044208981 -0.14492874 0.48300001
0.045653675 -0.14552887 0.48500001
0.047012035 -0.14582893 0.48600003
0.048375603 -0.14612898 0.48700002
0.049744375 -0.14642905 0.48800004
0.051222879 -0.14702916 0.49000001
0.052497517 -0.14702916 0.49000001
0.053881899 -0.14732923 0.49100003
0.055271477 -0.14762928 0.49200001
0.056666259 -0.14792934 0.49300003
0.058066241 -0.14822939 0.49400002
0.059351288 -0.14822939 0.49400002
0.06063633 -0.14822939 0.49400002
0.062046718 -0.14852946 0.49500003
0.063334368 -0.14852946 0.49500003
0.064752556 -0.14882952 0.49600002
0.066042811 -0.14882952 0.49600002
0.06733305 -0.14882952 0.49600002
0.068623289 -0.14882952 0.49600002
0.069913544 -0.14882952 0.49600002
0.071203783 -0.14882952 0.49600002
0.072347879 -0.14852946 0.49500003
0.073635519 -0.14852946 0.49500003
0.074771807 -0.14822939 0.49400002
0.076056845 -0.14822939 0.49400002
0.077341892 -0.14822939 0.49400002
0.078467771 -0.14792934 0.49300003
0.079588443 -0.14762928 0.49200001
0.080868289 -0.14762928 0.49200001
0.08198116 -0.14732923 0.49100003
0.08308883 -0.14702916 0.49000001
0.0841913 -0.1467291 0.48900002
0.085288562 -0.14642905 0.48800004
0.086380631 -0.14612898 0.48700002
0.087467484 -0.14582893 0.48600003
0.088549145 -0.14552887 0.48500001
0.089625597 -0.1452288 0.48400003
0.090696849 -0.14492874 0.48300001
0.0917629 -0.14462869 0.48200002
0.092630766 -0.14402856 0.48000002
0.093683816 -0.14372851 0.47900003
0.094731651 -0.14342844 0.47800002
0.095774293 -0.1431284 0.47700003
0.096608341 -0.14252827 0.47500002
0.097637966 -0.14222822 0.47400004
0.098662399 -0.14192815 0.47300002
0.099470429 -0.14132802 0.47100002
0.10048186 -0.14102797 0.47000003
0.10127168 -0.14042786 0.46800002
0.10227009 -0.14012779 0.46700001
0.10304172 -0.13952768 0.46500003
0.10402712 -0.13922761 0.46400002
0.10478053 -0.13862748 0.46200001
0.10575294 -0.13832743 0.46100003
0.10648814 -0.13772732 0.45900002
0.10744753 -0.13742726 0.45800003
0.10816452 -0.13682714 0.45600003
0.10911091 -0.13652708 0.45500001
0.1100521 -0.13622703 0.45400003
0.11074308 -0.1356269 0.45200002
0.11167126 -0.13532685 0.45100003
0.11234403 -0.13472672 0.44900003
0.11325919 -0.13442665 0.44800001
0.11391376 -0.13382654 0.44600001
0.11481593 -0.13352649 0.44500002
0.1157129 -0.13322642 0.44400004
0.11634143 -0.13262631 0.44200003
0.1172254 -0.13232625 0.44100001
0.11810416 -0.13202618 0.44000003
0.11870669 -0.13142607 0.43800002
0.11957243 -0.131126 0.43700001
0.12043297 -0.13082595 0.43600002
0.12100951 -0.13022582 0.43400002
0.12157562 -0.12962571 0.43200001
0.12213133 -0.12902559 0.43000001
0.12267663 -0.12842548 0.42800003
0.12321153 -0.12782535 0.42600003
0.12344419 -0.12692517 0.42300001
0.12366125 -0.12602499 0.42000002
0.12415973 -0.12542488 0.41800001
0.12434817 -0.1245247 0.41500002
0.12482323 -0.12392458 0.41300002
0.12528791 -0.12332445 0.41100001
0.12574217 -0.12272434 0.40900001
0.12618601 -0.12212422 0.40700001
0.12661947 -0.1215241 0.40500003
0.12735775 -0.12122404 0.40400001
0.12777299 -0.12062392 0.40200001
0.12849827 -0.12032387 0.40100002
0.12921834 -0.1200238 0.40000001
0.12993322 -0.11972374 0.39900002
0.13064291 -0.11942369 0.39800003
0.13134736 -0.11912362 0.39700001
0.13204663 -0.11882357 0.39600003
0.13274069 -0.11852351 0.39500001
0.1337682 -0.11852351 0.39500001
0.13445447 -0.11822345 0.39400002
0.13547938 -0.11822345 0.39400002
0.13615783 -0.11792339 0.39300001
0.18592551 -0.156331 0.52100003
0.18728079 -0.156331 0.52100003
0.18863606 -0.156331 0.52100003
0.18999135 -0.156331 0.52100003
0.19134663 -0.156331 0.52100003
0.19270191 -0.156331 0.52100003
0.19405718 -0.156331 0.52100003
0.19541246 -0.156331 0.52100003
0.19676775 -0.156331 0.52100003
0.19812302 -0.156331 0.52100003
0.1994783 -0.156331 0.52100003
0.20121905 -0.15663107 0.52200001
0.20257692 -0.15663107 0.52200001
0.20393482 -0.15663107 0.52200001
0.2052927 -0.15663107 0.52200001
0.20665057 -0.15663107 0.52200001
0.20800845 -0.15663107 0.52200001
0.20936632 -0.15663107 0.52200001
0.21112789 -0.15693112 0.523
0.21248837 -0.15693112 0.523
0.21384886 -0.15693112 0.523
0.21520934 -0.15693112 0.523
0.21656981 -0.15693112 0.523
0.2179303 -0.15693112 0.523
0.21887149 -0.15663107 0.52200001
0.22022937 -0.15663107 0.52200001
0.22158724 -0.15663107 0.52200001
0.22294514 -0.15663107 0.52200001
0.22430301 -0.15663107 0.52200001
0.22522859 -0.156331 0.52100003
0.22658387 -0.156331 0.52100003
0.22793914 -0.156331 0.52100003
0.22929443 -0.156331 0.52100003
0.23064971 -0.156331 0.52100003
0.23200499 -0.156331 0.52100003
0.23291236 -0.15603095 0.52000004
0.23426503 -0.15603095 0.52000004
0.23561771 -0.15603095 0.52000004
0.23697039 -0.15603095 0.52000004
0.23832306 -0.15603095 0.52000004
0.23967575 -0.15603095 0.52000004
0.24149193 -0.156331 0.52100003
0.24284722 -0.156331 0.52100003
0.24420249 -0.156331 0.52100003
0.24555777 -0.156331 0.52100003
0.24691305 -0.156331 0.52100003
0.24826834 -0.156331 0.52100003
0.25010273 -0.15663107 0.52200001
0.25146061 -0.15663107 0.52200001
-0.27865332 -0.14902656 0.50100005
-0.27735007 -0.14902656 0.50100005
-0.27604681 -0.14902656 0.50100005
-0.27474359 -0.14902656 0.50100005
-0.2739861 -0.14932401 0.50200003
-0.27268022 -0.14932401 0.50200003
-0.2713744 -0.14932401 0.50200003
-0.27006853 -0.14932401 0.50200003
-0.26876271 -0.14932401 0.50200003
-0.26745683 -0.14932401 0.50200003
-0.26615095 -0.14932401 0.50200003
-0.26484513 -0.14932401 0.50200003
-0.26353925 -0.14932401 0.50200003
-0.26223344 -0.14932401 0.50200003
-0.26092756 -0.14932401 0.50200003
-0.25962171 -0.14932401 0.50200003
-0.25831586 -0.14932401 0.50200003
-0.25752196 -0.14962147 0.50300002
-0.25621352 -0.14962147 0.50300002
-0.25490505 -0.14962147 0.50300002
-0.2535966 -0.14962147 0.50300002
-0.25228816 -0.14962147 0.50300002
-0.25147864 -0.14991891 0.50400001
-0.25016761 -0.14991891 0.50400001
-0.24885654 -0.14991891 0.50400001
-0.24705434 -0.14962147 0.50300002
-0.24574587 -0.14962147 0.50300002
-0.24443741 -0.14962147 0.50300002
-0.24312896 -0.14962147 0.50300002
-0.24182051 -0.14962147 0.50300002
-0.24051206 -0.14962147 0.50300002
-0.23920359 -0.14962147 0.50300002
-0.23836808 -0.14991891 0.50400001
-0.23705703 -0.14991891 0.50400001
-0.23574598 -0.14991891 0.50400001
-0.23490006 -0.15021637 0.505
-0.2335864 -0.15021637 0.505
-0.23273271 -0.15051384 0.50600004
-0.23141646 -0.15051384 0.50600004
-0.2301002 -0.15051384 0.50600004
-0.22878394 -0.15051384 0.50600004
-0.22746767 -0.15051384 0.50600004
-0.22615142 -0.15051384 0.50600004
-0.22483516 -0.15051384 0.50600004
-0.22351891 -0.15051384 0.50600004
-0.22220264 -0.15051384 0.50600004
-0.22088638 -0.15051384 0.50600004
-0.21913618 -0.15021637 0.505
-0.21782252 -0.15021637 0.505
-0.21650887 -0.15021637 0.505
-0.21519519 -0.15021637 0.505
-0.21345802 -0.14991891 0.50400001
-0.21214697 -0.14991891 0.50400001
-0.21083592 -0.14991891 0.50400001
-0.20910914 -0.14962147 0.50300002
-0.20780067 -0.14962147 0.50300002
-0.20649222 -0.14962147 0.50300002
-0.20518377 -0.14962147 0.50300002
-0.20387532 -0.14962147 0.50300002
-0.20256685 -0.14962147 0.50300002
-0.20165852 -0.14991891 0.50400001
-0.20034745 -0.14991891 0.50400001
-0.1990364 -0.14991891 0.50400001
-0.19811766 -0.15021637 0.505
-0.19680399 -0.15021637 0.505
-0.19549033 -0.15021637 0.505
-0.19417667 -0.15021637 0.505
-0.19286303 -0.15021637 0.505
-0.1919287 -0.15051384 0.50600004
-0.19061242 -0.15051384 0.50600004
-0.18892205 -0.15021637 0.505
-0.18760839 -0.15021637 0.505
-0.18629473 -0.15021637 0.505
-0.18498108 -0.15021637 0.505
-0.18366742 -0.15021637 0.505
-0.18235376 -0.15021637 0.505
-0.18104011 -0.15021637 0.505
-0.17972645 -0.15021637 0.505
-0.17841278 -0.15021637 0.505
-0.17709912 -0.15021637 0.505
-0.17578548 -0.15021637 0.505
-0.17447183 -0.15021637 0.505
-0.17315817 -0.15021637 0.505
-0.1718445 -0.15021637 0.505
-0.17053084 -0.15021637 0.505
-0.16921718 -0.15021637 0.505
-0.16790353 -0.15021637 0.505
-0.16658989 -0.15021637 0.505
-0.16527621 -0.15021637 0.505
-0.16428725 -0.15051384 0.50600004
-0.16297099 -0.15051384 0.50600004
-0.16165474 -0.15051384 0.50600004
-0.16002159 -0.15021637 0.505
-0.15870792 -0.15021637 0.505
-0.15739428 -0.15021637 0.505
-0.15608062 -0.15021637 0.505
-0.15476696 -0.15021637 0.505
-0.15345329 -0.15021637 0.505
-0.15213963 -0.15021637 0.505
-0.15082598 -0.15021637 0.505
-0.14951234 -0.15021637 0.505
-0.14819868 -0.15021637 0.505
-0.14688501 -0.15021637 0.505
-0.14557135 -0.15021637 0.505
-0.14425769 -0.15021637 0.505
-0.14294404 -0.15021637 0.505
-0.14191085 -0.15051384 0.50600004
-0.14059459 -0.15051384 0.50600004
-0.13927834 -0.15051384 0.50600004
-0.13823472 -0.1508113 0.50700003
-0.13691586 -0.1508113 0.50700003
-0.13559701 -0.1508113 0.50700003
-0.13427813 -0.1508113 0.50700003
-0.13295928 -0.1508113 0.50700003
-0.13164042 -0.1508113 0.50700003
-0.13032156 -0.1508113 0.50700003
-0.12900269 -0.1508113 0.50700003
-0.12768383 -0.1508113 0.50700003
-0.12636498 -0.1508113 0.50700003
-0.12504612 -0.1508113 0.50700003
-0.12372726 -0.1508113 0.50700003
-0.1224084 -0.1508113 0.50700003
-0.12108954 -0.1508113 0.50700003
-0.11977068 -0.1508113 0.50700003
-0.11845183 -0.1508113 0.50700003
-0.11713296 -0.1508113 0.50700003
-0.11604253 -0.15110876 0.50800002
-0.11472106 -0.15110876 0.50800002
-0.11362283 -0.15140621 0.509
-0.11229877 -0.15140621 0.509
-0.1109747 -0.15140621 0.509
-0.10986608 -0.15170369 0.51000005
-0.10832658 -0.15140621 0.509
-0.10721274 -0.15170369 0.51000005
-0.10588608 -0.15170369 0.51000005
-0.10455941 -0.15170369 0.51000005
-0.10323276 -0.15170369 0.51000005
-0.10190609 -0.15170369 0.51000005
-0.10057943 -0.15170369 0.51000005
-0.09925276 -0.15170369 0.51000005
-0.097926095 -0.15170369 0.51000005
-0.09659943 -0.15170369 0.51000005
-0.095272765 -0.15170369 0.51000005
-0.093761891 -0.15140621 0.509
-0.092437826 -0.15140621 0.509
-0.091113761 -0.15140621 0.509
-0.089789696 -0.15140621 0.509
-0.088465638 -0.15140621 0.509
-0.087141581 -0.15140621 0.509
-0.085817508 -0.15140621 0.509
-0.084493451 -0.15140621 0.509
-0.083332792 -0.15170369 0.51000005
-0.082006127 -0.15170369 0.51000005
-0.080679461 -0.15170369 0.51000005
-0.079352796 -0.15170369 0.51000005
-0.078026138 -0.15170369 0.51000005
-0.076699473 -0.15170369 0.51000005
-0.075372808 -0.15170369 0.51000005
-0.074046142 -0.15170369 0.51000005
-0.072719477 -0.15170369 0.51000005
-0.071392812 -0.15170369 0.51000005
-0.070066147 -0.15170369 0.51000005
-0.068739489 -0.15170369 0.51000005
-0.067412823 -0.15170369 0.51000005
-0.066086158 -0.15170369 0.51000005
-0.064759493 -0.15170369 0.51000005
-0.063432828 -0.15170369 0.51000005
-0.062106166 -0.15170369 0.51000005
-0.060779501 -0.15170369 0.51000005
-0.059452835 -0.15170369 0.51000005
-0.058126174 -0.15170369 0.51000005
-0.056799509 -0.15170369 0.51000005
-0.055472843 -0.15170369 0.51000005
-0.054146182 -0.15170369 0.51000005
-0.052819517 -0.15170369 0.51000005
-0.051492851 -0.15170369 0.51000005
-0.05016619 -0.15170369 0.51000005
-0.048839524 -0.15170369 0.51000005
-0.047512859 -0.15170369 0.51000005
-0.046186194 -0.15170369 0.51000005
-0.044859532 -0.15170369 0.51000005
-0.043532867 -0.15170369 0.51000005
-0.042206202 -0.15170369 0.51000005
-0.04087954 -0.15170369 0.51000005
-0.039552875 -0.15170369 0.51000005
-0.03822621 -0.15170369 0.51000005
-0.036899548 -0.15170369 0.51000005
-0.035572883 -0.15170369 0.51000005
-0.034246217 -0.15170369 0.51000005
-0.032855004 -0.15140621 0.509
-0.031530943 -0.15140621 0.509
-0.030206878 -0.15140621 0.509
-0.028882815 -0.15140621 0.509
-0.027558751 -0.15140621 0.509
-0.02623469 -0.15140621 0.509
-0.024861688 -0.15110876 0.50800002
-0.023540225 -0.15110876 0.50800002
-0.022262502 -0.15140621 0.509
-0.020938439 -0.15140621 0.509
-0.019614376 -0.15140621 0.509
-0.018290313 -0.15140621 0.509
-0.01696625 -0.15140621 0.509
-0.015611458 -0.15110876 0.50800002
-0.014318124 -0.15140621 0.509
-0.012994062 -0.15140621 0.509
0.015264096 -0.13236889 0.44500002
0.016458577 -0.13266635 0.44600001
0.017618757 -0.13266635 0.44600001
0.018778939 -0.13266635 0.44600001
0.019983826 -0.13296381 0.44700003
0.021241223 -0.13355874 0.44900003
