# .PCD v0.7 - Point Cloud Data file format
VERSION 0.7
FIELDS x y z
SIZE 4 4 4
TYPE F F F
COUNT 1 1 1
WIDTH 1414
HEIGHT 1
VIEWPOINT 0 0 0 1 0 0 0
POINTS 1414
DATA ascii
-0.26406422 -0.14307919 0.50300002
-0.26275581 -0.14307919 0.50300002
-0.26196709 -0.14336364 0.50400001
-0.26065603 -0.14336364 0.50400001
-0.259345 -0.14336364 0.50400001
-0.25803393 -0.14336364 0.50400001
-0.2567229 -0.14336364 0.50400001
-0.25541183 -0.14336364 0.50400001
-0.25410074 -0.14336364 0.50400001
-0.25278971 -0.14336364 0.50400001
-0.25147864 -0.14336364 0.50400001
-0.24967124 -0.14307919 0.50300002
-0.24836278 -0.14307919 0.50300002
-0.24656318 -0.14279474 0.50200003
-0.24525732 -0.14279474 0.50200003
-0.24395145 -0.14279474 0.50200003
-0.24264561 -0.14279474 0.50200003
-0.24133976 -0.14279474 0.50200003
-0.24003391 -0.14279474 0.50200003
-0.23872805 -0.14279474 0.50200003
-0.2374222 -0.14279474 0.50200003
-0.23611635 -0.14279474 0.50200003
-0.23481049 -0.14279474 0.50200003
-0.23350462 -0.14279474 0.50200003
-0.23219877 -0.14279474 0.50200003
-0.23089293 -0.14279474 0.50200003
-0.23004441 -0.14307919 0.50300002
-0.22873597 -0.14307919 0.50300002
-0.2274275 -0.14307919 0.50300002
-0.22611904 -0.14307919 0.50300002
-0.22525753 -0.14336364 0.50400001
-0.22394647 -0.14336364 0.50400001
-0.22263542 -0.14336364 0.50400001
-0.22176348 -0.14364809 0.505
-0.22044982 -0.14364809 0.505
-0.21913618 -0.14364809 0.505
-0.21782252 -0.14364809 0.505
-0.21650887 -0.14364809 0.505
-0.21519519 -0.14364809 0.505
-0.21388154 -0.14364809 0.505
-0.21256788 -0.14364809 0.505
-0.21125424 -0.14364809 0.505
-0.20994058 -0.14364809 0.505
-0.20862691 -0.14364809 0.505
-0.20731325 -0.14364809 0.505
-0.2059996 -0.14364809 0.505
-0.20468594 -0.14364809 0.505
-0.20337227 -0.14364809 0.505
-0.20205863 -0.14364809 0.505
-0.20074497 -0.14364809 0.505
-0.19943132 -0.14364809 0.505
-0.19811766 -0.14364809 0.505
-0.19680399 -0.14364809 0.505
-0.19549033 -0.14364809 0.505
-0.19417667 -0.14364809 0.505
-0.19286303 -0.14364809 0.505
-0.19154938 -0.14364809 0.505
-0.1902357 -0.14364809 0.505
-0.18854795 -0.14336364 0.50400001
-0.18723689 -0.14336364 0.50400001
-0.18592584 -0.14336364 0.50400001
-0.18498108 -0.14364809 0.505
-0.18330373 -0.14336364 0.50400001
-0.18199266 -0.14336364 0.50400001
-0.18068162 -0.14336364 0.50400001
-0.17972645 -0.14364809 0.505
-0.17841278 -0.14364809 0.505
-0.17709912 -0.14364809 0.505
-0.17578548 -0.14364809 0.505
-0.17447183 -0.14364809 0.505
-0.17315817 -0.14364809 0.505
-0.1718445 -0.14364809 0.505
-0.17053084 -0.14364809 0.505
-0.16921718 -0.14364809 0.505
-0.16790353 -0.14364809 0.505
-0.16658989 -0.14364809 0.505
-0.16527621 -0.14364809 0.505
-0.16396256 -0.14364809 0.505
-0.1626489 -0.14364809 0.505
-0.16133524 -0.14364809 0.505
-0.16002159 -0.14364809 0.505
-0.15870792 -0.14364809 0.505
-0.15739428 -0.14364809 0.505
-0.15608062 -0.14364809 0.505
-0.15476696 -0.14364809 0.505
-0.15345329 -0.14364809 0.505
-0.15213963 -0.14364809 0.505
-0.15082598 -0.14364809 0.505
-0.14951234 -0.14364809 0.505
-0.14849216 -0.14393255 0.50600004
-0.14717588 -0.14393255 0.50600004
-0.14585963 -0.14393255 0.50600004
-0.14454336 -0.14393255 0.50600004
-0.14322712 -0.14393255 0.50600004
-0.14191085 -0.14393255 0.50600004
-0.14059459 -0.14393255 0.50600004
-0.13927834 -0.14393255 0.50600004
-0.13796207 -0.14393255 0.50600004
-0.13664582 -0.14393255 0.50600004
-0.13532956 -0.14393255 0.50600004
-0.1340133 -0.14393255 0.50600004
-0.13269703 -0.14393255 0.50600004
-0.13138078 -0.14393255 0.50600004
-0.13006453 -0.14393255 0.50600004
-0.12874825 -0.14393255 0.50600004
-0.127432 -0.14393255 0.50600004
-0.12611574 -0.14393255 0.50600004
-0.12479949 -0.14393255 0.50600004
-0.073518597 -0.12032305 0.42300001
-0.07258945 -0.12060751 0.42400002
-0.071655095 -0.12089196 0.42500001
-0.070715547 -0.12117641 0.42600003
-0.069934182 -0.12174532 0.42800003
-0.068981625 -0.12202977 0.42900002
-0.068182051 -0.12259867 0.43100002
-0.067372084 -0.12316758 0.43300003
-0.066704698 -0.12402093 0.43600002
-0.065871306 -0.12458984 0.43800002
-0.06517531 -0.12544319 0.44100001
-0.064318508 -0.12601209 0.44300002
-0.063593894 -0.12686545 0.44600001
-0.062993653 -0.12800325 0.45000002
-0.062235221 -0.1288566 0.45300001
-0.061326403 -0.12942551 0.45500001
-0.060539354 -0.13027887 0.45800003
-0.059736703 -0.13113223 0.46100003
-0.058918435 -0.13198557 0.46400002
-0.05796019 -0.13255449 0.46600002
-0.057113312 -0.13340783 0.46900001
-0.056131653 -0.13397674 0.47100002
-0.055139586 -0.13454564 0.47300002
-0.054137122 -0.13511455 0.47500002
-0.053124245 -0.13568345 0.47700003
-0.052209735 -0.13653681 0.48000002
-0.051173445 -0.1371057 0.48200002
-0.050126754 -0.13767461 0.48400003
-0.049069658 -0.13824351 0.48600003
-0.048002157 -0.13881242 0.48800004
-0.047020011 -0.13966577 0.49100003
-0.045929097 -0.14023468 0.49300003
-0.044918336 -0.14108804 0.49600002
-0.043804012 -0.14165694 0.49800003
-0.042679276 -0.14222583 0.5
-0.041461386 -0.14251029 0.50100005
-0.040318448 -0.14307919 0.50300002
-0.039165098 -0.14364809 0.505
-0.037926398 -0.14393255 0.50600004
-0.03668249 -0.144217 0.50700003
-0.035363629 -0.144217 0.50700003
-0.034044769 -0.144217 0.50700003
-0.032725912 -0.144217 0.50700003
-0.031468995 -0.14450145 0.50800002
-0.030147534 -0.14450145 0.50800002
-0.028769327 -0.144217 0.50700003
-0.027450467 -0.144217 0.50700003
-0.026131608 -0.144217 0.50700003
-0.024763808 -0.14393255 0.50600004
-0.023401206 -0.14364809 0.505
-0.02208755 -0.14364809 0.505
-0.020773893 -0.14364809 0.505
-0.019460235 -0.14364809 0.505
-0.018146578 -0.14364809 0.505
-0.01683292 -0.14364809 0.505
-0.015519263 -0.14364809 0.505
-0.014205605 -0.14364809 0.505
-0.012891948 -0.14364809 0.505
-0.011601219 -0.14393255 0.50600004
-0.010284959 -0.14393255 0.50600004
-0.0089864256 -0.144217 0.50700003
-0.0076675653 -0.144217 0.50700003
-0.0063487049 -0.144217 0.50700003
-0.0050298451 -0.144217 0.50700003
-0.0037109847 -0.144217 0.50700003
-0.0023921244 -0.144217 0.50700003
-0.0010732643 -0.144217 0.50700003
0.00024559585 -0.144217 0.50700003
0.0015613703 -0.14393255 0.50600004
0.002871942 -0.14364809 0.505
0.004177311 -0.14336364 0.50400001
0.0054774778 -0.14307919 0.50300002
0.0067724423 -0.14279474 0.50200003
0.0080622043 -0.14251029 0.50100005
0.0093467617 -0.14222583 0.5
0.010604823 -0.14165694 0.49800003
0.011876375 -0.14137247 0.49700001
0.013142725 -0.14108804 0.49600002
0.014403873 -0.14080359 0.49500003
0.015659817 -0.14051913 0.49400002
0.016876258 -0.13995022 0.49200001
0.018119195 -0.13966577 0.49100003
0.019356931 -0.13938132 0.49000001
0.02054736 -0.13881242 0.48800004
0.021772087 -0.13852796 0.48700002
0.022991614 -0.13824351 0.48600003
0.024156028 -0.13767461 0.48400003
0.025257528 -0.13682126 0.48100004
0.026343418 -0.1359679 0.47800002
0.027413702 -0.13511455 0.47500002
0.0293187 -0.13255449 0.46600002
0.030268835 -0.13141668 0.46200001
0.031198164 -0.13027887 0.45800003
0.032106683 -0.12914106 0.45400003
0.033067714 -0.1282877 0.45100003
0.034089055 -0.12771881 0.44900003
0.035178516 -0.12743434 0.44800001
0.036100522 -0.126581 0.44500002
0.037090652 -0.12601209 0.44300002
0.038070373 -0.12544319 0.44100001
0.038950764 -0.12458984 0.43800002
0.039907072 -0.12402093 0.43600002
0.040758848 -0.12316758 0.43300003
0.041788474 -0.12288312 0.43200001
0.042614236 -0.12202977 0.42900002
0.043628264 -0.12174532 0.42800003
0.044637084 -0.12146086 0.42700002
0.045640703 -0.12117641 0.42600003
0.046529379 -0.12060751 0.42400002
0.047519989 -0.12032305 0.42300001
0.048390456 -0.11975416 0.42100003
0.049132973 -0.1189008 0.41800001
0.049859889 -0.11804745 0.41500002
0.051179286 -0.11378067 0.40000001
0.051567055 -0.11235841 0.39500001
0.05232827 -0.1117895 0.39300001
0.05307908 -0.11122061 0.39100003
0.053957831 -0.11093615 0.39000002
0.054831389 -0.1106517 0.38900003
0.055699736 -0.11036725 0.38800001
0.056709044 -0.11036725 0.38800001
0.057718348 -0.11036725 0.38800001
0.0802138 -0.14819932 0.52100003
0.081412517 -0.14791487 0.52000004
0.082765199 -0.14791487 0.52000004
0.083956107 -0.14763042 0.51900005
0.085470557 -0.14791487 0.52000004
0.086823232 -0.14791487 0.52000004
0.08800634 -0.14763042 0.51900005
0.089356415 -0.14763042 0.51900005
0.090881258 -0.14791487 0.52000004
0.092233941 -0.14791487 0.52000004
0.093586616 -0.14791487 0.52000004
0.094939299 -0.14791487 0.52000004
0.096291967 -0.14791487 0.52000004
0.097644642 -0.14791487 0.52000004
0.098997325 -0.14791487 0.52000004
0.10035 -0.14791487 0.52000004
0.1015071 -0.14763042 0.51900005
0.10285717 -0.14763042 0.51900005
0.10420725 -0.14763042 0.51900005
0.10555732 -0.14763042 0.51900005
0.1069074 -0.14763042 0.51900005
0.10825748 -0.14763042 0.51900005
0.10960755 -0.14763042 0.51900005
0.11095763 -0.14763042 0.51900005
0.1123077 -0.14763042 0.51900005
0.11365778 -0.14763042 0.51900005
0.11500785 -0.14763042 0.51900005
0.11635793 -0.14763042 0.51900005
0.11770801 -0.14763042 0.51900005
0.11905808 -0.14763042 0.51900005
0.12040816 -0.14763042 0.51900005
0.12175824 -0.14763042 0.51900005
0.12310831 -0.14763042 0.51900005
0.12445839 -0.14763042 0.51900005
0.12580846 -0.14763042 0.51900005
0.12715854 -0.14763042 0.51900005
0.12850861 -0.14763042 0.51900005
0.12985869 -0.14763042 0.51900005
0.13120876 -0.14763042 0.51900005
0.13255885 -0.14763042 0.51900005
0.13390893 -0.14763042 0.51900005
0.13525899 -0.14763042 0.51900005
0.13660906 -0.14763042 0.51900005
0.13795915 -0.14763042 0.51900005
0.13930923 -0.14763042 0.51900005
0.1406593 -0.14763042 0.51900005
0.14200938 -0.14763042 0.51900005
0.14335944 -0.14763042 0.51900005
0.14470953 -0.14763042 0.51900005
0.1460596 -0.14763042 0.51900005
0.14769369 -0.14791487 0.52000004
0.14904638 -0.14791487 0.52000004
0.15039904 -0.14791487 0.52000004
0.15175174 -0.14791487 0.52000004
0.15310441 -0.14791487 0.52000004
0.15445709 -0.14791487 0.52000004
0.15610939 -0.14819932 0.52100003
0.15746467 -0.14819932 0.52100003
0.15881996 -0.14819932 0.52100003
0.16017523 -0.14819932 0.52100003
0.16153051 -0.14819932 0.52100003
0.16288579 -0.14819932 0.52100003
0.16424108 -0.14819932 0.52100003
0.16559635 -0.14819932 0.52100003
0.16695163 -0.14819932 0.52100003
0.1683069 -0.14819932 0.52100003
0.16966218 -0.14819932 0.52100003
0.17068923 -0.14791487 0.52000004
0.17204189 -0.14791487 0.52000004
0.17372802 -0.14819932 0.52100003
0.17508329 -0.14819932 0.52100003
0.17643857 -0.14819932 0.52100003
0.17779386 -0.14819932 0.52100003
0.17914914 -0.14819932 0.52100003
0.1805044 -0.14819932 0.52100003
0.18185967 -0.14819932 0.52100003
0.18321495 -0.14819932 0.52100003
0.1849245 -0.14848377 0.52200001
0.18628238 -0.14848377 0.52200001
0.18764025 -0.14848377 0.52200001
0.18899813 -0.14848377 0.52200001
0.18999135 -0.14819932 0.52100003
0.19134663 -0.14819932 0.52100003
0.19270191 -0.14819932 0.52100003
0.19405718 -0.14819932 0.52100003
0.19541246 -0.14819932 0.52100003
0.19676775 -0.14819932 0.52100003
0.19812302 -0.14819932 0.52100003
0.1994783 -0.14819932 0.52100003
0.20083357 -0.14819932 0.52100003
0.20218885 -0.14819932 0.52100003
0.20354414 -0.14819932 0.52100003
0.20489942 -0.14819932 0.52100003
0.20625469 -0.14819932 0.52100003
0.20760997 -0.14819932 0.52100003
0.20896524 -0.14819932 0.52100003
0.21032053 -0.14819932 0.52100003
0.21167581 -0.14819932 0.52100003
0.21303108 -0.14819932 0.52100003
0.21438636 -0.14819932 0.52100003
0.21574163 -0.14819932 0.52100003
0.21709692 -0.14819932 0.52100003
0.2184522 -0.14819932 0.52100003
0.21980748 -0.14819932 0.52100003
0.22116275 -0.14819932 0.52100003
0.22251804 -0.14819932 0.52100003
0.22430301 -0.14848377 0.52200001
0.22566089 -0.14848377 0.52200001
0.22701876 -0.14848377 0.52200001
0.22837664 -0.14848377 0.52200001
0.22973453 -0.14848377 0.52200001
0.23109241 -0.14848377 0.52200001
0.23245029 -0.14848377 0.52200001
0.23380816 -0.14848377 0.52200001
0.23516604 -0.14848377 0.52200001
0.23652393 -0.14848377 0.52200001
0.23788181 -0.14848377 0.52200001
0.23923968 -0.14848377 0.52200001
0.24059756 -0.14848377 0.52200001
0.24149193 -0.14819932 0.52100003
0.24284722 -0.14819932 0.52100003
0.24420249 -0.14819932 0.52100003
0.24555777 -0.14819932 0.52100003
0.24691305 -0.14819932 0.52100003
0.24874485 -0.14848377 0.52200001
0.25010273 -0.14848377 0.52200001
0.25146061 -0.14848377 0.52200001
-0.27809709 -0.14092518 0.5
-0.27679646 -0.14092518 0.5
-0.2754958 -0.14092518 0.5
-0.27419516 -0.14092518 0.5
-0.2728945 -0.14092518 0.5
-0.27159384 -0.14092518 0.5
-0.27083382 -0.14120705 0.50100005
-0.26953056 -0.14120705 0.50100005
-0.26822731 -0.14120705 0.50100005
-0.26692405 -0.14120705 0.50100005
-0.26615095 -0.14148889 0.50200003
-0.26484513 -0.14148889 0.50200003
-0.26406422 -0.14177074 0.50300002
-0.26275581 -0.14177074 0.50300002
-0.26144734 -0.14177074 0.50300002
-0.26065603 -0.14205259 0.50400001
-0.259345 -0.14205259 0.50400001
-0.25803393 -0.14205259 0.50400001
-0.25723225 -0.14233443 0.505
-0.25541183 -0.14205259 0.50400001
-0.25410074 -0.14205259 0.50400001
-0.25278971 -0.14205259 0.50400001
-0.25147864 -0.14205259 0.50400001
-0.24967124 -0.14177074 0.50300002
-0.24836278 -0.14177074 0.50300002
-0.24705434 -0.14177074 0.50300002
-0.24574587 -0.14177074 0.50300002
-0.24395145 -0.14148889 0.50200003
-0.24264561 -0.14148889 0.50200003
-0.24133976 -0.14148889 0.50200003
-0.24003391 -0.14148889 0.50200003
-0.23872805 -0.14148889 0.50200003
-0.2374222 -0.14148889 0.50200003
-0.23611635 -0.14148889 0.50200003
-0.23481049 -0.14148889 0.50200003
-0.23350462 -0.14148889 0.50200003
-0.23219877 -0.14148889 0.50200003
-0.23089293 -0.14148889 0.50200003
-0.22958708 -0.14148889 0.50200003
-0.22828123 -0.14148889 0.50200003
-0.2274275 -0.14177074 0.50300002
-0.22611904 -0.14177074 0.50300002
-0.22481059 -0.14177074 0.50300002
-0.22350214 -0.14177074 0.50300002
-0.22263542 -0.14205259 0.50400001
-0.22132435 -0.14205259 0.50400001
-0.22001331 -0.14205259 0.50400001
-0.21870224 -0.14205259 0.50400001
-0.21782252 -0.14233443 0.505
-0.21650887 -0.14233443 0.505
-0.21519519 -0.14233443 0.505
-0.21388154 -0.14233443 0.505
-0.21256788 -0.14233443 0.505
-0.21125424 -0.14233443 0.505
-0.20994058 -0.14233443 0.505
-0.20862691 -0.14233443 0.505
-0.20731325 -0.14233443 0.505
-0.2059996 -0.14233443 0.505
-0.20468594 -0.14233443 0.505
-0.20337227 -0.14233443 0.505
-0.20205863 -0.14233443 0.505
-0.20074497 -0.14233443 0.505
-0.19943132 -0.14233443 0.505
-0.19811766 -0.14233443 0.505
-0.19680399 -0.14233443 0.505
-0.19549033 -0.14233443 0.505
-0.19417667 -0.14233443 0.505
-0.19286303 -0.14233443 0.505
-0.19154938 -0.14233443 0.505
-0.1902357 -0.14233443 0.505
-0.18854795 -0.14205259 0.50400001
-0.18723689 -0.14205259 0.50400001
-0.18592584 -0.14205259 0.50400001
-0.18498108 -0.14233443 0.505
-0.18330373 -0.14205259 0.50400001
-0.18199266 -0.14205259 0.50400001
-0.18068162 -0.14205259 0.50400001
-0.17937057 -0.14205259 0.50400001
-0.17841278 -0.14233443 0.505
-0.17709912 -0.14233443 0.505
-0.17578548 -0.14233443 0.505
-0.17447183 -0.14233443 0.505
-0.17315817 -0.14233443 0.505
-0.1718445 -0.14233443 0.505
-0.17053084 -0.14233443 0.505
-0.16921718 -0.14233443 0.505
-0.16790353 -0.14233443 0.505
-0.16658989 -0.14233443 0.505
-0.16527621 -0.14233443 0.505
-0.16396256 -0.14233443 0.505
-0.1626489 -0.14233443 0.505
-0.16133524 -0.14233443 0.505
-0.16002159 -0.14233443 0.505
-0.15870792 -0.14233443 0.505
-0.15739428 -0.14233443 0.505
-0.15608062 -0.14233443 0.505
-0.15476696 -0.14233443 0.505
-0.15345329 -0.14233443 0.505
-0.15213963 -0.14233443 0.505
-0.15112466 -0.1426163 0.50600004
-0.14980841 -0.1426163 0.50600004
-0.14849216 -0.1426163 0.50600004
-0.14717588 -0.1426163 0.50600004
-0.14585963 -0.1426163 0.50600004
-0.14454336 -0.1426163 0.50600004
-0.14322712 -0.1426163 0.50600004
-0.14191085 -0.1426163 0.50600004
-0.14059459 -0.1426163 0.50600004
-0.13927834 -0.1426163 0.50600004
-0.13796207 -0.1426163 0.50600004
-0.13664582 -0.1426163 0.50600004
-0.13532956 -0.1426163 0.50600004
-0.1340133 -0.1426163 0.50600004
-0.13269703 -0.1426163 0.50600004
-0.13138078 -0.1426163 0.50600004
-0.13006453 -0.1426163 0.50600004
-0.12874825 -0.1426163 0.50600004
-0.127432 -0.1426163 0.50600004
-0.12611574 -0.1426163 0.50600004
-0.075182281 -0.11837716 0.42000002
-0.073866203 -0.11978641 0.42500001
-0.072760649 -0.11978641 0.42500001
-0.071823694 -0.12006827 0.42600003
-0.071047544 -0.12063196 0.42800003
-0.070097581 -0.12091381 0.42900002
-0.069303215 -0.12147751 0.43100002
-0.06849844 -0.12204122 0.43300003
-0.067683265 -0.12260492 0.43500003
-0.066857688 -0.12316861 0.43700001
-0.066021696 -0.12373231 0.43900001
-0.065323099 -0.12457787 0.44200003
-0.064608887 -0.12542342 0.44500002
-0.063879065 -0.12626897 0.44800001
-0.063133642 -0.12711452 0.45100003
-0.06237261 -0.12796007 0.45400003
-0.061595969 -0.12880562 0.45700002
-0.060803715 -0.12965117 0.46000001
-0.059995864 -0.13049673 0.46300003
-0.059172396 -0.13134228 0.46600002
-0.058333322 -0.13218783 0.46900001
-0.057356868 -0.13275152 0.47100002
-0.056370005 -0.13331524 0.47300002
-0.055489309 -0.13416077 0.47600001
-0.054365069 -0.13444263 0.47700003
-0.053458359 -0.13528818 0.48000002
-0.052427273 -0.13585189 0.48200002
-0.051385786 -0.13641559 0.48400003
-0.050333891 -0.13697928 0.48600003
-0.049271591 -0.13754299 0.48800004
-0.048297253 -0.13838854 0.49100003
-0.047211539 -0.13895224 0.49300003
-0.046115421 -0.13951594 0.49500003
-0.04509946 -0.14036149 0.49800003
-0.043979928 -0.14092518 0.5
-0.042764638 -0.14120705 0.50100005
-0.041626897 -0.14177074 0.50300002
-0.040478755 -0.14233443 0.505
-0.039242655 -0.1426163 0.50600004
-0.038001351 -0.14289814 0.50700003
-0.03668249 -0.14289814 0.50700003
-0.035433378 -0.14318 0.50800002
-0.034111917 -0.14318 0.50800002
-0.032790456 -0.14318 0.50800002
-0.031468995 -0.14318 0.50800002
-0.030147534 -0.14318 0.50800002
-0.028769327 -0.14289814 0.50700003
-0.027450467 -0.14289814 0.50700003
-0.026131608 -0.14289814 0.50700003
-0.024763808 -0.1426163 0.50600004
-0.023447547 -0.1426163 0.50600004
-0.02208755 -0.14233443 0.505
-0.020773893 -0.14233443 0.505
-0.019460235 -0.14233443 0.505
-0.018146578 -0.14233443 0.505
-0.01683292 -0.14233443 0.505
-0.015519263 -0.14233443 0.505
-0.014205605 -0.14233443 0.505
-0.012891948 -0.14233443 0.505
-0.011601219 -0.1426163 0.50600004
-0.010284959 -0.1426163 0.50600004
-0.0089864256 -0.14289814 0.50700003
-0.0076675653 -0.14289814 0.50700003
-0.0063612266 -0.14318 0.50800002
-0.0050397655 -0.14318 0.50800002
-0.003718304 -0.14318 0.50800002
-0.0023968425 -0.14318 0.50800002
-0.0010753812 -0.14318 0.50800002
0.00024559585 -0.14289814 0.50700003
0.001564456 -0.14289814 0.50700003
0.0028776291 -0.1426163 0.50600004
0.0041855993 -0.14233443 0.505
0.0054883673 -0.14205259 0.50400001
0.0067859329 -0.14177074 0.50300002
0.0080782957 -0.14148889 0.50200003
0.0093467617 -0.14092518 0.5
0.010626118 -0.14064334 0.49900001
0.011900272 -0.14036149 0.49800003
0.013169223 -0.14007963 0.49700001
0.014432972 -0.13979779 0.49600002
0.015691517 -0.13951594 0.49500003
0.016944861 -0.13923408 0.49400002
0.018156098 -0.13867038 0.49200001
0.019396435 -0.13838854 0.49100003
0.020631569 -0.13810669 0.49000001
0.021861499 -0.13782483 0.48900002
0.023038922 -0.13726114 0.48700002
0.024255848 -0.13697928 0.48600003
0.025415057 -0.13641559 0.48400003
0.026563866 -0.13585189 0.48200002
0.030530903 -0.13134228 0.46600002
0.031402521 -0.12993303 0.46100003
0.032318842 -0.12880562 0.45700002
0.033287674 -0.12796007 0.45400003
0.034240901 -0.12711452 0.45100003
0.035178516 -0.12626897 0.44800001
0.036181647 -0.12570527 0.44600001
0.037258103 -0.12542342 0.44500002
0.038156703 -0.12457787 0.44200003
0.039998602 -0.12316861 0.43700001
0.040947113 -0.12260492 0.43500003
0.041885208 -0.12204122 0.43300003
0.042812906 -0.12147751 0.43100002
0.043730196 -0.12091381 0.42900002
0.044741619 -0.12063196 0.42800003
0.045640703 -0.12006827 0.42600003
0.046639118 -0.11978641 0.42500001
0.047632333 -0.11950456 0.42400002
0.048505396 -0.11894086 0.42200002
0.049250521 -0.11809532 0.41900003
0.050325699 -0.11555866 0.41000003
0.050765499 -0.11414941 0.40500003
0.051179286 -0.11274015 0.40000001
0.05143651 -0.11104905 0.39400002
0.052061975 -0.1102035 0.39100003
0.052943327 -0.10992165 0.39000002
0.053819478 -0.1096398 0.38900003
0.054690432 -0.10935795 0.38800001
0.055556182 -0.1090761 0.38700002
0.056562889 -0.1090761 0.38700002
0.057569589 -0.1090761 0.38700002
0.0802138 -0.14684404 0.52100003
0.081412517 -0.1465622 0.52000004
0.082765199 -0.1465622 0.52000004
0.084117875 -0.1465622 0.52000004
0.085470557 -0.1465622 0.52000004
0.086823232 -0.1465622 0.52000004
0.088175908 -0.1465622 0.52000004
0.089528583 -0.1465622 0.52000004
0.090881258 -0.1465622 0.52000004
0.092233941 -0.1465622 0.52000004
0.093586616 -0.1465622 0.52000004
0.094939299 -0.1465622 0.52000004
0.096291967 -0.1465622 0.52000004
0.097644642 -0.1465622 0.52000004
0.098997325 -0.1465622 0.52000004
0.10035 -0.1465622 0.52000004
0.1015071 -0.14628036 0.51900005
0.10285717 -0.14628036 0.51900005
0.10420725 -0.14628036 0.51900005
0.10555732 -0.14628036 0.51900005
0.1069074 -0.14628036 0.51900005
0.10825748 -0.14628036 0.51900005
0.10960755 -0.14628036 0.51900005
0.11095763 -0.14628036 0.51900005
0.1123077 -0.14628036 0.51900005
0.11365778 -0.14628036 0.51900005
0.11500785 -0.14628036 0.51900005
0.11635793 -0.14628036 0.51900005
0.11770801 -0.14628036 0.51900005
0.11905808 -0.14628036 0.51900005
0.12040816 -0.14628036 0.51900005
0.12175824 -0.14628036 0.51900005
0.12310831 -0.14628036 0.51900005
0.12445839 -0.14628036 0.51900005
0.12580846 -0.14628036 0.51900005
0.12715854 -0.14628036 0.51900005
0.12850861 -0.14628036 0.51900005
0.12985869 -0.14628036 0.51900005
0.13120876 -0.14628036 0.51900005
0.13255885 -0.14628036 0.51900005
0.13390893 -0.14628036 0.51900005
0.13525899 -0.14628036 0.51900005
0.13660906 -0.14628036 0.51900005
0.13795915 -0.14628036 0.51900005
0.13930923 -0.14628036 0.51900005
0.1406593 -0.14628036 0.51900005
0.14200938 -0.14628036 0.51900005
0.14335944 -0.14628036 0.51900005
0.14470953 -0.14628036 0.51900005
0.1460596 -0.14628036 0.51900005
0.14769369 -0.1465622 0.52000004
0.14904638 -0.1465622 0.52000004
0.15039904 -0.1465622 0.52000004
0.15175174 -0.1465622 0.52000004
0.15310441 -0.1465622 0.52000004
0.15445709 -0.1465622 0.52000004
0.15610939 -0.14684404 0.52100003
0.15746467 -0.14684404 0.52100003
0.15881996 -0.14684404 0.52100003
0.16017523 -0.14684404 0.52100003
0.16153051 -0.14684404 0.52100003
0.16288579 -0.14684404 0.52100003
0.16424108 -0.14684404 0.52100003
0.16559635 -0.14684404 0.52100003
0.16695163 -0.14684404 0.52100003
0.1683069 -0.14684404 0.52100003
0.16966218 -0.14684404 0.52100003
0.17101747 -0.14684404 0.52100003
0.17237274 -0.14684404 0.52100003
0.17372802 -0.14684404 0.52100003
0.17508329 -0.14684404 0.52100003
0.17643857 -0.14684404 0.52100003
0.17779386 -0.14684404 0.52100003
0.17914914 -0.14684404 0.52100003
0.1805044 -0.14684404 0.52100003
0.18185967 -0.14684404 0.52100003
0.18321495 -0.14684404 0.52100003
0.18457024 -0.14684404 0.52100003
0.18592551 -0.14684404 0.52100003
0.18728079 -0.14684404 0.52100003
0.18863606 -0.14684404 0.52100003
0.18999135 -0.14684404 0.52100003
0.19134663 -0.14684404 0.52100003
0.19270191 -0.14684404 0.52100003
0.19405718 -0.14684404 0.52100003
0.19541246 -0.14684404 0.52100003
0.19676775 -0.14684404 0.52100003
0.19812302 -0.14684404 0.52100003
0.1994783 -0.14684404 0.52100003
0.20083357 -0.14684404 0.52100003
0.20218885 -0.14684404 0.52100003
0.20354414 -0.14684404 0.52100003
0.20489942 -0.14684404 0.52100003
0.20625469 -0.14684404 0.52100003
0.20760997 -0.14684404 0.52100003
0.20896524 -0.14684404 0.52100003
0.21032053 -0.14684404 0.52100003
0.21167581 -0.14684404 0.52100003
0.21303108 -0.14684404 0.52100003
0.21397488 -0.1465622 0.52000004
0.21532755 -0.1465622 0.52000004
0.21709692 -0.14684404 0.52100003
0.2184522 -0.14684404 0.52100003
0.21980748 -0.14684404 0.52100003
0.22116275 -0.14684404 0.52100003
0.22251804 -0.14684404 0.52100003
0.22430301 -0.1471259 0.52200001
0.22566089 -0.1471259 0.52200001
0.22701876 -0.1471259 0.52200001
0.22837664 -0.1471259 0.52200001
0.22973453 -0.1471259 0.52200001
0.23109241 -0.1471259 0.52200001
0.23245029 -0.1471259 0.52200001
0.23425606 -0.14740774 0.523
0.23516604 -0.1471259 0.52200001
0.23652393 -0.1471259 0.52200001
0.23788181 -0.1471259 0.52200001
0.23923968 -0.1471259 0.52200001
0.24059756 -0.1471259 0.52200001
0.24149193 -0.14684404 0.52100003
0.24284722 -0.14684404 0.52100003
0.24420249 -0.14684404 0.52100003
0.24555777 -0.14684404 0.52100003
0.24691305 -0.14684404 0.52100003
0.24826834 -0.14684404 0.52100003
0.24962361 -0.14684404 0.52100003
0.25146061 -0.1471259 0.52200001
-0.27809709 -0.13962454 0.5
-0.27679646 -0.13962454 0.5
-0.2754958 -0.13962454 0.5
-0.27419516 -0.13962454 0.5
-0.2728945 -0.13962454 0.5
-0.27159384 -0.13962454 0.5
-0.27029321 -0.13962454 0.5
-0.26953056 -0.1399038 0.50100005
-0.26822731 -0.1399038 0.50100005
-0.26692405 -0.1399038 0.50100005
-0.26615095 -0.14018305 0.50200003
-0.26484513 -0.14018305 0.50200003
-0.26353925 -0.14018305 0.50200003
-0.26275581 -0.14046229 0.50300002
-0.26144734 -0.14046229 0.50300002
-0.26065603 -0.14074154 0.50400001
-0.259345 -0.14074154 0.50400001
-0.25803393 -0.14074154 0.50400001
-0.2567229 -0.14074154 0.50400001
-0.25541183 -0.14074154 0.50400001
-0.25410074 -0.14074154 0.50400001
-0.25278971 -0.14074154 0.50400001
-0.25147864 -0.14074154 0.50400001
-0.25016761 -0.14074154 0.50400001
-0.24836278 -0.14046229 0.50300002
-0.24705434 -0.14046229 0.50300002
-0.24574587 -0.14046229 0.50300002
-0.24443741 -0.14046229 0.50300002
-0.24312896 -0.14046229 0.50300002
-0.24182051 -0.14046229 0.50300002
-0.24051206 -0.14046229 0.50300002
-0.23920359 -0.14046229 0.50300002
-0.2374222 -0.14018305 0.50200003
-0.23611635 -0.14018305 0.50200003
-0.23481049 -0.14018305 0.50200003
-0.23350462 -0.14018305 0.50200003
-0.23219877 -0.14018305 0.50200003
-0.23089293 -0.14018305 0.50200003
-0.22958708 -0.14018305 0.50200003
-0.22828123 -0.14018305 0.50200003
-0.22697537 -0.14018305 0.50200003
-0.22611904 -0.14046229 0.50300002
-0.22481059 -0.14046229 0.50300002
-0.22350214 -0.14046229 0.50300002
-0.22219369 -0.14046229 0.50300002
-0.22132435 -0.14074154 0.50400001
-0.22001331 -0.14074154 0.50400001
-0.21870224 -0.14074154 0.50400001
-0.21739119 -0.14074154 0.50400001
-0.21608014 -0.14074154 0.50400001
-0.21476907 -0.14074154 0.50400001
-0.21345802 -0.14074154 0.50400001
-0.21214697 -0.14074154 0.50400001
-0.21125424 -0.14102077 0.505
-0.20994058 -0.14102077 0.505
-0.20862691 -0.14102077 0.505
-0.20731325 -0.14102077 0.505
-0.2059996 -0.14102077 0.505
-0.20468594 -0.14102077 0.505
-0.20337227 -0.14102077 0.505
-0.20205863 -0.14102077 0.505
-0.20074497 -0.14102077 0.505
-0.19943132 -0.14102077 0.505
-0.19811766 -0.14102077 0.505
-0.19680399 -0.14102077 0.505
-0.19549033 -0.14102077 0.505
-0.19417667 -0.14102077 0.505
-0.19286303 -0.14102077 0.505
-0.19154938 -0.14102077 0.505
-0.1902357 -0.14102077 0.505
-0.18892205 -0.14102077 0.505
-0.18723689 -0.14074154 0.50400001
-0.18592584 -0.14074154 0.50400001
-0.18498108 -0.14102077 0.505
-0.18330373 -0.14074154 0.50400001
-0.18235376 -0.14102077 0.505
-0.18104011 -0.14102077 0.505
-0.17972645 -0.14102077 0.505
-0.17841278 -0.14102077 0.505
-0.17709912 -0.14102077 0.505
-0.17578548 -0.14102077 0.505
-0.17447183 -0.14102077 0.505
-0.17315817 -0.14102077 0.505
-0.1718445 -0.14102077 0.505
-0.17053084 -0.14102077 0.505
-0.16921718 -0.14102077 0.505
-0.16790353 -0.14102077 0.505
-0.16658989 -0.14102077 0.505
-0.16527621 -0.14102077 0.505
-0.16396256 -0.14102077 0.505
-0.1626489 -0.14102077 0.505
-0.16133524 -0.14102077 0.505
-0.16002159 -0.14102077 0.505
-0.15870792 -0.14102077 0.505
-0.15739428 -0.14102077 0.505
-0.15608062 -0.14102077 0.505
-0.15507345 -0.14130004 0.50600004
-0.15375717 -0.14130004 0.50600004
-0.15244092 -0.14130004 0.50600004
-0.15112466 -0.14130004 0.50600004
-0.14980841 -0.14130004 0.50600004
-0.14849216 -0.14130004 0.50600004
-0.14717588 -0.14130004 0.50600004
-0.14585963 -0.14130004 0.50600004
-0.14454336 -0.14130004 0.50600004
-0.14322712 -0.14130004 0.50600004
-0.14191085 -0.14130004 0.50600004
-0.14059459 -0.14130004 0.50600004
-0.13927834 -0.14130004 0.50600004
-0.13796207 -0.14130004 0.50600004
-0.13664582 -0.14130004 0.50600004
-0.13532956 -0.14130004 0.50600004
-0.1340133 -0.14130004 0.50600004
-0.13269703 -0.14130004 0.50600004
-0.13138078 -0.14130004 0.50600004
-0.13032156 -0.14157929 0.50700003
-0.12874825 -0.14130004 0.50600004
-0.127432 -0.14130004 0.50600004
-0.12611574 -0.14130004 0.50600004
-0.12479949 -0.14130004 0.50600004
-0.07421381 -0.11923936 0.42700002
-0.073103055 -0.11923936 0.42700002
-0.072329499 -0.11979786 0.42900002
-0.071379535 -0.1200771 0.43000001
-0.07042437 -0.12035636 0.43100002
-0.069464013 -0.1206356 0.43200001
-0.068656631 -0.1211941 0.43400002
-0.067838863 -0.1217526 0.43600002
-0.067010678 -0.1223111 0.43800002
-0.066172086 -0.1228696 0.44000003
-0.065470889 -0.12370735 0.44300002
-0.064754069 -0.12454509 0.44600001
-0.064021654 -0.12538284 0.44900003
-0.063273624 -0.12622058 0.45200002
-0.06264738 -0.12733759 0.45600003
-0.061865538 -0.12817533 0.45900002
-0.06106808 -0.12901308 0.46200001
-0.060384605 -0.13013007 0.46600002
-0.059426352 -0.13068858 0.46800002
-0.058582079 -0.13152632 0.47100002
-0.05760042 -0.13208482 0.47300002
-0.056608357 -0.13264331 0.47500002
-0.055605885 -0.13320181 0.47700003
-0.054706983 -0.13403957 0.48000002
-0.053681102 -0.13459806 0.48200002
-0.052644815 -0.13515656 0.48400003
-0.051598124 -0.13571505 0.48600003
-0.050541025 -0.13627356 0.48800004
-0.04947352 -0.13683204 0.49000001
-0.048395615 -0.13739055 0.49200001
-0.047403067 -0.1382283 0.49500003
-0.046301745 -0.13878679 0.49700001
-0.045190018 -0.13934529 0.49900001
-0.044067893 -0.1399038 0.50100005
-0.042849995 -0.14018305 0.50200003
-0.041709654 -0.14074154 0.50400001
-0.040478755 -0.14102077 0.505
-0.039320212 -0.14157929 0.50700003
-0.038001351 -0.14157929 0.50700003
-0.036754839 -0.14185853 0.50800002
-0.035433378 -0.14185853 0.50800002
-0.034111917 -0.14185853 0.50800002
-0.032790456 -0.14185853 0.50800002
-0.031468995 -0.14185853 0.50800002
-0.030147534 -0.14185853 0.50800002
-0.028826071 -0.14185853 0.50800002
-0.027450467 -0.14157929 0.50700003
-0.026131608 -0.14157929 0.50700003
-0.024763808 -0.14130004 0.50600004
-0.023447547 -0.14130004 0.50600004
-0.02208755 -0.14102077 0.505
-0.020773893 -0.14102077 0.505
-0.019460235 -0.14102077 0.505
-0.018146578 -0.14102077 0.505
-0.01683292 -0.14102077 0.505
-0.015519263 -0.14102077 0.505
-0.014205605 -0.14102077 0.505
-0.012917478 -0.14130004 0.50600004
-0.011601219 -0.14130004 0.50600004
-0.010305285 -0.14157929 0.50700003
-0.0089864256 -0.14157929 0.50700003
-0.0076675653 -0.14157929 0.50700003
-0.0063612266 -0.14185853 0.50800002
-0.0050397655 -0.14185853 0.50800002
-0.003718304 -0.14185853 0.50800002
-0.0023968425 -0.14185853 0.50800002
-0.0010753812 -0.14185853 0.50800002
0.00024559585 -0.14157929 0.50700003
0.001564456 -0.14157929 0.50700003
0.0028776291 -0.14130004 0.50600004
0.0041855993 -0.14102077 0.505
0.0054992568 -0.14102077 0.505
0.0067859329 -0.14046229 0.50300002
0.0080782957 -0.14018305 0.50200003
0.0093654562 -0.1399038 0.50100005
0.010647412 -0.13962454 0.5
0.011924168 -0.13934529 0.49900001
0.013195721 -0.13906604 0.49800003
0.014462071 -0.13878679 0.49700001
0.015723217 -0.13850754 0.49600002
0.016979164 -0.1382283 0.49500003
0.018229904 -0.13794905 0.49400002
0.019435938 -0.13739055 0.49200001
0.020673675 -0.13711131 0.49100003
0.021906206 -0.13683204 0.49000001
0.023133537 -0.1365528 0.48900002
0.024355667 -0.13627356 0.48800004
0.025520079 -0.13571505 0.48600003
0.026674088 -0.13515656 0.48400003
0.02775998 -0.13431881 0.48100004
0.028769948 -0.13320181 0.47700003
0.029822025 -0.13236406 0.47400004
0.030792972 -0.13124707 0.47000003
0.031606872 -0.12957157 0.46400002
0.03246028 -0.12817533 0.45900002
0.033360995 -0.12705833 0.45500001
0.034316823 -0.12622058 0.45200002
0.035257041 -0.12538284 0.44900003
0.036262773 -0.12482435 0.44700003
0.037341829 -0.12454509 0.44600001
0.038243029 -0.12370735 0.44300002
0.039217547 -0.12314884 0.44100001
0.04104124 -0.1217526 0.43600002
0.041981939 -0.1211941 0.43400002
0.042912237 -0.1206356 0.43200001
0.043934066 -0.12035636 0.43100002
0.044846155 -0.11979786 0.42900002
0.045854978 -0.11951862 0.42800003
0.046858594 -0.11923936 0.42700002
0.047744669 -0.11868086 0.42500001
0.048620336 -0.11812236 0.42300001
0.049485605 -0.11756387 0.42100003
0.051928822 -0.10890714 0.39000002
0.052807577 -0.1086279 0.38900003
0.053681124 -0.10834865 0.38800001
0.054549478 -0.1080694 0.38700002
0.055556182 -0.1080694 0.38700002
0.056562889 -0.1080694 0.38700002
0.057569589 -0.1080694 0.38700002
0.0802138 -0.14548877 0.52100003
0.081412517 -0.14520954 0.52000004
0.082765199 -0.14520954 0.52000004
0.084117875 -0.14520954 0.52000004
0.085470557 -0.14520954 0.52000004
0.086823232 -0.14520954 0.52000004
0.08800634 -0.14493029 0.51900005
0.089528583 -0.14520954 0.52000004
0.09070649 -0.14493029 0.51900005
0.092233941 -0.14520954 0.52000004
0.093586616 -0.14520954 0.52000004
0.094939299 -0.14520954 0.52000004
0.096291967 -0.14520954 0.52000004
0.097644642 -0.14520954 0.52000004
0.098997325 -0.14520954 0.52000004
0.10035 -0.14520954 0.52000004
0.10170268 -0.14520954 0.52000004
0.10305535 -0.14520954 0.52000004
0.10440803 -0.14520954 0.52000004
0.10555732 -0.14493029 0.51900005
0.1069074 -0.14493029 0.51900005
0.10825748 -0.14493029 0.51900005
0.10960755 -0.14493029 0.51900005
0.11095763 -0.14493029 0.51900005
0.1123077 -0.14493029 0.51900005
0.11365778 -0.14493029 0.51900005
0.11500785 -0.14493029 0.51900005
0.11635793 -0.14493029 0.51900005
0.11770801 -0.14493029 0.51900005
0.11905808 -0.14493029 0.51900005
0.12040816 -0.14493029 0.51900005
0.12175824 -0.14493029 0.51900005
0.12310831 -0.14493029 0.51900005
0.12445839 -0.14493029 0.51900005
0.12580846 -0.14493029 0.51900005
0.12715854 -0.14493029 0.51900005
0.12850861 -0.14493029 0.51900005
0.12985869 -0.14493029 0.51900005
0.13120876 -0.14493029 0.51900005
0.13255885 -0.14493029 0.51900005
0.13390893 -0.14493029 0.51900005
0.13525899 -0.14493029 0.51900005
0.13660906 -0.14493029 0.51900005
0.13795915 -0.14493029 0.51900005
0.13930923 -0.14493029 0.51900005
0.1406593 -0.14493029 0.51900005
0.14200938 -0.14493029 0.51900005
0.14335944 -0.14493029 0.51900005
0.14470953 -0.14493029 0.51900005
0.1460596 -0.14493029 0.51900005
0.14740968 -0.14493029 0.51900005
0.14904638 -0.14520954 0.52000004
0.15039904 -0.14520954 0.52000004
0.15175174 -0.14520954 0.52000004
0.15310441 -0.14520954 0.52000004
0.15445709 -0.14520954 0.52000004
0.15610939 -0.14548877 0.52100003
0.15746467 -0.14548877 0.52100003
0.15881996 -0.14548877 0.52100003
0.16017523 -0.14548877 0.52100003
0.16153051 -0.14548877 0.52100003
0.16288579 -0.14548877 0.52100003
0.16424108 -0.14548877 0.52100003
0.16559635 -0.14548877 0.52100003
0.16695163 -0.14548877 0.52100003
0.1683069 -0.14548877 0.52100003
0.16966218 -0.14548877 0.52100003
0.17101747 -0.14548877 0.52100003
0.17237274 -0.14548877 0.52100003
0.17372802 -0.14548877 0.52100003
0.17508329 -0.14548877 0.52100003
0.17643857 -0.14548877 0.52100003
0.17779386 -0.14548877 0.52100003
0.17914914 -0.14548877 0.52100003
0.1805044 -0.14548877 0.52100003
0.18185967 -0.14548877 0.52100003
0.18321495 -0.14548877 0.52100003
0.18457024 -0.14548877 0.52100003
0.18592551 -0.14548877 0.52100003
0.18728079 -0.14548877 0.52100003
0.18863606 -0.14548877 0.52100003
0.18999135 -0.14548877 0.52100003
0.19134663 -0.14548877 0.52100003
0.19270191 -0.14548877 0.52100003
0.19405718 -0.14548877 0.52100003
0.19541246 -0.14548877 0.52100003
0.19676775 -0.14548877 0.52100003
0.19812302 -0.14548877 0.52100003
0.1994783 -0.14548877 0.52100003
0.20083357 -0.14548877 0.52100003
0.20218885 -0.14548877 0.52100003
0.20354414 -0.14548877 0.52100003
0.20489942 -0.14548877 0.52100003
0.20625469 -0.14548877 0.52100003
0.20760997 -0.14548877 0.52100003
0.20896524 -0.14548877 0.52100003
0.21032053 -0.14548877 0.52100003
0.21167581 -0.14548877 0.52100003
0.2126222 -0.14520954 0.52000004
0.21397488 -0.14520954 0.52000004
0.21532755 -0.14520954 0.52000004
0.21709692 -0.14548877 0.52100003
0.2184522 -0.14548877 0.52100003
0.21980748 -0.14548877 0.52100003
0.22116275 -0.14548877 0.52100003
0.22251804 -0.14548877 0.52100003
0.22430301 -0.14576802 0.52200001
0.22566089 -0.14576802 0.52200001
0.22701876 -0.14576802 0.52200001
0.22837664 -0.14576802 0.52200001
0.22973453 -0.14576802 0.52200001
0.23109241 -0.14576802 0.52200001
0.23245029 -0.14576802 0.52200001
0.23425606 -0.14604726 0.523
0.23516604 -0.14576802 0.52200001
0.23652393 -0.14576802 0.52200001
0.23788181 -0.14576802 0.52200001
0.23923968 -0.14576802 0.52200001
0.24059756 -0.14576802 0.52200001
0.24149193 -0.14548877 0.52100003
0.24284722 -0.14548877 0.52100003
0.24420249 -0.14548877 0.52100003
0.24555777 -0.14548877 0.52100003
0.24691305 -0.14548877 0.52100003
0.24826834 -0.14548877 0.52100003
0.25010273 -0.14576802 0.52200001
0.25146061 -0.14576802 0.52200001
-0.27865332 -0.13860054 0.50100005
-0.27679646 -0.13832389 0.5
-0.2754958 -0.13832389 0.5
-0.27419516 -0.13832389 0.5
-0.2728945 -0.13832389 0.5
-0.27159384 -0.13832389 0.5
-0.27029321 -0.13832389 0.5
-0.26953056 -0.13860054 0.50100005
-0.26822731 -0.13860054 0.50100005
-0.26692405 -0.13860054 0.50100005
-0.26615095 -0.1388772 0.50200003
-0.26484513 -0.1388772 0.50200003
-0.26353925 -0.1388772 0.50200003
-0.26275581 -0.13915384 0.50300002
-0.26144734 -0.13915384 0.50300002
-0.26013887 -0.13915384 0.50300002
-0.259345 -0.13943048 0.50400001
-0.25803393 -0.13943048 0.50400001
-0.2567229 -0.13943048 0.50400001
-0.25541183 -0.13943048 0.50400001
-0.25410074 -0.13943048 0.50400001
-0.25278971 -0.13943048 0.50400001
-0.25147864 -0.13943048 0.50400001
-0.25016761 -0.13943048 0.50400001
-0.24885654 -0.13943048 0.50400001
-0.24705434 -0.13915384 0.50300002
-0.24574587 -0.13915384 0.50300002
-0.24443741 -0.13915384 0.50300002
-0.24312896 -0.13915384 0.50300002
-0.24182051 -0.13915384 0.50300002
-0.24051206 -0.13915384 0.50300002
-0.23920359 -0.13915384 0.50300002
-0.23789515 -0.13915384 0.50300002
-0.23658669 -0.13915384 0.50300002
-0.23527823 -0.13915384 0.50300002
-0.23396976 -0.13915384 0.50300002
-0.23266132 -0.13915384 0.50300002
-0.23135287 -0.13915384 0.50300002
-0.23004441 -0.13915384 0.50300002
-0.22873597 -0.13915384 0.50300002
-0.2274275 -0.13915384 0.50300002
-0.22611904 -0.13915384 0.50300002
-0.22481059 -0.13915384 0.50300002
-0.22350214 -0.13915384 0.50300002
-0.22219369 -0.13915384 0.50300002
-0.22088522 -0.13915384 0.50300002
-0.21957678 -0.13915384 0.50300002
-0.21870224 -0.13943048 0.50400001
-0.21739119 -0.13943048 0.50400001
-0.21608014 -0.13943048 0.50400001
-0.21476907 -0.13943048 0.50400001
-0.21345802 -0.13943048 0.50400001
-0.21214697 -0.13943048 0.50400001
-0.21083592 -0.13943048 0.50400001
-0.20994058 -0.13970713 0.505
-0.20862691 -0.13970713 0.505
-0.20731325 -0.13970713 0.505
-0.2059996 -0.13970713 0.505
-0.20468594 -0.13970713 0.505
-0.20337227 -0.13970713 0.505
-0.20245875 -0.13998379 0.50600004
-0.2011425 -0.13998379 0.50600004
-0.19982624 -0.13998379 0.50600004
-0.19850999 -0.13998379 0.50600004
-0.19719371 -0.13998379 0.50600004
-0.19549033 -0.13970713 0.505
-0.19417667 -0.13970713 0.505
-0.19286303 -0.13970713 0.505
-0.19154938 -0.13970713 0.505
-0.1902357 -0.13970713 0.505
-0.18892205 -0.13970713 0.505
-0.18760839 -0.13970713 0.505
-0.18629473 -0.13970713 0.505
-0.18498108 -0.13970713 0.505
-0.18330373 -0.13943048 0.50400001
-0.18235376 -0.13970713 0.505
-0.18104011 -0.13970713 0.505
-0.17972645 -0.13970713 0.505
-0.17841278 -0.13970713 0.505
-0.17709912 -0.13970713 0.505
-0.17578548 -0.13970713 0.505
-0.17447183 -0.13970713 0.505
-0.17315817 -0.13970713 0.505
-0.1718445 -0.13970713 0.505
-0.17053084 -0.13970713 0.505
-0.16921718 -0.13970713 0.505
-0.16790353 -0.13970713 0.505
-0.16658989 -0.13970713 0.505
-0.16527621 -0.13970713 0.505
-0.16396256 -0.13970713 0.505
-0.1626489 -0.13970713 0.505
-0.16133524 -0.13970713 0.505
-0.16002159 -0.13970713 0.505
-0.15870792 -0.13970713 0.505
-0.15739428 -0.13970713 0.505
-0.1563897 -0.13998379 0.50600004
-0.15507345 -0.13998379 0.50600004
-0.15375717 -0.13998379 0.50600004
-0.15244092 -0.13998379 0.50600004
-0.15112466 -0.13998379 0.50600004
-0.15010446 -0.14026043 0.50700003
-0.14849216 -0.13998379 0.50600004
-0.14746673 -0.14026043 0.50700003
-0.14614788 -0.14026043 0.50700003
-0.14454336 -0.13998379 0.50600004
-0.14322712 -0.13998379 0.50600004
-0.14191085 -0.13998379 0.50600004
-0.14087243 -0.14026043 0.50700003
-0.13955358 -0.14026043 0.50700003
-0.13823472 -0.14026043 0.50700003
-0.13691586 -0.14026043 0.50700003
-0.13532956 -0.13998379 0.50600004
-0.1340133 -0.13998379 0.50600004
-0.13295928 -0.14026043 0.50700003
-0.13164042 -0.14026043 0.50700003
-0.13032156 -0.14026043 0.50700003
-0.12874825 -0.13998379 0.50600004
-0.127432 -0.13998379 0.50600004
-0.12611574 -0.13998379 0.50600004
-0.12504612 -0.14026043 0.50700003
-0.073445462 -0.1186819 0.42900002
-0.071711533 -0.11951184 0.43200001
-0.070751168 -0.1197885 0.43300003
-0.069785602 -0.12006514 0.43400002
-0.068973027 -0.12061843 0.43600002
-0.068150051 -0.12117174 0.43800002
-0.067163669 -0.12144838 0.43900001
-0.066322476 -0.12200167 0.44100001
-0.065618679 -0.12283162 0.44400004
-0.064899258 -0.12366156 0.44700003
-0.064306833 -0.12476816 0.45100003
-0.063553594 -0.1255981 0.45400003
-0.06292215 -0.12670469 0.45800003
-0.062135104 -0.12753463 0.46100003
-0.06146463 -0.12864122 0.46500003
-0.060643766 -0.12947117 0.46800002
-0.059807289 -0.1303011 0.47100002
-0.058830835 -0.1308544 0.47300002
-0.057843976 -0.13140769 0.47500002
-0.056846708 -0.131961 0.47700003
-0.055955607 -0.13279094 0.48000002
-0.054820959 -0.13306759 0.48100004
-0.053792473 -0.13362087 0.48300001
-0.052862357 -0.13445082 0.48600003
-0.051810462 -0.13500412 0.48800004
-0.050748158 -0.13555741 0.49000001
-0.049675453 -0.13611071 0.49200001
-0.048592344 -0.136664 0.49400002
-0.04749883 -0.1372173 0.49600002
-0.046394907 -0.13777059 0.49800003
-0.045280579 -0.13832389 0.5
-0.044155851 -0.1388772 0.50200003
-0.04302071 -0.13943048 0.50400001
-0.041792411 -0.13970713 0.505
-0.040558916 -0.13998379 0.50600004
-0.039320212 -0.14026043 0.50700003
-0.0380763 -0.14053707 0.50800002
-0.036754839 -0.14053707 0.50800002
-0.035433378 -0.14053707 0.50800002
-0.034111917 -0.14053707 0.50800002
-0.032790456 -0.14053707 0.50800002
-0.031468995 -0.14053707 0.50800002
-0.030147534 -0.14053707 0.50800002
-0.028769327 -0.14026043 0.50700003
-0.027450467 -0.14026043 0.50700003
-0.026131608 -0.14026043 0.50700003
-0.024763808 -0.13998379 0.50600004
-0.023447547 -0.13998379 0.50600004
-0.02208755 -0.13970713 0.505
-0.020773893 -0.13970713 0.505
-0.019460235 -0.13970713 0.505
-0.018146578 -0.13970713 0.505
-0.01683292 -0.13970713 0.505
-0.015519263 -0.13970713 0.505
-0.014205605 -0.13970713 0.505
-0.012917478 -0.13998379 0.50600004
-0.011601219 -0.13998379 0.50600004
-0.010305285 -0.14026043 0.50700003
-0.0089864256 -0.14026043 0.50700003
-0.0076675653 -0.14026043 0.50700003
-0.0063612266 -0.14053707 0.50800002
-0.0050397655 -0.14053707 0.50800002
-0.003718304 -0.14053707 0.50800002
-0.0023968425 -0.14053707 0.50800002
-0.0010753812 -0.14053707 0.50800002
0.00024608025 -0.14053707 0.50800002
0.001564456 -0.14026043 0.50700003
0.002883316 -0.14026043 0.50700003
0.004193888 -0.13998379 0.50600004
0.0054992568 -0.13970713 0.505
0.0067994236 -0.13943048 0.50400001
0.0080943881 -0.13915384 0.50300002
0.0093841497 -0.1388772 0.50200003
0.010668708 -0.13860054 0.50100005
0.011948064 -0.13832389 0.5
0.013222218 -0.13804725 0.49900001
0.01449117 -0.13777059 0.49800003
0.015754918 -0.13749395 0.49700001
0.017013464 -0.1372173 0.49600002
0.018266806 -0.13694066 0.49500003
0.019514946 -0.136664 0.49400002
0.020715781 -0.13611071 0.49200001
0.021950914 -0.13583407 0.49100003
0.023180844 -0.13555741 0.49000001
0.024405574 -0.13528077 0.48900002
0.0256251 -0.13500412 0.48800004
0.026839424 -0.13472748 0.48700002
0.027933119 -0.13389753 0.48400003
0.030073687 -0.13223764 0.47800002
0.031947464 -0.12974781 0.46900001
0.033580959 -0.12670469 0.45800003
0.034468666 -0.1255981 0.45400003
0.035414089 -0.12476816 0.45100003
0.036425024 -0.12421486 0.44900003
0.037425555 -0.12366156 0.44700003
0.038329355 -0.12283162 0.44400004
0.039306477 -0.12227833 0.44200003
0.040273193 -0.12172503 0.44000003
0.042175405 -0.12061843 0.43600002
0.043110907 -0.12006514 0.43400002
0.044036001 -0.11951184 0.43200001
0.045055229 -0.1192352 0.43100002
0.045962114 -0.1186819 0.42900002
0.046968337 -0.11840526 0.42800003
0.047969352 -0.11812861 0.42700002
0.04885022 -0.11757531 0.42500001
0.049603146 -0.11674537 0.42200002
0.051795673 -0.10761599 0.38900003
0.05267182 -0.10733934 0.38800001
0.05354277 -0.1070627 0.38700002
0.054549478 -0.1070627 0.38700002
0.055556182 -0.1070627 0.38700002
0.056416728 -0.10678604 0.38600001
0.057420827 -0.10678604 0.38600001
0.0802138 -0.14413349 0.52100003
0.081412517 -0.14385685 0.52000004
0.082765199 -0.14385685 0.52000004
0.084117875 -0.14385685 0.52000004
0.085470557 -0.14385685 0.52000004
0.086823232 -0.14385685 0.52000004
0.08800634 -0.14358021 0.51900005
0.089356415 -0.14358021 0.51900005
0.09070649 -0.14358021 0.51900005
0.092056572 -0.14358021 0.51900005
0.09340664 -0.14358021 0.51900005
0.094939299 -0.14385685 0.52000004
0.096291967 -0.14385685 0.52000004
0.097644642 -0.14385685 0.52000004
0.098997325 -0.14385685 0.52000004
0.10035 -0.14385685 0.52000004
0.10170268 -0.14385685 0.52000004
0.10305535 -0.14385685 0.52000004
0.10440803 -0.14385685 0.52000004
0.10576071 -0.14385685 0.52000004
0.1069074 -0.14358021 0.51900005
0.10825748 -0.14358021 0.51900005
0.10960755 -0.14358021 0.51900005
0.11095763 -0.14358021 0.51900005
0.1123077 -0.14358021 0.51900005
0.11365778 -0.14358021 0.51900005
0.11500785 -0.14358021 0.51900005
0.11635793 -0.14358021 0.51900005
0.11770801 -0.14358021 0.51900005
0.11905808 -0.14358021 0.51900005
0.12040816 -0.14358021 0.51900005
0.12175824 -0.14358021 0.51900005
0.12310831 -0.14358021 0.51900005
0.12445839 -0.14358021 0.51900005
0.12580846 -0.14358021 0.51900005
0.12715854 -0.14358021 0.51900005
0.12850861 -0.14358021 0.51900005
0.12985869 -0.14358021 0.51900005
0.13120876 -0.14358021 0.51900005
0.13255885 -0.14358021 0.51900005
0.13390893 -0.14358021 0.51900005
0.13525899 -0.14358021 0.51900005
0.13660906 -0.14358021 0.51900005
0.13795915 -0.14358021 0.51900005
0.13930923 -0.14358021 0.51900005
0.1406593 -0.14358021 0.51900005
0.14200938 -0.14358021 0.51900005
0.14335944 -0.14358021 0.51900005
0.14470953 -0.14358021 0.51900005
0.1460596 -0.14358021 0.51900005
0.14740968 -0.14358021 0.51900005
0.14875975 -0.14358021 0.51900005
0.15039904 -0.14385685 0.52000004
0.15175174 -0.14385685 0.52000004
0.15310441 -0.14385685 0.52000004
0.15445709 -0.14385685 0.52000004
0.15610939 -0.14413349 0.52100003
0.15746467 -0.14413349 0.52100003
0.15881996 -0.14413349 0.52100003
0.16017523 -0.14413349 0.52100003
0.16153051 -0.14413349 0.52100003
0.16288579 -0.14413349 0.52100003
0.16424108 -0.14413349 0.52100003
0.16559635 -0.14413349 0.52100003
0.16695163 -0.14413349 0.52100003
0.1683069 -0.14413349 0.52100003
0.16966218 -0.14413349 0.52100003
0.17101747 -0.14413349 0.52100003
0.17237274 -0.14413349 0.52100003
0.17372802 -0.14413349 0.52100003
0.17508329 -0.14413349 0.52100003
0.17643857 -0.14413349 0.52100003
0.17779386 -0.14413349 0.52100003
0.17914914 -0.14413349 0.52100003
0.1805044 -0.14413349 0.52100003
0.18185967 -0.14413349 0.52100003
0.18321495 -0.14413349 0.52100003
0.18457024 -0.14413349 0.52100003
0.18592551 -0.14413349 0.52100003
0.18728079 -0.14413349 0.52100003
0.18863606 -0.14413349 0.52100003
0.18999135 -0.14413349 0.52100003
0.19134663 -0.14413349 0.52100003
0.19270191 -0.14413349 0.52100003
0.19405718 -0.14413349 0.52100003
0.19541246 -0.14413349 0.52100003
0.19676775 -0.14413349 0.52100003
0.19812302 -0.14413349 0.52100003
0.1994783 -0.14413349 0.52100003
0.20083357 -0.14413349 0.52100003
