# .PCD v0.7 - Point Cloud Data file format
VERSION 0.7
FIELDS x y z
SIZE 4 4 4
TYPE F F F
COUNT 1 1 1
WIDTH 1379
HEIGHT 1
VIEWPOINT 0 0 0 1 0 0 0
POINTS 1379
DATA ascii
-0.22264177 -0.066404261 0.50700003
-0.22132291 -0.066404261 0.50700003
-0.22043797 -0.066535227 0.50800002
-0.21868519 -0.066404261 0.50700003
-0.21779506 -0.066535227 0.50800002
-0.21647359 -0.066535227 0.50800002
-0.21515213 -0.066535227 0.50800002
-0.21383068 -0.066535227 0.50800002
-0.21250921 -0.066535227 0.50800002
-0.21118777 -0.066535227 0.50800002
-0.20986629 -0.066535227 0.50800002
-0.20854482 -0.066535227 0.50800002
-0.20681545 -0.066404261 0.50700003
-0.20549659 -0.066404261 0.50700003
-0.20417772 -0.066404261 0.50700003
-0.20285887 -0.066404261 0.50700003
-0.20154001 -0.066404261 0.50700003
-0.20022115 -0.066404261 0.50700003
-0.19890229 -0.066404261 0.50700003
-0.19758342 -0.066404261 0.50700003
-0.19626456 -0.066404261 0.50700003
-0.19494571 -0.066404261 0.50700003
-0.19362685 -0.066404261 0.50700003
-0.19230799 -0.066404261 0.50700003
-0.19136582 -0.066535227 0.50800002
-0.19004436 -0.066535227 0.50800002
-0.18872291 -0.066535227 0.50800002
-0.18740144 -0.066535227 0.50800002
-0.18607999 -0.066535227 0.50800002
-0.18475851 -0.066535227 0.50800002
-0.18343706 -0.066535227 0.50800002
-0.1821156 -0.066535227 0.50800002
-0.18043825 -0.066404261 0.50700003
-0.17911938 -0.066404261 0.50700003
-0.17780052 -0.066404261 0.50700003
-0.17648166 -0.066404261 0.50700003
-0.17481732 -0.066273287 0.50600004
-0.17350107 -0.066273287 0.50600004
-0.1721848 -0.066273287 0.50600004
-0.17086855 -0.066273287 0.50600004
-0.16955228 -0.066273287 0.50600004
-0.16823603 -0.066273287 0.50600004
-0.16724965 -0.066404261 0.50700003
-0.16593078 -0.066404261 0.50700003
-0.16461192 -0.066404261 0.50700003
-0.16361514 -0.066535227 0.50800002
-0.16229369 -0.066535227 0.50800002
-0.16097222 -0.066535227 0.50800002
-0.15996502 -0.066666201 0.509
-0.15864097 -0.066666201 0.509
-0.15731689 -0.066666201 0.509
-0.15629932 -0.066797182 0.51000005
-0.15497264 -0.066797182 0.51000005
-0.15364599 -0.066797182 0.51000005
-0.15231933 -0.066797182 0.51000005
-0.15099266 -0.066797182 0.51000005
-0.149666 -0.066797182 0.51000005
-0.14833933 -0.066797182 0.51000005
-0.14701267 -0.066797182 0.51000005
-0.145686 -0.066797182 0.51000005
-0.14435935 -0.066797182 0.51000005
-0.14303268 -0.066797182 0.51000005
-0.141706 -0.066797182 0.51000005
-0.14037934 -0.066797182 0.51000005
-0.13932534 -0.066928156 0.51100004
-0.13799608 -0.066928156 0.51100004
-0.13639936 -0.066797182 0.51000005
-0.13507269 -0.066797182 0.51000005
-0.13374603 -0.066797182 0.51000005
-0.13241936 -0.066797182 0.51000005
-0.13109271 -0.066797182 0.51000005
-0.12951158 -0.066666201 0.509
-0.12818751 -0.066666201 0.509
-0.12686345 -0.066666201 0.509
-0.12553939 -0.066666201 0.509
-0.12421533 -0.066666201 0.509
-0.12289127 -0.066666201 0.509
-0.1215672 -0.066666201 0.509
-0.12024314 -0.066666201 0.509
-0.11891908 -0.066666201 0.509
-0.11782606 -0.066797182 0.51000005
-0.11649939 -0.066797182 0.51000005
-0.11517273 -0.066797182 0.51000005
-0.11384606 -0.066797182 0.51000005
-0.11251941 -0.066797182 0.51000005
-0.11141076 -0.066928156 0.51100004
-0.11008149 -0.066928156 0.51100004
-0.10875223 -0.066928156 0.51100004
-0.10742296 -0.066928156 0.51100004
-0.10588608 -0.066797182 0.51000005
-0.10455941 -0.066797182 0.51000005
-0.10323276 -0.066797182 0.51000005
-0.10190609 -0.066797182 0.51000005
-0.10057943 -0.066797182 0.51000005
-0.09925276 -0.066797182 0.51000005
-0.097734079 -0.066666201 0.509
-0.096410006 -0.066666201 0.509
-0.095085949 -0.066666201 0.509
-0.093577683 -0.066535227 0.50800002
-0.092256218 -0.066535227 0.50800002
-0.090755761 -0.066404261 0.50700003
-0.087944232 -0.066273287 0.50600004
-0.04788221 -0.059069667 0.45100003
-0.047226861 -0.05972454 0.45600003
-0.044717982 -0.062867932 0.48000002
-0.044012725 -0.063653782 0.48600003
-0.043188293 -0.064308658 0.49100003
-0.042167127 -0.06470158 0.49400002
-0.041130353 -0.065094508 0.49700001
-0.039917666 -0.065225482 0.49800003
-0.038777325 -0.065487429 0.5
-0.037626583 -0.065749384 0.50200003
-0.03639308 -0.065880358 0.50300002
-0.035154372 -0.066011332 0.50400001
-0.033910464 -0.066142306 0.505
-0.032661363 -0.066273287 0.50600004
-0.031407051 -0.066404261 0.50700003
-0.030088188 -0.066404261 0.50700003
-0.028826071 -0.066535227 0.50800002
-0.02750461 -0.066535227 0.50800002
-0.026183149 -0.066535227 0.50800002
-0.024861688 -0.066535227 0.50800002
-0.023540225 -0.066535227 0.50800002
-0.022218764 -0.066535227 0.50800002
-0.020856166 -0.066404261 0.50700003
-0.019537305 -0.066404261 0.50700003
-0.018218447 -0.066404261 0.50700003
-0.016899586 -0.066404261 0.50700003
-0.015580727 -0.066404261 0.50700003
-0.014261866 -0.066404261 0.50700003
-0.012917478 -0.066273287 0.50600004
-0.011601219 -0.066273287 0.50600004
-0.010284959 -0.066273287 0.50600004
-0.0089687007 -0.066273287 0.50600004
-0.0076373178 -0.066142306 0.505
-0.0063236603 -0.066142306 0.505
-0.0050100032 -0.066142306 0.505
-0.0036963455 -0.066142306 0.505
-0.0023826878 -0.066142306 0.505
-0.0010690305 -0.066142306 0.505
0.00024462701 -0.066142306 0.505
0.0015582845 -0.066142306 0.505
0.002871942 -0.066142306 0.505
0.0041855993 -0.066142306 0.505
0.0054992568 -0.066142306 0.505
0.0068129147 -0.066142306 0.505
0.008142665 -0.066273287 0.50600004
0.0094589237 -0.066273287 0.50600004
0.010775182 -0.066273287 0.50600004
0.012115338 -0.066404261 0.50700003
0.013434198 -0.066404261 0.50700003
0.014753059 -0.066404261 0.50700003
0.016071917 -0.066404261 0.50700003
0.017390778 -0.066404261 0.50700003
0.018709637 -0.066404261 0.50700003
0.020028498 -0.066404261 0.50700003
0.021347359 -0.066404261 0.50700003
0.022666218 -0.066404261 0.50700003
0.023985079 -0.066404261 0.50700003
0.025303939 -0.066404261 0.50700003
0.026570288 -0.066273287 0.50600004
0.027831433 -0.066142306 0.505
0.02908738 -0.066011332 0.50400001
0.030338122 -0.065880358 0.50300002
0.031583663 -0.065749384 0.50200003
0.032889515 -0.065749384 0.50200003
0.03405913 -0.065487429 0.5
0.035359781 -0.065487429 0.5
0.036513794 -0.065225482 0.49800003
0.037809242 -0.065225482 0.49800003
0.039026167 -0.065094508 0.49700001
0.040237885 -0.064963534 0.49600002
0.04144441 -0.064832561 0.49500003
0.042645723 -0.06470158 0.49400002
0.043930769 -0.06470158 0.49400002
0.045215812 -0.06470158 0.49400002
0.046500854 -0.06470158 0.49400002
0.047785897 -0.06470158 0.49400002
0.049070939 -0.06470158 0.49400002
0.050355982 -0.06470158 0.49400002
0.051641028 -0.06470158 0.49400002
0.05303321 -0.064832561 0.49500003
0.08800634 -0.067975961 0.51900005
0.089356415 -0.067975961 0.51900005
0.09070649 -0.067975961 0.51900005
0.092056572 -0.067975961 0.51900005
0.09340664 -0.067975961 0.51900005
0.094756722 -0.067975961 0.51900005
0.096106797 -0.067975961 0.51900005
0.097456865 -0.067975961 0.51900005
0.098997325 -0.068106934 0.52000004
0.10035 -0.068106934 0.52000004
0.10170268 -0.068106934 0.52000004
0.10305535 -0.068106934 0.52000004
0.10440803 -0.068106934 0.52000004
0.10576071 -0.068106934 0.52000004
0.10711338 -0.068106934 0.52000004
0.10846607 -0.068106934 0.52000004
0.10981874 -0.068106934 0.52000004
0.11117142 -0.068106934 0.52000004
0.11252409 -0.068106934 0.52000004
0.11387677 -0.068106934 0.52000004
0.11522945 -0.068106934 0.52000004
0.11635793 -0.067975961 0.51900005
0.11770801 -0.067975961 0.51900005
0.11905808 -0.067975961 0.51900005
0.12040816 -0.067975961 0.51900005
0.12175824 -0.067975961 0.51900005
0.12310831 -0.067975961 0.51900005
0.12445839 -0.067975961 0.51900005
0.12580846 -0.067975961 0.51900005
0.12715854 -0.067975961 0.51900005
0.12850861 -0.067975961 0.51900005
0.12985869 -0.067975961 0.51900005
0.13120876 -0.067975961 0.51900005
0.13255885 -0.067975961 0.51900005
0.13390893 -0.067975961 0.51900005
0.13525899 -0.067975961 0.51900005
0.13687228 -0.068106934 0.52000004
0.13822497 -0.068106934 0.52000004
0.13957764 -0.068106934 0.52000004
0.14120133 -0.068237908 0.52100003
0.14283022 -0.068368882 0.52200001
0.14418811 -0.068368882 0.52200001
0.14554599 -0.068368882 0.52200001
0.1471853 -0.068499848 0.523
0.14854577 -0.068499848 0.523
0.14990625 -0.068499848 0.523
0.15126672 -0.068499848 0.523
0.15262721 -0.068499848 0.523
0.15398769 -0.068499848 0.523
0.15534817 -0.068499848 0.523
0.15670864 -0.068499848 0.523
0.15806913 -0.068499848 0.523
0.15942962 -0.068499848 0.523
0.1607901 -0.068499848 0.523
0.16215058 -0.068499848 0.523
0.16351105 -0.068499848 0.523
0.16487154 -0.068499848 0.523
0.16623202 -0.068499848 0.523
0.1675925 -0.068499848 0.523
0.16895299 -0.068499848 0.523
0.17063913 -0.068630829 0.52400005
0.17200221 -0.068630829 0.52400005
0.17336529 -0.068630829 0.52400005
0.17472838 -0.068630829 0.52400005
0.17609145 -0.068630829 0.52400005
0.17745453 -0.068630829 0.52400005
0.17881763 -0.068630829 0.52400005
0.1801807 -0.068630829 0.52400005
0.18154378 -0.068630829 0.52400005
0.18290687 -0.068630829 0.52400005
0.18426993 -0.068630829 0.52400005
0.18563303 -0.068630829 0.52400005
0.18663923 -0.068499848 0.523
0.1883592 -0.068630829 0.52400005
0.18936019 -0.068499848 0.523
0.19072069 -0.068499848 0.523
0.19208117 -0.068499848 0.523
0.19344164 -0.068499848 0.523
0.19480212 -0.068499848 0.523
0.1961626 -0.068499848 0.523
0.19752309 -0.068499848 0.523
0.19888356 -0.068499848 0.523
0.20024404 -0.068499848 0.523
0.20160452 -0.068499848 0.523
0.20296501 -0.068499848 0.523
0.2043255 -0.068499848 0.523
0.20568597 -0.068499848 0.523
0.20704645 -0.068499848 0.523
0.20840693 -0.068499848 0.523
0.2097674 -0.068499848 0.523
0.21112789 -0.068499848 0.523
0.21289468 -0.068630829 0.52400005
0.21425776 -0.068630829 0.52400005
0.21562085 -0.068630829 0.52400005
0.21698391 -0.068630829 0.52400005
0.21834701 -0.068630829 0.52400005
0.22012939 -0.068761803 0.52500004
0.22149506 -0.068761803 0.52500004
0.22328523 -0.068892777 0.52600002
0.22465353 -0.068892777 0.52600002
0.2264515 -0.069023751 0.52700001
0.22782239 -0.069023751 0.52700001
0.22919327 -0.069023751 0.52700001
0.23100165 -0.069154724 0.528
0.23237514 -0.069154724 0.528
0.23419136 -0.069285706 0.52900004
0.23601274 -0.069416679 0.53000003
0.23739144 -0.069416679 0.53000003
0.23877013 -0.069416679 0.53000003
0.24014883 -0.069416679 0.53000003
0.24152751 -0.069416679 0.53000003
0.2429062 -0.069416679 0.53000003
0.24428488 -0.069416679 0.53000003
0.24520007 -0.069285706 0.52900004
0.24657616 -0.069285706 0.52900004
0.24795225 -0.069285706 0.52900004
0.24932833 -0.069285706 0.52900004
0.25070441 -0.069285706 0.52900004
0.25208053 -0.069285706 0.52900004
0.25345659 -0.069285706 0.52900004
0.25483268 -0.069285706 0.52900004
0.25620878 -0.069285706 0.52900004
-0.28011805 -0.064957023 0.50600004
-0.27935275 -0.065085396 0.50700003
-0.27803391 -0.065085396 0.50700003
-0.27671504 -0.065085396 0.50700003
-0.27539617 -0.065085396 0.50700003
-0.27407733 -0.065085396 0.50700003
-0.27275845 -0.065085396 0.50700003
-0.27143961 -0.065085396 0.50700003
-0.27012074 -0.065085396 0.50700003
-0.26880187 -0.065085396 0.50700003
-0.26748303 -0.065085396 0.50700003
-0.26616415 -0.065085396 0.50700003
-0.26432294 -0.064957023 0.50600004
-0.26300666 -0.064957023 0.50600004
-0.26169041 -0.064957023 0.50600004
-0.26037416 -0.064957023 0.50600004
-0.25854591 -0.064828642 0.505
-0.25723225 -0.064828642 0.505
-0.25591859 -0.064828642 0.505
-0.25460491 -0.064828642 0.505
-0.25329128 -0.064828642 0.505
-0.25147864 -0.064700268 0.50400001
-0.25016761 -0.064700268 0.50400001
-0.24885654 -0.064700268 0.50400001
-0.24754548 -0.064700268 0.50400001
-0.24623442 -0.064700268 0.50400001
-0.24492337 -0.064700268 0.50400001
-0.24361232 -0.064700268 0.50400001
-0.24230126 -0.064700268 0.50400001
-0.24099021 -0.064700268 0.50400001
-0.23967914 -0.064700268 0.50400001
-0.23836808 -0.064700268 0.50400001
-0.23752739 -0.064828642 0.505
-0.23621373 -0.064828642 0.505
-0.23490006 -0.064828642 0.505
-0.2335864 -0.064828642 0.505
-0.23227274 -0.064828642 0.505
-0.23095909 -0.064828642 0.505
-0.22964543 -0.064828642 0.505
-0.22878394 -0.064957023 0.50600004
-0.22746767 -0.064957023 0.50600004
-0.22615142 -0.064957023 0.50600004
-0.2252795 -0.065085396 0.50700003
-0.22396064 -0.065085396 0.50700003
-0.22264177 -0.065085396 0.50700003
-0.22132291 -0.065085396 0.50700003
-0.22043797 -0.065213762 0.50800002
-0.21911652 -0.065213762 0.50800002
-0.21779506 -0.065213762 0.50800002
-0.21647359 -0.065213762 0.50800002
-0.21515213 -0.065213762 0.50800002
-0.21383068 -0.065213762 0.50800002
-0.21250921 -0.065213762 0.50800002
-0.21118777 -0.065213762 0.50800002
-0.20986629 -0.065213762 0.50800002
-0.20854482 -0.065213762 0.50800002
-0.20722337 -0.065213762 0.50800002
-0.20549659 -0.065085396 0.50700003
-0.20417772 -0.065085396 0.50700003
-0.20285887 -0.065085396 0.50700003
-0.20154001 -0.065085396 0.50700003
-0.20022115 -0.065085396 0.50700003
-0.19890229 -0.065085396 0.50700003
-0.19758342 -0.065085396 0.50700003
-0.19626456 -0.065085396 0.50700003
-0.19494571 -0.065085396 0.50700003
-0.19362685 -0.065085396 0.50700003
-0.19230799 -0.065085396 0.50700003
-0.19136582 -0.065213762 0.50800002
-0.19004436 -0.065213762 0.50800002
-0.18872291 -0.065213762 0.50800002
-0.18740144 -0.065213762 0.50800002
-0.18607999 -0.065213762 0.50800002
-0.18475851 -0.065213762 0.50800002
-0.18343706 -0.065213762 0.50800002
-0.1821156 -0.065213762 0.50800002
-0.18079415 -0.065213762 0.50800002
-0.17911938 -0.065085396 0.50700003
-0.17780052 -0.065085396 0.50700003
-0.17648166 -0.065085396 0.50700003
-0.17516281 -0.065085396 0.50700003
-0.17384395 -0.065085396 0.50700003
-0.17252508 -0.065085396 0.50700003
-0.17120622 -0.065085396 0.50700003
-0.16988736 -0.065085396 0.50700003
-0.16856851 -0.065085396 0.50700003
-0.16724965 -0.065085396 0.50700003
-0.16593078 -0.065085396 0.50700003
-0.16461192 -0.065085396 0.50700003
-0.16361514 -0.065213762 0.50800002
-0.16229369 -0.065213762 0.50800002
-0.16097222 -0.065213762 0.50800002
-0.15996502 -0.065342136 0.509
-0.15864097 -0.065342136 0.509
-0.15731689 -0.065342136 0.509
-0.15629932 -0.065470517 0.51000005
-0.15497264 -0.065470517 0.51000005
-0.15364599 -0.065470517 0.51000005
-0.15231933 -0.065470517 0.51000005
-0.15099266 -0.065470517 0.51000005
-0.149666 -0.065470517 0.51000005
-0.14833933 -0.065470517 0.51000005
-0.14701267 -0.065470517 0.51000005
-0.145686 -0.065470517 0.51000005
-0.14435935 -0.065470517 0.51000005
-0.14303268 -0.065470517 0.51000005
-0.141706 -0.065470517 0.51000005
-0.14065459 -0.06559889 0.51100004
-0.13932534 -0.06559889 0.51100004
-0.13799608 -0.06559889 0.51100004
-0.1366668 -0.06559889 0.51100004
-0.13533753 -0.06559889 0.51100004
-0.13400827 -0.06559889 0.51100004
-0.13241936 -0.065470517 0.51000005
-0.13109271 -0.065470517 0.51000005
-0.12976603 -0.065470517 0.51000005
-0.12843937 -0.065470517 0.51000005
-0.12686345 -0.065342136 0.509
-0.12553939 -0.065342136 0.509
-0.12445938 -0.065470517 0.51000005
-0.12289127 -0.065342136 0.509
-0.12180605 -0.065470517 0.51000005
-0.12047939 -0.065470517 0.51000005
-0.11915272 -0.065470517 0.51000005
-0.11782606 -0.065470517 0.51000005
-0.11649939 -0.065470517 0.51000005
-0.11517273 -0.065470517 0.51000005
-0.11384606 -0.065470517 0.51000005
-0.11274003 -0.06559889 0.51100004
-0.11141076 -0.06559889 0.51100004
-0.11008149 -0.06559889 0.51100004
-0.10875223 -0.06559889 0.51100004
-0.10742296 -0.06559889 0.51100004
-0.10588608 -0.065470517 0.51000005
-0.10455941 -0.065470517 0.51000005
-0.10323276 -0.065470517 0.51000005
-0.10190609 -0.065470517 0.51000005
-0.10057943 -0.065470517 0.51000005
-0.09925276 -0.065470517 0.51000005
-0.097734079 -0.065342136 0.509
-0.096410006 -0.065342136 0.509
-0.09489914 -0.065213762 0.50800002
-0.093577683 -0.065213762 0.50800002
-0.092256218 -0.065213762 0.50800002
-0.090755761 -0.065085396 0.50700003
-0.089436896 -0.065085396 0.50700003
-0.087944232 -0.064957023 0.50600004
-0.086456768 -0.064828642 0.505
-0.085143112 -0.064828642 0.505
-0.044997469 -0.062004425 0.48300001
-0.044284407 -0.062774666 0.48900002
-0.04327625 -0.063159786 0.49200001
-0.042252485 -0.063544914 0.49500003
-0.041130353 -0.063801654 0.49700001
-0.039917666 -0.063930027 0.49800003
-0.038777325 -0.064186774 0.5
-0.037626583 -0.064443529 0.50200003
-0.03639308 -0.064571895 0.50300002
-0.035154372 -0.064700268 0.50400001
-0.033910464 -0.064828642 0.505
-0.032661363 -0.064957023 0.50600004
-0.031407051 -0.065085396 0.50700003
-0.030088188 -0.065085396 0.50700003
-0.028826071 -0.065213762 0.50800002
-0.02750461 -0.065213762 0.50800002
-0.026183149 -0.065213762 0.50800002
-0.024861688 -0.065213762 0.50800002
-0.023540225 -0.065213762 0.50800002
-0.022218764 -0.065213762 0.50800002
-0.020897303 -0.065213762 0.50800002
-0.01957584 -0.065213762 0.50800002
-0.018254381 -0.065213762 0.50800002
-0.016932918 -0.065213762 0.50800002
-0.015580727 -0.065085396 0.50700003
-0.014261866 -0.065085396 0.50700003
-0.012943006 -0.065085396 0.50700003
-0.011624146 -0.065085396 0.50700003
-0.010305285 -0.065085396 0.50700003
-0.0089687007 -0.064957023 0.50600004
-0.007652442 -0.064957023 0.50600004
-0.0063361828 -0.064957023 0.50600004
-0.0050100032 -0.064828642 0.505
-0.0036963455 -0.064828642 0.505
-0.0023826878 -0.064828642 0.505
-0.0010690305 -0.064828642 0.505
0.00024462701 -0.064828642 0.505
0.0015582845 -0.064828642 0.505
0.002871942 -0.064828642 0.505
0.0041855993 -0.064828642 0.505
0.0054992568 -0.064828642 0.505
0.0068129147 -0.064828642 0.505
0.008142665 -0.064957023 0.50600004
0.0094589237 -0.064957023 0.50600004
0.010796477 -0.065085396 0.50700003
0.012115338 -0.065085396 0.50700003
0.013434198 -0.065085396 0.50700003
0.014753059 -0.065085396 0.50700003
0.016071917 -0.065085396 0.50700003
0.017425079 -0.065213762 0.50800002
0.01874654 -0.065213762 0.50800002
0.020068001 -0.065213762 0.50800002
0.021389464 -0.065213762 0.50800002
0.022666218 -0.065085396 0.50700003
0.023985079 -0.065085396 0.50700003
0.025303939 -0.065085396 0.50700003
0.026517777 -0.064828642 0.505
0.027831433 -0.064828642 0.505
0.029029667 -0.064571895 0.50300002
0.030277807 -0.064443529 0.50200003
0.03152075 -0.064315155 0.50100005
0.032758478 -0.064186774 0.5
0.033991013 -0.064058401 0.49900001
0.035218343 -0.063930027 0.49800003
0.036513794 -0.063930027 0.49800003
0.037657399 -0.06367328 0.49600002
0.038947646 -0.06367328 0.49600002
0.040237885 -0.06367328 0.49600002
0.04136068 -0.063416533 0.49400002
0.042645723 -0.063416533 0.49400002
0.043930769 -0.063416533 0.49400002
0.045215812 -0.063416533 0.49400002
0.046500854 -0.063416533 0.49400002
0.047785897 -0.063416533 0.49400002
0.049070939 -0.063416533 0.49400002
0.050457921 -0.063544914 0.49500003
0.051850099 -0.06367328 0.49600002
0.053140346 -0.06367328 0.49600002
0.054540332 -0.063801654 0.49700001
0.05572084 -0.06367328 0.49600002
0.08800634 -0.066625878 0.51900005
0.089356415 -0.066625878 0.51900005
0.09070649 -0.066625878 0.51900005
0.092056572 -0.066625878 0.51900005
0.09340664 -0.066625878 0.51900005
0.094939299 -0.066754252 0.52000004
0.096291967 -0.066754252 0.52000004
0.097644642 -0.066754252 0.52000004
0.098997325 -0.066754252 0.52000004
0.10035 -0.066754252 0.52000004
0.10170268 -0.066754252 0.52000004
0.10305535 -0.066754252 0.52000004
0.10440803 -0.066754252 0.52000004
0.10576071 -0.066754252 0.52000004
0.10711338 -0.066754252 0.52000004
0.10846607 -0.066754252 0.52000004
0.10981874 -0.066754252 0.52000004
0.11117142 -0.066754252 0.52000004
0.11252409 -0.066754252 0.52000004
0.11387677 -0.066754252 0.52000004
0.11522945 -0.066754252 0.52000004
0.11635793 -0.066625878 0.51900005
0.11770801 -0.066625878 0.51900005
0.11905808 -0.066625878 0.51900005
0.12040816 -0.066625878 0.51900005
0.12175824 -0.066625878 0.51900005
0.12310831 -0.066625878 0.51900005
0.12445839 -0.066625878 0.51900005
0.12580846 -0.066625878 0.51900005
0.12715854 -0.066625878 0.51900005
0.12850861 -0.066625878 0.51900005
0.12985869 -0.066625878 0.51900005
0.13120876 -0.066625878 0.51900005
0.13255885 -0.066625878 0.51900005
0.13390893 -0.066625878 0.51900005
0.13525899 -0.066625878 0.51900005
0.13687228 -0.066754252 0.52000004
0.13822497 -0.066754252 0.52000004
0.13984606 -0.066882625 0.52100003
0.14120133 -0.066882625 0.52100003
0.14283022 -0.067010991 0.52200001
0.14418811 -0.067010991 0.52200001
0.14554599 -0.067010991 0.52200001
0.14690387 -0.067010991 0.52200001
0.14854577 -0.067139365 0.523
0.14990625 -0.067139365 0.523
0.15126672 -0.067139365 0.523
0.15233539 -0.067010991 0.52200001
0.15398769 -0.067139365 0.523
0.15534817 -0.067139365 0.523
0.15640903 -0.067010991 0.52200001
0.15776689 -0.067010991 0.52200001
0.15942962 -0.067139365 0.523
0.1607901 -0.067139365 0.523
0.16215058 -0.067139365 0.523
0.16351105 -0.067139365 0.523
0.16487154 -0.067139365 0.523
0.16623202 -0.067139365 0.523
0.1675925 -0.067139365 0.523
0.16927604 -0.067267746 0.52400005
0.17063913 -0.067267746 0.52400005
0.17200221 -0.067267746 0.52400005
0.17336529 -0.067267746 0.52400005
0.17472838 -0.067267746 0.52400005
0.17609145 -0.067267746 0.52400005
0.17779317 -0.067396119 0.52500004
0.17915888 -0.067396119 0.52500004
0.18052456 -0.067396119 0.52500004
0.18154378 -0.067267746 0.52400005
0.18290687 -0.067267746 0.52400005
0.18426993 -0.067267746 0.52400005
0.18563303 -0.067267746 0.52400005
0.18699612 -0.067267746 0.52400005
0.18799971 -0.067139365 0.523
0.18936019 -0.067139365 0.523
0.19072069 -0.067139365 0.523
0.19208117 -0.067139365 0.523
0.19344164 -0.067139365 0.523
0.19480212 -0.067139365 0.523
0.1961626 -0.067139365 0.523
0.19752309 -0.067139365 0.523
0.19888356 -0.067139365 0.523
0.20024404 -0.067139365 0.523
0.20160452 -0.067139365 0.523
0.20296501 -0.067139365 0.523
0.2043255 -0.067139365 0.523
0.20568597 -0.067139365 0.523
0.20704645 -0.067139365 0.523
0.20840693 -0.067139365 0.523
0.21016851 -0.067267746 0.52400005
0.21153159 -0.067267746 0.52400005
0.21289468 -0.067267746 0.52400005
0.21425776 -0.067267746 0.52400005
0.21562085 -0.067267746 0.52400005
0.21698391 -0.067267746 0.52400005
0.21834701 -0.067267746 0.52400005
0.22012939 -0.067396119 0.52500004
0.22149506 -0.067396119 0.52500004
0.22328523 -0.067524493 0.52600002
0.22465353 -0.067524493 0.52600002
0.22602181 -0.067524493 0.52600002
0.22782239 -0.067652859 0.52700001
0.22919327 -0.067652859 0.52700001
0.23056415 -0.067652859 0.52700001
0.23237514 -0.067781232 0.528
0.23419136 -0.067909613 0.52900004
0.23556745 -0.067909613 0.52900004
0.23694353 -0.067909613 0.52900004
0.23877013 -0.068037987 0.53000003
0.23969571 -0.067909613 0.52900004
0.24152751 -0.068037987 0.53000003
0.2429062 -0.068037987 0.53000003
0.24428488 -0.068037987 0.53000003
0.24566357 -0.068037987 0.53000003
0.24657616 -0.067909613 0.52900004
0.24795225 -0.067909613 0.52900004
0.24932833 -0.067909613 0.52900004
0.25070441 -0.067909613 0.52900004
0.25208053 -0.067909613 0.52900004
0.25345659 -0.067909613 0.52900004
0.25483268 -0.067909613 0.52900004
0.25669309 -0.068037987 0.53000003
-0.28011805 -0.063640766 0.50600004
-0.27935275 -0.063766539 0.50700003
-0.27803391 -0.063766539 0.50700003
-0.27671504 -0.063766539 0.50700003
-0.27539617 -0.063766539 0.50700003
-0.27407733 -0.063766539 0.50700003
-0.27275845 -0.063766539 0.50700003
-0.27143961 -0.063766539 0.50700003
-0.27012074 -0.063766539 0.50700003
-0.26880187 -0.063766539 0.50700003
-0.26748303 -0.063766539 0.50700003
-0.26616415 -0.063766539 0.50700003
-0.26484531 -0.063766539 0.50700003
-0.26300666 -0.063640766 0.50600004
-0.26169041 -0.063640766 0.50600004
-0.26037416 -0.063640766 0.50600004
-0.25854591 -0.063514985 0.505
-0.25723225 -0.063514985 0.505
-0.25591859 -0.063514985 0.505
-0.25460491 -0.063514985 0.505
-0.25329128 -0.063514985 0.505
-0.25147864 -0.063389219 0.50400001
-0.25016761 -0.063389219 0.50400001
-0.24885654 -0.063389219 0.50400001
-0.24754548 -0.063389219 0.50400001
-0.24623442 -0.063389219 0.50400001
-0.24492337 -0.063389219 0.50400001
-0.24361232 -0.063389219 0.50400001
-0.24278201 -0.063514985 0.505
-0.24099021 -0.063389219 0.50400001
-0.23967914 -0.063389219 0.50400001
-0.23836808 -0.063389219 0.50400001
-0.23705703 -0.063389219 0.50400001
-0.23574598 -0.063389219 0.50400001
-0.23443492 -0.063389219 0.50400001
-0.2335864 -0.063514985 0.505
-0.23227274 -0.063514985 0.505
-0.23095909 -0.063514985 0.505
-0.22964543 -0.063514985 0.505
-0.22878394 -0.063640766 0.50600004
-0.22746767 -0.063640766 0.50600004
-0.22615142 -0.063640766 0.50600004
-0.2252795 -0.063766539 0.50700003
-0.22396064 -0.063766539 0.50700003
-0.22264177 -0.063766539 0.50700003
-0.22132291 -0.063766539 0.50700003
-0.22043797 -0.063892305 0.50800002
-0.21911652 -0.063892305 0.50800002
-0.21779506 -0.063892305 0.50800002
-0.21689971 -0.064018078 0.509
-0.21557565 -0.064018078 0.509
-0.21425159 -0.064018078 0.509
-0.21250921 -0.063892305 0.50800002
-0.21118777 -0.063892305 0.50800002
-0.20986629 -0.063892305 0.50800002
-0.20854482 -0.063892305 0.50800002
-0.20722337 -0.063892305 0.50800002
-0.20590191 -0.063892305 0.50800002
-0.20417772 -0.063766539 0.50700003
-0.20285887 -0.063766539 0.50700003
-0.20154001 -0.063766539 0.50700003
-0.20022115 -0.063766539 0.50700003
-0.19890229 -0.063766539 0.50700003
-0.19758342 -0.063766539 0.50700003
-0.19626456 -0.063766539 0.50700003
-0.19494571 -0.063766539 0.50700003
-0.19362685 -0.063766539 0.50700003
-0.1926873 -0.063892305 0.50800002
-0.19136582 -0.063892305 0.50800002
-0.19004436 -0.063892305 0.50800002
-0.18872291 -0.063892305 0.50800002
-0.18740144 -0.063892305 0.50800002
-0.18607999 -0.063892305 0.50800002
-0.18475851 -0.063892305 0.50800002
-0.18343706 -0.063892305 0.50800002
-0.1821156 -0.063892305 0.50800002
-0.18079415 -0.063892305 0.50800002
-0.17947267 -0.063892305 0.50800002
-0.17815121 -0.063892305 0.50800002
-0.17648166 -0.063766539 0.50700003
-0.17516281 -0.063766539 0.50700003
-0.17384395 -0.063766539 0.50700003
-0.17252508 -0.063766539 0.50700003
-0.17120622 -0.063766539 0.50700003
-0.16988736 -0.063766539 0.50700003
-0.16856851 -0.063766539 0.50700003
-0.16724965 -0.063766539 0.50700003
-0.16593078 -0.063766539 0.50700003
-0.1649366 -0.063892305 0.50800002
-0.16361514 -0.063892305 0.50800002
-0.16229369 -0.063892305 0.50800002
-0.16097222 -0.063892305 0.50800002
-0.15996502 -0.064018078 0.509
-0.15864097 -0.064018078 0.509
-0.15731689 -0.064018078 0.509
-0.15599284 -0.064018078 0.509
-0.15466876 -0.064018078 0.509
-0.15364599 -0.064143859 0.51000005
-0.15231933 -0.064143859 0.51000005
-0.15099266 -0.064143859 0.51000005
-0.149666 -0.064143859 0.51000005
-0.14833933 -0.064143859 0.51000005
-0.14701267 -0.064143859 0.51000005
-0.145686 -0.064143859 0.51000005
-0.14435935 -0.064143859 0.51000005
-0.14331314 -0.064269625 0.51100004
-0.141706 -0.064143859 0.51000005
-0.14065459 -0.064269625 0.51100004
-0.13932534 -0.064269625 0.51100004
-0.13799608 -0.064269625 0.51100004
-0.1366668 -0.064269625 0.51100004
-0.13533753 -0.064269625 0.51100004
-0.13400827 -0.064269625 0.51100004
-0.13267902 -0.064269625 0.51100004
-0.13134974 -0.064269625 0.51100004
-0.12976603 -0.064143859 0.51000005
-0.12843937 -0.064143859 0.51000005
-0.1271127 -0.064143859 0.51000005
-0.12578605 -0.064143859 0.51000005
-0.12445938 -0.064143859 0.51000005
-0.12313271 -0.064143859 0.51000005
-0.12180605 -0.064143859 0.51000005
-0.12047939 -0.064143859 0.51000005
-0.11915272 -0.064143859 0.51000005
-0.11805709 -0.064269625 0.51100004
-0.11672782 -0.064269625 0.51100004
-0.11539856 -0.064269625 0.51100004
-0.11406929 -0.064269625 0.51100004
-0.11274003 -0.064269625 0.51100004
-0.11141076 -0.064269625 0.51100004
-0.11008149 -0.064269625 0.51100004
-0.10875223 -0.064269625 0.51100004
-0.10742296 -0.064269625 0.51100004
-0.10588608 -0.064143859 0.51000005
-0.10455941 -0.064143859 0.51000005
-0.10323276 -0.064143859 0.51000005
-0.10190609 -0.064143859 0.51000005
-0.10057943 -0.064143859 0.51000005
-0.09925276 -0.064143859 0.51000005
-0.097734079 -0.064018078 0.509
-0.096410006 -0.064018078 0.509
-0.09489914 -0.063892305 0.50800002
-0.093577683 -0.063892305 0.50800002
-0.092074618 -0.063766539 0.50700003
-0.090755761 -0.063766539 0.50700003
-0.089436896 -0.063766539 0.50700003
-0.087944232 -0.063640766 0.50600004
-0.086456768 -0.063514985 0.505
-0.085143112 -0.063514985 0.505
-0.083663456 -0.063389219 0.50400001
-0.0823524 -0.063389219 0.50400001
-0.045370121 -0.061251089 0.48700002
-0.044646654 -0.062005725 0.49300003
-0.043540131 -0.062257271 0.49500003
-0.042337842 -0.062383041 0.49600002
-0.041213114 -0.062634587 0.49800003
-0.039997824 -0.062760353 0.49900001
-0.038777325 -0.062886126 0.5
-0.037626583 -0.063137673 0.50200003
-0.03639308 -0.063263446 0.50300002
-0.035154372 -0.063389219 0.50400001
-0.033910464 -0.063514985 0.505
-0.032661363 -0.063640766 0.50600004
-0.031407051 -0.063766539 0.50700003
-0.030088188 -0.063766539 0.50700003
-0.028826071 -0.063892305 0.50800002
-0.02750461 -0.063892305 0.50800002
-0.026183149 -0.063892305 0.50800002
-0.024910627 -0.064018078 0.509
-0.023586564 -0.064018078 0.509
-0.022262502 -0.064018078 0.509
-0.020938439 -0.064018078 0.509
-0.01957584 -0.063892305 0.50800002
-0.018254381 -0.063892305 0.50800002
-0.016932918 -0.063892305 0.50800002
-0.015611458 -0.063892305 0.50800002
-0.014289996 -0.063892305 0.50800002
-0.012943006 -0.063766539 0.50700003
-0.011624146 -0.063766539 0.50700003
-0.010305285 -0.063766539 0.50700003
-0.0089864256 -0.063766539 0.50700003
-0.0076675653 -0.063766539 0.50700003
-0.0063361828 -0.063640766 0.50600004
-0.0050199241 -0.063640766 0.50600004
-0.0037036652 -0.063640766 0.50600004
-0.0023826878 -0.063514985 0.505
-0.0010690305 -0.063514985 0.505
0.00024462701 -0.063514985 0.505
0.0015582845 -0.063514985 0.505
0.002871942 -0.063514985 0.505
0.0041855993 -0.063514985 0.505
0.0054992568 -0.063514985 0.505
0.0068264059 -0.063640766 0.50600004
0.008142665 -0.063640766 0.50600004
0.0094776172 -0.063766539 0.50700003
0.010796477 -0.063766539 0.50700003
0.012115338 -0.063766539 0.50700003
0.013460695 -0.063892305 0.50800002
0.014782157 -0.063892305 0.50800002
0.016103618 -0.063892305 0.50800002
0.017459381 -0.064018078 0.509
0.018783443 -0.064018078 0.509
0.020107506 -0.064018078 0.509
0.021389464 -0.063892305 0.50800002
0.022710925 -0.063892305 0.50800002
0.023985079 -0.063766539 0.50700003
0.025303939 -0.063766539 0.50700003
0.026517777 -0.063514985 0.505
0.027831433 -0.063514985 0.505
0.029029667 -0.063263446 0.50300002
0.030277807 -0.063137673 0.50200003
0.03152075 -0.063011907 0.50100005
0.032758478 -0.062886126 0.5
0.033922896 -0.062634587 0.49800003
0.035218343 -0.062634587 0.49800003
0.036440469 -0.062508814 0.49700001
0.037657399 -0.062383041 0.49600002
0.03886912 -0.062257271 0.49500003
0.040156763 -0.062257271 0.49500003
0.04144441 -0.062257271 0.49500003
0.042645723 -0.062131494 0.49400002
0.043930769 -0.062131494 0.49400002
0.045215812 -0.062131494 0.49400002
0.046500854 -0.062131494 0.49400002
0.047785897 -0.062131494 0.49400002
0.049170274 -0.062257271 0.49500003
0.050559856 -0.062383041 0.49600002
0.051850099 -0.062383041 0.49600002
0.053247485 -0.062508814 0.49700001
0.054650072 -0.062634587 0.49800003
0.08530619 -0.065275803 0.51900005
0.08800634 -0.065275803 0.51900005
0.089356415 -0.065275803 0.51900005
0.09070649 -0.065275803 0.51900005
0.092233941 -0.065401576 0.52000004
0.093586616 -0.065401576 0.52000004
0.094939299 -0.065401576 0.52000004
0.096291967 -0.065401576 0.52000004
0.097644642 -0.065401576 0.52000004
0.098997325 -0.065401576 0.52000004
0.10035 -0.065401576 0.52000004
0.10170268 -0.065401576 0.52000004
0.10305535 -0.065401576 0.52000004
0.10440803 -0.065401576 0.52000004
0.10576071 -0.065401576 0.52000004
0.10711338 -0.065401576 0.52000004
0.10846607 -0.065401576 0.52000004
0.10981874 -0.065401576 0.52000004
0.11117142 -0.065401576 0.52000004
0.11252409 -0.065401576 0.52000004
0.11387677 -0.065401576 0.52000004
0.11522945 -0.065401576 0.52000004
0.11658213 -0.065401576 0.52000004
0.11770801 -0.065275803 0.51900005
0.11905808 -0.065275803 0.51900005
0.12040816 -0.065275803 0.51900005
0.12175824 -0.065275803 0.51900005
0.12310831 -0.065275803 0.51900005
0.12445839 -0.065275803 0.51900005
0.12580846 -0.065275803 0.51900005
0.12715854 -0.065275803 0.51900005
0.12850861 -0.065275803 0.51900005
0.12985869 -0.065275803 0.51900005
0.13120876 -0.065275803 0.51900005
0.13255885 -0.065275803 0.51900005
0.13390893 -0.065275803 0.51900005
0.13551961 -0.065401576 0.52000004
0.13687228 -0.065401576 0.52000004
0.13822497 -0.065401576 0.52000004
0.13984606 -0.06552735 0.52100003
0.14120133 -0.06552735 0.52100003
0.14283022 -0.065653116 0.52200001
0.14418811 -0.065653116 0.52200001
0.14554599 -0.065653116 0.52200001
0.14690387 -0.065653116 0.52200001
0.14854577 -0.065778889 0.523
0.14990625 -0.065778889 0.523
0.15126672 -0.065778889 0.523
0.15233539 -0.065653116 0.52200001
0.15369327 -0.065653116 0.52200001
0.15505114 -0.065653116 0.52200001
0.15640903 -0.065653116 0.52200001
0.15776689 -0.065653116 0.52200001
0.15912479 -0.065653116 0.52200001
0.1607901 -0.065778889 0.523
0.16215058 -0.065778889 0.523
0.16351105 -0.065778889 0.523
0.16487154 -0.065778889 0.523
0.16623202 -0.065778889 0.523
0.1675925 -0.065778889 0.523
0.16927604 -0.065904669 0.52400005
0.17063913 -0.065904669 0.52400005
0.17200221 -0.065904669 0.52400005
0.17336529 -0.065904669 0.52400005
0.17472838 -0.065904669 0.52400005
0.17609145 -0.065904669 0.52400005
0.17779317 -0.066030435 0.52500004
0.17915888 -0.066030435 0.52500004
0.18052456 -0.066030435 0.52500004
0.18189023 -0.066030435 0.52500004
0.18290687 -0.065904669 0.52400005
0.18426993 -0.065904669 0.52400005
0.18563303 -0.065904669 0.52400005
0.18663923 -0.065778889 0.523
0.18799971 -0.065778889 0.523
0.18936019 -0.065778889 0.523
0.19072069 -0.065778889 0.523
0.19208117 -0.065778889 0.523
0.19344164 -0.065778889 0.523
0.19480212 -0.065778889 0.523
0.1961626 -0.065778889 0.523
0.19752309 -0.065778889 0.523
0.19888356 -0.065778889 0.523
0.20024404 -0.065778889 0.523
0.20160452 -0.065778889 0.523
0.20296501 -0.065778889 0.523
0.2043255 -0.065778889 0.523
0.20568597 -0.065778889 0.523
0.20704645 -0.065778889 0.523
0.20880543 -0.065904669 0.52400005
0.21016851 -0.065904669 0.52400005
0.21153159 -0.065904669 0.52400005
0.21289468 -0.065904669 0.52400005
0.21425776 -0.065904669 0.52400005
0.21562085 -0.065904669 0.52400005
0.21698391 -0.065904669 0.52400005
0.21834701 -0.065904669 0.52400005
0.22012939 -0.066030435 0.52500004
0.22149506 -0.066030435 0.52500004
0.22286074 -0.066030435 0.52500004
0.22465353 -0.066156209 0.52600002
0.22602181 -0.066156209 0.52600002
0.2273901 -0.066156209 0.52600002
0.22919327 -0.066281982 0.52700001
0.23056415 -0.066281982 0.52700001
0.23193505 -0.066281982 0.52700001
0.23374863 -0.066407748 0.528
0.23556745 -0.066533528 0.52900004
0.23694353 -0.066533528 0.52900004
0.23831962 -0.066533528 0.52900004
0.23969571 -0.066533528 0.52900004
0.24152751 -0.066659302 0.53000003
0.2429062 -0.066659302 0.53000003
0.24428488 -0.066659302 0.53000003
0.24566357 -0.066659302 0.53000003
0.24704227 -0.066659302 0.53000003
0.24795225 -0.066533528 0.52900004
0.24979965 -0.066659302 0.53000003
0.25117832 -0.066659302 0.53000003
0.25255704 -0.066659302 0.53000003
0.25393572 -0.066659302 0.53000003
0.25531441 -0.066659302 0.53000003
0.25669309 -0.066659302 0.53000003
-0.28011805 -0.062324505 0.50600004
-0.27935275 -0.062447675 0.50700003
-0.27803391 -0.062447675 0.50700003
-0.27671504 -0.062447675 0.50700003
-0.27539617 -0.062447675 0.50700003
-0.27407733 -0.062447675 0.50700003
-0.27275845 -0.062447675 0.50700003
-0.27143961 -0.062447675 0.50700003
-0.27012074 -0.062447675 0.50700003
-0.26880187 -0.062447675 0.50700003
-0.26748303 -0.062447675 0.50700003
-0.26616415 -0.062447675 0.50700003
-0.26484531 -0.062447675 0.50700003
-0.26300666 -0.062324505 0.50600004
-0.26169041 -0.062324505 0.50600004
-0.26037416 -0.062324505 0.50600004
-0.25905788 -0.062324505 0.50600004
-0.25723225 -0.062201329 0.505
-0.25591859 -0.062201329 0.505
-0.25460491 -0.062201329 0.505
-0.25329128 -0.062201329 0.505
-0.25147864 -0.062078159 0.50400001
-0.25016761 -0.062078159 0.50400001
-0.24885654 -0.062078159 0.50400001
-0.24754548 -0.062078159 0.50400001
-0.24623442 -0.062078159 0.50400001
-0.24492337 -0.062078159 0.50400001
-0.24409567 -0.062201329 0.505
-0.24230126 -0.062078159 0.50400001
-0.24146836 -0.062201329 0.505
-0.24015468 -0.062201329 0.505
-0.23884103 -0.062201329 0.505
-0.23752739 -0.062201329 0.505
-0.23621373 -0.062201329 0.505
-0.23490006 -0.062201329 0.505
-0.2335864 -0.062201329 0.505
-0.23227274 -0.062201329 0.505
-0.23095909 -0.062201329 0.505
-0.22964543 -0.062201329 0.505
-0.22833177 -0.062201329 0.505
-0.22746767 -0.062324505 0.50600004
-0.22615142 -0.062324505 0.50600004
-0.22483516 -0.062324505 0.50600004
-0.22396064 -0.062447675 0.50700003
-0.22264177 -0.062447675 0.50700003
-0.22132291 -0.062447675 0.50700003
-0.22043797 -0.062570848 0.50800002
-0.21911652 -0.062570848 0.50800002
-0.2182238 -0.062694013 0.509
-0.21689971 -0.062694013 0.509
-0.21557565 -0.062694013 0.509
-0.21425159 -0.062694013 0.509
-0.21292754 -0.062694013 0.509
-0.21160348 -0.062694013 0.509
-0.21027941 -0.062694013 0.509
-0.20854482 -0.062570848 0.50800002
-0.20722337 -0.062570848 0.50800002
-0.20590191 -0.062570848 0.50800002
-0.20417772 -0.062447675 0.50700003
-0.20325898 -0.062570848 0.50800002
-0.20154001 -0.062447675 0.50700003
-0.20022115 -0.062447675 0.50700003
-0.19890229 -0.062447675 0.50700003
-0.19758342 -0.062447675 0.50700003
-0.19626456 -0.062447675 0.50700003
-0.19494571 -0.062447675 0.50700003
-0.19362685 -0.062447675 0.50700003
-0.1926873 -0.062570848 0.50800002
-0.19136582 -0.062570848 0.50800002
-0.19004436 -0.062570848 0.50800002
-0.18872291 -0.062570848 0.50800002
-0.18740144 -0.062570848 0.50800002
-0.18607999 -0.062570848 0.50800002
-0.18512221 -0.062694013 0.509
-0.18379815 -0.062694013 0.509
-0.18247409 -0.062694013 0.509
-0.18115003 -0.062694013 0.509
-0.17947267 -0.062570848 0.50800002
-0.17815121 -0.062570848 0.50800002
-0.17682976 -0.062570848 0.50800002
-0.17550829 -0.062570848 0.50800002
-0.17418684 -0.062570848 0.50800002
-0.17286536 -0.062570848 0.50800002
-0.17154391 -0.062570848 0.50800002
-0.17022245 -0.062570848 0.50800002
-0.16890098 -0.062570848 0.50800002
-0.16757953 -0.062570848 0.50800002
-0.16625805 -0.062570848 0.50800002
-0.1649366 -0.062570848 0.50800002
-0.16361514 -0.062570848 0.50800002
-0.16229369 -0.062570848 0.50800002
-0.16097222 -0.062570848 0.50800002
-0.15965074 -0.062570848 0.50800002
-0.15864097 -0.062694013 0.509
-0.15731689 -0.062694013 0.509
-0.15599284 -0.062694013 0.509
-0.15466876 -0.062694013 0.509
-0.15364599 -0.062817194 0.51000005
-0.15231933 -0.062817194 0.51000005
-0.15099266 -0.062817194 0.51000005
-0.149666 -0.062817194 0.51000005
-0.14833933 -0.062817194 0.51000005
-0.14701267 -0.062817194 0.51000005
-0.145686 -0.062817194 0.51000005
-0.14435935 -0.062817194 0.51000005
-0.14303268 -0.062817194 0.51000005
-0.141706 -0.062817194 0.51000005
-0.14065459 -0.062940359 0.51100004
-0.13932534 -0.062940359 0.51100004
-0.13799608 -0.062940359 0.51100004
-0.1366668 -0.062940359 0.51100004
-0.13533753 -0.062940359 0.51100004
-0.13400827 -0.062940359 0.51100004
-0.13267902 -0.062940359 0.51100004
-0.13134974 -0.062940359 0.51100004
-0.13002047 -0.062940359 0.51100004
-0.12869121 -0.062940359 0.51100004
-0.12736194 -0.062940359 0.51100004
-0.12603268 -0.062940359 0.51100004
-0.12470341 -0.062940359 0.51100004
-0.12337415 -0.062940359 0.51100004
-0.12204488 -0.062940359 0.51100004
-0.12071562 -0.062940359 0.51100004
-0.11938635 -0.062940359 0.51100004
-0.11805709 -0.062940359 0.51100004
-0.11672782 -0.062940359 0.51100004
-0.11539856 -0.062940359 0.51100004
-0.11406929 -0.062940359 0.51100004
-0.11274003 -0.062940359 0.51100004
-0.11141076 -0.062940359 0.51100004
-0.11008149 -0.062940359 0.51100004
-0.10875223 -0.062940359 0.51100004
-0.10742296 -0.062940359 0.51100004
-0.1060937 -0.062940359 0.51100004
-0.10455941 -0.062817194 0.51000005
-0.10323276 -0.062817194 0.51000005
-0.10190609 -0.062817194 0.51000005
-0.10057943 -0.062817194 0.51000005
-0.09925276 -0.062817194 0.51000005
-0.097734079 -0.062694013 0.509
-0.096410006 -0.062694013 0.509
-0.09489914 -0.062570848 0.50800002
-0.093577683 -0.062570848 0.50800002
-0.092074618 -0.062447675 0.50700003
-0.090755761 -0.062447675 0.50700003
-0.089436896 -0.062447675 0.50700003
-0.087944232 -0.062324505 0.50600004
-0.086456768 -0.062201329 0.505
-0.085143112 -0.062201329 0.505
-0.083663456 -0.062078159 0.50400001
-0.046022259 -0.060846452 0.49400002
-0.045008898 -0.061215963 0.49700001
-0.043716051 -0.061215963 0.49700001
-0.042508561 -0.061339136 0.49800003
-0.041213114 -0.061339136 0.49800003
-0.039997824 -0.061462305 0.49900001
-0.038777325 -0.061585475 0.5
-0.037626583 -0.061831821 0.50200003
-0.03639308 -0.06195499 0.50300002
-0.035154372 -0.062078159 0.50400001
-0.033910464 -0.062201329 0.505
-0.032661363 -0.062324505 0.50600004
-0.031407051 -0.062447675 0.50700003
-0.030088188 -0.062447675 0.50700003
-0.028826071 -0.062570848 0.50800002
-0.02750461 -0.062570848 0.50800002
-0.02623469 -0.062694013 0.509
-0.024910627 -0.062694013 0.509
-0.023586564 -0.062694013 0.509
-0.022262502 -0.062694013 0.509
-0.020938439 -0.062694013 0.509
-0.019614376 -0.062694013 0.509
-0.018290313 -0.062694013 0.509
-0.01696625 -0.062694013 0.509
-0.015642188 -0.062694013 0.509
-0.014318124 -0.062694013 0.509
-0.012968535 -0.062570848 0.50800002
-0.011647073 -0.062570848 0.50800002
-0.010325611 -0.062570848 0.50800002
-0.0090041496 -0.062570848 0.50800002
-0.0076675653 -0.062447675 0.50700003
-0.0063487049 -0.062447675 0.50700003
-0.0050298451 -0.062447675 0.50700003
-0.0037036652 -0.062324505 0.50600004
-0.0023874063 -0.062324505 0.50600004
-0.0010711475 -0.062324505 0.50600004
0.00024511144 -0.062324505 0.50600004
0.0015582845 -0.062201329 0.505
0.002871942 -0.062201329 0.505
0.004193888 -0.062324505 0.50600004
0.0055101472 -0.062324505 0.50600004
0.0068264059 -0.062324505 0.50600004
0.0081587574 -0.062447675 0.50700003
0.0094776172 -0.062447675 0.50700003
0.010796477 -0.062447675 0.50700003
0.012139234 -0.062570848 0.50800002
0.013460695 -0.062570848 0.50800002
0.014811255 -0.062694013 0.509
0.016135316 -0.062694013 0.509
0.017459381 -0.062694013 0.509
0.018783443 -0.062694013 0.509
0.020107506 -0.062694013 0.509
0.021431569 -0.062694013 0.509
0.022710925 -0.062570848 0.50800002
0.023985079 -0.062447675 0.50700003
0.025254032 -0.062324505 0.50600004
0.026517777 -0.062201329 0.505
0.027776323 -0.062078159 0.50400001
0.028971955 -0.061831821 0.50200003
0.030217495 -0.061708651 0.50100005
0.03145783 -0.061585475 0.5
0.032692961 -0.061462305 0.49900001
0.033922896 -0.061339136 0.49800003
0.035147622 -0.061215963 0.49700001
0.036367152 -0.061092794 0.49600002
0.037657399 -0.061092794 0.49600002
0.03886912 -0.060969625 0.49500003
0.040156763 -0.060969625 0.49500003
0.04136068 -0.060846452 0.49400002
0.042645723 -0.060846452 0.49400002
0.043930769 -0.060846452 0.49400002
0.045215812 -0.060846452 0.49400002
0.046594989 -0.060969625 0.49500003
0.047882631 -0.060969625 0.49500003
0.049269609 -0.061092794 0.49600002
0.050661787 -0.061215963 0.49700001
0.052059174 -0.061339136 0.49800003
0.05346176 -0.061462305 0.49900001
0.054869547 -0.061585475 0.5
0.056282546 -0.061708651 0.50100005
0.08530619 -0.063925728 0.51900005
0.086656265 -0.063925728 0.51900005
0.08800634 -0.063925728 0.51900005
0.089356415 -0.063925728 0.51900005
0.09070649 -0.063925728 0.51900005
0.092233941 -0.064048901 0.52000004
0.093586616 -0.064048901 0.52000004
0.094939299 -0.064048901 0.52000004
0.096291967 -0.064048901 0.52000004
0.097644642 -0.064048901 0.52000004
0.098997325 -0.064048901 0.52000004
0.10054298 -0.064172067 0.52100003
0.10170268 -0.064048901 0.52000004
0.10305535 -0.064048901 0.52000004
0.10440803 -0.064048901 0.52000004
0.10576071 -0.064048901 0.52000004
0.10711338 -0.064048901 0.52000004
0.10846607 -0.064048901 0.52000004
0.10981874 -0.064048901 0.52000004
0.11117142 -0.064048901 0.52000004
0.11252409 -0.064048901 0.52000004
0.11387677 -0.064048901 0.52000004
0.11522945 -0.064048901 0.52000004
0.11658213 -0.064048901 0.52000004
0.11793481 -0.064048901 0.52000004
0.11905808 -0.063925728 0.51900005
0.12040816 -0.063925728 0.51900005
0.12175824 -0.063925728 0.51900005
0.12310831 -0.063925728 0.51900005
0.12445839 -0.063925728 0.51900005
0.12580846 -0.063925728 0.51900005
0.12715854 -0.063925728 0.51900005
0.12850861 -0.063925728 0.51900005
0.12985869 -0.063925728 0.51900005
0.13120876 -0.063925728 0.51900005
0.13255885 -0.063925728 0.51900005
0.13416693 -0.064048901 0.52000004
0.13551961 -0.064048901 0.52000004
0.13713549 -0.064172067 0.52100003
0.13849078 -0.064172067 0.52100003
0.13984606 -0.064172067 0.52100003
0.14147235 -0.06429524 0.52200001
0.14283022 -0.06429524 0.52200001
0.14418811 -0.06429524 0.52200001
0.14554599 -0.06429524 0.52200001
0.14690387 -0.06429524 0.52200001
0.14826174 -0.06429524 0.52200001
0.14961962 -0.06429524 0.52200001
0.15126672 -0.064418405 0.523
0.15262721 -0.064418405 0.523
0.15369327 -0.06429524 0.52200001
0.15505114 -0.06429524 0.52200001
0.15640903 -0.06429524 0.52200001
0.15776689 -0.06429524 0.52200001
0.15912479 -0.06429524 0.52200001
0.1607901 -0.064418405 0.523
0.16215058 -0.064418405 0.523
0.16351105 -0.064418405 0.523
0.16487154 -0.064418405 0.523
0.16623202 -0.064418405 0.523
0.1675925 -0.064418405 0.523
0.16927604 -0.064541586 0.52400005
0.17063913 -0.064541586 0.52400005
0.17200221 -0.064541586 0.52400005
0.17336529 -0.064541586 0.52400005
0.17506182 -0.064664751 0.52500004
0.1764275 -0.064664751 0.52500004
0.17779317 -0.064664751 0.52500004
0.17915888 -0.064664751 0.52500004
0.18052456 -0.064664751 0.52500004
0.18189023 -0.064664751 0.52500004
0.18290687 -0.064541586 0.52400005
0.18426993 -0.064541586 0.52400005
0.18563303 -0.064541586 0.52400005
0.18699612 -0.064541586 0.52400005
0.18799971 -0.064418405 0.523
0.18936019 -0.064418405 0.523
0.19072069 -0.064418405 0.523
0.19208117 -0.064418405 0.523
0.19344164 -0.064418405 0.523
0.19480212 -0.064418405 0.523
0.1961626 -0.064418405 0.523
0.19752309 -0.064418405 0.523
0.19888356 -0.064418405 0.523
0.20024404 -0.064418405 0.523
0.20160452 -0.064418405 0.523
0.20296501 -0.064418405 0.523
0.2043255 -0.064418405 0.523
0.20607927 -0.064541586 0.52400005
0.20744234 -0.064541586 0.52400005
0.20880543 -0.064541586 0.52400005
0.21016851 -0.064541586 0.52400005
0.21153159 -0.064541586 0.52400005
0.21289468 -0.064541586 0.52400005
0.21425776 -0.064541586 0.52400005
0.21562085 -0.064541586 0.52400005
0.21698391 -0.064541586 0.52400005
0.21876369 -0.064664751 0.52500004
0.22012939 -0.064664751 0.52500004
0.22149506 -0.064664751 0.52500004
0.22286074 -0.064664751 0.52500004
0.22465353 -0.064787924 0.52600002
0.22602181 -0.064787924 0.52600002
0.2273901 -0.064787924 0.52600002
0.22919327 -0.06491109 0.52700001
0.23056415 -0.06491109 0.52700001
0.23193505 -0.06491109 0.52700001
0.23374863 -0.065034263 0.528
0.23512211 -0.065034263 0.528
0.23694353 -0.065157436 0.52900004
0.23831962 -0.065157436 0.52900004
0.23969571 -0.065157436 0.52900004
0.24107181 -0.065157436 0.52900004
0.2429062 -0.065280609 0.53000003
0.24428488 -0.065280609 0.53000003
0.24566357 -0.065280609 0.53000003
0.24704227 -0.065280609 0.53000003
0.24842095 -0.065280609 0.53000003
0.24979965 -0.065280609 0.53000003
0.25117832 -0.065280609 0.53000003
0.25255704 -0.065280609 0.53000003
0.25393572 -0.065280609 0.53000003
0.25531441 -0.065280609 0.53000003
0.25669309 -0.065280609 0.53000003
-0.28011805 -0.061008245 0.50600004
-0.27935275 -0.061128814 0.50700003
-0.27803391 -0.061128814 0.50700003
-0.27671504 -0.061128814 0.50700003
-0.27539617 -0.061128814 0.50700003
-0.27407733 -0.061128814 0.50700003
-0.27275845 -0.061128814 0.50700003
-0.27143961 -0.061128814 0.50700003
-0.27012074 -0.061128814 0.50700003
-0.26880187 -0.061128814 0.50700003
-0.26748303 -0.061128814 0.50700003
-0.26616415 -0.061128814 0.50700003
-0.26484531 -0.061128814 0.50700003
-0.26300666 -0.061008245 0.50600004
-0.26169041 -0.061008245 0.50600004
-0.26037416 -0.061008245 0.50600004
-0.25905788 -0.061008245 0.50600004
