# .PCD v0.7 - Point Cloud Data file format
VERSION 0.7
FIELDS x y z
SIZE 4 4 4
TYPE F F F
COUNT 1 1 1
WIDTH 1449
HEIGHT 1
VIEWPOINT 0 0 0 1 0 0 0
POINTS 1449
DATA ascii
-0.27358115 0.12049826 0.51100004
-0.27225187 0.12049826 0.51100004
-0.2709226 0.12049826 0.51100004
-0.26959336 0.12049826 0.51100004
-0.26826409 0.12049826 0.51100004
-0.26693481 0.12049826 0.51100004
-0.26560554 0.12049826 0.51100004
-0.26427627 0.12049826 0.51100004
-0.26294702 0.12049826 0.51100004
-0.26161775 0.12049826 0.51100004
-0.26028851 0.12049826 0.51100004
-0.25895923 0.12049826 0.51100004
-0.25762993 0.12049826 0.51100004
-0.25630069 0.12049826 0.51100004
-0.25497141 0.12049826 0.51100004
-0.25364217 0.12049826 0.51100004
-0.2523129 0.12049826 0.51100004
-0.2514748 0.12073407 0.51200002
-0.2501429 0.12073407 0.51200002
-0.24881105 0.12073407 0.51200002
-0.24747919 0.12073407 0.51200002
-0.24614732 0.12073407 0.51200002
-0.24481545 0.12073407 0.51200002
-0.24348357 0.12073407 0.51200002
-0.24215171 0.12073407 0.51200002
-0.24081986 0.12073407 0.51200002
-0.23948799 0.12073407 0.51200002
-0.23815611 0.12073407 0.51200002
-0.23682424 0.12073407 0.51200002
-0.23549238 0.12073407 0.51200002
-0.23416051 0.12073407 0.51200002
-0.23282866 0.12073407 0.51200002
-0.23149678 0.12073407 0.51200002
-0.23016492 0.12073407 0.51200002
-0.22883305 0.12073407 0.51200002
-0.22750118 0.12073407 0.51200002
-0.22616932 0.12073407 0.51200002
-0.22527657 0.12096988 0.51300001
-0.22394212 0.12096988 0.51300001
-0.22260764 0.12096988 0.51300001
-0.22170451 0.12120568 0.514
-0.22036745 0.12120568 0.514
-0.21903037 0.12120568 0.514
-0.2176933 0.12120568 0.514
-0.21677718 0.1214415 0.51500005
-0.2154375 0.1214415 0.51500005
-0.21409784 0.1214415 0.51500005
-0.21275815 0.1214415 0.51500005
-0.21182901 0.1216773 0.51600003
-0.21048674 0.1216773 0.51600003
-0.20914447 0.1216773 0.51600003
-0.20780218 0.1216773 0.51600003
-0.20686002 0.12191311 0.51700002
-0.20551516 0.12191311 0.51700002
-0.20417029 0.12191311 0.51700002
-0.20282541 0.12191311 0.51700002
-0.20148052 0.12191311 0.51700002
-0.20052277 0.12214892 0.51800001
-0.1991753 0.12214892 0.51800001
-0.19744591 0.12191311 0.51700002
-0.19610105 0.12191311 0.51700002
-0.19513287 0.12214892 0.51800001
-0.1937854 0.12214892 0.51800001
-0.19206643 0.12191311 0.51700002
-0.19109045 0.12214892 0.51800001
-0.18974298 0.12214892 0.51800001
-0.18839549 0.12214892 0.51800001
-0.18704802 0.12214892 0.51800001
-0.18570055 0.12214892 0.51800001
-0.18435308 0.12214892 0.51800001
-0.18335891 0.12238473 0.51900005
-0.18200883 0.12238473 0.51900005
-0.18065876 0.12238473 0.51900005
-0.17930868 0.12238473 0.51900005
-0.17795861 0.12238473 0.51900005
-0.17660852 0.12238473 0.51900005
-0.17525844 0.12238473 0.51900005
-0.17390838 0.12238473 0.51900005
-0.1722258 0.12214892 0.51800001
-0.17087834 0.12214892 0.51800001
-0.16953085 0.12214892 0.51800001
-0.16818337 0.12214892 0.51800001
-0.1668359 0.12214892 0.51800001
-0.16516897 0.12191311 0.51700002
-0.1638241 0.12191311 0.51700002
-0.16247921 0.12191311 0.51700002
-0.16144601 0.12214892 0.51800001
-0.16009854 0.12214892 0.51800001
-0.15875107 0.12214892 0.51800001
-0.15740357 0.12214892 0.51800001
-0.15605611 0.12214892 0.51800001
-0.15470864 0.12214892 0.51800001
-0.15336116 0.12214892 0.51800001
-0.15230717 0.12238473 0.51900005
-0.15066621 0.12214892 0.51800001
-0.14931874 0.12214892 0.51800001
-0.14797126 0.12214892 0.51800001
-0.14662379 0.12214892 0.51800001
-0.14527632 0.12214892 0.51800001
-0.14392884 0.12214892 0.51800001
-0.14258136 0.12214892 0.51800001
-0.14123389 0.12214892 0.51800001
-0.14015648 0.12238473 0.51900005
-0.13853896 0.12214892 0.51800001
-0.13719146 0.12214892 0.51800001
-0.13584399 0.12214892 0.51800001
-0.13449652 0.12214892 0.51800001
-0.13314904 0.12214892 0.51800001
-0.13180156 0.12214892 0.51800001
-0.13045409 0.12214892 0.51800001
-0.12885739 0.12191311 0.51700002
-0.12751251 0.12191311 0.51700002
-0.12616764 0.12191311 0.51700002
-0.12482277 0.12191311 0.51700002
-0.12347789 0.12191311 0.51700002
-0.12213302 0.12191311 0.51700002
-0.12078815 0.12191311 0.51700002
-0.11944327 0.12191311 0.51700002
-0.11832683 0.12214892 0.51800001
-0.11697935 0.12214892 0.51800001
-0.11585511 0.12238473 0.51900005
-0.11450505 0.12238473 0.51900005
-0.11315496 0.12238473 0.51900005
-0.11180489 0.12238473 0.51900005
-0.11045481 0.12238473 0.51900005
-0.10931496 0.12262054 0.52000004
-0.10796227 0.12262054 0.52000004
-0.1066096 0.12262054 0.52000004
-0.10525693 0.12262054 0.52000004
-0.10390425 0.12262054 0.52000004
-0.10255157 0.12262054 0.52000004
-0.10100428 0.12238473 0.51900005
-0.099654205 0.12238473 0.51900005
-0.098304123 0.12238473 0.51900005
-0.096954055 0.12238473 0.51900005
-0.09560398 0.12238473 0.51900005
-0.094253898 0.12238473 0.51900005
-0.09290383 0.12238473 0.51900005
-0.091553748 0.12238473 0.51900005
-0.090377472 0.12262054 0.52000004
-0.089024805 0.12262054 0.52000004
-0.087672122 0.12262054 0.52000004
-0.086485445 0.12285635 0.52100003
-0.085130163 0.12285635 0.52100003
-0.083935678 0.12309215 0.52200001
-0.082577795 0.12309215 0.52200001
-0.081219919 0.12309215 0.52200001
-0.079862043 0.12309215 0.52200001
-0.07865455 0.12332796 0.523
-0.077146284 0.12309215 0.52200001
-0.075788394 0.12309215 0.52200001
-0.074430518 0.12309215 0.52200001
-0.073072635 0.12309215 0.52200001
-0.071714759 0.12309215 0.52200001
-0.070356883 0.12309215 0.52200001
-0.068999 0.12309215 0.52200001
-0.067641124 0.12309215 0.52200001
-0.066283241 0.12309215 0.52200001
-0.064925365 0.12309215 0.52200001
-0.063567482 0.12309215 0.52200001
-0.062209602 0.12309215 0.52200001
-0.060851723 0.12309215 0.52200001
-0.059493843 0.12309215 0.52200001
-0.058135964 0.12309215 0.52200001
-0.056778084 0.12309215 0.52200001
-0.055526372 0.12332796 0.523
-0.054062326 0.12309215 0.52200001
-0.052805409 0.12332796 0.523
-0.051444933 0.12332796 0.523
-0.050084449 0.12332796 0.523
-0.04872397 0.12332796 0.523
-0.047363486 0.12332796 0.523
-0.046003006 0.12332796 0.523
-0.044642523 0.12332796 0.523
-0.043282043 0.12332796 0.523
-0.041921563 0.12332796 0.523
-0.040483531 0.12309215 0.52200001
-0.039125647 0.12309215 0.52200001
-0.037767768 0.12309215 0.52200001
-0.036409888 0.12309215 0.52200001
-0.034984861 0.12285635 0.52100003
-0.033629585 0.12285635 0.52100003
-0.032274306 0.12285635 0.52100003
-0.030919027 0.12285635 0.52100003
-0.029563747 0.12285635 0.52100003
-0.028208468 0.12285635 0.52100003
-0.026853191 0.12285635 0.52100003
-0.025497911 0.12285635 0.52100003
-0.024142632 0.12285635 0.52100003
-0.022831094 0.12309215 0.52200001
-0.021473212 0.12309215 0.52200001
-0.020115333 0.12309215 0.52200001
-0.018757453 0.12309215 0.52200001
-0.017399574 0.12309215 0.52200001
-0.016041694 0.12309215 0.52200001
-0.014683814 0.12309215 0.52200001
-0.013325934 0.12309215 0.52200001
-0.011968056 0.12309215 0.52200001
-0.010610175 0.12309215 0.52200001
-0.0092522958 0.12309215 0.52200001
-0.0078944163 0.12309215 0.52200001
-0.0065365359 0.12309215 0.52200001
-0.0051786569 0.12309215 0.52200001
-0.0038280964 0.12332796 0.523
-0.0024676153 0.12332796 0.523
-0.0011071345 0.12332796 0.523
0.0002533464 0.12332796 0.523
0.0016138274 0.12332796 0.523
0.0029743081 0.12332796 0.523
0.0043347892 0.12332796 0.523
0.0056952699 0.12332796 0.523
0.007055751 0.12332796 0.523
0.0084162327 0.12332796 0.523
0.0097767124 0.12332796 0.523
0.01115849 0.12356378 0.52400005
0.012521572 0.12356378 0.52400005
0.013884654 0.12356378 0.52400005
0.015247737 0.12356378 0.52400005
0.01661082 0.12356378 0.52400005
0.018008202 0.12379958 0.52500004
0.019373886 0.12379958 0.52500004
0.02073957 0.12379958 0.52500004
0.022105254 0.12379958 0.52500004
0.023470936 0.12379958 0.52500004
0.02483662 0.12379958 0.52500004
0.026202304 0.12379958 0.52500004
0.027567986 0.12379958 0.52500004
0.02893367 0.12379958 0.52500004
0.030299356 0.12379958 0.52500004
0.031665038 0.12379958 0.52500004
0.033030722 0.12379958 0.52500004
0.034461919 0.12403539 0.52600002
0.035830207 0.12403539 0.52600002
0.037198491 0.12403539 0.52600002
0.038566776 0.12403539 0.52600002
0.039935064 0.12403539 0.52600002
0.041303348 0.12403539 0.52600002
0.042671628 0.12403539 0.52600002
0.044039916 0.12403539 0.52600002
0.0454082 0.12403539 0.52600002
0.046776485 0.12403539 0.52600002
0.048236299 0.12427119 0.52700001
0.049607188 0.12427119 0.52700001
0.050978072 0.12427119 0.52700001
0.052348956 0.12427119 0.52700001
0.053719845 0.12427119 0.52700001
0.055090729 0.12427119 0.52700001
0.056461617 0.12427119 0.52700001
0.057832506 0.12427119 0.52700001
0.05920339 0.12427119 0.52700001
0.060574275 0.12427119 0.52700001
0.061945159 0.12427119 0.52700001
0.063436188 0.124507 0.528
0.06480968 0.124507 0.528
0.066183165 0.124507 0.528
0.067556657 0.124507 0.528
0.068930142 0.124507 0.528
0.070303634 0.124507 0.528
0.071812876 0.12474282 0.52900004
0.073188961 0.12474282 0.52900004
0.074565053 0.12474282 0.52900004
0.075941138 0.12474282 0.52900004
0.07731723 0.12474282 0.52900004
0.078842074 0.12497862 0.53000003
0.080220766 0.12497862 0.53000003
0.081599452 0.12497862 0.53000003
0.082978144 0.12497862 0.53000003
0.084356837 0.12497862 0.53000003
0.085897289 0.12521443 0.53100002
0.087278582 0.12521443 0.53100002
0.088659868 0.12521443 0.53100002
0.090041168 0.12521443 0.53100002
0.091422454 0.12521443 0.53100002
0.092803739 0.12521443 0.53100002
0.094362408 0.12545024 0.53200001
0.095746301 0.12545024 0.53200001
0.096947625 0.12521443 0.53100002
0.098328911 0.12521443 0.53100002
0.099710196 0.12521443 0.53100002
0.1010915 0.12521443 0.53100002
0.10247278 0.12521443 0.53100002
0.10404966 0.12545024 0.53200001
0.10543355 0.12545024 0.53200001
0.10681745 0.12545024 0.53200001
0.10820133 0.12545024 0.53200001
0.10958523 0.12545024 0.53200001
0.11096912 0.12545024 0.53200001
0.11235301 0.12545024 0.53200001
0.11373691 0.12545024 0.53200001
0.1151208 0.12545024 0.53200001
0.11650468 0.12545024 0.53200001
0.11788858 0.12545024 0.53200001
0.11927247 0.12545024 0.53200001
0.12065637 0.12545024 0.53200001
0.12204026 0.12545024 0.53200001
0.12342416 0.12545024 0.53200001
0.12480804 0.12545024 0.53200001
0.12619193 0.12545024 0.53200001
0.12757583 0.12545024 0.53200001
0.12895972 0.12545024 0.53200001
0.13034362 0.12545024 0.53200001
0.1317275 0.12545024 0.53200001
0.1331114 0.12545024 0.53200001
0.13449529 0.12545024 0.53200001
0.13587919 0.12545024 0.53200001
0.1375211 0.12568606 0.53300005
0.1389076 0.12568606 0.53300005
0.14029409 0.12568606 0.53300005
0.1416806 0.12568606 0.53300005
0.14306709 0.12568606 0.53300005
0.14445357 0.12568606 0.53300005
0.14584006 0.12568606 0.53300005
0.14722656 0.12568606 0.53300005
0.14889188 0.12592186 0.53400004
0.15028098 0.12592186 0.53400004
0.15167007 0.12592186 0.53400004
0.15305915 0.12592186 0.53400004
0.15444826 0.12592186 0.53400004
0.15583736 0.12592186 0.53400004
0.15722646 0.12592186 0.53400004
0.15861554 0.12592186 0.53400004
0.16000463 0.12592186 0.53400004
0.16139373 0.12592186 0.53400004
0.16278283 0.12592186 0.53400004
0.16417193 0.12592186 0.53400004
0.16556102 0.12592186 0.53400004
0.16695011 0.12592186 0.53400004
0.16833922 0.12592186 0.53400004
0.17004615 0.12615767 0.53500003
0.17143784 0.12615767 0.53500003
0.17282954 0.12615767 0.53500003
0.17422123 0.12615767 0.53500003
0.17561294 0.12615767 0.53500003
0.17733549 0.12639347 0.53600001
0.17872977 0.12639347 0.53600001
0.18012407 0.12639347 0.53600001
0.18151836 0.12639347 0.53600001
0.18291268 0.12639347 0.53600001
0.18465082 0.12662928 0.537
0.18604772 0.12662928 0.537
0.18744461 0.12662928 0.537
0.18884151 0.12662928 0.537
0.19023842 0.12662928 0.537
0.19163531 0.12662928 0.537
0.19303221 0.12662928 0.537
0.1944291 0.12662928 0.537
0.19582602 0.12662928 0.537
0.19722292 0.12662928 0.537
0.19861981 0.12662928 0.537
0.20001671 0.12662928 0.537
0.2014136 0.12662928 0.537
0.20281051 0.12662928 0.537
0.20420741 0.12662928 0.537
0.2056043 0.12662928 0.537
0.20700119 0.12662928 0.537
0.2083981 0.12662928 0.537
0.20979501 0.12662928 0.537
0.21119191 0.12662928 0.537
0.2125888 0.12662928 0.537
0.2143842 0.1268651 0.53800005
0.2157837 0.1268651 0.53800005
0.2171832 0.1268651 0.53800005
0.2185827 0.1268651 0.53800005
0.21998221 0.1268651 0.53800005
0.22138169 0.1268651 0.53800005
0.2227812 0.1268651 0.53800005
0.22418071 0.1268651 0.53800005
0.2255802 0.1268651 0.53800005
0.2269797 0.1268651 0.53800005
0.22795469 0.12662928 0.537
0.2293516 0.12662928 0.537
0.23074849 0.12662928 0.537
0.23214538 0.12662928 0.537
0.23354228 0.12662928 0.537
0.23493919 0.12662928 0.537
0.2363361 0.12662928 0.537
0.23773299 0.12662928 0.537
0.23912989 0.12662928 0.537
0.24052678 0.12662928 0.537
0.24237421 0.1268651 0.53800005
0.24377371 0.1268651 0.53800005
0.24517322 0.1268651 0.53800005
0.24657272 0.1268651 0.53800005
0.24797221 0.1268651 0.53800005
0.24937171 0.1268651 0.53800005
0.25077122 0.1268651 0.53800005
0.25217071 0.1268651 0.53800005
0.25357023 0.1268651 0.53800005
0.25496972 0.1268651 0.53800005
0.25636923 0.1268651 0.53800005
0.25824785 0.1271009 0.53900003
0.25964993 0.1271009 0.53900003
0.26105204 0.1271009 0.53900003
-0.28210771 0.12206594 0.51200002
-0.28022748 0.12182754 0.51100004
-0.27889821 0.12182754 0.51100004
-0.27756894 0.12182754 0.51100004
-0.27623966 0.12182754 0.51100004
-0.27491039 0.12182754 0.51100004
-0.27358115 0.12182754 0.51100004
-0.27225187 0.12182754 0.51100004
-0.2709226 0.12182754 0.51100004
-0.26959336 0.12182754 0.51100004
-0.26826409 0.12182754 0.51100004
-0.26693481 0.12182754 0.51100004
-0.26560554 0.12182754 0.51100004
-0.26427627 0.12182754 0.51100004
-0.26294702 0.12182754 0.51100004
-0.26161775 0.12182754 0.51100004
-0.26028851 0.12182754 0.51100004
-0.25895923 0.12182754 0.51100004
-0.25762993 0.12182754 0.51100004
-0.25630069 0.12182754 0.51100004
-0.25497141 0.12182754 0.51100004
-0.25413853 0.12206594 0.51200002
-0.25280666 0.12206594 0.51200002
-0.2514748 0.12206594 0.51200002
-0.2501429 0.12206594 0.51200002
-0.24929699 0.12230434 0.51300001
-0.24796253 0.12230434 0.51300001
-0.24662808 0.12230434 0.51300001
-0.2452936 0.12230434 0.51300001
-0.24395913 0.12230434 0.51300001
-0.24262466 0.12230434 0.51300001
-0.2412902 0.12230434 0.51300001
-0.23995574 0.12230434 0.51300001
-0.23862125 0.12230434 0.51300001
-0.23682424 0.12206594 0.51200002
-0.23549238 0.12206594 0.51200002
-0.23416051 0.12206594 0.51200002
-0.23282866 0.12206594 0.51200002
-0.23149678 0.12206594 0.51200002
-0.23016492 0.12206594 0.51200002
-0.22883305 0.12206594 0.51200002
-0.22750118 0.12206594 0.51200002
-0.22661105 0.12230434 0.51300001
-0.22527657 0.12230434 0.51300001
-0.22394212 0.12230434 0.51300001
-0.22304156 0.12254275 0.514
-0.22170451 0.12254275 0.514
-0.22036745 0.12254275 0.514
-0.21903037 0.12254275 0.514
-0.21811683 0.12278117 0.51500005
-0.21677718 0.12278117 0.51500005
-0.2154375 0.12278117 0.51500005
-0.21409784 0.12278117 0.51500005
-0.21317127 0.12301958 0.51600003
-0.21182901 0.12301958 0.51600003
-0.21048674 0.12301958 0.51600003
-0.20914447 0.12301958 0.51600003
-0.2082049 0.12325799 0.51700002
-0.20726013 0.1234964 0.51800001
-0.20591266 0.1234964 0.51800001
-0.2045652 0.1234964 0.51800001
-0.20321772 0.1234964 0.51800001
-0.20187023 0.1234964 0.51800001
-0.20052277 0.1234964 0.51800001
-0.1991753 0.1234964 0.51800001
-0.19782782 0.1234964 0.51800001
-0.19648035 0.1234964 0.51800001
-0.19513287 0.1234964 0.51800001
-0.1937854 0.1234964 0.51800001
-0.19243792 0.1234964 0.51800001
-0.19109045 0.1234964 0.51800001
-0.18974298 0.1234964 0.51800001
-0.18839549 0.1234964 0.51800001
-0.18704802 0.1234964 0.51800001
-0.18570055 0.1234964 0.51800001
-0.18435308 0.1234964 0.51800001
-0.18300559 0.1234964 0.51800001
-0.18165812 0.1234964 0.51800001
-0.18065876 0.12373482 0.51900005
-0.17896318 0.1234964 0.51800001
-0.1776157 0.1234964 0.51800001
-0.17626822 0.1234964 0.51800001
-0.17492075 0.1234964 0.51800001
-0.17357329 0.1234964 0.51800001
-0.1722258 0.1234964 0.51800001
-0.17054845 0.12325799 0.51700002
-0.16920358 0.12325799 0.51700002
-0.1678587 0.12325799 0.51700002
-0.16651383 0.12325799 0.51700002
-0.16516897 0.12325799 0.51700002
-0.1638241 0.12325799 0.51700002
-0.16247921 0.12325799 0.51700002
-0.16113433 0.12325799 0.51700002
-0.15978947 0.12325799 0.51700002
-0.15875107 0.1234964 0.51800001
-0.15740357 0.1234964 0.51800001
-0.15605611 0.1234964 0.51800001
-0.15470864 0.1234964 0.51800001
-0.15336116 0.1234964 0.51800001
-0.15201369 0.1234964 0.51800001
-0.15066621 0.1234964 0.51800001
-0.14931874 0.1234964 0.51800001
-0.14797126 0.1234964 0.51800001
-0.14662379 0.1234964 0.51800001
-0.14527632 0.1234964 0.51800001
-0.14392884 0.1234964 0.51800001
-0.14258136 0.1234964 0.51800001
-0.14123389 0.1234964 0.51800001
-0.13988642 0.1234964 0.51800001
-0.13853896 0.1234964 0.51800001
-0.13719146 0.1234964 0.51800001
-0.13584399 0.1234964 0.51800001
-0.13449652 0.1234964 0.51800001
-0.13314904 0.1234964 0.51800001
-0.13180156 0.1234964 0.51800001
-0.13045409 0.1234964 0.51800001
-0.12910663 0.1234964 0.51800001
-0.12775914 0.1234964 0.51800001
-0.12616764 0.12325799 0.51700002
-0.12482277 0.12325799 0.51700002
-0.12347789 0.12325799 0.51700002
-0.12213302 0.12325799 0.51700002
-0.12078815 0.12325799 0.51700002
-0.11944327 0.12325799 0.51700002
-0.11832683 0.1234964 0.51800001
-0.11697935 0.1234964 0.51800001
-0.11563188 0.1234964 0.51800001
-0.11450505 0.12373482 0.51900005
-0.11315496 0.12373482 0.51900005
-0.11180489 0.12373482 0.51900005
-0.11045481 0.12373482 0.51900005
-0.10910474 0.12373482 0.51900005
-0.10775466 0.12373482 0.51900005
-0.10640459 0.12373482 0.51900005
-0.10505451 0.12373482 0.51900005
-0.10370443 0.12373482 0.51900005
-0.10235436 0.12373482 0.51900005
-0.10100428 0.12373482 0.51900005
-0.099654205 0.12373482 0.51900005
-0.098304123 0.12373482 0.51900005
-0.096954055 0.12373482 0.51900005
-0.09560398 0.12373482 0.51900005
-0.094253898 0.12373482 0.51900005
-0.09290383 0.12373482 0.51900005
-0.091553748 0.12373482 0.51900005
-0.090203673 0.12373482 0.51900005
-0.089024805 0.12397322 0.52000004
-0.087672122 0.12397322 0.52000004
-0.086319447 0.12397322 0.52000004
-0.085130163 0.12421163 0.52100003
-0.083774887 0.12421163 0.52100003
-0.082577795 0.12445004 0.52200001
-0.081219919 0.12445004 0.52200001
-0.079862043 0.12445004 0.52200001
-0.07850416 0.12445004 0.52200001
-0.077146284 0.12445004 0.52200001
-0.075788394 0.12445004 0.52200001
-0.074430518 0.12445004 0.52200001
-0.072932653 0.12421163 0.52100003
-0.071577378 0.12421163 0.52100003
-0.070222102 0.12421163 0.52100003
-0.068866819 0.12421163 0.52100003
-0.067511544 0.12421163 0.52100003
-0.066283241 0.12445004 0.52200001
-0.064925365 0.12445004 0.52200001
-0.063567482 0.12445004 0.52200001
-0.062209602 0.12445004 0.52200001
-0.060851723 0.12445004 0.52200001
-0.059493843 0.12445004 0.52200001
-0.058135964 0.12445004 0.52200001
-0.056778084 0.12445004 0.52200001
-0.055420205 0.12445004 0.52200001
-0.054165889 0.12468845 0.523
-0.052805409 0.12468845 0.523
-0.051444933 0.12468845 0.523
-0.050084449 0.12468845 0.523
-0.04872397 0.12468845 0.523
-0.047363486 0.12468845 0.523
-0.046003006 0.12468845 0.523
-0.044557165 0.12445004 0.52200001
-0.043282043 0.12468845 0.523
-0.04184141 0.12445004 0.52200001
-0.040483531 0.12445004 0.52200001
-0.039125647 0.12445004 0.52200001
-0.037767768 0.12445004 0.52200001
-0.03634014 0.12421163 0.52100003
-0.034984861 0.12421163 0.52100003
-0.033694129 0.12445004 0.52200001
-0.032274306 0.12421163 0.52100003
-0.030919027 0.12421163 0.52100003
-0.029563747 0.12421163 0.52100003
-0.02826261 0.12445004 0.52200001
-0.026853191 0.12421163 0.52100003
-0.025497911 0.12421163 0.52100003
-0.024188971 0.12445004 0.52200001
-0.022831094 0.12445004 0.52200001
-0.021473212 0.12445004 0.52200001
-0.020115333 0.12445004 0.52200001
-0.018757453 0.12445004 0.52200001
-0.017399574 0.12445004 0.52200001
-0.016041694 0.12445004 0.52200001
-0.014683814 0.12445004 0.52200001
-0.013325934 0.12445004 0.52200001
-0.011968056 0.12445004 0.52200001
-0.010610175 0.12445004 0.52200001
-0.0092522958 0.12445004 0.52200001
-0.0078944163 0.12445004 0.52200001
-0.0065365359 0.12445004 0.52200001
-0.0051885773 0.12468845 0.523
-0.0038280964 0.12468845 0.523
-0.0024676153 0.12468845 0.523
-0.0011071345 0.12468845 0.523
0.0002533464 0.12468845 0.523
0.0016138274 0.12468845 0.523
0.0029743081 0.12468845 0.523
0.0043347892 0.12468845 0.523
0.0056952699 0.12468845 0.523
0.007055751 0.12468845 0.523
0.0084162327 0.12468845 0.523
0.0097954068 0.12492687 0.52400005
0.01115849 0.12492687 0.52400005
0.012521572 0.12492687 0.52400005
0.013884654 0.12492687 0.52400005
0.015276835 0.12516527 0.52500004
0.016642518 0.12516527 0.52500004
0.018008202 0.12516527 0.52500004
0.019373886 0.12516527 0.52500004
0.02073957 0.12516527 0.52500004
0.022105254 0.12516527 0.52500004
0.023470936 0.12516527 0.52500004
0.02483662 0.12516527 0.52500004
0.026152397 0.12492687 0.52400005
0.027515477 0.12492687 0.52400005
0.02887856 0.12492687 0.52400005
0.030299356 0.12516527 0.52500004
0.031665038 0.12516527 0.52500004
0.033030722 0.12516527 0.52500004
0.034461919 0.12540367 0.52600002
0.035830207 0.12540367 0.52600002
0.037198491 0.12540367 0.52600002
0.038566776 0.12540367 0.52600002
0.039935064 0.12540367 0.52600002
0.041303348 0.12540367 0.52600002
0.042752754 0.12564209 0.52700001
0.044123638 0.12564209 0.52700001
0.045494527 0.12564209 0.52700001
0.046865415 0.12564209 0.52700001
0.048236299 0.12564209 0.52700001
0.049607188 0.12564209 0.52700001
0.050978072 0.12564209 0.52700001
0.052348956 0.12564209 0.52700001
0.053719845 0.12564209 0.52700001
0.055090729 0.12564209 0.52700001
0.056461617 0.12564209 0.52700001
0.057832506 0.12564209 0.52700001
0.05920339 0.12564209 0.52700001
0.060574275 0.12564209 0.52700001
0.061945159 0.12564209 0.52700001
0.063436188 0.12588049 0.528
0.064686932 0.12564209 0.52700001
0.066183165 0.12588049 0.528
0.067556657 0.12588049 0.528
0.068930142 0.12588049 0.528
0.070303634 0.12588049 0.528
0.071812876 0.12611891 0.52900004
0.073188961 0.12611891 0.52900004
0.074565053 0.12611891 0.52900004
0.075941138 0.12611891 0.52900004
0.077463388 0.12635732 0.53000003
0.078842074 0.12635732 0.53000003
0.080220766 0.12635732 0.53000003
0.081599452 0.12635732 0.53000003
0.082978144 0.12635732 0.53000003
0.084356837 0.12635732 0.53000003
0.085897289 0.12659572 0.53100002
0.087278582 0.12659572 0.53100002
0.088659868 0.12659572 0.53100002
0.090041168 0.12659572 0.53100002
0.091422454 0.12659572 0.53100002
0.092978515 0.12683414 0.53200001
0.094362408 0.12683414 0.53200001
0.095746301 0.12683414 0.53200001
0.096947625 0.12659572 0.53100002
0.098328911 0.12659572 0.53100002
0.099897973 0.12683414 0.53200001
0.10128187 0.12683414 0.53200001
0.10266576 0.12683414 0.53200001
0.10404966 0.12683414 0.53200001
0.10543355 0.12683414 0.53200001
0.10681745 0.12683414 0.53200001
0.10820133 0.12683414 0.53200001
0.10958523 0.12683414 0.53200001
0.11096912 0.12683414 0.53200001
0.11235301 0.12683414 0.53200001
0.11373691 0.12683414 0.53200001
0.1151208 0.12683414 0.53200001
0.11650468 0.12683414 0.53200001
0.11788858 0.12683414 0.53200001
0.11927247 0.12683414 0.53200001
0.12065637 0.12683414 0.53200001
0.12204026 0.12683414 0.53200001
0.12342416 0.12683414 0.53200001
0.12480804 0.12683414 0.53200001
0.12619193 0.12683414 0.53200001
0.12757583 0.12683414 0.53200001
0.12895972 0.12683414 0.53200001
0.13034362 0.12683414 0.53200001
0.1317275 0.12683414 0.53200001
0.1331114 0.12683414 0.53200001
0.13474812 0.12707256 0.53300005
0.13613461 0.12707256 0.53300005
0.1375211 0.12707256 0.53300005
0.1389076 0.12707256 0.53300005
0.14029409 0.12707256 0.53300005
0.1416806 0.12707256 0.53300005
0.14306709 0.12707256 0.53300005
0.14445357 0.12707256 0.53300005
0.14611368 0.12731096 0.53400004
0.14750278 0.12731096 0.53400004
0.14889188 0.12731096 0.53400004
0.15028098 0.12731096 0.53400004
0.15167007 0.12731096 0.53400004
0.15305915 0.12731096 0.53400004
0.15444826 0.12731096 0.53400004
0.15583736 0.12731096 0.53400004
0.15722646 0.12731096 0.53400004
0.15861554 0.12731096 0.53400004
0.16000463 0.12731096 0.53400004
0.16139373 0.12731096 0.53400004
0.16278283 0.12731096 0.53400004
0.16417193 0.12731096 0.53400004
0.16556102 0.12731096 0.53400004
0.16695011 0.12731096 0.53400004
0.16833922 0.12731096 0.53400004
0.17004615 0.12754937 0.53500003
0.17143784 0.12754937 0.53500003
0.17282954 0.12754937 0.53500003
0.17422123 0.12754937 0.53500003
0.17561294 0.12754937 0.53500003
0.17733549 0.12778778 0.53600001
0.17872977 0.12778778 0.53600001
0.18012407 0.12778778 0.53600001
0.18151836 0.12778778 0.53600001
0.18291268 0.12778778 0.53600001
0.18465082 0.12802619 0.537
0.18604772 0.12802619 0.537
0.18744461 0.12802619 0.537
0.18884151 0.12802619 0.537
0.19023842 0.12802619 0.537
0.19163531 0.12802619 0.537
0.19303221 0.12802619 0.537
0.1944291 0.12802619 0.537
0.19582602 0.12802619 0.537
0.19722292 0.12802619 0.537
0.19861981 0.12802619 0.537
0.20001671 0.12802619 0.537
0.2014136 0.12802619 0.537
0.20281051 0.12802619 0.537
0.20420741 0.12802619 0.537
0.2056043 0.12802619 0.537
0.20700119 0.12802619 0.537
0.2083981 0.12802619 0.537
0.20979501 0.12802619 0.537
0.21119191 0.12802619 0.537
0.2125888 0.12802619 0.537
0.2143842 0.12826461 0.53800005
0.2157837 0.12826461 0.53800005
0.2171832 0.12826461 0.53800005
0.2185827 0.12826461 0.53800005
0.21998221 0.12826461 0.53800005
0.22138169 0.12826461 0.53800005
0.22236709 0.12802619 0.537
0.223764 0.12802619 0.537
0.2251609 0.12802619 0.537
0.22655779 0.12802619 0.537
0.22795469 0.12802619 0.537
0.2293516 0.12802619 0.537
0.23074849 0.12802619 0.537
0.23214538 0.12802619 0.537
0.23354228 0.12802619 0.537
0.23493919 0.12802619 0.537
0.2363361 0.12802619 0.537
0.23773299 0.12802619 0.537
0.23912989 0.12802619 0.537
0.24052678 0.12802619 0.537
0.24192367 0.12802619 0.537
0.24332058 0.12802619 0.537
0.24517322 0.12826461 0.53800005
0.24657272 0.12826461 0.53800005
0.24797221 0.12826461 0.53800005
0.24937171 0.12826461 0.53800005
0.25077122 0.12826461 0.53800005
0.25217071 0.12826461 0.53800005
0.25357023 0.12826461 0.53800005
0.25496972 0.12826461 0.53800005
0.25636923 0.12826461 0.53800005
0.25776872 0.12826461 0.53800005
0.25916821 0.12826461 0.53800005
0.26056772 0.12826461 0.53800005
-0.28210771 0.1233978 0.51200002
-0.28022748 0.12315679 0.51100004
-0.27889821 0.12315679 0.51100004
-0.27756894 0.12315679 0.51100004
-0.27623966 0.12315679 0.51100004
-0.27491039 0.12315679 0.51100004
-0.27358115 0.12315679 0.51100004
-0.27225187 0.12315679 0.51100004
-0.27039242 0.12291579 0.51000005
-0.26906577 0.12291579 0.51000005
-0.26826409 0.12315679 0.51100004
-0.26693481 0.12315679 0.51100004
-0.26560554 0.12315679 0.51100004
-0.26375911 0.12291579 0.51000005
-0.26243246 0.12291579 0.51000005
-0.26161775 0.12315679 0.51100004
-0.26028851 0.12315679 0.51100004
-0.25895923 0.12315679 0.51100004
-0.25762993 0.12315679 0.51100004
-0.25630069 0.12315679 0.51100004
-0.25497141 0.12315679 0.51100004
-0.25413853 0.1233978 0.51200002
-0.25280666 0.1233978 0.51200002
-0.2514748 0.1233978 0.51200002
-0.2501429 0.1233978 0.51200002
-0.24929699 0.12363881 0.51300001
-0.24796253 0.12363881 0.51300001
-0.24710882 0.12387982 0.514
-0.24577175 0.12387982 0.514
-0.24443467 0.12387982 0.514
-0.2430976 0.12387982 0.514
-0.24176054 0.12387982 0.514
-0.24042347 0.12387982 0.514
-0.23862125 0.12363881 0.51300001
-0.23728679 0.12363881 0.51300001
-0.23595232 0.12363881 0.51300001
-0.23416051 0.1233978 0.51200002
-0.23282866 0.1233978 0.51200002
-0.23149678 0.1233978 0.51200002
-0.23016492 0.1233978 0.51200002
-0.22883305 0.1233978 0.51200002
-0.22794552 0.12363881 0.51300001
-0.22661105 0.12363881 0.51300001
-0.22527657 0.12363881 0.51300001
-0.22437863 0.12387982 0.514
-0.22304156 0.12387982 0.514
-0.22170451 0.12387982 0.514
-0.22036745 0.12387982 0.514
-0.21945651 0.12412084 0.51500005
-0.21811683 0.12412084 0.51500005
-0.21677718 0.12412084 0.51500005
-0.2154375 0.12412084 0.51500005
-0.21451356 0.12436185 0.51600003
-0.21317127 0.12436185 0.51600003
-0.21182901 0.12436185 0.51600003
-0.21089464 0.12460285 0.51700002
-0.20954978 0.12460285 0.51700002
-0.2086076 0.12484387 0.51800001
-0.20766027 0.12508489 0.51900005
-0.2063102 0.12508489 0.51900005
-0.20496012 0.12508489 0.51900005
-0.20361005 0.12508489 0.51900005
-0.20225996 0.12508489 0.51900005
-0.2009099 0.12508489 0.51900005
-0.19955982 0.12508489 0.51900005
-0.19820975 0.12508489 0.51900005
-0.19685967 0.12508489 0.51900005
-0.19550958 0.12508489 0.51900005
-0.1937854 0.12484387 0.51800001
-0.19243792 0.12484387 0.51800001
-0.19109045 0.12484387 0.51800001
-0.18974298 0.12484387 0.51800001
-0.18839549 0.12484387 0.51800001
-0.18704802 0.12484387 0.51800001
-0.18570055 0.12484387 0.51800001
-0.18435308 0.12484387 0.51800001
-0.18300559 0.12484387 0.51800001
-0.18165812 0.12484387 0.51800001
-0.18031065 0.12484387 0.51800001
-0.17896318 0.12484387 0.51800001
-0.1776157 0.12484387 0.51800001
-0.17626822 0.12484387 0.51800001
-0.17458306 0.12460285 0.51700002
-0.1732382 0.12460285 0.51700002
-0.17189333 0.12460285 0.51700002
-0.17054845 0.12460285 0.51700002
-0.16920358 0.12460285 0.51700002
-0.1678587 0.12460285 0.51700002
-0.16651383 0.12460285 0.51700002
-0.16516897 0.12460285 0.51700002
-0.1638241 0.12460285 0.51700002
-0.16247921 0.12460285 0.51700002
-0.16113433 0.12460285 0.51700002
-0.15978947 0.12460285 0.51700002
-0.1584446 0.12460285 0.51700002
-0.15709971 0.12460285 0.51700002
-0.15575485 0.12460285 0.51700002
-0.15470864 0.12484387 0.51800001
-0.15336116 0.12484387 0.51800001
-0.15201369 0.12484387 0.51800001
-0.15066621 0.12484387 0.51800001
-0.14931874 0.12484387 0.51800001
-0.14797126 0.12484387 0.51800001
-0.14662379 0.12484387 0.51800001
-0.14527632 0.12484387 0.51800001
-0.14392884 0.12484387 0.51800001
-0.14258136 0.12484387 0.51800001
-0.14150655 0.12508489 0.51900005
-0.14015648 0.12508489 0.51900005
-0.13880642 0.12508489 0.51900005
-0.13745633 0.12508489 0.51900005
-0.13610625 0.12508489 0.51900005
-0.13475618 0.12508489 0.51900005
-0.1334061 0.12508489 0.51900005
-0.13205601 0.12508489 0.51900005
-0.13070595 0.12508489 0.51900005
-0.12910663 0.12484387 0.51800001
-0.12775914 0.12484387 0.51800001
-0.12641168 0.12484387 0.51800001
-0.12506419 0.12484387 0.51800001
-0.12371672 0.12484387 0.51800001
-0.12236925 0.12484387 0.51800001
-0.12078815 0.12460285 0.51700002
-0.1196743 0.12484387 0.51800001
-0.11832683 0.12484387 0.51800001
-0.11697935 0.12484387 0.51800001
-0.11563188 0.12484387 0.51800001
-0.1142844 0.12484387 0.51800001
-0.11315496 0.12508489 0.51900005
-0.11180489 0.12508489 0.51900005
-0.11045481 0.12508489 0.51900005
-0.10910474 0.12508489 0.51900005
-0.10775466 0.12508489 0.51900005
-0.10640459 0.12508489 0.51900005
-0.10505451 0.12508489 0.51900005
-0.10370443 0.12508489 0.51900005
-0.10235436 0.12508489 0.51900005
-0.10100428 0.12508489 0.51900005
-0.099654205 0.12508489 0.51900005
-0.098304123 0.12508489 0.51900005
-0.096954055 0.12508489 0.51900005
-0.09560398 0.12508489 0.51900005
-0.094253898 0.12508489 0.51900005
-0.09290383 0.12508489 0.51900005
-0.091553748 0.12508489 0.51900005
-0.090203673 0.12508489 0.51900005
-0.088853605 0.12508489 0.51900005
-0.087672122 0.1253259 0.52000004
-0.086319447 0.1253259 0.52000004
-0.084966764 0.1253259 0.52000004
-0.083774887 0.1255669 0.52100003
-0.082419604 0.1255669 0.52100003
-0.081064329 0.1255669 0.52100003
-0.079862043 0.12580791 0.52200001
-0.07850416 0.12580791 0.52200001
-0.077146284 0.12580791 0.52200001
-0.075643212 0.1255669 0.52100003
-0.074287936 0.1255669 0.52100003
-0.072932653 0.1255669 0.52100003
-0.071577378 0.1255669 0.52100003
-0.070222102 0.1255669 0.52100003
-0.068866819 0.1255669 0.52100003
-0.067511544 0.1255669 0.52100003
-0.066156261 0.1255669 0.52100003
-0.064800985 0.1255669 0.52100003
-0.063567482 0.12580791 0.52200001
-0.062209602 0.12580791 0.52200001
-0.060851723 0.12580791 0.52200001
-0.059493843 0.12580791 0.52200001
-0.058135964 0.12580791 0.52200001
-0.056778084 0.12580791 0.52200001
-0.055420205 0.12580791 0.52200001
-0.054165889 0.12604892 0.523
-0.052805409 0.12604892 0.523
-0.051444933 0.12604892 0.523
-0.050084449 0.12604892 0.523
-0.04872397 0.12604892 0.523
-0.047272928 0.12580791 0.52200001
-0.045915045 0.12580791 0.52200001
-0.044557165 0.12580791 0.52200001
-0.043199286 0.12580791 0.52200001
-0.04184141 0.12580791 0.52200001
-0.040483531 0.12580791 0.52200001
-0.039125647 0.12580791 0.52200001
-0.037767768 0.12580791 0.52200001
-0.03634014 0.1255669 0.52100003
-0.034984861 0.1255669 0.52100003
-0.033629585 0.1255669 0.52100003
-0.032274306 0.1255669 0.52100003
-0.030919027 0.1255669 0.52100003
-0.029563747 0.1255669 0.52100003
-0.02826261 0.12580791 0.52200001
-0.026853191 0.1255669 0.52100003
-0.025546851 0.12580791 0.52200001
-0.024188971 0.12580791 0.52200001
-0.022831094 0.12580791 0.52200001
-0.021473212 0.12580791 0.52200001
-0.020153867 0.12604892 0.523
-0.018757453 0.12580791 0.52200001
-0.017399574 0.12580791 0.52200001
-0.016041694 0.12580791 0.52200001
-0.014683814 0.12580791 0.52200001
-0.013325934 0.12580791 0.52200001
-0.011968056 0.12580791 0.52200001
-0.010610175 0.12580791 0.52200001
-0.0092522958 0.12580791 0.52200001
-0.0078944163 0.12580791 0.52200001
-0.0065365359 0.12580791 0.52200001
-0.0051885773 0.12604892 0.523
-0.0038280964 0.12604892 0.523
-0.0024676153 0.12604892 0.523
-0.0011071345 0.12604892 0.523
0.0002533464 0.12604892 0.523
0.0016138274 0.12604892 0.523
0.0029743081 0.12604892 0.523
0.0043347892 0.12604892 0.523
0.0056952699 0.12604892 0.523
0.007055751 0.12604892 0.523
0.008432325 0.12628995 0.52400005
0.0097954068 0.12628995 0.52400005
0.01115849 0.12628995 0.52400005
0.012521572 0.12628995 0.52400005
0.013911151 0.12653095 0.52500004
0.015276835 0.12653095 0.52500004
0.016642518 0.12653095 0.52500004
0.018008202 0.12653095 0.52500004
0.019373886 0.12653095 0.52500004
0.02073957 0.12653095 0.52500004
0.022105254 0.12653095 0.52500004
0.023470936 0.12653095 0.52500004
0.02483662 0.12653095 0.52500004
0.026152397 0.12628995 0.52400005
0.027515477 0.12628995 0.52400005
0.02887856 0.12628995 0.52400005
0.030299356 0.12653095 0.52500004
0.031665038 0.12653095 0.52500004
0.033030722 0.12653095 0.52500004
0.034396403 0.12653095 0.52500004
0.035830207 0.12677196 0.52600002
0.037198491 0.12677196 0.52600002
0.038566776 0.12677196 0.52600002
0.040010985 0.12701297 0.52700001
0.041381869 0.12701297 0.52700001
0.042752754 0.12701297 0.52700001
0.044123638 0.12701297 0.52700001
0.045494527 0.12701297 0.52700001
0.046865415 0.12701297 0.52700001
0.048236299 0.12701297 0.52700001
0.049607188 0.12701297 0.52700001
0.050978072 0.12701297 0.52700001
0.052348956 0.12701297 0.52700001
0.053719845 0.12701297 0.52700001
0.055090729 0.12701297 0.52700001
0.056461617 0.12701297 0.52700001
0.057832506 0.12701297 0.52700001
0.05920339 0.12701297 0.52700001
0.060574275 0.12701297 0.52700001
0.061945159 0.12701297 0.52700001
0.063316047 0.12701297 0.52700001
0.06480968 0.12725398 0.528
0.066183165 0.12725398 0.528
0.067556657 0.12725398 0.528
0.068930142 0.12725398 0.528
0.070303634 0.12725398 0.528
0.071812876 0.12749501 0.52900004
0.073188961 0.12749501 0.52900004
0.074565053 0.12749501 0.52900004
0.076084688 0.127736 0.53000003
0.077463388 0.127736 0.53000003
0.078842074 0.127736 0.53000003
0.080220766 0.127736 0.53000003
0.081599452 0.127736 0.53000003
0.083134703 0.12797701 0.53100002
0.084515996 0.12797701 0.53100002
0.085897289 0.12797701 0.53100002
0.087278582 0.12797701 0.53100002
0.088659868 0.12797701 0.53100002
0.090041168 0.12797701 0.53100002
0.091422454 0.12797701 0.53100002
0.092978515 0.12821802 0.53200001
0.094362408 0.12821802 0.53200001
0.095746301 0.12821802 0.53200001
0.097130194 0.12821802 0.53200001
0.098514087 0.12821802 0.53200001
0.099897973 0.12821802 0.53200001
0.10128187 0.12821802 0.53200001
0.10266576 0.12821802 0.53200001
0.10404966 0.12821802 0.53200001
0.10543355 0.12821802 0.53200001
0.10681745 0.12821802 0.53200001
0.10820133 0.12821802 0.53200001
0.10958523 0.12821802 0.53200001
0.11096912 0.12821802 0.53200001
0.11235301 0.12821802 0.53200001
0.11373691 0.12821802 0.53200001
0.1151208 0.12821802 0.53200001
0.11650468 0.12821802 0.53200001
0.11788858 0.12821802 0.53200001
0.11927247 0.12821802 0.53200001
0.12065637 0.12821802 0.53200001
0.12204026 0.12821802 0.53200001
0.12342416 0.12821802 0.53200001
0.12480804 0.12821802 0.53200001
0.12619193 0.12821802 0.53200001
0.12757583 0.12821802 0.53200001
0.12895972 0.12821802 0.53200001
0.13034362 0.12821802 0.53200001
0.1317275 0.12821802 0.53200001
0.13336162 0.12845905 0.53300005
0.13474812 0.12845905 0.53300005
0.13613461 0.12845905 0.53300005
0.1375211 0.12845905 0.53300005
0.1389076 0.12845905 0.53300005
0.14029409 0.12845905 0.53300005
0.14194641 0.12870005 0.53400004
0.14333551 0.12870005 0.53400004
0.14472459 0.12870005 0.53400004
0.14611368 0.12870005 0.53400004
0.14750278 0.12870005 0.53400004
0.14917071 0.12894106 0.53500003
0.15028098 0.12870005 0.53400004
0.15167007 0.12870005 0.53400004
0.15305915 0.12870005 0.53400004
0.15444826 0.12870005 0.53400004
0.15583736 0.12870005 0.53400004
0.15722646 0.12870005 0.53400004
0.15861554 0.12870005 0.53400004
0.16000463 0.12870005 0.53400004
0.16139373 0.12870005 0.53400004
0.16278283 0.12870005 0.53400004
0.16417193 0.12870005 0.53400004
0.16556102 0.12870005 0.53400004
0.16695011 0.12870005 0.53400004
0.16833922 0.12870005 0.53400004
0.16972831 0.12870005 0.53400004
0.17143784 0.12894106 0.53500003
0.17282954 0.12894106 0.53500003
0.17422123 0.12894106 0.53500003
0.17561294 0.12894106 0.53500003
0.17700464 0.12894106 0.53500003
0.17872977 0.12918207 0.53600001
0.18012407 0.12918207 0.53600001
0.18151836 0.12918207 0.53600001
0.18291268 0.12918207 0.53600001
0.18465082 0.12942308 0.537
0.18604772 0.12942308 0.537
0.18744461 0.12942308 0.537
0.18884151 0.12942308 0.537
0.19023842 0.12942308 0.537
0.19163531 0.12942308 0.537
0.19303221 0.12942308 0.537
0.1944291 0.12942308 0.537
0.19582602 0.12942308 0.537
0.19722292 0.12942308 0.537
0.19861981 0.12942308 0.537
0.20001671 0.12942308 0.537
0.2014136 0.12942308 0.537
0.20281051 0.12942308 0.537
0.20420741 0.12942308 0.537
0.2056043 0.12942308 0.537
0.20700119 0.12942308 0.537
0.2083981 0.12942308 0.537
0.20979501 0.12942308 0.537
0.21119191 0.12942308 0.537
0.2125888 0.12942308 0.537
0.2139857 0.12942308 0.537
0.2157837 0.12966411 0.53800005
0.2171832 0.12966411 0.53800005
0.2185827 0.12966411 0.53800005
0.21998221 0.12966411 0.53800005
0.22097018 0.12942308 0.537
0.22236709 0.12942308 0.537
0.223764 0.12942308 0.537
0.2251609 0.12942308 0.537
0.22655779 0.12942308 0.537
0.22795469 0.12942308 0.537
0.2293516 0.12942308 0.537
0.23074849 0.12942308 0.537
0.23214538 0.12942308 0.537
0.23354228 0.12942308 0.537
0.23493919 0.12942308 0.537
0.2363361 0.12942308 0.537
0.23773299 0.12942308 0.537
0.23912989 0.12942308 0.537
0.24052678 0.12942308 0.537
0.24192367 0.12942308 0.537
0.24332058 0.12942308 0.537
0.24517322 0.12966411 0.53800005
0.24657272 0.12966411 0.53800005
0.24797221 0.12966411 0.53800005
0.24937171 0.12966411 0.53800005
0.25077122 0.12966411 0.53800005
0.25217071 0.12966411 0.53800005
0.25357023 0.12966411 0.53800005
0.25496972 0.12966411 0.53800005
0.25636923 0.12966411 0.53800005
0.25776872 0.12966411 0.53800005
0.25916821 0.12966411 0.53800005
0.26056772 0.12966411 0.53800005
-0.28210771 0.12472967 0.51200002
-0.28022748 0.12448607 0.51100004
-0.27889821 0.12448607 0.51100004
-0.27756894 0.12448607 0.51100004
-0.27623966 0.12448607 0.51100004
-0.27491039 0.12448607 0.51100004
-0.27304578 0.12424245 0.51000005
-0.2717191 0.12424245 0.51000005
-0.27039242 0.12424245 0.51000005
-0.26906577 0.12424245 0.51000005
-0.26773909 0.12424245 0.51000005
-0.26641247 0.12424245 0.51000005
-0.26508579 0.12424245 0.51000005
-0.26375911 0.12424245 0.51000005
-0.26243246 0.12424245 0.51000005
-0.26161775 0.12448607 0.51100004
-0.26028851 0.12448607 0.51100004
-0.25895923 0.12448607 0.51100004
-0.25762993 0.12448607 0.51100004
-0.25630069 0.12448607 0.51100004
-0.25547037 0.12472967 0.51200002
-0.25413853 0.12472967 0.51200002
-0.25280666 0.12472967 0.51200002
-0.2514748 0.12472967 0.51200002
-0.25063145 0.12497328 0.51300001
-0.24929699 0.12497328 0.51300001
-0.24844588 0.12521689 0.514
-0.24710882 0.12521689 0.514
-0.24577175 0.12521689 0.514
-0.24491026 0.12546052 0.51500005
-0.2430976 0.12521689 0.514
-0.24176054 0.12521689 0.514
-0.24042347 0.12521689 0.514
-0.23908639 0.12521689 0.514
-0.23728679 0.12497328 0.51300001
-0.23595232 0.12497328 0.51300001
-0.23461786 0.12497328 0.51300001
-0.23282866 0.12472967 0.51200002
-0.23149678 0.12472967 0.51200002
-0.23016492 0.12472967 0.51200002
-0.22883305 0.12472967 0.51200002
-0.22794552 0.12497328 0.51300001
-0.22661105 0.12497328 0.51300001
-0.22527657 0.12497328 0.51300001
-0.22437863 0.12521689 0.514
-0.22304156 0.12521689 0.514
-0.22170451 0.12521689 0.514
-0.22036745 0.12521689 0.514
-0.21945651 0.12546052 0.51500005
-0.21811683 0.12546052 0.51500005
-0.21677718 0.12546052 0.51500005
-0.21585582 0.12570412 0.51600003
-0.21451356 0.12570412 0.51600003
-0.21317127 0.12570412 0.51600003
-0.21223952 0.12594773 0.51700002
-0.21089464 0.12594773 0.51700002
-0.2099551 0.12619135 0.51800001
-0.20901035 0.12643497 0.51900005
-0.20766027 0.12643497 0.51900005
-0.2063102 0.12643497 0.51900005
-0.20496012 0.12643497 0.51900005
-0.20361005 0.12643497 0.51900005
-0.20264967 0.12667859 0.52000004
-0.201297 0.12667859 0.52000004
-0.19994432 0.12667859 0.52000004
-0.19820975 0.12643497 0.51900005
-0.19685967 0.12643497 0.51900005
-0.19550958 0.12643497 0.51900005
-0.19415951 0.12643497 0.51900005
-0.19280945 0.12643497 0.51900005
-0.19109045 0.12619135 0.51800001
-0.18974298 0.12619135 0.51800001
-0.18839549 0.12619135 0.51800001
-0.18704802 0.12619135 0.51800001
-0.18570055 0.12619135 0.51800001
-0.18435308 0.12619135 0.51800001
-0.18300559 0.12619135 0.51800001
-0.18165812 0.12619135 0.51800001
-0.18031065 0.12619135 0.51800001
-0.17896318 0.12619135 0.51800001
-0.1776157 0.12619135 0.51800001
-0.17626822 0.12619135 0.51800001
-0.17458306 0.12594773 0.51700002
-0.1732382 0.12594773 0.51700002
-0.17189333 0.12594773 0.51700002
-0.17054845 0.12594773 0.51700002
-0.16920358 0.12594773 0.51700002
-0.1678587 0.12594773 0.51700002
-0.16619176 0.12570412 0.51600003
-0.16516897 0.12594773 0.51700002
-0.1638241 0.12594773 0.51700002
-0.16247921 0.12594773 0.51700002
-0.16113433 0.12594773 0.51700002
-0.15978947 0.12594773 0.51700002
-0.1584446 0.12594773 0.51700002
-0.15709971 0.12594773 0.51700002
-0.15575485 0.12594773 0.51700002
-0.15440997 0.12594773 0.51700002
-0.15336116 0.12619135 0.51800001
-0.15201369 0.12619135 0.51800001
-0.15066621 0.12619135 0.51800001
-0.14931874 0.12619135 0.51800001
-0.14797126 0.12619135 0.51800001
-0.14662379 0.12619135 0.51800001
-0.14527632 0.12619135 0.51800001
-0.1442067 0.12643497 0.51900005
-0.14285663 0.12643497 0.51900005
-0.14150655 0.12643497 0.51900005
-0.14015648 0.12643497 0.51900005
-0.13880642 0.12643497 0.51900005
-0.13745633 0.12643497 0.51900005
-0.13610625 0.12643497 0.51900005
-0.13475618 0.12643497 0.51900005
-0.1334061 0.12643497 0.51900005
-0.13205601 0.12643497 0.51900005
-0.13070595 0.12643497 0.51900005
-0.12935588 0.12643497 0.51900005
-0.1280058 0.12643497 0.51900005
-0.12665571 0.12643497 0.51900005
-0.12506419 0.12619135 0.51800001
-0.12371672 0.12619135 0.51800001
-0.12236925 0.12619135 0.51800001
-0.12102178 0.12619135 0.51800001
-0.1196743 0.12619135 0.51800001
-0.11832683 0.12619135 0.51800001
-0.11697935 0.12619135 0.51800001
-0.11563188 0.12619135 0.51800001
-0.1142844 0.12619135 0.51800001
-0.11293693 0.12619135 0.51800001
-0.11158945 0.12619135 0.51800001
-0.11045481 0.12643497 0.51900005
-0.10910474 0.12643497 0.51900005
-0.10775466 0.12643497 0.51900005
-0.10640459 0.12643497 0.51900005
-0.10505451 0.12643497 0.51900005
-0.10370443 0.12643497 0.51900005
-0.10235436 0.12643497 0.51900005
-0.10100428 0.12643497 0.51900005
-0.099654205 0.12643497 0.51900005
-0.098304123 0.12643497 0.51900005
-0.096954055 0.12643497 0.51900005
-0.09560398 0.12643497 0.51900005
-0.094253898 0.12643497 0.51900005
-0.09290383 0.12643497 0.51900005
-0.091553748 0.12643497 0.51900005
-0.090203673 0.12643497 0.51900005
-0.088853605 0.12643497 0.51900005
-0.087503523 0.12643497 0.51900005
-0.086153448 0.12643497 0.51900005
-0.084966764 0.12667859 0.52000004
-0.083614089 0.12667859 0.52000004
-0.082261406 0.12667859 0.52000004
-0.081064329 0.12692219 0.52100003
-0.079709053 0.12692219 0.52100003
-0.07835377 0.12692219 0.52100003
-0.076998495 0.12692219 0.52100003
-0.075643212 0.12692219 0.52100003
-0.074287936 0.12692219 0.52100003
-0.072932653 0.12692219 0.52100003
-0.071577378 0.12692219 0.52100003
-0.070222102 0.12692219 0.52100003
-0.068866819 0.12692219 0.52100003
-0.067511544 0.12692219 0.52100003
-0.066156261 0.12692219 0.52100003
-0.064800985 0.12692219 0.52100003
-0.06344571 0.12692219 0.52100003
-0.062209602 0.12716579 0.52200001
-0.060851723 0.12716579 0.52200001
-0.059493843 0.12716579 0.52200001
-0.058135964 0.12716579 0.52200001
-0.056778084 0.12716579 0.52200001
-0.055420205 0.12716579 0.52200001
-0.054165889 0.12740941 0.523
-0.052805409 0.12740941 0.523
-0.051444933 0.12740941 0.523
-0.050084449 0.12740941 0.523
-0.04872397 0.12740941 0.523
-0.047272928 0.12716579 0.52200001
-0.045915045 0.12716579 0.52200001
-0.044557165 0.12716579 0.52200001
-0.043199286 0.12716579 0.52200001
-0.04184141 0.12716579 0.52200001
-0.040483531 0.12716579 0.52200001
-0.039125647 0.12716579 0.52200001
-0.037767768 0.12716579 0.52200001
-0.03634014 0.12692219 0.52100003
-0.034984861 0.12692219 0.52100003
-0.033694129 0.12716579 0.52200001
-0.03233625 0.12716579 0.52200001
-0.03097837 0.12716579 0.52200001
-0.029620491 0.12716579 0.52200001
-0.02826261 0.12716579 0.52200001
-0.026853191 0.12692219 0.52100003
-0.025546851 0.12716579 0.52200001
-0.024188971 0.12716579 0.52200001
-0.02287483 0.12740941 0.523
-0.021514349 0.12740941 0.523
-0.020153867 0.12740941 0.523
-0.018757453 0.12716579 0.52200001
-0.017399574 0.12716579 0.52200001
-0.016041694 0.12716579 0.52200001
-0.014683814 0.12716579 0.52200001
-0.013325934 0.12716579 0.52200001
-0.011968056 0.12716579 0.52200001
-0.010610175 0.12716579 0.52200001
-0.0092522958 0.12716579 0.52200001
-0.0078944163 0.12716579 0.52200001
-0.006549058 0.12740941 0.523
-0.0051885773 0.12740941 0.523
-0.0038280964 0.12740941 0.523
-0.0024676153 0.12740941 0.523
-0.0011071345 0.12740941 0.523
0.0002533464 0.12740941 0.523
0.0016138274 0.12740941 0.523
0.0029743081 0.12740941 0.523
0.0043430775 0.12765303 0.52400005
0.0057061603 0.12765303 0.52400005
0.0070692427 0.12765303 0.52400005
0.008432325 0.12765303 0.52400005
0.0097954068 0.12765303 0.52400005
0.011179783 0.12789664 0.52500004
0.012545468 0.12789664 0.52500004
0.013911151 0.12789664 0.52500004
0.015276835 0.12789664 0.52500004
0.016642518 0.12789664 0.52500004
0.018008202 0.12789664 0.52500004
0.019373886 0.12789664 0.52500004
0.02073957 0.12789664 0.52500004
0.022063149 0.12765303 0.52400005
0.023426231 0.12765303 0.52400005
0.024789313 0.12765303 0.52400005
0.026152397 0.12765303 0.52400005
0.027515477 0.12765303 0.52400005
0.02887856 0.12765303 0.52400005
0.030241644 0.12765303 0.52400005
0.031665038 0.12789664 0.52500004
0.033030722 0.12789664 0.52500004
0.034396403 0.12789664 0.52500004
0.035830207 0.12814026 0.52600002
0.037198491 0.12814026 0.52600002
0.038566776 0.12814026 0.52600002
0.039935064 0.12814026 0.52600002
0.041381869 0.12838386 0.52700001
0.042752754 0.12838386 0.52700001
0.044123638 0.12838386 0.52700001
0.045494527 0.12838386 0.52700001
0.046865415 0.12838386 0.52700001
0.048236299 0.12838386 0.52700001
0.049701318 0.12862746 0.528
0.051074803 0.12862746 0.528
0.052348956 0.12838386 0.52700001
0.053719845 0.12838386 0.52700001
0.055090729 0.12838386 0.52700001
0.056461617 0.12838386 0.52700001
0.057832506 0.12838386 0.52700001
0.05920339 0.12838386 0.52700001
0.060574275 0.12838386 0.52700001
0.062062703 0.12862746 0.528
