# .PCD v0.7 - Point Cloud Data file format
VERSION 0.7
FIELDS x y z
SIZE 4 4 4
TYPE F F F
COUNT 1 1 1
WIDTH 1422
HEIGHT 1
VIEWPOINT 0 0 0 1 0 0 0
POINTS 1422
DATA ascii
0.049527083 -0.18692714 0.51200002
0.050958283 -0.18729222 0.51300001
0.052292753 -0.18729222 0.51300001
0.053627219 -0.18729222 0.51300001
0.054961689 -0.18729222 0.51300001
0.056296159 -0.18729222 0.51300001
0.057630625 -0.18729222 0.51300001
0.059080031 -0.18765731 0.514
0.060417101 -0.18765731 0.514
0.061754171 -0.18765731 0.514
0.063091241 -0.18765731 0.514
0.064428307 -0.18765731 0.514
0.065765381 -0.18765731 0.514
0.067102447 -0.18765731 0.514
0.068439521 -0.18765731 0.514
0.069912344 -0.18802242 0.51500005
0.071252011 -0.18802242 0.51500005
0.072591685 -0.18802242 0.51500005
0.073931351 -0.18802242 0.51500005
0.075271025 -0.18802242 0.51500005
0.076610699 -0.18802242 0.51500005
0.077950373 -0.18802242 0.51500005
0.07929004 -0.18802242 0.51500005
0.080629706 -0.18802242 0.51500005
0.08196938 -0.18802242 0.51500005
0.083309047 -0.18802242 0.51500005
0.084648721 -0.18802242 0.51500005
0.085988387 -0.18802242 0.51500005
0.087328069 -0.18802242 0.51500005
0.088667735 -0.18802242 0.51500005
0.090007402 -0.18802242 0.51500005
0.091347076 -0.18802242 0.51500005
0.092686743 -0.18802242 0.51500005
0.094026417 -0.18802242 0.51500005
0.095366083 -0.18802242 0.51500005
0.09670575 -0.18802242 0.51500005
0.097855039 -0.18765731 0.514
0.098999128 -0.18729222 0.51300001
0.1003336 -0.18729222 0.51300001
0.10166807 -0.18729222 0.51300001
0.10280176 -0.18692714 0.51200002
0.10413362 -0.18692714 0.51200002
0.10546548 -0.18692714 0.51200002
0.10679735 -0.18692714 0.51200002
0.10812922 -0.18692714 0.51200002
0.10946108 -0.18692714 0.51200002
0.11079295 -0.18692714 0.51200002
0.11212482 -0.18692714 0.51200002
0.11345669 -0.18692714 0.51200002
0.11478855 -0.18692714 0.51200002
0.11612042 -0.18692714 0.51200002
0.11745229 -0.18692714 0.51200002
0.10944845 -0.14603682 0.40000001
0.11021274 -0.14567173 0.39900002
0.11125068 -0.14567173 0.39900002
0.11200717 -0.14530665 0.39800003
0.11512274 -0.14275099 0.39100003
0.11584281 -0.1423859 0.39000002
0.11685731 -0.1423859 0.39000002
0.16361059 -0.18948279 0.51900005
0.16496067 -0.18948279 0.51900005
0.16631074 -0.18948279 0.51900005
0.16766082 -0.18948279 0.51900005
0.16901089 -0.18948279 0.51900005
0.17036097 -0.18948279 0.51900005
0.17171104 -0.18948279 0.51900005
0.17306112 -0.18948279 0.51900005
0.17441119 -0.18948279 0.51900005
0.17576127 -0.18948279 0.51900005
0.17711136 -0.18948279 0.51900005
0.17846143 -0.18948279 0.51900005
0.17946503 -0.18911768 0.51800001
0.18081249 -0.18911768 0.51800001
0.18215996 -0.18911768 0.51800001
0.18350746 -0.18911768 0.51800001
0.18485492 -0.18911768 0.51800001
0.18620239 -0.18911768 0.51800001
0.18754986 -0.18911768 0.51800001
0.18889736 -0.18911768 0.51800001
0.19024482 -0.18911768 0.51800001
0.19196218 -0.18948279 0.51900005
0.19331226 -0.18948279 0.51900005
0.19466233 -0.18948279 0.51900005
0.19601242 -0.18948279 0.51900005
0.19736248 -0.18948279 0.51900005
0.19871256 -0.18948279 0.51900005
0.20006263 -0.18948279 0.51900005
0.20141271 -0.18948279 0.51900005
0.2027628 -0.18948279 0.51900005
0.20411287 -0.18948279 0.51900005
0.20546293 -0.18948279 0.51900005
0.20681301 -0.18948279 0.51900005
0.20816308 -0.18948279 0.51900005
0.20951317 -0.18948279 0.51900005
0.21086325 -0.18948279 0.51900005
0.21221332 -0.18948279 0.51900005
0.2135634 -0.18948279 0.51900005
0.21491346 -0.18948279 0.51900005
0.21626355 -0.18948279 0.51900005
0.21761362 -0.18948279 0.51900005
0.2189637 -0.18948279 0.51900005
0.22031377 -0.18948279 0.51900005
0.22166386 -0.18948279 0.51900005
0.22301392 -0.18948279 0.51900005
0.224364 -0.18948279 0.51900005
0.22571407 -0.18948279 0.51900005
0.22750165 -0.18984787 0.52000004
0.22885433 -0.18984787 0.52000004
0.23020701 -0.18984787 0.52000004
0.23200499 -0.19021297 0.52100003
0.23291236 -0.18984787 0.52000004
0.23471554 -0.19021297 0.52100003
0.23561771 -0.18984787 0.52000004
0.2374261 -0.19021297 0.52100003
0.23878138 -0.19021297 0.52100003
0.24013665 -0.19021297 0.52100003
0.24149193 -0.19021297 0.52100003
0.24284722 -0.19021297 0.52100003
0.24420249 -0.19021297 0.52100003
0.24555777 -0.19021297 0.52100003
0.24738696 -0.19057804 0.52200001
0.24874485 -0.19057804 0.52200001
0.25010273 -0.19057804 0.52200001
0.25146061 -0.19057804 0.52200001
-0.27698472 -0.1805204 0.49800003
-0.27568927 -0.1805204 0.49800003
-0.27439383 -0.1805204 0.49800003
-0.27309841 -0.1805204 0.49800003
-0.27180293 -0.1805204 0.49800003
-0.27050748 -0.1805204 0.49800003
-0.26921204 -0.1805204 0.49800003
-0.26845455 -0.18088289 0.49900001
-0.26715654 -0.18088289 0.49900001
-0.26585847 -0.18088289 0.49900001
-0.2645604 -0.18088289 0.49900001
-0.26326239 -0.18088289 0.49900001
-0.26196432 -0.18088289 0.49900001
-0.26066628 -0.18088289 0.49900001
-0.25936821 -0.18088289 0.49900001
-0.25807017 -0.18088289 0.49900001
-0.25677213 -0.18088289 0.49900001
-0.25547406 -0.18088289 0.49900001
-0.25417605 -0.18088289 0.49900001
-0.25287798 -0.18088289 0.49900001
-0.25157991 -0.18088289 0.49900001
-0.25078344 -0.18124537 0.5
-0.24948278 -0.18124537 0.5
-0.24818213 -0.18124537 0.5
-0.24688148 -0.18124537 0.5
-0.24607202 -0.18160787 0.50100005
-0.24476875 -0.18160787 0.50100005
-0.24346551 -0.18160787 0.50100005
-0.24264561 -0.18197037 0.50200003
-0.24133976 -0.18197037 0.50200003
-0.24003391 -0.18197037 0.50200003
-0.23872805 -0.18197037 0.50200003
-0.2374222 -0.18197037 0.50200003
-0.23611635 -0.18197037 0.50200003
-0.23481049 -0.18197037 0.50200003
-0.23350462 -0.18197037 0.50200003
-0.23219877 -0.18197037 0.50200003
-0.23089293 -0.18197037 0.50200003
-0.22912973 -0.18160787 0.50100005
-0.22782649 -0.18160787 0.50100005
-0.22652322 -0.18160787 0.50100005
-0.22521998 -0.18160787 0.50100005
-0.22391672 -0.18160787 0.50100005
-0.22261347 -0.18160787 0.50100005
-0.22131023 -0.18160787 0.50100005
-0.22000696 -0.18160787 0.50100005
-0.21870372 -0.18160787 0.50100005
-0.21740046 -0.18160787 0.50100005
-0.21609722 -0.18160787 0.50100005
-0.21522269 -0.18197037 0.50200003
-0.21391682 -0.18197037 0.50200003
-0.21261097 -0.18197037 0.50200003
-0.21130513 -0.18197037 0.50200003
-0.20999928 -0.18197037 0.50200003
-0.20869341 -0.18197037 0.50200003
-0.20738755 -0.18197037 0.50200003
-0.2060817 -0.18197037 0.50200003
-0.20477585 -0.18197037 0.50200003
-0.20387532 -0.18233286 0.50300002
-0.20256685 -0.18233286 0.50300002
-0.20085829 -0.18197037 0.50200003
-0.19955243 -0.18197037 0.50200003
-0.19824658 -0.18197037 0.50200003
-0.19694073 -0.18197037 0.50200003
-0.19563487 -0.18197037 0.50200003
-0.19432902 -0.18197037 0.50200003
-0.19302318 -0.18197037 0.50200003
-0.19171733 -0.18197037 0.50200003
-0.19041146 -0.18197037 0.50200003
-0.1891056 -0.18197037 0.50200003
-0.18779975 -0.18197037 0.50200003
-0.1864939 -0.18197037 0.50200003
-0.18518806 -0.18197037 0.50200003
-0.18388221 -0.18197037 0.50200003
-0.18257634 -0.18197037 0.50200003
-0.18127048 -0.18197037 0.50200003
-0.17996463 -0.18197037 0.50200003
-0.17865878 -0.18197037 0.50200003
-0.17770621 -0.18233286 0.50300002
-0.17639776 -0.18233286 0.50300002
-0.1750893 -0.18233286 0.50300002
-0.17378086 -0.18233286 0.50300002
-0.1724724 -0.18233286 0.50300002
-0.17116393 -0.18233286 0.50300002
-0.17019317 -0.18269534 0.50400001
-0.1688821 -0.18269534 0.50400001
-0.16757105 -0.18269534 0.50400001
-0.16626 -0.18269534 0.50400001
-0.16494894 -0.18269534 0.50400001
-0.16396256 -0.18305783 0.505
-0.1626489 -0.18305783 0.505
-0.16133524 -0.18305783 0.505
-0.16002159 -0.18305783 0.505
-0.15870792 -0.18305783 0.505
-0.15739428 -0.18305783 0.505
-0.15608062 -0.18305783 0.505
-0.15476696 -0.18305783 0.505
-0.15345329 -0.18305783 0.505
-0.15213963 -0.18305783 0.505
-0.15082598 -0.18305783 0.505
-0.14951234 -0.18305783 0.505
-0.14819868 -0.18305783 0.505
-0.14688501 -0.18305783 0.505
-0.14557135 -0.18305783 0.505
-0.14425769 -0.18305783 0.505
-0.14294404 -0.18305783 0.505
-0.14163038 -0.18305783 0.505
-0.14031672 -0.18305783 0.505
-0.13900307 -0.18305783 0.505
-0.13768941 -0.18305783 0.505
-0.13637576 -0.18305783 0.505
-0.1350621 -0.18305783 0.505
-0.13374843 -0.18305783 0.505
-0.13243477 -0.18305783 0.505
-0.13112113 -0.18305783 0.505
-0.12980747 -0.18305783 0.505
-0.1284938 -0.18305783 0.505
-0.127432 -0.18342033 0.50600004
-0.12611574 -0.18342033 0.50600004
-0.12479949 -0.18342033 0.50600004
-0.12348323 -0.18342033 0.50600004
-0.1224084 -0.18378282 0.50700003
-0.12108954 -0.18378282 0.50700003
-0.11977068 -0.18378282 0.50700003
-0.11845183 -0.18378282 0.50700003
-0.11713296 -0.18378282 0.50700003
-0.1158141 -0.18378282 0.50700003
-0.11449524 -0.18378282 0.50700003
-0.11295316 -0.18342033 0.50600004
-0.1116369 -0.18342033 0.50600004
-0.11032064 -0.18342033 0.50600004
-0.10900438 -0.18342033 0.50600004
-0.10768811 -0.18342033 0.50600004
-0.10637186 -0.18342033 0.50600004
-0.1050556 -0.18342033 0.50600004
-0.10373934 -0.18342033 0.50600004
-0.10242309 -0.18342033 0.50600004
-0.10130664 -0.18378282 0.50700003
-0.099987783 -0.18378282 0.50700003
-0.098668918 -0.18378282 0.50700003
-0.097350061 -0.18378282 0.50700003
-0.096031196 -0.18378282 0.50700003
-0.094712339 -0.18378282 0.50700003
-0.093393482 -0.18378282 0.50700003
-0.092074618 -0.18378282 0.50700003
-0.090755761 -0.18378282 0.50700003
-0.089436896 -0.18378282 0.50700003
-0.088118039 -0.18378282 0.50700003
-0.086799182 -0.18378282 0.50700003
-0.085480317 -0.18378282 0.50700003
-0.08416146 -0.18378282 0.50700003
-0.082842596 -0.18378282 0.50700003
-0.081523739 -0.18378282 0.50700003
-0.080204874 -0.18378282 0.50700003
-0.078886017 -0.18378282 0.50700003
-0.07756716 -0.18378282 0.50700003
-0.076248296 -0.18378282 0.50700003
-0.074929439 -0.18378282 0.50700003
-0.073755756 -0.1841453 0.50800002
-0.072434299 -0.1841453 0.50800002
-0.071112834 -0.1841453 0.50800002
-0.069791377 -0.1841453 0.50800002
-0.0686047 -0.18450779 0.509
-0.067280635 -0.18450779 0.509
-0.06595657 -0.18450779 0.509
-0.064632505 -0.18450779 0.509
-0.063308448 -0.18450779 0.509
-0.061984383 -0.18450779 0.509
-0.060660318 -0.18450779 0.509
-0.059336256 -0.18450779 0.509
-0.058012195 -0.18450779 0.509
-0.056688134 -0.18450779 0.509
-0.055364069 -0.18450779 0.509
-0.054040007 -0.18450779 0.509
-0.052715942 -0.18450779 0.509
-0.051391881 -0.18450779 0.509
-0.05006782 -0.18450779 0.509
-0.048743758 -0.18450779 0.509
-0.047419693 -0.18450779 0.509
-0.046095632 -0.18450779 0.509
-0.044771567 -0.18450779 0.509
-0.043447502 -0.18450779 0.509
-0.042123441 -0.18450779 0.509
-0.040799379 -0.18450779 0.509
-0.039475318 -0.18450779 0.509
-0.038151253 -0.18450779 0.509
-0.036827192 -0.18450779 0.509
-0.035503127 -0.18450779 0.509
-0.034179065 -0.18450779 0.509
-0.032855004 -0.18450779 0.509
-0.031530943 -0.18450779 0.509
-0.030206878 -0.18450779 0.509
-0.028882815 -0.18450779 0.509
-0.027558751 -0.18450779 0.509
-0.02623469 -0.18450779 0.509
-0.024910627 -0.18450779 0.509
-0.023586564 -0.18450779 0.509
-0.022262502 -0.18450779 0.509
-0.020938439 -0.18450779 0.509
-0.019614376 -0.18450779 0.509
-0.018290313 -0.18450779 0.509
-0.01696625 -0.18450779 0.509
-0.015642188 -0.18450779 0.509
-0.014318124 -0.18450779 0.509
-0.012994062 -0.18450779 0.509
-0.01167 -0.18450779 0.509
-0.010345937 -0.18450779 0.509
-0.0090218745 -0.18450779 0.509
-0.0076978114 -0.18450779 0.509
-0.0063862712 -0.1848703 0.51000005
-0.0050596078 -0.1848703 0.51000005
-0.0037329434 -0.1848703 0.51000005
-0.0024062791 -0.1848703 0.51000005
-0.0010796151 -0.1848703 0.51000005
0.00024704909 -0.1848703 0.51000005
0.0015737133 -0.1848703 0.51000005
0.0029003774 -0.1848703 0.51000005
0.0042270413 -0.1848703 0.51000005
0.0055537056 -0.1848703 0.51000005
0.00688037 -0.1848703 0.51000005
0.0082070343 -0.1848703 0.51000005
0.0095336977 -0.1848703 0.51000005
0.010860362 -0.1848703 0.51000005
0.012187026 -0.1848703 0.51000005
0.01351369 -0.1848703 0.51000005
0.014840355 -0.1848703 0.51000005
0.016167019 -0.1848703 0.51000005
0.017493684 -0.1848703 0.51000005
0.018820347 -0.1848703 0.51000005
0.020147011 -0.1848703 0.51000005
0.021473676 -0.1848703 0.51000005
0.022800339 -0.1848703 0.51000005
0.024127003 -0.1848703 0.51000005
0.025453668 -0.1848703 0.51000005
0.026727818 -0.18450779 0.509
0.028051881 -0.18450779 0.509
0.02943366 -0.1848703 0.51000005
0.030760324 -0.1848703 0.51000005
0.032086991 -0.1848703 0.51000005
0.033413652 -0.1848703 0.51000005
0.034740314 -0.1848703 0.51000005
0.0361377 -0.18523279 0.51100004
0.037466966 -0.18523279 0.51100004
0.038796231 -0.18523279 0.51100004
0.040125497 -0.18523279 0.51100004
0.041535884 -0.18559527 0.51200002
0.04286775 -0.18559527 0.51200002
0.044199616 -0.18559527 0.51200002
0.045531485 -0.18559527 0.51200002
0.046863351 -0.18559527 0.51200002
0.048289351 -0.18595776 0.51300001
0.049623813 -0.18595776 0.51300001
0.050958283 -0.18595776 0.51300001
0.052292753 -0.18595776 0.51300001
0.053627219 -0.18595776 0.51300001
0.054961689 -0.18595776 0.51300001
0.056296159 -0.18595776 0.51300001
0.057630625 -0.18595776 0.51300001
0.059080031 -0.18632025 0.514
0.06029956 -0.18595776 0.51300001
0.061634026 -0.18595776 0.51300001
0.062968493 -0.18595776 0.51300001
0.064428307 -0.18632025 0.514
0.065765381 -0.18632025 0.514
0.067102447 -0.18632025 0.514
0.068439521 -0.18632025 0.514
0.069776587 -0.18632025 0.514
0.071113653 -0.18632025 0.514
0.072591685 -0.18668275 0.51500005
0.073931351 -0.18668275 0.51500005
0.075271025 -0.18668275 0.51500005
0.076610699 -0.18668275 0.51500005
0.077950373 -0.18668275 0.51500005
0.07929004 -0.18668275 0.51500005
0.080629706 -0.18668275 0.51500005
0.08196938 -0.18668275 0.51500005
0.083309047 -0.18668275 0.51500005
0.084648721 -0.18668275 0.51500005
0.085988387 -0.18668275 0.51500005
0.087328069 -0.18668275 0.51500005
0.088667735 -0.18668275 0.51500005
0.090007402 -0.18668275 0.51500005
0.091347076 -0.18668275 0.51500005
0.092686743 -0.18668275 0.51500005
0.094026417 -0.18668275 0.51500005
0.095366083 -0.18668275 0.51500005
0.096517965 -0.18632025 0.514
0.097855039 -0.18632025 0.514
0.098999128 -0.18595776 0.51300001
0.1003336 -0.18595776 0.51300001
0.10146988 -0.18559527 0.51200002
0.10280176 -0.18559527 0.51200002
0.10413362 -0.18559527 0.51200002
0.1052595 -0.18523279 0.51100004
0.11057656 -0.18523279 0.51100004
0.11212482 -0.18559527 0.51200002
0.11345669 -0.18559527 0.51200002
0.11478855 -0.18559527 0.51200002
0.11612042 -0.18559527 0.51200002
0.10502315 -0.14463381 0.39900002
0.10606108 -0.14463381 0.39900002
0.10813691 -0.14463381 0.39900002
0.10917483 -0.14463381 0.39900002
0.10993653 -0.14427133 0.39800003
0.11069302 -0.14390883 0.39700001
0.11144432 -0.14354634 0.39600003
0.1121904 -0.14318384 0.39500001
0.11293129 -0.14282136 0.39400002
0.11366697 -0.14245887 0.39300001
0.11410563 -0.1417339 0.39100003
0.11512274 -0.1417339 0.39100003
0.11584281 -0.1413714 0.39000002
0.11685731 -0.1413714 0.39000002
0.11756959 -0.14100891 0.38900003
0.1185815 -0.14100891 0.38900003
0.16361059 -0.18813272 0.51900005
0.16496067 -0.18813272 0.51900005
0.16631074 -0.18813272 0.51900005
0.16766082 -0.18813272 0.51900005
0.16901089 -0.18813272 0.51900005
0.17036097 -0.18813272 0.51900005
0.17171104 -0.18813272 0.51900005
0.17306112 -0.18813272 0.51900005
0.17441119 -0.18813272 0.51900005
0.17576127 -0.18813272 0.51900005
0.17711136 -0.18813272 0.51900005
0.17846143 -0.18813272 0.51900005
0.17946503 -0.1877702 0.51800001
0.18116157 -0.18813272 0.51900005
0.18251164 -0.18813272 0.51900005
0.18350746 -0.1877702 0.51800001
0.18485492 -0.1877702 0.51800001
0.18620239 -0.1877702 0.51800001
0.18754986 -0.1877702 0.51800001
0.18889736 -0.1877702 0.51800001
0.19024482 -0.1877702 0.51800001
0.19196218 -0.18813272 0.51900005
0.19331226 -0.18813272 0.51900005
0.19466233 -0.18813272 0.51900005
0.19601242 -0.18813272 0.51900005
0.19736248 -0.18813272 0.51900005
0.19871256 -0.18813272 0.51900005
0.20006263 -0.18813272 0.51900005
0.20141271 -0.18813272 0.51900005
0.2027628 -0.18813272 0.51900005
0.20411287 -0.18813272 0.51900005
0.20546293 -0.18813272 0.51900005
0.20681301 -0.18813272 0.51900005
0.20816308 -0.18813272 0.51900005
0.20951317 -0.18813272 0.51900005
0.21086325 -0.18813272 0.51900005
0.21221332 -0.18813272 0.51900005
0.2135634 -0.18813272 0.51900005
0.21491346 -0.18813272 0.51900005
0.21626355 -0.18813272 0.51900005
0.21761362 -0.18813272 0.51900005
0.2189637 -0.18813272 0.51900005
0.22031377 -0.18813272 0.51900005
0.22166386 -0.18813272 0.51900005
0.22301392 -0.18813272 0.51900005
0.224364 -0.18813272 0.51900005
0.22614898 -0.1884952 0.52000004
0.22750165 -0.1884952 0.52000004
0.22885433 -0.1884952 0.52000004
0.23064971 -0.18885769 0.52100003
0.23200499 -0.18885769 0.52100003
0.23336026 -0.18885769 0.52100003
0.23471554 -0.18885769 0.52100003
0.23607083 -0.18885769 0.52100003
0.2374261 -0.18885769 0.52100003
0.23878138 -0.18885769 0.52100003
0.24013665 -0.18885769 0.52100003
0.24195543 -0.18922018 0.52200001
0.24331333 -0.18922018 0.52200001
0.24467121 -0.18922018 0.52200001
0.24602908 -0.18922018 0.52200001
0.24738696 -0.18922018 0.52200001
0.24874485 -0.18922018 0.52200001
0.25010273 -0.18922018 0.52200001
0.25146061 -0.18922018 0.52200001
-0.27698472 -0.17922494 0.49800003
-0.27568927 -0.17922494 0.49800003
-0.27439383 -0.17922494 0.49800003
-0.27309841 -0.17922494 0.49800003
-0.27180293 -0.17922494 0.49800003
-0.27050748 -0.17922494 0.49800003
-0.26921204 -0.17922494 0.49800003
-0.26791659 -0.17922494 0.49800003
-0.26715654 -0.17958483 0.49900001
-0.2653257 -0.17922494 0.49800003
-0.2645604 -0.17958483 0.49900001
-0.26326239 -0.17958483 0.49900001
-0.26196432 -0.17958483 0.49900001
-0.26066628 -0.17958483 0.49900001
-0.25936821 -0.17958483 0.49900001
-0.25807017 -0.17958483 0.49900001
-0.25677213 -0.17958483 0.49900001
-0.25547406 -0.17958483 0.49900001
-0.2546854 -0.17994471 0.5
-0.25287798 -0.17958483 0.49900001
-0.25157991 -0.17958483 0.49900001
-0.25078344 -0.17994471 0.5
-0.24948278 -0.17994471 0.5
-0.24818213 -0.17994471 0.5
-0.24688148 -0.17994471 0.5
-0.24607202 -0.18030462 0.50100005
-0.24476875 -0.18030462 0.50100005
-0.24395145 -0.18066449 0.50200003
-0.24264561 -0.18066449 0.50200003
-0.24133976 -0.18066449 0.50200003
-0.24003391 -0.18066449 0.50200003
-0.23872805 -0.18066449 0.50200003
-0.2374222 -0.18066449 0.50200003
-0.23611635 -0.18066449 0.50200003
-0.23481049 -0.18066449 0.50200003
-0.23350462 -0.18066449 0.50200003
-0.23219877 -0.18066449 0.50200003
-0.23089293 -0.18066449 0.50200003
-0.22958708 -0.18066449 0.50200003
-0.22828123 -0.18066449 0.50200003
-0.22652322 -0.18030462 0.50100005
-0.22521998 -0.18030462 0.50100005
-0.22391672 -0.18030462 0.50100005
-0.22261347 -0.18030462 0.50100005
-0.22131023 -0.18030462 0.50100005
-0.22000696 -0.18030462 0.50100005
-0.21870372 -0.18030462 0.50100005
-0.21740046 -0.18030462 0.50100005
-0.21652853 -0.18066449 0.50200003
-0.21522269 -0.18066449 0.50200003
-0.21391682 -0.18066449 0.50200003
-0.21261097 -0.18066449 0.50200003
-0.21130513 -0.18066449 0.50200003
-0.20999928 -0.18066449 0.50200003
-0.20869341 -0.18066449 0.50200003
-0.20738755 -0.18066449 0.50200003
-0.2060817 -0.18066449 0.50200003
-0.20477585 -0.18066449 0.50200003
-0.20387532 -0.18102439 0.50300002
-0.20216414 -0.18066449 0.50200003
-0.20125841 -0.18102439 0.50300002
-0.19955243 -0.18066449 0.50200003
-0.19824658 -0.18066449 0.50200003
-0.19694073 -0.18066449 0.50200003
-0.19563487 -0.18066449 0.50200003
-0.19432902 -0.18066449 0.50200003
-0.19302318 -0.18066449 0.50200003
-0.19171733 -0.18066449 0.50200003
-0.19041146 -0.18066449 0.50200003
-0.1891056 -0.18066449 0.50200003
-0.18779975 -0.18066449 0.50200003
-0.1864939 -0.18066449 0.50200003
-0.18518806 -0.18066449 0.50200003
-0.18388221 -0.18066449 0.50200003
-0.18257634 -0.18066449 0.50200003
-0.18127048 -0.18066449 0.50200003
-0.17996463 -0.18066449 0.50200003
-0.17901467 -0.18102439 0.50300002
-0.17770621 -0.18102439 0.50300002
-0.17639776 -0.18102439 0.50300002
-0.1750893 -0.18102439 0.50300002
-0.17378086 -0.18102439 0.50300002
-0.1724724 -0.18102439 0.50300002
-0.17116393 -0.18102439 0.50300002
-0.17019317 -0.18138427 0.50400001
-0.1688821 -0.18138427 0.50400001
-0.16757105 -0.18138427 0.50400001
-0.16626 -0.18138427 0.50400001
-0.16494894 -0.18138427 0.50400001
-0.16396256 -0.18174416 0.505
-0.1626489 -0.18174416 0.505
-0.16133524 -0.18174416 0.505
-0.16002159 -0.18174416 0.505
-0.15870792 -0.18174416 0.505
-0.15739428 -0.18174416 0.505
-0.15608062 -0.18174416 0.505
-0.15476696 -0.18174416 0.505
-0.15345329 -0.18174416 0.505
-0.15213963 -0.18174416 0.505
-0.15082598 -0.18174416 0.505
-0.14951234 -0.18174416 0.505
-0.14819868 -0.18174416 0.505
-0.14688501 -0.18174416 0.505
-0.14557135 -0.18174416 0.505
-0.14425769 -0.18174416 0.505
-0.14294404 -0.18174416 0.505
-0.14163038 -0.18174416 0.505
-0.14031672 -0.18174416 0.505
-0.13900307 -0.18174416 0.505
-0.13768941 -0.18174416 0.505
-0.13637576 -0.18174416 0.505
-0.1350621 -0.18174416 0.505
-0.13374843 -0.18174416 0.505
-0.13243477 -0.18174416 0.505
-0.13112113 -0.18174416 0.505
-0.12980747 -0.18174416 0.505
-0.12874825 -0.18210407 0.50600004
-0.127432 -0.18210407 0.50600004
-0.12611574 -0.18210407 0.50600004
-0.12479949 -0.18210407 0.50600004
-0.12348323 -0.18210407 0.50600004
-0.1224084 -0.18246394 0.50700003
-0.12108954 -0.18246394 0.50700003
-0.11977068 -0.18246394 0.50700003
-0.11845183 -0.18246394 0.50700003
-0.11713296 -0.18246394 0.50700003
-0.1158141 -0.18246394 0.50700003
-0.11449524 -0.18246394 0.50700003
-0.11317638 -0.18246394 0.50700003
-0.1116369 -0.18210407 0.50600004
-0.11032064 -0.18210407 0.50600004
-0.10900438 -0.18210407 0.50600004
-0.10768811 -0.18210407 0.50600004
-0.10637186 -0.18210407 0.50600004
-0.1050556 -0.18210407 0.50600004
-0.10373934 -0.18210407 0.50600004
-0.1026255 -0.18246394 0.50700003
-0.10110682 -0.18210407 0.50600004
-0.099790566 -0.18210407 0.50600004
-0.098668918 -0.18246394 0.50700003
-0.097350061 -0.18246394 0.50700003
-0.096031196 -0.18246394 0.50700003
-0.094712339 -0.18246394 0.50700003
-0.093393482 -0.18246394 0.50700003
-0.092074618 -0.18246394 0.50700003
-0.090755761 -0.18246394 0.50700003
-0.089436896 -0.18246394 0.50700003
-0.088118039 -0.18246394 0.50700003
-0.086799182 -0.18246394 0.50700003
-0.085480317 -0.18246394 0.50700003
-0.08416146 -0.18246394 0.50700003
-0.082842596 -0.18246394 0.50700003
-0.081523739 -0.18246394 0.50700003
-0.080204874 -0.18246394 0.50700003
-0.078886017 -0.18246394 0.50700003
-0.07756716 -0.18246394 0.50700003
-0.076248296 -0.18246394 0.50700003
-0.074929439 -0.18246394 0.50700003
-0.073755756 -0.18282384 0.50800002
-0.072434299 -0.18282384 0.50800002
-0.071112834 -0.18282384 0.50800002
-0.069791377 -0.18282384 0.50800002
-0.0686047 -0.18318371 0.509
-0.067280635 -0.18318371 0.509
-0.06595657 -0.18318371 0.509
-0.064632505 -0.18318371 0.509
-0.063308448 -0.18318371 0.509
-0.061984383 -0.18318371 0.509
-0.060660318 -0.18318371 0.509
-0.059336256 -0.18318371 0.509
-0.058012195 -0.18318371 0.509
-0.056688134 -0.18318371 0.509
-0.055364069 -0.18318371 0.509
-0.054040007 -0.18318371 0.509
-0.052715942 -0.18318371 0.509
-0.051391881 -0.18318371 0.509
-0.05006782 -0.18318371 0.509
-0.048743758 -0.18318371 0.509
-0.047419693 -0.18318371 0.509
-0.046095632 -0.18318371 0.509
-0.044771567 -0.18318371 0.509
-0.043447502 -0.18318371 0.509
-0.042123441 -0.18318371 0.509
-0.040799379 -0.18318371 0.509
-0.039475318 -0.18318371 0.509
-0.03822621 -0.18354362 0.51000005
-0.036827192 -0.18318371 0.509
-0.035503127 -0.18318371 0.509
-0.034179065 -0.18318371 0.509
-0.032855004 -0.18318371 0.509
-0.031530943 -0.18318371 0.509
-0.030206878 -0.18318371 0.509
-0.028882815 -0.18318371 0.509
-0.027558751 -0.18318371 0.509
-0.02623469 -0.18318371 0.509
-0.024910627 -0.18318371 0.509
-0.023586564 -0.18318371 0.509
-0.022262502 -0.18318371 0.509
-0.020938439 -0.18318371 0.509
-0.019614376 -0.18318371 0.509
-0.018290313 -0.18318371 0.509
-0.01696625 -0.18318371 0.509
-0.015642188 -0.18318371 0.509
-0.014318124 -0.18318371 0.509
-0.012994062 -0.18318371 0.509
-0.01167 -0.18318371 0.509
-0.010345937 -0.18318371 0.509
-0.0090218745 -0.18318371 0.509
-0.0076978114 -0.18318371 0.509
-0.0063862712 -0.18354362 0.51000005
-0.0050596078 -0.18354362 0.51000005
-0.0037329434 -0.18354362 0.51000005
-0.0024062791 -0.18354362 0.51000005
-0.0010796151 -0.18354362 0.51000005
0.00024704909 -0.18354362 0.51000005
0.0015737133 -0.18354362 0.51000005
0.0029003774 -0.18354362 0.51000005
0.0042270413 -0.18354362 0.51000005
0.0055537056 -0.18354362 0.51000005
0.00688037 -0.18354362 0.51000005
0.0082070343 -0.18354362 0.51000005
0.0095336977 -0.18354362 0.51000005
0.010860362 -0.18354362 0.51000005
0.012187026 -0.18354362 0.51000005
0.01351369 -0.18354362 0.51000005
0.014840355 -0.18354362 0.51000005
0.016167019 -0.18354362 0.51000005
0.017493684 -0.18354362 0.51000005
0.018820347 -0.18354362 0.51000005
0.020147011 -0.18354362 0.51000005
0.021473676 -0.18354362 0.51000005
0.022800339 -0.18354362 0.51000005
0.024127003 -0.18354362 0.51000005
0.025453668 -0.18354362 0.51000005
0.026780332 -0.18354362 0.51000005
0.028106995 -0.18354362 0.51000005
0.02943366 -0.18354362 0.51000005
0.030760324 -0.18354362 0.51000005
0.032086991 -0.18354362 0.51000005
0.033413652 -0.18354362 0.51000005
0.034740314 -0.18354362 0.51000005
0.0361377 -0.1839035 0.51100004
0.037466966 -0.1839035 0.51100004
0.038796231 -0.1839035 0.51100004
0.040125497 -0.1839035 0.51100004
0.041535884 -0.18426339 0.51200002
0.04286775 -0.18426339 0.51200002
0.044199616 -0.18426339 0.51200002
0.045531485 -0.18426339 0.51200002
0.046863351 -0.18426339 0.51200002
0.048195221 -0.18426339 0.51200002
0.049623813 -0.18462327 0.51300001
0.050958283 -0.18462327 0.51300001
0.052292753 -0.18462327 0.51300001
0.053627219 -0.18462327 0.51300001
0.054961689 -0.18462327 0.51300001
0.056296159 -0.18462327 0.51300001
0.057630625 -0.18462327 0.51300001
0.058965091 -0.18462327 0.51300001
0.06029956 -0.18462327 0.51300001
0.061634026 -0.18462327 0.51300001
0.062968493 -0.18462327 0.51300001
0.064302959 -0.18462327 0.51300001
0.065637432 -0.18462327 0.51300001
0.067102447 -0.18498316 0.514
0.068439521 -0.18498316 0.514
0.069776587 -0.18498316 0.514
0.071113653 -0.18498316 0.514
0.072450727 -0.18498316 0.514
0.073787794 -0.18498316 0.514
0.075124867 -0.18498316 0.514
0.076610699 -0.18534307 0.51500005
0.077950373 -0.18534307 0.51500005
0.07929004 -0.18534307 0.51500005
0.080629706 -0.18534307 0.51500005
0.08196938 -0.18534307 0.51500005
0.083309047 -0.18534307 0.51500005
0.084648721 -0.18534307 0.51500005
0.085988387 -0.18534307 0.51500005
0.087328069 -0.18534307 0.51500005
0.088667735 -0.18534307 0.51500005
0.090007402 -0.18534307 0.51500005
0.091347076 -0.18534307 0.51500005
0.092686743 -0.18534307 0.51500005
0.094026417 -0.18534307 0.51500005
0.095366083 -0.18534307 0.51500005
0.096517965 -0.18498316 0.514
0.097855039 -0.18498316 0.514
0.098999128 -0.18462327 0.51300001
0.10013802 -0.18426339 0.51200002
0.10146988 -0.18426339 0.51200002
0.10280176 -0.18426339 0.51200002
0.10413362 -0.18426339 0.51200002
0.1052595 -0.1839035 0.51100004
0.10658877 -0.1839035 0.51100004
0.11057656 -0.1839035 0.51100004
0.11190582 -0.1839035 0.51100004
0.1042335 -0.14251623 0.39600003
0.10552944 -0.1428761 0.39700001
0.10656216 -0.1428761 0.39700001
0.10759487 -0.1428761 0.39700001
0.10862759 -0.1428761 0.39700001
0.10938408 -0.14251623 0.39600003
0.11013538 -0.14215632 0.39500001
0.11116289 -0.14215632 0.39500001
0.11190638 -0.14179644 0.39400002
0.11264466 -0.14143655 0.39300001
0.11337774 -0.14107665 0.39200002
0.11410563 -0.14071678 0.39100003
0.1148283 -0.14035688 0.39000002
0.11584281 -0.14035688 0.39000002
0.11685731 -0.14035688 0.39000002
0.11756959 -0.13999699 0.38900003
0.1185815 -0.13999699 0.38900003
0.11959341 -0.13999699 0.38900003
0.16194785 -0.18642272 0.51800001
0.16361059 -0.18678263 0.51900005
0.16496067 -0.18678263 0.51900005
0.16631074 -0.18678263 0.51900005
0.16766082 -0.18678263 0.51900005
0.16901089 -0.18678263 0.51900005
0.17036097 -0.18678263 0.51900005
0.17171104 -0.18678263 0.51900005
0.17306112 -0.18678263 0.51900005
0.17441119 -0.18678263 0.51900005
0.17576127 -0.18678263 0.51900005
0.17711136 -0.18678263 0.51900005
0.17846143 -0.18678263 0.51900005
0.17981149 -0.18678263 0.51900005
0.18116157 -0.18678263 0.51900005
0.18251164 -0.18678263 0.51900005
0.18386173 -0.18678263 0.51900005
0.18485492 -0.18642272 0.51800001
0.18620239 -0.18642272 0.51800001
0.18754986 -0.18642272 0.51800001
0.18889736 -0.18642272 0.51800001
0.19024482 -0.18642272 0.51800001
0.19196218 -0.18678263 0.51900005
0.19331226 -0.18678263 0.51900005
0.19466233 -0.18678263 0.51900005
0.19601242 -0.18678263 0.51900005
0.19736248 -0.18678263 0.51900005
0.19871256 -0.18678263 0.51900005
0.20006263 -0.18678263 0.51900005
0.20141271 -0.18678263 0.51900005
0.2027628 -0.18678263 0.51900005
0.20411287 -0.18678263 0.51900005
0.20546293 -0.18678263 0.51900005
0.20681301 -0.18678263 0.51900005
0.20816308 -0.18678263 0.51900005
0.20951317 -0.18678263 0.51900005
0.21086325 -0.18678263 0.51900005
0.21221332 -0.18678263 0.51900005
0.2135634 -0.18678263 0.51900005
0.21491346 -0.18678263 0.51900005
0.21626355 -0.18678263 0.51900005
0.21761362 -0.18678263 0.51900005
0.2189637 -0.18678263 0.51900005
0.22031377 -0.18678263 0.51900005
0.22166386 -0.18678263 0.51900005
0.22301392 -0.18678263 0.51900005
0.2247963 -0.18714251 0.52000004
0.22614898 -0.18714251 0.52000004
0.22750165 -0.18714251 0.52000004
0.22929443 -0.1875024 0.52100003
0.23064971 -0.1875024 0.52100003
0.23200499 -0.1875024 0.52100003
0.23336026 -0.1875024 0.52100003
0.23516604 -0.18786228 0.52200001
0.23652393 -0.18786228 0.52200001
0.23788181 -0.18786228 0.52200001
0.23923968 -0.18786228 0.52200001
0.24059756 -0.18786228 0.52200001
0.24195543 -0.18786228 0.52200001
0.24331333 -0.18786228 0.52200001
0.24467121 -0.18786228 0.52200001
0.24602908 -0.18786228 0.52200001
0.24786088 -0.18822217 0.523
0.24922137 -0.18822217 0.523
0.25058183 -0.18822217 0.523
0.25194231 -0.18822217 0.523
-0.27698472 -0.17792949 0.49800003
-0.27568927 -0.17792949 0.49800003
-0.27439383 -0.17792949 0.49800003
-0.27309841 -0.17792949 0.49800003
-0.27180293 -0.17792949 0.49800003
-0.27050748 -0.17792949 0.49800003
-0.26921204 -0.17792949 0.49800003
-0.26791659 -0.17792949 0.49800003
-0.26662114 -0.17792949 0.49800003
-0.2653257 -0.17792949 0.49800003
-0.2645604 -0.17828678 0.49900001
-0.26326239 -0.17828678 0.49900001
-0.26196432 -0.17828678 0.49900001
-0.26066628 -0.17828678 0.49900001
-0.25936821 -0.17828678 0.49900001
-0.25807017 -0.17828678 0.49900001
-0.25677213 -0.17828678 0.49900001
-0.25547406 -0.17828678 0.49900001
-0.2546854 -0.17864406 0.5
-0.25338474 -0.17864406 0.5
-0.25208408 -0.17864406 0.5
-0.25078344 -0.17864406 0.5
-0.24948278 -0.17864406 0.5
-0.24867852 -0.17900136 0.50100005
-0.24737526 -0.17900136 0.50100005
-0.24607202 -0.17900136 0.50100005
-0.24525732 -0.17935865 0.50200003
-0.24395145 -0.17935865 0.50200003
-0.24264561 -0.17935865 0.50200003
-0.24133976 -0.17935865 0.50200003
-0.24003391 -0.17935865 0.50200003
-0.23920359 -0.17971593 0.50300002
-0.23789515 -0.17971593 0.50300002
-0.23658669 -0.17971593 0.50300002
-0.23527823 -0.17971593 0.50300002
-0.23396976 -0.17971593 0.50300002
-0.23266132 -0.17971593 0.50300002
-0.23089293 -0.17935865 0.50200003
-0.22958708 -0.17935865 0.50200003
-0.22828123 -0.17935865 0.50200003
-0.22697537 -0.17935865 0.50200003
-0.2256695 -0.17935865 0.50200003
-0.22436365 -0.17935865 0.50200003
-0.22261347 -0.17900136 0.50100005
-0.22175196 -0.17935865 0.50200003
-0.22044609 -0.17935865 0.50200003
-0.21870372 -0.17900136 0.50100005
-0.21783438 -0.17935865 0.50200003
-0.21652853 -0.17935865 0.50200003
-0.21522269 -0.17935865 0.50200003
-0.21391682 -0.17935865 0.50200003
-0.21261097 -0.17935865 0.50200003
-0.21130513 -0.17935865 0.50200003
-0.20999928 -0.17935865 0.50200003
-0.20869341 -0.17935865 0.50200003
-0.20738755 -0.17935865 0.50200003
-0.2060817 -0.17935865 0.50200003
-0.20518377 -0.17971593 0.50300002
-0.20387532 -0.17971593 0.50300002
-0.20216414 -0.17935865 0.50200003
-0.20125841 -0.17971593 0.50300002
-0.19994995 -0.17971593 0.50300002
-0.19824658 -0.17935865 0.50200003
-0.19694073 -0.17935865 0.50200003
-0.19563487 -0.17935865 0.50200003
-0.19432902 -0.17935865 0.50200003
-0.19302318 -0.17935865 0.50200003
-0.19171733 -0.17935865 0.50200003
-0.19041146 -0.17935865 0.50200003
-0.1891056 -0.17935865 0.50200003
-0.18779975 -0.17935865 0.50200003
-0.1864939 -0.17935865 0.50200003
-0.18518806 -0.17935865 0.50200003
-0.18388221 -0.17935865 0.50200003
-0.18257634 -0.17935865 0.50200003
-0.18127048 -0.17935865 0.50200003
-0.17996463 -0.17935865 0.50200003
-0.17901467 -0.17971593 0.50300002
-0.17770621 -0.17971593 0.50300002
-0.17639776 -0.17971593 0.50300002
-0.1750893 -0.17971593 0.50300002
-0.17378086 -0.17971593 0.50300002
-0.1724724 -0.17971593 0.50300002
-0.17116393 -0.17971593 0.50300002
-0.17019317 -0.18007322 0.50400001
-0.1688821 -0.18007322 0.50400001
-0.16757105 -0.18007322 0.50400001
-0.16626 -0.18007322 0.50400001
-0.16494894 -0.18007322 0.50400001
-0.16363788 -0.18007322 0.50400001
-0.1626489 -0.1804305 0.505
-0.16133524 -0.1804305 0.505
-0.16002159 -0.1804305 0.505
-0.15870792 -0.1804305 0.505
-0.15739428 -0.1804305 0.505
-0.15608062 -0.1804305 0.505
-0.15476696 -0.1804305 0.505
-0.15345329 -0.1804305 0.505
-0.15213963 -0.1804305 0.505
-0.15082598 -0.1804305 0.505
-0.14951234 -0.1804305 0.505
-0.14819868 -0.1804305 0.505
-0.14688501 -0.1804305 0.505
-0.14557135 -0.1804305 0.505
-0.14425769 -0.1804305 0.505
-0.14294404 -0.1804305 0.505
-0.14163038 -0.1804305 0.505
-0.14031672 -0.1804305 0.505
-0.13900307 -0.1804305 0.505
-0.13796207 -0.1807878 0.50600004
-0.13664582 -0.1807878 0.50600004
-0.1350621 -0.1804305 0.505
-0.13374843 -0.1804305 0.505
-0.13243477 -0.1804305 0.505
-0.13112113 -0.1804305 0.505
-0.12980747 -0.1804305 0.505
-0.12874825 -0.1807878 0.50600004
-0.127432 -0.1807878 0.50600004
-0.12611574 -0.1807878 0.50600004
-0.12479949 -0.1807878 0.50600004
-0.12348323 -0.1807878 0.50600004
-0.1224084 -0.18114509 0.50700003
-0.12108954 -0.18114509 0.50700003
-0.11977068 -0.18114509 0.50700003
-0.11845183 -0.18114509 0.50700003
-0.11713296 -0.18114509 0.50700003
-0.1158141 -0.18114509 0.50700003
-0.11449524 -0.18114509 0.50700003
-0.11317638 -0.18114509 0.50700003
-0.11185753 -0.18114509 0.50700003
-0.11032064 -0.1807878 0.50600004
-0.10900438 -0.1807878 0.50600004
-0.10768811 -0.1807878 0.50600004
-0.10658208 -0.18114509 0.50700003
-0.1050556 -0.1807878 0.50600004
-0.10373934 -0.1807878 0.50600004
-0.1026255 -0.18114509 0.50700003
-0.10130664 -0.18114509 0.50700003
-0.099987783 -0.18114509 0.50700003
-0.098668918 -0.18114509 0.50700003
-0.097350061 -0.18114509 0.50700003
-0.096031196 -0.18114509 0.50700003
-0.094712339 -0.18114509 0.50700003
-0.093393482 -0.18114509 0.50700003
-0.092074618 -0.18114509 0.50700003
-0.090755761 -0.18114509 0.50700003
-0.089436896 -0.18114509 0.50700003
-0.088118039 -0.18114509 0.50700003
-0.086799182 -0.18114509 0.50700003
-0.085480317 -0.18114509 0.50700003
-0.08416146 -0.18114509 0.50700003
-0.082842596 -0.18114509 0.50700003
-0.081523739 -0.18114509 0.50700003
-0.080204874 -0.18114509 0.50700003
-0.078886017 -0.18114509 0.50700003
-0.07756716 -0.18114509 0.50700003
-0.076248296 -0.18114509 0.50700003
-0.074929439 -0.18114509 0.50700003
-0.073610574 -0.18114509 0.50700003
-0.072291717 -0.18114509 0.50700003
-0.070972852 -0.18114509 0.50700003
-0.069791377 -0.18150237 0.50800002
-0.068469919 -0.18150237 0.50800002
-0.067280635 -0.18185966 0.509
-0.06595657 -0.18185966 0.509
-0.064632505 -0.18185966 0.509
-0.063308448 -0.18185966 0.509
-0.061984383 -0.18185966 0.509
-0.060660318 -0.18185966 0.509
-0.059336256 -0.18185966 0.509
-0.058012195 -0.18185966 0.509
-0.056688134 -0.18185966 0.509
-0.055364069 -0.18185966 0.509
-0.054040007 -0.18185966 0.509
-0.052715942 -0.18185966 0.509
-0.051391881 -0.18185966 0.509
-0.05006782 -0.18185966 0.509
-0.048743758 -0.18185966 0.509
-0.047419693 -0.18185966 0.509
-0.046095632 -0.18185966 0.509
-0.044771567 -0.18185966 0.509
-0.043447502 -0.18185966 0.509
-0.042123441 -0.18185966 0.509
-0.040799379 -0.18185966 0.509
-0.039475318 -0.18185966 0.509
-0.03822621 -0.18221696 0.51000005
-0.036899548 -0.18221696 0.51000005
-0.035503127 -0.18185966 0.509
-0.034179065 -0.18185966 0.509
-0.032855004 -0.18185966 0.509
-0.031530943 -0.18185966 0.509
-0.030206878 -0.18185966 0.509
-0.028882815 -0.18185966 0.509
-0.027558751 -0.18185966 0.509
-0.02623469 -0.18185966 0.509
-0.024910627 -0.18185966 0.509
-0.023586564 -0.18185966 0.509
-0.022262502 -0.18185966 0.509
-0.020938439 -0.18185966 0.509
-0.019614376 -0.18185966 0.509
-0.018290313 -0.18185966 0.509
-0.01696625 -0.18185966 0.509
-0.015642188 -0.18185966 0.509
-0.014318124 -0.18185966 0.509
-0.012994062 -0.18185966 0.509
-0.01167 -0.18185966 0.509
-0.010345937 -0.18185966 0.509
-0.0090218745 -0.18185966 0.509
-0.0076978114 -0.18185966 0.509
-0.0063862712 -0.18221696 0.51000005
-0.0050596078 -0.18221696 0.51000005
-0.0037329434 -0.18221696 0.51000005
-0.0024062791 -0.18221696 0.51000005
-0.0010796151 -0.18221696 0.51000005
0.00024704909 -0.18221696 0.51000005
0.0015737133 -0.18221696 0.51000005
0.0029003774 -0.18221696 0.51000005
0.0042270413 -0.18221696 0.51000005
0.0055537056 -0.18221696 0.51000005
0.00688037 -0.18221696 0.51000005
0.0082070343 -0.18221696 0.51000005
0.0095336977 -0.18221696 0.51000005
0.010860362 -0.18221696 0.51000005
0.012187026 -0.18221696 0.51000005
0.01351369 -0.18221696 0.51000005
0.014840355 -0.18221696 0.51000005
0.016167019 -0.18221696 0.51000005
0.017493684 -0.18221696 0.51000005
0.018820347 -0.18221696 0.51000005
0.020147011 -0.18221696 0.51000005
0.021473676 -0.18221696 0.51000005
0.022800339 -0.18221696 0.51000005
0.024127003 -0.18221696 0.51000005
0.025453668 -0.18221696 0.51000005
0.026780332 -0.18221696 0.51000005
0.028106995 -0.18221696 0.51000005
0.02943366 -0.18221696 0.51000005
0.030760324 -0.18221696 0.51000005
0.032086991 -0.18221696 0.51000005
0.033413652 -0.18221696 0.51000005
0.034808435 -0.18257424 0.51100004
0.0361377 -0.18257424 0.51100004
0.037466966 -0.18257424 0.51100004
0.038796231 -0.18257424 0.51100004
0.040204018 -0.18293153 0.51200002
0.041535884 -0.18293153 0.51200002
0.04286775 -0.18293153 0.51200002
0.044199616 -0.18293153 0.51200002
0.045531485 -0.18293153 0.51200002
0.046863351 -0.18293153 0.51200002
0.048289351 -0.18328881 0.51300001
0.049623813 -0.18328881 0.51300001
0.050958283 -0.18328881 0.51300001
0.052292753 -0.18328881 0.51300001
0.053627219 -0.18328881 0.51300001
0.054961689 -0.18328881 0.51300001
0.056296159 -0.18328881 0.51300001
0.057630625 -0.18328881 0.51300001
0.058965091 -0.18328881 0.51300001
0.06029956 -0.18328881 0.51300001
0.061634026 -0.18328881 0.51300001
0.062968493 -0.18328881 0.51300001
0.064302959 -0.18328881 0.51300001
0.065637432 -0.18328881 0.51300001
0.066971898 -0.18328881 0.51300001
0.068306372 -0.18328881 0.51300001
0.069640838 -0.18328881 0.51300001
0.070975296 -0.18328881 0.51300001
0.072450727 -0.1836461 0.514
0.073787794 -0.1836461 0.514
0.075124867 -0.1836461 0.514
0.076461934 -0.1836461 0.514
0.077799007 -0.1836461 0.514
0.079136074 -0.1836461 0.514
0.080473132 -0.1836461 0.514
0.081810206 -0.1836461 0.514
0.083309047 -0.1840034 0.51500005
0.084648721 -0.1840034 0.51500005
0.085988387 -0.1840034 0.51500005
0.087328069 -0.1840034 0.51500005
0.088667735 -0.1840034 0.51500005
0.090007402 -0.1840034 0.51500005
0.091347076 -0.1840034 0.51500005
0.092686743 -0.1840034 0.51500005
0.094026417 -0.1840034 0.51500005
0.095366083 -0.1840034 0.51500005
0.096517965 -0.1836461 0.514
0.097855039 -0.1836461 0.514
0.098999128 -0.18328881 0.51300001
0.10013802 -0.18293153 0.51200002
0.10146988 -0.18293153 0.51200002
0.10280176 -0.18293153 0.51200002
0.10393023 -0.18257424 0.51100004
0.10268216 -0.14077152 0.39400002
0.10370707 -0.14077152 0.39400002
0.10499781 -0.14112881 0.39500001
0.10602532 -0.14112881 0.39500001
0.10705283 -0.14112881 0.39500001
0.10808034 -0.14112881 0.39500001
0.10910785 -0.14112881 0.39500001
0.10985656 -0.14077152 0.39400002
0.11088147 -0.14077152 0.39400002
0.11162235 -0.14041424 0.39300001
0.11235803 -0.14005695 0.39200002
0.11308852 -0.13969967 0.39100003
0.1138138 -0.13934237 0.39000002
0.1148283 -0.13934237 0.39000002
0.11554578 -0.13898508 0.38900003
0.11655769 -0.13898508 0.38900003
0.11756959 -0.13898508 0.38900003
0.1185815 -0.13898508 0.38900003
0.11959341 -0.13898508 0.38900003
0.16194785 -0.18507525 0.51800001
0.16329534 -0.18507525 0.51800001
0.16464281 -0.18507525 0.51800001
0.16631074 -0.18543255 0.51900005
0.16766082 -0.18543255 0.51900005
0.16901089 -0.18543255 0.51900005
0.17036097 -0.18543255 0.51900005
0.17171104 -0.18543255 0.51900005
0.17306112 -0.18543255 0.51900005
0.17441119 -0.18543255 0.51900005
0.17576127 -0.18543255 0.51900005
0.17711136 -0.18543255 0.51900005
0.17846143 -0.18543255 0.51900005
0.17981149 -0.18543255 0.51900005
0.18116157 -0.18543255 0.51900005
0.18251164 -0.18543255 0.51900005
0.18386173 -0.18543255 0.51900005
0.18485492 -0.18507525 0.51800001
0.18620239 -0.18507525 0.51800001
0.18754986 -0.18507525 0.51800001
0.18889736 -0.18507525 0.51800001
0.19024482 -0.18507525 0.51800001
0.19196218 -0.18543255 0.51900005
0.19331226 -0.18543255 0.51900005
0.19466233 -0.18543255 0.51900005
0.19601242 -0.18543255 0.51900005
0.19736248 -0.18543255 0.51900005
0.19871256 -0.18543255 0.51900005
0.20006263 -0.18543255 0.51900005
0.20141271 -0.18543255 0.51900005
0.2027628 -0.18543255 0.51900005
0.20411287 -0.18543255 0.51900005
0.20585881 -0.18578984 0.52000004
0.20721149 -0.18578984 0.52000004
0.20856416 -0.18578984 0.52000004
0.20991686 -0.18578984 0.52000004
0.21126953 -0.18578984 0.52000004
0.2126222 -0.18578984 0.52000004
0.21397488 -0.18578984 0.52000004
0.21491346 -0.18543255 0.51900005
0.21668024 -0.18578984 0.52000004
0.21803291 -0.18578984 0.52000004
0.21938558 -0.18578984 0.52000004
0.22073826 -0.18578984 0.52000004
0.22209094 -0.18578984 0.52000004
0.22344363 -0.18578984 0.52000004
0.2247963 -0.18578984 0.52000004
0.22614898 -0.18578984 0.52000004
0.22793914 -0.18614712 0.52100003
0.22929443 -0.18614712 0.52100003
0.23064971 -0.18614712 0.52100003
0.23245029 -0.18650441 0.52200001
0.23380816 -0.18650441 0.52200001
0.23516604 -0.18650441 0.52200001
0.23652393 -0.18650441 0.52200001
0.23788181 -0.18650441 0.52200001
0.23923968 -0.18650441 0.52200001
0.24059756 -0.18650441 0.52200001
0.24241894 -0.18686169 0.523
0.24331333 -0.18650441 0.52200001
0.24467121 -0.18650441 0.52200001
0.24650039 -0.18686169 0.523
0.24786088 -0.18686169 0.523
0.24922137 -0.18686169 0.523
0.25058183 -0.18686169 0.523
0.25194231 -0.18686169 0.523
-0.27698472 -0.17663404 0.49800003
-0.27568927 -0.17663404 0.49800003
-0.27439383 -0.17663404 0.49800003
-0.27309841 -0.17663404 0.49800003
-0.27180293 -0.17663404 0.49800003
-0.27050748 -0.17663404 0.49800003
-0.26921204 -0.17663404 0.49800003
-0.26791659 -0.17663404 0.49800003
-0.26662114 -0.17663404 0.49800003
-0.2653257 -0.17663404 0.49800003
-0.2645604 -0.17698874 0.49900001
-0.26326239 -0.17698874 0.49900001
-0.26196432 -0.17698874 0.49900001
-0.26066628 -0.17698874 0.49900001
-0.25936821 -0.17698874 0.49900001
-0.25807017 -0.17698874 0.49900001
-0.25677213 -0.17698874 0.49900001
-0.25547406 -0.17698874 0.49900001
-0.2546854 -0.17734341 0.5
-0.25338474 -0.17734341 0.5
-0.25208408 -0.17734341 0.5
-0.25078344 -0.17734341 0.5
-0.24998178 -0.17769812 0.50100005
-0.24867852 -0.17769812 0.50100005
-0.24786903 -0.1780528 0.50200003
-0.24656318 -0.1780528 0.50200003
-0.24525732 -0.1780528 0.50200003
-0.24395145 -0.1780528 0.50200003
-0.24264561 -0.1780528 0.50200003
-0.24182051 -0.17840748 0.50300002
-0.24051206 -0.17840748 0.50300002
-0.23920359 -0.17840748 0.50300002
-0.23789515 -0.17840748 0.50300002
-0.23658669 -0.17840748 0.50300002
-0.23527823 -0.17840748 0.50300002
-0.23396976 -0.17840748 0.50300002
-0.23266132 -0.17840748 0.50300002
-0.23089293 -0.1780528 0.50200003
-0.22958708 -0.1780528 0.50200003
-0.22828123 -0.1780528 0.50200003
-0.22697537 -0.1780528 0.50200003
-0.2256695 -0.1780528 0.50200003
-0.22436365 -0.1780528 0.50200003
-0.22305781 -0.1780528 0.50200003
-0.22175196 -0.1780528 0.50200003
-0.22044609 -0.1780528 0.50200003
-0.21914025 -0.1780528 0.50200003
-0.21783438 -0.1780528 0.50200003
-0.21652853 -0.1780528 0.50200003
-0.21522269 -0.1780528 0.50200003
-0.21391682 -0.1780528 0.50200003
-0.21261097 -0.1780528 0.50200003
-0.21130513 -0.1780528 0.50200003
-0.20999928 -0.1780528 0.50200003
-0.20869341 -0.1780528 0.50200003
-0.20780067 -0.17840748 0.50300002
-0.20649222 -0.17840748 0.50300002
-0.20518377 -0.17840748 0.50300002
-0.20387532 -0.17840748 0.50300002
-0.20256685 -0.17840748 0.50300002
-0.20125841 -0.17840748 0.50300002
-0.19994995 -0.17840748 0.50300002
-0.19864149 -0.17840748 0.50300002
-0.19733304 -0.17840748 0.50300002
-0.19602458 -0.17840748 0.50300002
-0.19432902 -0.1780528 0.50200003
-0.19302318 -0.1780528 0.50200003
-0.19171733 -0.1780528 0.50200003
-0.19079077 -0.17840748 0.50300002
-0.1894823 -0.17840748 0.50300002
-0.18779975 -0.1780528 0.50200003
-0.1868654 -0.17840748 0.50300002
-0.18518806 -0.1780528 0.50200003
-0.18388221 -0.1780528 0.50200003
-0.18257634 -0.1780528 0.50200003
-0.18127048 -0.1780528 0.50200003
-0.18032312 -0.17840748 0.50300002
-0.17901467 -0.17840748 0.50300002
-0.17770621 -0.17840748 0.50300002
-0.17639776 -0.17840748 0.50300002
-0.1750893 -0.17840748 0.50300002
-0.17378086 -0.17840748 0.50300002
-0.1724724 -0.17840748 0.50300002
-0.17116393 -0.17840748 0.50300002
-0.17019317 -0.17876217 0.50400001
-0.16854703 -0.17840748 0.50300002
-0.16757105 -0.17876217 0.50400001
-0.16626 -0.17876217 0.50400001
-0.16494894 -0.17876217 0.50400001
-0.16363788 -0.17876217 0.50400001
-0.16232683 -0.17876217 0.50400001
-0.16101578 -0.17876217 0.50400001
-0.16002159 -0.17911685 0.505
-0.15870792 -0.17911685 0.505
-0.15739428 -0.17911685 0.505
-0.15608062 -0.17911685 0.505
-0.15476696 -0.17911685 0.505
-0.15345329 -0.17911685 0.505
-0.15213963 -0.17911685 0.505
-0.15082598 -0.17911685 0.505
-0.14951234 -0.17911685 0.505
-0.14819868 -0.17911685 0.505
-0.14688501 -0.17911685 0.505
-0.14557135 -0.17911685 0.505
-0.14425769 -0.17911685 0.505
-0.14294404 -0.17911685 0.505
-0.14163038 -0.17911685 0.505
-0.14059459 -0.17947155 0.50600004
-0.13927834 -0.17947155 0.50600004
-0.13796207 -0.17947155 0.50600004
-0.13664582 -0.17947155 0.50600004
-0.13532956 -0.17947155 0.50600004
-0.13374843 -0.17911685 0.505
-0.13243477 -0.17911685 0.505
-0.13112113 -0.17911685 0.505
-0.12980747 -0.17911685 0.505
-0.12874825 -0.17947155 0.50600004
-0.127432 -0.17947155 0.50600004
-0.12611574 -0.17947155 0.50600004
-0.12479949 -0.17947155 0.50600004
-0.12348323 -0.17947155 0.50600004
-0.1224084 -0.17982623 0.50700003
-0.12108954 -0.17982623 0.50700003
-0.11977068 -0.17982623 0.50700003
-0.11845183 -0.17982623 0.50700003
-0.11713296 -0.17982623 0.50700003
-0.1158141 -0.17982623 0.50700003
-0.11449524 -0.17982623 0.50700003
-0.11317638 -0.17982623 0.50700003
-0.11185753 -0.17982623 0.50700003
-0.11053866 -0.17982623 0.50700003
-0.1092198 -0.17982623 0.50700003
-0.10790094 -0.17982623 0.50700003
-0.10637186 -0.17947155 0.50600004
-0.10526322 -0.17982623 0.50700003
-0.10394436 -0.17982623 0.50700003
-0.1026255 -0.17982623 0.50700003
-0.10130664 -0.17982623 0.50700003
-0.099987783 -0.17982623 0.50700003
-0.098668918 -0.17982623 0.50700003
-0.097350061 -0.17982623 0.50700003
-0.096031196 -0.17982623 0.50700003
-0.094712339 -0.17982623 0.50700003
-0.093393482 -0.17982623 0.50700003
-0.092074618 -0.17982623 0.50700003
-0.090755761 -0.17982623 0.50700003
-0.089436896 -0.17982623 0.50700003
-0.088118039 -0.17982623 0.50700003
-0.086799182 -0.17982623 0.50700003
-0.085480317 -0.17982623 0.50700003
-0.08416146 -0.17982623 0.50700003
-0.082842596 -0.17982623 0.50700003
-0.081523739 -0.17982623 0.50700003
-0.080204874 -0.17982623 0.50700003
-0.078886017 -0.17982623 0.50700003
-0.07756716 -0.17982623 0.50700003
-0.076248296 -0.17982623 0.50700003
-0.074929439 -0.17982623 0.50700003
-0.073610574 -0.17982623 0.50700003
