# .PCD v0.7 - Point Cloud Data file format
VERSION 0.7
FIELDS x y z
SIZE 4 4 4
TYPE F F F
COUNT 1 1 1
WIDTH 1374
HEIGHT 1
VIEWPOINT 0 0 0 1 0 0 0
POINTS 1374
DATA ascii
0.037247002 -0.053320613 0.50800002
0.03872031 -0.05353054 0.51000005
0.040046975 -0.05353054 0.51000005
0.041373637 -0.05353054 0.51000005
0.042700302 -0.05353054 0.51000005
0.044026963 -0.05353054 0.51000005
0.045353629 -0.05353054 0.51000005
0.046680294 -0.05353054 0.51000005
0.048006959 -0.05353054 0.51000005
0.049333621 -0.05353054 0.51000005
0.050660286 -0.05353054 0.51000005
0.051986951 -0.05353054 0.51000005
0.053313613 -0.05353054 0.51000005
0.054640278 -0.05353054 0.51000005
0.055966944 -0.05353054 0.51000005
0.057293609 -0.05353054 0.51000005
0.05862027 -0.05353054 0.51000005
0.059946936 -0.05353054 0.51000005
0.061273601 -0.05353054 0.51000005
0.062600262 -0.05353054 0.51000005
0.063926928 -0.05353054 0.51000005
0.065253593 -0.05353054 0.51000005
0.066580251 -0.05353054 0.51000005
0.067906924 -0.05353054 0.51000005
0.069233581 -0.05353054 0.51000005
0.070560247 -0.05353054 0.51000005
0.071886912 -0.05353054 0.51000005
0.073213577 -0.05353054 0.51000005
0.074540243 -0.05353054 0.51000005
0.0758669 -0.05353054 0.51000005
0.077193573 -0.05353054 0.51000005
0.078520231 -0.05353054 0.51000005
0.079846896 -0.05353054 0.51000005
0.081173562 -0.05353054 0.51000005
0.082500227 -0.05353054 0.51000005
0.083826892 -0.05353054 0.51000005
0.08515355 -0.05353054 0.51000005
0.086480223 -0.05353054 0.51000005
0.087634705 -0.053425573 0.509
0.089133546 -0.05353054 0.51000005
0.090460211 -0.05353054 0.51000005
0.091786876 -0.05353054 0.51000005
0.093113542 -0.05353054 0.51000005
0.094440199 -0.05353054 0.51000005
0.095766865 -0.05353054 0.51000005
0.09709353 -0.05353054 0.51000005
0.098420195 -0.05353054 0.51000005
0.099746861 -0.05353054 0.51000005
0.10107353 -0.05353054 0.51000005
0.10260097 -0.0536355 0.51100004
0.10393023 -0.0536355 0.51100004
0.1052595 -0.0536355 0.51100004
0.10658877 -0.0536355 0.51100004
0.10791803 -0.0536355 0.51100004
0.1092473 -0.0536355 0.51100004
0.11057656 -0.0536355 0.51100004
0.11190582 -0.0536355 0.51100004
0.1130135 -0.05353054 0.51000005
0.11434016 -0.05353054 0.51000005
0.11521323 -0.053320613 0.50800002
0.11630529 -0.053215653 0.50700003
0.11739216 -0.053110693 0.50600004
0.1184738 -0.053005725 0.505
0.11931305 -0.052795805 0.50300002
0.12038171 -0.052690845 0.50200003
0.12120274 -0.052480917 0.5
0.1225034 -0.052480917 0.5
0.12330884 -0.052270997 0.49800003
0.12460428 -0.052270997 0.49800003
0.12539411 -0.052061073 0.49600002
0.12668437 -0.052061073 0.49600002
0.12745857 -0.05185115 0.49400002
0.12848301 -0.05174619 0.49300003
0.12897579 -0.051431298 0.49000001
0.12892136 -0.050906491 0.48500001
0.12899587 -0.049017176 0.46700001
0.12937422 -0.048702292 0.46400002
0.13001837 -0.048492368 0.46200001
0.13093615 -0.048387408 0.46100003
0.13184871 -0.048282444 0.46000001
0.13275608 -0.048177484 0.45900002
0.13365826 -0.048072524 0.45800003
0.13455522 -0.047967561 0.45700002
0.13544698 -0.047862601 0.45600003
0.13633353 -0.047757637 0.45500001
0.13721488 -0.047652677 0.45400003
0.13778622 -0.047442753 0.45200002
0.13865457 -0.047337793 0.45100003
0.13920768 -0.047127865 0.44900003
0.13975038 -0.046917941 0.44700003
0.14028268 -0.046708018 0.44500002
0.14080457 -0.046498094 0.44300002
0.14099561 -0.04618321 0.44000003
0.14117104 -0.045868322 0.43700001
0.14133087 -0.045553438 0.43400002
0.1414751 -0.045238554 0.43100002
0.14193456 -0.045028631 0.42900002
0.14205016 -0.044713743 0.42600003
0.1418141 -0.044293895 0.42200002
0.14223453 -0.044083972 0.42000002
0.14196208 -0.043664124 0.41600001
0.14235651 -0.043454204 0.41400003
0.14274053 -0.04324428 0.41200003
0.14276507 -0.042929392 0.40900001
0.14312568 -0.042719468 0.40700001
0.14347592 -0.042509545 0.40500003
0.14417256 -0.042404585 0.40400001
0.14486404 -0.042299621 0.40300003
0.14555028 -0.042194657 0.40200001
0.14623135 -0.042089697 0.40100002
0.1469072 -0.041984733 0.40000001
0.14757785 -0.041879773 0.39900002
0.14824331 -0.041774813 0.39800003
0.14927863 -0.041774813 0.39800003
0.15031394 -0.041774813 0.39800003
0.15096898 -0.041669849 0.39700001
0.15200169 -0.041669849 0.39700001
0.20451732 -0.055314887 0.52700001
0.20588821 -0.055314887 0.52700001
0.2072591 -0.055314887 0.52700001
0.20862998 -0.055314887 0.52700001
0.20960239 -0.055209927 0.52600002
0.21097067 -0.055209927 0.52600002
0.21233897 -0.055209927 0.52600002
0.21370724 -0.055209927 0.52600002
0.21507552 -0.055209927 0.52600002
0.21644381 -0.055209927 0.52600002
0.217398 -0.055104967 0.52500004
0.21918039 -0.055209927 0.52600002
0.22054867 -0.055209927 0.52600002
0.22191694 -0.055209927 0.52600002
0.22370972 -0.055314887 0.52700001
0.22508062 -0.055314887 0.52700001
0.2264515 -0.055314887 0.52700001
0.22782239 -0.055314887 0.52700001
0.22919327 -0.055314887 0.52700001
0.23100165 -0.055419847 0.528
0.23237514 -0.055419847 0.528
0.23374863 -0.055419847 0.528
0.23512211 -0.055419847 0.528
0.23694353 -0.055524815 0.52900004
0.23831962 -0.055524815 0.52900004
0.23969571 -0.055524815 0.52900004
0.24061607 -0.055419847 0.528
0.24198955 -0.055419847 0.528
0.24336304 -0.055419847 0.528
0.24473652 -0.055419847 0.528
0.24611002 -0.055419847 0.528
0.24748351 -0.055419847 0.528
0.24885699 -0.055419847 0.528
0.25023046 -0.055419847 0.528
0.25160396 -0.055419847 0.528
0.25297746 -0.055419847 0.528
0.25435093 -0.055419847 0.528
0.25620878 -0.055524815 0.52900004
-0.27956441 -0.051692069 0.505
-0.27825075 -0.051692069 0.505
-0.27748552 -0.051794432 0.50600004
-0.27616927 -0.051794432 0.50600004
-0.27485299 -0.051794432 0.50600004
-0.27353674 -0.051794432 0.50600004
-0.27275845 -0.051896792 0.50700003
-0.27143961 -0.051896792 0.50700003
-0.27012074 -0.051896792 0.50700003
-0.26880187 -0.051896792 0.50700003
-0.26748303 -0.051896792 0.50700003
-0.26616415 -0.051896792 0.50700003
-0.26484531 -0.051896792 0.50700003
-0.26352644 -0.051896792 0.50700003
-0.26220757 -0.051896792 0.50700003
-0.26088873 -0.051896792 0.50700003
-0.25956985 -0.051896792 0.50700003
-0.25825101 -0.051896792 0.50700003
-0.25693214 -0.051896792 0.50700003
-0.25561327 -0.051896792 0.50700003
-0.25429443 -0.051896792 0.50700003
-0.25297555 -0.051896792 0.50700003
-0.25165671 -0.051896792 0.50700003
-0.25033784 -0.051896792 0.50700003
-0.24901898 -0.051896792 0.50700003
-0.24770011 -0.051896792 0.50700003
-0.24686721 -0.051999152 0.50800002
-0.24554574 -0.051999152 0.50800002
-0.2442243 -0.051999152 0.50800002
-0.24338098 -0.052101512 0.509
-0.24205691 -0.052101512 0.509
-0.24073285 -0.052101512 0.509
-0.23987916 -0.052203875 0.51000005
-0.2385525 -0.052203875 0.51000005
-0.23722583 -0.052203875 0.51000005
-0.23589917 -0.052203875 0.51000005
-0.2345725 -0.052203875 0.51000005
-0.23324583 -0.052203875 0.51000005
-0.23191918 -0.052203875 0.51000005
-0.2305925 -0.052203875 0.51000005
-0.22926584 -0.052203875 0.51000005
-0.22793919 -0.052203875 0.51000005
-0.22661252 -0.052203875 0.51000005
-0.22528586 -0.052203875 0.51000005
-0.22395918 -0.052203875 0.51000005
-0.22263253 -0.052203875 0.51000005
-0.22130586 -0.052203875 0.51000005
-0.2199792 -0.052203875 0.51000005
-0.21865255 -0.052203875 0.51000005
-0.21732587 -0.052203875 0.51000005
-0.2159992 -0.052203875 0.51000005
-0.21425159 -0.052101512 0.509
-0.21292754 -0.052101512 0.509
-0.21160348 -0.052101512 0.509
-0.21027941 -0.052101512 0.509
-0.20895535 -0.052101512 0.509
-0.20763129 -0.052101512 0.509
-0.20590191 -0.051999152 0.50800002
-0.20458044 -0.051999152 0.50800002
-0.20325898 -0.051999152 0.50800002
-0.20193753 -0.051999152 0.50800002
-0.20061606 -0.051999152 0.50800002
-0.1992946 -0.051999152 0.50800002
-0.19797313 -0.051999152 0.50800002
-0.19665167 -0.051999152 0.50800002
-0.19533022 -0.051999152 0.50800002
-0.19400875 -0.051999152 0.50800002
-0.19230799 -0.051896792 0.50700003
-0.19136582 -0.051999152 0.50800002
-0.19004436 -0.051999152 0.50800002
-0.18872291 -0.051999152 0.50800002
-0.18703255 -0.051896792 0.50700003
-0.18571369 -0.051896792 0.50700003
-0.18439482 -0.051896792 0.50700003
-0.18307596 -0.051896792 0.50700003
-0.18175711 -0.051896792 0.50700003
-0.18079415 -0.051999152 0.50800002
-0.17947267 -0.051999152 0.50800002
-0.17780052 -0.051896792 0.50700003
-0.17648166 -0.051896792 0.50700003
-0.17550829 -0.051999152 0.50800002
-0.17418684 -0.051999152 0.50800002
-0.17286536 -0.051999152 0.50800002
-0.17154391 -0.051999152 0.50800002
-0.17022245 -0.051999152 0.50800002
-0.16890098 -0.051999152 0.50800002
-0.1679094 -0.052101512 0.509
-0.16658533 -0.052101512 0.509
-0.16526127 -0.052101512 0.509
-0.16393721 -0.052101512 0.509
-0.16261315 -0.052101512 0.509
-0.16160598 -0.052203875 0.51000005
-0.1602793 -0.052203875 0.51000005
-0.15895264 -0.052203875 0.51000005
-0.15762599 -0.052203875 0.51000005
-0.15629932 -0.052203875 0.51000005
-0.15466876 -0.052101512 0.509
-0.15334471 -0.052101512 0.509
-0.15202065 -0.052101512 0.509
-0.15069659 -0.052101512 0.509
-0.14937253 -0.052101512 0.509
-0.14804845 -0.052101512 0.509
-0.14672439 -0.052101512 0.509
-0.14540033 -0.052101512 0.509
-0.14435935 -0.052203875 0.51000005
-0.14303268 -0.052203875 0.51000005
-0.141706 -0.052203875 0.51000005
-0.14037934 -0.052203875 0.51000005
-0.13905269 -0.052203875 0.51000005
-0.13772602 -0.052203875 0.51000005
-0.13639936 -0.052203875 0.51000005
-0.13533753 -0.052306235 0.51100004
-0.13400827 -0.052306235 0.51100004
-0.13267902 -0.052306235 0.51100004
-0.13134974 -0.052306235 0.51100004
-0.13002047 -0.052306235 0.51100004
-0.12869121 -0.052306235 0.51100004
-0.12736194 -0.052306235 0.51100004
-0.12603268 -0.052306235 0.51100004
-0.12470341 -0.052306235 0.51100004
-0.12337415 -0.052306235 0.51100004
-0.12204488 -0.052306235 0.51100004
-0.12071562 -0.052306235 0.51100004
-0.11938635 -0.052306235 0.51100004
-0.11805709 -0.052306235 0.51100004
-0.11672782 -0.052306235 0.51100004
-0.11539856 -0.052306235 0.51100004
-0.11429252 -0.052408595 0.51200002
-0.11296065 -0.052408595 0.51200002
-0.11162878 -0.052408595 0.51200002
-0.11029692 -0.052408595 0.51200002
-0.10896505 -0.052408595 0.51200002
-0.10763318 -0.052408595 0.51200002
-0.10630132 -0.052408595 0.51200002
-0.10496945 -0.052408595 0.51200002
-0.10363758 -0.052408595 0.51200002
-0.10230572 -0.052408595 0.51200002
-0.10097385 -0.052408595 0.51200002
-0.099641979 -0.052408595 0.51200002
-0.098310113 -0.052408595 0.51200002
-0.096978247 -0.052408595 0.51200002
-0.095646381 -0.052408595 0.51200002
-0.094314516 -0.052408595 0.51200002
-0.09298265 -0.052408595 0.51200002
-0.091829784 -0.052510954 0.51300001
-0.090495318 -0.052510954 0.51300001
-0.089160852 -0.052510954 0.51300001
-0.087997586 -0.052613314 0.514
-0.086660512 -0.052613314 0.514
-0.085323445 -0.052613314 0.514
-0.083986372 -0.052613314 0.514
-0.082649305 -0.052613314 0.514
-0.081312232 -0.052613314 0.514
-0.079975165 -0.052613314 0.514
-0.078638099 -0.052613314 0.514
-0.077150635 -0.052510954 0.51300001
-0.075816169 -0.052510954 0.51300001
-0.074481703 -0.052510954 0.51300001
-0.073147237 -0.052510954 0.51300001
-0.071812764 -0.052510954 0.51300001
-0.070478298 -0.052510954 0.51300001
-0.069143832 -0.052510954 0.51300001
-0.067809358 -0.052510954 0.51300001
-0.066604473 -0.052613314 0.514
-0.065267399 -0.052613314 0.514
-0.063930333 -0.052613314 0.514
-0.062593266 -0.052613314 0.514
-0.061256196 -0.052613314 0.514
-0.060035706 -0.052715678 0.51500005
-0.058696039 -0.052715678 0.51500005
-0.057356369 -0.052715678 0.51500005
-0.056125466 -0.052818038 0.51600003
-0.054783192 -0.052818038 0.51600003
-0.053440921 -0.052818038 0.51600003
-0.052098647 -0.052818038 0.51600003
-0.050854743 -0.052920397 0.51700002
-0.049509868 -0.052920397 0.51700002
-0.048164994 -0.052920397 0.51700002
-0.046820123 -0.052920397 0.51700002
-0.045387287 -0.052818038 0.51600003
-0.044045016 -0.052818038 0.51600003
-0.042702742 -0.052818038 0.51600003
-0.041360475 -0.052818038 0.51600003
-0.040018201 -0.052818038 0.51600003
-0.03867593 -0.052818038 0.51600003
-0.037406009 -0.052920397 0.51700002
-0.036061134 -0.052920397 0.51700002
-0.03471626 -0.052920397 0.51700002
-0.033371393 -0.052920397 0.51700002
-0.032026518 -0.052920397 0.51700002
-0.030681644 -0.052920397 0.51700002
-0.029280026 -0.052818038 0.51600003
-0.027937753 -0.052818038 0.51600003
-0.026595483 -0.052818038 0.51600003
-0.025302149 -0.052920397 0.51700002
-0.023957277 -0.052920397 0.51700002
-0.022612404 -0.052920397 0.51700002
-0.021267531 -0.052920397 0.51700002
-0.019922657 -0.052920397 0.51700002
-0.018541852 -0.052818038 0.51600003
-0.01719958 -0.052818038 0.51600003
-0.015857307 -0.052818038 0.51600003
-0.014515035 -0.052818038 0.51600003
-0.013172763 -0.052818038 0.51600003
-0.011830492 -0.052818038 0.51600003
-0.01048822 -0.052818038 0.51600003
-0.0091459481 -0.052818038 0.51600003
-0.0078036757 -0.052818038 0.51600003
-0.0064488817 -0.052715678 0.51500005
-0.0051092114 -0.052715678 0.51500005
-0.0037695407 -0.052715678 0.51500005
-0.00242987 -0.052715678 0.51500005
-0.0010901995 -0.052715678 0.51500005
0.00024995554 -0.052818038 0.51600003
0.030338122 -0.051487349 0.50300002
0.031772409 -0.051692069 0.505
0.033086061 -0.051692069 0.505
0.034535959 -0.051896792 0.50700003
0.03585482 -0.051896792 0.50700003
0.037247002 -0.051999152 0.50800002
0.038644385 -0.052101512 0.509
0.040046975 -0.052203875 0.51000005
0.041373637 -0.052203875 0.51000005
0.042700302 -0.052203875 0.51000005
0.044026963 -0.052203875 0.51000005
0.045353629 -0.052203875 0.51000005
0.046680294 -0.052203875 0.51000005
0.048006959 -0.052203875 0.51000005
0.049333621 -0.052203875 0.51000005
0.050660286 -0.052203875 0.51000005
0.051986951 -0.052203875 0.51000005
0.053313613 -0.052203875 0.51000005
0.054640278 -0.052203875 0.51000005
0.055966944 -0.052203875 0.51000005
0.057293609 -0.052203875 0.51000005
0.05862027 -0.052203875 0.51000005
0.059946936 -0.052203875 0.51000005
0.061273601 -0.052203875 0.51000005
0.062600262 -0.052203875 0.51000005
0.063926928 -0.052203875 0.51000005
0.065253593 -0.052203875 0.51000005
0.066580251 -0.052203875 0.51000005
0.067906924 -0.052203875 0.51000005
0.069233581 -0.052203875 0.51000005
0.070560247 -0.052203875 0.51000005
0.071886912 -0.052203875 0.51000005
0.073213577 -0.052203875 0.51000005
0.074540243 -0.052203875 0.51000005
0.0758669 -0.052203875 0.51000005
0.077193573 -0.052203875 0.51000005
0.078520231 -0.052203875 0.51000005
0.079846896 -0.052203875 0.51000005
0.081173562 -0.052203875 0.51000005
0.082500227 -0.052203875 0.51000005
0.083826892 -0.052203875 0.51000005
0.08515355 -0.052203875 0.51000005
0.086480223 -0.052203875 0.51000005
0.08780688 -0.052203875 0.51000005
0.089133546 -0.052203875 0.51000005
0.090460211 -0.052203875 0.51000005
0.091786876 -0.052203875 0.51000005
0.093113542 -0.052203875 0.51000005
0.094440199 -0.052203875 0.51000005
0.095766865 -0.052203875 0.51000005
0.09709353 -0.052203875 0.51000005
0.098420195 -0.052203875 0.51000005
0.099746861 -0.052203875 0.51000005
0.10107353 -0.052203875 0.51000005
0.10240019 -0.052203875 0.51000005
0.10372685 -0.052203875 0.51000005
0.1052595 -0.052306235 0.51100004
0.10658877 -0.052306235 0.51100004
0.10791803 -0.052306235 0.51100004
0.1092473 -0.052306235 0.51100004
0.11057656 -0.052306235 0.51100004
0.11190582 -0.052306235 0.51100004
0.1130135 -0.052203875 0.51000005
0.11434016 -0.052203875 0.51000005
0.11521323 -0.051999152 0.50800002
0.11630529 -0.051896792 0.50700003
0.11739216 -0.051794432 0.50600004
0.1184738 -0.051692069 0.505
0.11931305 -0.051487349 0.50300002
0.12038171 -0.051384989 0.50200003
0.12120274 -0.051180266 0.5
0.1225034 -0.051180266 0.5
0.12355644 -0.051077906 0.49900001
0.12460428 -0.050975546 0.49800003
0.12564692 -0.050873186 0.49700001
0.12668437 -0.050770827 0.49600002
0.1277166 -0.050668467 0.49500003
0.12874362 -0.050566103 0.49400002
0.12950222 -0.050361384 0.49200001
0.12918718 -0.049747221 0.48600003
0.12899587 -0.04780237 0.46700001
0.12909539 -0.047392931 0.46300003
0.13001837 -0.047290567 0.46200001
0.13093615 -0.047188208 0.46100003
0.13184871 -0.047085844 0.46000001
0.13275608 -0.046983488 0.45900002
0.13365826 -0.046881128 0.45800003
0.13455522 -0.046778765 0.45700002
0.13544698 -0.046676405 0.45600003
0.13633353 -0.046574045 0.45500001
0.13721488 -0.046471685 0.45400003
0.13809106 -0.046369322 0.45300001
0.13865457 -0.046164602 0.45100003
0.13920768 -0.045959882 0.44900003
0.140063 -0.045857519 0.44800001
0.14028268 -0.04555044 0.44500002
0.14080457 -0.045345716 0.44300002
0.14099561 -0.045038637 0.44000003
0.14117104 -0.044731554 0.43700001
0.14133087 -0.044424471 0.43400002
0.1414751 -0.044117391 0.43100002
0.14193456 -0.043912672 0.42900002
0.1417167 -0.043503229 0.42500001
0.1418141 -0.043196145 0.42200002
0.14189589 -0.042889066 0.41900003
0.14196208 -0.042581983 0.41600001
0.14235651 -0.042377263 0.41400003
0.14274053 -0.042172544 0.41200003
0.14311415 -0.04196782 0.41000003
0.14347735 -0.041763101 0.40800002
0.14383017 -0.041558377 0.40600002
0.14452943 -0.041456018 0.40500003
0.1452235 -0.041353658 0.40400001
0.14591235 -0.041251298 0.40300003
0.14659601 -0.041148935 0.40200001
0.1469072 -0.040944215 0.40000001
0.14794771 -0.040944215 0.40000001
0.14861578 -0.040841855 0.39900002
0.14965369 -0.040841855 0.39900002
0.15031394 -0.040739495 0.39800003
0.15134926 -0.040739495 0.39800003
0.15200169 -0.040637132 0.39700001
0.20451732 -0.053944003 0.52700001
0.20588821 -0.053944003 0.52700001
0.2072591 -0.053944003 0.52700001
0.21000086 -0.053944003 0.52700001
0.21097067 -0.053841643 0.52600002
0.21233897 -0.053841643 0.52600002
0.21370724 -0.053841643 0.52600002
0.21507552 -0.053841643 0.52600002
0.21644381 -0.053841643 0.52600002
0.217398 -0.053739283 0.52500004
0.21876369 -0.053739283 0.52500004
0.22054867 -0.053841643 0.52600002
0.22191694 -0.053841643 0.52600002
0.22328523 -0.053841643 0.52600002
0.22508062 -0.053944003 0.52700001
0.2264515 -0.053944003 0.52700001
0.22782239 -0.053944003 0.52700001
0.22919327 -0.053944003 0.52700001
0.23100165 -0.054046359 0.528
0.23237514 -0.054046359 0.528
0.23374863 -0.054046359 0.528
0.23556745 -0.054148726 0.52900004
0.23694353 -0.054148726 0.52900004
0.23831962 -0.054148726 0.52900004
0.23969571 -0.054148726 0.52900004
0.24061607 -0.054046359 0.528
0.24198955 -0.054046359 0.528
0.24336304 -0.054046359 0.528
0.24473652 -0.054046359 0.528
0.24611002 -0.054046359 0.528
0.24748351 -0.054046359 0.528
0.24885699 -0.054046359 0.528
0.25023046 -0.054046359 0.528
0.25160396 -0.054046359 0.528
0.25297746 -0.054046359 0.528
0.25483268 -0.054148726 0.52900004
0.25620878 -0.054148726 0.52900004
-0.27956441 -0.050378408 0.505
-0.27825075 -0.050378408 0.505
-0.27693713 -0.050378408 0.505
-0.27616927 -0.050478175 0.50600004
-0.27485299 -0.050478175 0.50600004
-0.27353674 -0.050478175 0.50600004
-0.27275845 -0.050577931 0.50700003
-0.27143961 -0.050577931 0.50700003
-0.27012074 -0.050577931 0.50700003
-0.26880187 -0.050577931 0.50700003
-0.26748303 -0.050577931 0.50700003
-0.26616415 -0.050577931 0.50700003
-0.26484531 -0.050577931 0.50700003
-0.26352644 -0.050577931 0.50700003
-0.26220757 -0.050577931 0.50700003
-0.26088873 -0.050577931 0.50700003
-0.25956985 -0.050577931 0.50700003
-0.25825101 -0.050577931 0.50700003
-0.25693214 -0.050577931 0.50700003
-0.25561327 -0.050577931 0.50700003
-0.25429443 -0.050577931 0.50700003
-0.25297555 -0.050577931 0.50700003
-0.25165671 -0.050577931 0.50700003
-0.25033784 -0.050577931 0.50700003
-0.24901898 -0.050577931 0.50700003
-0.24770011 -0.050577931 0.50700003
-0.24638125 -0.050577931 0.50700003
-0.24554574 -0.050677691 0.50800002
-0.2442243 -0.050677691 0.50800002
-0.24338098 -0.050777446 0.509
-0.24205691 -0.050777446 0.509
-0.24073285 -0.050777446 0.509
-0.23987916 -0.05087721 0.51000005
-0.2385525 -0.05087721 0.51000005
-0.23722583 -0.05087721 0.51000005
-0.23589917 -0.05087721 0.51000005
-0.2345725 -0.05087721 0.51000005
-0.23324583 -0.05087721 0.51000005
-0.23191918 -0.05087721 0.51000005
-0.2305925 -0.05087721 0.51000005
-0.22926584 -0.05087721 0.51000005
-0.22793919 -0.05087721 0.51000005
-0.22661252 -0.05087721 0.51000005
-0.22528586 -0.05087721 0.51000005
-0.22395918 -0.05087721 0.51000005
-0.22263253 -0.05087721 0.51000005
-0.22130586 -0.05087721 0.51000005
-0.2199792 -0.05087721 0.51000005
-0.2182238 -0.050777446 0.509
-0.21689971 -0.050777446 0.509
-0.21557565 -0.050777446 0.509
-0.21425159 -0.050777446 0.509
-0.21292754 -0.050777446 0.509
-0.21160348 -0.050777446 0.509
-0.21027941 -0.050777446 0.509
-0.20895535 -0.050777446 0.509
-0.20763129 -0.050777446 0.509
-0.20630722 -0.050777446 0.509
-0.20458044 -0.050677691 0.50800002
-0.20325898 -0.050677691 0.50800002
-0.20193753 -0.050677691 0.50800002
-0.20061606 -0.050677691 0.50800002
-0.1992946 -0.050677691 0.50800002
-0.19797313 -0.050677691 0.50800002
-0.19665167 -0.050677691 0.50800002
-0.19533022 -0.050677691 0.50800002
-0.19400875 -0.050677691 0.50800002
-0.19230799 -0.050577931 0.50700003
-0.19136582 -0.050677691 0.50800002
-0.19004436 -0.050677691 0.50800002
-0.18872291 -0.050677691 0.50800002
-0.18703255 -0.050577931 0.50700003
-0.18571369 -0.050577931 0.50700003
-0.18439482 -0.050577931 0.50700003
-0.18307596 -0.050577931 0.50700003
-0.18175711 -0.050577931 0.50700003
-0.18079415 -0.050677691 0.50800002
-0.17947267 -0.050677691 0.50800002
-0.17780052 -0.050577931 0.50700003
-0.17648166 -0.050577931 0.50700003
-0.17550829 -0.050677691 0.50800002
-0.17418684 -0.050677691 0.50800002
-0.17286536 -0.050677691 0.50800002
-0.17154391 -0.050677691 0.50800002
-0.17022245 -0.050677691 0.50800002
-0.16890098 -0.050677691 0.50800002
-0.1679094 -0.050777446 0.509
-0.16658533 -0.050777446 0.509
-0.16526127 -0.050777446 0.509
-0.16393721 -0.050777446 0.509
-0.16293265 -0.05087721 0.51000005
-0.16160598 -0.05087721 0.51000005
-0.1602793 -0.05087721 0.51000005
-0.15895264 -0.05087721 0.51000005
-0.15762599 -0.05087721 0.51000005
-0.15599284 -0.050777446 0.509
-0.15466876 -0.050777446 0.509
-0.15334471 -0.050777446 0.509
-0.15202065 -0.050777446 0.509
-0.15069659 -0.050777446 0.509
-0.14937253 -0.050777446 0.509
-0.14804845 -0.050777446 0.509
-0.14672439 -0.050777446 0.509
-0.14540033 -0.050777446 0.509
-0.14435935 -0.05087721 0.51000005
-0.14303268 -0.05087721 0.51000005
-0.141706 -0.05087721 0.51000005
-0.14037934 -0.05087721 0.51000005
-0.13905269 -0.05087721 0.51000005
-0.13772602 -0.05087721 0.51000005
-0.1366668 -0.050976969 0.51100004
-0.13533753 -0.050976969 0.51100004
-0.13400827 -0.050976969 0.51100004
-0.13267902 -0.050976969 0.51100004
-0.13134974 -0.050976969 0.51100004
-0.13002047 -0.050976969 0.51100004
-0.12869121 -0.050976969 0.51100004
-0.12736194 -0.050976969 0.51100004
-0.12603268 -0.050976969 0.51100004
-0.12470341 -0.050976969 0.51100004
-0.12337415 -0.050976969 0.51100004
-0.12204488 -0.050976969 0.51100004
-0.12071562 -0.050976969 0.51100004
-0.11938635 -0.050976969 0.51100004
-0.11828811 -0.051076729 0.51200002
-0.11695625 -0.051076729 0.51200002
-0.11562438 -0.051076729 0.51200002
-0.11429252 -0.051076729 0.51200002
-0.11296065 -0.051076729 0.51200002
-0.11162878 -0.051076729 0.51200002
-0.11029692 -0.051076729 0.51200002
-0.10896505 -0.051076729 0.51200002
-0.10763318 -0.051076729 0.51200002
-0.10630132 -0.051076729 0.51200002
-0.10496945 -0.051076729 0.51200002
-0.10363758 -0.051076729 0.51200002
-0.10230572 -0.051076729 0.51200002
-0.10097385 -0.051076729 0.51200002
-0.099641979 -0.051076729 0.51200002
-0.098310113 -0.051076729 0.51200002
-0.096978247 -0.051076729 0.51200002
-0.095646381 -0.051076729 0.51200002
-0.094314516 -0.051076729 0.51200002
-0.09298265 -0.051076729 0.51200002
-0.091829784 -0.051176485 0.51300001
-0.090495318 -0.051176485 0.51300001
-0.089160852 -0.051176485 0.51300001
-0.087997586 -0.051276244 0.514
-0.086660512 -0.051276244 0.514
-0.085323445 -0.051276244 0.514
-0.083986372 -0.051276244 0.514
-0.082649305 -0.051276244 0.514
-0.081312232 -0.051276244 0.514
-0.079975165 -0.051276244 0.514
-0.078638099 -0.051276244 0.514
-0.077150635 -0.051176485 0.51300001
-0.075816169 -0.051176485 0.51300001
-0.074481703 -0.051176485 0.51300001
-0.073147237 -0.051176485 0.51300001
-0.071812764 -0.051176485 0.51300001
-0.070478298 -0.051176485 0.51300001
-0.069143832 -0.051176485 0.51300001
-0.067941539 -0.051276244 0.514
-0.066604473 -0.051276244 0.514
-0.065267399 -0.051276244 0.514
-0.063930333 -0.051276244 0.514
-0.062593266 -0.051276244 0.514
-0.061256196 -0.051276244 0.514
-0.060035706 -0.051376007 0.51500005
-0.058696039 -0.051376007 0.51500005
-0.057356369 -0.051376007 0.51500005
-0.056016695 -0.051376007 0.51500005
-0.054783192 -0.051475763 0.51600003
-0.053440921 -0.051475763 0.51600003
-0.052098647 -0.051475763 0.51600003
-0.05075638 -0.051475763 0.51600003
-0.049414106 -0.051475763 0.51600003
-0.048071835 -0.051475763 0.51600003
-0.046729561 -0.051475763 0.51600003
-0.045387287 -0.051475763 0.51600003
-0.044045016 -0.051475763 0.51600003
-0.042702742 -0.051475763 0.51600003
-0.041360475 -0.051475763 0.51600003
-0.040018201 -0.051475763 0.51600003
-0.03867593 -0.051475763 0.51600003
-0.037333656 -0.051475763 0.51600003
-0.035991386 -0.051475763 0.51600003
-0.034649111 -0.051475763 0.51600003
-0.033306845 -0.051475763 0.51600003
-0.03196457 -0.051475763 0.51600003
-0.030681644 -0.051575523 0.51700002
-0.029336769 -0.051575523 0.51700002
-0.027991896 -0.051575523 0.51700002
-0.026647024 -0.051575523 0.51700002
-0.025302149 -0.051575523 0.51700002
-0.023957277 -0.051575523 0.51700002
-0.022612404 -0.051575523 0.51700002
-0.021267531 -0.051575523 0.51700002
-0.019922657 -0.051575523 0.51700002
-0.018577784 -0.051575523 0.51700002
-0.017232912 -0.051575523 0.51700002
-0.015888039 -0.051575523 0.51700002
-0.014543165 -0.051575523 0.51700002
-0.013172763 -0.051475763 0.51600003
-0.011830492 -0.051475763 0.51600003
-0.01048822 -0.051475763 0.51600003
-0.0091459481 -0.051475763 0.51600003
-0.0078036757 -0.051475763 0.51600003
-0.0064614038 -0.051475763 0.51600003
-0.0051191323 -0.051475763 0.51600003
-0.0037768602 -0.051475763 0.51600003
-0.002434588 -0.051475763 0.51600003
-0.0010923163 -0.051475763 0.51600003
0.00024995554 -0.051475763 0.51600003
0.031772409 -0.050378408 0.505
0.033151582 -0.050478175 0.50600004
0.034535959 -0.050577931 0.50700003
0.035925537 -0.050677691 0.50800002
0.037247002 -0.050677691 0.50800002
0.038644385 -0.050777446 0.509
0.040046975 -0.05087721 0.51000005
0.041373637 -0.05087721 0.51000005
0.042700302 -0.05087721 0.51000005
0.044026963 -0.05087721 0.51000005
0.045353629 -0.05087721 0.51000005
0.046680294 -0.05087721 0.51000005
0.048006959 -0.05087721 0.51000005
0.049333621 -0.05087721 0.51000005
0.050660286 -0.05087721 0.51000005
0.051986951 -0.05087721 0.51000005
0.053313613 -0.05087721 0.51000005
0.054640278 -0.05087721 0.51000005
0.055966944 -0.05087721 0.51000005
0.057293609 -0.05087721 0.51000005
0.05862027 -0.05087721 0.51000005
0.059946936 -0.05087721 0.51000005
0.061273601 -0.05087721 0.51000005
0.062600262 -0.05087721 0.51000005
0.063926928 -0.05087721 0.51000005
0.065253593 -0.05087721 0.51000005
0.066580251 -0.05087721 0.51000005
0.067906924 -0.05087721 0.51000005
0.069233581 -0.05087721 0.51000005
0.070560247 -0.05087721 0.51000005
0.071886912 -0.05087721 0.51000005
0.073213577 -0.05087721 0.51000005
0.074540243 -0.05087721 0.51000005
0.0758669 -0.05087721 0.51000005
0.077193573 -0.05087721 0.51000005
0.078520231 -0.05087721 0.51000005
0.079846896 -0.05087721 0.51000005
0.081173562 -0.05087721 0.51000005
0.082500227 -0.05087721 0.51000005
0.083826892 -0.05087721 0.51000005
0.08515355 -0.05087721 0.51000005
0.086480223 -0.05087721 0.51000005
0.08780688 -0.05087721 0.51000005
0.089133546 -0.05087721 0.51000005
0.090460211 -0.05087721 0.51000005
0.091606893 -0.050777446 0.509
0.092930958 -0.050777446 0.509
0.094255015 -0.050777446 0.509
0.095579073 -0.050777446 0.509
0.09709353 -0.05087721 0.51000005
0.098227203 -0.050777446 0.509
0.099746861 -0.05087721 0.51000005
0.10107353 -0.05087721 0.51000005
0.10240019 -0.05087721 0.51000005
0.10372685 -0.05087721 0.51000005
0.10505351 -0.05087721 0.51000005
0.10658877 -0.050976969 0.51100004
0.10791803 -0.050976969 0.51100004
0.1092473 -0.050976969 0.51100004
0.11057656 -0.050976969 0.51100004
0.11190582 -0.050976969 0.51100004
0.1130135 -0.05087721 0.51000005
0.11411595 -0.050777446 0.509
0.11521323 -0.050677691 0.50800002
0.11630529 -0.050577931 0.50700003
0.11739216 -0.050478175 0.50600004
0.1184738 -0.050378408 0.505
0.11931305 -0.050178893 0.50300002
0.12038171 -0.050079137 0.50200003
0.12120274 -0.049879614 0.5
0.1225034 -0.049879614 0.5
0.12355644 -0.049779855 0.49900001
0.12460428 -0.049680099 0.49800003
0.12564692 -0.049580336 0.49700001
0.12668437 -0.04948058 0.49600002
0.1277166 -0.04938082 0.49500003
0.12874362 -0.049281061 0.49400002
0.12950222 -0.049081542 0.49200001
0.12945299 -0.048582748 0.48700002
0.12937774 -0.04808395 0.48200002
0.12899587 -0.04658756 0.46700001
0.12909539 -0.046188526 0.46300003
0.13001837 -0.046088766 0.46200001
0.13093615 -0.045989007 0.46100003
0.13184871 -0.045889247 0.46000001
0.13275608 -0.045789488 0.45900002
0.13365826 -0.045689732 0.45800003
0.13455522 -0.045589969 0.45700002
0.13544698 -0.045490213 0.45600003
0.13633353 -0.045390449 0.45500001
0.13721488 -0.045290694 0.45400003
0.13809106 -0.04519093 0.45300001
0.13865457 -0.044991415 0.45100003
0.13951771 -0.044891655 0.45000002
0.140063 -0.044692136 0.44800001
0.14059792 -0.044492617 0.44600001
0.14080457 -0.044193339 0.44300002
0.14131606 -0.04399382 0.44100001
0.14117104 -0.043594785 0.43700001
0.14133087 -0.043295506 0.43400002
0.1414751 -0.042996231 0.43100002
0.14160371 -0.042696953 0.42800003
0.1417167 -0.042397674 0.42500001
0.1418141 -0.042098396 0.42200002
0.14189589 -0.041799121 0.41900003
0.14230333 -0.041599602 0.41700003
0.14235651 -0.041300323 0.41400003
0.14274053 -0.041100804 0.41200003
0.14311415 -0.040901285 0.41000003
0.14347735 -0.040701769 0.40800002
0.14418443 -0.040602006 0.40700001
0.1448863 -0.04050225 0.40600002
0.14558296 -0.040402491 0.40500003
0.14627442 -0.040302731 0.40400001
0.14659601 -0.040103212 0.40200001
0.14727448 -0.040003452 0.40100002
0.14794771 -0.039903693 0.40000001
0.14861578 -0.039803933 0.39900002
0.14965369 -0.039803933 0.39900002
0.15069161 -0.039803933 0.39900002
0.15172954 -0.039803933 0.39900002
0.15238458 -0.039704178 0.39800003
0.20451732 -0.052573115 0.52700001
0.20588821 -0.052573115 0.52700001
0.2072591 -0.052573115 0.52700001
0.20862998 -0.052573115 0.52700001
0.21000086 -0.052573115 0.52700001
0.21137175 -0.052573115 0.52700001
0.21233897 -0.052473355 0.52600002
0.21370724 -0.052473355 0.52600002
0.21507552 -0.052473355 0.52600002
0.21644381 -0.052473355 0.52600002
0.217398 -0.052373599 0.52500004
0.21876369 -0.052373599 0.52500004
0.22012939 -0.052373599 0.52500004
0.22191694 -0.052473355 0.52600002
0.22328523 -0.052473355 0.52600002
0.22508062 -0.052573115 0.52700001
0.2264515 -0.052573115 0.52700001
0.22782239 -0.052573115 0.52700001
0.22919327 -0.052573115 0.52700001
0.23100165 -0.052672874 0.528
0.23237514 -0.052672874 0.528
0.23419136 -0.052772637 0.52900004
0.23556745 -0.052772637 0.52900004
0.23694353 -0.052772637 0.52900004
0.23831962 -0.052772637 0.52900004
0.23969571 -0.052772637 0.52900004
0.24107181 -0.052772637 0.52900004
0.2424479 -0.052772637 0.52900004
0.24336304 -0.052672874 0.528
0.24473652 -0.052672874 0.528
0.24611002 -0.052672874 0.528
0.24748351 -0.052672874 0.528
0.24885699 -0.052672874 0.528
0.25023046 -0.052672874 0.528
0.25208053 -0.052772637 0.52900004
0.25345659 -0.052772637 0.52900004
0.25483268 -0.052772637 0.52900004
0.25620878 -0.052772637 0.52900004
-0.27956441 -0.049064755 0.505
-0.27825075 -0.049064755 0.505
-0.27693713 -0.049064755 0.505
-0.27616927 -0.049161918 0.50600004
-0.27485299 -0.049161918 0.50600004
-0.27353674 -0.049161918 0.50600004
-0.27275845 -0.049259074 0.50700003
-0.27143961 -0.049259074 0.50700003
-0.27012074 -0.049259074 0.50700003
-0.26880187 -0.049259074 0.50700003
-0.26748303 -0.049259074 0.50700003
-0.26616415 -0.049259074 0.50700003
-0.26484531 -0.049259074 0.50700003
-0.26352644 -0.049259074 0.50700003
-0.26220757 -0.049259074 0.50700003
-0.26088873 -0.049259074 0.50700003
-0.25956985 -0.049259074 0.50700003
-0.25825101 -0.049259074 0.50700003
-0.25693214 -0.049259074 0.50700003
-0.25561327 -0.049259074 0.50700003
-0.25429443 -0.049259074 0.50700003
-0.25297555 -0.049259074 0.50700003
-0.25165671 -0.049259074 0.50700003
-0.25033784 -0.049259074 0.50700003
-0.24901898 -0.049259074 0.50700003
-0.24770011 -0.049259074 0.50700003
-0.24686721 -0.04935623 0.50800002
-0.24554574 -0.04935623 0.50800002
-0.2442243 -0.04935623 0.50800002
-0.24338098 -0.049453389 0.509
-0.24205691 -0.049453389 0.509
-0.24073285 -0.049453389 0.509
-0.23987916 -0.049550552 0.51000005
-0.2385525 -0.049550552 0.51000005
-0.23722583 -0.049550552 0.51000005
-0.23589917 -0.049550552 0.51000005
-0.2345725 -0.049550552 0.51000005
-0.23324583 -0.049550552 0.51000005
-0.23191918 -0.049550552 0.51000005
-0.2305925 -0.049550552 0.51000005
-0.22926584 -0.049550552 0.51000005
-0.22793919 -0.049550552 0.51000005
-0.22661252 -0.049550552 0.51000005
-0.22528586 -0.049550552 0.51000005
-0.22395918 -0.049550552 0.51000005
-0.22263253 -0.049550552 0.51000005
-0.22130586 -0.049550552 0.51000005
-0.2199792 -0.049550552 0.51000005
-0.2182238 -0.049453389 0.509
-0.21689971 -0.049453389 0.509
-0.21557565 -0.049453389 0.509
-0.21425159 -0.049453389 0.509
-0.21292754 -0.049453389 0.509
-0.21160348 -0.049453389 0.509
-0.21027941 -0.049453389 0.509
-0.20895535 -0.049453389 0.509
-0.20763129 -0.049453389 0.509
-0.20590191 -0.04935623 0.50800002
-0.20458044 -0.04935623 0.50800002
-0.20325898 -0.04935623 0.50800002
-0.20193753 -0.04935623 0.50800002
-0.20061606 -0.04935623 0.50800002
-0.1992946 -0.04935623 0.50800002
-0.19797313 -0.04935623 0.50800002
-0.19665167 -0.04935623 0.50800002
-0.19533022 -0.04935623 0.50800002
-0.19400875 -0.04935623 0.50800002
-0.19230799 -0.049259074 0.50700003
-0.19098912 -0.049259074 0.50700003
-0.18967026 -0.049259074 0.50700003
-0.18835141 -0.049259074 0.50700003
-0.18740144 -0.04935623 0.50800002
-0.18571369 -0.049259074 0.50700003
-0.18439482 -0.049259074 0.50700003
-0.18307596 -0.049259074 0.50700003
-0.18175711 -0.049259074 0.50700003
-0.18079415 -0.04935623 0.50800002
-0.17947267 -0.04935623 0.50800002
-0.17780052 -0.049259074 0.50700003
-0.17682976 -0.04935623 0.50800002
-0.17550829 -0.04935623 0.50800002
-0.17418684 -0.04935623 0.50800002
-0.17286536 -0.04935623 0.50800002
-0.17154391 -0.04935623 0.50800002
-0.17022245 -0.04935623 0.50800002
-0.16890098 -0.04935623 0.50800002
-0.1679094 -0.049453389 0.509
-0.16658533 -0.049453389 0.509
-0.16526127 -0.049453389 0.509
-0.1642593 -0.049550552 0.51000005
-0.16293265 -0.049550552 0.51000005
-0.16160598 -0.049550552 0.51000005
-0.1602793 -0.049550552 0.51000005
-0.15895264 -0.049550552 0.51000005
-0.15762599 -0.049550552 0.51000005
-0.15629932 -0.049550552 0.51000005
-0.15466876 -0.049453389 0.509
-0.15334471 -0.049453389 0.509
-0.15202065 -0.049453389 0.509
-0.15069659 -0.049453389 0.509
-0.14937253 -0.049453389 0.509
-0.14804845 -0.049453389 0.509
-0.14672439 -0.049453389 0.509
-0.14540033 -0.049453389 0.509
-0.14435935 -0.049550552 0.51000005
-0.14303268 -0.049550552 0.51000005
-0.141706 -0.049550552 0.51000005
-0.14037934 -0.049550552 0.51000005
-0.13905269 -0.049550552 0.51000005
-0.13799608 -0.049647707 0.51100004
-0.1366668 -0.049647707 0.51100004
-0.13533753 -0.049647707 0.51100004
-0.13400827 -0.049647707 0.51100004
-0.13267902 -0.049647707 0.51100004
-0.13134974 -0.049647707 0.51100004
-0.13002047 -0.049647707 0.51100004
-0.12869121 -0.049647707 0.51100004
-0.12736194 -0.049647707 0.51100004
-0.12603268 -0.049647707 0.51100004
-0.12470341 -0.049647707 0.51100004
-0.12337415 -0.049647707 0.51100004
-0.12204488 -0.049647707 0.51100004
-0.12071562 -0.049647707 0.51100004
-0.11938635 -0.049647707 0.51100004
-0.11828811 -0.049744863 0.51200002
-0.11695625 -0.049744863 0.51200002
-0.11562438 -0.049744863 0.51200002
-0.11429252 -0.049744863 0.51200002
-0.11296065 -0.049744863 0.51200002
-0.11162878 -0.049744863 0.51200002
-0.11029692 -0.049744863 0.51200002
-0.10896505 -0.049744863 0.51200002
-0.10763318 -0.049744863 0.51200002
-0.10630132 -0.049744863 0.51200002
-0.10496945 -0.049744863 0.51200002
-0.10363758 -0.049744863 0.51200002
-0.10230572 -0.049744863 0.51200002
-0.10097385 -0.049744863 0.51200002
-0.099641979 -0.049744863 0.51200002
-0.098310113 -0.049744863 0.51200002
-0.096978247 -0.049744863 0.51200002
-0.095646381 -0.049744863 0.51200002
-0.094314516 -0.049744863 0.51200002
-0.09298265 -0.049744863 0.51200002
-0.091650784 -0.049744863 0.51200002
-0.090495318 -0.049842022 0.51300001
-0.089160852 -0.049842022 0.51300001
-0.087997586 -0.049939178 0.514
-0.086660512 -0.049939178 0.514
-0.085323445 -0.049939178 0.514
-0.083986372 -0.049939178 0.514
-0.082649305 -0.049939178 0.514
-0.081312232 -0.049939178 0.514
-0.079975165 -0.049939178 0.514
-0.078638099 -0.049939178 0.514
-0.077301025 -0.049939178 0.514
-0.075963959 -0.049939178 0.514
-0.074626885 -0.049939178 0.514
-0.073147237 -0.049842022 0.51300001
-0.071952745 -0.049939178 0.514
-0.070615679 -0.049939178 0.514
-0.069278613 -0.049939178 0.514
-0.067941539 -0.049939178 0.514
-0.0664749 -0.049842022 0.51300001
-0.065267399 -0.049939178 0.514
-0.063930333 -0.049939178 0.514
-0.062593266 -0.049939178 0.514
-0.061256196 -0.049939178 0.514
-0.060035706 -0.050036341 0.51500005
-0.058696039 -0.050036341 0.51500005
-0.057356369 -0.050036341 0.51500005
-0.056125466 -0.050133497 0.51600003
-0.054783192 -0.050133497 0.51600003
-0.053440921 -0.050133497 0.51600003
-0.052098647 -0.050133497 0.51600003
-0.05075638 -0.050133497 0.51600003
-0.049414106 -0.050133497 0.51600003
-0.048071835 -0.050133497 0.51600003
-0.046729561 -0.050133497 0.51600003
-0.045387287 -0.050133497 0.51600003
-0.044045016 -0.050133497 0.51600003
-0.042702742 -0.050133497 0.51600003
-0.041360475 -0.050133497 0.51600003
-0.040018201 -0.050133497 0.51600003
-0.03867593 -0.050133497 0.51600003
-0.037333656 -0.050133497 0.51600003
-0.035991386 -0.050133497 0.51600003
-0.034649111 -0.050133497 0.51600003
-0.033306845 -0.050133497 0.51600003
-0.032026518 -0.050230652 0.51700002
-0.030681644 -0.050230652 0.51700002
-0.029336769 -0.050230652 0.51700002
-0.027991896 -0.050230652 0.51700002
-0.026647024 -0.050230652 0.51700002
-0.025302149 -0.050230652 0.51700002
-0.024003614 -0.050327811 0.51800001
-0.022656141 -0.050327811 0.51800001
-0.021308666 -0.050327811 0.51800001
-0.019961191 -0.050327811 0.51800001
-0.018577784 -0.050230652 0.51700002
-0.017232912 -0.050230652 0.51700002
-0.015888039 -0.050230652 0.51700002
-0.014543165 -0.050230652 0.51700002
-0.013198292 -0.050230652 0.51700002
-0.011853419 -0.050230652 0.51700002
-0.01048822 -0.050133497 0.51600003
-0.0091459481 -0.050133497 0.51600003
-0.0078036757 -0.050133497 0.51600003
-0.0064614038 -0.050133497 0.51600003
-0.0051191323 -0.050133497 0.51600003
-0.0037768602 -0.050133497 0.51600003
-0.002434588 -0.050133497 0.51600003
0.027666101 -0.048773285 0.50200003
0.029029667 -0.048870441 0.50300002
0.030458748 -0.049064755 0.505
0.031835325 -0.049161918 0.50600004
0.033151582 -0.049161918 0.50600004
0.034535959 -0.049259074 0.50700003
0.035925537 -0.04935623 0.50800002
0.037247002 -0.04935623 0.50800002
0.038644385 -0.049453389 0.509
0.040046975 -0.049550552 0.51000005
0.041373637 -0.049550552 0.51000005
0.042700302 -0.049550552 0.51000005
0.044026963 -0.049550552 0.51000005
0.045353629 -0.049550552 0.51000005
0.046680294 -0.049550552 0.51000005
0.048006959 -0.049550552 0.51000005
0.049333621 -0.049550552 0.51000005
0.050660286 -0.049550552 0.51000005
0.051986951 -0.049550552 0.51000005
0.053313613 -0.049550552 0.51000005
0.054640278 -0.049550552 0.51000005
0.055966944 -0.049550552 0.51000005
0.057293609 -0.049550552 0.51000005
0.05862027 -0.049550552 0.51000005
0.059946936 -0.049550552 0.51000005
0.061273601 -0.049550552 0.51000005
0.062600262 -0.049550552 0.51000005
0.063926928 -0.049550552 0.51000005
0.065253593 -0.049550552 0.51000005
0.066580251 -0.049550552 0.51000005
0.067906924 -0.049550552 0.51000005
0.069233581 -0.049550552 0.51000005
0.070560247 -0.049550552 0.51000005
0.071886912 -0.049550552 0.51000005
0.073213577 -0.049550552 0.51000005
0.074540243 -0.049550552 0.51000005
0.0758669 -0.049550552 0.51000005
0.077193573 -0.049550552 0.51000005
0.078520231 -0.049550552 0.51000005
0.079846896 -0.049550552 0.51000005
0.081173562 -0.049550552 0.51000005
0.082500227 -0.049550552 0.51000005
0.083826892 -0.049550552 0.51000005
0.08515355 -0.049550552 0.51000005
0.086480223 -0.049550552 0.51000005
0.08780688 -0.049550552 0.51000005
0.089133546 -0.049550552 0.51000005
0.090460211 -0.049550552 0.51000005
0.091786876 -0.049550552 0.51000005
0.093113542 -0.049550552 0.51000005
0.094255015 -0.049453389 0.509
0.095579073 -0.049453389 0.509
0.096903145 -0.049453389 0.509
0.098227203 -0.049453389 0.509
0.099746861 -0.049550552 0.51000005
0.10107353 -0.049550552 0.51000005
0.10240019 -0.049550552 0.51000005
0.10372685 -0.049550552 0.51000005
0.10505351 -0.049550552 0.51000005
0.10658877 -0.049647707 0.51100004
0.10791803 -0.049647707 0.51100004
0.1092473 -0.049647707 0.51100004
0.11057656 -0.049647707 0.51100004
0.11168683 -0.049550552 0.51000005
0.1130135 -0.049550552 0.51000005
0.11434016 -0.049550552 0.51000005
0.11521323 -0.04935623 0.50800002
0.11630529 -0.049259074 0.50700003
0.11739216 -0.049161918 0.50600004
0.1184738 -0.049064755 0.505
0.11931305 -0.048870441 0.50300002
0.12014191 -0.048676129 0.50100005
0.12120274 -0.048578966 0.5
0.1225034 -0.048578966 0.5
0.12355644 -0.048481811 0.49900001
0.12460428 -0.048384652 0.49800003
0.12564692 -0.048287492 0.49700001
0.12668437 -0.048190337 0.49600002
0.1277166 -0.048093181 0.49500003
0.12874362 -0.047996022 0.49400002
0.12950222 -0.047801703 0.49200001
0.12945299 -0.047315914 0.48700002
0.12899587 -0.045372754 0.46700001
0.12909539 -0.044984125 0.46300003
0.13001837 -0.044886965 0.46200001
0.13093615 -0.04478981 0.46100003
0.13184871 -0.04469265 0.46000001
0.1330453 -0.04469265 0.46000001
0.13365826 -0.044498336 0.45800003
0.13455522 -0.044401176 0.45700002
0.13544698 -0.044304021 0.45600003
0.13633353 -0.044206861 0.45500001
0.13721488 -0.044109706 0.45400003
0.13809106 -0.044012543 0.45300001
0.13865457 -0.043818232 0.45100003
0.13951771 -0.043721072 0.45000002
0.140063 -0.043526754 0.44800001
0.14059792 -0.043332439 0.44600001
0.14080457 -0.043040965 0.44300002
0.14131606 -0.04284665 0.44100001
0.1414941 -0.042555176 0.43800002
0.14133087 -0.042166546 0.43400002
0.1414751 -0.041875072 0.43100002
0.14160371 -0.041583598 0.42800003
0.1417167 -0.041292123 0.42500001
0.1418141 -0.041000649 0.42200002
0.14189589 -0.040709175 0.41900003
0.14230333 -0.04051486 0.41700003
0.14235651 -0.040223386 0.41400003
0.14274053 -0.040029071 0.41200003
0.14346319 -0.039931912 0.41100001
0.143829 -0.039737597 0.40900001
0.1445387 -0.039640438 0.40800002
0.1448863 -0.039446123 0.40600002
0.14558296 -0.039348967 0.40500003
0.14627442 -0.039251808 0.40400001
0.14696069 -0.039154649 0.40300003
0.14764173 -0.039057489 0.40200001
0.14831759 -0.038960334 0.40100002
0.14936072 -0.038960334 0.40100002
0.15002875 -0.038863175 0.40000001
0.15106928 -0.038863175 0.40000001
0.15172954 -0.038766015 0.39900002
0.15276745 -0.038766015 0.39900002
0.20451732 -0.05120223 0.52700001
0.20588821 -0.05120223 0.52700001
0.2072591 -0.05120223 0.52700001
0.20862998 -0.05120223 0.52700001
0.21000086 -0.05120223 0.52700001
0.21137175 -0.05120223 0.52700001
0.21274264 -0.05120223 0.52700001
0.21411353 -0.05120223 0.52700001
0.21507552 -0.051105075 0.52600002
0.21644381 -0.051105075 0.52600002
0.21781209 -0.051105075 0.52600002
0.21918039 -0.051105075 0.52600002
0.22054867 -0.051105075 0.52600002
0.22191694 -0.051105075 0.52600002
0.22328523 -0.051105075 0.52600002
0.22508062 -0.05120223 0.52700001
0.2264515 -0.05120223 0.52700001
0.22782239 -0.05120223 0.52700001
0.22962816 -0.051299389 0.528
0.23100165 -0.051299389 0.528
0.23281528 -0.051396552 0.52900004
0.23419136 -0.051396552 0.52900004
0.23556745 -0.051396552 0.52900004
0.23694353 -0.051396552 0.52900004
0.23877013 -0.051493708 0.53000003
0.24014883 -0.051493708 0.53000003
0.24107181 -0.051396552 0.52900004
0.2424479 -0.051396552 0.52900004
0.24382398 -0.051396552 0.52900004
0.24520007 -0.051396552 0.52900004
0.24657616 -0.051396552 0.52900004
0.24795225 -0.051396552 0.52900004
0.24932833 -0.051396552 0.52900004
0.25070441 -0.051396552 0.52900004
0.25208053 -0.051396552 0.52900004
0.25393572 -0.051493708 0.53000003
0.25531441 -0.051493708 0.53000003
0.25669309 -0.051493708 0.53000003
-0.27956441 -0.047751099 0.505
-0.27825075 -0.047751099 0.505
-0.27693713 -0.047751099 0.505
-0.27616927 -0.047845658 0.50600004
-0.27485299 -0.047845658 0.50600004
-0.27353674 -0.047845658 0.50600004
-0.27275845 -0.047940213 0.50700003
-0.27143961 -0.047940213 0.50700003
-0.27012074 -0.047940213 0.50700003
-0.26880187 -0.047940213 0.50700003
-0.26748303 -0.047940213 0.50700003
-0.26616415 -0.047940213 0.50700003
-0.26484531 -0.047940213 0.50700003
-0.26352644 -0.047940213 0.50700003
-0.26220757 -0.047940213 0.50700003
-0.26088873 -0.047940213 0.50700003
-0.25956985 -0.047940213 0.50700003
-0.25825101 -0.047940213 0.50700003
-0.25693214 -0.047940213 0.50700003
-0.25561327 -0.047940213 0.50700003
-0.25429443 -0.047940213 0.50700003
-0.25297555 -0.047940213 0.50700003
-0.25165671 -0.047940213 0.50700003
-0.25033784 -0.047940213 0.50700003
-0.24901898 -0.047940213 0.50700003
-0.24770011 -0.047940213 0.50700003
-0.24686721 -0.048034769 0.50800002
-0.24554574 -0.048034769 0.50800002
-0.2442243 -0.048034769 0.50800002
-0.24338098 -0.048129324 0.509
-0.24205691 -0.048129324 0.509
-0.24073285 -0.048129324 0.509
-0.23940879 -0.048129324 0.509
-0.23808473 -0.048129324 0.509
-0.23722583 -0.048223887 0.51000005
-0.23589917 -0.048223887 0.51000005
-0.2345725 -0.048223887 0.51000005
-0.23324583 -0.048223887 0.51000005
-0.23191918 -0.048223887 0.51000005
-0.2305925 -0.048223887 0.51000005
-0.22926584 -0.048223887 0.51000005
-0.22793919 -0.048223887 0.51000005
-0.22661252 -0.048223887 0.51000005
-0.22528586 -0.048223887 0.51000005
-0.22395918 -0.048223887 0.51000005
-0.22219597 -0.048129324 0.509
-0.22087191 -0.048129324 0.509
-0.21954785 -0.048129324 0.509
-0.2182238 -0.048129324 0.509
-0.21689971 -0.048129324 0.509
-0.21557565 -0.048129324 0.509
-0.21425159 -0.048129324 0.509
-0.21292754 -0.048129324 0.509
-0.21160348 -0.048129324 0.509
-0.21027941 -0.048129324 0.509
-0.20895535 -0.048129324 0.509
-0.20722337 -0.048034769 0.50800002
-0.20590191 -0.048034769 0.50800002
-0.20458044 -0.048034769 0.50800002
-0.20325898 -0.048034769 0.50800002
-0.20193753 -0.048034769 0.50800002
-0.20061606 -0.048034769 0.50800002
-0.1992946 -0.048034769 0.50800002
-0.19797313 -0.048034769 0.50800002
-0.19665167 -0.048034769 0.50800002
-0.19533022 -0.048034769 0.50800002
-0.19400875 -0.048034769 0.50800002
-0.1926873 -0.048034769 0.50800002
-0.19136582 -0.048034769 0.50800002
-0.19004436 -0.048034769 0.50800002
-0.18872291 -0.048034769 0.50800002
-0.18740144 -0.048034769 0.50800002
-0.18607999 -0.048034769 0.50800002
-0.18439482 -0.047940213 0.50700003
-0.18307596 -0.047940213 0.50700003
-0.1821156 -0.048034769 0.50800002
-0.18079415 -0.048034769 0.50800002
-0.17947267 -0.048034769 0.50800002
-0.17815121 -0.048034769 0.50800002
-0.17682976 -0.048034769 0.50800002
-0.17550829 -0.048034769 0.50800002
-0.17418684 -0.048034769 0.50800002
-0.17286536 -0.048034769 0.50800002
-0.17154391 -0.048034769 0.50800002
-0.17055753 -0.048129324 0.509
-0.16923347 -0.048129324 0.509
-0.1679094 -0.048129324 0.509
-0.16658533 -0.048129324 0.509
-0.16526127 -0.048129324 0.509
-0.1642593 -0.048223887 0.51000005
-0.16293265 -0.048223887 0.51000005
-0.16160598 -0.048223887 0.51000005
-0.1602793 -0.048223887 0.51000005
-0.15895264 -0.048223887 0.51000005
-0.15762599 -0.048223887 0.51000005
-0.15629932 -0.048223887 0.51000005
-0.15466876 -0.048129324 0.509
-0.15334471 -0.048129324 0.509
