# .PCD v0.7 - Point Cloud Data file format
VERSION 0.7
FIELDS x y z
SIZE 4 4 4
TYPE F F F
COUNT 1 1 1
WIDTH 1461
HEIGHT 1
VIEWPOINT 0 0 0 1 0 0 0
POINTS 1461
DATA ascii
0.13864698 0.10745963 0.53200001
0.14003086 0.10745963 0.53200001
0.14141476 0.10745963 0.53200001
0.14279865 0.10745963 0.53200001
0.14418255 0.10745963 0.53200001
0.14556643 0.10745963 0.53200001
0.14695032 0.10745963 0.53200001
0.14833423 0.10745963 0.53200001
0.14999956 0.10766163 0.53300005
0.15138605 0.10766163 0.53300005
0.15277253 0.10766163 0.53300005
0.15415902 0.10766163 0.53300005
0.15554553 0.10766163 0.53300005
0.15693203 0.10766163 0.53300005
0.15861554 0.10786363 0.53400004
0.16000463 0.10786363 0.53400004
0.16139373 0.10786363 0.53400004
0.16278283 0.10786363 0.53400004
0.16417193 0.10786363 0.53400004
0.16587105 0.10806562 0.53500003
0.16726275 0.10806562 0.53500003
0.16865446 0.10806562 0.53500003
0.17004615 0.10806562 0.53500003
0.17175828 0.10826761 0.53600001
0.17315258 0.10826761 0.53600001
0.17454687 0.10826761 0.53600001
0.17594118 0.10826761 0.53600001
0.17733549 0.10826761 0.53600001
0.17872977 0.10826761 0.53600001
0.18012407 0.10826761 0.53600001
0.18151836 0.10826761 0.53600001
0.18325393 0.1084696 0.537
0.18465082 0.1084696 0.537
0.18604772 0.1084696 0.537
0.18744461 0.1084696 0.537
0.18884151 0.1084696 0.537
0.19023842 0.1084696 0.537
0.19163531 0.1084696 0.537
0.19303221 0.1084696 0.537
0.1944291 0.1084696 0.537
0.19582602 0.1084696 0.537
0.19722292 0.1084696 0.537
0.19861981 0.1084696 0.537
0.20001671 0.1084696 0.537
0.2014136 0.1084696 0.537
0.20281051 0.1084696 0.537
0.20420741 0.1084696 0.537
0.2056043 0.1084696 0.537
0.20700119 0.1084696 0.537
0.20801002 0.10826761 0.53600001
0.20940433 0.10826761 0.53600001
0.21119191 0.1084696 0.537
0.21219292 0.10826761 0.53600001
0.21358722 0.10826761 0.53600001
0.21498151 0.10826761 0.53600001
0.21637583 0.10826761 0.53600001
0.21777011 0.10826761 0.53600001
0.21875553 0.10806562 0.53500003
0.22014722 0.10806562 0.53500003
0.22153892 0.10806562 0.53500003
0.22293063 0.10806562 0.53500003
0.22432232 0.10806562 0.53500003
0.22571401 0.10806562 0.53500003
0.22710571 0.10806562 0.53500003
0.22849742 0.10806562 0.53500003
0.22988911 0.10806562 0.53500003
0.2317131 0.10826761 0.53600001
0.23310739 0.10826761 0.53600001
0.23450169 0.10826761 0.53600001
0.2363361 0.1084696 0.537
0.23773299 0.1084696 0.537
0.23912989 0.1084696 0.537
0.24052678 0.1084696 0.537
0.24237421 0.1086716 0.53800005
0.24377371 0.1086716 0.53800005
0.24517322 0.1086716 0.53800005
0.24657272 0.1086716 0.53800005
0.24797221 0.1086716 0.53800005
0.24937171 0.1086716 0.53800005
0.25077122 0.1086716 0.53800005
0.25217071 0.1086716 0.53800005
0.25357023 0.1086716 0.53800005
0.25496972 0.1086716 0.53800005
0.25636923 0.1086716 0.53800005
0.25776872 0.1086716 0.53800005
0.25916821 0.1086716 0.53800005
0.26056772 0.1086716 0.53800005
-0.2826587 0.10495626 0.51300001
-0.28132424 0.10495626 0.51300001
-0.27998978 0.10495626 0.51300001
-0.27865529 0.10495626 0.51300001
-0.27732083 0.10495626 0.51300001
-0.27598634 0.10495626 0.51300001
-0.27465191 0.10495626 0.51300001
-0.27331743 0.10495626 0.51300001
-0.27198294 0.10495626 0.51300001
-0.27064851 0.10495626 0.51300001
-0.26931402 0.10495626 0.51300001
-0.26745719 0.10475167 0.51200002
-0.26612532 0.10475167 0.51200002
-0.26479343 0.10475167 0.51200002
-0.26346159 0.10475167 0.51200002
-0.26212972 0.10475167 0.51200002
-0.26079786 0.10475167 0.51200002
-0.25946599 0.10475167 0.51200002
-0.2581341 0.10475167 0.51200002
-0.25680226 0.10475167 0.51200002
-0.25547037 0.10475167 0.51200002
-0.25413853 0.10475167 0.51200002
-0.2523129 0.10454708 0.51100004
-0.25098363 0.10454708 0.51100004
-0.24965435 0.10454708 0.51100004
-0.24783914 0.10434249 0.51000005
-0.24651249 0.10434249 0.51000005
-0.24518582 0.10434249 0.51000005
-0.24385916 0.10434249 0.51000005
-0.24205691 0.10413788 0.509
-0.24073285 0.10413788 0.509
-0.23940879 0.10413788 0.509
-0.23808473 0.10413788 0.509
-0.23676065 0.10413788 0.509
-0.23543659 0.10413788 0.509
-0.23411253 0.10413788 0.509
-0.23278847 0.10413788 0.509
-0.23191918 0.10434249 0.51000005
-0.2305925 0.10434249 0.51000005
-0.22926584 0.10434249 0.51000005
-0.22838612 0.10454708 0.51100004
-0.22705685 0.10454708 0.51100004
-0.22616932 0.10475167 0.51200002
-0.22483744 0.10475167 0.51200002
-0.22350559 0.10475167 0.51200002
-0.22217372 0.10475167 0.51200002
-0.22084185 0.10475167 0.51200002
-0.21950999 0.10475167 0.51200002
-0.21860424 0.10495626 0.51300001
-0.21726976 0.10495626 0.51300001
-0.2159353 0.10495626 0.51300001
-0.21460085 0.10495626 0.51300001
-0.21326637 0.10495626 0.51300001
-0.21234502 0.10516085 0.514
-0.21100795 0.10516085 0.514
-0.20967089 0.10516085 0.514
-0.20833382 0.10516085 0.514
-0.20699674 0.10516085 0.514
-0.20565967 0.10516085 0.514
-0.20432261 0.10516085 0.514
-0.20338047 0.10536546 0.51500005
-0.20204081 0.10536546 0.51500005
-0.20070112 0.10536546 0.51500005
-0.19897433 0.10516085 0.514
-0.19763726 0.10516085 0.514
-0.19630019 0.10516085 0.514
-0.19534245 0.10536546 0.51500005
-0.19362605 0.10516085 0.514
-0.19228898 0.10516085 0.514
-0.19095191 0.10516085 0.514
-0.18961485 0.10516085 0.514
-0.18827778 0.10516085 0.514
-0.1869407 0.10516085 0.514
-0.18560363 0.10516085 0.514
-0.18426657 0.10516085 0.514
-0.18257362 0.10495626 0.51300001
-0.18123913 0.10495626 0.51300001
-0.17990467 0.10495626 0.51300001
-0.1785702 0.10495626 0.51300001
-0.17723574 0.10495626 0.51300001
-0.17590128 0.10495626 0.51300001
-0.17456679 0.10495626 0.51300001
-0.17323233 0.10495626 0.51300001
-0.17223294 0.10516085 0.514
-0.17089587 0.10516085 0.514
-0.16988871 0.10536546 0.51500005
-0.16854902 0.10536546 0.51500005
-0.16720936 0.10536546 0.51500005
-0.16586968 0.10536546 0.51500005
-0.16453002 0.10536546 0.51500005
-0.16319035 0.10536546 0.51500005
-0.16185068 0.10536546 0.51500005
-0.160511 0.10536546 0.51500005
-0.15917134 0.10536546 0.51500005
-0.15783167 0.10536546 0.51500005
-0.15649198 0.10536546 0.51500005
-0.15515232 0.10536546 0.51500005
-0.15381265 0.10536546 0.51500005
-0.15276904 0.10557004 0.51600003
-0.15142678 0.10557004 0.51600003
-0.1500845 0.10557004 0.51600003
-0.14874223 0.10557004 0.51600003
-0.14739995 0.10557004 0.51600003
-0.14634074 0.10577463 0.51700002
-0.14499587 0.10577463 0.51700002
-0.14365098 0.10577463 0.51700002
-0.14230612 0.10577463 0.51700002
-0.14096124 0.10577463 0.51700002
-0.13988642 0.10597923 0.51800001
-0.13853896 0.10597923 0.51800001
-0.13719146 0.10597923 0.51800001
-0.13584399 0.10597923 0.51800001
-0.13449652 0.10597923 0.51800001
-0.13314904 0.10597923 0.51800001
-0.13180156 0.10597923 0.51800001
-0.13045409 0.10597923 0.51800001
-0.12910663 0.10597923 0.51800001
-0.12775914 0.10597923 0.51800001
-0.12641168 0.10597923 0.51800001
-0.12506419 0.10597923 0.51800001
-0.12371672 0.10597923 0.51800001
-0.12236925 0.10597923 0.51800001
-0.12102178 0.10597923 0.51800001
-0.1196743 0.10597923 0.51800001
-0.1180984 0.10577463 0.51700002
-0.11675353 0.10577463 0.51700002
-0.11540865 0.10577463 0.51700002
-0.11406378 0.10577463 0.51700002
-0.1127189 0.10577463 0.51700002
-0.11137404 0.10577463 0.51700002
-0.11002916 0.10577463 0.51700002
-0.1088945 0.10597923 0.51800001
-0.10754703 0.10597923 0.51800001
-0.10619956 0.10597923 0.51800001
-0.10485209 0.10597923 0.51800001
-0.10370443 0.10618383 0.51900005
-0.10235436 0.10618383 0.51900005
-0.10100428 0.10618383 0.51900005
-0.099654205 0.10618383 0.51900005
-0.098304123 0.10618383 0.51900005
-0.096954055 0.10618383 0.51900005
-0.09560398 0.10618383 0.51900005
-0.094253898 0.10618383 0.51900005
-0.09290383 0.10618383 0.51900005
-0.091553748 0.10618383 0.51900005
-0.090203673 0.10618383 0.51900005
-0.088853605 0.10618383 0.51900005
-0.087503523 0.10618383 0.51900005
-0.085987441 0.10597923 0.51800001
-0.084639966 0.10597923 0.51800001
-0.083292492 0.10597923 0.51800001
-0.08194501 0.10597923 0.51800001
-0.080597542 0.10597923 0.51800001
-0.079403073 0.10618383 0.51900005
-0.07805299 0.10618383 0.51900005
-0.076702915 0.10618383 0.51900005
-0.07535284 0.10618383 0.51900005
-0.074002765 0.10618383 0.51900005
-0.072652683 0.10618383 0.51900005
-0.071439996 0.10638842 0.52000004
-0.070087321 0.10638842 0.52000004
-0.068734638 0.10638842 0.52000004
-0.067381963 0.10638842 0.52000004
-0.066156261 0.10659301 0.52100003
-0.064800985 0.10659301 0.52100003
-0.06344571 0.10659301 0.52100003
-0.062090427 0.10659301 0.52100003
-0.060735147 0.10659301 0.52100003
-0.059379872 0.10659301 0.52100003
-0.058024596 0.10659301 0.52100003
-0.056669317 0.10659301 0.52100003
-0.055314038 0.10659301 0.52100003
-0.053958759 0.10659301 0.52100003
-0.052603479 0.10659301 0.52100003
-0.051248204 0.10659301 0.52100003
-0.049892925 0.10659301 0.52100003
-0.048537645 0.10659301 0.52100003
-0.047182366 0.10659301 0.52100003
-0.045827087 0.10659301 0.52100003
-0.044471808 0.10659301 0.52100003
-0.043199286 0.1067976 0.52200001
-0.04184141 0.1067976 0.52200001
-0.040483531 0.1067976 0.52200001
-0.039125647 0.1067976 0.52200001
-0.037767768 0.1067976 0.52200001
-0.036409888 0.1067976 0.52200001
-0.035119157 0.10700219 0.523
-0.033758678 0.10700219 0.523
-0.032398198 0.10700219 0.523
-0.031037716 0.10700219 0.523
-0.029677235 0.10700219 0.523
-0.028316753 0.10700219 0.523
-0.026956273 0.10700219 0.523
-0.025595792 0.10700219 0.523
-0.02423531 0.10700219 0.523
-0.022831094 0.1067976 0.52200001
-0.021473212 0.1067976 0.52200001
-0.020115333 0.1067976 0.52200001
-0.018757453 0.1067976 0.52200001
-0.017399574 0.1067976 0.52200001
-0.016041694 0.1067976 0.52200001
-0.014711943 0.10700219 0.523
-0.013351463 0.10700219 0.523
-0.011990982 0.10700219 0.523
-0.010630501 0.10700219 0.523
-0.0092700198 0.10700219 0.523
-0.0079246629 0.10720679 0.52400005
-0.0065615806 0.10720679 0.52400005
-0.0051984987 0.10720679 0.52400005
-0.0038354162 0.10720679 0.52400005
-0.0024723338 0.10720679 0.52400005
-0.0011092515 0.10720679 0.52400005
0.00025383083 0.10720679 0.52400005
0.0016138274 0.10700219 0.523
0.0029743081 0.10700219 0.523
0.0043347892 0.10700219 0.523
0.0056952699 0.10700219 0.523
0.007055751 0.10700219 0.523
0.0084001403 0.1067976 0.52200001
0.0097580198 0.1067976 0.52200001
0.011115899 0.1067976 0.52200001
0.012497675 0.10700219 0.523
0.013858155 0.10700219 0.523
0.015218637 0.10700219 0.523
0.016579118 0.10700219 0.523
0.017973902 0.10720679 0.52400005
0.019336984 0.10720679 0.52400005
0.020700065 0.10720679 0.52400005
0.022063149 0.10720679 0.52400005
0.023470936 0.10741138 0.52500004
0.02483662 0.10741138 0.52500004
0.026202304 0.10741138 0.52500004
0.027567986 0.10741138 0.52500004
0.02893367 0.10741138 0.52500004
0.030299356 0.10741138 0.52500004
0.031665038 0.10741138 0.52500004
0.033030722 0.10741138 0.52500004
0.034396403 0.10741138 0.52500004
0.03576209 0.10741138 0.52500004
0.037127774 0.10741138 0.52500004
0.038566776 0.10761597 0.52600002
0.039935064 0.10761597 0.52600002
0.041303348 0.10761597 0.52600002
0.042671628 0.10761597 0.52600002
0.044039916 0.10761597 0.52600002
0.0454082 0.10761597 0.52600002
0.046776485 0.10761597 0.52600002
0.048144773 0.10761597 0.52600002
0.049513057 0.10761597 0.52600002
0.050881337 0.10761597 0.52600002
0.052249625 0.10761597 0.52600002
0.05361791 0.10761597 0.52600002
0.054986194 0.10761597 0.52600002
0.056354482 0.10761597 0.52600002
0.057832506 0.10782056 0.52700001
0.05920339 0.10782056 0.52700001
0.060574275 0.10782056 0.52700001
0.061945159 0.10782056 0.52700001
0.063316047 0.10782056 0.52700001
0.064686932 0.10782056 0.52700001
0.066057816 0.10782056 0.52700001
0.067428708 0.10782056 0.52700001
0.068799593 0.10782056 0.52700001
0.070170484 0.10782056 0.52700001
0.071541362 0.10782056 0.52700001
0.072912246 0.10782056 0.52700001
0.074283138 0.10782056 0.52700001
0.075654022 0.10782056 0.52700001
0.077024914 0.10782056 0.52700001
0.078395791 0.10782056 0.52700001
0.079766683 0.10782056 0.52700001
0.081137568 0.10782056 0.52700001
0.082508452 0.10782056 0.52700001
0.084038503 0.10802515 0.528
0.085411988 0.10802515 0.528
0.08678548 0.10802515 0.528
0.088158965 0.10802515 0.528
0.089532457 0.10802515 0.528
0.090905942 0.10802515 0.528
0.092279427 0.10802515 0.528
0.093652919 0.10802515 0.528
0.09520638 0.10822976 0.52900004
0.096582472 0.10822976 0.52900004
0.097958565 0.10822976 0.52900004
0.09933465 0.10822976 0.52900004
0.10071074 0.10822976 0.52900004
0.1022798 0.10843434 0.53000003
0.1036585 0.10843434 0.53000003
0.10503718 0.10843434 0.53000003
0.10641588 0.10843434 0.53000003
0.10779457 0.10843434 0.53000003
0.10937924 0.10863893 0.53100002
0.11076053 0.10863893 0.53100002
0.11235301 0.10884353 0.53200001
0.11373691 0.10884353 0.53200001
0.1151208 0.10884353 0.53200001
0.11650468 0.10884353 0.53200001
0.11788858 0.10884353 0.53200001
0.11927247 0.10884353 0.53200001
0.12065637 0.10884353 0.53200001
0.12204026 0.10884353 0.53200001
0.12342416 0.10884353 0.53200001
0.12480804 0.10884353 0.53200001
0.12619193 0.10884353 0.53200001
0.12757583 0.10884353 0.53200001
0.12895972 0.10884353 0.53200001
0.13034362 0.10884353 0.53200001
0.1317275 0.10884353 0.53200001
0.1331114 0.10884353 0.53200001
0.13449529 0.10884353 0.53200001
0.13587919 0.10884353 0.53200001
0.13726307 0.10884353 0.53200001
0.13864698 0.10884353 0.53200001
0.14003086 0.10884353 0.53200001
0.14141476 0.10884353 0.53200001
0.14279865 0.10884353 0.53200001
0.14418255 0.10884353 0.53200001
0.14556643 0.10884353 0.53200001
0.14695032 0.10884353 0.53200001
0.14833423 0.10884353 0.53200001
0.14999956 0.10904813 0.53300005
0.15138605 0.10904813 0.53300005
0.15277253 0.10904813 0.53300005
0.15415902 0.10904813 0.53300005
0.15554553 0.10904813 0.53300005
0.15722646 0.10925272 0.53400004
0.15861554 0.10925272 0.53400004
0.16000463 0.10925272 0.53400004
0.16139373 0.10925272 0.53400004
0.16308767 0.10945731 0.53500003
0.16447936 0.10945731 0.53500003
0.16587105 0.10945731 0.53500003
0.16757539 0.1096619 0.53600001
0.16896969 0.1096619 0.53600001
0.17036399 0.1096619 0.53600001
0.17175828 0.1096619 0.53600001
0.17315258 0.1096619 0.53600001
0.17454687 0.1096619 0.53600001
0.17594118 0.1096619 0.53600001
0.17766632 0.10986649 0.537
0.17906322 0.10986649 0.537
0.18046011 0.10986649 0.537
0.18185702 0.10986649 0.537
0.18325393 0.10986649 0.537
0.18465082 0.10986649 0.537
0.18604772 0.10986649 0.537
0.18744461 0.10986649 0.537
0.18884151 0.10986649 0.537
0.19023842 0.10986649 0.537
0.19163531 0.10986649 0.537
0.19303221 0.10986649 0.537
0.1944291 0.10986649 0.537
0.19582602 0.10986649 0.537
0.19722292 0.10986649 0.537
0.19861981 0.10986649 0.537
0.20001671 0.10986649 0.537
0.2014136 0.10986649 0.537
0.20281051 0.10986649 0.537
0.20420741 0.10986649 0.537
0.20522143 0.1096619 0.53600001
0.20661573 0.1096619 0.53600001
0.20801002 0.1096619 0.53600001
0.20940433 0.1096619 0.53600001
0.21079862 0.1096619 0.53600001
0.21219292 0.1096619 0.53600001
0.21358722 0.1096619 0.53600001
0.21498151 0.1096619 0.53600001
0.21597214 0.10945731 0.53500003
0.21736383 0.10945731 0.53500003
0.21875553 0.10945731 0.53500003
0.22014722 0.10945731 0.53500003
0.22153892 0.10945731 0.53500003
0.22293063 0.10945731 0.53500003
0.22432232 0.10945731 0.53500003
0.22571401 0.10945731 0.53500003
0.22710571 0.10945731 0.53500003
0.22849742 0.10945731 0.53500003
0.22988911 0.10945731 0.53500003
0.2317131 0.1096619 0.53600001
0.23310739 0.1096619 0.53600001
0.23450169 0.1096619 0.53600001
0.2363361 0.10986649 0.537
0.23773299 0.10986649 0.537
0.23912989 0.10986649 0.537
0.24097471 0.11007109 0.53800005
0.24237421 0.11007109 0.53800005
0.24377371 0.11007109 0.53800005
0.24517322 0.11007109 0.53800005
0.24657272 0.11007109 0.53800005
0.24797221 0.11007109 0.53800005
0.24937171 0.11007109 0.53800005
0.25077122 0.11007109 0.53800005
0.25217071 0.11007109 0.53800005
0.25357023 0.11007109 0.53800005
0.25496972 0.11007109 0.53800005
0.25636923 0.11007109 0.53800005
0.25776872 0.11007109 0.53800005
0.25916821 0.11007109 0.53800005
0.26056772 0.11007109 0.53800005
-0.2826587 0.10629073 0.51300001
-0.28132424 0.10629073 0.51300001
-0.27998978 0.10629073 0.51300001
-0.27865529 0.10629073 0.51300001
-0.27732083 0.10629073 0.51300001
-0.27598634 0.10629073 0.51300001
-0.27465191 0.10629073 0.51300001
-0.27331743 0.10629073 0.51300001
-0.27198294 0.10629073 0.51300001
-0.27064851 0.10629073 0.51300001
-0.26931402 0.10629073 0.51300001
-0.26745719 0.10608354 0.51200002
-0.26612532 0.10608354 0.51200002
-0.26479343 0.10608354 0.51200002
-0.26346159 0.10608354 0.51200002
-0.26212972 0.10608354 0.51200002
-0.26079786 0.10608354 0.51200002
-0.25946599 0.10608354 0.51200002
-0.2581341 0.10608354 0.51200002
-0.25680226 0.10608354 0.51200002
-0.25547037 0.10608354 0.51200002
-0.25413853 0.10608354 0.51200002
-0.2523129 0.10587635 0.51100004
-0.25098363 0.10587635 0.51100004
-0.24965435 0.10587635 0.51100004
-0.24832509 0.10587635 0.51100004
-0.24651249 0.10566916 0.51000005
-0.24518582 0.10566916 0.51000005
-0.24385916 0.10566916 0.51000005
-0.24253248 0.10566916 0.51000005
-0.24073285 0.10546196 0.509
-0.23940879 0.10546196 0.509
-0.23808473 0.10546196 0.509
-0.23629551 0.10525476 0.50800002
-0.23543659 0.10546196 0.509
-0.23411253 0.10546196 0.509
-0.23278847 0.10546196 0.509
-0.23191918 0.10566916 0.51000005
-0.2305925 0.10566916 0.51000005
-0.22926584 0.10566916 0.51000005
-0.22838612 0.10587635 0.51100004
-0.22705685 0.10587635 0.51100004
-0.22616932 0.10608354 0.51200002
-0.22483744 0.10608354 0.51200002
-0.22350559 0.10608354 0.51200002
-0.22217372 0.10608354 0.51200002
-0.22127318 0.10629073 0.51300001
-0.21993871 0.10629073 0.51300001
-0.21860424 0.10629073 0.51300001
-0.21726976 0.10629073 0.51300001
-0.2159353 0.10629073 0.51300001
-0.21460085 0.10629073 0.51300001
-0.2136821 0.10649792 0.514
-0.21234502 0.10649792 0.514
-0.21100795 0.10649792 0.514
-0.20967089 0.10649792 0.514
-0.20833382 0.10649792 0.514
-0.20699674 0.10649792 0.514
-0.2060598 0.10670513 0.51500005
-0.20472014 0.10670513 0.51500005
-0.20338047 0.10670513 0.51500005
-0.20204081 0.10670513 0.51500005
-0.20070112 0.10670513 0.51500005
-0.19936144 0.10670513 0.51500005
-0.19802178 0.10670513 0.51500005
-0.19668211 0.10670513 0.51500005
-0.19534245 0.10670513 0.51500005
-0.19400276 0.10670513 0.51500005
-0.1926631 0.10670513 0.51500005
-0.19095191 0.10649792 0.514
-0.18961485 0.10649792 0.514
-0.18827778 0.10649792 0.514
-0.1869407 0.10649792 0.514
-0.18560363 0.10649792 0.514
-0.18426657 0.10649792 0.514
-0.1829295 0.10649792 0.514
-0.18123913 0.10629073 0.51300001
-0.17990467 0.10629073 0.51300001
-0.1785702 0.10629073 0.51300001
-0.17723574 0.10629073 0.51300001
-0.17590128 0.10629073 0.51300001
-0.17456679 0.10629073 0.51300001
-0.17323233 0.10629073 0.51300001
-0.17223294 0.10649792 0.514
-0.17089587 0.10649792 0.514
-0.16955881 0.10649792 0.514
-0.16854902 0.10670513 0.51500005
-0.16720936 0.10670513 0.51500005
-0.16586968 0.10670513 0.51500005
-0.16453002 0.10670513 0.51500005
-0.16319035 0.10670513 0.51500005
-0.16185068 0.10670513 0.51500005
-0.160511 0.10670513 0.51500005
-0.15917134 0.10670513 0.51500005
-0.15783167 0.10670513 0.51500005
-0.15649198 0.10670513 0.51500005
-0.15515232 0.10670513 0.51500005
-0.15381265 0.10670513 0.51500005
-0.15276904 0.10691231 0.51600003
-0.15142678 0.10691231 0.51600003
-0.1500845 0.10691231 0.51600003
-0.14874223 0.10691231 0.51600003
-0.14739995 0.10691231 0.51600003
-0.14605768 0.10691231 0.51600003
-0.14499587 0.10711951 0.51700002
-0.14365098 0.10711951 0.51700002
-0.14230612 0.10711951 0.51700002
-0.14096124 0.10711951 0.51700002
-0.13961637 0.10711951 0.51700002
-0.13853896 0.1073267 0.51800001
-0.13719146 0.1073267 0.51800001
-0.13584399 0.1073267 0.51800001
-0.13449652 0.1073267 0.51800001
-0.13314904 0.1073267 0.51800001
-0.13180156 0.1073267 0.51800001
-0.13045409 0.1073267 0.51800001
-0.12910663 0.1073267 0.51800001
-0.12775914 0.1073267 0.51800001
-0.12641168 0.1073267 0.51800001
-0.12506419 0.1073267 0.51800001
-0.12371672 0.1073267 0.51800001
-0.12236925 0.1073267 0.51800001
-0.12102178 0.1073267 0.51800001
-0.11944327 0.10711951 0.51700002
-0.1180984 0.10711951 0.51700002
-0.11675353 0.10711951 0.51700002
-0.11540865 0.10711951 0.51700002
-0.11406378 0.10711951 0.51700002
-0.1127189 0.10711951 0.51700002
-0.11137404 0.10711951 0.51700002
-0.11024198 0.1073267 0.51800001
-0.1088945 0.1073267 0.51800001
-0.10754703 0.1073267 0.51800001
-0.10619956 0.1073267 0.51800001
-0.10505451 0.10753391 0.51900005
-0.10370443 0.10753391 0.51900005
-0.10235436 0.10753391 0.51900005
-0.10100428 0.10753391 0.51900005
-0.099654205 0.10753391 0.51900005
-0.098304123 0.10753391 0.51900005
-0.096954055 0.10753391 0.51900005
-0.09560398 0.10753391 0.51900005
-0.094253898 0.10753391 0.51900005
-0.09290383 0.10753391 0.51900005
-0.091553748 0.10753391 0.51900005
-0.090203673 0.10753391 0.51900005
-0.088853605 0.10753391 0.51900005
-0.087334916 0.1073267 0.51800001
-0.085987441 0.1073267 0.51800001
-0.084639966 0.1073267 0.51800001
-0.083292492 0.1073267 0.51800001
-0.08194501 0.1073267 0.51800001
-0.08075314 0.10753391 0.51900005
-0.079403073 0.10753391 0.51900005
-0.07805299 0.10753391 0.51900005
-0.076702915 0.10753391 0.51900005
-0.07535284 0.10753391 0.51900005
-0.074145347 0.1077411 0.52000004
-0.072792672 0.1077411 0.52000004
-0.071439996 0.1077411 0.52000004
-0.070087321 0.1077411 0.52000004
-0.068866819 0.10794829 0.52100003
-0.067511544 0.10794829 0.52100003
-0.066156261 0.10794829 0.52100003
-0.064800985 0.10794829 0.52100003
-0.06344571 0.10794829 0.52100003
-0.062090427 0.10794829 0.52100003
-0.060735147 0.10794829 0.52100003
-0.059379872 0.10794829 0.52100003
-0.058024596 0.10794829 0.52100003
-0.056669317 0.10794829 0.52100003
-0.055314038 0.10794829 0.52100003
-0.053958759 0.10794829 0.52100003
-0.052603479 0.10794829 0.52100003
-0.051248204 0.10794829 0.52100003
-0.049892925 0.10794829 0.52100003
-0.048537645 0.10794829 0.52100003
-0.047182366 0.10794829 0.52100003
-0.045827087 0.10794829 0.52100003
-0.044471808 0.10794829 0.52100003
-0.043199286 0.10815548 0.52200001
-0.04184141 0.10815548 0.52200001
-0.040483531 0.10815548 0.52200001
-0.039125647 0.10815548 0.52200001
-0.037767768 0.10815548 0.52200001
-0.036409888 0.10815548 0.52200001
-0.035052009 0.10815548 0.52200001
-0.033694129 0.10815548 0.52200001
-0.03233625 0.10815548 0.52200001
-0.031037716 0.10836267 0.523
-0.029677235 0.10836267 0.523
-0.028316753 0.10836267 0.523
-0.026956273 0.10836267 0.523
-0.025595792 0.10836267 0.523
-0.02423531 0.10836267 0.523
-0.022831094 0.10815548 0.52200001
-0.021473212 0.10815548 0.52200001
-0.020115333 0.10815548 0.52200001
-0.018757453 0.10815548 0.52200001
-0.017399574 0.10815548 0.52200001
-0.016072426 0.10836267 0.523
-0.014711943 0.10836267 0.523
-0.013351463 0.10836267 0.523
-0.011990982 0.10836267 0.523
-0.010630501 0.10836267 0.523
-0.0092700198 0.10836267 0.523
-0.0079246629 0.10856988 0.52400005
-0.0065615806 0.10856988 0.52400005
-0.0051984987 0.10856988 0.52400005
-0.0038354162 0.10856988 0.52400005
-0.0024723338 0.10856988 0.52400005
-0.0011092515 0.10856988 0.52400005
0.00025383083 0.10856988 0.52400005
0.0016138274 0.10836267 0.523
0.0029743081 0.10836267 0.523
0.0043347892 0.10836267 0.523
0.0056952699 0.10836267 0.523
0.0070422604 0.10815548 0.52200001
0.0084001403 0.10815548 0.52200001
0.0097580198 0.10815548 0.52200001
0.011137193 0.10836267 0.523
0.012497675 0.10836267 0.523
0.013858155 0.10836267 0.523
0.015218637 0.10836267 0.523
0.016579118 0.10836267 0.523
0.017939599 0.10836267 0.523
0.019336984 0.10856988 0.52400005
0.020700065 0.10856988 0.52400005
0.022063149 0.10856988 0.52400005
0.023426231 0.10856988 0.52400005
0.02483662 0.10877707 0.52500004
0.026202304 0.10877707 0.52500004
0.027567986 0.10877707 0.52500004
0.02893367 0.10877707 0.52500004
0.030299356 0.10877707 0.52500004
0.031665038 0.10877707 0.52500004
0.033030722 0.10877707 0.52500004
0.034396403 0.10877707 0.52500004
0.03576209 0.10877707 0.52500004
0.037127774 0.10877707 0.52500004
0.038566776 0.10898426 0.52600002
0.039935064 0.10898426 0.52600002
0.041303348 0.10898426 0.52600002
0.042671628 0.10898426 0.52600002
0.044039916 0.10898426 0.52600002
0.0454082 0.10898426 0.52600002
0.046865415 0.10919145 0.52700001
0.048144773 0.10898426 0.52600002
0.049513057 0.10898426 0.52600002
0.050881337 0.10898426 0.52600002
0.052249625 0.10898426 0.52600002
0.05361791 0.10898426 0.52600002
0.054986194 0.10898426 0.52600002
0.056354482 0.10898426 0.52600002
0.057832506 0.10919145 0.52700001
0.05920339 0.10919145 0.52700001
0.060574275 0.10919145 0.52700001
0.061945159 0.10919145 0.52700001
0.063316047 0.10919145 0.52700001
0.064686932 0.10919145 0.52700001
0.066057816 0.10919145 0.52700001
0.067428708 0.10919145 0.52700001
0.068799593 0.10919145 0.52700001
0.070170484 0.10919145 0.52700001
0.071541362 0.10919145 0.52700001
0.072912246 0.10919145 0.52700001
0.074283138 0.10919145 0.52700001
0.075654022 0.10919145 0.52700001
0.077024914 0.10919145 0.52700001
0.078395791 0.10919145 0.52700001
0.079766683 0.10919145 0.52700001
0.081137568 0.10919145 0.52700001
0.082508452 0.10919145 0.52700001
0.083879344 0.10919145 0.52700001
0.085250221 0.10919145 0.52700001
0.086621113 0.10919145 0.52700001
0.088158965 0.10939864 0.528
0.089532457 0.10939864 0.528
0.090905942 0.10939864 0.528
0.092279427 0.10939864 0.528
0.093652919 0.10939864 0.528
0.095026396 0.10939864 0.528
0.096582472 0.10960585 0.52900004
0.097958565 0.10960585 0.52900004
0.09933465 0.10960585 0.52900004
0.10071074 0.10960585 0.52900004
0.1022798 0.10981304 0.53000003
0.1036585 0.10981304 0.53000003
0.10503718 0.10981304 0.53000003
0.10641588 0.10981304 0.53000003
0.10799795 0.11002024 0.53100002
0.10937924 0.11002024 0.53100002
0.11076053 0.11002024 0.53100002
0.11235301 0.11022742 0.53200001
0.11373691 0.11022742 0.53200001
0.1151208 0.11022742 0.53200001
0.11650468 0.11022742 0.53200001
0.11788858 0.11022742 0.53200001
0.11927247 0.11022742 0.53200001
0.12065637 0.11022742 0.53200001
0.12204026 0.11022742 0.53200001
0.12342416 0.11022742 0.53200001
0.12480804 0.11022742 0.53200001
0.12619193 0.11022742 0.53200001
0.12757583 0.11022742 0.53200001
0.12895972 0.11022742 0.53200001
0.13058864 0.11043463 0.53300005
0.13197513 0.11043463 0.53300005
0.13336162 0.11043463 0.53300005
0.13474812 0.11043463 0.53300005
0.13587919 0.11022742 0.53200001
0.13726307 0.11022742 0.53200001
0.13864698 0.11022742 0.53200001
0.14003086 0.11022742 0.53200001
0.14141476 0.11022742 0.53200001
0.14279865 0.11022742 0.53200001
0.14418255 0.11022742 0.53200001
0.14556643 0.11022742 0.53200001
0.14695032 0.11022742 0.53200001
0.14861307 0.11043463 0.53300005
0.14999956 0.11043463 0.53300005
0.15138605 0.11043463 0.53300005
0.15277253 0.11043463 0.53300005
0.15415902 0.11043463 0.53300005
0.15583736 0.11064182 0.53400004
0.15722646 0.11064182 0.53400004
0.15861554 0.11064182 0.53400004
0.16030426 0.11084901 0.53500003
0.16169596 0.11084901 0.53500003
0.16308767 0.11084901 0.53500003
0.16447936 0.11084901 0.53500003
0.16618109 0.1110562 0.53600001
0.16757539 0.1110562 0.53600001
0.16896969 0.1110562 0.53600001
0.17036399 0.1110562 0.53600001
0.17175828 0.1110562 0.53600001
0.17315258 0.1110562 0.53600001
0.17454687 0.1110562 0.53600001
0.17626943 0.11126339 0.537
0.17766632 0.11126339 0.537
0.17906322 0.11126339 0.537
0.18046011 0.11126339 0.537
0.18185702 0.11126339 0.537
0.18325393 0.11126339 0.537
0.18465082 0.11126339 0.537
0.18604772 0.11126339 0.537
0.18744461 0.11126339 0.537
0.18884151 0.11126339 0.537
0.19023842 0.11126339 0.537
0.19163531 0.11126339 0.537
0.19303221 0.11126339 0.537
0.1944291 0.11126339 0.537
0.19582602 0.11126339 0.537
0.19722292 0.11126339 0.537
0.19861981 0.11126339 0.537
0.20001671 0.11126339 0.537
0.2014136 0.11126339 0.537
0.20281051 0.11126339 0.537
0.20382714 0.1110562 0.53600001
0.20522143 0.1110562 0.53600001
0.20661573 0.1110562 0.53600001
0.20801002 0.1110562 0.53600001
0.20940433 0.1110562 0.53600001
0.21079862 0.1110562 0.53600001
0.21219292 0.1110562 0.53600001
0.21318874 0.11084901 0.53500003
0.21458043 0.11084901 0.53500003
0.21597214 0.11084901 0.53500003
0.21736383 0.11084901 0.53500003
0.21834664 0.11064182 0.53400004
0.21973574 0.11064182 0.53400004
0.22112483 0.11064182 0.53400004
0.22251393 0.11064182 0.53400004
0.22390303 0.11064182 0.53400004
0.22571401 0.11084901 0.53500003
0.22710571 0.11084901 0.53500003
0.22849742 0.11084901 0.53500003
0.22988911 0.11084901 0.53500003
0.2317131 0.1110562 0.53600001
0.23310739 0.1110562 0.53600001
0.23493919 0.11126339 0.537
0.2363361 0.11126339 0.537
0.23773299 0.11126339 0.537
0.23957521 0.1114706 0.53800005
0.24097471 0.1114706 0.53800005
0.24237421 0.1114706 0.53800005
0.24377371 0.1114706 0.53800005
0.24517322 0.1114706 0.53800005
0.24657272 0.1114706 0.53800005
0.24797221 0.1114706 0.53800005
0.24937171 0.1114706 0.53800005
0.25077122 0.1114706 0.53800005
0.25217071 0.1114706 0.53800005
0.25357023 0.1114706 0.53800005
0.25496972 0.1114706 0.53800005
0.25636923 0.1114706 0.53800005
0.25776872 0.1114706 0.53800005
0.25916821 0.1114706 0.53800005
0.26056772 0.1114706 0.53800005
-0.2826587 0.10762519 0.51300001
-0.28132424 0.10762519 0.51300001
-0.27998978 0.10762519 0.51300001
-0.27865529 0.10762519 0.51300001
-0.27732083 0.10762519 0.51300001
-0.27598634 0.10762519 0.51300001
-0.27465191 0.10762519 0.51300001
-0.27331743 0.10762519 0.51300001
-0.27198294 0.10762519 0.51300001
-0.27064851 0.10762519 0.51300001
-0.26878905 0.1074154 0.51200002
-0.26745719 0.1074154 0.51200002
-0.26612532 0.1074154 0.51200002
-0.26479343 0.1074154 0.51200002
-0.26346159 0.1074154 0.51200002
-0.26212972 0.1074154 0.51200002
-0.26079786 0.1074154 0.51200002
-0.25946599 0.1074154 0.51200002
-0.2581341 0.1074154 0.51200002
-0.25680226 0.1074154 0.51200002
-0.25547037 0.1074154 0.51200002
-0.25413853 0.1074154 0.51200002
-0.2523129 0.10720561 0.51100004
-0.25098363 0.10720561 0.51100004
-0.24965435 0.10720561 0.51100004
-0.24832509 0.10720561 0.51100004
-0.24651249 0.10699581 0.51000005
-0.24518582 0.10699581 0.51000005
-0.24385916 0.10699581 0.51000005
-0.24205691 0.10678601 0.509
-0.24073285 0.10678601 0.509
-0.23940879 0.10678601 0.509
-0.23761699 0.10657622 0.50800002
-0.23629551 0.10657622 0.50800002
-0.23543659 0.10678601 0.509
-0.23411253 0.10678601 0.509
-0.23278847 0.10678601 0.509
-0.23191918 0.10699581 0.51000005
-0.2305925 0.10699581 0.51000005
-0.22926584 0.10699581 0.51000005
-0.22838612 0.10720561 0.51100004
-0.22750118 0.1074154 0.51200002
-0.22616932 0.1074154 0.51200002
-0.22483744 0.1074154 0.51200002
-0.22350559 0.1074154 0.51200002
-0.22260764 0.10762519 0.51300001
-0.22127318 0.10762519 0.51300001
-0.21993871 0.10762519 0.51300001
-0.21860424 0.10762519 0.51300001
-0.21726976 0.10762519 0.51300001
-0.2159353 0.10762519 0.51300001
-0.21501917 0.10783499 0.514
-0.2136821 0.10783499 0.514
-0.21234502 0.10783499 0.514
-0.21100795 0.10783499 0.514
-0.21007882 0.1080448 0.51500005
-0.20873915 0.1080448 0.51500005
-0.20739947 0.1080448 0.51500005
-0.2060598 0.1080448 0.51500005
-0.20472014 0.1080448 0.51500005
-0.20338047 0.1080448 0.51500005
-0.20204081 0.1080448 0.51500005
-0.20070112 0.1080448 0.51500005
-0.19936144 0.1080448 0.51500005
-0.19802178 0.1080448 0.51500005
-0.19668211 0.1080448 0.51500005
-0.19534245 0.1080448 0.51500005
-0.19400276 0.1080448 0.51500005
-0.1926631 0.1080448 0.51500005
-0.19132343 0.1080448 0.51500005
-0.18998377 0.1080448 0.51500005
-0.1886441 0.1080448 0.51500005
-0.1869407 0.10783499 0.514
-0.18560363 0.10783499 0.514
-0.18426657 0.10783499 0.514
-0.1829295 0.10783499 0.514
-0.18123913 0.10762519 0.51300001
-0.17990467 0.10762519 0.51300001
-0.1785702 0.10762519 0.51300001
-0.17723574 0.10762519 0.51300001
-0.17590128 0.10762519 0.51300001
-0.17456679 0.10762519 0.51300001
-0.17323233 0.10762519 0.51300001
-0.17223294 0.10783499 0.514
-0.17089587 0.10783499 0.514
-0.16955881 0.10783499 0.514
-0.16854902 0.1080448 0.51500005
-0.16720936 0.1080448 0.51500005
-0.16586968 0.1080448 0.51500005
-0.16484949 0.10825459 0.51600003
-0.16350722 0.10825459 0.51600003
-0.16216494 0.10825459 0.51600003
-0.16082267 0.10825459 0.51600003
-0.15948041 0.10825459 0.51600003
-0.15813813 0.10825459 0.51600003
-0.15649198 0.1080448 0.51500005
-0.15515232 0.1080448 0.51500005
-0.15381265 0.1080448 0.51500005
-0.15247299 0.1080448 0.51500005
-0.15113331 0.1080448 0.51500005
-0.1500845 0.10825459 0.51600003
-0.14874223 0.10825459 0.51600003
-0.14739995 0.10825459 0.51600003
-0.14605768 0.10825459 0.51600003
-0.14471541 0.10825459 0.51600003
-0.14365098 0.10846438 0.51700002
-0.14230612 0.10846438 0.51700002
-0.14096124 0.10846438 0.51700002
-0.13961637 0.10846438 0.51700002
-0.13853896 0.10867418 0.51800001
-0.13719146 0.10867418 0.51800001
-0.13584399 0.10867418 0.51800001
-0.13449652 0.10867418 0.51800001
-0.1334061 0.10888398 0.51900005
-0.13205601 0.10888398 0.51900005
-0.13070595 0.10888398 0.51900005
-0.12935588 0.10888398 0.51900005
-0.12775914 0.10867418 0.51800001
-0.12641168 0.10867418 0.51800001
-0.12506419 0.10867418 0.51800001
-0.12371672 0.10867418 0.51800001
-0.12236925 0.10867418 0.51800001
-0.12102178 0.10867418 0.51800001
-0.1196743 0.10867418 0.51800001
-0.1180984 0.10846438 0.51700002
-0.11675353 0.10846438 0.51700002
-0.11540865 0.10846438 0.51700002
-0.11406378 0.10846438 0.51700002
-0.1127189 0.10846438 0.51700002
-0.11158945 0.10867418 0.51800001
-0.11024198 0.10867418 0.51800001
-0.1088945 0.10867418 0.51800001
-0.10754703 0.10867418 0.51800001
-0.10640459 0.10888398 0.51900005
-0.10505451 0.10888398 0.51900005
-0.10370443 0.10888398 0.51900005
-0.10235436 0.10888398 0.51900005
-0.10100428 0.10888398 0.51900005
-0.099654205 0.10888398 0.51900005
-0.098304123 0.10888398 0.51900005
-0.096954055 0.10888398 0.51900005
-0.09560398 0.10888398 0.51900005
-0.094253898 0.10888398 0.51900005
-0.09290383 0.10888398 0.51900005
-0.091553748 0.10888398 0.51900005
-0.090203673 0.10888398 0.51900005
-0.088853605 0.10888398 0.51900005
-0.087334916 0.10867418 0.51800001
-0.085987441 0.10867418 0.51800001
-0.084639966 0.10867418 0.51800001
-0.083292492 0.10867418 0.51800001
-0.082103215 0.10888398 0.51900005
-0.08075314 0.10888398 0.51900005
-0.079403073 0.10888398 0.51900005
-0.07805299 0.10888398 0.51900005
-0.076702915 0.10888398 0.51900005
-0.075498022 0.10909377 0.52000004
-0.074145347 0.10909377 0.52000004
-0.072932653 0.10930356 0.52100003
-0.071577378 0.10930356 0.52100003
-0.070222102 0.10930356 0.52100003
-0.068999 0.10951336 0.52200001
-0.067641124 0.10951336 0.52200001
-0.066283241 0.10951336 0.52200001
-0.064925365 0.10951336 0.52200001
-0.063567482 0.10951336 0.52200001
-0.062209602 0.10951336 0.52200001
-0.060851723 0.10951336 0.52200001
-0.059379872 0.10930356 0.52100003
-0.058024596 0.10930356 0.52100003
-0.056669317 0.10930356 0.52100003
-0.055314038 0.10930356 0.52100003
-0.053958759 0.10930356 0.52100003
-0.052603479 0.10930356 0.52100003
-0.051248204 0.10930356 0.52100003
-0.049892925 0.10930356 0.52100003
-0.048537645 0.10930356 0.52100003
-0.047182366 0.10930356 0.52100003
-0.045827087 0.10930356 0.52100003
-0.044471808 0.10930356 0.52100003
-0.043116529 0.10930356 0.52100003
-0.04184141 0.10951336 0.52200001
-0.040483531 0.10951336 0.52200001
-0.039125647 0.10951336 0.52200001
-0.037767768 0.10951336 0.52200001
-0.036409888 0.10951336 0.52200001
-0.035052009 0.10951336 0.52200001
-0.033694129 0.10951336 0.52200001
-0.03233625 0.10951336 0.52200001
-0.03097837 0.10951336 0.52200001
-0.029677235 0.10972315 0.523
-0.028316753 0.10972315 0.523
-0.026956273 0.10972315 0.523
-0.025595792 0.10972315 0.523
-0.02423531 0.10972315 0.523
-0.02287483 0.10972315 0.523
-0.021473212 0.10951336 0.52200001
-0.020115333 0.10951336 0.52200001
-0.018757453 0.10951336 0.52200001
-0.017399574 0.10951336 0.52200001
-0.016041694 0.10951336 0.52200001
-0.014711943 0.10972315 0.523
-0.013351463 0.10972315 0.523
-0.011990982 0.10972315 0.523
-0.010630501 0.10972315 0.523
-0.0092700198 0.10972315 0.523
-0.0079246629 0.10993296 0.52400005
-0.0065615806 0.10993296 0.52400005
-0.0051984987 0.10993296 0.52400005
-0.0038354162 0.10993296 0.52400005
-0.0024723338 0.10993296 0.52400005
-0.0011092515 0.10993296 0.52400005
0.00025383083 0.10993296 0.52400005
0.0016169132 0.10993296 0.52400005
0.0029743081 0.10972315 0.523
0.0043347892 0.10972315 0.523
0.0056952699 0.10972315 0.523
0.007055751 0.10972315 0.523
0.0084162327 0.10972315 0.523
0.0097767124 0.10972315 0.523
0.011115899 0.10951336 0.52200001
0.012473779 0.10951336 0.52200001
0.013858155 0.10972315 0.523
0.015218637 0.10972315 0.523
0.016579118 0.10972315 0.523
0.017939599 0.10972315 0.523
0.019300079 0.10972315 0.523
0.020660561 0.10972315 0.523
0.022063149 0.10993296 0.52400005
0.023426231 0.10993296 0.52400005
0.024789313 0.10993296 0.52400005
0.026152397 0.10993296 0.52400005
0.027515477 0.10993296 0.52400005
0.02887856 0.10993296 0.52400005
0.030299356 0.11014275 0.52500004
0.031665038 0.11014275 0.52500004
0.033030722 0.11014275 0.52500004
0.034396403 0.11014275 0.52500004
0.03576209 0.11014275 0.52500004
0.037127774 0.11014275 0.52500004
0.038566776 0.11035254 0.52600002
0.039935064 0.11035254 0.52600002
0.041303348 0.11035254 0.52600002
0.042671628 0.11035254 0.52600002
0.044039916 0.11035254 0.52600002
0.0454082 0.11035254 0.52600002
0.046865415 0.11056233 0.52700001
0.048144773 0.11035254 0.52600002
0.049513057 0.11035254 0.52600002
0.050978072 0.11056233 0.52700001
0.052348956 0.11056233 0.52700001
0.053719845 0.11056233 0.52700001
0.055090729 0.11056233 0.52700001
0.056461617 0.11056233 0.52700001
0.057832506 0.11056233 0.52700001
0.05920339 0.11056233 0.52700001
0.060574275 0.11056233 0.52700001
0.061945159 0.11056233 0.52700001
0.063316047 0.11056233 0.52700001
0.064686932 0.11056233 0.52700001
0.066057816 0.11056233 0.52700001
0.067428708 0.11056233 0.52700001
0.068799593 0.11056233 0.52700001
0.070170484 0.11056233 0.52700001
0.071541362 0.11056233 0.52700001
0.072912246 0.11056233 0.52700001
0.074283138 0.11056233 0.52700001
0.075654022 0.11056233 0.52700001
0.077024914 0.11056233 0.52700001
0.078395791 0.11056233 0.52700001
0.079766683 0.11056233 0.52700001
0.081137568 0.11056233 0.52700001
0.082508452 0.11056233 0.52700001
0.083879344 0.11056233 0.52700001
0.085411988 0.11077213 0.528
0.08678548 0.11077213 0.528
0.088158965 0.11077213 0.528
0.089532457 0.11077213 0.528
0.090905942 0.11077213 0.528
0.092279427 0.11077213 0.528
0.093652919 0.11077213 0.528
0.095026396 0.11077213 0.528
0.096582472 0.11098193 0.52900004
0.097958565 0.11098193 0.52900004
0.09933465 0.11098193 0.52900004
0.10090112 0.11119173 0.53000003
0.1022798 0.11119173 0.53000003
0.1036585 0.11119173 0.53000003
0.10503718 0.11119173 0.53000003
0.10661666 0.11140152 0.53100002
0.10799795 0.11140152 0.53100002
0.10937924 0.11140152 0.53100002
0.11096912 0.11161131 0.53200001
0.11235301 0.11161131 0.53200001
0.11373691 0.11161131 0.53200001
0.1151208 0.11161131 0.53200001
0.11650468 0.11161131 0.53200001
0.11788858 0.11161131 0.53200001
0.11927247 0.11161131 0.53200001
0.12065637 0.11161131 0.53200001
0.12204026 0.11161131 0.53200001
0.12342416 0.11161131 0.53200001
0.12480804 0.11161131 0.53200001
0.12619193 0.11161131 0.53200001
0.12757583 0.11161131 0.53200001
0.12920214 0.11182112 0.53300005
0.13058864 0.11182112 0.53300005
0.13197513 0.11182112 0.53300005
0.13336162 0.11182112 0.53300005
0.13474812 0.11182112 0.53300005
0.13613461 0.11182112 0.53300005
0.1375211 0.11182112 0.53300005
0.1389076 0.11182112 0.53300005
0.14003086 0.11161131 0.53200001
0.14141476 0.11161131 0.53200001
0.14279865 0.11161131 0.53200001
0.14418255 0.11161131 0.53200001
0.14556643 0.11161131 0.53200001
0.14722656 0.11182112 0.53300005
0.14861307 0.11182112 0.53300005
0.14999956 0.11182112 0.53300005
0.15138605 0.11182112 0.53300005
0.15277253 0.11182112 0.53300005
0.15444826 0.11203091 0.53400004
0.15583736 0.11203091 0.53400004
0.15722646 0.11203091 0.53400004
0.15891257 0.1122407 0.53500003
0.16030426 0.1122407 0.53500003
0.16169596 0.1122407 0.53500003
0.1633925 0.1124505 0.53600001
0.1647868 0.1124505 0.53600001
0.16618109 0.1124505 0.53600001
0.16757539 0.1124505 0.53600001
0.16928494 0.11266029 0.537
0.17068183 0.11266029 0.537
0.17207873 0.11266029 0.537
0.17347562 0.11266029 0.537
0.17487252 0.11266029 0.537
0.17626943 0.11266029 0.537
0.17766632 0.11266029 0.537
0.17906322 0.11266029 0.537
0.18046011 0.11266029 0.537
0.18185702 0.11266029 0.537
0.18325393 0.11266029 0.537
0.18465082 0.11266029 0.537
0.18604772 0.11266029 0.537
0.18744461 0.11266029 0.537
0.18884151 0.11266029 0.537
0.19023842 0.11266029 0.537
0.19163531 0.11266029 0.537
0.19303221 0.11266029 0.537
0.1944291 0.11266029 0.537
0.19582602 0.11266029 0.537
0.19722292 0.11266029 0.537
0.19861981 0.11266029 0.537
0.20001671 0.11266029 0.537
0.2014136 0.11266029 0.537
0.20281051 0.11266029 0.537
0.20382714 0.1124505 0.53600001
0.20522143 0.1124505 0.53600001
0.20661573 0.1124505 0.53600001
0.20801002 0.1124505 0.53600001
0.20940433 0.1124505 0.53600001
0.21079862 0.1124505 0.53600001
0.21179704 0.1122407 0.53500003
0.21318874 0.1122407 0.53500003
0.21458043 0.1122407 0.53500003
0.21597214 0.1122407 0.53500003
0.21695755 0.11203091 0.53400004
0.21834664 0.11203091 0.53400004
0.21973574 0.11203091 0.53400004
0.22112483 0.11203091 0.53400004
0.22251393 0.11203091 0.53400004
0.22390303 0.11203091 0.53400004
0.22529212 0.11203091 0.53400004
0.22710571 0.1122407 0.53500003
0.22849742 0.1122407 0.53500003
0.22988911 0.1122407 0.53500003
0.2317131 0.1124505 0.53600001
0.23310739 0.1124505 0.53600001
0.23493919 0.11266029 0.537
0.2363361 0.11266029 0.537
0.23817572 0.1128701 0.53800005
0.23957521 0.1128701 0.53800005
0.24097471 0.1128701 0.53800005
0.24237421 0.1128701 0.53800005
0.24377371 0.1128701 0.53800005
0.24517322 0.1128701 0.53800005
0.24657272 0.1128701 0.53800005
0.24797221 0.1128701 0.53800005
0.24937171 0.1128701 0.53800005
0.25077122 0.1128701 0.53800005
0.25217071 0.1128701 0.53800005
0.25357023 0.1128701 0.53800005
0.25496972 0.1128701 0.53800005
0.25589269 0.11266029 0.537
0.25728959 0.11266029 0.537
0.25868648 0.11266029 0.537
0.26008338 0.11266029 0.537
-0.28210771 0.10874727 0.51200002
-0.28077587 0.10874727 0.51200002
-0.27998978 0.10895967 0.51300001
-0.27865529 0.10895967 0.51300001
-0.27732083 0.10895967 0.51300001
-0.27598634 0.10895967 0.51300001
-0.27465191 0.10895967 0.51300001
-0.27331743 0.10895967 0.51300001
-0.27145278 0.10874727 0.51200002
-0.27012092 0.10874727 0.51200002
-0.26878905 0.10874727 0.51200002
-0.26745719 0.10874727 0.51200002
-0.26612532 0.10874727 0.51200002
-0.26479343 0.10874727 0.51200002
-0.26346159 0.10874727 0.51200002
-0.26212972 0.10874727 0.51200002
-0.26079786 0.10874727 0.51200002
-0.25946599 0.10874727 0.51200002
-0.2581341 0.10874727 0.51200002
-0.25680226 0.10874727 0.51200002
-0.25547037 0.10874727 0.51200002
-0.25413853 0.10874727 0.51200002
-0.25280666 0.10874727 0.51200002
-0.25098363 0.10853488 0.51100004
-0.24965435 0.10853488 0.51100004
-0.24832509 0.10853488 0.51100004
-0.24651249 0.10832249 0.51000005
-0.24518582 0.10832249 0.51000005
-0.24385916 0.10832249 0.51000005
-0.24253248 0.10832249 0.51000005
-0.24073285 0.10811008 0.509
-0.23940879 0.10811008 0.509
-0.23808473 0.10811008 0.509
-0.23676065 0.10811008 0.509
-0.23543659 0.10811008 0.509
-0.23411253 0.10811008 0.509
-0.23278847 0.10811008 0.509
-0.23191918 0.10832249 0.51000005
-0.2305925 0.10832249 0.51000005
-0.22926584 0.10832249 0.51000005
-0.22838612 0.10853488 0.51100004
-0.22750118 0.10874727 0.51200002
-0.22616932 0.10874727 0.51200002
-0.22483744 0.10874727 0.51200002
-0.22350559 0.10874727 0.51200002
-0.22260764 0.10895967 0.51300001
-0.22127318 0.10895967 0.51300001
-0.21993871 0.10895967 0.51300001
-0.21860424 0.10895967 0.51300001
-0.21726976 0.10895967 0.51300001
-0.21635623 0.10917206 0.514
-0.21501917 0.10917206 0.514
-0.2136821 0.10917206 0.514
-0.21275815 0.10938447 0.51500005
-0.21141849 0.10938447 0.51500005
-0.21007882 0.10938447 0.51500005
-0.20873915 0.10938447 0.51500005
-0.20739947 0.10938447 0.51500005
-0.2060598 0.10938447 0.51500005
-0.20511764 0.10959686 0.51600003
-0.20377538 0.10959686 0.51600003
-0.20243311 0.10959686 0.51600003
-0.20109083 0.10959686 0.51600003
-0.19936144 0.10938447 0.51500005
-0.19840628 0.10959686 0.51600003
-0.19668211 0.10938447 0.51500005
-0.19534245 0.10938447 0.51500005
-0.19400276 0.10938447 0.51500005
-0.1926631 0.10938447 0.51500005
-0.19132343 0.10938447 0.51500005
-0.18998377 0.10938447 0.51500005
-0.1886441 0.10938447 0.51500005
-0.18730441 0.10938447 0.51500005
-0.18596475 0.10938447 0.51500005
-0.18426657 0.10917206 0.514
-0.1829295 0.10917206 0.514
-0.18159242 0.10917206 0.514
-0.17990467 0.10895967 0.51300001
-0.1785702 0.10895967 0.51300001
-0.17723574 0.10895967 0.51300001
-0.17590128 0.10895967 0.51300001
-0.17490707 0.10917206 0.514
-0.17357001 0.10917206 0.514
-0.17223294 0.10917206 0.514
-0.17089587 0.10917206 0.514
-0.16988871 0.10938447 0.51500005
-0.16854902 0.10938447 0.51500005
-0.16753402 0.10959686 0.51600003
-0.16619176 0.10959686 0.51600003
-0.16484949 0.10959686 0.51600003
-0.16350722 0.10959686 0.51600003
-0.16216494 0.10959686 0.51600003
-0.16082267 0.10959686 0.51600003
-0.15948041 0.10959686 0.51600003
-0.15813813 0.10959686 0.51600003
-0.15679584 0.10959686 0.51600003
-0.15545358 0.10959686 0.51600003
-0.15411131 0.10959686 0.51600003
-0.15276904 0.10959686 0.51600003
-0.15142678 0.10959686 0.51600003
-0.1500845 0.10959686 0.51600003
-0.14874223 0.10959686 0.51600003
-0.14739995 0.10959686 0.51600003
-0.14605768 0.10959686 0.51600003
-0.14471541 0.10959686 0.51600003
-0.14337313 0.10959686 0.51600003
-0.14203086 0.10959686 0.51600003
-0.14096124 0.10980926 0.51700002
-0.13961637 0.10980926 0.51700002
-0.13827151 0.10980926 0.51700002
-0.13719146 0.11002165 0.51800001
-0.13584399 0.11002165 0.51800001
-0.13449652 0.11002165 0.51800001
-0.13314904 0.11002165 0.51800001
-0.13180156 0.11002165 0.51800001
-0.13045409 0.11002165 0.51800001
-0.12935588 0.11023406 0.51900005
-0.12775914 0.11002165 0.51800001
-0.12641168 0.11002165 0.51800001
-0.12506419 0.11002165 0.51800001
-0.12371672 0.11002165 0.51800001
-0.12236925 0.11002165 0.51800001
-0.12102178 0.11002165 0.51800001
-0.1196743 0.11002165 0.51800001
-0.11832683 0.11002165 0.51800001
-0.11675353 0.10980926 0.51700002
-0.11540865 0.10980926 0.51700002
-0.1142844 0.11002165 0.51800001
-0.11293693 0.11002165 0.51800001
-0.11158945 0.11002165 0.51800001
-0.11024198 0.11002165 0.51800001
-0.10910474 0.11023406 0.51900005
-0.10775466 0.11023406 0.51900005
-0.10640459 0.11023406 0.51900005
-0.10505451 0.11023406 0.51900005
-0.10370443 0.11023406 0.51900005
-0.10235436 0.11023406 0.51900005
-0.10100428 0.11023406 0.51900005
-0.099654205 0.11023406 0.51900005
-0.098304123 0.11023406 0.51900005
-0.096954055 0.11023406 0.51900005
-0.09560398 0.11023406 0.51900005
-0.094253898 0.11023406 0.51900005
-0.09290383 0.11023406 0.51900005
-0.091553748 0.11023406 0.51900005
-0.090203673 0.11023406 0.51900005
-0.088853605 0.11023406 0.51900005
-0.087503523 0.11023406 0.51900005
-0.086153448 0.11023406 0.51900005
-0.084803365 0.11023406 0.51900005
-0.083453298 0.11023406 0.51900005
-0.082103215 0.11023406 0.51900005
-0.08075314 0.11023406 0.51900005
-0.079403073 0.11023406 0.51900005
-0.07805299 0.11023406 0.51900005
-0.076850705 0.11044645 0.52000004
-0.075498022 0.11044645 0.52000004
-0.074145347 0.11044645 0.52000004
-0.072932653 0.11065885 0.52100003
-0.071714759 0.11087124 0.52200001
-0.070356883 0.11087124 0.52200001
-0.068999 0.11087124 0.52200001
-0.067641124 0.11087124 0.52200001
-0.066283241 0.11087124 0.52200001
-0.064925365 0.11087124 0.52200001
-0.063567482 0.11087124 0.52200001
-0.062209602 0.11087124 0.52200001
-0.060851723 0.11087124 0.52200001
-0.059493843 0.11087124 0.52200001
-0.058024596 0.11065885 0.52100003
-0.056669317 0.11065885 0.52100003
-0.055314038 0.11065885 0.52100003
-0.053958759 0.11065885 0.52100003
-0.052603479 0.11065885 0.52100003
-0.051248204 0.11065885 0.52100003
-0.049892925 0.11065885 0.52100003
-0.048537645 0.11065885 0.52100003
