# .PCD v0.7 - Point Cloud Data file format
VERSION 0.7
FIELDS x y z
SIZE 4 4 4
TYPE F F F
COUNT 1 1 1
WIDTH 1401
HEIGHT 1
VIEWPOINT 0 0 0 1 0 0 0
POINTS 1401
DATA ascii
-0.0011050176 0.072850607 0.52200001
0.000252862 0.072850607 0.52200001
0.0016107417 0.072850607 0.52200001
0.0029686212 0.072850607 0.52200001
0.0043265009 0.072850607 0.52200001
0.0056843804 0.072850607 0.52200001
0.0070422604 0.072850607 0.52200001
0.0084001403 0.072850607 0.52200001
0.0097580198 0.072850607 0.52200001
0.022947066 0.060987961 0.43700001
0.024083836 0.060987961 0.43700001
0.025162892 0.060848404 0.43600002
0.026297059 0.060848404 0.43600002
0.027305398 0.060569283 0.43400002
0.02843436 0.060569283 0.43400002
0.029495208 0.060429722 0.43300003
0.030550852 0.060290158 0.43200001
0.031674616 0.060290158 0.43200001
0.032646533 0.060011037 0.43000001
0.033686571 0.05987148 0.42900002
0.034721404 0.059731919 0.42800003
0.035751034 0.059592359 0.42700002
0.036775462 0.059452798 0.42600003
0.037794691 0.059313234 0.42500001
0.038808715 0.059173677 0.42400002
0.039817534 0.059034113 0.42300001
0.04082115 0.058894556 0.42200002
0.041819569 0.058754995 0.42100003
0.04281278 0.058615435 0.42000002
0.043800794 0.058475874 0.41900003
0.0447836 0.05833631 0.41800001
0.045761205 0.058196753 0.41700003
0.04684595 0.058196753 0.41700003
0.047815744 0.058057189 0.41600001
0.048780344 0.057917632 0.41500002
0.049739745 0.057778072 0.41400003
0.050816685 0.057778072 0.41400003
0.051768273 0.057638511 0.41300002
0.052842613 0.057638511 0.41300002
0.053786401 0.057498951 0.41200003
0.054858141 0.057498951 0.41200003
0.05579412 0.05735939 0.41100001
0.056863252 0.05735939 0.41100001
0.057932392 0.05735939 0.41100001
0.05885797 0.057219829 0.41000003
0.059924506 0.057219829 0.41000003
0.060842276 0.057080265 0.40900001
0.061906215 0.057080265 0.40900001
0.062970147 0.057080265 0.40900001
0.063877515 0.056940708 0.40800002
0.064779684 0.056801144 0.40700001
0.065838411 0.056801144 0.40700001
0.066732779 0.056661587 0.40600002
0.067621939 0.056522027 0.40500003
0.068505898 0.056382466 0.40400001
0.069384649 0.056242906 0.40300003
0.0702582 0.056103341 0.40200001
0.071126558 0.055963784 0.40100002
0.0719897 0.05582422 0.40000001
0.072847649 0.055684663 0.39900002
0.073885567 0.055684663 0.39900002
0.074735709 0.055545103 0.39800003
0.075771026 0.055545103 0.39800003
0.076806344 0.055545103 0.39800003
0.077841669 0.055545103 0.39800003
0.11330933 0.073967099 0.53000003
0.11468802 0.073967099 0.53000003
0.1160667 0.073967099 0.53000003
0.1174454 0.073967099 0.53000003
0.11882409 0.073967099 0.53000003
0.12020278 0.073967099 0.53000003
0.12158147 0.073967099 0.53000003
0.12296017 0.073967099 0.53000003
0.12433885 0.073967099 0.53000003
0.12595473 0.074106656 0.53100002
0.12733603 0.074106656 0.53100002
0.12871732 0.074106656 0.53100002
0.13009861 0.074106656 0.53100002
0.1314799 0.074106656 0.53100002
0.1331114 0.074246213 0.53200001
0.13449529 0.074246213 0.53200001
0.13587919 0.074246213 0.53200001
0.13726307 0.074246213 0.53200001
0.13864698 0.074246213 0.53200001
0.14003086 0.074246213 0.53200001
0.14141476 0.074246213 0.53200001
0.14279865 0.074246213 0.53200001
0.14418255 0.074246213 0.53200001
0.14556643 0.074246213 0.53200001
0.14695032 0.074246213 0.53200001
0.14833423 0.074246213 0.53200001
0.14971812 0.074246213 0.53200001
0.15110201 0.074246213 0.53200001
0.15248589 0.074246213 0.53200001
0.15386978 0.074246213 0.53200001
0.15525369 0.074246213 0.53200001
0.15663758 0.074246213 0.53200001
0.15802146 0.074246213 0.53200001
0.15940535 0.074246213 0.53200001
0.16078925 0.074246213 0.53200001
0.16217315 0.074246213 0.53200001
0.16355704 0.074246213 0.53200001
0.16494094 0.074246213 0.53200001
0.16632482 0.074246213 0.53200001
0.16770872 0.074246213 0.53200001
0.16909261 0.074246213 0.53200001
0.17047651 0.074246213 0.53200001
0.1718604 0.074246213 0.53200001
0.17324428 0.074246213 0.53200001
0.17462818 0.074246213 0.53200001
0.17601208 0.074246213 0.53200001
0.17739597 0.074246213 0.53200001
0.17877986 0.074246213 0.53200001
0.18016374 0.074246213 0.53200001
0.18154766 0.074246213 0.53200001
0.18293154 0.074246213 0.53200001
0.18431543 0.074246213 0.53200001
0.18569931 0.074246213 0.53200001
0.18743488 0.074385777 0.53300005
0.18882139 0.074385777 0.53300005
0.19020788 0.074385777 0.53300005
0.19159438 0.074385777 0.53300005
0.19298087 0.074385777 0.53300005
0.19436736 0.074385777 0.53300005
0.19575386 0.074385777 0.53300005
0.19677046 0.074246213 0.53200001
0.19852684 0.074385777 0.53300005
0.19991334 0.074385777 0.53300005
0.20129985 0.074385777 0.53300005
0.20268632 0.074385777 0.53300005
0.20445569 0.074525341 0.53400004
0.20584479 0.074525341 0.53400004
0.20723388 0.074525341 0.53400004
0.20862298 0.074525341 0.53400004
0.21001208 0.074525341 0.53400004
0.21140116 0.074525341 0.53400004
0.21318874 0.074664898 0.53500003
0.21458043 0.074664898 0.53500003
0.21556845 0.074525341 0.53400004
0.21695755 0.074525341 0.53400004
0.21834664 0.074525341 0.53400004
0.21973574 0.074525341 0.53400004
0.22112483 0.074525341 0.53400004
0.22251393 0.074525341 0.53400004
0.22390303 0.074525341 0.53400004
0.22487023 0.074385777 0.53300005
0.22625673 0.074385777 0.53300005
0.22764322 0.074385777 0.53300005
0.22902972 0.074385777 0.53300005
0.23084851 0.074525341 0.53400004
0.23223759 0.074525341 0.53400004
0.23362669 0.074525341 0.53400004
0.2354559 0.074664898 0.53500003
0.23684759 0.074664898 0.53500003
0.23868458 0.074804455 0.53600001
0.24007888 0.074804455 0.53600001
0.24147317 0.074804455 0.53600001
0.24286748 0.074804455 0.53600001
0.24426177 0.074804455 0.53600001
0.24565607 0.074804455 0.53600001
0.24705036 0.074804455 0.53600001
0.24844466 0.074804455 0.53600001
0.24983898 0.074804455 0.53600001
0.25123328 0.074804455 0.53600001
0.25262755 0.074804455 0.53600001
0.25402185 0.074804455 0.53600001
0.25541615 0.074804455 0.53600001
0.25681046 0.074804455 0.53600001
0.25820476 0.074804455 0.53600001
0.25959906 0.074804455 0.53600001
-0.28177881 0.072360381 0.509
-0.27990374 0.072218217 0.50800002
-0.2785823 0.072218217 0.50800002
-0.27780661 0.072360381 0.509
-0.27648252 0.072360381 0.509
-0.27515849 0.072360381 0.509
-0.27383441 0.072360381 0.509
-0.27251038 0.072360381 0.509
-0.27118629 0.072360381 0.509
-0.27039242 0.072502546 0.51000005
-0.26906577 0.072502546 0.51000005
-0.26721409 0.072360381 0.509
-0.26641247 0.072502546 0.51000005
-0.26508579 0.072502546 0.51000005
-0.26375911 0.072502546 0.51000005
-0.26243246 0.072502546 0.51000005
-0.26110578 0.072502546 0.51000005
-0.25977913 0.072502546 0.51000005
-0.25794566 0.072360381 0.509
-0.2566216 0.072360381 0.509
-0.25529754 0.072360381 0.509
-0.25397348 0.072360381 0.509
-0.25215307 0.072218217 0.50800002
-0.2508316 0.072218217 0.50800002
-0.24951014 0.072218217 0.50800002
-0.24770011 0.07207606 0.50700003
-0.24638125 0.07207606 0.50700003
-0.2450624 0.07207606 0.50700003
-0.24374354 0.07207606 0.50700003
-0.24290283 0.072218217 0.50800002
-0.24158137 0.072218217 0.50800002
-0.2402599 0.072218217 0.50800002
-0.23940879 0.072360381 0.509
-0.2385525 0.072502546 0.51000005
-0.23722583 0.072502546 0.51000005
-0.23589917 0.072502546 0.51000005
-0.23503244 0.072644711 0.51100004
-0.23370318 0.072644711 0.51100004
-0.23282866 0.072786868 0.51200002
-0.23149678 0.072786868 0.51200002
-0.23016492 0.072786868 0.51200002
-0.22883305 0.072786868 0.51200002
-0.22750118 0.072786868 0.51200002
-0.22616932 0.072786868 0.51200002
-0.22483744 0.072786868 0.51200002
-0.22350559 0.072786868 0.51200002
-0.22217372 0.072786868 0.51200002
-0.22084185 0.072786868 0.51200002
-0.21993871 0.072929032 0.51300001
-0.21860424 0.072929032 0.51300001
-0.21684624 0.072786868 0.51200002
-0.2159353 0.072929032 0.51300001
-0.21460085 0.072929032 0.51300001
-0.21326637 0.072929032 0.51300001
-0.2119319 0.072929032 0.51300001
-0.21100795 0.073071189 0.514
-0.20967089 0.073071189 0.514
-0.20833382 0.073071189 0.514
-0.20699674 0.073071189 0.514
-0.20565967 0.073071189 0.514
-0.20432261 0.073071189 0.514
-0.20298554 0.073071189 0.514
-0.20164847 0.073071189 0.514
-0.20031139 0.073071189 0.514
-0.19897433 0.073071189 0.514
-0.19763726 0.073071189 0.514
-0.19630019 0.073071189 0.514
-0.19496313 0.073071189 0.514
-0.19362605 0.073071189 0.514
-0.19228898 0.073071189 0.514
-0.19132343 0.073213354 0.51500005
-0.18998377 0.073213354 0.51500005
-0.1886441 0.073213354 0.51500005
-0.18730441 0.073213354 0.51500005
-0.18596475 0.073213354 0.51500005
-0.18462507 0.073213354 0.51500005
-0.18328542 0.073213354 0.51500005
-0.18194573 0.073213354 0.51500005
-0.18060607 0.073213354 0.51500005
-0.17926639 0.073213354 0.51500005
-0.17792672 0.073213354 0.51500005
-0.17692994 0.073355518 0.51600003
-0.17558765 0.073355518 0.51600003
-0.17424539 0.073355518 0.51600003
-0.17290312 0.073355518 0.51600003
-0.17156085 0.073355518 0.51600003
-0.17021859 0.073355518 0.51600003
-0.16887631 0.073355518 0.51600003
-0.16753402 0.073355518 0.51600003
-0.16619176 0.073355518 0.51600003
-0.16484949 0.073355518 0.51600003
-0.16319035 0.073213354 0.51500005
-0.16185068 0.073213354 0.51500005
-0.160511 0.073213354 0.51500005
-0.15886225 0.073071189 0.514
-0.15752518 0.073071189 0.514
-0.1561881 0.073071189 0.514
-0.15485103 0.073071189 0.514
-0.1532153 0.072929032 0.51300001
-0.15188085 0.072929032 0.51300001
-0.15054639 0.072929032 0.51300001
-0.1492119 0.072929032 0.51300001
-0.14787744 0.072929032 0.51300001
-0.14654297 0.072929032 0.51300001
-0.14520851 0.072929032 0.51300001
-0.14387403 0.072929032 0.51300001
-0.14281741 0.073071189 0.514
-0.14148034 0.073071189 0.514
-0.14014328 0.073071189 0.514
-0.13880621 0.073071189 0.514
-0.13746914 0.073071189 0.514
-0.13613206 0.073071189 0.514
-0.134795 0.073071189 0.514
-0.13345793 0.073071189 0.514
-0.13212086 0.073071189 0.514
-0.13103825 0.073213354 0.51500005
-0.12969857 0.073213354 0.51500005
-0.12860815 0.073355518 0.51600003
-0.12726587 0.073355518 0.51600003
-0.1259236 0.073355518 0.51600003
-0.12482277 0.073497675 0.51700002
-0.12347789 0.073497675 0.51700002
-0.12236925 0.07363984 0.51800001
-0.12102178 0.07363984 0.51800001
-0.11990534 0.073782004 0.51900005
-0.11855527 0.073782004 0.51900005
-0.11720519 0.073782004 0.51900005
-0.11585511 0.073782004 0.51900005
-0.11450505 0.073782004 0.51900005
-0.11315496 0.073782004 0.51900005
-0.11202031 0.073924169 0.52000004
-0.11045481 0.073782004 0.51900005
-0.10910474 0.073782004 0.51900005
-0.10775466 0.073782004 0.51900005
-0.10640459 0.073782004 0.51900005
-0.10505451 0.073782004 0.51900005
-0.10370443 0.073782004 0.51900005
-0.10235436 0.073782004 0.51900005
-0.10080966 0.07363984 0.51800001
-0.099462181 0.07363984 0.51800001
-0.098114707 0.07363984 0.51800001
-0.096767232 0.07363984 0.51800001
-0.095419765 0.07363984 0.51800001
-0.093890682 0.073497675 0.51700002
-0.092545807 0.073497675 0.51700002
-0.091200933 0.073497675 0.51700002
-0.089856066 0.073497675 0.51700002
-0.088682391 0.07363984 0.51800001
-0.087334916 0.07363984 0.51800001
-0.085987441 0.07363984 0.51800001
-0.084803365 0.073782004 0.51900005
-0.083453298 0.073782004 0.51900005
-0.082103215 0.073782004 0.51900005
-0.08075314 0.073782004 0.51900005
-0.079403073 0.073782004 0.51900005
-0.07820338 0.073924169 0.52000004
-0.076850705 0.073924169 0.52000004
-0.075643212 0.074066326 0.52100003
-0.074287936 0.074066326 0.52100003
-0.072932653 0.074066326 0.52100003
-0.071714759 0.074208483 0.52200001
-0.070356883 0.074208483 0.52200001
-0.068999 0.074208483 0.52200001
-0.067641124 0.074208483 0.52200001
-0.066410214 0.074350648 0.523
-0.065049738 0.074350648 0.523
-0.063689254 0.074350648 0.523
-0.062328774 0.074350648 0.523
-0.060968295 0.074350648 0.523
-0.059607815 0.074350648 0.523
-0.058135964 0.074208483 0.52200001
-0.056778084 0.074208483 0.52200001
-0.055420205 0.074208483 0.52200001
-0.054062326 0.074208483 0.52200001
-0.052603479 0.074066326 0.52100003
-0.051248204 0.074066326 0.52100003
-0.049797162 0.073924169 0.52000004
-0.048444483 0.073924169 0.52000004
-0.047091808 0.073924169 0.52000004
-0.045651171 0.073782004 0.51900005
-0.044301093 0.073782004 0.51900005
-0.042951018 0.073782004 0.51900005
-0.041600943 0.073782004 0.51900005
-0.040250868 0.073782004 0.51900005
-0.038900793 0.073782004 0.51900005
-0.037550714 0.073782004 0.51900005
-0.036200639 0.073782004 0.51900005
-0.03485056 0.073782004 0.51900005
-0.033500489 0.073782004 0.51900005
-0.032150414 0.073782004 0.51900005
-0.030800337 0.073782004 0.51900005
-0.029507004 0.073924169 0.52000004
-0.028154325 0.073924169 0.52000004
-0.026801649 0.073924169 0.52000004
-0.025448972 0.073924169 0.52000004
-0.024096293 0.073924169 0.52000004
-0.022743618 0.073924169 0.52000004
-0.021390941 0.073924169 0.52000004
-0.020038264 0.073924169 0.52000004
-0.018685587 0.073924169 0.52000004
-0.017366242 0.074066326 0.52100003
-0.016010964 0.074066326 0.52100003
-0.014655684 0.074066326 0.52100003
-0.013300407 0.074066326 0.52100003
-0.011945128 0.074066326 0.52100003
-0.010589849 0.074066326 0.52100003
-0.0092345709 0.074066326 0.52100003
-0.0078792926 0.074066326 0.52100003
-0.0065365359 0.074208483 0.52200001
-0.0051786569 0.074208483 0.52200001
-0.0038134577 0.074066326 0.52100003
-0.0024628972 0.074208483 0.52200001
-0.0011050176 0.074208483 0.52200001
0.000252862 0.074208483 0.52200001
0.0016107417 0.074208483 0.52200001
0.0029686212 0.074208483 0.52200001
0.0043265009 0.074208483 0.52200001
0.0056843804 0.074208483 0.52200001
0.0070422604 0.074208483 0.52200001
0.0084001403 0.074208483 0.52200001
0.0097580198 0.074208483 0.52200001
0.011115899 0.074208483 0.52200001
0.015189539 0.074208483 0.52200001
0.022894556 0.061982568 0.43600002
0.024028724 0.061982568 0.43600002
0.02510518 0.061840408 0.43500003
0.02617643 0.061698243 0.43400002
0.027242484 0.061556082 0.43300003
0.028368844 0.061556082 0.43300003
0.029427089 0.061413918 0.43200001
0.030550852 0.061413918 0.43200001
0.031601295 0.061271761 0.43100002
0.032646533 0.061129596 0.43000001
0.033686571 0.060987435 0.42900002
0.034721404 0.060845274 0.42800003
0.035667308 0.060560949 0.42600003
0.036775462 0.060560949 0.42600003
0.03770576 0.060276628 0.42400002
0.038717184 0.060134463 0.42300001
0.039723404 0.059992302 0.42200002
0.040724419 0.059850141 0.42100003
0.041720234 0.059707977 0.42000002
0.042710844 0.059565816 0.41900003
0.043696254 0.059423655 0.41800001
0.0447836 0.059423655 0.41800001
0.045761205 0.059281494 0.41700003
0.046733607 0.05913933 0.41600001
0.047815744 0.05913933 0.41600001
0.048780344 0.058997169 0.41500002
0.049739745 0.058855008 0.41400003
0.050693937 0.058712844 0.41300002
0.051768273 0.058712844 0.41300002
0.052842613 0.058712844 0.41300002
0.053786401 0.058570687 0.41200003
0.054858141 0.058570687 0.41200003
0.05579412 0.058428522 0.41100001
0.056863252 0.058428522 0.41100001
0.057791438 0.058286361 0.41000003
0.05885797 0.058286361 0.41000003
0.059924506 0.058286361 0.41000003
0.060842276 0.058144197 0.40900001
0.061906215 0.058144197 0.40900001
0.062970147 0.058144197 0.40900001
0.063877515 0.058002036 0.40800002
0.064938851 0.058002036 0.40800002
0.065838411 0.057859872 0.40700001
0.066897139 0.057859872 0.40700001
0.067788906 0.057717711 0.40600002
0.068675466 0.057575554 0.40500003
0.069384649 0.057291228 0.40300003
0.0702582 0.057149064 0.40200001
0.0719897 0.056864738 0.40000001
0.072847649 0.056722578 0.39900002
0.073885567 0.056722578 0.39900002
0.074735709 0.056580421 0.39800003
0.075771026 0.056580421 0.39800003
0.076806344 0.056580421 0.39800003
0.11055195 0.075345784 0.53000003
0.11330933 0.075345784 0.53000003
0.11468802 0.075345784 0.53000003
0.1160667 0.075345784 0.53000003
0.1174454 0.075345784 0.53000003
0.11882409 0.075345784 0.53000003
0.12020278 0.075345784 0.53000003
0.12158147 0.075345784 0.53000003
0.12296017 0.075345784 0.53000003
0.12433885 0.075345784 0.53000003
0.12571754 0.075345784 0.53000003
0.12733603 0.075487942 0.53100002
0.12871732 0.075487942 0.53100002
0.13009861 0.075487942 0.53100002
0.1317275 0.075630106 0.53200001
0.1331114 0.075630106 0.53200001
0.13449529 0.075630106 0.53200001
0.13587919 0.075630106 0.53200001
0.13726307 0.075630106 0.53200001
0.13864698 0.075630106 0.53200001
0.14003086 0.075630106 0.53200001
0.14141476 0.075630106 0.53200001
0.14279865 0.075630106 0.53200001
0.14418255 0.075630106 0.53200001
0.14556643 0.075630106 0.53200001
0.14695032 0.075630106 0.53200001
0.14833423 0.075630106 0.53200001
0.14971812 0.075630106 0.53200001
0.15110201 0.075630106 0.53200001
0.15248589 0.075630106 0.53200001
0.15386978 0.075630106 0.53200001
0.15525369 0.075630106 0.53200001
0.15663758 0.075630106 0.53200001
0.15802146 0.075630106 0.53200001
0.15940535 0.075630106 0.53200001
0.16078925 0.075630106 0.53200001
0.16217315 0.075630106 0.53200001
0.16355704 0.075630106 0.53200001
0.16494094 0.075630106 0.53200001
0.16632482 0.075630106 0.53200001
0.16770872 0.075630106 0.53200001
0.16941047 0.075772271 0.53300005
0.17079696 0.075772271 0.53300005
0.17218345 0.075772271 0.53300005
0.17356995 0.075772271 0.53300005
0.17495646 0.075772271 0.53300005
0.17634295 0.075772271 0.53300005
0.17772943 0.075772271 0.53300005
0.17911592 0.075772271 0.53300005
0.18050241 0.075772271 0.53300005
0.18188892 0.075772271 0.53300005
0.18327542 0.075772271 0.53300005
0.18466191 0.075772271 0.53300005
0.18604839 0.075772271 0.53300005
0.18743488 0.075772271 0.53300005
0.18882139 0.075772271 0.53300005
0.19020788 0.075772271 0.53300005
0.19159438 0.075772271 0.53300005
0.19298087 0.075772271 0.53300005
0.19400269 0.075630106 0.53200001
0.19538657 0.075630106 0.53200001
0.19714035 0.075772271 0.53300005
0.19815436 0.075630106 0.53200001
0.19991334 0.075772271 0.53300005
0.20129985 0.075772271 0.53300005
0.20268632 0.075772271 0.53300005
0.20445569 0.075914435 0.53400004
0.20584479 0.075914435 0.53400004
0.20723388 0.075914435 0.53400004
0.20862298 0.075914435 0.53400004
0.21001208 0.075914435 0.53400004
0.21140116 0.075914435 0.53400004
0.21318874 0.076056592 0.53500003
0.21458043 0.076056592 0.53500003
0.21597214 0.076056592 0.53500003
0.21736383 0.076056592 0.53500003
0.21834664 0.075914435 0.53400004
0.21973574 0.075914435 0.53400004
0.22112483 0.075914435 0.53400004
0.22251393 0.075914435 0.53400004
0.22390303 0.075914435 0.53400004
0.22529212 0.075914435 0.53400004
0.22668122 0.075914435 0.53400004
0.22807032 0.075914435 0.53400004
0.2294594 0.075914435 0.53400004
0.23084851 0.075914435 0.53400004
0.23223759 0.075914435 0.53400004
0.23406419 0.076056592 0.53500003
0.2354559 0.076056592 0.53500003
0.23729029 0.076198749 0.53600001
0.23868458 0.076198749 0.53600001
0.24007888 0.076198749 0.53600001
0.24192367 0.076340914 0.537
0.24332058 0.076340914 0.537
0.24471748 0.076340914 0.537
0.24611437 0.076340914 0.537
0.24751127 0.076340914 0.537
0.24890818 0.076340914 0.537
0.25030509 0.076340914 0.537
0.25123328 0.076198749 0.53600001
0.25262755 0.076198749 0.53600001
0.25402185 0.076198749 0.53600001
0.25541615 0.076198749 0.53600001
0.25681046 0.076198749 0.53600001
0.25820476 0.076198749 0.53600001
0.25959906 0.076198749 0.53600001
-0.28177881 0.073684447 0.509
-0.27990374 0.073539689 0.50800002
-0.2785823 0.073539689 0.50800002
-0.27726081 0.073539689 0.50800002
-0.27648252 0.073684447 0.509
-0.27515849 0.073684447 0.509
-0.27383441 0.073684447 0.509
-0.27251038 0.073684447 0.509
-0.27118629 0.073684447 0.509
-0.2698622 0.073684447 0.509
-0.26853818 0.073684447 0.509
-0.26721409 0.073684447 0.509
-0.26589006 0.073684447 0.509
-0.26508579 0.073829219 0.51000005
-0.26375911 0.073829219 0.51000005
-0.26243246 0.073829219 0.51000005
-0.26110578 0.073829219 0.51000005
-0.25977913 0.073829219 0.51000005
-0.25794566 0.073684447 0.509
-0.2566216 0.073684447 0.509
-0.25529754 0.073684447 0.509
-0.2534745 0.073539689 0.50800002
-0.25215307 0.073539689 0.50800002
-0.25033784 0.073394924 0.50700003
-0.24901898 0.073394924 0.50700003
-0.24770011 0.073394924 0.50700003
-0.24638125 0.073394924 0.50700003
-0.2450624 0.073394924 0.50700003
-0.24374354 0.073394924 0.50700003
-0.24242468 0.073394924 0.50700003
-0.24158137 0.073539689 0.50800002
-0.2402599 0.073539689 0.50800002
-0.23940879 0.073684447 0.509
-0.2385525 0.073829219 0.51000005
-0.23722583 0.073829219 0.51000005
-0.23589917 0.073829219 0.51000005
-0.23503244 0.073973976 0.51100004
-0.23370318 0.073973976 0.51100004
-0.23282866 0.074118741 0.51200002
-0.23149678 0.074118741 0.51200002
-0.23016492 0.074118741 0.51200002
-0.22883305 0.074118741 0.51200002
-0.22750118 0.074118741 0.51200002
-0.22661105 0.074263498 0.51300001
-0.22527657 0.074263498 0.51300001
-0.22394212 0.074263498 0.51300001
-0.22260764 0.074263498 0.51300001
-0.22127318 0.074263498 0.51300001
-0.21993871 0.074263498 0.51300001
-0.21860424 0.074263498 0.51300001
-0.21726976 0.074263498 0.51300001
-0.21635623 0.074408263 0.514
-0.21501917 0.074408263 0.514
-0.2136821 0.074408263 0.514
-0.21234502 0.074408263 0.514
-0.21141849 0.074553035 0.51500005
-0.21007882 0.074553035 0.51500005
-0.20873915 0.074553035 0.51500005
-0.20739947 0.074553035 0.51500005
-0.2060598 0.074553035 0.51500005
-0.20472014 0.074553035 0.51500005
-0.20338047 0.074553035 0.51500005
-0.20204081 0.074553035 0.51500005
-0.20070112 0.074553035 0.51500005
-0.19936144 0.074553035 0.51500005
-0.19802178 0.074553035 0.51500005
-0.19668211 0.074553035 0.51500005
-0.19534245 0.074553035 0.51500005
-0.19400276 0.074553035 0.51500005
-0.1926631 0.074553035 0.51500005
-0.19132343 0.074553035 0.51500005
-0.18998377 0.074553035 0.51500005
-0.1886441 0.074553035 0.51500005
-0.18730441 0.074553035 0.51500005
-0.18596475 0.074553035 0.51500005
-0.18462507 0.074553035 0.51500005
-0.18328542 0.074553035 0.51500005
-0.18194573 0.074553035 0.51500005
-0.18060607 0.074553035 0.51500005
-0.17926639 0.074553035 0.51500005
-0.17792672 0.074553035 0.51500005
-0.17692994 0.074697793 0.51600003
-0.17558765 0.074697793 0.51600003
-0.17424539 0.074697793 0.51600003
-0.17290312 0.074697793 0.51600003
-0.17156085 0.074697793 0.51600003
-0.17021859 0.074697793 0.51600003
-0.16887631 0.074697793 0.51600003
-0.16753402 0.074697793 0.51600003
-0.16619176 0.074697793 0.51600003
-0.16484949 0.074697793 0.51600003
-0.16350722 0.074697793 0.51600003
-0.16185068 0.074553035 0.51500005
-0.160511 0.074553035 0.51500005
-0.15917134 0.074553035 0.51500005
-0.15752518 0.074408263 0.514
-0.1561881 0.074408263 0.514
-0.15485103 0.074408263 0.514
-0.1532153 0.074263498 0.51300001
-0.1521769 0.074408263 0.514
-0.15083984 0.074408263 0.514
-0.1492119 0.074263498 0.51300001
-0.14787744 0.074263498 0.51300001
-0.14654297 0.074263498 0.51300001
-0.14520851 0.074263498 0.51300001
-0.14387403 0.074263498 0.51300001
-0.14281741 0.074408263 0.514
-0.14148034 0.074408263 0.514
-0.14014328 0.074408263 0.514
-0.13880621 0.074408263 0.514
-0.13746914 0.074408263 0.514
-0.13613206 0.074408263 0.514
-0.134795 0.074408263 0.514
-0.1337176 0.074553035 0.51500005
-0.13237792 0.074553035 0.51500005
-0.13103825 0.074553035 0.51500005
-0.12995042 0.074697793 0.51600003
-0.12860815 0.074697793 0.51600003
-0.12726587 0.074697793 0.51600003
-0.12616764 0.074842557 0.51700002
-0.12482277 0.074842557 0.51700002
-0.12371672 0.074987315 0.51800001
-0.12236925 0.074987315 0.51800001
-0.12102178 0.074987315 0.51800001
-0.11990534 0.075132087 0.51900005
-0.11855527 0.075132087 0.51900005
-0.11720519 0.075132087 0.51900005
-0.11585511 0.075132087 0.51900005
-0.11450505 0.075132087 0.51900005
-0.11315496 0.075132087 0.51900005
-0.11180489 0.075132087 0.51900005
-0.11045481 0.075132087 0.51900005
-0.10910474 0.075132087 0.51900005
-0.10775466 0.075132087 0.51900005
-0.10640459 0.075132087 0.51900005
-0.10505451 0.075132087 0.51900005
-0.10350461 0.074987315 0.51800001
-0.10215714 0.074987315 0.51800001
-0.10080966 0.074987315 0.51800001
-0.099462181 0.074987315 0.51800001
-0.098114707 0.074987315 0.51800001
-0.096767232 0.074987315 0.51800001
-0.095419765 0.074987315 0.51800001
-0.094072282 0.074987315 0.51800001
-0.092724815 0.074987315 0.51800001
-0.091377333 0.074987315 0.51800001
-0.090029866 0.074987315 0.51800001
-0.088682391 0.074987315 0.51800001
-0.087334916 0.074987315 0.51800001
-0.086153448 0.075132087 0.51900005
-0.084803365 0.075132087 0.51900005
-0.083453298 0.075132087 0.51900005
-0.082103215 0.075132087 0.51900005
-0.08075314 0.075132087 0.51900005
-0.079556063 0.075276844 0.52000004
-0.07820338 0.075276844 0.52000004
-0.076998495 0.075421609 0.52100003
-0.075643212 0.075421609 0.52100003
-0.074287936 0.075421609 0.52100003
-0.073072635 0.075566366 0.52200001
-0.071714759 0.075566366 0.52200001
-0.070356883 0.075566366 0.52200001
-0.069131181 0.075711131 0.523
-0.067770705 0.075711131 0.523
-0.066410214 0.075711131 0.523
-0.065049738 0.075711131 0.523
-0.063689254 0.075711131 0.523
-0.062328774 0.075711131 0.523
-0.060968295 0.075711131 0.523
-0.059493843 0.075566366 0.52200001
-0.058135964 0.075566366 0.52200001
-0.056778084 0.075566366 0.52200001
-0.055420205 0.075566366 0.52200001
-0.053958759 0.075421609 0.52100003
-0.052603479 0.075421609 0.52100003
-0.051248204 0.075421609 0.52100003
-0.049797162 0.075276844 0.52000004
-0.048444483 0.075276844 0.52000004
-0.047091808 0.075276844 0.52000004
-0.045651171 0.075132087 0.51900005
-0.044301093 0.075132087 0.51900005
-0.042951018 0.075132087 0.51900005
-0.041600943 0.075132087 0.51900005
-0.040250868 0.075132087 0.51900005
-0.038900793 0.075132087 0.51900005
-0.037550714 0.075132087 0.51900005
-0.036200639 0.075132087 0.51900005
-0.03485056 0.075132087 0.51900005
-0.033500489 0.075132087 0.51900005
-0.032212358 0.075276844 0.52000004
-0.030859681 0.075276844 0.52000004
-0.029507004 0.075276844 0.52000004
-0.028154325 0.075276844 0.52000004
-0.026801649 0.075276844 0.52000004
-0.025448972 0.075276844 0.52000004
-0.024096293 0.075276844 0.52000004
-0.022743618 0.075276844 0.52000004
-0.021390941 0.075276844 0.52000004
-0.020038264 0.075276844 0.52000004
-0.018721521 0.075421609 0.52100003
-0.017366242 0.075421609 0.52100003
-0.016010964 0.075421609 0.52100003
-0.014655684 0.075421609 0.52100003
-0.013300407 0.075421609 0.52100003
-0.011945128 0.075421609 0.52100003
-0.010589849 0.075421609 0.52100003
-0.0092345709 0.075421609 0.52100003
-0.0078944163 0.075566366 0.52200001
-0.0065365359 0.075566366 0.52200001
-0.0051786569 0.075566366 0.52200001
-0.0038207769 0.075566366 0.52200001
-0.0024628972 0.075566366 0.52200001
-0.0011050176 0.075566366 0.52200001
0.000252862 0.075566366 0.52200001
0.0016107417 0.075566366 0.52200001
0.0029686212 0.075566366 0.52200001
0.0043265009 0.075566366 0.52200001
0.0056843804 0.075566366 0.52200001
0.0070422604 0.075566366 0.52200001
0.0084001403 0.075566366 0.52200001
0.0097580198 0.075566366 0.52200001
0.011115899 0.075566366 0.52200001
0.012473779 0.075566366 0.52200001
0.013831658 0.075566366 0.52200001
0.015189539 0.075566366 0.52200001
0.016547417 0.075566366 0.52200001
0.0239185 0.062827215 0.43400002
0.024989754 0.06268245 0.43300003
0.026116116 0.06268245 0.43300003
0.027179565 0.062537685 0.43200001
0.028303325 0.062537685 0.43200001
0.029427089 0.062537685 0.43200001
0.030480133 0.062392924 0.43100002
0.031527974 0.062248159 0.43000001
0.032570612 0.062103398 0.42900002
0.033608049 0.061958637 0.42800003
0.034640279 0.061813869 0.42700002
0.035667308 0.061669108 0.42600003
0.036689136 0.061524343 0.42500001
0.03770576 0.061379582 0.42400002
0.038717184 0.061234817 0.42300001
0.039723404 0.061090056 0.42200002
0.040724419 0.060945295 0.42100003
0.041720234 0.06080053 0.42000002
0.042710844 0.060655765 0.41900003
0.043696254 0.060511 0.41800001
0.0447836 0.060511 0.41800001
0.045761205 0.060366239 0.41700003
0.046733607 0.060221475 0.41600001
0.047700804 0.060076714 0.41500002
0.048780344 0.060076714 0.41500002
0.049739745 0.059931953 0.41400003
0.050693937 0.059787188 0.41300002
0.051768273 0.059787188 0.41300002
0.052842613 0.059787188 0.41300002
0.053786401 0.059642427 0.41200003
0.054858141 0.059642427 0.41200003
0.05579412 0.059497658 0.41100001
0.056863252 0.059497658 0.41100001
0.057932392 0.059497658 0.41100001
0.059001524 0.059497658 0.41100001
0.059924506 0.059352897 0.41000003
0.060991038 0.059352897 0.41000003
0.061906215 0.059208132 0.40900001
0.062970147 0.059208132 0.40900001
0.064034075 0.059208132 0.40900001
0.064938851 0.059063371 0.40800002
0.0702582 0.05819479 0.40200001
0.10917325 0.076724477 0.53000003
0.11055195 0.076724477 0.53000003
0.11193064 0.076724477 0.53000003
0.11330933 0.076724477 0.53000003
0.11468802 0.076724477 0.53000003
0.1160667 0.076724477 0.53000003
0.1174454 0.076724477 0.53000003
0.11882409 0.076724477 0.53000003
0.12020278 0.076724477 0.53000003
0.12158147 0.076724477 0.53000003
0.12296017 0.076724477 0.53000003
0.12433885 0.076724477 0.53000003
0.12595473 0.076869242 0.53100002
0.12733603 0.076869242 0.53100002
0.12895972 0.077013999 0.53200001
0.13034362 0.077013999 0.53200001
0.1317275 0.077013999 0.53200001
0.1331114 0.077013999 0.53200001
0.13449529 0.077013999 0.53200001
0.13587919 0.077013999 0.53200001
0.13726307 0.077013999 0.53200001
0.13864698 0.077013999 0.53200001
0.14003086 0.077013999 0.53200001
0.14141476 0.077013999 0.53200001
0.14279865 0.077013999 0.53200001
0.14418255 0.077013999 0.53200001
0.14556643 0.077013999 0.53200001
0.14695032 0.077013999 0.53200001
0.14833423 0.077013999 0.53200001
0.14971812 0.077013999 0.53200001
0.15110201 0.077013999 0.53200001
0.15248589 0.077013999 0.53200001
0.15386978 0.077013999 0.53200001
0.15525369 0.077013999 0.53200001
0.15663758 0.077013999 0.53200001
0.15802146 0.077013999 0.53200001
0.15940535 0.077013999 0.53200001
0.16078925 0.077013999 0.53200001
0.16217315 0.077013999 0.53200001
0.16355704 0.077013999 0.53200001
0.16494094 0.077013999 0.53200001
0.16663748 0.077158771 0.53300005
0.16802399 0.077158771 0.53300005
0.16941047 0.077158771 0.53300005
0.17079696 0.077158771 0.53300005
0.17218345 0.077158771 0.53300005
0.17356995 0.077158771 0.53300005
0.17495646 0.077158771 0.53300005
0.17634295 0.077158771 0.53300005
0.17772943 0.077158771 0.53300005
0.17911592 0.077158771 0.53300005
0.18050241 0.077158771 0.53300005
0.18188892 0.077158771 0.53300005
0.18327542 0.077158771 0.53300005
0.18466191 0.077158771 0.53300005
0.18604839 0.077158771 0.53300005
0.18743488 0.077158771 0.53300005
0.18882139 0.077158771 0.53300005
0.19020788 0.077158771 0.53300005
0.19159438 0.077158771 0.53300005
0.19298087 0.077158771 0.53300005
0.19400269 0.077013999 0.53200001
0.19538657 0.077013999 0.53200001
0.19677046 0.077013999 0.53200001
0.19815436 0.077013999 0.53200001
0.19991334 0.077158771 0.53300005
0.20129985 0.077158771 0.53300005
0.20268632 0.077158771 0.53300005
0.20445569 0.077303529 0.53400004
0.20584479 0.077303529 0.53400004
0.20723388 0.077303529 0.53400004
0.20862298 0.077303529 0.53400004
0.21001208 0.077303529 0.53400004
0.21179704 0.077448294 0.53500003
0.21318874 0.077448294 0.53500003
0.21458043 0.077448294 0.53500003
0.21597214 0.077448294 0.53500003
0.21736383 0.077448294 0.53500003
0.21875553 0.077448294 0.53500003
0.22014722 0.077448294 0.53500003
0.22153892 0.077448294 0.53500003
0.22293063 0.077448294 0.53500003
0.22432232 0.077448294 0.53500003
0.22529212 0.077303529 0.53400004
0.22668122 0.077303529 0.53400004
0.22807032 0.077303529 0.53400004
0.22988911 0.077448294 0.53500003
0.2312808 0.077448294 0.53500003
0.2326725 0.077448294 0.53500003
0.23406419 0.077448294 0.53500003
0.23589599 0.077593051 0.53600001
0.23729029 0.077593051 0.53600001
0.23912989 0.077737816 0.537
0.24052678 0.077737816 0.537
0.24192367 0.077737816 0.537
0.24332058 0.077737816 0.537
0.24471748 0.077737816 0.537
0.24611437 0.077737816 0.537
0.24751127 0.077737816 0.537
0.24890818 0.077737816 0.537
0.25030509 0.077737816 0.537
0.25170198 0.077737816 0.537
0.25309888 0.077737816 0.537
0.25449577 0.077737816 0.537
0.25589269 0.077737816 0.537
0.25728959 0.077737816 0.537
0.25820476 0.077593051 0.53600001
0.25959906 0.077593051 0.53600001
-0.28177881 0.075008504 0.509
-0.27990374 0.074861147 0.50800002
-0.2785823 0.074861147 0.50800002
-0.27780661 0.075008504 0.509
-0.27648252 0.075008504 0.509
-0.27515849 0.075008504 0.509
-0.27383441 0.075008504 0.509
-0.27251038 0.075008504 0.509
-0.27118629 0.075008504 0.509
-0.2698622 0.075008504 0.509
-0.26906577 0.075155877 0.51000005
-0.26773909 0.075155877 0.51000005
-0.26641247 0.075155877 0.51000005
-0.26508579 0.075155877 0.51000005
-0.26375911 0.075155877 0.51000005
-0.26243246 0.075155877 0.51000005
-0.26110578 0.075155877 0.51000005
-0.25977913 0.075155877 0.51000005
-0.25794566 0.075008504 0.509
-0.2566216 0.075008504 0.509
-0.25529754 0.075008504 0.509
-0.2534745 0.074861147 0.50800002
-0.25215307 0.074861147 0.50800002
-0.25033784 0.074713781 0.50700003
-0.24901898 0.074713781 0.50700003
-0.24770011 0.074713781 0.50700003
-0.24638125 0.074713781 0.50700003
-0.2450624 0.074713781 0.50700003
-0.24374354 0.074713781 0.50700003
-0.24242468 0.074713781 0.50700003
-0.24158137 0.074861147 0.50800002
-0.2402599 0.074861147 0.50800002
-0.23940879 0.075008504 0.509
-0.2385525 0.075155877 0.51000005
-0.23722583 0.075155877 0.51000005
-0.23589917 0.075155877 0.51000005
-0.23503244 0.075303242 0.51100004
-0.23370318 0.075303242 0.51100004
-0.23282866 0.075450607 0.51200002
-0.23149678 0.075450607 0.51200002
-0.23016492 0.075450607 0.51200002
-0.22927998 0.075597964 0.51300001
-0.22794552 0.075597964 0.51300001
-0.22661105 0.075597964 0.51300001
-0.22527657 0.075597964 0.51300001
-0.22394212 0.075597964 0.51300001
-0.22304156 0.075745329 0.514
-0.22170451 0.075745329 0.514
-0.22036745 0.075745329 0.514
-0.21903037 0.075745329 0.514
-0.2176933 0.075745329 0.514
-0.21635623 0.075745329 0.514
-0.21501917 0.075745329 0.514
-0.21409784 0.075892702 0.51500005
-0.21275815 0.075892702 0.51500005
-0.21141849 0.075892702 0.51500005
-0.21007882 0.075892702 0.51500005
-0.20873915 0.075892702 0.51500005
-0.20780218 0.076040059 0.51600003
-0.20645991 0.076040059 0.51600003
-0.20511764 0.076040059 0.51600003
-0.20377538 0.076040059 0.51600003
-0.20243311 0.076040059 0.51600003
-0.20109083 0.076040059 0.51600003
-0.19974856 0.076040059 0.51600003
-0.19802178 0.075892702 0.51500005
-0.19668211 0.075892702 0.51500005
-0.19534245 0.075892702 0.51500005
-0.19400276 0.075892702 0.51500005
-0.1926631 0.075892702 0.51500005
-0.19132343 0.075892702 0.51500005
-0.18998377 0.075892702 0.51500005
-0.1886441 0.075892702 0.51500005
-0.18730441 0.075892702 0.51500005
-0.18596475 0.075892702 0.51500005
-0.18462507 0.075892702 0.51500005
-0.18328542 0.075892702 0.51500005
-0.18194573 0.075892702 0.51500005
-0.18060607 0.075892702 0.51500005
-0.17926639 0.075892702 0.51500005
-0.1782722 0.076040059 0.51600003
-0.17692994 0.076040059 0.51600003
-0.17558765 0.076040059 0.51600003
-0.17424539 0.076040059 0.51600003
-0.17290312 0.076040059 0.51600003
-0.17156085 0.076040059 0.51600003
-0.17021859 0.076040059 0.51600003
-0.16887631 0.076040059 0.51600003
-0.16753402 0.076040059 0.51600003
-0.16619176 0.076040059 0.51600003
-0.16484949 0.076040059 0.51600003
-0.16350722 0.076040059 0.51600003
-0.16185068 0.075892702 0.51500005
-0.160511 0.075892702 0.51500005
-0.15917134 0.075892702 0.51500005
-0.15752518 0.075745329 0.514
-0.1561881 0.075745329 0.514
-0.15485103 0.075745329 0.514
-0.1532153 0.075597964 0.51300001
-0.15188085 0.075597964 0.51300001
-0.15054639 0.075597964 0.51300001
-0.1492119 0.075597964 0.51300001
-0.14787744 0.075597964 0.51300001
-0.14654297 0.075597964 0.51300001
-0.14520851 0.075597964 0.51300001
-0.14387403 0.075597964 0.51300001
-0.14253956 0.075597964 0.51300001
-0.14148034 0.075745329 0.514
-0.14014328 0.075745329 0.514
-0.13880621 0.075745329 0.514
-0.13746914 0.075745329 0.514
-0.13613206 0.075745329 0.514
-0.13505726 0.075892702 0.51500005
-0.1337176 0.075892702 0.51500005
-0.13237792 0.075892702 0.51500005
-0.13129269 0.076040059 0.51600003
-0.12995042 0.076040059 0.51600003
-0.12860815 0.076040059 0.51600003
-0.12726587 0.076040059 0.51600003
-0.12616764 0.076187424 0.51700002
-0.12482277 0.076187424 0.51700002
-0.12371672 0.076334789 0.51800001
-0.12236925 0.076334789 0.51800001
-0.12102178 0.076334789 0.51800001
-0.11990534 0.076482162 0.51900005
-0.11855527 0.076482162 0.51900005
-0.11720519 0.076482162 0.51900005
-0.11585511 0.076482162 0.51900005
-0.11450505 0.076482162 0.51900005
-0.11315496 0.076482162 0.51900005
-0.11180489 0.076482162 0.51900005
-0.11045481 0.076482162 0.51900005
-0.10910474 0.076482162 0.51900005
-0.10775466 0.076482162 0.51900005
-0.10619956 0.076334789 0.51800001
-0.10485209 0.076334789 0.51800001
-0.10350461 0.076334789 0.51800001
-0.10215714 0.076334789 0.51800001
-0.10080966 0.076334789 0.51800001
-0.099462181 0.076334789 0.51800001
-0.098114707 0.076334789 0.51800001
-0.096767232 0.076334789 0.51800001
-0.095419765 0.076334789 0.51800001
-0.094072282 0.076334789 0.51800001
-0.092724815 0.076334789 0.51800001
-0.091377333 0.076334789 0.51800001
-0.090029866 0.076334789 0.51800001
-0.088853605 0.076482162 0.51900005
-0.087503523 0.076482162 0.51900005
-0.086153448 0.076482162 0.51900005
-0.084803365 0.076482162 0.51900005
-0.083453298 0.076482162 0.51900005
-0.082103215 0.076482162 0.51900005
-0.080908738 0.076629519 0.52000004
-0.079556063 0.076629519 0.52000004
-0.07820338 0.076629519 0.52000004
-0.076998495 0.076776884 0.52100003
-0.075643212 0.076776884 0.52100003
-0.074430518 0.07692425 0.52200001
-0.073072635 0.07692425 0.52200001
-0.071714759 0.07692425 0.52200001
-0.070356883 0.07692425 0.52200001
-0.068999 0.07692425 0.52200001
-0.067770705 0.077071607 0.523
-0.066410214 0.077071607 0.523
-0.065049738 0.077071607 0.523
-0.063689254 0.077071607 0.523
-0.062328774 0.077071607 0.523
-0.060968295 0.077071607 0.523
-0.059493843 0.07692425 0.52200001
-0.058135964 0.07692425 0.52200001
-0.056778084 0.07692425 0.52200001
-0.055314038 0.076776884 0.52100003
-0.053958759 0.076776884 0.52100003
-0.052603479 0.076776884 0.52100003
-0.051149841 0.076629519 0.52000004
-0.049797162 0.076629519 0.52000004
-0.048444483 0.076629519 0.52000004
-0.047001246 0.076482162 0.51900005
-0.045651171 0.076482162 0.51900005
-0.044301093 0.076482162 0.51900005
-0.042951018 0.076482162 0.51900005
-0.041600943 0.076482162 0.51900005
-0.040250868 0.076482162 0.51900005
-0.038900793 0.076482162 0.51900005
-0.037550714 0.076482162 0.51900005
-0.036200639 0.076482162 0.51900005
-0.03485056 0.076482162 0.51900005
-0.033565037 0.076629519 0.52000004
-0.032212358 0.076629519 0.52000004
-0.030859681 0.076629519 0.52000004
-0.029507004 0.076629519 0.52000004
-0.028154325 0.076629519 0.52000004
-0.026801649 0.076629519 0.52000004
-0.025448972 0.076629519 0.52000004
-0.024096293 0.076629519 0.52000004
-0.022743618 0.076629519 0.52000004
-0.021390941 0.076629519 0.52000004
-0.020038264 0.076629519 0.52000004
-0.018721521 0.076776884 0.52100003
-0.017366242 0.076776884 0.52100003
-0.016010964 0.076776884 0.52100003
-0.014655684 0.076776884 0.52100003
-0.013300407 0.076776884 0.52100003
-0.011945128 0.076776884 0.52100003
-0.010589849 0.076776884 0.52100003
-0.0092345709 0.076776884 0.52100003
-0.0078944163 0.07692425 0.52200001
-0.0065365359 0.07692425 0.52200001
-0.0051786569 0.07692425 0.52200001
-0.0038207769 0.07692425 0.52200001
-0.0024628972 0.07692425 0.52200001
-0.0011050176 0.07692425 0.52200001
0.000252862 0.07692425 0.52200001
0.0016107417 0.07692425 0.52200001
0.0029686212 0.07692425 0.52200001
0.0043265009 0.07692425 0.52200001
0.0056843804 0.07692425 0.52200001
0.0070422604 0.07692425 0.52200001
0.0084001403 0.07692425 0.52200001
0.0097580198 0.07692425 0.52200001
0.011115899 0.07692425 0.52200001
0.012473779 0.07692425 0.52200001
0.013831658 0.07692425 0.52200001
0.015189539 0.07692425 0.52200001
0.016547417 0.07692425 0.52200001
0.017905299 0.07692425 0.52200001
0.019300079 0.077071607 0.523
0.020660561 0.077071607 0.523
0.022021042 0.077071607 0.523
0.023381522 0.077071607 0.523
0.024742004 0.077071607 0.523
0.0447836 0.061598342 0.41800001
0.045761205 0.061450981 0.41700003
0.046733607 0.061303612 0.41600001
0.047700804 0.061156251 0.41500002
0.053786401 0.060714159 0.41200003
0.10090112 0.078103162 0.53000003
0.10208683 0.077955805 0.52900004
0.1036585 0.078103162 0.53000003
0.10503718 0.078103162 0.53000003
0.10917325 0.078103162 0.53000003
0.11055195 0.078103162 0.53000003
0.11193064 0.078103162 0.53000003
0.11330933 0.078103162 0.53000003
0.11468802 0.078103162 0.53000003
0.1160667 0.078103162 0.53000003
0.11766699 0.078250527 0.53100002
0.11882409 0.078103162 0.53000003
0.12020278 0.078103162 0.53000003
0.12158147 0.078103162 0.53000003
0.12296017 0.078103162 0.53000003
0.12433885 0.078103162 0.53000003
0.12595473 0.078250527 0.53100002
0.12733603 0.078250527 0.53100002
0.12895972 0.078397892 0.53200001
0.13034362 0.078397892 0.53200001
0.1317275 0.078397892 0.53200001
0.1331114 0.078397892 0.53200001
0.13449529 0.078397892 0.53200001
0.13587919 0.078397892 0.53200001
0.13726307 0.078397892 0.53200001
0.13864698 0.078397892 0.53200001
0.14003086 0.078397892 0.53200001
0.14141476 0.078397892 0.53200001
0.14279865 0.078397892 0.53200001
0.14418255 0.078397892 0.53200001
0.14556643 0.078397892 0.53200001
0.14695032 0.078397892 0.53200001
0.14833423 0.078397892 0.53200001
0.14971812 0.078397892 0.53200001
0.15110201 0.078397892 0.53200001
0.15248589 0.078397892 0.53200001
0.15386978 0.078397892 0.53200001
0.15525369 0.078397892 0.53200001
0.15663758 0.078397892 0.53200001
0.15802146 0.078397892 0.53200001
0.15940535 0.078397892 0.53200001
0.16078925 0.078397892 0.53200001
0.16217315 0.078397892 0.53200001
0.16355704 0.078397892 0.53200001
0.16525099 0.078545257 0.53300005
0.16663748 0.078545257 0.53300005
0.16802399 0.078545257 0.53300005
0.16941047 0.078545257 0.53300005
0.17079696 0.078545257 0.53300005
0.17218345 0.078545257 0.53300005
0.17389558 0.078692622 0.53400004
0.17495646 0.078545257 0.53300005
0.17667378 0.078692622 0.53400004
0.17772943 0.078545257 0.53300005
0.17911592 0.078545257 0.53300005
0.18084106 0.078692622 0.53400004
0.18188892 0.078545257 0.53300005
0.18327542 0.078545257 0.53300005
0.18466191 0.078545257 0.53300005
0.18604839 0.078545257 0.53300005
0.18743488 0.078545257 0.53300005
0.18882139 0.078545257 0.53300005
0.19020788 0.078545257 0.53300005
0.19159438 0.078545257 0.53300005
0.19261879 0.078397892 0.53200001
0.19400269 0.078397892 0.53200001
0.19538657 0.078397892 0.53200001
0.19677046 0.078397892 0.53200001
0.19815436 0.078397892 0.53200001
0.19991334 0.078545257 0.53300005
0.20129985 0.078545257 0.53300005
0.20268632 0.078545257 0.53300005
0.20407282 0.078545257 0.53300005
0.20584479 0.078692622 0.53400004
0.20723388 0.078692622 0.53400004
0.20862298 0.078692622 0.53400004
0.21001208 0.078692622 0.53400004
0.21179704 0.078839988 0.53500003
0.21318874 0.078839988 0.53500003
0.21458043 0.078839988 0.53500003
0.21597214 0.078839988 0.53500003
0.21736383 0.078839988 0.53500003
0.21875553 0.078839988 0.53500003
0.22014722 0.078839988 0.53500003
0.22153892 0.078839988 0.53500003
0.22293063 0.078839988 0.53500003
0.22432232 0.078839988 0.53500003
0.22571401 0.078839988 0.53500003
0.22710571 0.078839988 0.53500003
0.22849742 0.078839988 0.53500003
0.22988911 0.078839988 0.53500003
0.2317131 0.078987345 0.53600001
0.23310739 0.078987345 0.53600001
0.23450169 0.078987345 0.53600001
0.23589599 0.078987345 0.53600001
0.23773299 0.07913471 0.537
0.23912989 0.07913471 0.537
0.24052678 0.07913471 0.537
0.24237421 0.079282083 0.53800005
0.24377371 0.079282083 0.53800005
0.24517322 0.079282083 0.53800005
0.24657272 0.079282083 0.53800005
0.24797221 0.079282083 0.53800005
0.24937171 0.079282083 0.53800005
0.25077122 0.079282083 0.53800005
0.25217071 0.079282083 0.53800005
0.25357023 0.079282083 0.53800005
0.25496972 0.079282083 0.53800005
0.25589269 0.07913471 0.537
0.25728959 0.07913471 0.537
0.25868648 0.07913471 0.537
0.26008338 0.07913471 0.537
-0.28177881 0.076332577 0.509
-0.28045473 0.076332577 0.509
-0.27913067 0.076332577 0.509
-0.27780661 0.076332577 0.509
-0.27648252 0.076332577 0.509
-0.27515849 0.076332577 0.509
-0.27383441 0.076332577 0.509
-0.27251038 0.076332577 0.509
-0.27118629 0.076332577 0.509
-0.27039242 0.076482549 0.51000005
-0.26906577 0.076482549 0.51000005
-0.26773909 0.076482549 0.51000005
-0.26641247 0.076482549 0.51000005
-0.26508579 0.076482549 0.51000005
-0.26375911 0.076482549 0.51000005
-0.26243246 0.076482549 0.51000005
-0.26110578 0.076482549 0.51000005
-0.25977913 0.076482549 0.51000005
-0.25794566 0.076332577 0.509
-0.2566216 0.076332577 0.509
-0.25529754 0.076332577 0.509
-0.2534745 0.076182611 0.50800002
-0.25215307 0.076182611 0.50800002
-0.25033784 0.076032646 0.50700003
-0.24901898 0.076032646 0.50700003
-0.24770011 0.076032646 0.50700003
-0.24638125 0.076032646 0.50700003
-0.2450624 0.076032646 0.50700003
-0.24374354 0.076032646 0.50700003
-0.24242468 0.076032646 0.50700003
-0.24158137 0.076182611 0.50800002
-0.2402599 0.076182611 0.50800002
-0.23940879 0.076332577 0.509
-0.2385525 0.076482549 0.51000005
-0.23722583 0.076482549 0.51000005
-0.23589917 0.076482549 0.51000005
-0.23503244 0.076632507 0.51100004
-0.23370318 0.076632507 0.51100004
-0.23282866 0.076782472 0.51200002
-0.23149678 0.076782472 0.51200002
-0.23016492 0.076782472 0.51200002
-0.22927998 0.076932438 0.51300001
-0.22794552 0.076932438 0.51300001
-0.22661105 0.076932438 0.51300001
-0.22527657 0.076932438 0.51300001
-0.22437863 0.077082403 0.514
-0.22304156 0.077082403 0.514
-0.22213586 0.077232376 0.51500005
-0.22079618 0.077232376 0.51500005
-0.21945651 0.077232376 0.51500005
-0.21811683 0.077232376 0.51500005
-0.21677718 0.077232376 0.51500005
-0.2154375 0.077232376 0.51500005
-0.21451356 0.077382341 0.51600003
-0.21275815 0.077232376 0.51500005
-0.21182901 0.077382341 0.51600003
-0.21048674 0.077382341 0.51600003
-0.20914447 0.077382341 0.51600003
-0.20780218 0.077382341 0.51600003
-0.20645991 0.077382341 0.51600003
-0.20511764 0.077382341 0.51600003
-0.20377538 0.077382341 0.51600003
-0.20243311 0.077382341 0.51600003
-0.20109083 0.077382341 0.51600003
-0.19974856 0.077382341 0.51600003
-0.19840628 0.077382341 0.51600003
-0.19706401 0.077382341 0.51600003
-0.19534245 0.077232376 0.51500005
-0.19400276 0.077232376 0.51500005
-0.1926631 0.077232376 0.51500005
-0.19132343 0.077232376 0.51500005
-0.18998377 0.077232376 0.51500005
-0.1886441 0.077232376 0.51500005
-0.18730441 0.077232376 0.51500005
-0.18596475 0.077232376 0.51500005
-0.18462507 0.077232376 0.51500005
-0.18328542 0.077232376 0.51500005
-0.18194573 0.077232376 0.51500005
-0.18060607 0.077232376 0.51500005
-0.17926639 0.077232376 0.51500005
-0.1782722 0.077382341 0.51600003
-0.17692994 0.077382341 0.51600003
-0.17558765 0.077382341 0.51600003
-0.17424539 0.077382341 0.51600003
-0.17290312 0.077382341 0.51600003
-0.17156085 0.077382341 0.51600003
-0.17021859 0.077382341 0.51600003
-0.16887631 0.077382341 0.51600003
-0.16753402 0.077382341 0.51600003
-0.16619176 0.077382341 0.51600003
-0.16484949 0.077382341 0.51600003
-0.16350722 0.077382341 0.51600003
-0.16185068 0.077232376 0.51500005
-0.160511 0.077232376 0.51500005
-0.15917134 0.077232376 0.51500005
-0.15752518 0.077082403 0.514
-0.1561881 0.077082403 0.514
-0.15485103 0.077082403 0.514
-0.15351397 0.077082403 0.514
-0.15188085 0.076932438 0.51300001
-0.15054639 0.076932438 0.51300001
-0.1492119 0.076932438 0.51300001
-0.14787744 0.076932438 0.51300001
-0.14654297 0.076932438 0.51300001
-0.14520851 0.076932438 0.51300001
-0.14387403 0.076932438 0.51300001
-0.14253956 0.076932438 0.51300001
-0.14148034 0.077082403 0.514
-0.14014328 0.077082403 0.514
-0.13880621 0.077082403 0.514
-0.13773662 0.077232376 0.51500005
-0.13639693 0.077232376 0.51500005
-0.13505726 0.077232376 0.51500005
-0.13397723 0.077382341 0.51600003
-0.13263497 0.077382341 0.51600003
-0.13129269 0.077382341 0.51600003
-0.12995042 0.077382341 0.51600003
-0.12860815 0.077382341 0.51600003
-0.12751251 0.077532299 0.51700002
-0.12616764 0.077532299 0.51700002
-0.12506419 0.077682264 0.51800001
-0.12371672 0.077682264 0.51800001
-0.12236925 0.077682264 0.51800001
