# .PCD v0.7 - Point Cloud Data file format
VERSION 0.7
FIELDS x y z
SIZE 4 4 4
TYPE F F F
COUNT 1 1 1
WIDTH 1353
HEIGHT 1
VIEWPOINT 0 0 0 1 0 0 0
POINTS 1353
DATA ascii
0.22444831 -0.022626273 0.53200001
0.22583221 -0.022626273 0.53200001
0.22721611 -0.022626273 0.53200001
0.2286 -0.022626273 0.53200001
0.22998388 -0.022626273 0.53200001
0.23136778 -0.022626273 0.53200001
0.23275167 -0.022626273 0.53200001
0.23413557 -0.022626273 0.53200001
0.23551947 -0.022626273 0.53200001
0.23690335 -0.022626273 0.53200001
0.23828724 -0.022626273 0.53200001
0.23967113 -0.022626273 0.53200001
0.24105504 -0.022626273 0.53200001
0.24243893 -0.022626273 0.53200001
0.24382281 -0.022626273 0.53200001
0.2452067 -0.022626273 0.53200001
0.2465906 -0.022626273 0.53200001
0.24844064 -0.022668807 0.53300005
0.24982713 -0.022668807 0.53300005
0.25121361 -0.022668807 0.53300005
0.25307402 -0.022711337 0.53400004
0.25398663 -0.022668807 0.53300005
0.25585222 -0.022711337 0.53400004
0.25724131 -0.022711337 0.53400004
0.25863039 -0.022711337 0.53400004
-0.28067163 -0.020244149 0.50700003
-0.27935275 -0.020244149 0.50700003
-0.27803391 -0.020244149 0.50700003
-0.27671504 -0.020244149 0.50700003
-0.27539617 -0.020244149 0.50700003
-0.27407733 -0.020244149 0.50700003
-0.27275845 -0.020244149 0.50700003
-0.27143961 -0.020244149 0.50700003
-0.27012074 -0.020244149 0.50700003
-0.26880187 -0.020244149 0.50700003
-0.26748303 -0.020244149 0.50700003
-0.26616415 -0.020244149 0.50700003
-0.26484531 -0.020244149 0.50700003
-0.26352644 -0.020244149 0.50700003
-0.26220757 -0.020244149 0.50700003
-0.26088873 -0.020244149 0.50700003
-0.25956985 -0.020244149 0.50700003
-0.25825101 -0.020244149 0.50700003
-0.25693214 -0.020244149 0.50700003
-0.25561327 -0.020244149 0.50700003
-0.25429443 -0.020244149 0.50700003
-0.25297555 -0.020244149 0.50700003
-0.25165671 -0.020244149 0.50700003
-0.25033784 -0.020244149 0.50700003
-0.24901898 -0.020244149 0.50700003
-0.24818866 -0.020284077 0.50800002
-0.24686721 -0.020284077 0.50800002
-0.24554574 -0.020284077 0.50800002
-0.24470504 -0.020324007 0.509
-0.24338098 -0.020324007 0.509
-0.24158137 -0.020284077 0.50800002
-0.24073285 -0.020324007 0.509
-0.23940879 -0.020324007 0.509
-0.23808473 -0.020324007 0.509
-0.23676065 -0.020324007 0.509
-0.23543659 -0.020324007 0.509
-0.23365259 -0.020284077 0.50800002
-0.2318738 -0.020244149 0.50700003
-0.23055494 -0.020244149 0.50700003
-0.22923607 -0.020244149 0.50700003
-0.22791721 -0.020244149 0.50700003
-0.22659835 -0.020244149 0.50700003
-0.22483516 -0.02020422 0.50600004
-0.22351891 -0.02020422 0.50600004
-0.22220264 -0.02020422 0.50600004
-0.22088638 -0.02020422 0.50600004
-0.21957013 -0.02020422 0.50600004
-0.21868519 -0.020244149 0.50700003
-0.21736634 -0.020244149 0.50700003
-0.21604747 -0.020244149 0.50700003
-0.21472861 -0.020244149 0.50700003
-0.21340975 -0.020244149 0.50700003
-0.21250921 -0.020284077 0.50800002
-0.21118777 -0.020284077 0.50800002
-0.20986629 -0.020284077 0.50800002
-0.20854482 -0.020284077 0.50800002
-0.20722337 -0.020284077 0.50800002
-0.20590191 -0.020284077 0.50800002
-0.20458044 -0.020284077 0.50800002
-0.20325898 -0.020284077 0.50800002
-0.20193753 -0.020284077 0.50800002
-0.20101097 -0.020324007 0.509
-0.19968691 -0.020324007 0.509
-0.19836284 -0.020324007 0.509
-0.1974259 -0.020363938 0.51000005
-0.19609924 -0.020363938 0.51000005
-0.19477259 -0.020363938 0.51000005
-0.19382522 -0.020403866 0.51100004
-0.19249594 -0.020403866 0.51100004
-0.19154078 -0.020443795 0.51200002
-0.19020891 -0.020443795 0.51200002
-0.18887706 -0.020443795 0.51200002
-0.1875452 -0.020443795 0.51200002
-0.18621331 -0.020443795 0.51200002
-0.18488145 -0.020443795 0.51200002
-0.18354958 -0.020443795 0.51200002
-0.18221772 -0.020443795 0.51200002
-0.18088584 -0.020443795 0.51200002
-0.17920329 -0.020403866 0.51100004
-0.17787403 -0.020403866 0.51100004
-0.17619929 -0.020363938 0.51000005
-0.17487262 -0.020363938 0.51000005
-0.17354594 -0.020363938 0.51000005
-0.17221929 -0.020363938 0.51000005
-0.17089263 -0.020363938 0.51000005
-0.16956596 -0.020363938 0.51000005
-0.1682393 -0.020363938 0.51000005
-0.16691263 -0.020363938 0.51000005
-0.16558596 -0.020363938 0.51000005
-0.1642593 -0.020363938 0.51000005
-0.16293265 -0.020363938 0.51000005
-0.16160598 -0.020363938 0.51000005
-0.16059357 -0.020403866 0.51100004
-0.15926431 -0.020403866 0.51100004
-0.15793505 -0.020403866 0.51100004
-0.1566058 -0.020403866 0.51100004
-0.15497264 -0.020363938 0.51000005
-0.15364599 -0.020363938 0.51000005
-0.15231933 -0.020363938 0.51000005
-0.15099266 -0.020363938 0.51000005
-0.149666 -0.020363938 0.51000005
-0.14833933 -0.020363938 0.51000005
-0.14701267 -0.020363938 0.51000005
-0.145686 -0.020363938 0.51000005
-0.14435935 -0.020363938 0.51000005
-0.14303268 -0.020363938 0.51000005
-0.141706 -0.020363938 0.51000005
-0.14037934 -0.020363938 0.51000005
-0.13905269 -0.020363938 0.51000005
-0.13772602 -0.020363938 0.51000005
-0.13639936 -0.020363938 0.51000005
-0.13533753 -0.020403866 0.51100004
-0.13400827 -0.020403866 0.51100004
-0.13267902 -0.020403866 0.51100004
-0.13160679 -0.020443795 0.51200002
-0.13027491 -0.020443795 0.51200002
-0.12894304 -0.020443795 0.51200002
-0.12761118 -0.020443795 0.51200002
-0.12627932 -0.020443795 0.51200002
-0.12494744 -0.020443795 0.51200002
-0.12385701 -0.020483725 0.51300001
-0.12252255 -0.020483725 0.51300001
-0.12118808 -0.020483725 0.51300001
-0.11985362 -0.020483725 0.51300001
-0.11851914 -0.020483725 0.51300001
-0.11695625 -0.020443795 0.51200002
-0.11562438 -0.020443795 0.51200002
-0.11429252 -0.020443795 0.51200002
-0.11296065 -0.020443795 0.51200002
-0.11162878 -0.020443795 0.51200002
-0.11029692 -0.020443795 0.51200002
-0.10896505 -0.020443795 0.51200002
-0.10763318 -0.020443795 0.51200002
-0.10630132 -0.020443795 0.51200002
-0.10476443 -0.020403866 0.51100004
-0.10343517 -0.020403866 0.51100004
-0.1021059 -0.020403866 0.51100004
-0.10077664 -0.020403866 0.51100004
-0.09944737 -0.020403866 0.51100004
-0.098118104 -0.020403866 0.51100004
-0.096788839 -0.020403866 0.51100004
-0.095646381 -0.020443795 0.51200002
-0.094314516 -0.020443795 0.51200002
-0.092801042 -0.020403866 0.51100004
-0.091650784 -0.020443795 0.51200002
-0.090318911 -0.020443795 0.51200002
-0.088987052 -0.020443795 0.51200002
-0.087655187 -0.020443795 0.51200002
-0.086323313 -0.020443795 0.51200002
-0.084991455 -0.020443795 0.51200002
-0.083659582 -0.020443795 0.51200002
-0.082327716 -0.020443795 0.51200002
-0.080995843 -0.020443795 0.51200002
-0.079819575 -0.020483725 0.51300001
-0.078485109 -0.020483725 0.51300001
-0.077150635 -0.020483725 0.51300001
-0.075963959 -0.020523652 0.514
-0.074626885 -0.020523652 0.514
-0.073289819 -0.020523652 0.514
-0.072092742 -0.020563584 0.51500005
-0.070753075 -0.020563584 0.51500005
-0.069413401 -0.020563584 0.51500005
-0.068073727 -0.020563584 0.51500005
-0.066734061 -0.020563584 0.51500005
-0.065394387 -0.020563584 0.51500005
-0.06405472 -0.020563584 0.51500005
-0.062836826 -0.020603513 0.51600003
-0.061494552 -0.020603513 0.51600003
-0.060152277 -0.020603513 0.51600003
-0.058810011 -0.020603513 0.51600003
-0.057467736 -0.020603513 0.51600003
-0.056125466 -0.020603513 0.51600003
-0.054783192 -0.020603513 0.51600003
-0.053440921 -0.020603513 0.51600003
-0.052098647 -0.020603513 0.51600003
-0.05075638 -0.020603513 0.51600003
-0.049414106 -0.020603513 0.51600003
-0.048071835 -0.020603513 0.51600003
-0.046729561 -0.020603513 0.51600003
-0.045387287 -0.020603513 0.51600003
-0.044045016 -0.020603513 0.51600003
-0.042702742 -0.020603513 0.51600003
-0.041360475 -0.020603513 0.51600003
-0.0023402241 -0.019804927 0.49600002
-0.0010542123 -0.019884786 0.49800003
0.00024220496 -0.019964643 0.5
0.0015459418 -0.020004574 0.50100005
0.0028548811 -0.020044502 0.50200003
0.0041607348 -0.020044502 0.50200003
0.0054883673 -0.020124361 0.50400001
0.0068129147 -0.020164289 0.505
0.0081587574 -0.020244149 0.50700003
0.0094963098 -0.020284077 0.50800002
0.010839066 -0.020324007 0.509
0.01216313 -0.020324007 0.509
0.01351369 -0.020363938 0.51000005
0.014840355 -0.020363938 0.51000005
0.016167019 -0.020363938 0.51000005
0.017493684 -0.020363938 0.51000005
0.018820347 -0.020363938 0.51000005
0.020147011 -0.020363938 0.51000005
0.021473676 -0.020363938 0.51000005
0.022800339 -0.020363938 0.51000005
0.024127003 -0.020363938 0.51000005
0.025503576 -0.020403866 0.51100004
0.026832841 -0.020403866 0.51100004
0.028162107 -0.020403866 0.51100004
0.029491372 -0.020403866 0.51100004
0.03088095 -0.020443795 0.51200002
0.03221282 -0.020443795 0.51200002
0.033610199 -0.020483725 0.51300001
0.034944668 -0.020483725 0.51300001
0.036349855 -0.020523652 0.514
0.037686925 -0.020523652 0.514
0.039023995 -0.020523652 0.514
0.040439591 -0.020563584 0.51500005
0.041779257 -0.020563584 0.51500005
0.043035202 -0.020523652 0.514
0.044372272 -0.020523652 0.514
0.045709342 -0.020523652 0.514
0.046954881 -0.020483725 0.51300001
0.048195221 -0.020443795 0.51200002
0.049527083 -0.020443795 0.51200002
0.050759617 -0.020403866 0.51100004
0.052088883 -0.020403866 0.51100004
0.053313613 -0.020363938 0.51000005
0.054640278 -0.020363938 0.51000005
0.0558572 -0.020324007 0.509
0.057181261 -0.020324007 0.509
0.058505323 -0.020324007 0.509
0.059829384 -0.020324007 0.509
0.061153449 -0.020324007 0.509
0.062477514 -0.020324007 0.509
0.063801572 -0.020324007 0.509
0.065253593 -0.020363938 0.51000005
0.066580251 -0.020363938 0.51000005
0.067906924 -0.020363938 0.51000005
0.069369331 -0.020403866 0.51100004
0.070698597 -0.020403866 0.51100004
0.07216882 -0.020443795 0.51200002
0.073500685 -0.020443795 0.51200002
0.074832551 -0.020443795 0.51200002
0.076164417 -0.020443795 0.51200002
0.077647649 -0.020483725 0.51300001
0.078982107 -0.020483725 0.51300001
0.080316573 -0.020483725 0.51300001
0.081651047 -0.020483725 0.51300001
0.082823753 -0.020443795 0.51200002
0.084155619 -0.020443795 0.51200002
0.08515355 -0.020363938 0.51000005
0.086310647 -0.020324007 0.509
0.087290369 -0.020244149 0.50700003
0.088259675 -0.020164289 0.505
0.08939597 -0.020124361 0.50400001
0.090347074 -0.020044502 0.50200003
0.091287777 -0.019964643 0.5
0.092218079 -0.019884786 0.49800003
0.093325742 -0.019844856 0.49700001
0.094428211 -0.019804927 0.49600002
0.095525481 -0.019764997 0.49500003
0.096617542 -0.019725068 0.49400002
0.097704403 -0.01968514 0.49300003
0.098986849 -0.01968514 0.49300003
0.099862516 -0.019605281 0.49100003
0.10052179 -0.019485492 0.48800004
0.1005397 -0.019245917 0.48200002
0.10051814 -0.018327544 0.45900002
0.10104736 -0.018207755 0.45600003
0.10200936 -0.018167825 0.45500001
0.10319295 -0.018167825 0.45500001
0.10391774 -0.018087966 0.45300001
0.10486414 -0.018048039 0.45200002
0.10557072 -0.01796818 0.45000002
0.10650411 -0.01792825 0.44900003
0.10743228 -0.017888321 0.44800001
0.10811285 -0.017808462 0.44600001
0.10878303 -0.017728604 0.44400004
0.10944279 -0.017648745 0.44200003
0.11009214 -0.017568886 0.44000003
0.11098389 -0.017528957 0.43900001
0.11249381 -0.01740917 0.43600002
0.11310674 -0.017329311 0.43400002
0.11344606 -0.017209522 0.43100002
0.11482389 -0.015851928 0.39700001
0.11585661 -0.015851928 0.39700001
0.1165949 -0.015811998 0.39600003
0.15973447 -0.020922948 0.52400005
0.16109756 -0.020922948 0.52400005
0.16246063 -0.020922948 0.52400005
0.16382371 -0.020922948 0.52400005
0.16550204 -0.020962877 0.52500004
0.16686772 -0.020962877 0.52500004
0.16823341 -0.020962877 0.52500004
0.16959909 -0.020962877 0.52500004
0.17096476 -0.020962877 0.52500004
0.17233045 -0.020962877 0.52500004
0.17402698 -0.021002805 0.52600002
0.17539527 -0.021002805 0.52600002
0.17676355 -0.021002805 0.52600002
0.17813183 -0.021002805 0.52600002
0.17950013 -0.021002805 0.52600002
0.18121226 -0.021042734 0.52700001
0.18258314 -0.021042734 0.52700001
0.18395403 -0.021042734 0.52700001
0.18532491 -0.021042734 0.52700001
0.18705006 -0.021082662 0.528
0.18842354 -0.021082662 0.528
0.18979703 -0.021082662 0.528
0.19117051 -0.021082662 0.528
0.1929087 -0.021122593 0.52900004
0.19428478 -0.021122593 0.52900004
0.19566087 -0.021122593 0.52900004
0.19740942 -0.021162523 0.53000003
0.19878811 -0.021162523 0.53000003
0.20016681 -0.021162523 0.53000003
0.20154549 -0.021162523 0.53000003
0.20292419 -0.021162523 0.53000003
0.20468834 -0.021202451 0.53100002
0.20606963 -0.021202451 0.53100002
0.20745094 -0.021202451 0.53100002
0.20883222 -0.021202451 0.53100002
0.21021351 -0.021202451 0.53100002
0.21199328 -0.02124238 0.53200001
0.21337716 -0.02124238 0.53200001
0.21476108 -0.02124238 0.53200001
0.21614496 -0.02124238 0.53200001
0.21752885 -0.02124238 0.53200001
0.21891274 -0.02124238 0.53200001
0.22029664 -0.02124238 0.53200001
0.22168054 -0.02124238 0.53200001
0.22306442 -0.02124238 0.53200001
0.22444831 -0.02124238 0.53200001
0.22583221 -0.02124238 0.53200001
0.22721611 -0.02124238 0.53200001
0.22902972 -0.021282312 0.53300005
0.23041621 -0.021282312 0.53300005
0.2318027 -0.021282312 0.53300005
0.2331892 -0.021282312 0.53300005
0.23413557 -0.02124238 0.53200001
0.23551947 -0.02124238 0.53200001
0.23690335 -0.02124238 0.53200001
0.23828724 -0.02124238 0.53200001
0.23967113 -0.02124238 0.53200001
0.24105504 -0.02124238 0.53200001
0.24243893 -0.02124238 0.53200001
0.24382281 -0.02124238 0.53200001
0.2452067 -0.02124238 0.53200001
0.24705413 -0.021282312 0.53300005
0.24844064 -0.021282312 0.53300005
0.24982713 -0.021282312 0.53300005
0.25121361 -0.021282312 0.53300005
0.25307402 -0.021322239 0.53400004
0.25446314 -0.021322239 0.53400004
0.25585222 -0.021322239 0.53400004
0.25724131 -0.021322239 0.53400004
0.25863039 -0.021322239 0.53400004
-0.2812252 -0.018962618 0.50800002
-0.27990374 -0.018962618 0.50800002
-0.2785823 -0.018962618 0.50800002
-0.27726081 -0.018962618 0.50800002
-0.27539617 -0.018925291 0.50700003
-0.27407733 -0.018925291 0.50700003
-0.27275845 -0.018925291 0.50700003
-0.27143961 -0.018925291 0.50700003
-0.27012074 -0.018925291 0.50700003
-0.26880187 -0.018925291 0.50700003
-0.26748303 -0.018925291 0.50700003
-0.26616415 -0.018925291 0.50700003
-0.26484531 -0.018925291 0.50700003
-0.26352644 -0.018925291 0.50700003
-0.26220757 -0.018925291 0.50700003
-0.26088873 -0.018925291 0.50700003
-0.25956985 -0.018925291 0.50700003
-0.25825101 -0.018925291 0.50700003
-0.25693214 -0.018925291 0.50700003
-0.25561327 -0.018925291 0.50700003
-0.25429443 -0.018925291 0.50700003
-0.25297555 -0.018925291 0.50700003
-0.25165671 -0.018925291 0.50700003
-0.25033784 -0.018925291 0.50700003
-0.24901898 -0.018925291 0.50700003
-0.24818866 -0.018962618 0.50800002
-0.24686721 -0.018962618 0.50800002
-0.24554574 -0.018962618 0.50800002
-0.24470504 -0.018999945 0.509
-0.24338098 -0.018999945 0.509
-0.24158137 -0.018962618 0.50800002
-0.24073285 -0.018999945 0.509
-0.23940879 -0.018999945 0.509
-0.23808473 -0.018999945 0.509
-0.23676065 -0.018999945 0.509
-0.23543659 -0.018999945 0.509
-0.23365259 -0.018962618 0.50800002
-0.2318738 -0.018925291 0.50700003
-0.23055494 -0.018925291 0.50700003
-0.22923607 -0.018925291 0.50700003
-0.22791721 -0.018925291 0.50700003
-0.22659835 -0.018925291 0.50700003
-0.22483516 -0.018887963 0.50600004
-0.22351891 -0.018887963 0.50600004
-0.22220264 -0.018887963 0.50600004
-0.22088638 -0.018887963 0.50600004
-0.21957013 -0.018887963 0.50600004
-0.21868519 -0.018925291 0.50700003
-0.21736634 -0.018925291 0.50700003
-0.21604747 -0.018925291 0.50700003
-0.21472861 -0.018925291 0.50700003
-0.21383068 -0.018962618 0.50800002
-0.21250921 -0.018962618 0.50800002
-0.21118777 -0.018962618 0.50800002
-0.20986629 -0.018962618 0.50800002
-0.20854482 -0.018962618 0.50800002
-0.20722337 -0.018962618 0.50800002
-0.20590191 -0.018962618 0.50800002
-0.20458044 -0.018962618 0.50800002
-0.20325898 -0.018962618 0.50800002
-0.20193753 -0.018962618 0.50800002
-0.20061606 -0.018962618 0.50800002
-0.1992946 -0.018962618 0.50800002
-0.19836284 -0.018999945 0.509
-0.19703877 -0.018999945 0.509
-0.19571471 -0.018999945 0.509
-0.19477259 -0.019037275 0.51000005
-0.19344592 -0.019037275 0.51000005
-0.19249594 -0.019074602 0.51100004
-0.19116668 -0.019074602 0.51100004
-0.18983743 -0.019074602 0.51100004
-0.18887706 -0.019111929 0.51200002
-0.1875452 -0.019111929 0.51200002
-0.18621331 -0.019111929 0.51200002
-0.18488145 -0.019111929 0.51200002
-0.18354958 -0.019111929 0.51200002
-0.18221772 -0.019111929 0.51200002
-0.18053256 -0.019074602 0.51100004
-0.17920329 -0.019074602 0.51100004
-0.17752594 -0.019037275 0.51000005
-0.17619929 -0.019037275 0.51000005
-0.17487262 -0.019037275 0.51000005
-0.17354594 -0.019037275 0.51000005
-0.17221929 -0.019037275 0.51000005
-0.17089263 -0.019037275 0.51000005
-0.16956596 -0.019037275 0.51000005
-0.1682393 -0.019037275 0.51000005
-0.16691263 -0.019037275 0.51000005
-0.16558596 -0.019037275 0.51000005
-0.1642593 -0.019037275 0.51000005
-0.16325212 -0.019074602 0.51100004
-0.16192286 -0.019074602 0.51100004
-0.1602793 -0.019037275 0.51000005
-0.15895264 -0.019037275 0.51000005
-0.15762599 -0.019037275 0.51000005
-0.15629932 -0.019037275 0.51000005
-0.15527651 -0.019074602 0.51100004
-0.15394725 -0.019074602 0.51100004
-0.15261799 -0.019074602 0.51100004
-0.15099266 -0.019037275 0.51000005
-0.149666 -0.019037275 0.51000005
-0.14833933 -0.019037275 0.51000005
-0.14701267 -0.019037275 0.51000005
-0.145686 -0.019037275 0.51000005
-0.14435935 -0.019037275 0.51000005
-0.14303268 -0.019037275 0.51000005
-0.141706 -0.019037275 0.51000005
-0.14037934 -0.019037275 0.51000005
-0.13905269 -0.019037275 0.51000005
-0.13772602 -0.019037275 0.51000005
-0.1366668 -0.019074602 0.51100004
-0.13533753 -0.019074602 0.51100004
-0.13400827 -0.019074602 0.51100004
-0.13267902 -0.019074602 0.51100004
-0.13160679 -0.019111929 0.51200002
-0.13027491 -0.019111929 0.51200002
-0.12894304 -0.019111929 0.51200002
-0.12761118 -0.019111929 0.51200002
-0.12627932 -0.019111929 0.51200002
-0.12519148 -0.019149257 0.51300001
-0.12385701 -0.019149257 0.51300001
-0.12252255 -0.019149257 0.51300001
-0.12118808 -0.019149257 0.51300001
-0.11985362 -0.019149257 0.51300001
-0.11851914 -0.019149257 0.51300001
-0.11695625 -0.019111929 0.51200002
-0.11562438 -0.019111929 0.51200002
-0.11429252 -0.019111929 0.51200002
-0.11296065 -0.019111929 0.51200002
-0.11162878 -0.019111929 0.51200002
-0.11029692 -0.019111929 0.51200002
-0.10896505 -0.019111929 0.51200002
-0.10763318 -0.019111929 0.51200002
-0.1060937 -0.019074602 0.51100004
-0.10496945 -0.019111929 0.51200002
-0.10363758 -0.019111929 0.51200002
-0.10230572 -0.019111929 0.51200002
-0.10097385 -0.019111929 0.51200002
-0.099641979 -0.019111929 0.51200002
-0.098310113 -0.019111929 0.51200002
-0.096978247 -0.019111929 0.51200002
-0.095646381 -0.019111929 0.51200002
-0.094314516 -0.019111929 0.51200002
-0.09298265 -0.019111929 0.51200002
-0.091650784 -0.019111929 0.51200002
-0.090318911 -0.019111929 0.51200002
-0.088987052 -0.019111929 0.51200002
-0.087655187 -0.019111929 0.51200002
-0.086323313 -0.019111929 0.51200002
-0.084991455 -0.019111929 0.51200002
-0.083659582 -0.019111929 0.51200002
-0.082327716 -0.019111929 0.51200002
-0.081154041 -0.019149257 0.51300001
-0.079819575 -0.019149257 0.51300001
-0.078485109 -0.019149257 0.51300001
-0.077301025 -0.019186584 0.514
-0.075963959 -0.019186584 0.514
-0.074626885 -0.019186584 0.514
-0.073289819 -0.019186584 0.514
-0.072092742 -0.019223915 0.51500005
-0.070753075 -0.019223915 0.51500005
-0.069413401 -0.019223915 0.51500005
-0.068073727 -0.019223915 0.51500005
-0.066734061 -0.019223915 0.51500005
-0.065394387 -0.019223915 0.51500005
-0.06405472 -0.019223915 0.51500005
-0.062836826 -0.019261243 0.51600003
-0.061494552 -0.019261243 0.51600003
-0.060152277 -0.019261243 0.51600003
-0.058810011 -0.019261243 0.51600003
-0.057467736 -0.019261243 0.51600003
-0.056125466 -0.019261243 0.51600003
-0.054783192 -0.019261243 0.51600003
-0.053440921 -0.019261243 0.51600003
-0.052098647 -0.019261243 0.51600003
-0.05075638 -0.019261243 0.51600003
-0.049414106 -0.019261243 0.51600003
-0.048071835 -0.019261243 0.51600003
-0.046729561 -0.019261243 0.51600003
-0.045387287 -0.019261243 0.51600003
-0.044045016 -0.019261243 0.51600003
-0.042702742 -0.019261243 0.51600003
-0.041360475 -0.019261243 0.51600003
-0.039940648 -0.019223915 0.51500005
-0.0010499785 -0.018514682 0.49600002
0.00024172055 -0.018626666 0.49900001
0.001542856 -0.018663993 0.5
0.0041607348 -0.01873865 0.50200003
0.0054883673 -0.018813305 0.50400001
0.0068264059 -0.018887963 0.50600004
0.0081587574 -0.018925291 0.50700003
0.0094963098 -0.018962618 0.50800002
0.010860362 -0.019037275 0.51000005
0.012187026 -0.019037275 0.51000005
0.01351369 -0.019037275 0.51000005
0.014840355 -0.019037275 0.51000005
0.016198719 -0.019074602 0.51100004
0.017527984 -0.019074602 0.51100004
0.018857248 -0.019074602 0.51100004
0.020186514 -0.019074602 0.51100004
0.021515781 -0.019074602 0.51100004
0.022845045 -0.019074602 0.51100004
0.02417431 -0.019074602 0.51100004
0.025503576 -0.019074602 0.51100004
0.026832841 -0.019074602 0.51100004
0.028162107 -0.019074602 0.51100004
0.029491372 -0.019074602 0.51100004
0.03088095 -0.019111929 0.51200002
0.03221282 -0.019111929 0.51200002
0.033544682 -0.019111929 0.51200002
0.034944668 -0.019149257 0.51300001
0.036279138 -0.019149257 0.51300001
0.037686925 -0.019186584 0.514
0.039023995 -0.019186584 0.514
0.040361065 -0.019186584 0.514
0.041698132 -0.019186584 0.514
0.043035202 -0.019186584 0.514
0.044372272 -0.019186584 0.514
0.045620412 -0.019149257 0.51300001
0.046954881 -0.019149257 0.51300001
0.048195221 -0.019111929 0.51200002
0.049527083 -0.019111929 0.51200002
0.050759617 -0.019074602 0.51100004
0.051986951 -0.019037275 0.51000005
0.053313613 -0.019037275 0.51000005
0.054640278 -0.019037275 0.51000005
0.0558572 -0.018999945 0.509
0.057181261 -0.018999945 0.509
0.058505323 -0.018999945 0.509
0.059829384 -0.018999945 0.509
0.061153449 -0.018999945 0.509
0.062477514 -0.018999945 0.509
0.063801572 -0.018999945 0.509
0.065253593 -0.019037275 0.51000005
0.066580251 -0.019037275 0.51000005
0.067906924 -0.019037275 0.51000005
0.069369331 -0.019074602 0.51100004
0.070698597 -0.019074602 0.51100004
0.07216882 -0.019111929 0.51200002
0.073500685 -0.019111929 0.51200002
0.074832551 -0.019111929 0.51200002
0.076164417 -0.019111929 0.51200002
0.077647649 -0.019149257 0.51300001
0.078982107 -0.019149257 0.51300001
0.080316573 -0.019149257 0.51300001
0.081651047 -0.019149257 0.51300001
0.082823753 -0.019111929 0.51200002
0.084155619 -0.019111929 0.51200002
0.08515355 -0.019037275 0.51000005
0.086480223 -0.019037275 0.51000005
0.087290369 -0.018925291 0.50700003
0.088434458 -0.018887963 0.50600004
0.08939597 -0.018813305 0.50400001
0.090347074 -0.01873865 0.50200003
0.091287777 -0.018663993 0.5
0.092218079 -0.018589338 0.49800003
0.093137965 -0.018514682 0.49600002
0.094237834 -0.018477354 0.49500003
0.095332496 -0.018440025 0.49400002
0.096421964 -0.018402698 0.49300003
0.097506218 -0.01836537 0.49200001
0.098384492 -0.018290713 0.49000001
0.099252358 -0.018216059 0.48800004
0.099903822 -0.018104075 0.48500001
0.10018972 -0.017282858 0.46300003
0.10051814 -0.017133547 0.45900002
0.10104736 -0.017021563 0.45600003
0.10200936 -0.016984234 0.45500001
0.10319295 -0.016984234 0.45500001
0.10391774 -0.016909579 0.45300001
0.10486414 -0.016872251 0.45200002
0.10557072 -0.016797595 0.45000002
0.10650411 -0.016760267 0.44900003
0.10719248 -0.016685611 0.44700003
0.10811285 -0.016648281 0.44600001
0.10878303 -0.016573627 0.44400004
0.10944279 -0.016498972 0.44200003
0.11009214 -0.016424315 0.44000003
0.11073109 -0.016349658 0.43800002
0.11161505 -0.016312331 0.43700001
0.11249381 -0.016275004 0.43600002
0.11310674 -0.016200347 0.43400002
0.11344606 -0.016088363 0.43100002
0.11323815 -0.015901724 0.42600003
0.11379117 -0.014819211 0.39700001
0.11453466 -0.014781884 0.39600003
0.11556479 -0.014781884 0.39600003
0.1165949 -0.014781884 0.39600003
0.11732797 -0.014744555 0.39500001
0.11835548 -0.014744555 0.39500001
0.15973447 -0.019559866 0.52400005
0.16140498 -0.019597193 0.52500004
0.16277066 -0.019597193 0.52500004
0.16413635 -0.019597193 0.52500004
0.16550204 -0.019597193 0.52500004
0.16686772 -0.019597193 0.52500004
0.16855384 -0.019634522 0.52600002
0.16992213 -0.019634522 0.52600002
0.17129041 -0.019634522 0.52600002
0.1726587 -0.019634522 0.52600002
0.17402698 -0.019634522 0.52600002
0.17539527 -0.019634522 0.52600002
0.1770996 -0.01967185 0.52700001
0.17813183 -0.019634522 0.52600002
0.17984138 -0.01967185 0.52700001
0.18121226 -0.01967185 0.52700001
0.18258314 -0.01967185 0.52700001
0.18395403 -0.01967185 0.52700001
0.18532491 -0.01967185 0.52700001
0.18705006 -0.019709177 0.528
0.18842354 -0.019709177 0.528
0.18979703 -0.019709177 0.528
0.19117051 -0.019709177 0.528
0.1929087 -0.019746507 0.52900004
0.19428478 -0.019746507 0.52900004
0.19566087 -0.019746507 0.52900004
0.19703695 -0.019746507 0.52900004
0.19878811 -0.019783834 0.53000003
0.20016681 -0.019783834 0.53000003
0.20154549 -0.019783834 0.53000003
0.20292419 -0.019783834 0.53000003
0.20468834 -0.019821161 0.53100002
0.20606963 -0.019821161 0.53100002
0.20745094 -0.019821161 0.53100002
0.20883222 -0.019821161 0.53100002
0.21021351 -0.019821161 0.53100002
0.21199328 -0.019858489 0.53200001
0.21337716 -0.019858489 0.53200001
0.21476108 -0.019858489 0.53200001
0.21614496 -0.019858489 0.53200001
0.21752885 -0.019858489 0.53200001
0.21891274 -0.019858489 0.53200001
0.22029664 -0.019858489 0.53200001
0.22168054 -0.019858489 0.53200001
0.22306442 -0.019858489 0.53200001
0.22444831 -0.019858489 0.53200001
0.22583221 -0.019858489 0.53200001
0.22721611 -0.019858489 0.53200001
0.2286 -0.019858489 0.53200001
0.23041621 -0.019895818 0.53300005
0.2318027 -0.019895818 0.53300005
0.2331892 -0.019895818 0.53300005
0.23413557 -0.019858489 0.53200001
0.23551947 -0.019858489 0.53200001
0.23690335 -0.019858489 0.53200001
0.23828724 -0.019858489 0.53200001
0.23967113 -0.019858489 0.53200001
0.24105504 -0.019858489 0.53200001
0.24243893 -0.019858489 0.53200001
0.24382281 -0.019858489 0.53200001
0.24566764 -0.019895818 0.53300005
0.24705413 -0.019895818 0.53300005
0.24844064 -0.019895818 0.53300005
0.24982713 -0.019895818 0.53300005
0.25168493 -0.019933145 0.53400004
0.25307402 -0.019933145 0.53400004
0.25446314 -0.019933145 0.53400004
0.25585222 -0.019933145 0.53400004
0.25724131 -0.019933145 0.53400004
0.25863039 -0.019933145 0.53400004
-0.2812252 -0.017641155 0.50800002
-0.27990374 -0.017641155 0.50800002
-0.2785823 -0.017641155 0.50800002
-0.27726081 -0.017641155 0.50800002
-0.27593935 -0.017641155 0.50800002
-0.27461791 -0.017641155 0.50800002
-0.27329645 -0.017641155 0.50800002
-0.27143961 -0.01760643 0.50700003
-0.27012074 -0.01760643 0.50700003
-0.26880187 -0.01760643 0.50700003
-0.26748303 -0.01760643 0.50700003
-0.26668912 -0.017641155 0.50800002
-0.26536769 -0.017641155 0.50800002
-0.26404622 -0.017641155 0.50800002
-0.26272473 -0.017641155 0.50800002
-0.26140329 -0.017641155 0.50800002
-0.26008183 -0.017641155 0.50800002
-0.25825101 -0.01760643 0.50700003
-0.25693214 -0.01760643 0.50700003
-0.25561327 -0.01760643 0.50700003
-0.25429443 -0.01760643 0.50700003
-0.25297555 -0.01760643 0.50700003
-0.25165671 -0.01760643 0.50700003
-0.25033784 -0.01760643 0.50700003
-0.24901898 -0.01760643 0.50700003
-0.24770011 -0.01760643 0.50700003
-0.24686721 -0.017641155 0.50800002
-0.24554574 -0.017641155 0.50800002
-0.2442243 -0.017641155 0.50800002
-0.24290283 -0.017641155 0.50800002
-0.24158137 -0.017641155 0.50800002
-0.2402599 -0.017641155 0.50800002
-0.23940879 -0.017675882 0.509
-0.23808473 -0.017675882 0.509
-0.23676065 -0.017675882 0.509
-0.23543659 -0.017675882 0.509
-0.23365259 -0.017641155 0.50800002
-0.23233114 -0.017641155 0.50800002
-0.23100968 -0.017641155 0.50800002
-0.22923607 -0.01760643 0.50700003
-0.22791721 -0.01760643 0.50700003
-0.22659835 -0.01760643 0.50700003
-0.2252795 -0.01760643 0.50700003
-0.22396064 -0.01760643 0.50700003
-0.22264177 -0.01760643 0.50700003
-0.22132291 -0.01760643 0.50700003
-0.22000405 -0.01760643 0.50700003
-0.21868519 -0.01760643 0.50700003
-0.21736634 -0.01760643 0.50700003
-0.21604747 -0.01760643 0.50700003
-0.21515213 -0.017641155 0.50800002
-0.21383068 -0.017641155 0.50800002
-0.21250921 -0.017641155 0.50800002
-0.21118777 -0.017641155 0.50800002
-0.20986629 -0.017641155 0.50800002
-0.20854482 -0.017641155 0.50800002
-0.20722337 -0.017641155 0.50800002
-0.20590191 -0.017641155 0.50800002
-0.20458044 -0.017641155 0.50800002
-0.20285887 -0.01760643 0.50700003
-0.20154001 -0.01760643 0.50700003
-0.20022115 -0.01760643 0.50700003
-0.1992946 -0.017641155 0.50800002
-0.19797313 -0.017641155 0.50800002
-0.19703877 -0.017675882 0.509
-0.19571471 -0.017675882 0.509
-0.19439065 -0.017675882 0.509
-0.19344592 -0.017710609 0.51000005
-0.19211924 -0.017710609 0.51000005
-0.19116668 -0.017745337 0.51100004
-0.18983743 -0.017745337 0.51100004
-0.18850815 -0.017745337 0.51100004
-0.1875452 -0.017780062 0.51200002
-0.18621331 -0.017780062 0.51200002
-0.18488145 -0.017780062 0.51200002
-0.18354958 -0.017780062 0.51200002
-0.18186183 -0.017745337 0.51100004
-0.18053256 -0.017745337 0.51100004
-0.17920329 -0.017745337 0.51100004
-0.17752594 -0.017710609 0.51000005
-0.17619929 -0.017710609 0.51000005
-0.17487262 -0.017710609 0.51000005
-0.17354594 -0.017710609 0.51000005
-0.17221929 -0.017710609 0.51000005
-0.17089263 -0.017710609 0.51000005
-0.16956596 -0.017710609 0.51000005
-0.1682393 -0.017710609 0.51000005
-0.16691263 -0.017710609 0.51000005
-0.16558596 -0.017710609 0.51000005
-0.1642593 -0.017710609 0.51000005
-0.16293265 -0.017710609 0.51000005
-0.16160598 -0.017710609 0.51000005
-0.16059357 -0.017745337 0.51100004
-0.15926431 -0.017745337 0.51100004
-0.15793505 -0.017745337 0.51100004
-0.1566058 -0.017745337 0.51100004
-0.15527651 -0.017745337 0.51100004
-0.15394725 -0.017745337 0.51100004
-0.15261799 -0.017745337 0.51100004
-0.15128872 -0.017745337 0.51100004
-0.149666 -0.017710609 0.51000005
-0.14833933 -0.017710609 0.51000005
-0.14701267 -0.017710609 0.51000005
-0.145686 -0.017710609 0.51000005
-0.14435935 -0.017710609 0.51000005
-0.14303268 -0.017710609 0.51000005
-0.141706 -0.017710609 0.51000005
-0.14065459 -0.017745337 0.51100004
-0.13932534 -0.017745337 0.51100004
-0.13799608 -0.017745337 0.51100004
-0.1366668 -0.017745337 0.51100004
-0.13533753 -0.017745337 0.51100004
-0.13400827 -0.017745337 0.51100004
-0.13293865 -0.017780062 0.51200002
-0.13160679 -0.017780062 0.51200002
-0.13027491 -0.017780062 0.51200002
-0.12894304 -0.017780062 0.51200002
-0.12761118 -0.017780062 0.51200002
-0.12652595 -0.017814789 0.51300001
-0.12519148 -0.017814789 0.51300001
-0.12385701 -0.017814789 0.51300001
-0.12252255 -0.017814789 0.51300001
-0.12118808 -0.017814789 0.51300001
-0.11985362 -0.017814789 0.51300001
-0.11851914 -0.017814789 0.51300001
-0.11718468 -0.017814789 0.51300001
-0.1158502 -0.017814789 0.51300001
-0.11429252 -0.017780062 0.51200002
-0.11296065 -0.017780062 0.51200002
-0.11162878 -0.017780062 0.51200002
-0.11029692 -0.017780062 0.51200002
-0.10896505 -0.017780062 0.51200002
-0.10763318 -0.017780062 0.51200002
-0.10630132 -0.017780062 0.51200002
-0.10496945 -0.017780062 0.51200002
-0.10363758 -0.017780062 0.51200002
-0.10230572 -0.017780062 0.51200002
-0.10097385 -0.017780062 0.51200002
-0.099641979 -0.017780062 0.51200002
-0.098310113 -0.017780062 0.51200002
-0.096978247 -0.017780062 0.51200002
-0.095646381 -0.017780062 0.51200002
-0.094314516 -0.017780062 0.51200002
-0.09298265 -0.017780062 0.51200002
-0.091650784 -0.017780062 0.51200002
-0.090318911 -0.017780062 0.51200002
-0.088987052 -0.017780062 0.51200002
-0.087655187 -0.017780062 0.51200002
-0.086323313 -0.017780062 0.51200002
-0.084991455 -0.017780062 0.51200002
-0.083659582 -0.017780062 0.51200002
-0.082488514 -0.017814789 0.51300001
-0.081154041 -0.017814789 0.51300001
-0.079819575 -0.017814789 0.51300001
-0.078485109 -0.017814789 0.51300001
-0.077301025 -0.017849514 0.514
-0.075963959 -0.017849514 0.514
-0.074626885 -0.017849514 0.514
-0.073432416 -0.017884243 0.51500005
-0.072092742 -0.017884243 0.51500005
-0.070753075 -0.017884243 0.51500005
-0.069413401 -0.017884243 0.51500005
-0.068073727 -0.017884243 0.51500005
-0.066863641 -0.01791897 0.51600003
-0.065521367 -0.01791897 0.51600003
-0.064179093 -0.01791897 0.51600003
-0.062836826 -0.01791897 0.51600003
-0.061494552 -0.01791897 0.51600003
-0.060152277 -0.01791897 0.51600003
-0.058810011 -0.01791897 0.51600003
-0.057467736 -0.01791897 0.51600003
-0.056125466 -0.01791897 0.51600003
-0.054783192 -0.01791897 0.51600003
-0.053440921 -0.01791897 0.51600003
-0.052098647 -0.01791897 0.51600003
-0.05075638 -0.01791897 0.51600003
-0.049414106 -0.01791897 0.51600003
-0.048071835 -0.01791897 0.51600003
-0.046729561 -0.01791897 0.51600003
-0.045299329 -0.017884243 0.51500005
-0.043959659 -0.017884243 0.51500005
-0.042702742 -0.01791897 0.51600003
-0.041360475 -0.01791897 0.51600003
-0.039940648 -0.017884243 0.51500005
-0.038600978 -0.017884243 0.51500005
-0.0010478616 -0.017189709 0.49500003
0.00024123615 -0.017293889 0.49800003
0.0015397703 -0.017328614 0.49900001
0.0028491942 -0.017398071 0.50100005
0.0041607348 -0.017432796 0.50200003
0.0054992568 -0.017536975 0.505
0.0068264059 -0.017571703 0.50600004
0.0081748487 -0.017641155 0.50800002
0.0095150033 -0.017675882 0.509
0.010860362 -0.017710609 0.51000005
0.012210922 -0.017745337 0.51100004
0.013540187 -0.017745337 0.51100004
0.014869453 -0.017745337 0.51100004
0.016230417 -0.017780062 0.51200002
0.017562285 -0.017780062 0.51200002
0.018857248 -0.017745337 0.51100004
0.020186514 -0.017745337 0.51100004
0.021515781 -0.017745337 0.51100004
0.022845045 -0.017745337 0.51100004
0.02417431 -0.017745337 0.51100004
0.025503576 -0.017745337 0.51100004
0.026832841 -0.017745337 0.51100004
0.028162107 -0.017745337 0.51100004
0.029549085 -0.017780062 0.51200002
0.03088095 -0.017780062 0.51200002
0.03221282 -0.017780062 0.51200002
0.033544682 -0.017780062 0.51200002
0.034944668 -0.017814789 0.51300001
0.036279138 -0.017814789 0.51300001
0.037686925 -0.017849514 0.514
0.039023995 -0.017849514 0.514
0.040361065 -0.017849514 0.514
0.041698132 -0.017849514 0.514
0.042951476 -0.017814789 0.51300001
0.044285946 -0.017814789 0.51300001
0.045620412 -0.017814789 0.51300001
0.046863351 -0.017780062 0.51200002
0.048195221 -0.017780062 0.51200002
0.049430352 -0.017745337 0.51100004
0.050660286 -0.017710609 0.51000005
0.051986951 -0.017710609 0.51000005
0.053313613 -0.017710609 0.51000005
0.054533135 -0.017675882 0.509
0.0558572 -0.017675882 0.509
0.057181261 -0.017675882 0.509
0.058505323 -0.017675882 0.509
0.059829384 -0.017675882 0.509
0.061153449 -0.017675882 0.509
0.062477514 -0.017675882 0.509
0.063801572 -0.017675882 0.509
0.065253593 -0.017710609 0.51000005
0.066580251 -0.017710609 0.51000005
0.067906924 -0.017710609 0.51000005
0.069369331 -0.017745337 0.51100004
0.070698597 -0.017745337 0.51100004
0.07216882 -0.017780062 0.51200002
0.073500685 -0.017780062 0.51200002
0.074832551 -0.017780062 0.51200002
0.076164417 -0.017780062 0.51200002
0.077647649 -0.017814789 0.51300001
0.078982107 -0.017814789 0.51300001
0.080316573 -0.017814789 0.51300001
0.081651047 -0.017814789 0.51300001
0.082985513 -0.017814789 0.51300001
0.084155619 -0.017780062 0.51200002
0.085320517 -0.017745337 0.51100004
0.086480223 -0.017710609 0.51000005
0.087462537 -0.017641155 0.50800002
0.088434458 -0.017571703 0.50600004
0.08939597 -0.017502248 0.50400001
0.090167105 -0.017398071 0.50100005
0.0911052 -0.017328614 0.49900001
0.092032894 -0.017259162 0.49700001
0.092950188 -0.017189709 0.49500003
0.094047457 -0.017154982 0.49400002
0.094946533 -0.017085528 0.49200001
0.096030794 -0.017050803 0.49100003
0.096911669 -0.016981348 0.48900002
0.097982928 -0.016946623 0.48800004
0.098642193 -0.016842442 0.48500001
0.099285863 -0.016738262 0.48200002
0.10018972 -0.016078455 0.46300003
0.10051814 -0.015939549 0.45900002
0.10126895 -0.015870094 0.45700002
0.10223355 -0.015835369 0.45600003
0.10319295 -0.015800642 0.45500001
0.10391774 -0.015731188 0.45300001
0.10486414 -0.015696462 0.45200002
0.10557072 -0.015627008 0.45000002
0.10650411 -0.015592282 0.44900003
0.10719248 -0.015522828 0.44700003
0.10787044 -0.015453375 0.44500002
0.10853802 -0.015383922 0.44300002
0.10919517 -0.015314468 0.44100001
0.10984193 -0.015245014 0.43900001
0.11047827 -0.01517556 0.43700001
0.11135964 -0.015140834 0.43600002
0.1122358 -0.015106108 0.43500003
0.11310674 -0.015071381 0.43400002
0.11344606 -0.014967201 0.43100002
0.11136379 -0.01413376 0.40700001
0.11076519 -0.013925401 0.40100002
0.11097185 -0.013821221 0.39800003
0.11275846 -0.013786494 0.39700001
0.11350454 -0.013751768 0.39600003
0.11453466 -0.013751768 0.39600003
0.11556479 -0.013751768 0.39600003
0.11630046 -0.01371704 0.39500001
0.11732797 -0.01371704 0.39500001
0.11835548 -0.01371704 0.39500001
0.16003931 -0.018231509 0.52500004
0.16171242 -0.018266236 0.52600002
0.16308071 -0.018266236 0.52600002
0.16444898 -0.018266236 0.52600002
0.16581728 -0.018266236 0.52600002
0.1675034 -0.018300962 0.52700001
0.16855384 -0.018266236 0.52600002
0.17024517 -0.018300962 0.52700001
0.17161605 -0.018300962 0.52700001
0.17298695 -0.018300962 0.52700001
0.17435783 -0.018300962 0.52700001
0.17572871 -0.018300962 0.52700001
0.1770996 -0.018300962 0.52700001
0.17847048 -0.018300962 0.52700001
0.17984138 -0.018300962 0.52700001
0.18121226 -0.018300962 0.52700001
0.18258314 -0.018300962 0.52700001
0.18395403 -0.018300962 0.52700001
0.18567656 -0.018335689 0.528
0.18705006 -0.018335689 0.528
0.18842354 -0.018335689 0.528
0.18979703 -0.018335689 0.528
0.19117051 -0.018335689 0.528
0.1929087 -0.018370416 0.52900004
0.19428478 -0.018370416 0.52900004
0.19566087 -0.018370416 0.52900004
0.19703695 -0.018370416 0.52900004
0.19878811 -0.018405143 0.53000003
0.20016681 -0.018405143 0.53000003
0.20154549 -0.018405143 0.53000003
0.20330706 -0.018439868 0.53100002
0.20468834 -0.018439868 0.53100002
0.20606963 -0.018439868 0.53100002
0.20745094 -0.018439868 0.53100002
0.20883222 -0.018439868 0.53100002
0.21021351 -0.018439868 0.53100002
0.21199328 -0.018474596 0.53200001
0.21337716 -0.018474596 0.53200001
0.21476108 -0.018474596 0.53200001
0.21614496 -0.018474596 0.53200001
0.21752885 -0.018474596 0.53200001
0.21891274 -0.018474596 0.53200001
0.22029664 -0.018474596 0.53200001
0.22168054 -0.018474596 0.53200001
0.22306442 -0.018474596 0.53200001
0.22444831 -0.018474596 0.53200001
0.22583221 -0.018474596 0.53200001
0.22721611 -0.018474596 0.53200001
0.2286 -0.018474596 0.53200001
0.22998388 -0.018474596 0.53200001
0.23136778 -0.018474596 0.53200001
0.23275167 -0.018474596 0.53200001
0.23413557 -0.018474596 0.53200001
0.23551947 -0.018474596 0.53200001
0.23690335 -0.018474596 0.53200001
0.23828724 -0.018474596 0.53200001
0.23967113 -0.018474596 0.53200001
0.24105504 -0.018474596 0.53200001
0.24289466 -0.018509325 0.53300005
0.24428114 -0.018509325 0.53300005
0.24566764 -0.018509325 0.53300005
0.24705413 -0.018509325 0.53300005
0.24844064 -0.018509325 0.53300005
0.25029585 -0.01854405 0.53400004
0.25168493 -0.01854405 0.53400004
0.25307402 -0.01854405 0.53400004
0.25446314 -0.01854405 0.53400004
0.25585222 -0.01854405 0.53400004
0.25724131 -0.01854405 0.53400004
0.25911474 -0.018578777 0.53500003
-0.2812252 -0.016319694 0.50800002
-0.27990374 -0.016319694 0.50800002
-0.2785823 -0.016319694 0.50800002
-0.27726081 -0.016319694 0.50800002
-0.27593935 -0.016319694 0.50800002
-0.27461791 -0.016319694 0.50800002
-0.27329645 -0.016319694 0.50800002
-0.27197498 -0.016319694 0.50800002
-0.27012074 -0.016287569 0.50700003
-0.26933205 -0.016319694 0.50800002
-0.26801059 -0.016319694 0.50800002
-0.26668912 -0.016319694 0.50800002
-0.26536769 -0.016319694 0.50800002
-0.26404622 -0.016319694 0.50800002
-0.26272473 -0.016319694 0.50800002
-0.26140329 -0.016319694 0.50800002
-0.26008183 -0.016319694 0.50800002
-0.25876036 -0.016319694 0.50800002
-0.25693214 -0.016287569 0.50700003
-0.25561327 -0.016287569 0.50700003
-0.25429443 -0.016287569 0.50700003
-0.25297555 -0.016287569 0.50700003
-0.25165671 -0.016287569 0.50700003
-0.25033784 -0.016287569 0.50700003
-0.24901898 -0.016287569 0.50700003
-0.24770011 -0.016287569 0.50700003
-0.24686721 -0.016319694 0.50800002
-0.24554574 -0.016319694 0.50800002
-0.2442243 -0.016319694 0.50800002
-0.24290283 -0.016319694 0.50800002
-0.24158137 -0.016319694 0.50800002
-0.24073285 -0.016351819 0.509
-0.23940879 -0.016351819 0.509
-0.23808473 -0.016351819 0.509
-0.23676065 -0.016351819 0.509
-0.23543659 -0.016351819 0.509
-0.23411253 -0.016351819 0.509
-0.23233114 -0.016319694 0.50800002
-0.23100968 -0.016319694 0.50800002
-0.2296882 -0.016319694 0.50800002
-0.22791721 -0.016287569 0.50700003
-0.22659835 -0.016287569 0.50700003
-0.2252795 -0.016287569 0.50700003
-0.22396064 -0.016287569 0.50700003
-0.22264177 -0.016287569 0.50700003
-0.22132291 -0.016287569 0.50700003
-0.22000405 -0.016287569 0.50700003
-0.21911652 -0.016319694 0.50800002
-0.21779506 -0.016319694 0.50800002
-0.21647359 -0.016319694 0.50800002
-0.21515213 -0.016319694 0.50800002
-0.21383068 -0.016319694 0.50800002
-0.21250921 -0.016319694 0.50800002
-0.21118777 -0.016319694 0.50800002
-0.20986629 -0.016319694 0.50800002
-0.20854482 -0.016319694 0.50800002
-0.20722337 -0.016319694 0.50800002
-0.20590191 -0.016319694 0.50800002
-0.20417772 -0.016287569 0.50700003
-0.20285887 -0.016287569 0.50700003
-0.20154001 -0.016287569 0.50700003
-0.20022115 -0.016287569 0.50700003
-0.19890229 -0.016287569 0.50700003
-0.19758342 -0.016287569 0.50700003
-0.19665167 -0.016319694 0.50800002
-0.19571471 -0.016351819 0.509
-0.19439065 -0.016351819 0.509
-0.19344592 -0.016383946 0.51000005
-0.19211924 -0.016383946 0.51000005
-0.19079259 -0.016383946 0.51000005
-0.18983743 -0.016416071 0.51100004
-0.18850815 -0.016416071 0.51100004
-0.1875452 -0.016448196 0.51200002
-0.18621331 -0.016448196 0.51200002
-0.18488145 -0.016448196 0.51200002
-0.18354958 -0.016448196 0.51200002
-0.18186183 -0.016416071 0.51100004
-0.18053256 -0.016416071 0.51100004
-0.17920329 -0.016416071 0.51100004
-0.17752594 -0.016383946 0.51000005
-0.17619929 -0.016383946 0.51000005
-0.17487262 -0.016383946 0.51000005
-0.17354594 -0.016383946 0.51000005
-0.17221929 -0.016383946 0.51000005
-0.17089263 -0.016383946 0.51000005
-0.16956596 -0.016383946 0.51000005
-0.1682393 -0.016383946 0.51000005
-0.16691263 -0.016383946 0.51000005
-0.16558596 -0.016383946 0.51000005
-0.16458137 -0.016416071 0.51100004
-0.16325212 -0.016416071 0.51100004
-0.16192286 -0.016416071 0.51100004
-0.16059357 -0.016416071 0.51100004
-0.15926431 -0.016416071 0.51100004
-0.15793505 -0.016416071 0.51100004
-0.1566058 -0.016416071 0.51100004
-0.15527651 -0.016416071 0.51100004
-0.15394725 -0.016416071 0.51100004
-0.15261799 -0.016416071 0.51100004
-0.15128872 -0.016416071 0.51100004
-0.149666 -0.016383946 0.51000005
-0.14863019 -0.016416071 0.51100004
-0.14730093 -0.016416071 0.51100004
-0.14597166 -0.016416071 0.51100004
-0.1446424 -0.016416071 0.51100004
-0.14331314 -0.016416071 0.51100004
-0.14198385 -0.016416071 0.51100004
-0.14065459 -0.016416071 0.51100004
-0.13932534 -0.016416071 0.51100004
-0.13799608 -0.016416071 0.51100004
-0.1366668 -0.016416071 0.51100004
-0.13533753 -0.016416071 0.51100004
-0.13427052 -0.016448196 0.51200002
-0.13293865 -0.016448196 0.51200002
-0.13160679 -0.016448196 0.51200002
-0.13027491 -0.016448196 0.51200002
-0.12894304 -0.016448196 0.51200002
-0.12786041 -0.016480321 0.51300001
-0.12652595 -0.016480321 0.51300001
-0.12519148 -0.016480321 0.51300001
-0.12385701 -0.016480321 0.51300001
-0.12252255 -0.016480321 0.51300001
-0.12118808 -0.016480321 0.51300001
-0.11985362 -0.016480321 0.51300001
-0.11851914 -0.016480321 0.51300001
-0.11718468 -0.016480321 0.51300001
-0.1158502 -0.016480321 0.51300001
-0.11451574 -0.016480321 0.51300001
-0.11318128 -0.016480321 0.51300001
-0.11162878 -0.016448196 0.51200002
-0.11029692 -0.016448196 0.51200002
-0.10896505 -0.016448196 0.51200002
-0.10763318 -0.016448196 0.51200002
-0.10630132 -0.016448196 0.51200002
-0.10496945 -0.016448196 0.51200002
-0.10384 -0.016480321 0.51300001
-0.10230572 -0.016448196 0.51200002
-0.10117106 -0.016480321 0.51300001
-0.099836588 -0.016480321 0.51300001
-0.098502129 -0.016480321 0.51300001
-0.097167656 -0.016480321 0.51300001
-0.09583319 -0.016480321 0.51300001
-0.094498724 -0.016480321 0.51300001
-0.09316425 -0.016480321 0.51300001
-0.091829784 -0.016480321 0.51300001
-0.090495318 -0.016480321 0.51300001
-0.089160852 -0.016480321 0.51300001
-0.087826386 -0.016480321 0.51300001
-0.086323313 -0.016448196 0.51200002
-0.084991455 -0.016448196 0.51200002
-0.083822973 -0.016480321 0.51300001
-0.082488514 -0.016480321 0.51300001
-0.081154041 -0.016480321 0.51300001
-0.079819575 -0.016480321 0.51300001
-0.078638099 -0.016512446 0.514
-0.077301025 -0.016512446 0.514
-0.075963959 -0.016512446 0.514
-0.074772082 -0.016544573 0.51500005
-0.073432416 -0.016544573 0.51500005
-0.072092742 -0.016544573 0.51500005
-0.070890456 -0.016576696 0.51600003
-0.06954819 -0.016576696 0.51600003
-0.068205908 -0.016576696 0.51600003
-0.066863641 -0.016576696 0.51600003
-0.065521367 -0.016576696 0.51600003
-0.064179093 -0.016576696 0.51600003
-0.062836826 -0.016576696 0.51600003
-0.061494552 -0.016576696 0.51600003
-0.060152277 -0.016576696 0.51600003
-0.058810011 -0.016576696 0.51600003
-0.057467736 -0.016576696 0.51600003
-0.056125466 -0.016576696 0.51600003
-0.054783192 -0.016576696 0.51600003
-0.053440921 -0.016576696 0.51600003
-0.052098647 -0.016576696 0.51600003
-0.05075638 -0.016576696 0.51600003
-0.049414106 -0.016576696 0.51600003
-0.048071835 -0.016576696 0.51600003
-0.046729561 -0.016576696 0.51600003
-0.045299329 -0.016544573 0.51500005
-0.044045016 -0.016576696 0.51600003
-0.042619988 -0.016544573 0.51500005
-0.041280318 -0.016544573 0.51500005
-0.039940648 -0.016544573 0.51500005
-0.038600978 -0.016544573 0.51500005
-0.0010457447 -0.015869938 0.49400002
0.00024075173 -0.015966315 0.49700001
0.0015397703 -0.016030565 0.49900001
0.0028491942 -0.016094817 0.50100005
0.0041607348 -0.016126942 0.50200003
0.0054992568 -0.016223317 0.505
0.0068264059 -0.016255444 0.50600004
0.0081748487 -0.016319694 0.50800002
0.0095336977 -0.016383946 0.51000005
0.010881656 -0.016416071 0.51100004
0.012234818 -0.016448196 0.51200002
0.013566684 -0.016448196 0.51200002
0.014898552 -0.016448196 0.51200002
0.016230417 -0.016448196 0.51200002
0.017562285 -0.016448196 0.51200002
0.018894151 -0.016448196 0.51200002
0.020226019 -0.016448196 0.51200002
0.021557886 -0.016448196 0.51200002
0.02288975 -0.016448196 0.51200002
0.024221618 -0.016448196 0.51200002
0.025553485 -0.016448196 0.51200002
0.026885351 -0.016448196 0.51200002
0.028217217 -0.016448196 0.51200002
0.029549085 -0.016448196 0.51200002
0.03088095 -0.016448196 0.51200002
0.03221282 -0.016448196 0.51200002
0.033544682 -0.016448196 0.51200002
0.034876551 -0.016448196 0.51200002
0.036279138 -0.016480321 0.51300001
0.037613604 -0.016480321 0.51300001
0.038948074 -0.016480321 0.51300001
0.040282544 -0.016480321 0.51300001
0.041617006 -0.016480321 0.51300001
0.042951476 -0.016480321 0.51300001
0.044285946 -0.016480321 0.51300001
0.045531485 -0.016448196 0.51200002
0.046863351 -0.016448196 0.51200002
0.04810109 -0.016416071 0.51100004
0.049333621 -0.016383946 0.51000005
0.050660286 -0.016383946 0.51000005
0.051986951 -0.016383946 0.51000005
0.053209074 -0.016351819 0.509
0.054533135 -0.016351819 0.509
0.0558572 -0.016351819 0.509
0.057181261 -0.016351819 0.509
0.058390383 -0.016319694 0.50800002
0.059829384 -0.016351819 0.509
0.061153449 -0.016351819 0.509
0.062477514 -0.016351819 0.509
0.063926928 -0.016383946 0.51000005
0.065253593 -0.016383946 0.51000005
0.066580251 -0.016383946 0.51000005
0.068040073 -0.016416071 0.51100004
0.069369331 -0.016416071 0.51100004
0.070698597 -0.016416071 0.51100004
0.07216882 -0.016448196 0.51200002
0.073500685 -0.016448196 0.51200002
0.074832551 -0.016448196 0.51200002
0.076313175 -0.016480321 0.51300001
0.077647649 -0.016480321 0.51300001
0.078982107 -0.016480321 0.51300001
0.080316573 -0.016480321 0.51300001
