# .PCD v0.7 - Point Cloud Data file format
VERSION 0.7
FIELDS x y z
SIZE 4 4 4
TYPE F F F
COUNT 1 1 1
WIDTH 1373
HEIGHT 1
VIEWPOINT 0 0 0 1 0 0 0
POINTS 1373
DATA ascii
0.14173573 -0.020683371 0.51800001
0.14308321 -0.020683371 0.51800001
0.1444307 -0.020683371 0.51800001
0.14577816 -0.020683371 0.51800001
0.14712563 -0.020683371 0.51800001
0.14847311 -0.020683371 0.51800001
0.14982058 -0.020683371 0.51800001
0.15116806 -0.020683371 0.51800001
0.15251555 -0.020683371 0.51800001
0.15386301 -0.020683371 0.51800001
0.15521048 -0.020683371 0.51800001
0.15655795 -0.020683371 0.51800001
0.15760061 -0.020643441 0.51700002
0.15863805 -0.020603513 0.51600003
0.15998031 -0.020603513 0.51600003
0.16100994 -0.020563584 0.51500005
0.16203436 -0.020523652 0.514
0.16337143 -0.020523652 0.514
0.16406763 -0.020443795 0.51200002
0.16507643 -0.020403866 0.51100004
0.16608006 -0.020363938 0.51000005
0.16707848 -0.020324007 0.509
0.16807169 -0.020284077 0.50800002
0.16905969 -0.020244149 0.50700003
0.16970643 -0.020164289 0.505
0.17068145 -0.020124361 0.50400001
0.17165126 -0.020084431 0.50300002
0.17227201 -0.020004574 0.50100005
0.17322879 -0.019964643 0.5
0.17383133 -0.019884786 0.49800003
0.17442344 -0.019804927 0.49600002
0.17500518 -0.019725068 0.49400002
0.17557649 -0.019645208 0.49200001
0.1761374 -0.019565349 0.49000001
0.17668791 -0.019485492 0.48800004
0.17759269 -0.019445563 0.48700002
0.17812498 -0.019365704 0.48500001
0.17864688 -0.019285845 0.48300001
0.17915836 -0.019205987 0.48100004
0.18003452 -0.019166058 0.48000002
0.18052781 -0.019086199 0.47800002
0.18101066 -0.01900634 0.47600001
0.18186602 -0.018966412 0.47500002
0.18233067 -0.018886553 0.47300002
0.18278493 -0.018806694 0.47100002
0.18322879 -0.018726835 0.46900001
0.18366224 -0.018646976 0.46700001
0.18408528 -0.018567119 0.46500003
0.18449792 -0.01848726 0.46300003
0.18490015 -0.018407403 0.46100003
0.18529199 -0.018327544 0.45900002
0.1856734 -0.018247684 0.45700002
0.18604441 -0.018167825 0.45500001
0.18681653 -0.018127896 0.45400003
0.18716933 -0.018048039 0.45200002
0.18751174 -0.01796818 0.45000002
0.18826303 -0.01792825 0.44900003
0.18900912 -0.017888321 0.44800001
0.18975 -0.017848391 0.44700003
0.19005859 -0.017768534 0.44500002
0.19078648 -0.017728604 0.44400004
0.19150914 -0.017688675 0.44300002
0.19222662 -0.017648745 0.44200003
0.19293888 -0.017608816 0.44100001
0.19364597 -0.017568886 0.44000003
0.19390513 -0.017489027 0.43800002
0.19415388 -0.01740917 0.43600002
0.19439223 -0.017329311 0.43400002
0.19462016 -0.017249452 0.43200001
0.19438462 -0.017129665 0.42900002
0.19413343 -0.017009877 0.42600003
0.19432496 -0.016930018 0.42400002
0.19404517 -0.016810231 0.42100003
0.19374976 -0.016690442 0.41800001
0.19343875 -0.016570654 0.41500002
0.19358087 -0.016490797 0.41300002
0.19335993 -0.016291149 0.40800002
0.19394474 -0.016251219 0.40700001
-0.2812252 -0.018962618 0.50800002
-0.27990374 -0.018962618 0.50800002
-0.27913067 -0.018999945 0.509
-0.27780661 -0.018999945 0.509
-0.27648252 -0.018999945 0.509
-0.27515849 -0.018999945 0.509
-0.27383441 -0.018999945 0.509
-0.27251038 -0.018999945 0.509
-0.27118629 -0.018999945 0.509
-0.2698622 -0.018999945 0.509
-0.26801059 -0.018962618 0.50800002
-0.26668912 -0.018962618 0.50800002
-0.26536769 -0.018962618 0.50800002
-0.26404622 -0.018962618 0.50800002
-0.26272473 -0.018962618 0.50800002
-0.26140329 -0.018962618 0.50800002
-0.26008183 -0.018962618 0.50800002
-0.25876036 -0.018962618 0.50800002
-0.2574389 -0.018962618 0.50800002
-0.25611743 -0.018962618 0.50800002
-0.254796 -0.018962618 0.50800002
-0.2534745 -0.018962618 0.50800002
-0.25215307 -0.018962618 0.50800002
-0.2508316 -0.018962618 0.50800002
-0.24951014 -0.018962618 0.50800002
-0.24818866 -0.018962618 0.50800002
-0.24686721 -0.018962618 0.50800002
-0.24554574 -0.018962618 0.50800002
-0.2442243 -0.018962618 0.50800002
-0.24338098 -0.018999945 0.509
-0.24205691 -0.018999945 0.509
-0.2402599 -0.018962618 0.50800002
-0.23893844 -0.018962618 0.50800002
-0.23761699 -0.018962618 0.50800002
-0.23629551 -0.018962618 0.50800002
-0.23451151 -0.018925291 0.50700003
-0.23319265 -0.018925291 0.50700003
-0.2318738 -0.018925291 0.50700003
-0.2301002 -0.018887963 0.50600004
-0.22878394 -0.018887963 0.50600004
-0.22746767 -0.018887963 0.50600004
-0.22615142 -0.018887963 0.50600004
-0.2243908 -0.018850632 0.505
-0.22307715 -0.018850632 0.505
-0.22176348 -0.018850632 0.505
-0.22044982 -0.018850632 0.505
-0.21913618 -0.018850632 0.505
-0.21782252 -0.018850632 0.505
-0.21650887 -0.018850632 0.505
-0.21562134 -0.018887963 0.50600004
-0.21430509 -0.018887963 0.50600004
-0.21298884 -0.018887963 0.50600004
-0.21167257 -0.018887963 0.50600004
-0.21077204 -0.018925291 0.50700003
-0.20945317 -0.018925291 0.50700003
-0.20813431 -0.018925291 0.50700003
-0.20681545 -0.018925291 0.50700003
-0.20549659 -0.018925291 0.50700003
-0.20417772 -0.018925291 0.50700003
-0.20325898 -0.018962618 0.50800002
-0.20193753 -0.018962618 0.50800002
-0.20061606 -0.018962618 0.50800002
-0.1992946 -0.018962618 0.50800002
-0.19797313 -0.018962618 0.50800002
-0.19665167 -0.018962618 0.50800002
-0.19571471 -0.018999945 0.509
-0.19439065 -0.018999945 0.509
-0.1930666 -0.018999945 0.509
-0.19174252 -0.018999945 0.509
-0.19041847 -0.018999945 0.509
-0.18909441 -0.018999945 0.509
-0.18777035 -0.018999945 0.509
-0.18644628 -0.018999945 0.509
-0.18512221 -0.018999945 0.509
-0.18379815 -0.018999945 0.509
-0.18247409 -0.018999945 0.509
-0.18115003 -0.018999945 0.509
-0.17982596 -0.018999945 0.509
-0.1785019 -0.018999945 0.509
-0.17717783 -0.018999945 0.509
-0.17585377 -0.018999945 0.509
-0.17452972 -0.018999945 0.509
-0.17320564 -0.018999945 0.509
-0.17188159 -0.018999945 0.509
-0.17055753 -0.018999945 0.509
-0.16923347 -0.018999945 0.509
-0.1679094 -0.018999945 0.509
-0.16658533 -0.018999945 0.509
-0.16526127 -0.018999945 0.509
-0.16393721 -0.018999945 0.509
-0.16261315 -0.018999945 0.509
-0.1612891 -0.018999945 0.509
-0.15996502 -0.018999945 0.509
-0.15895264 -0.019037275 0.51000005
-0.15762599 -0.019037275 0.51000005
-0.15629932 -0.019037275 0.51000005
-0.15497264 -0.019037275 0.51000005
-0.15364599 -0.019037275 0.51000005
-0.15231933 -0.019037275 0.51000005
-0.15099266 -0.019037275 0.51000005
-0.149666 -0.019037275 0.51000005
-0.14833933 -0.019037275 0.51000005
-0.14701267 -0.019037275 0.51000005
-0.145686 -0.019037275 0.51000005
-0.14435935 -0.019037275 0.51000005
-0.14303268 -0.019037275 0.51000005
-0.141706 -0.019037275 0.51000005
-0.14037934 -0.019037275 0.51000005
-0.13905269 -0.019037275 0.51000005
-0.13772602 -0.019037275 0.51000005
-0.13639936 -0.019037275 0.51000005
-0.13507269 -0.019037275 0.51000005
-0.13374603 -0.019037275 0.51000005
-0.13241936 -0.019037275 0.51000005
-0.13109271 -0.019037275 0.51000005
-0.13002047 -0.019074602 0.51100004
-0.12869121 -0.019074602 0.51100004
-0.12736194 -0.019074602 0.51100004
-0.12603268 -0.019074602 0.51100004
-0.12470341 -0.019074602 0.51100004
-0.12337415 -0.019074602 0.51100004
-0.12204488 -0.019074602 0.51100004
-0.12071562 -0.019074602 0.51100004
-0.11938635 -0.019074602 0.51100004
-0.11805709 -0.019074602 0.51100004
-0.11672782 -0.019074602 0.51100004
-0.11562438 -0.019111929 0.51200002
-0.11429252 -0.019111929 0.51200002
-0.11296065 -0.019111929 0.51200002
-0.11162878 -0.019111929 0.51200002
-0.11029692 -0.019111929 0.51200002
-0.10896505 -0.019111929 0.51200002
-0.10763318 -0.019111929 0.51200002
-0.10630132 -0.019111929 0.51200002
-0.10496945 -0.019111929 0.51200002
-0.10363758 -0.019111929 0.51200002
-0.10230572 -0.019111929 0.51200002
-0.10097385 -0.019111929 0.51200002
-0.099641979 -0.019111929 0.51200002
-0.098310113 -0.019111929 0.51200002
-0.096978247 -0.019111929 0.51200002
-0.095646381 -0.019111929 0.51200002
-0.094498724 -0.019149257 0.51300001
-0.09316425 -0.019149257 0.51300001
-0.091829784 -0.019149257 0.51300001
-0.090495318 -0.019149257 0.51300001
-0.089160852 -0.019149257 0.51300001
-0.087826386 -0.019149257 0.51300001
-0.086491913 -0.019149257 0.51300001
-0.085157447 -0.019149257 0.51300001
-0.083822973 -0.019149257 0.51300001
-0.082488514 -0.019149257 0.51300001
-0.081312232 -0.019186584 0.514
-0.079975165 -0.019186584 0.514
-0.078638099 -0.019186584 0.514
-0.077301025 -0.019186584 0.514
-0.075963959 -0.019186584 0.514
-0.074626885 -0.019186584 0.514
-0.073432416 -0.019223915 0.51500005
-0.072092742 -0.019223915 0.51500005
-0.070753075 -0.019223915 0.51500005
-0.069413401 -0.019223915 0.51500005
-0.068205908 -0.019261243 0.51600003
-0.066863641 -0.019261243 0.51600003
-0.065521367 -0.019261243 0.51600003
-0.064179093 -0.019261243 0.51600003
-0.062836826 -0.019261243 0.51600003
-0.061494552 -0.019261243 0.51600003
-0.060152277 -0.019261243 0.51600003
-0.058810011 -0.019261243 0.51600003
-0.057579108 -0.01929857 0.51700002
-0.056234233 -0.01929857 0.51700002
-0.054889359 -0.01929857 0.51700002
-0.053544488 -0.01929857 0.51700002
-0.052199613 -0.01929857 0.51700002
-0.050854743 -0.01929857 0.51700002
-0.049509868 -0.01929857 0.51700002
-0.048258156 -0.019335898 0.51800001
-0.046910681 -0.019335898 0.51800001
-0.045563206 -0.019335898 0.51800001
-0.044215731 -0.019335898 0.51800001
-0.042868257 -0.019335898 0.51800001
-0.041520786 -0.019335898 0.51800001
-0.040173311 -0.019335898 0.51800001
-0.038825836 -0.019335898 0.51800001
-0.037478361 -0.019335898 0.51800001
-0.036130883 -0.019335898 0.51800001
-0.034783408 -0.019335898 0.51800001
-0.033371393 -0.01929857 0.51700002
-0.032026518 -0.01929857 0.51700002
-0.030681644 -0.01929857 0.51700002
-0.029336769 -0.01929857 0.51700002
-0.027991896 -0.01929857 0.51700002
-0.026647024 -0.01929857 0.51700002
-0.025302149 -0.01929857 0.51700002
-0.023957277 -0.01929857 0.51700002
-0.022612404 -0.01929857 0.51700002
-0.021267531 -0.01929857 0.51700002
-0.019922657 -0.01929857 0.51700002
-0.018577784 -0.01929857 0.51700002
-0.017232912 -0.01929857 0.51700002
-0.015888039 -0.01929857 0.51700002
-0.014571294 -0.019335898 0.51800001
-0.013198292 -0.01929857 0.51700002
-0.011876346 -0.019335898 0.51800001
-0.010528871 -0.019335898 0.51800001
-0.009181397 -0.019335898 0.51800001
-0.0078339223 -0.019335898 0.51800001
-0.0064989706 -0.019373227 0.51900005
-0.0051488946 -0.019373227 0.51900005
-0.0037988189 -0.019373227 0.51900005
-0.0024487427 -0.019373227 0.51900005
-0.001098667 -0.019373227 0.51900005
0.00025140878 -0.019373227 0.51900005
0.0016014847 -0.019373227 0.51900005
0.0029515605 -0.019373227 0.51900005
0.004301636 -0.019373227 0.51900005
0.005651712 -0.019373227 0.51900005
0.0070017884 -0.019373227 0.51900005
0.0083518643 -0.019373227 0.51900005
0.0097019393 -0.019373227 0.51900005
0.01103072 -0.019335898 0.51800001
0.012378194 -0.019335898 0.51800001
0.013725668 -0.019335898 0.51800001
0.015073144 -0.019335898 0.51800001
0.016420618 -0.019335898 0.51800001
0.017802395 -0.019373227 0.51900005
0.01915247 -0.019373227 0.51900005
0.020502547 -0.019373227 0.51900005
0.021852624 -0.019373227 0.51900005
0.023202697 -0.019373227 0.51900005
0.024600081 -0.019410554 0.52000004
0.025952758 -0.019410554 0.52000004
0.027357945 -0.019447882 0.52100003
0.028713224 -0.019447882 0.52100003
0.030068504 -0.019447882 0.52100003
0.031423781 -0.019447882 0.52100003
0.032841977 -0.019485209 0.52200001
0.034199852 -0.019485209 0.52200001
0.035557732 -0.019485209 0.52200001
0.036915611 -0.019485209 0.52200001
0.038273495 -0.019485209 0.52200001
0.039631374 -0.019485209 0.52200001
0.041067775 -0.019522537 0.523
0.042428255 -0.019522537 0.523
0.043788735 -0.019522537 0.523
0.045149218 -0.019522537 0.523
0.046509698 -0.019522537 0.523
0.047870182 -0.019522537 0.523
0.049230661 -0.019522537 0.523
0.050591137 -0.019522537 0.523
0.051951621 -0.019522537 0.523
0.0533121 -0.019522537 0.523
0.054672584 -0.019522537 0.523
0.056033064 -0.019522537 0.523
0.057393547 -0.019522537 0.523
0.058754027 -0.019522537 0.523
0.059999567 -0.019485209 0.52200001
0.059651569 -0.016722938 0.44800001
0.060681198 -0.016685611 0.44700003
0.061705623 -0.016648281 0.44600001
0.062865809 -0.016648281 0.44600001
0.063882433 -0.016610954 0.44500002
0.065040015 -0.016610954 0.44500002
0.066048831 -0.016573627 0.44400004
0.067052454 -0.016536299 0.44300002
0.10628943 -0.019261243 0.51600003
0.10763171 -0.019261243 0.51600003
0.10897398 -0.019261243 0.51600003
0.11031625 -0.019261243 0.51600003
0.11165852 -0.019261243 0.51600003
0.11300079 -0.019261243 0.51600003
0.11434307 -0.019261243 0.51600003
0.11568534 -0.019261243 0.51600003
0.11702761 -0.019261243 0.51600003
0.11836988 -0.019261243 0.51600003
0.11971216 -0.019261243 0.51600003
0.12105443 -0.019261243 0.51600003
0.12239669 -0.019261243 0.51600003
0.12373897 -0.019261243 0.51600003
0.12532364 -0.01929857 0.51700002
0.12666851 -0.01929857 0.51700002
0.12801339 -0.01929857 0.51700002
0.12935826 -0.01929857 0.51700002
0.13070314 -0.01929857 0.51700002
0.13204801 -0.01929857 0.51700002
0.13339289 -0.01929857 0.51700002
0.13473776 -0.01929857 0.51700002
0.13634583 -0.019335898 0.51800001
0.13769333 -0.019335898 0.51800001
0.1390408 -0.019335898 0.51800001
0.14038827 -0.019335898 0.51800001
0.14173573 -0.019335898 0.51800001
0.14308321 -0.019335898 0.51800001
0.1444307 -0.019335898 0.51800001
0.14577816 -0.019335898 0.51800001
0.14712563 -0.019335898 0.51800001
0.14847311 -0.019335898 0.51800001
0.14982058 -0.019335898 0.51800001
0.15116806 -0.019335898 0.51800001
0.15251555 -0.019335898 0.51800001
0.15386301 -0.019335898 0.51800001
0.15521048 -0.019335898 0.51800001
0.15625572 -0.01929857 0.51700002
0.15729578 -0.019261243 0.51600003
0.15863805 -0.019261243 0.51600003
0.15967028 -0.019223915 0.51500005
0.16069728 -0.019186584 0.514
0.16203436 -0.019186584 0.514
0.16273576 -0.019111929 0.51200002
0.16374718 -0.019074602 0.51100004
0.16475339 -0.019037275 0.51000005
0.16575439 -0.018999945 0.509
0.16675022 -0.018962618 0.50800002
0.16774084 -0.018925291 0.50700003
0.16839279 -0.018850632 0.505
0.1693704 -0.018813305 0.50400001
0.17034279 -0.018775977 0.50300002
0.17096876 -0.018701322 0.50100005
0.17192814 -0.018663993 0.5
0.17253588 -0.018589338 0.49800003
0.17348225 -0.018552009 0.49700001
0.17407179 -0.018477354 0.49500003
0.17500518 -0.018440025 0.49400002
0.17557649 -0.01836537 0.49200001
0.1761374 -0.018290713 0.49000001
0.17668791 -0.018216059 0.48800004
0.17722803 -0.018141402 0.48600003
0.17775773 -0.018066747 0.48400003
0.178277 -0.01799209 0.48200002
0.17878589 -0.017917434 0.48000002
0.17965944 -0.017880106 0.47900003
0.18015014 -0.01780545 0.47700003
0.1806304 -0.017730795 0.47500002
0.18110026 -0.017656138 0.47300002
0.18155971 -0.017581481 0.47100002
0.18200877 -0.017506827 0.46900001
0.18283811 -0.017469499 0.46800002
0.18326896 -0.017394843 0.46600002
0.18329352 -0.017282858 0.46300003
0.18409944 -0.017245529 0.46200001
0.18449906 -0.017170874 0.46000001
0.1848883 -0.01709622 0.45800003
0.18526712 -0.017021563 0.45600003
0.18563554 -0.016946906 0.45400003
0.18599354 -0.016872251 0.45200002
0.18675524 -0.016834924 0.45100003
0.18709505 -0.016760267 0.44900003
0.18784373 -0.016722938 0.44800001
0.18816532 -0.016648281 0.44600001
0.18890101 -0.016610954 0.44500002
0.18963151 -0.016573627 0.44400004
0.19035678 -0.016536299 0.44300002
0.19107684 -0.016498972 0.44200003
0.19179171 -0.016461642 0.44100001
0.1925014 -0.016424315 0.44000003
0.19276576 -0.016349658 0.43800002
0.19301972 -0.016275004 0.43600002
0.19370858 -0.016237674 0.43500003
0.19394432 -0.016163019 0.43300003
0.19416967 -0.016088363 0.43100002
0.19393151 -0.015976379 0.42800003
0.19367771 -0.015864395 0.42500001
0.19340833 -0.015752411 0.42200002
0.19358425 -0.015677756 0.42000002
0.19328624 -0.015565772 0.41700003
0.19297265 -0.015453788 0.41400003
0.19311215 -0.015379132 0.41200003
0.19276991 -0.015267147 0.40900001
0.19335993 -0.015229819 0.40800002
0.19394474 -0.015192491 0.40700001
-0.2812252 -0.017641155 0.50800002
-0.27990374 -0.017641155 0.50800002
-0.27913067 -0.017675882 0.509
-0.27780661 -0.017675882 0.509
-0.27648252 -0.017675882 0.509
-0.27515849 -0.017675882 0.509
-0.27383441 -0.017675882 0.509
-0.27251038 -0.017675882 0.509
-0.27118629 -0.017675882 0.509
-0.2698622 -0.017675882 0.509
-0.26853818 -0.017675882 0.509
-0.26668912 -0.017641155 0.50800002
-0.26536769 -0.017641155 0.50800002
-0.26404622 -0.017641155 0.50800002
-0.26272473 -0.017641155 0.50800002
-0.26140329 -0.017641155 0.50800002
-0.26008183 -0.017641155 0.50800002
-0.25876036 -0.017641155 0.50800002
-0.2574389 -0.017641155 0.50800002
-0.25611743 -0.017641155 0.50800002
-0.254796 -0.017641155 0.50800002
-0.2534745 -0.017641155 0.50800002
-0.25215307 -0.017641155 0.50800002
-0.2508316 -0.017641155 0.50800002
-0.24951014 -0.017641155 0.50800002
-0.24818866 -0.017641155 0.50800002
-0.24686721 -0.017641155 0.50800002
-0.24602909 -0.017675882 0.509
-0.24470504 -0.017675882 0.509
-0.24338098 -0.017675882 0.509
-0.24205691 -0.017675882 0.509
-0.24073285 -0.017675882 0.509
-0.23940879 -0.017675882 0.509
-0.23761699 -0.017641155 0.50800002
-0.23629551 -0.017641155 0.50800002
-0.23497406 -0.017641155 0.50800002
-0.23319265 -0.01760643 0.50700003
-0.2318738 -0.01760643 0.50700003
-0.23055494 -0.01760643 0.50700003
-0.22878394 -0.017571703 0.50600004
-0.22746767 -0.017571703 0.50600004
-0.22615142 -0.017571703 0.50600004
-0.22483516 -0.017571703 0.50600004
-0.22307715 -0.017536975 0.505
-0.22176348 -0.017536975 0.505
-0.22044982 -0.017536975 0.505
-0.21957013 -0.017571703 0.50600004
-0.21825387 -0.017571703 0.50600004
-0.21693762 -0.017571703 0.50600004
-0.21562134 -0.017571703 0.50600004
-0.21430509 -0.017571703 0.50600004
-0.21298884 -0.017571703 0.50600004
-0.21209089 -0.01760643 0.50700003
-0.21077204 -0.01760643 0.50700003
-0.20945317 -0.01760643 0.50700003
-0.20813431 -0.01760643 0.50700003
-0.20681545 -0.01760643 0.50700003
-0.20549659 -0.01760643 0.50700003
-0.20417772 -0.01760643 0.50700003
-0.20325898 -0.017641155 0.50800002
-0.20193753 -0.017641155 0.50800002
-0.20061606 -0.017641155 0.50800002
-0.1992946 -0.017641155 0.50800002
-0.19797313 -0.017641155 0.50800002
-0.19665167 -0.017641155 0.50800002
-0.19533022 -0.017641155 0.50800002
-0.19400875 -0.017641155 0.50800002
-0.1926873 -0.017641155 0.50800002
-0.19174252 -0.017675882 0.509
-0.19041847 -0.017675882 0.509
-0.18909441 -0.017675882 0.509
-0.18777035 -0.017675882 0.509
-0.18644628 -0.017675882 0.509
-0.18512221 -0.017675882 0.509
-0.18379815 -0.017675882 0.509
-0.18247409 -0.017675882 0.509
-0.18115003 -0.017675882 0.509
-0.17982596 -0.017675882 0.509
-0.1785019 -0.017675882 0.509
-0.17717783 -0.017675882 0.509
-0.17585377 -0.017675882 0.509
-0.17452972 -0.017675882 0.509
-0.17320564 -0.017675882 0.509
-0.17188159 -0.017675882 0.509
-0.17055753 -0.017675882 0.509
-0.16923347 -0.017675882 0.509
-0.1679094 -0.017675882 0.509
-0.16658533 -0.017675882 0.509
-0.16526127 -0.017675882 0.509
-0.16393721 -0.017675882 0.509
-0.16261315 -0.017675882 0.509
-0.1612891 -0.017675882 0.509
-0.15996502 -0.017675882 0.509
-0.15864097 -0.017675882 0.509
-0.15762599 -0.017710609 0.51000005
-0.15629932 -0.017710609 0.51000005
-0.15497264 -0.017710609 0.51000005
-0.15364599 -0.017710609 0.51000005
-0.15231933 -0.017710609 0.51000005
-0.15099266 -0.017710609 0.51000005
-0.149666 -0.017710609 0.51000005
-0.14833933 -0.017710609 0.51000005
-0.14701267 -0.017710609 0.51000005
-0.145686 -0.017710609 0.51000005
-0.14435935 -0.017710609 0.51000005
-0.14303268 -0.017710609 0.51000005
-0.141706 -0.017710609 0.51000005
-0.14037934 -0.017710609 0.51000005
-0.13905269 -0.017710609 0.51000005
-0.13772602 -0.017710609 0.51000005
-0.13639936 -0.017710609 0.51000005
-0.13507269 -0.017710609 0.51000005
-0.13374603 -0.017710609 0.51000005
-0.13241936 -0.017710609 0.51000005
-0.13134974 -0.017745337 0.51100004
-0.13002047 -0.017745337 0.51100004
-0.12869121 -0.017745337 0.51100004
-0.12736194 -0.017745337 0.51100004
-0.12603268 -0.017745337 0.51100004
-0.12470341 -0.017745337 0.51100004
-0.12337415 -0.017745337 0.51100004
-0.12228371 -0.017780062 0.51200002
-0.12095185 -0.017780062 0.51200002
-0.11961999 -0.017780062 0.51200002
-0.11828811 -0.017780062 0.51200002
-0.11695625 -0.017780062 0.51200002
-0.11562438 -0.017780062 0.51200002
-0.11429252 -0.017780062 0.51200002
-0.11296065 -0.017780062 0.51200002
-0.11162878 -0.017780062 0.51200002
-0.11029692 -0.017780062 0.51200002
-0.10896505 -0.017780062 0.51200002
-0.10763318 -0.017780062 0.51200002
-0.10630132 -0.017780062 0.51200002
-0.10517447 -0.017814789 0.51300001
-0.10384 -0.017814789 0.51300001
-0.10230572 -0.017780062 0.51200002
-0.10117106 -0.017814789 0.51300001
-0.099836588 -0.017814789 0.51300001
-0.098502129 -0.017814789 0.51300001
-0.097167656 -0.017814789 0.51300001
-0.096019998 -0.017849514 0.514
-0.094682932 -0.017849514 0.514
-0.093345858 -0.017849514 0.514
-0.092008792 -0.017849514 0.514
-0.090671718 -0.017849514 0.514
-0.089334652 -0.017849514 0.514
-0.087997586 -0.017849514 0.514
-0.086660512 -0.017849514 0.514
-0.085323445 -0.017849514 0.514
-0.083986372 -0.017849514 0.514
-0.082649305 -0.017849514 0.514
-0.081312232 -0.017849514 0.514
-0.079975165 -0.017849514 0.514
-0.078638099 -0.017849514 0.514
-0.077301025 -0.017849514 0.514
-0.076111756 -0.017884243 0.51500005
-0.074772082 -0.017884243 0.51500005
-0.073574997 -0.01791897 0.51600003
-0.072232723 -0.01791897 0.51600003
-0.070890456 -0.01791897 0.51600003
-0.06954819 -0.01791897 0.51600003
-0.068205908 -0.01791897 0.51600003
-0.066863641 -0.01791897 0.51600003
-0.065521367 -0.01791897 0.51600003
-0.064303473 -0.017953696 0.51700002
-0.062958598 -0.017953696 0.51700002
-0.061613724 -0.017953696 0.51700002
-0.060268853 -0.017953696 0.51700002
-0.058923982 -0.017953696 0.51700002
-0.057690479 -0.017988423 0.51800001
-0.056343004 -0.017988423 0.51800001
-0.054995526 -0.017988423 0.51800001
-0.053648051 -0.017988423 0.51800001
-0.052300576 -0.017988423 0.51800001
-0.050953105 -0.017988423 0.51800001
-0.04960563 -0.017988423 0.51800001
-0.048258156 -0.017988423 0.51800001
-0.046910681 -0.017988423 0.51800001
-0.045563206 -0.017988423 0.51800001
-0.044215731 -0.017988423 0.51800001
-0.042785499 -0.017953696 0.51700002
-0.041440628 -0.017953696 0.51700002
-0.040095758 -0.017953696 0.51700002
-0.038750883 -0.017953696 0.51700002
-0.037406009 -0.017953696 0.51700002
-0.036061134 -0.017953696 0.51700002
-0.03471626 -0.017953696 0.51700002
-0.033371393 -0.017953696 0.51700002
-0.032026518 -0.017953696 0.51700002
-0.030681644 -0.017953696 0.51700002
-0.029280026 -0.01791897 0.51600003
-0.027937753 -0.01791897 0.51600003
-0.026647024 -0.017953696 0.51700002
-0.025302149 -0.017953696 0.51700002
-0.023957277 -0.017953696 0.51700002
-0.022612404 -0.017953696 0.51700002
-0.021267531 -0.017953696 0.51700002
-0.019922657 -0.017953696 0.51700002
-0.018577784 -0.017953696 0.51700002
-0.017232912 -0.017953696 0.51700002
-0.015888039 -0.017953696 0.51700002
-0.014543165 -0.017953696 0.51700002
-0.01322382 -0.017988423 0.51800001
-0.011876346 -0.017988423 0.51800001
-0.010528871 -0.017988423 0.51800001
-0.009181397 -0.017988423 0.51800001
-0.0078339223 -0.017988423 0.51800001
-0.0064989706 -0.01802315 0.51900005
-0.0051488946 -0.01802315 0.51900005
-0.0037988189 -0.01802315 0.51900005
-0.0024487427 -0.01802315 0.51900005
-0.001098667 -0.01802315 0.51900005
0.00025140878 -0.01802315 0.51900005
0.0016014847 -0.01802315 0.51900005
0.0029515605 -0.01802315 0.51900005
0.004301636 -0.01802315 0.51900005
0.005651712 -0.01802315 0.51900005
0.0070017884 -0.01802315 0.51900005
0.0083518643 -0.01802315 0.51900005
0.0097019393 -0.01802315 0.51900005
0.011052015 -0.01802315 0.51900005
0.012402092 -0.01802315 0.51900005
0.013752167 -0.01802315 0.51900005
0.015102244 -0.01802315 0.51900005
0.01645232 -0.01802315 0.51900005
0.017802395 -0.01802315 0.51900005
0.01915247 -0.01802315 0.51900005
0.020502547 -0.01802315 0.51900005
0.021852624 -0.01802315 0.51900005
0.023202697 -0.01802315 0.51900005
0.024600081 -0.018057877 0.52000004
0.025952758 -0.018057877 0.52000004
0.027357945 -0.018092602 0.52100003
0.028713224 -0.018092602 0.52100003
0.030068504 -0.018092602 0.52100003
0.031423781 -0.018092602 0.52100003
0.032841977 -0.01812733 0.52200001
0.034199852 -0.01812733 0.52200001
0.035557732 -0.01812733 0.52200001
0.036915611 -0.01812733 0.52200001
0.038273495 -0.01812733 0.52200001
0.039631374 -0.01812733 0.52200001
0.040989254 -0.01812733 0.52200001
0.042428255 -0.018162055 0.523
0.043788735 -0.018162055 0.523
0.045149218 -0.018162055 0.523
0.046509698 -0.018162055 0.523
0.047870182 -0.018162055 0.523
0.049230661 -0.018162055 0.523
0.050591137 -0.018162055 0.523
0.051951621 -0.018162055 0.523
0.0533121 -0.018162055 0.523
0.054672584 -0.018162055 0.523
0.056033064 -0.018162055 0.523
0.057393547 -0.018162055 0.523
0.058754027 -0.018162055 0.523
0.061567269 -0.015453375 0.44500002
0.062724851 -0.015453375 0.44500002
0.063738875 -0.015418649 0.44400004
0.064893857 -0.015418649 0.44400004
0.065900072 -0.015383922 0.44300002
0.067052454 -0.015383922 0.44300002
0.10628943 -0.01791897 0.51600003
0.10763171 -0.01791897 0.51600003
0.10897398 -0.01791897 0.51600003
0.11031625 -0.01791897 0.51600003
0.11165852 -0.01791897 0.51600003
0.11300079 -0.01791897 0.51600003
0.11456466 -0.017953696 0.51700002
0.11590953 -0.017953696 0.51700002
0.11702761 -0.01791897 0.51600003
0.11859928 -0.017953696 0.51700002
0.11994416 -0.017953696 0.51700002
0.12128902 -0.017953696 0.51700002
0.1226339 -0.017953696 0.51700002
0.12397877 -0.017953696 0.51700002
0.12532364 -0.017953696 0.51700002
0.12666851 -0.017953696 0.51700002
0.12801339 -0.017953696 0.51700002
0.12960847 -0.017988423 0.51800001
0.13095593 -0.017988423 0.51800001
0.13230342 -0.017988423 0.51800001
0.1336509 -0.017988423 0.51800001
0.13499837 -0.017988423 0.51800001
0.13634583 -0.017988423 0.51800001
0.13769333 -0.017988423 0.51800001
0.1390408 -0.017988423 0.51800001
0.14038827 -0.017988423 0.51800001
0.14173573 -0.017988423 0.51800001
0.14308321 -0.017988423 0.51800001
0.1444307 -0.017988423 0.51800001
0.1460596 -0.01802315 0.51900005
0.14740968 -0.01802315 0.51900005
0.14875975 -0.01802315 0.51900005
0.15010983 -0.01802315 0.51900005
0.15145992 -0.01802315 0.51900005
0.15251555 -0.017988423 0.51800001
0.15386301 -0.017988423 0.51800001
0.15491085 -0.017953696 0.51700002
0.15595348 -0.01791897 0.51600003
0.15729578 -0.01791897 0.51600003
0.1583306 -0.017884243 0.51500005
0.15936022 -0.017849514 0.514
0.16069728 -0.017849514 0.514
0.16140389 -0.017780062 0.51200002
0.16273576 -0.017780062 0.51200002
0.16342674 -0.017710609 0.51000005
0.16443034 -0.017675882 0.509
0.16542876 -0.017641155 0.50800002
0.16642198 -0.01760643 0.50700003
0.16707914 -0.017536975 0.505
0.16805933 -0.017502248 0.50400001
0.16903435 -0.017467523 0.50300002
0.17000414 -0.017432796 0.50200003
0.17062749 -0.017363342 0.5
0.17158428 -0.017328614 0.49900001
0.17218941 -0.017259162 0.49700001
0.17313321 -0.017224435 0.49600002
0.17372012 -0.017154982 0.49400002
0.17429666 -0.017085528 0.49200001
0.17486277 -0.017016076 0.49000001
0.17541848 -0.016946623 0.48800004
0.17632584 -0.016911896 0.48700002
0.17686336 -0.016842442 0.48500001
0.17739044 -0.016772989 0.48300001
0.17790714 -0.016703535 0.48100004
0.17841342 -0.016634082 0.47900003
0.1789093 -0.016564628 0.47700003
0.17977245 -0.016529901 0.47600001
0.18025012 -0.016460449 0.47400004
0.18071739 -0.016390996 0.47200003
0.18117425 -0.016321542 0.47000003
0.1816207 -0.016252089 0.46800002
0.18205675 -0.016182635 0.46600002
0.18287568 -0.01614791 0.46500003
0.18289763 -0.016043728 0.46200001
0.18330246 -0.015974274 0.46000001
0.1836969 -0.015904821 0.45800003
0.18408093 -0.015835369 0.45600003
0.18445455 -0.015765915 0.45400003
0.18522663 -0.015731188 0.45300001
0.18558206 -0.015661735 0.45100003
0.18592705 -0.015592282 0.44900003
0.18667835 -0.015557555 0.44800001
0.18742444 -0.015522828 0.44700003
0.18774343 -0.015453375 0.44500002
0.18847652 -0.015418649 0.44400004
0.18920439 -0.015383922 0.44300002
0.18992707 -0.015349195 0.44200003
0.19064455 -0.015314468 0.44100001
0.19135682 -0.015279742 0.44000003
0.19206388 -0.015245014 0.43900001
0.19232565 -0.01517556 0.43700001
0.19257702 -0.015106108 0.43500003
0.19281796 -0.015036655 0.43300003
0.19349641 -0.015001928 0.43200001
0.19326864 -0.014897748 0.42900002
0.19302528 -0.014793568 0.42600003
0.19322202 -0.014724115 0.42400002
0.19295003 -0.014619934 0.42100003
0.19266242 -0.014515754 0.41800001
0.19250652 -0.014342121 0.41300002
0.19276991 -0.014203214 0.40900001
0.19288599 -0.01413376 0.40700001
0.19346821 -0.014099034 0.40600002
-0.2812252 -0.016319694 0.50800002
-0.28045473 -0.016351819 0.509
-0.27913067 -0.016351819 0.509
-0.27780661 -0.016351819 0.509
-0.27648252 -0.016351819 0.509
-0.27515849 -0.016351819 0.509
-0.27383441 -0.016351819 0.509
-0.27251038 -0.016351819 0.509
-0.27118629 -0.016351819 0.509
-0.2698622 -0.016351819 0.509
-0.26853818 -0.016351819 0.509
-0.26721409 -0.016351819 0.509
-0.26589006 -0.016351819 0.509
-0.26456597 -0.016351819 0.509
-0.26272473 -0.016319694 0.50800002
-0.26140329 -0.016319694 0.50800002
-0.26008183 -0.016319694 0.50800002
-0.25876036 -0.016319694 0.50800002
-0.2574389 -0.016319694 0.50800002
-0.25611743 -0.016319694 0.50800002
-0.254796 -0.016319694 0.50800002
-0.2534745 -0.016319694 0.50800002
-0.25215307 -0.016319694 0.50800002
-0.2508316 -0.016319694 0.50800002
-0.24951014 -0.016319694 0.50800002
-0.24818866 -0.016319694 0.50800002
-0.24735317 -0.016351819 0.509
-0.24602909 -0.016351819 0.509
-0.24470504 -0.016351819 0.509
-0.24338098 -0.016351819 0.509
-0.24205691 -0.016351819 0.509
-0.24073285 -0.016351819 0.509
-0.23940879 -0.016351819 0.509
-0.23808473 -0.016351819 0.509
-0.23629551 -0.016319694 0.50800002
-0.23497406 -0.016319694 0.50800002
-0.23365259 -0.016319694 0.50800002
-0.2318738 -0.016287569 0.50700003
-0.23055494 -0.016287569 0.50700003
-0.22923607 -0.016287569 0.50700003
-0.22746767 -0.016255444 0.50600004
-0.22615142 -0.016255444 0.50600004
-0.22483516 -0.016255444 0.50600004
-0.22351891 -0.016255444 0.50600004
-0.22220264 -0.016255444 0.50600004
-0.22088638 -0.016255444 0.50600004
-0.21957013 -0.016255444 0.50600004
-0.21825387 -0.016255444 0.50600004
-0.21693762 -0.016255444 0.50600004
-0.21562134 -0.016255444 0.50600004
-0.21430509 -0.016255444 0.50600004
-0.21340975 -0.016287569 0.50700003
-0.21209089 -0.016287569 0.50700003
-0.21077204 -0.016287569 0.50700003
-0.20945317 -0.016287569 0.50700003
-0.20813431 -0.016287569 0.50700003
-0.20681545 -0.016287569 0.50700003
-0.20549659 -0.016287569 0.50700003
-0.20417772 -0.016287569 0.50700003
-0.20325898 -0.016319694 0.50800002
-0.20193753 -0.016319694 0.50800002
-0.20061606 -0.016319694 0.50800002
-0.1992946 -0.016319694 0.50800002
-0.19797313 -0.016319694 0.50800002
-0.19665167 -0.016319694 0.50800002
-0.19533022 -0.016319694 0.50800002
-0.19400875 -0.016319694 0.50800002
-0.1926873 -0.016319694 0.50800002
-0.19136582 -0.016319694 0.50800002
-0.19004436 -0.016319694 0.50800002
-0.18872291 -0.016319694 0.50800002
-0.18740144 -0.016319694 0.50800002
-0.18607999 -0.016319694 0.50800002
-0.18475851 -0.016319694 0.50800002
-0.18379815 -0.016351819 0.509
-0.18247409 -0.016351819 0.509
-0.18115003 -0.016351819 0.509
-0.17982596 -0.016351819 0.509
-0.1785019 -0.016351819 0.509
-0.17717783 -0.016351819 0.509
-0.17585377 -0.016351819 0.509
-0.17452972 -0.016351819 0.509
-0.17320564 -0.016351819 0.509
-0.17188159 -0.016351819 0.509
-0.17055753 -0.016351819 0.509
-0.16923347 -0.016351819 0.509
-0.1679094 -0.016351819 0.509
-0.16658533 -0.016351819 0.509
-0.16526127 -0.016351819 0.509
-0.16393721 -0.016351819 0.509
-0.16261315 -0.016351819 0.509
-0.1612891 -0.016351819 0.509
-0.15996502 -0.016351819 0.509
-0.15864097 -0.016351819 0.509
-0.15762599 -0.016383946 0.51000005
-0.15629932 -0.016383946 0.51000005
-0.15497264 -0.016383946 0.51000005
-0.15364599 -0.016383946 0.51000005
-0.15231933 -0.016383946 0.51000005
-0.15099266 -0.016383946 0.51000005
-0.149666 -0.016383946 0.51000005
-0.14833933 -0.016383946 0.51000005
-0.14701267 -0.016383946 0.51000005
-0.145686 -0.016383946 0.51000005
-0.14435935 -0.016383946 0.51000005
-0.14303268 -0.016383946 0.51000005
-0.141706 -0.016383946 0.51000005
-0.14065459 -0.016416071 0.51100004
-0.13905269 -0.016383946 0.51000005
-0.13772602 -0.016383946 0.51000005
-0.13639936 -0.016383946 0.51000005
-0.13533753 -0.016416071 0.51100004
-0.13400827 -0.016416071 0.51100004
-0.13267902 -0.016416071 0.51100004
-0.13134974 -0.016416071 0.51100004
-0.13002047 -0.016416071 0.51100004
-0.12869121 -0.016416071 0.51100004
-0.12761118 -0.016448196 0.51200002
-0.12627932 -0.016448196 0.51200002
-0.12494744 -0.016448196 0.51200002
-0.12361559 -0.016448196 0.51200002
-0.12228371 -0.016448196 0.51200002
-0.12095185 -0.016448196 0.51200002
-0.11961999 -0.016448196 0.51200002
-0.11828811 -0.016448196 0.51200002
-0.11695625 -0.016448196 0.51200002
-0.11562438 -0.016448196 0.51200002
-0.11429252 -0.016448196 0.51200002
-0.11296065 -0.016448196 0.51200002
-0.11162878 -0.016448196 0.51200002
-0.11051234 -0.016480321 0.51300001
-0.10917787 -0.016480321 0.51300001
-0.1078434 -0.016480321 0.51300001
-0.10650893 -0.016480321 0.51300001
-0.10517447 -0.016480321 0.51300001
-0.10384 -0.016480321 0.51300001
-0.10250553 -0.016480321 0.51300001
-0.10136828 -0.016512446 0.514
-0.1000312 -0.016512446 0.514
-0.098694138 -0.016512446 0.514
-0.097357064 -0.016512446 0.514
-0.096206814 -0.016544573 0.51500005
-0.094867148 -0.016544573 0.51500005
-0.093527474 -0.016544573 0.51500005
-0.092187807 -0.016544573 0.51500005
-0.090848126 -0.016544573 0.51500005
-0.089508459 -0.016544573 0.51500005
-0.088168792 -0.016544573 0.51500005
-0.086829118 -0.016544573 0.51500005
-0.085489452 -0.016544573 0.51500005
-0.083986372 -0.016512446 0.514
-0.082649305 -0.016512446 0.514
-0.081312232 -0.016512446 0.514
-0.080130763 -0.016544573 0.51500005
-0.078791097 -0.016544573 0.51500005
-0.077451423 -0.016544573 0.51500005
-0.076111756 -0.016544573 0.51500005
-0.074917272 -0.016576696 0.51600003
-0.073574997 -0.016576696 0.51600003
-0.072232723 -0.016576696 0.51600003
-0.071027838 -0.016608821 0.51700002
-0.069682971 -0.016608821 0.51700002
-0.068338089 -0.016608821 0.51700002
-0.066993222 -0.016608821 0.51700002
-0.06564834 -0.016608821 0.51700002
-0.064303473 -0.016608821 0.51700002
-0.062958598 -0.016608821 0.51700002
-0.061732899 -0.016640946 0.51800001
-0.060385425 -0.016640946 0.51800001
-0.059037954 -0.016640946 0.51800001
-0.057690479 -0.016640946 0.51800001
-0.056343004 -0.016640946 0.51800001
-0.0551017 -0.016673073 0.51900005
-0.053751625 -0.016673073 0.51900005
-0.05240155 -0.016673073 0.51900005
-0.051051475 -0.016673073 0.51900005
-0.04960563 -0.016640946 0.51800001
-0.048258156 -0.016640946 0.51800001
-0.046910681 -0.016640946 0.51800001
-0.045475248 -0.016608821 0.51700002
-0.044130374 -0.016608821 0.51700002
-0.042785499 -0.016608821 0.51700002
-0.041440628 -0.016608821 0.51700002
-0.040095758 -0.016608821 0.51700002
-0.038750883 -0.016608821 0.51700002
-0.037406009 -0.016608821 0.51700002
-0.036061134 -0.016608821 0.51700002
-0.034649111 -0.016576696 0.51600003
-0.033306845 -0.016576696 0.51600003
-0.03196457 -0.016576696 0.51600003
-0.030622298 -0.016576696 0.51600003
-0.029280026 -0.016576696 0.51600003
-0.027937753 -0.016576696 0.51600003
-0.026647024 -0.016608821 0.51700002
-0.025302149 -0.016608821 0.51700002
-0.023957277 -0.016608821 0.51700002
-0.022568667 -0.016576696 0.51600003
-0.021267531 -0.016608821 0.51700002
-0.019922657 -0.016608821 0.51700002
-0.018577784 -0.016608821 0.51700002
-0.017232912 -0.016608821 0.51700002
-0.015888039 -0.016608821 0.51700002
-0.014571294 -0.016640946 0.51800001
-0.01322382 -0.016640946 0.51800001
-0.011876346 -0.016640946 0.51800001
-0.010528871 -0.016640946 0.51800001
-0.009181397 -0.016640946 0.51800001
-0.0078339223 -0.016640946 0.51800001
-0.0064989706 -0.016673073 0.51900005
-0.0051488946 -0.016673073 0.51900005
-0.0037988189 -0.016673073 0.51900005
-0.0024487427 -0.016673073 0.51900005
-0.001098667 -0.016673073 0.51900005
0.00025189319 -0.016705198 0.52000004
0.0016045703 -0.016705198 0.52000004
0.0029572474 -0.016705198 0.52000004
0.0043099243 -0.016705198 0.52000004
0.0056626014 -0.016705198 0.52000004
0.0070017884 -0.016673073 0.51900005
0.0083518643 -0.016673073 0.51900005
0.0097019393 -0.016673073 0.51900005
0.011052015 -0.016673073 0.51900005
0.012402092 -0.016673073 0.51900005
0.013752167 -0.016673073 0.51900005
0.015102244 -0.016673073 0.51900005
0.01645232 -0.016673073 0.51900005
0.017802395 -0.016673073 0.51900005
0.01915247 -0.016673073 0.51900005
0.020502547 -0.016673073 0.51900005
0.021852624 -0.016673073 0.51900005
0.023247404 -0.016705198 0.52000004
0.024600081 -0.016705198 0.52000004
0.026002668 -0.016737323 0.52100003
0.027357945 -0.016737323 0.52100003
0.028713224 -0.016737323 0.52100003
0.030068504 -0.016737323 0.52100003
0.031423781 -0.016737323 0.52100003
0.032841977 -0.016769448 0.52200001
0.034134336 -0.016737323 0.52100003
0.035557732 -0.016769448 0.52200001
0.036915611 -0.016769448 0.52200001
0.038273495 -0.016769448 0.52200001
0.039631374 -0.016769448 0.52200001
0.040989254 -0.016769448 0.52200001
0.042347129 -0.016769448 0.52200001
0.043788735 -0.016801573 0.523
0.045062892 -0.016769448 0.52200001
0.046509698 -0.016801573 0.523
0.047870182 -0.016801573 0.523
0.049230661 -0.016801573 0.523
0.050591137 -0.016801573 0.523
0.051951621 -0.016801573 0.523
0.0533121 -0.016801573 0.523
0.054568049 -0.016769448 0.52200001
0.056033064 -0.016801573 0.523
0.057393547 -0.016801573 0.523
0.058754027 -0.016801573 0.523
0.061567269 -0.014295795 0.44500002
0.062583901 -0.01426367 0.44400004
0.063738875 -0.01426367 0.44400004
0.064747699 -0.014231544 0.44300002
0.065900072 -0.014231544 0.44300002
0.066901095 -0.014199419 0.44200003
0.067896903 -0.014167293 0.44100001
0.10763171 -0.016576696 0.51600003
0.10897398 -0.016576696 0.51600003
0.11053004 -0.016608821 0.51700002
0.11187492 -0.016608821 0.51700002
0.11321978 -0.016608821 0.51700002
0.11456466 -0.016608821 0.51700002
0.11590953 -0.016608821 0.51700002
0.11725441 -0.016608821 0.51700002
0.11859928 -0.016608821 0.51700002
0.11994416 -0.016608821 0.51700002
0.12128902 -0.016608821 0.51700002
0.1226339 -0.016608821 0.51700002
0.12397877 -0.016608821 0.51700002
0.12532364 -0.016608821 0.51700002
0.12691352 -0.016640946 0.51800001
0.128261 -0.016640946 0.51800001
0.12960847 -0.016640946 0.51800001
0.13095593 -0.016640946 0.51800001
0.13230342 -0.016640946 0.51800001
0.1336509 -0.016640946 0.51800001
0.13499837 -0.016640946 0.51800001
0.13634583 -0.016640946 0.51800001
0.13769333 -0.016640946 0.51800001
0.1390408 -0.016640946 0.51800001
0.1406593 -0.016673073 0.51900005
0.14200938 -0.016673073 0.51900005
0.14335944 -0.016673073 0.51900005
0.14470953 -0.016673073 0.51900005
0.1460596 -0.016673073 0.51900005
0.14740968 -0.016673073 0.51900005
0.14875975 -0.016673073 0.51900005
0.15010983 -0.016673073 0.51900005
0.15116806 -0.016640946 0.51800001
0.15251555 -0.016640946 0.51800001
0.15356599 -0.016608821 0.51700002
0.15461121 -0.016576696 0.51600003
0.15595348 -0.016576696 0.51600003
0.15699095 -0.016544573 0.51500005
0.15802315 -0.016512446 0.514
0.15905018 -0.016480321 0.51300001
0.16007201 -0.016448196 0.51200002
0.16108866 -0.016416071 0.51100004
0.16210008 -0.016383946 0.51000005
0.16310628 -0.016351819 0.509
0.16410729 -0.016319694 0.50800002
0.16510311 -0.016287569 0.50700003
0.16576548 -0.016223317 0.505
0.16674829 -0.016191192 0.50400001
0.16772589 -0.016159067 0.50300002
0.1686983 -0.016126942 0.50200003
0.16932683 -0.01606269 0.5
0.17028624 -0.016030565 0.49900001
0.17124043 -0.01599844 0.49800003
0.17184296 -0.01593419 0.49600002
0.17243509 -0.015869938 0.49400002
0.17336847 -0.015837813 0.49300003
0.17429666 -0.015805688 0.49200001
0.17486277 -0.015741436 0.49000001
0.17541848 -0.015677186 0.48800004
0.17596379 -0.015612936 0.48600003
0.1764987 -0.015548685 0.48400003
0.17702319 -0.015484434 0.48200002
0.17753726 -0.015420183 0.48000002
0.17841342 -0.015388058 0.47900003
0.17853422 -0.015291682 0.47600001
0.17939478 -0.015259556 0.47500002
0.17986985 -0.015195305 0.47300002
0.18033451 -0.015131054 0.47100002
0.18078876 -0.015066803 0.46900001
0.18123262 -0.015002552 0.46700001
0.18166608 -0.014938302 0.46500003
0.18208912 -0.014874052 0.46300003
0.18250175 -0.014809801 0.46100003
0.18290399 -0.01474555 0.45900002
0.1832958 -0.014681299 0.45700002
0.18367724 -0.014617048 0.45500001
0.18404825 -0.014552797 0.45300001
0.18440887 -0.014488547 0.45100003
0.18517056 -0.014456421 0.45000002
0.18551296 -0.014392171 0.44800001
0.18584496 -0.01432792 0.44600001
0.18658586 -0.014295795 0.44500002
0.18732154 -0.01426367 0.44400004
0.18805201 -0.014231544 0.44300002
0.18877731 -0.014199419 0.44200003
0.18949737 -0.014167293 0.44100001
0.19021225 -0.014135168 0.44000003
0.19048701 -0.014070917 0.43800002
0.19118887 -0.014038791 0.43700001
0.19144545 -0.013974541 0.43500003
0.19169161 -0.013910291 0.43300003
0.19237265 -0.013878165 0.43200001
0.19260059 -0.013813914 0.43000001
0.19236763 -0.013717538 0.42700002
0.19257216 -0.013653287 0.42500001
0.19231059 -0.013556911 0.42200002
0.1920334 -0.013460536 0.41900003
0.19220151 -0.013396285 0.41700003
0.19189569 -0.013299908 0.41400003
0.19204041 -0.013235657 0.41200003
0.1921747 -0.013171406 0.41000003
0.19229859 -0.013107155 0.40800002
0.19288599 -0.013075029 0.40700001
-0.2812252 -0.014998232 0.50800002
-0.28045473 -0.015027756 0.509
-0.27913067 -0.015027756 0.509
-0.27780661 -0.015027756 0.509
-0.27648252 -0.015027756 0.509
-0.27515849 -0.015027756 0.509
-0.27383441 -0.015027756 0.509
-0.27251038 -0.015027756 0.509
-0.27118629 -0.015027756 0.509
-0.2698622 -0.015027756 0.509
-0.26853818 -0.015027756 0.509
-0.26721409 -0.015027756 0.509
-0.26589006 -0.015027756 0.509
-0.26404622 -0.014998232 0.50800002
-0.26272473 -0.014998232 0.50800002
-0.26140329 -0.014998232 0.50800002
-0.26008183 -0.014998232 0.50800002
-0.25876036 -0.014998232 0.50800002
-0.2574389 -0.014998232 0.50800002
-0.25611743 -0.014998232 0.50800002
-0.254796 -0.014998232 0.50800002
-0.2534745 -0.014998232 0.50800002
-0.25215307 -0.014998232 0.50800002
-0.25132534 -0.015027756 0.509
-0.25000128 -0.015027756 0.509
-0.24867722 -0.015027756 0.509
-0.24735317 -0.015027756 0.509
-0.24602909 -0.015027756 0.509
-0.24470504 -0.015027756 0.509
-0.24338098 -0.015027756 0.509
-0.24205691 -0.015027756 0.509
-0.24073285 -0.015027756 0.509
-0.23940879 -0.015027756 0.509
-0.23808473 -0.015027756 0.509
-0.23676065 -0.015027756 0.509
-0.23497406 -0.014998232 0.50800002
-0.23365259 -0.014998232 0.50800002
-0.23233114 -0.014998232 0.50800002
-0.23055494 -0.014968709 0.50700003
-0.22923607 -0.014968709 0.50700003
-0.22791721 -0.014968709 0.50700003
-0.22615142 -0.014939185 0.50600004
-0.22483516 -0.014939185 0.50600004
-0.22351891 -0.014939185 0.50600004
-0.22220264 -0.014939185 0.50600004
-0.22088638 -0.014939185 0.50600004
-0.21957013 -0.014939185 0.50600004
-0.21825387 -0.014939185 0.50600004
-0.21693762 -0.014939185 0.50600004
-0.21562134 -0.014939185 0.50600004
-0.21472861 -0.014968709 0.50700003
-0.21340975 -0.014968709 0.50700003
-0.21209089 -0.014968709 0.50700003
-0.21077204 -0.014968709 0.50700003
-0.20945317 -0.014968709 0.50700003
-0.20813431 -0.014968709 0.50700003
-0.20681545 -0.014968709 0.50700003
-0.20549659 -0.014968709 0.50700003
-0.20458044 -0.014998232 0.50800002
-0.20325898 -0.014998232 0.50800002
-0.20193753 -0.014998232 0.50800002
-0.20061606 -0.014998232 0.50800002
-0.1992946 -0.014998232 0.50800002
-0.19797313 -0.014998232 0.50800002
-0.19665167 -0.014998232 0.50800002
-0.19533022 -0.014998232 0.50800002
-0.19362685 -0.014968709 0.50700003
-0.1926873 -0.014998232 0.50800002
-0.19136582 -0.014998232 0.50800002
-0.19004436 -0.014998232 0.50800002
-0.18872291 -0.014998232 0.50800002
-0.18740144 -0.014998232 0.50800002
-0.18607999 -0.014998232 0.50800002
-0.18475851 -0.014998232 0.50800002
-0.18343706 -0.014998232 0.50800002
-0.18247409 -0.015027756 0.509
-0.18115003 -0.015027756 0.509
-0.17982596 -0.015027756 0.509
-0.1785019 -0.015027756 0.509
-0.17717783 -0.015027756 0.509
-0.17585377 -0.015027756 0.509
-0.17452972 -0.015027756 0.509
-0.17320564 -0.015027756 0.509
-0.17188159 -0.015027756 0.509
-0.17055753 -0.015027756 0.509
-0.16923347 -0.015027756 0.509
-0.1679094 -0.015027756 0.509
-0.16658533 -0.015027756 0.509
-0.16526127 -0.015027756 0.509
-0.1642593 -0.015057282 0.51000005
-0.16293265 -0.015057282 0.51000005
-0.16160598 -0.015057282 0.51000005
-0.1602793 -0.015057282 0.51000005
-0.15895264 -0.015057282 0.51000005
-0.15762599 -0.015057282 0.51000005
-0.15629932 -0.015057282 0.51000005
-0.15497264 -0.015057282 0.51000005
-0.15364599 -0.015057282 0.51000005
-0.15231933 -0.015057282 0.51000005
-0.15099266 -0.015057282 0.51000005
-0.149666 -0.015057282 0.51000005
-0.14833933 -0.015057282 0.51000005
-0.14701267 -0.015057282 0.51000005
-0.145686 -0.015057282 0.51000005
-0.14435935 -0.015057282 0.51000005
-0.14303268 -0.015057282 0.51000005
-0.14198385 -0.015086805 0.51100004
-0.14037934 -0.015057282 0.51000005
-0.13905269 -0.015057282 0.51000005
-0.13799608 -0.015086805 0.51100004
-0.1366668 -0.015086805 0.51100004
-0.13533753 -0.015086805 0.51100004
-0.13400827 -0.015086805 0.51100004
-0.13267902 -0.015086805 0.51100004
-0.13134974 -0.015086805 0.51100004
-0.13002047 -0.015086805 0.51100004
-0.12894304 -0.015116329 0.51200002
-0.12761118 -0.015116329 0.51200002
-0.12627932 -0.015116329 0.51200002
-0.12494744 -0.015116329 0.51200002
-0.12361559 -0.015116329 0.51200002
-0.12228371 -0.015116329 0.51200002
-0.12095185 -0.015116329 0.51200002
-0.11961999 -0.015116329 0.51200002
-0.11828811 -0.015116329 0.51200002
-0.11695625 -0.015116329 0.51200002
-0.11562438 -0.015116329 0.51200002
-0.11451574 -0.015145852 0.51300001
-0.11318128 -0.015145852 0.51300001
-0.1118468 -0.015145852 0.51300001
-0.11051234 -0.015145852 0.51300001
-0.10917787 -0.015145852 0.51300001
-0.1078434 -0.015145852 0.51300001
-0.10650893 -0.015145852 0.51300001
-0.10537948 -0.015175376 0.514
-0.10404242 -0.015175376 0.514
-0.10270534 -0.015175376 0.514
-0.1015655 -0.015204902 0.51500005
-0.10022582 -0.015204902 0.51500005
-0.098886155 -0.015204902 0.51500005
-0.097546481 -0.015204902 0.51500005
-0.096206814 -0.015204902 0.51500005
-0.095051356 -0.015234426 0.51600003
-0.093709074 -0.015234426 0.51600003
-0.092366807 -0.015234426 0.51600003
-0.090848126 -0.015204902 0.51500005
-0.089508459 -0.015204902 0.51500005
-0.088168792 -0.015204902 0.51500005
-0.086829118 -0.015204902 0.51500005
-0.085489452 -0.015204902 0.51500005
-0.084149778 -0.015204902 0.51500005
-0.082810111 -0.015204902 0.51500005
-0.081470437 -0.015204902 0.51500005
-0.080130763 -0.015204902 0.51500005
-0.078791097 -0.015204902 0.51500005
-0.077601813 -0.015234426 0.51600003
-0.076259546 -0.015234426 0.51600003
-0.074917272 -0.015234426 0.51600003
-0.073574997 -0.015234426 0.51600003
-0.072372705 -0.01526395 0.51700002
-0.071027838 -0.01526395 0.51700002
-0.069682971 -0.01526395 0.51700002
-0.068470269 -0.015293472 0.51800001
-0.067122802 -0.015293472 0.51800001
-0.06577532 -0.015293472 0.51800001
-0.064427853 -0.015293472 0.51800001
-0.06308037 -0.015293472 0.51800001
-0.061732899 -0.015293472 0.51800001
-0.060385425 -0.015293472 0.51800001
-0.059151933 -0.015322998 0.51900005
-0.057801854 -0.015322998 0.51900005
-0.056451779 -0.015322998 0.51900005
-0.0551017 -0.015322998 0.51900005
-0.053751625 -0.015322998 0.51900005
-0.05240155 -0.015322998 0.51900005
-0.051051475 -0.015322998 0.51900005
-0.0497014 -0.015322998 0.51900005
-0.048258156 -0.015293472 0.51800001
-0.046910681 -0.015293472 0.51800001
-0.045475248 -0.01526395 0.51700002
-0.044130374 -0.01526395 0.51700002
-0.042702742 -0.015234426 0.51600003
-0.041360475 -0.015234426 0.51600003
-0.040018201 -0.015234426 0.51600003
-0.03867593 -0.015234426 0.51600003
-0.037333656 -0.015234426 0.51600003
-0.035991386 -0.015234426 0.51600003
-0.034649111 -0.015234426 0.51600003
-0.033306845 -0.015234426 0.51600003
-0.03196457 -0.015234426 0.51600003
-0.030622298 -0.015234426 0.51600003
