# .PCD v0.7 - Point Cloud Data file format
VERSION 0.7
FIELDS x y z
SIZE 4 4 4
TYPE F F F
COUNT 1 1 1
WIDTH 1305
HEIGHT 1
VIEWPOINT 0 0 0 1 0 0 0
POINTS 1305
DATA ascii
0.011120155 -0.089546606 0.44087383
0.013649374 -0.090939224 0.44298679
0.016689822 -0.092644006 0.44594184
0.019748002 -0.094356924 0.44888955
0.023326248 -0.096386015 0.45267564
0.026926652 -0.098425269 0.45645252
0.031056017 -0.10078478 0.4610641
0.034702986 -0.10284539 0.4648217
-0.012599349 -0.079731673 0.48474535
-0.013571084 -0.07891129 0.47987437
-0.018105522 -0.075258031 0.45960444
-0.017906144 -0.075199366 0.45741197
-0.017285362 -0.075408787 0.45609942
-0.016236514 -0.075889409 0.45566401
-0.015622377 -0.076095805 0.45435423
-0.015012681 -0.076300174 0.45304623
-0.013968289 -0.07677874 0.4526127
-0.013365224 -0.076980069 0.45130751
-0.012323022 -0.077457637 0.45087489
-0.011280835 -0.077935204 0.45044225
-0.010238647 -0.078412771 0.45000964
-0.0091964453 -0.078890339 0.449577
-0.0081542581 -0.079367906 0.44914436
-0.007112056 -0.079845473 0.44871175
-0.0060698688 -0.08032304 0.44827911
-0.0050276816 -0.080800608 0.44784647
-0.0039854646 -0.081278175 0.44741386
-0.0029432774 -0.081755742 0.44698122
-0.0019010901 -0.08223331 0.44654861
-0.00085888803 -0.082710892 0.44611597
0.00018331409 -0.083188444 0.44568333
0.0012255013 -0.083666027 0.44525072
0.0022676885 -0.084143579 0.44481808
0.0033098906 -0.084621161 0.44438547
0.0043520778 -0.085098714 0.44395283
0.00539428 -0.085576296 0.44352019
0.0064364672 -0.086053863 0.44308758
0.0074786544 -0.08653143 0.44265494
0.0085208714 -0.087008998 0.4422223
0.0095630586 -0.087486565 0.44178969
0.010605246 -0.087964132 0.44135705
0.011647448 -0.0884417 0.44092441
0.014180034 -0.089827269 0.44303769
0.016725957 -0.091218963 0.44514546
0.019786388 -0.092921436 0.44809452
0.023368031 -0.094937772 0.45188203
0.027477503 -0.097270995 0.45650536
0.031105727 -0.099308655 0.46027356
0.035266191 -0.10166526 0.46487573
-0.01203616 -0.078551546 0.48479939
-0.013013497 -0.077742919 0.47992784
-0.016078502 -0.075256094 0.46536857
-0.017144531 -0.074406832 0.46053389
-0.017374352 -0.074085057 0.457463
-0.016323283 -0.074566677 0.45702666
-0.015705854 -0.074777454 0.45571491
-0.01509285 -0.07498619 0.45440504
-0.014484271 -0.075192913 0.45309693
-0.013880134 -0.075397596 0.45179072
-0.012837917 -0.075875163 0.45135808
-0.011795729 -0.07635273 0.45092547
-0.011200458 -0.076553345 0.4496229
-0.010160476 -0.077029914 0.44919121
-0.0091204941 -0.077506453 0.4487595
-0.0080805272 -0.077983007 0.44832778
-0.0065847635 -0.078740567 0.44876233
-0.0055425614 -0.079218149 0.44832969
-0.0045003742 -0.079695702 0.44789708
-0.0034581721 -0.080173284 0.44746444
-0.0024159849 -0.080650836 0.4470318
-0.0013737977 -0.081128418 0.44659919
-0.00033158064 -0.081605986 0.44616655
0.00071060658 -0.082083553 0.4457339
0.0017527938 -0.08256112 0.44530129
0.0027949959 -0.083038688 0.44486865
0.003837198 -0.083516255 0.44443601
0.0048793852 -0.083993822 0.4440034
0.0064039826 -0.0847646 0.44442594
0.0069637746 -0.084948957 0.44313815
0.0080059618 -0.085426524 0.44270551
0.0090481639 -0.085904092 0.44227287
0.010090351 -0.086381659 0.44184026
0.011132538 -0.086859226 0.44140762
0.012670442 -0.087636098 0.44182464
0.014710695 -0.088715315 0.44308859
0.016759843 -0.089798614 0.44434887
0.020324916 -0.091793031 0.44814616
0.023407578 -0.093494236 0.45108825
0.031662196 -0.098142624 0.46032691
0.035318166 -0.1001787 0.4640865
-0.011889964 -0.07711105 0.48397046
-0.013461009 -0.075767517 0.47511849
-0.01448828 -0.074950337 0.47026485
-0.016609386 -0.07328546 0.46058521
-0.016842574 -0.072970748 0.45751399
-0.015791506 -0.073452383 0.45707768
-0.015175194 -0.0736655 0.45576581
-0.015000269 -0.073607072 0.45358115
-0.014395028 -0.073815122 0.45227394
-0.013352841 -0.07429269 0.45184129
-0.012754232 -0.0744977 0.45053679
-0.01171425 -0.074974254 0.4501051
-0.010674268 -0.075450808 0.44967338
-0.010084555 -0.075651735 0.44837257
-0.009046793 -0.076127276 0.44794178
-0.0075543523 -0.076880455 0.44837826
-0.0065143704 -0.077357009 0.44794655
-0.0054743886 -0.077833563 0.44751483
-0.0044344217 -0.078310102 0.44708312
-0.0029308796 -0.079068378 0.44751501
-0.0018886924 -0.079545945 0.44708237
-0.00084650517 -0.080023512 0.44664976
0.00019571185 -0.08050108 0.44621712
0.0012378991 -0.080978647 0.44578448
0.0022800863 -0.081456214 0.44535187
0.0033222884 -0.081933782 0.44491923
0.0043644905 -0.082411349 0.44448662
0.0058879852 -0.083178759 0.44491017
0.0069323927 -0.083657354 0.4444766
0.0079768002 -0.08413592 0.44404307
0.0090212226 -0.084614515 0.44360954
0.010065615 -0.085093096 0.44317597
0.011110038 -0.085571676 0.44274241
0.012154445 -0.086050272 0.44230887
0.013198853 -0.086528853 0.44187534
0.01524137 -0.08760336 0.44313949
0.017292753 -0.088681966 0.44439998
0.019856453 -0.090064615 0.44650379
0.023444891 -0.09205541 0.45029423
0.035880238 -0.099000931 0.46414042
-0.011327893 -0.075933263 0.48402438
-0.014366686 -0.073544398 0.46943703
-0.015423968 -0.072727785 0.46459299
-0.015879363 -0.072120547 0.45844251
-0.015693367 -0.072072923 0.4562521
-0.014644533 -0.072553545 0.45581672
-0.014471859 -0.072499827 0.45363185
-0.013867736 -0.072710216 0.45232451
-0.013268039 -0.072918594 0.45101899
-0.012672782 -0.07312493 0.44971529
-0.011635035 -0.073600471 0.44928449
-0.011046439 -0.073803753 0.44798356
-0.010010898 -0.074278265 0.44755369
-0.0089753568 -0.074752793 0.44712383
-0.0079398155 -0.07522732 0.44669396
-0.0064462423 -0.075978145 0.44713056
-0.0049482286 -0.076731011 0.44756532
-0.0039082468 -0.077207565 0.4471336
-0.0028682649 -0.077684104 0.44670188
-0.0018282831 -0.078160658 0.44627017
-0.00078831613 -0.078637213 0.44583848
0.00072300434 -0.079396188 0.44626769
0.0017651916 -0.079873741 0.44583505
0.0028073937 -0.080351323 0.44540244
0.0038495958 -0.080828875 0.4449698
0.0053719878 -0.081592917 0.4453944
0.0064163953 -0.082071513 0.44496086
0.0074608028 -0.082550094 0.4445273
0.0085052252 -0.083028674 0.44409376
0.0095496327 -0.08350727 0.4436602
0.01059404 -0.083985835 0.44322667
0.011638463 -0.084464431 0.4427931
0.012682855 -0.084943011 0.44235957
0.013727278 -0.085421592 0.441926
0.01577203 -0.086491406 0.4431904
0.017323285 -0.08726868 0.44360304
0.019888133 -0.088643253 0.4457081
0.023479968 -0.090621263 0.44949999
-0.011042699 -0.074755728 0.48630753
-0.011185065 -0.074499801 0.48319513
-0.011762187 -0.073981106 0.47920609
-0.013821438 -0.072401881 0.46948934
-0.014884323 -0.071597025 0.46464476
-0.01553908 -0.071042754 0.46068788
-0.015346453 -0.071003899 0.45849362
-0.014727935 -0.071223766 0.4571797
-0.014550835 -0.071177796 0.45499188
-0.013943434 -0.071392566 0.45368254
-0.013781846 -0.071339488 0.45150116
-0.013185501 -0.071549192 0.45019644
-0.012593597 -0.07175687 0.44889355
-0.011558056 -0.072231382 0.44846368
-0.010522515 -0.072705895 0.44803381
-0.0099394619 -0.072909504 0.44673464
-0.0089061558 -0.073383018 0.44630569
-0.0078728199 -0.073856518 0.44587675
-0.0063803494 -0.074603975 0.44631436
-0.0048834085 -0.075353473 0.44675013
-0.0038456619 -0.075829014 0.44631934
-0.00234209 -0.076581568 0.44675237
-0.0013021231 -0.077058107 0.44632065
-0.00026214123 -0.077534661 0.44588894
0.00077784061 -0.078011215 0.44545722
0.0022924989 -0.078768849 0.44588566
0.0033347011 -0.079246417 0.44545302
0.0043768883 -0.079723984 0.44502038
0.0059004128 -0.080485672 0.44544509
0.0069448203 -0.080964252 0.44501153
0.0079892278 -0.081442833 0.44457799
0.0090336502 -0.081921428 0.44414443
0.010078058 -0.082400009 0.44371089
0.011122465 -0.08287859 0.44327733
0.012166888 -0.08335717 0.44284379
0.013708144 -0.084126994 0.44326118
0.014754772 -0.084606588 0.44282672
0.01630269 -0.085379452 0.4432413
0.017855063 -0.086154372 0.44365406
0.019917578 -0.087226599 0.4449122
0.023512781 -0.089191854 0.44870558
-0.01131466 -0.073068649 0.48459336
-0.011464834 -0.072817743 0.48148248
-0.0116283 -0.072560757 0.47837716
-0.012654692 -0.07178694 0.47351453
-0.013703227 -0.07100299 0.46866113
-0.014773935 -0.070208877 0.46381694
-0.015003935 -0.069921397 0.4607392
-0.014813542 -0.069887236 0.45854473
-0.014196157 -0.070109457 0.45723069
-0.014021307 -0.070068188 0.45504266
-0.013855323 -0.070022851 0.45285827
-0.013255671 -0.070236936 0.45155162
-0.013105214 -0.070184492 0.44937369
-0.012069672 -0.070659012 0.44894382
-0.011483312 -0.070867002 0.44764268
-0.010449991 -0.071340509 0.44721371
-0.0094166696 -0.071814016 0.44678476
-0.0088391751 -0.072017938 0.44548735
-0.0073500127 -0.072761014 0.44592687
-0.0063166916 -0.073234528 0.44549793
-0.0048208833 -0.073980644 0.44593474
-0.003785342 -0.074455172 0.44550487
-0.0022828579 -0.075204343 0.44593892
-0.0012450814 -0.075679883 0.44550812
0.00026403368 -0.076432109 0.44593942
0.0013040155 -0.076908663 0.44550771
0.0028197914 -0.077663943 0.4459362
0.0038619936 -0.07814151 0.44550359
0.0049041808 -0.078619078 0.44507095
0.0064288378 -0.079378426 0.44549578
0.0074732304 -0.079857007 0.44506222
0.0085176528 -0.080335587 0.44462866
0.0095620602 -0.080814168 0.44419512
0.011097804 -0.081578583 0.44461539
0.012144431 -0.082058191 0.44418091
0.013191074 -0.0825378 0.44374645
0.014237702 -0.083017394 0.44331199
0.01528433 -0.083496988 0.4428775
0.016833365 -0.084267497 0.4432922
0.017882213 -0.084748119 0.44285679
0.019944757 -0.08581464 0.44411609
0.023543358 -0.087767124 0.44791093
0.035503596 -0.094279528 0.46092752
0.040231198 -0.09687075 0.46636915
-0.010752589 -0.071890861 0.48464727
-0.011327624 -0.071396038 0.48065272
-0.011920363 -0.070893109 0.47666556
-0.012530863 -0.070382029 0.47268578
-0.013587236 -0.069608808 0.46783274
-0.014235422 -0.069080457 0.46386859
-0.014468789 -0.068800032 0.46079054
-0.014280647 -0.068770587 0.45859584
-0.013664365 -0.068995155 0.45728171
-0.01349175 -0.06895858 0.45509344
-0.013328016 -0.068917952 0.45290887
-0.013173148 -0.068873256 0.45072794
-0.012581289 -0.069086641 0.44942394
-0.011993825 -0.069297999 0.44812176
-0.01096049 -0.069771498 0.44769281
-0.010379702 -0.069979817 0.44639343
-0.0093486011 -0.070452303 0.44596541
-0.0083174855 -0.070924789 0.44553739
-0.0072863698 -0.071397275 0.44510937
-0.0062552691 -0.071869761 0.44468135
-0.0047605485 -0.072612524 0.44511914
-0.0032614022 -0.073357314 0.44555512
-0.0022258461 -0.073831841 0.44512525
-0.0011903048 -0.074306369 0.44469538
0.00031772256 -0.075055227 0.4451277
0.0018301904 -0.075806111 0.44555816
0.0028701723 -0.076282665 0.44512647
0.004389286 -0.077036619 0.44555417
0.0054314733 -0.077514172 0.44512153
0.0069572479 -0.078271165 0.44554645
0.0080016553 -0.078749746 0.44511291
0.0095340908 -0.079509795 0.44553512
0.010580719 -0.079989389 0.44510064
0.011627346 -0.080468982 0.44466618
0.013168633 -0.081233084 0.44508463
0.014217481 -0.081713706 0.44464925
0.015266329 -0.082194313 0.44421387
0.016315177 -0.082674935 0.44377849
0.017364025 -0.083155543 0.4433431
0.018918633 -0.083925754 0.44375607
0.020477653 -0.084697992 0.4441672
0.02357167 -0.086347103 0.44711605
0.027708232 -0.088589579 0.45174873
0.035544366 -0.092816502 0.46013725
0.039758533 -0.095094562 0.46473774
-0.010610923 -0.070465475 0.4838168
-0.010770023 -0.070227668 0.48070621
-0.011367261 -0.069734134 0.4767186
-0.0124093 -0.068981811 0.4718568
-0.013044223 -0.068470992 0.46788484
-0.013696909 -0.067952052 0.46392027
-0.013933629 -0.067678675 0.46084186
-0.013747722 -0.067653924 0.45864695
-0.013132572 -0.067880854 0.4573327
-0.012962222 -0.06784898 0.45514426
-0.012800723 -0.067813054 0.45295945
-0.012648106 -0.067773059 0.45077831
-0.012057349 -0.067988798 0.44947419
-0.011471018 -0.068202503 0.44817191
-0.010889128 -0.068414181 0.44687149
-0.0098580122 -0.068886667 0.44644347
-0.0092827678 -0.069095291 0.44514582
-0.0082538724 -0.069566764 0.44471869
-0.0072249919 -0.070038237 0.44429159
-0.0057335943 -0.070776612 0.44473138
-0.0047024786 -0.071249105 0.44430333
-0.0032044202 -0.071990535 0.44474033
-0.0021710992 -0.072464034 0.44431138
-0.00066637993 -0.073208511 0.44474566
0.00036916137 -0.073683023 0.44431579
0.0018805265 -0.074430555 0.44474727
0.0033963472 -0.075180113 0.44517693
0.0044363141 -0.075656667 0.44474521
0.0059587806 -0.07640928 0.4451721
0.0070009828 -0.076886848 0.44473949
0.0085300803 -0.0776425 0.44516358
0.0095744878 -0.078121081 0.44473004
0.011110261 -0.078879774 0.44515145
0.012156889 -0.079359382 0.44471696
0.013699293 -0.08012113 0.44513553
0.014748141 -0.080601752 0.44470015
0.015796989 -0.081082359 0.44426477
0.016845837 -0.081562981 0.44382939
0.018399358 -0.082329825 0.44424337
0.019450426 -0.08281146 0.44380707
0.021010578 -0.083581328 0.44421831
0.024109066 -0.085221037 0.44716761
0.027738839 -0.087159142 0.45095524
0.039281368 -0.093327761 0.46310583
-0.0099007934 -0.069514707 0.48698705
-0.010049969 -0.069290042 0.4838706
-0.010636181 -0.068813026 0.47987613
-0.011240125 -0.068327874 0.47588903
-0.011861801 -0.067834601 0.47190931
-0.012931615 -0.067083858 0.46705613
-0.013158381 -0.066823639 0.46397191
-0.013398468 -0.066557318 0.46089318
-0.013214827 -0.066537276 0.45869806
-0.012600794 -0.066766545 0.45738372
-0.012432665 -0.06673938 0.45519504
-0.012273431 -0.066708148 0.45301002
-0.012568951 -0.066416427 0.4499543
-0.011981547 -0.066633493 0.44865102
-0.011398539 -0.066848546 0.44734958
-0.010367438 -0.067321032 0.44692153
-0.009791106 -0.067533024 0.44562283
-0.0087622106 -0.068004489 0.44519573
-0.0081925243 -0.06821344 0.44389978
-0.0071658492 -0.068683892 0.44347361
-0.0056755394 -0.069418907 0.44391441
-0.004180789 -0.070155956 0.44435337
-0.0031496882 -0.070628442 0.44392535
-0.001648277 -0.071368538 0.44436154
-0.00061497092 -0.071842045 0.44393259
0.00089308619 -0.07258518 0.44436604
0.0024055839 -0.073330358 0.44479764
0.0039225221 -0.074077561 0.44522738
0.0049625039 -0.074554116 0.4447957
0.0064860731 -0.075304374 0.44522268
0.0075282753 -0.075781941 0.44479007
0.0090584904 -0.07653524 0.44521427
0.010102898 -0.07701382 0.44478071
0.011639804 -0.077770174 0.44520223
0.012686431 -0.078249782 0.44476777
0.014229953 -0.079009175 0.44518644
0.015278816 -0.079489797 0.44475105
0.016327649 -0.079970405 0.44431567
0.017880082 -0.08073388 0.4447307
0.018931136 -0.081215516 0.44429439
0.019982204 -0.081697151 0.44385809
0.022053689 -0.082750559 0.44511706
0.025158897 -0.084381878 0.44806588
0.028281838 -0.086021334 0.45100731
0.036138207 -0.090194494 0.45940003
0.039842337 -0.092152342 0.46315962
-0.0097568929 -0.068090342 0.48615569
-0.0099116415 -0.06787172 0.48303983
-0.010504544 -0.067403093 0.47904587
-0.011115208 -0.066926323 0.47505924
-0.01174359 -0.066441424 0.47107998
-0.012821227 -0.065701433 0.46622717
-0.013053596 -0.065447256 0.46314356
-0.012863338 -0.065435961 0.46094453
-0.012681916 -0.065420613 0.45874918
-0.012069017 -0.065652236 0.45743471
-0.011903137 -0.065629773 0.45524582
-0.012190938 -0.065350182 0.45218521
-0.012045026 -0.065318577 0.45000455
-0.011458725 -0.065538004 0.44870114
-0.010876849 -0.065755397 0.44739962
-0.010299429 -0.065970756 0.44609988
-0.0092705488 -0.066442229 0.44567278
-0.0086997598 -0.066654541 0.44437581
-0.0076730847 -0.067124993 0.44394961
-0.0066464096 -0.067595452 0.44352344
-0.0051549673 -0.068328112 0.44396433
-0.0041260868 -0.068799585 0.44353724
-0.0026279986 -0.0695353 0.44397539
-0.0015968978 -0.070007786 0.44354737
-9.2148781e-05 -0.070746541 0.44398272
0.001417011 -0.071487337 0.44441628
0.0024525523 -0.07196185 0.44398642
0.0039684176 -0.072705686 0.44441721
0.0054886639 -0.073451564 0.44484615
0.0070133805 -0.074199468 0.44527328
0.0080555677 -0.074677035 0.44484064
0.0095869154 -0.075427994 0.44526497
0.010631323 -0.075906575 0.4448314
0.012169331 -0.076660573 0.44525301
0.013215959 -0.077140182 0.44481856
0.014760613 -0.077897221 0.44523734
0.015809476 -0.078377843 0.44480196
0.017360792 -0.079137951 0.44521803
0.01841186 -0.079619586 0.44478172
0.019462913 -0.080101207 0.44434538
0.021023095 -0.080865368 0.44475776
0.023099035 -0.08191511 0.44601607
0.02569741 -0.083253473 0.44811752
0.028309077 -0.08459793 0.45021346
0.031970024 -0.086521685 0.45399392
0.036173373 -0.08874321 0.45860919
0.039880872 -0.090688288 0.46237031
0.043610543 -0.092643529 0.46612215
-0.0096152276 -0.066670686 0.48532408
-0.0097755641 -0.066458099 0.48220885
-0.0099492073 -0.066239417 0.47909912
-0.010564357 -0.065772049 0.47511208
-0.011627629 -0.065052964 0.47025046
-0.01271309 -0.064323708 0.46539807
-0.012516201 -0.064321198 0.46319512
-0.012328178 -0.064314604 0.46099585
-0.012149006 -0.064303957 0.45880029
-0.011978731 -0.064289249 0.45660838
-0.011817321 -0.064270474 0.45442018
-0.011664778 -0.064247631 0.45223567
-0.011521101 -0.064220726 0.45005482
-0.010935917 -0.0644425 0.4487513
-0.01035516 -0.064662248 0.44744965
-0.0097788572 -0.064879954 0.4461498
-0.0087499768 -0.065351427 0.4457227
-0.0081803203 -0.065566093 0.44442561
-0.0071536303 -0.066036552 0.44399944
-0.0061269701 -0.066507004 0.44357324
-0.0051002949 -0.066977456 0.44314706
-0.0036055148 -0.06770879 0.44358718
-0.0021063089 -0.068442151 0.44402543
-0.0010752082 -0.068914637 0.44359741
0.00043065846 -0.069651045 0.44403288
0.0019409508 -0.070389479 0.44446653
0.002976492 -0.070864007 0.44403666
0.004493475 -0.071605496 0.44446757
0.0060148537 -0.072349012 0.44489664
0.007540673 -0.073094577 0.44532382
0.0085828602 -0.073572144 0.44489121
0.010115325 -0.074320734 0.44531563
0.011159748 -0.074799329 0.44488209
0.012204155 -0.075277895 0.44444853
0.013745517 -0.076030567 0.44486934
0.015291288 -0.076785266 0.44528824
0.016340137 -0.077265888 0.44485286
0.017892569 -0.078023642 0.44526902
0.018943638 -0.078505278 0.44483271
0.020502716 -0.079266056 0.44524613
0.021556005 -0.07974872 0.4448089
0.023121744 -0.080512553 0.44521952
0.025721252 -0.08184287 0.44732222
0.028334081 -0.083179235 0.44941941
0.031998426 -0.08509022 0.45320129
0.036206275 -0.087296635 0.45781815
0.04365024 -0.091171414 0.46533406
-0.0090531409 -0.065492906 0.485378
-0.0096417367 -0.065049164 0.4813776
-0.0098209679 -0.064836517 0.4782685
-0.010872126 -0.06413731 0.47339898
-0.011513919 -0.06366919 0.4694207
-0.012173444 -0.063192949 0.46544981
-0.012414783 -0.062951848 0.46236646
-0.011793017 -0.063193247 0.46104717
-0.011616111 -0.063187301 0.4588514
-0.01144807 -0.063177295 0.45665929
-0.011288911 -0.063163221 0.45447087
-0.011138588 -0.063145086 0.45228612
-0.010997176 -0.063122876 0.45010507
-0.01041311 -0.063347004 0.44880143
-0.0098334849 -0.063569099 0.44749969
-0.0092583001 -0.063789159 0.44619974
-0.0086875409 -0.064007193 0.44490165
-0.0076608658 -0.064477652 0.44447544
-0.0066342056 -0.064948104 0.44404927
-0.0056075156 -0.065418556 0.44362307
-0.0045808554 -0.065889016 0.44319689
-0.0030849576 -0.066617996 0.4436371
-0.0020560622 -0.067089461 0.44321001
-0.00055351853 -0.067821488 0.44364744
0.0009534657 -0.068555549 0.44408303
0.0019867867 -0.069029048 0.44365409
0.0035004318 -0.069766149 0.44408691
0.0050185174 -0.070505291 0.44451791
0.0065410137 -0.07124646 0.44494709
0.0075809956 -0.071723014 0.44451538
0.0091101527 -0.072467238 0.44494179
0.01015234 -0.072944805 0.44450915
0.011688173 -0.073692068 0.44493276
0.012732565 -0.074170649 0.44449922
0.014275044 -0.074920967 0.44492012
0.015821949 -0.075673312 0.44533914
0.016870797 -0.076153934 0.44490376
0.018424362 -0.076909333 0.44532004
0.01947543 -0.077390969 0.4448837
0.021035627 -0.078149408 0.44529724
0.022088915 -0.078632057 0.44486001
0.023655772 -0.079393551 0.44527072
0.025742844 -0.08043693 0.44652671
0.02835682 -0.081765264 0.44862515
0.032024562 -0.083663464 0.45240849
0.035714477 -0.08557184 0.45618263
-0.0087588876 -0.064273693 0.48766655
-0.008914873 -0.064080283 0.48454607
-0.0095101446 -0.063644946 0.48054618
-0.0096949488 -0.063438341 0.47743767
-0.010323524 -0.062987745 0.47345161
-0.011402443 -0.062290132 0.46859077
-0.012068689 -0.061822265 0.46462035
-0.01187852 -0.061828136 0.4624179
-0.011697173 -0.061829939 0.46021912
-0.011083201 -0.062070645 0.45890251
-0.01091741 -0.062065333 0.45671019
-0.010760486 -0.062055968 0.45452154
-0.010612428 -0.062042534 0.45233661
-0.010473236 -0.062025025 0.45015532
-0.0098902881 -0.062251501 0.44885159
-0.0093117952 -0.06247595 0.44754973
-0.008737728 -0.062698364 0.44624966
-0.0081681013 -0.062918745 0.44495144
-0.0071414262 -0.063389197 0.44452527
-0.0061147511 -0.063859656 0.44409907
-0.005088076 -0.064330116 0.4436729
-0.0040614009 -0.064800568 0.44324672
-0.0025643855 -0.065527193 0.44368702
-0.0015355051 -0.065998659 0.44325992
-3.182888e-05 -0.066728339 0.44369748
0.0014762878 -0.067460045 0.44413316
0.002509594 -0.067933545 0.44370422
0.0040243566 -0.068668306 0.44413719
0.0050598979 -0.069142826 0.44370732
0.0065813363 -0.069880635 0.44413751
0.0081071854 -0.070620462 0.44456586
0.0096374601 -0.071362332 0.44499236
0.010679647 -0.071839899 0.44455972
0.012216583 -0.072584823 0.44498345
0.01326099 -0.073063403 0.44454992
0.014305413 -0.073541984 0.44411635
0.015851229 -0.074290961 0.44453645
0.017401457 -0.07504198 0.44495463
0.018956155 -0.075795025 0.44537103
0.020007223 -0.07627666 0.44493473
0.021568537 -0.077032745 0.44534835
0.02262181 -0.077515393 0.44491112
0.024704486 -0.078551039 0.44617003
0.026279122 -0.079313219 0.44657815
0.028377324 -0.080355972 0.44783068
0.032048434 -0.082241416 0.45161542
0.043722898 -0.088241279 0.46375722
-0.0081945658 -0.063091211 0.4877207
-0.0087788105 -0.062672377 0.48371395
-0.0089536905 -0.062478915 0.48059955
-0.0095711946 -0.062044844 0.47660661
-0.010206461 -0.061602652 0.47262108
-0.011293218 -0.060915768 0.46776059
-0.011530176 -0.06069386 0.464672
-0.011780441 -0.06046585 0.46158892
-0.011163145 -0.060710937 0.46027035
-0.010992944 -0.060713388 0.45807505
-0.010386735 -0.060953379 0.45676109
-0.010232061 -0.060948715 0.45457223
-0.010086238 -0.060939983 0.45238706
-0.0099492967 -0.060927182 0.45020556
-0.0093674958 -0.061156005 0.44890174
-0.0087901056 -0.0613828 0.44759977
-0.0082171559 -0.061607569 0.44629958
-0.0071882755 -0.062079042 0.44587249
-0.0066219866 -0.062300757 0.4445751
-0.0055952966 -0.062771216 0.4441489
-0.0045686364 -0.063241668 0.44372272
-0.0035419613 -0.06371212 0.44329652
-0.0020438135 -0.064436398 0.44373697
-0.001014933 -0.064907864 0.44330984
0.00048986077 -0.065635189 0.44374752
0.0015209615 -0.066107675 0.4433195
0.0030324161 -0.066838048 0.44375437
0.0045482814 -0.067570455 0.44418743
0.0055838227 -0.068044975 0.44375756
0.0071063936 -0.06878043 0.44418785
0.0086333454 -0.06951791 0.44461632
0.0096733272 -0.069994465 0.4441846
0.01120694 -0.070734993 0.4446103
0.012249142 -0.071212567 0.44417769
0.013789415 -0.071956143 0.44460058
0.014833823 -0.072434738 0.44416705
0.016380757 -0.073181361 0.44458723
0.017932117 -0.073930025 0.44500554
0.018980965 -0.074410632 0.44457015
0.020539001 -0.075162351 0.44498575
0.022101432 -0.075916097 0.44539946
0.023154736 -0.076398745 0.44496223
0.024723828 -0.07715553 0.44537318
0.026297361 -0.077914357 0.4457823
0.028915823 -0.079227567 0.44788232
0.0320701 -0.080824047 0.4508222
0.043226689 -0.086503029 0.46212575
0.047521234 -0.088697582 0.46671695
-0.0080540478 -0.061679617 0.48688787
-0.0082189739 -0.061499298 0.48376763
-0.0088254511 -0.061081752 0.47976783
-0.0094496757 -0.060656071 0.47577539
-0.010091633 -0.060222246 0.47179028
-0.011186227 -0.059546113 0.46693018
-0.011865899 -0.059095025 0.46296075
-0.011245295 -0.059344493 0.46164024
-0.011070669 -0.059354685 0.45944199
-0.010461152 -0.059599079 0.45812607
-0.009856075 -0.059841432 0.45681199
-0.0097036362 -0.059841461 0.45462292
-0.0095600784 -0.059837431 0.45243755
-0.0094253719 -0.059829332 0.45025581
-0.0083898306 -0.060303852 0.44982597
-0.0078113526 -0.060534015 0.44852293
-0.0072373152 -0.060762152 0.44722176
-0.0066677034 -0.060988247 0.44592243
-0.005638808 -0.061459713 0.44549531
-0.0050758719 -0.061682761 0.44419873
-0.0040491819 -0.06215322 0.44377255
-0.0025521517 -0.062874123 0.44421399
-0.0015232563 -0.063345596 0.44378689
-0.00049436092 -0.063817069 0.44335979
0.0010115504 -0.06454204 0.44379756
0.0025219023 -0.065269053 0.44423345
0.0035552084 -0.065742552 0.4438045
0.0050722212 -0.066472605 0.44423768
0.0061077625 -0.066947125 0.44380781
0.0076314509 -0.067680232 0.44423822
0.0091595352 -0.068415366 0.4446668
0.010199487 -0.068891913 0.44423509
0.011734247 -0.069630094 0.44466087
0.012776434 -0.070107669 0.44422826
0.01431784 -0.070848897 0.44465128
0.015362248 -0.071327478 0.44421771
0.0169103 -0.072071761 0.44463804
0.018462777 -0.072818071 0.44505644
0.019511625 -0.073298678 0.44462106
0.021070778 -0.074048057 0.44503674
0.022121847 -0.074529678 0.44460043
0.023687631 -0.075282097 0.44501334
0.025257856 -0.076036528 0.44542438
0.02631335 -0.07652019 0.44498625
0.028932989 -0.077825338 0.4470875
0.032613128 -0.079686239 0.4508743
0.043786556 -0.08532995 0.46217945
0.047555357 -0.087231487 0.46592942
-0.007915765 -0.060272723 0.48605481
-0.0080862939 -0.060098447 0.48293519
-0.0093304217 -0.059271976 0.47494388
-0.0099790692 -0.058846563 0.47095931
-0.011081487 -0.058181167 0.46609962
-0.011329621 -0.057971314 0.46301219
-0.01071015 -0.058223136 0.46169156
-0.010537758 -0.058238029 0.4594931
-0.009929359 -0.058484778 0.45817706
-0.0097725093 -0.058492549 0.45598504
-0.0091752261 -0.058734208 0.45467359
-0.0090338886 -0.058734879 0.45248801
-0.0084476769 -0.058971457 0.45118117
-0.0078659058 -0.059206001 0.44987622
-0.0072885454 -0.059438512 0.44857308
-0.0067156255 -0.059669003 0.44727179
-0.0061471462 -0.059897445 0.44597235
-0.0051182508 -0.060368918 0.44554526
-0.0040893555 -0.060840391 0.44511813
-0.0030604601 -0.061311863 0.44469103
-0.0020315796 -0.061783329 0.44426394
-0.0010026991 -0.062254801 0.44383681
0.00050212443 -0.062976405 0.44427562
0.0015332401 -0.063448891 0.4438476
0.0030446947 -0.064173549 0.4442836
0.0040780306 -0.064647049 0.44385466
0.0055961609 -0.065374754 0.44428793
0.0066317022 -0.065849274 0.44385806
0.0081564933 -0.066580027 0.44428858
0.0096856952 -0.067312814 0.44471726
0.010725677 -0.067789361 0.44428554
0.01226154 -0.068525195 0.44471145
0.013303742 -0.069002762 0.44427884
0.014345944 -0.06948033 0.4438462
0.015890658 -0.070220232 0.44426841
0.01693508 -0.070698813 0.44383484
0.01848647 -0.071441755 0.44425434
0.020042285 -0.072186723 0.44467196
0.021091133 -0.072667345 0.44423658
0.022653639 -0.073415384 0.44465142
0.024220541 -0.074165434 0.44506446
0.025791883 -0.074917525 0.44547561
0.026847377 -0.075401187 0.44503745
0.029470384 -0.076699272 0.44713902
0.032631397 -0.078275934 0.45008072
0.036337078 -0.080134243 0.45385981
0.043815017 -0.083881333 0.46139026
0.048120797 -0.086046666 0.46598363
-0.0073536932 -0.059094951 0.48610872
-0.007955879 -0.058702283 0.48210251
-0.009213388 -0.057892598 0.47411221
-0.009868741 -0.057475559 0.47012809
-0.010978997 -0.056820899 0.46526879
-0.011232704 -0.056617096 0.46218196
-0.010616571 -0.056870252 0.46086216
-0.010004848 -0.057121374 0.45954421
-0.0098436028 -0.057136908 0.45734918
-0.0092429817 -0.057382949 0.45603582
-0.008646816 -0.057626955 0.45472428
-0.0080550611 -0.057868935 0.45341462
-0.0074677467 -0.058108874 0.45210677
-0.007341966 -0.058108151 0.44992647
-0.0063064098 -0.058582671 0.4494966
-0.0057324022 -0.058816522 0.44819427
-0.0051628351 -0.05904834 0.44689381
-0.0041317195 -0.059520826 0.44646579
-0.0035687983 -0.059749588 0.44516808
-0.0020695031 -0.060465798 0.44560975
-0.0010384023 -0.060938284 0.4451817
-7.301569e-06 -0.061410777 0.44475368
0.0010238141 -0.061883263 0.44432566
0.0025341958 -0.062604547 0.44476271
0.0035675168 -0.063078053 0.44433373
0.0050845444 -0.063802384 0.44476807
0.0061200857 -0.064276904 0.4443382
0.0076437891 -0.065004289 0.44476974
0.0086815357 -0.06547983 0.44433895
0.010211885 -0.066210262 0.44476771
0.011251837 -0.066686809 0.44433603
0.012788832 -0.067420289 0.44476205
0.013831034 -0.067897856 0.44432941
0.014873236 -0.068375424 0.44389677
0.016419083 -0.069112971 0.4443191
0.01746349 -0.069591552 0.44388554
0.019016027 -0.070332155 0.44430515
0.02057296 -0.071074769 0.44472286
0.021621808 -0.071555391 0.44428748
0.023185417 -0.072301075 0.44470245
0.024753451 -0.07304877 0.44511557
0.025806725 -0.073531419 0.44467834
0.027381405 -0.074282169 0.44508868
0.029484123 -0.075304076 0.4463439
0.033173293 -0.07714048 0.4501327
0.036356539 -0.078715861 0.45306745
0.048151523 -0.084587634 0.46519583
-0.0072188228 -0.057695091 0.48527533
-0.0078276694 -0.057310835 0.48126963
-0.0090985894 -0.056517929 0.47328034
-0.0097606778 -0.056109264 0.46929669
-0.010440484 -0.055692486 0.46532044
-0.010697559 -0.055495739 0.4622333
-0.010082543 -0.055751249 0.46091336
-0.0099168569 -0.055774532 0.45871538
-0.0093129426 -0.056024954 0.45740008
-0.0087134242 -0.056273341 0.45608664
-0.008118391 -0.056519702 0.45477495
-0.0075277537 -0.056764029 0.45346519
-0.0069415718 -0.057006322 0.45215723
-0.0063598007 -0.057246588 0.45085111
-0.005782485 -0.05748482 0.44954684
-0.005209595 -0.057721019 0.44824442
-0.0046411455 -0.057955191 0.44694385
-0.0036100298 -0.058427677 0.44651583
-0.0025789142 -0.058900163 0.44608781
-0.0015478134 -0.059372649 0.44565979
-0.00051671267 -0.059845135 0.44523174
0.00051438808 -0.060317628 0.44480371
0.0020236671 -0.061035544 0.44524178
0.003057003 -0.06150905 0.44481283
0.004090324 -0.061982557 0.44438389
0.0056084692 -0.062704533 0.44481832
0.0066440105 -0.063179061 0.44438845
0.0081688464 -0.063904092 0.44482008
0.009206593 -0.064379632 0.44438928
0.010738045 -0.065107711 0.4448182
0.011778027 -0.065584257 0.44438648
0.013316125 -0.06631539 0.4448126
0.014358342 -0.066792957 0.44437999
0.015903085 -0.06752713 0.44480333
0.016947508 -0.068005726 0.44436976
0.0179919 -0.068484306 0.44393623
0.019545555 -0.069222547 0.44435593
0.021103621 -0.069962814 0.44477376
0.022152469 -0.070443437 0.44433835
0.023717195 -0.071186766 0.44475344
0.024768263 -0.071668401 0.44431713
0.026339635 -0.072414771 0.44472945
0.027915433 -0.073163167 0.44513991
0.030020416 -0.074180365 0.44639534
0.033188194 -0.075737223 0.44933879
0.036902875 -0.077571005 0.45311984
0.043865204 -0.080998212 0.45981121
0.047644198 -0.082861453 0.46356559
0.051445365 -0.084734857 0.46731076
-0.0064883381 -0.056667715 0.48845434
-0.0070861578 -0.056299955 0.48444176
-0.0077017099 -0.055924088 0.48043653
-0.0094209909 -0.054925188 0.47156358
-0.01009199 -0.0545239 0.46758133
-0.010780752 -0.054114491 0.46360651
-0.010162413 -0.054374382 0.46228462
-0.0099923313 -0.054405414 0.46008366
-0.0093850791 -0.054660231 0.4587664
-0.0087822825 -0.054912999 0.45745099
-0.0081838965 -0.055163741 0.45613742
-0.0075899661 -0.055412449 0.45482564
-0.0070004612 -0.05565913 0.45351577
-0.0064153969 -0.055903777 0.45220771
-0.0058347583 -0.056146391 0.45090148
-0.0047969818 -0.056621924 0.45047069
-0.0042230189 -0.05686149 0.44916722
-0.0036534667 -0.057099029 0.44786561
-0.0026201308 -0.057572529 0.44743666
-0.0015868247 -0.058046035 0.44700772
-0.00055348873 -0.058519542 0.44657877
0.00047983229 -0.058993042 0.44614983
0.0015131533 -0.059466541 0.44572088
0.0025464892 -0.059940048 0.44529194
0.0035798103 -0.060413554 0.44486299
0.0050968528 -0.06113217 0.44529843
0.0061323941 -0.06160669 0.44486856
0.0076561272 -0.062328354 0.44530123
0.0086938888 -0.062803894 0.44487044
0.010224253 -0.063528605 0.44530037
0.011264235 -0.064005159 0.44486865
0.01280123 -0.064732924 0.44529581
0.013843417 -0.065210491 0.4448632
0.014885634 -0.065688059 0.44443056
0.015927821 -0.066165626 0.44399792
0.017475918 -0.066898465 0.44442046
0.018520325 -0.067377046 0.44398689
0.020075098 -0.068112947 0.44440672
0.021121725 -0.068592548 0.44397226
0.022683129 -0.069331482 0.44438925
0.023731977 -0.069812097 0.44395387
0.025300056 -0.0705541 0.44436812
0.026351124 -0.071035728 0.44393182
0.027925819 -0.071780756 0.44434333
0.030556679 -0.073056668 0.44644678
0.03320089 -0.074338675 0.44854471
0.036388636 -0.075893223 0.45148215
0.04388693 -0.079563707 0.45902139
0.047132343 -0.081144661 0.46193492
0.051473886 -0.083274812 0.4665238
-0.0063512027 -0.055268884 0.48762006
-0.0065263212 -0.055126876 0.48449546
-0.0082180202 -0.054166414 0.47560582
-0.009311825 -0.053562254 0.47073108
-0.0099895149 -0.05316937 0.4667494
-0.010244474 -0.052990779 0.46365795
-0.010069981 -0.053029567 0.46145397
-0.0094594061 -0.053288758 0.46013477
-0.0088532865 -0.053545922 0.45881739
-0.0082516074 -0.053801045 0.45750186
-0.007654354 -0.054054134 0.4561882
-0.0070615411 -0.054305196 0.45487633
-0.0064731538 -0.054554224 0.45356634
-0.0054309666 -0.055031791 0.4531337
-0.0048492402 -0.055277772 0.45182645
-0.0042719245 -0.055521727 0.45052105
-0.0036990941 -0.05576364 0.4492175
-0.0026635528 -0.05623816 0.44878763
-0.0016280115 -0.05671268 0.44835776
-0.0010640025 -0.056950539 0.44705787
0.00044308603 -0.05766172 0.44749802
0.0014786124 -0.05813624 0.44706815
0.0025141537 -0.05861076 0.44663829
0.003549695 -0.05908528 0.44620842
0.0045852512 -0.0595598 0.44577855
0.0056207925 -0.06003432 0.44534868
0.007143423 -0.060752615 0.44578239
0.0081811845 -0.061228156 0.4453516
0.009710446 -0.061949506 0.44578254
0.010750413 -0.062426053 0.44535083
0.011790395 -0.062902607 0.44491914
0.013328537 -0.063628018 0.44534639
0.014370725 -0.064105585 0.44491377
0.015412927 -0.064583153 0.44448113
0.016959935 -0.065312624 0.44490469
0.018004343 -0.065791219 0.44447115
0.01904875 -0.0662698 0.44403759
0.020093173 -0.066748381 0.44360405
0.021651268 -0.067482941 0.44402304
0.023213804 -0.068219528 0.44444016
0.024262637 -0.068700142 0.44400477
0.025831833 -0.069439791 0.44441915
0.026882902 -0.069921426 0.44398284
0.028458729 -0.0706641 0.44439447
0.030565977 -0.07167089 0.4456512
0.033211321 -0.07294482 0.44775039
0.036401361 -0.074488968 0.4506892
0.043370575 -0.077867761 0.45738801
0.046616048 -0.079437286 0.46030381
0.050419569 -0.081283137 0.46405375
-0.0057880133 -0.054088756 0.48767409
-0.0063970238 -0.053738803 0.48366153
-0.0074565411 -0.053164691 0.47876969
-0.0081032515 -0.052797452 0.47477281
-0.0087677091 -0.052422091 0.47078326
-0.0094498694 -0.05203861 0.46680117
-0.010149822 -0.051646985 0.46282634
-0.0095359385 -0.051910557 0.46150517
-0.0089265108 -0.052172102 0.46018589
-0.0083215088 -0.052431613 0.45886841
-0.0077209473 -0.05268909 0.45755276
-0.0071248114 -0.052944534 0.45623899
-0.006533131 -0.053197943 0.454927
-0.0059458613 -0.053449325 0.45361692
-0.0049036741 -0.053926893 0.45318431
-0.0043230653 -0.054175228 0.45187694
-0.0032830834 -0.054651782 0.45144522
-0.0027091205 -0.054897062 0.45014063
-0.0016713589 -0.055372603 0.44970983
-0.0011040717 -0.055614829 0.44840801
-6.853044e-05 -0.056089357 0.44797814
0.00096702576 -0.056563869 0.44754827
0.0020025522 -0.057038389 0.4471184
0.0030380934 -0.057512909 0.44668853
0.0045551956 -0.058225811 0.44712511
0.0055929422 -0.058701351 0.44669431
0.0066307187 -0.059176885 0.44626355
0.0081566572 -0.059893847 0.44669643
0.0091966391 -0.060370401 0.44626471
0.010236621 -0.060846955 0.44583303
0.011276603 -0.061323509 0.44540131
0.012813643 -0.062045544 0.4458296
0.013855845 -0.062523119 0.44539696
0.014898032 -0.063000679 0.44496435
0.016443938 -0.063726798 0.44538891
0.017488346 -0.064205378 0.44495538
0.018532753 -0.064683966 0.44452181
0.019577175 -0.065162547 0.44408828
0.020621583 -0.065641128 0.44365472
0.022180811 -0.066373333 0.44407386
0.023227438 -0.066852942 0.44363937
0.024793297 -0.067588188 0.44405568
0.02584216 -0.068068802 0.44362026
0.02741468 -0.068807125 0.44403383
0.02899164 -0.069547445 0.44444555
0.031101137 -0.070549533 0.44570252
0.033749819 -0.071816415 0.44780204
0.036411822 -0.073089391 0.44989601
0.039087147 -0.074368477 0.45198447
0.04284969 -0.076181233 0.45575422
0.049899936 -0.079571366 0.46242455
0.053726792 -0.081413567 0.46616763
0.055392474 -0.082194567 0.46654257
-0.0056542456 -0.052696988 0.48683944
-0.0058383048 -0.052568078 0.48371512
-0.0069034398 -0.052005716 0.47882274
-0.0075546503 -0.051647887 0.47482544
-0.008661896 -0.05106622 0.46995053
-0.0089102387 -0.05090785 0.46685293
-0.0096146762 -0.050525628 0.46287769
-0.0090019107 -0.050791554 0.4615564
-0.0083936006 -0.051055446 0.460237
-0.007789731 -0.051317312 0.45891941
-0.0071902871 -0.051577136 0.45760366
-0.0065952688 -0.051834926 0.4562898
-0.0060047209 -0.05209069 0.45497769
-0.0049602985 -0.05256927 0.45454416
-0.0043763816 -0.052821994 0.45323488
-0.0033341944 -0.053299561 0.45280224
-0.0022919774 -0.053777128 0.4523696
-0.0017169267 -0.054025784 0.45106399
-0.00067694485 -0.054502331 0.45063227
-0.00010854006 -0.054747939 0.44932941
0.00092920661 -0.055223465 0.44889861
0.0024429709 -0.055931985 0.44933715
0.0034829527 -0.056408539 0.44890544
0.0045229346 -0.056885093 0.44847372
0.0055629015 -0.05736164 0.44804204
0.0066028833 -0.057838194 0.44761032
0.0076428652 -0.058314741 0.4471786
0.0086828321 -0.058791295 0.44674689
0.009722814 -0.059267849 0.4463152
0.011256546 -0.059985511 0.44674543
0.012298733 -0.060463086 0.44631281
0.013340935 -0.060940646 0.44588017
0.014383137 -0.06141822 0.44544753
0.015927941 -0.062140957 0.44587314
0.016972363 -0.062619545 0.44543961
0.018016756 -0.063098125 0.44500604
0.019061178 -0.063576713 0.44457251
0.020105585 -0.064055294 0.44413894
0.021149993 -0.064533874 0.44370541
0.022710353 -0.065263733 0.44412464
0.023756981 -0.065743335 0.44369015
0.025323957 -0.066476233 0.44410658
0.02637282 -0.066956848 0.44367117
0.027946472 -0.067692816 0.44408485
0.02899754 -0.068174452 0.44364855
0.031636268 -0.069428176 0.44575387
0.033756912 -0.070429631 0.44700739
0.036420047 -0.071694523 0.44910258
0.039096504 -0.072965547 0.45119226
0.042862445 -0.074765518 0.45496351
0.046110272 -0.076313198 0.45788294
0.049918354 -0.07813248 0.46163669
0.053203851 -0.07969743 0.46454045
0.055413157 -0.080739528 0.46575713
-0.0050921738 -0.051519208 0.48689336
-0.0057124048 -0.051187031 0.48288089
-0.0074432492 -0.05028598 0.47399208
-0.0081188828 -0.049928404 0.47000262
-0.0088122785 -0.049562708 0.46602052
-0.0090795159 -0.049404271 0.46292901
-0.0084678829 -0.049672544 0.46160764
-0.0083090067 -0.049721375 0.45940673
-0.0077084601 -0.049984559 0.45808995
-0.007112354 -0.050245725 0.45677504
-0.0060657263 -0.050725326 0.45634058
-0.0054762959 -0.050983444 0.45502838
-0.0044318885 -0.051462024 0.45459482
-0.003387481 -0.051940605 0.45416129
-0.002806887 -0.052194655 0.45285282
-0.0017646849 -0.052672222 0.45242018
-0.0007224977 -0.05314979 0.45198756
-0.00015076995 -0.053399779 0.45068273
0.00088921189 -0.053876333 0.45025104
0.0019291788 -0.05435288 0.44981933
0.0029691458 -0.054829434 0.44938761
0.0040091276 -0.055305988 0.44895592
0.0050491095 -0.055782542 0.44852421
0.0060890913 -0.056259088 0.44809249
0.0071290731 -0.056735642 0.44766077
0.0086572468 -0.057447903 0.44809389
0.0096994489 -0.05792547 0.44766128
0.010741651 -0.058403045 0.44722864
0.011783838 -0.058880612 0.446796
0.01282604 -0.05935818 0.44636339
0.014367536 -0.060076535 0.44679093
0.015411943 -0.060555123 0.44635737
0.016456366 -0.061033711 0.44592384
0.017500773 -0.061512291 0.4454903
0.018545181 -0.061990872 0.44505674
0.019589603 -0.06246946 0.44462317
0.020633996 -0.062948041 0.44418964
0.021678418 -0.063426629 0.4437561
0.023239896 -0.064154133 0.44417542
0.024286523 -0.064633727 0.44374096
0.025333151 -0.065113328 0.44330648
0.02690348 -0.065844893 0.44372207
0.027952328 -0.066325516 0.44328669
0.029529333 -0.067060143 0.44369954
0.031641066 -0.0680518 0.44495785
0.03376171 -0.069047526 0.44621253
0.036426038 -0.070304379 0.448309
0.039103597 -0.071567312 0.45039994
0.042872965 -0.073354512 0.45417261
0.046123058 -0.074891776 0.45709339
0.049390882 -0.076437175 0.46000677
0.052676469 -0.077990696 0.46291283
0.055431634 -0.079289198 0.46497151
0.057649881 -0.080329642 0.46618569
-0.004530102 -0.050341427 0.48694727
-0.0068957508 -0.049138762 0.47404459
-0.0075758845 -0.048790589 0.47005469
-0.0082737505 -0.048434295 0.46607217
-0.0085443705 -0.048282914 0.46298033
-0.0079338551 -0.048553534 0.46165887
-0.0077772141 -0.048607066 0.45945776
-0.0071777999 -0.048872605 0.45814085
-0.0065828264 -0.049136117 0.45682585
-0.0059922934 -0.049397603 0.45551261
-0.004947871 -0.049876183 0.45507905
-0.0039034784 -0.050354771 0.45464551
-0.002859056 -0.050833359 0.45421195
-0.0022795945 -0.051089756 0.45290339
-0.0012373924 -0.051567331 0.45247075
-0.00019520521 -0.052044898 0.45203814
0.0008469969 -0.052522466 0.4516055
0.001889199 -0.053000033 0.45117286
0.0029313862 -0.0534776 0.45074025
0.0039735734 -0.053955168 0.45030761
0.0050157756 -0.054432735 0.449875
0.0060579777 -0.054910302 0.44944236
0.0071001649 -0.055387869 0.44900972
0.0081423521 -0.055865437 0.44857711
0.0091845393 -0.056343004 0.44814447
0.010226741 -0.056820571 0.44771183
0.011762708 -0.057533532 0.44814226
0.012807131 -0.058012113 0.44770873
0.013851553 -0.058490701 0.44727516
0.014895946 -0.058969289 0.44684163
0.015940368 -0.05944787 0.44640806
0.016984776 -0.05992645 0.44597453
0.018029183 -0.060405038 0.44554096
0.019073606 -0.060883619 0.44510743
0.020118013 -0.061362207 0.44467387
0.021162421 -0.061840788 0.44424033
0.022206843 -0.062319368 0.44380677
0.023251235 -0.062797956 0.44337323
0.024816066 -0.063524127 0.44379175
0.025862694 -0.064003721 0.44335729
0.02743414 -0.064732939 0.44377297
0.028482988 -0.065213561 0.44333759
0.030061096 -0.065945834 0.44375056
0.031643629 -0.066680118 0.44416168
0.033764303 -0.067670137 0.44541743
0.035893828 -0.068664223 0.44666958
0.039108485 -0.070173785 0.44960731
0.042340904 -0.071691483 0.45253772
0.045591027 -0.073217317 0.45546079
0.048858911 -0.074751273 0.45837644
0.052144527 -0.076293349 0.46128476
0.054898679 -0.077582777 0.46334565
0.057114691 -0.07861647 0.46456182
0.059339583 -0.079654261 0.46577439
-0.0039680302 -0.049163654 0.48700118
-0.0045972168 -0.048850283 0.48298785
-0.0063482523 -0.047991544 0.4740971
-0.0074745715 -0.04744412 0.4692215
-0.0077352375 -0.047305882 0.46612385
-0.0080092251 -0.047161549 0.46303168
-0.0073998272 -0.047434531 0.46171007
-0.0072454214 -0.047492765 0.45950875
-0.0066471398 -0.047760651 0.45819175
-0.0060532838 -0.048026517 0.45687664
-0.0054638684 -0.04829035 0.45556331
-0.0044194609 -0.048768938 0.45512974
-0.0033750534 -0.049247518 0.45469618
-0.0027944893 -0.049507283 0.4533866
-0.0017522871 -0.04998485 0.45295396
-0.00071009994 -0.050462425 0.45252132
0.00033210218 -0.050939992 0.45208871
0.0013743043 -0.051417559 0.45165607
0.0024164915 -0.051895127 0.45122343
0.0034586787 -0.052372694 0.45079082
0.0045008659 -0.052850261 0.45035818
0.005543083 -0.053327829 0.44992557
0.0065852702 -0.053805396 0.44949293
0.0076274574 -0.054282963 0.44906032
0.009157896 -0.05499053 0.44949359
0.010202318 -0.055469111 0.44906005
0.011246726 -0.055947699 0.44862652
0.012291133 -0.056426279 0.44819295
0.013335556 -0.056904867 0.44775939
0.014379963 -0.057383448 0.44732586
0.015424371 -0.057862036 0.44689229
0.016468793 -0.058340617 0.44645876
0.017513201 -0.058819205 0.44602519
0.018557608 -0.059297785 0.44559166
0.019602016 -0.059776366 0.44515809
0.020646438 -0.060254954 0.44472456
0.021690845 -0.060733534 0.444291
0.022735253 -0.061212122 0.44385746
0.02377966 -0.061690703 0.44342393
0.024824083 -0.062169291 0.44299036
0.026392221 -0.062894121 0.44340807
0.027438864 -0.06337373 0.44297358
0.029013649 -0.064101607 0.44338849
0.030062497 -0.064582221 0.44295308
0.032176524 -0.06556347 0.44421279
0.033764631 -0.066297449 0.44462216
0.035894185 -0.067285806 0.44587541
0.038571894 -0.068531603 0.44796976
0.042345822 -0.070292249 0.45174628
0.045598179 -0.071807653 0.45467064
0.048868358 -0.073331192 0.45758769
0.051608115 -0.07460542 0.45965624
0.054911554 -0.076144218 0.46255949
0.0576801 -0.077431649 0.46461606
0.059907258 -0.078464732 0.46582884
-0.0032217503 -0.048080467 0.49018618
-0.0034059584 -0.047985867 0.48705509
-0.0044757873 -0.047478646 0.48215318
-0.0055677742 -0.046961285 0.4772605
-0.0062413514 -0.046639033 0.47326329
-0.0069326758 -0.046308659 0.46927348
-0.0076417327 -0.045970164 0.46529102
-0.0074740648 -0.046040192 0.463083
-0.0073152632 -0.046106167 0.4608787
-0.0067136437 -0.046378456 0.45955974
-0.0061164796 -0.046648696 0.45824265
-0.0055237412 -0.046916917 0.45692742
-0.0049354434 -0.047183096 0.45561397
-0.0038910359 -0.047661677 0.45518044
-0.0033093691 -0.047924817 0.45386979
-0.0022671819 -0.048402384 0.45343718
-0.0012249947 -0.048879951 0.45300454
-0.00065219402 -0.049139023 0.45169756
0.00085940957 -0.049835086 0.45213929
0.0014277548 -0.050092123 0.45083416
0.002943784 -0.05079022 0.45127404
0.0039859861 -0.051267795 0.4508414
0.0050281733 -0.051745355 0.45040876
0.0060703754 -0.05222293 0.44997615
0.0071125627 -0.052700497 0.44954351
0.0086418986 -0.053404689 0.44997784
0.009686321 -0.053883269 0.44954428
0.010730743 -0.054361857 0.44911075
0.011775136 -0.054840446 0.44867718
0.012819558 -0.055319026 0.44824365
0.013863981 -0.055797607 0.44781008
0.014908388 -0.056276195 0.44737655
0.015952796 -0.056754783 0.44694299
0.016997218 -0.057233363 0.44650942
0.018041611 -0.057711944 0.44607589
0.019086033 -0.058190532 0.44564235
0.020130441 -0.058669113 0.44520879
0.021174848 -0.059147701 0.44477522
0.02221927 -0.059626281 0.44434169
0.023263678 -0.060104862 0.44390815
0.024308085 -0.06058345 0.44347459
0.025352508 -0.061062038 0.44304103
0.0263969 -0.061540619 0.44260749
0.027968407 -0.062264122 0.4430244
0.029015034 -0.062743723 0.44258991
0.030593157 -0.063470267 0.44300398
0.03217575 -0.064198852 0.44341624
0.034298658 -0.065178439 0.44467336
0.036430448 -0.066162094 0.44592685
0.039651901 -0.067651846 0.4488664
0.042891055 -0.069149733 0.45179859
0.046147913 -0.070655726 0.45472339
0.04887557 -0.071915805 0.45679873
0.052165717 -0.07343705 0.45970973
0.055473626 -0.074966431 0.4626134
0.058245569 -0.076246813 0.46467027
-0.0026563108 -0.046895638 0.49024042
-0.0032789409 -0.046608195 0.48621979
-0.0039193183 -0.046312623 0.48220652
-0.005016923 -0.045807019 0.47731334
-0.0061366856 -0.045291238 0.47242931
-0.0063907951 -0.045173198 0.46932545
-0.0075505078 -0.044639125 0.46445799
-0.0073872805 -0.044712849 0.46225068
-0.0067823529 -0.044989511 0.46092981
-0.0061818659 -0.045264155 0.45961076
-0.0060408264 -0.045327708 0.45741269
-0.0054514408 -0.045597263 0.4560982
-0.0044070333 -0.046075843 0.45566466
-0.0038242936 -0.046342343 0.454353
-0.0027820766 -0.04681991 0.45392036
-0.0022059977 -0.047083363 0.45261145
-0.0011660159 -0.047559917 0.45217973
-0.00012603402 -0.048036471 0.45174804
0.00091394782 -0.048513025 0.45131633
0.0019539297 -0.048989579 0.45088461
0.0029939115 -0.049466133 0.45045289
0.0045132786 -0.050162897 0.45089197
0.0055554658 -0.050640456 0.45045933
0.0065976679 -0.051118031 0.45002672
0.0081259012 -0.051818855 0.45046207
0.0091703236 -0.052297436 0.45002851
0.010214746 -0.052776024 0.44959497
0.011259153 -0.053254604 0.44916141
0.012303561 -0.053733192 0.44872788
0.013845131 -0.054440111 0.44915774
0.014891773 -0.05491972 0.44872329
0.015938401 -0.055399314 0.44828883
0.016481221 -0.05564753 0.44699368
0.017525628 -0.05612611 0.44656011
0.018570036 -0.056604698 0.44612658
0.019614458 -0.057083279 0.44569302
0.020658851 -0.057561859 0.44525948
0.021703273 -0.058040448 0.44482592
0.022747681 -0.058519028 0.44439238
0.023792088 -0.058997616 0.44395882
0.02483651 -0.059476197 0.44352528
0.025880918 -0.059954785 0.44309172
0.026925325 -0.060433365 0.44265819
0.027969748 -0.060911953 0.44222462
0.029544592 -0.061634123 0.44264069
0.031123817 -0.062358312 0.44305488
0.032707512 -0.06308455 0.44346726
0.034295648 -0.063812807 0.44387779
0.036427468 -0.064790748 0.44513237
0.039651185 -0.066270083 0.44807327
0.043436319 -0.068007216 0.45185089
0.046697646 -0.069503807 0.45477611
0.049428672 -0.070756838 0.45685178
0.052723289 -0.072268665 0.4597632
0.056035697 -0.073788658 0.46266732
-0.0020908713 -0.045710802 0.49029467
-0.0027180016 -0.045432769 0.48627359
-0.0038012266 -0.044948056 0.48137158
-0.0049066842 -0.044453166 0.4764787
-0.0055914372 -0.044148728 0.47248161
-0.0062939525 -0.043836132 0.46849179
-0.0070142299 -0.043515414 0.46450943
-0.0068532526 -0.043593846 0.46230188
