# .PCD v0.7 - Point Cloud Data file format
VERSION 0.7
FIELDS x y z
SIZE 4 4 4
TYPE F F F
COUNT 1 1 1
WIDTH 1
HEIGHT 683
VIEWPOINT 0 0 0 1 0 0 0
POINTS 683
DATA ascii
-0.15525068 -0.11645776 0.46978873
-0.14974032 -0.11875314 0.46987092
-0.12303273 -0.16119078 0.47825024
-0.11451053 -0.16296718 0.47750321
-0.10481948 -0.16359958 0.47618791
-0.094630197 -0.1641449 0.47694883
-0.084719636 -0.16457729 0.47837803
-0.077169582 -0.16456255 0.47920421
-0.14166358 -0.1509092 0.4783031
-0.13410762 -0.15327625 0.4766036
-0.12490331 -0.15450698 0.47484413
-0.11491534 -0.15506929 0.47461605
-0.10519717 -0.15501273 0.47467738
-0.095330082 -0.15519115 0.47769678
-0.086035974 -0.15613899 0.4792617
-0.078764468 -0.15861624 0.47995424
-0.15147565 -0.14140941 0.47756672
-0.14460528 -0.14456008 0.47520795
-0.13488333 -0.14483041 0.47221264
-0.12468581 -0.14499618 0.47325063
-0.11461692 -0.14501825 0.47550964
-0.10572181 -0.14746271 0.47764763
-0.095791526 -0.14937045 0.47956231
-0.15419617 -0.13438585 0.47544453
-0.14507654 -0.13515577 0.47281358
-0.13488391 -0.13507152 0.473248
-0.12538069 -0.13556102 0.47548959
-0.11814944 -0.13873918 0.47707453
-0.17051074 -0.12017782 0.47993717
-0.16301291 -0.12366358 0.47710663
-0.15507486 -0.12527081 0.47238395
-0.14511614 -0.12507735 0.47250021
-0.13567883 -0.12554561 0.4753719
-0.12921819 -0.12861589 0.47774634
-0.1721952 -0.11381529 0.47696352
-0.16505526 -0.11460865 0.47250184
-0.15523657 -0.11474712 0.47133631
-0.14517115 -0.11515893 0.47450483
-0.13877748 -0.11727958 0.47846678
-0.17292579 -0.1047015 0.47737899
-0.16496074 -0.10533877 0.4740434
-0.15483451 -0.10504437 0.47458586
-0.14706804 -0.10597913 0.47718754
-0.17420737 -0.0944831 0.47721255
-0.16481137 -0.095190145 0.47421616
-0.15493226 -0.095054746 0.47511172
-0.14938501 -0.097057387 0.47904009
-0.17424098 -0.08524964 0.47727308
-0.16457957 -0.084990293 0.47455522
-0.15601429 -0.085566469 0.47657821
-0.1734342 -0.075593397 0.47767287
-0.1650023 -0.075029626 0.47647935
-0.15816103 -0.074983418 0.47838256
-0.17225561 -0.067168199 0.47868481
-0.16547273 -0.065136172 0.47809836
-0.15787782 -0.065066114 0.47927234
-0.16375972 -0.056075249 0.47925276
-0.15918809 -0.055606853 0.47961837
-0.16220778 -0.049556665 0.47970763
-0.15942663 -0.049956694 0.47965387
-0.12372537 -0.17076848 0.48941553
-0.11445724 -0.17232843 0.48688245
-0.10509036 -0.1729463 0.48566565
-0.094623223 -0.17296314 0.48420599
-0.085223295 -0.17368357 0.48368558
-0.074953258 -0.17426145 0.48532945
-0.06637951 -0.17261778 0.4880462
-0.13288783 -0.16292666 0.48676592
-0.12517843 -0.16532719 0.48377812
-0.11636524 -0.16773838 0.48233983
-0.10519227 -0.16903242 0.48104537
-0.097751886 -0.16989167 0.48118302
-0.080235496 -0.16998859 0.4800894
-0.072938383 -0.16425578 0.48173872
-0.066167638 -0.16512895 0.48622024
-0.15235654 -0.150538 0.48891392
-0.1448032 -0.15425391 0.48505324
-0.13618967 -0.15763371 0.4830887
-0.12974104 -0.15966737 0.48077822
-0.092294648 -0.15130396 0.48023424
-0.083285056 -0.15235984 0.48265621
-0.075653724 -0.15579788 0.48443207
-0.068627842 -0.15871531 0.48833171
-0.15421416 -0.14457431 0.48434943
-0.14862335 -0.14844371 0.48172292
-0.11112132 -0.14055882 0.48451537
-0.10470743 -0.14389193 0.48393127
-0.095088571 -0.14748619 0.48370486
-0.087193765 -0.14908019 0.48586214
-0.16144277 -0.13444141 0.48596764
-0.15836409 -0.13679563 0.48212415
-0.12258213 -0.13255028 0.48386964
-0.11618207 -0.13741687 0.48477301
-0.17280549 -0.12288566 0.48612756
-0.16631314 -0.12620635 0.48388964
-0.13233042 -0.12264493 0.48432526
-0.12717919 -0.12780811 0.4849577
-0.18070924 -0.11218502 0.48868948
-0.17655513 -0.11518008 0.48381305
-0.14083107 -0.11142126 0.4812524
-0.13720487 -0.11526078 0.48467264
-0.18119439 -0.10471539 0.48711884
-0.17766482 -0.10536673 0.4819704
-0.14322813 -0.10494818 0.48423156
-0.13934137 -0.1084517 0.48866507
-0.18181987 -0.094605975 0.48469734
-0.17846479 -0.098144993 0.48081183
-0.14765629 -0.095128231 0.48493654
-0.18256037 -0.085327931 0.4849664
-0.17935747 -0.082507834 0.48121828
-0.15160164 -0.083399713 0.48344433
-0.1488215 -0.087185986 0.48758292
-0.18189567 -0.076330394 0.48686993
-0.17842837 -0.074089602 0.48232853
-0.15341793 -0.074808255 0.48334813
-0.149941 -0.070736416 0.48933673
-0.17576644 -0.064672843 0.48416767
-0.15289776 -0.064730771 0.48339877
-0.14995727 -0.063598439 0.48803648
-0.17412694 -0.05500669 0.48480162
-0.16771765 -0.054227576 0.48056433
-0.1547098 -0.054874573 0.48320505
-0.14973223 -0.054885913 0.48929375
-0.17200635 -0.047067747 0.4868812
-0.16485657 -0.045081701 0.4839488
-0.15522769 -0.044878978 0.48424521
-0.14961544 -0.044961099 0.48910517
-0.16224873 -0.039212171 0.4891673
-0.15555482 -0.038567029 0.48838738
-0.073946498 -0.18102871 0.49260414
-0.065103114 -0.18268405 0.49680492
-0.057694487 -0.18141916 0.49891824
-0.13341282 -0.17252366 0.49758705
-0.1256638 -0.17377111 0.49387652
-0.11845504 -0.17442513 0.49117428
-0.075792491 -0.179566 0.49067289
-0.063471958 -0.1762514 0.49236462
-0.055642873 -0.17447527 0.49658999
-0.15076615 -0.16196434 0.49911427
-0.14460951 -0.16334842 0.49612457
-0.13611975 -0.16644208 0.49397051
-0.12923002 -0.16903549 0.49076086
-0.061918162 -0.1621353 0.49213526
-0.056335531 -0.1652994 0.49595463
-0.16076079 -0.15034121 0.49966121
-0.15446833 -0.1546336 0.49605986
-0.14742026 -0.15786429 0.49196798
-0.074094266 -0.15243924 0.49447441
-0.065835558 -0.15742221 0.49565911
-0.16255364 -0.14424197 0.4970592
-0.15813915 -0.14689925 0.49293217
-0.1045523 -0.14219341 0.49436921
-0.095018521 -0.14548123 0.49487484
-0.084597051 -0.14840575 0.49472636
-0.078595914 -0.14952441 0.49736023
-0.17338765 -0.13153839 0.49827278
-0.16586728 -0.13528915 0.49485457
-0.12126888 -0.13163184 0.49412522
-0.11465654 -0.13666208 0.49514407
-0.10883329 -0.13953125 0.49879554
-0.18217449 -0.12254787 0.49754792
-0.17592415 -0.1260971 0.4939214
-0.16878518 -0.12942182 0.49168897
-0.13122059 -0.12119031 0.49317065
-0.12674852 -0.12578969 0.49626717
-0.18399458 -0.11476553 0.49535123
-0.17897686 -0.11882119 0.49020702
-0.13380238 -0.1148043 0.49506959
-0.18542497 -0.10528547 0.4953427
-0.1415024 -0.10212298 0.49405575
-0.1376452 -0.10734279 0.49533224
-0.18680933 -0.094267122 0.49474871
-0.14383639 -0.094547488 0.49523488
-0.18776521 -0.084537163 0.49504095
-0.14622745 -0.085857347 0.49554902
-0.18487972 -0.074900068 0.49529675
-0.14781943 -0.074535206 0.49451691
-0.18315552 -0.064921841 0.49582395
-0.17946336 -0.06386508 0.49033672
-0.14618088 -0.064605728 0.49442104
-0.18235518 -0.055572852 0.49635872
-0.17888869 -0.054026093 0.49180984
-0.14593345 -0.055030387 0.49514678
-0.18031567 -0.048951719 0.49853417
-0.17501508 -0.044447515 0.49495661
-0.16847254 -0.04139794 0.49054125
-0.14590847 -0.044950563 0.49529046
-0.17277844 -0.038761497 0.49817881
-0.16480318 -0.036141336 0.49541757
-0.15500303 -0.033656828 0.49386963
-0.14557411 -0.034682099 0.49537686
-0.13913816 -0.031089172 0.49985114
-0.15329349 -0.028379068 0.49813658
-0.14508162 -0.02503049 0.4966853
-0.13846426 -0.023915842 0.49896964
-0.14309286 -0.016950961 0.49806321
-0.13738947 -0.015823342 0.49832153
-0.062007852 -0.18589444 0.500633
-0.051699709 -0.17819926 0.5013029
-0.052197807 -0.16289793 0.50218183
-0.14105146 -0.093883552 0.50237286
-0.14143261 -0.065058805 0.50283885
-0.14117749 -0.055171799 0.50274509
-0.17831853 -0.041994922 0.50158298
-0.14119804 -0.045335721 0.50321734
-0.16712295 -0.032341152 0.50282753
-0.14091261 -0.037462603 0.50083882
-0.15574922 -0.024086343 0.50371587
-0.14918493 -0.021114955 0.50072199
-0.13393195 -0.025215108 0.50383008
-0.14608125 -0.013541377 0.50252455
-0.13340616 -0.014046066 0.5023421
-0.14197189 -0.13263203 0.46986991
-0.13727547 -0.13484393 0.46987605
-0.15065536 -0.12439214 0.46985665
-0.14441012 -0.1256979 0.46986398
-0.13791846 -0.12592278 0.46987116
-0.087396868 -0.17090233 0.47994685
-0.12319662 -0.16231285 0.47820416
-0.11488406 -0.16307709 0.4762958
-0.1048421 -0.16350745 0.4759472
-0.094644248 -0.16411698 0.47580373
-0.084697522 -0.16430004 0.47533956
-0.07515005 -0.16429077 0.47731555
-0.069276959 -0.16371639 0.47996309
-0.13275993 -0.15378243 0.47831082
-0.12471306 -0.15458913 0.47396132
-0.11485671 -0.15442018 0.47165945
-0.1051254 -0.1546288 0.47258678
-0.09496402 -0.1545102 0.47387552
-0.08451695 -0.15464979 0.47510645
-0.075889088 -0.15589729 0.478113
-0.06934689 -0.15861031 0.47996062
-0.14360623 -0.14296749 0.47706044
-0.13438188 -0.1445989 0.47350591
-0.12474991 -0.1450173 0.4728789
-0.11506821 -0.14484453 0.47282252
-0.10510312 -0.14495903 0.4738088
-0.095434509 -0.14548647 0.47603241
-0.086666532 -0.14794479 0.47793692
-0.15335076 -0.13373131 0.47623903
-0.14579496 -0.1354048 0.47227341
-0.13310848 -0.13502514 0.47099966
-0.12492342 -0.13494502 0.47275099
-0.11584955 -0.13578701 0.47609016
-0.10607836 -0.13882709 0.47777522
-0.16272981 -0.12255107 0.47806489
-0.1545846 -0.1247383 0.47251111
-0.14728528 -0.12349412 0.47085989
-0.13334185 -0.12464044 0.47148326
-0.12600368 -0.12601614 0.47519663
-0.16460365 -0.11471546 0.47604752
-0.1547475 -0.1146621 0.47197267
-0.1449413 -0.11527272 0.47255719
-0.13579871 -0.11588339 0.47479728
-0.17123812 -0.10328812 0.47815785
-0.16448388 -0.10428085 0.47311127
-0.15487345 -0.10449935 0.47146776
-0.14490922 -0.10491951 0.47489536
-0.13876577 -0.10790013 0.47670794
-0.17216519 -0.094719365 0.47655278
-0.16499354 -0.094792306 0.47218433
-0.15507685 -0.094764195 0.47207415
-0.14683406 -0.095248461 0.47605869
-0.17258915 -0.085041985 0.4779321
-0.16500658 -0.084899075 0.47292432
-0.15489328 -0.08497227 0.47334707
-0.148119 -0.085981861 0.47699285
-0.17259029 -0.074474864 0.4775154
-0.16492006 -0.075298026 0.4737244
-0.15508273 -0.075166918 0.47636032
-0.17183384 -0.06520737 0.477806
-0.16494647 -0.065298326 0.47476503
-0.15506662 -0.064882658 0.47657055
-0.14980373 -0.062343284 0.47882843
-0.17089416 -0.057632815 0.4794701
-0.16415766 -0.055343881 0.47680968
-0.15506098 -0.055123858 0.477305
-0.16174905 -0.048000935 0.47923735
-0.15664767 -0.047694657 0.47904137
-0.12377807 -0.17159761 0.48847935
-0.11482134 -0.17317559 0.48739204
-0.10464586 -0.17331174 0.48569855
-0.095017955 -0.17369744 0.48458284
-0.084875815 -0.17470808 0.48563138
-0.074960299 -0.17370664 0.48604491
-0.065354273 -0.17297237 0.4874301
-0.058758244 -0.17172143 0.48947823
-0.14105266 -0.16104323 0.48988423
-0.13408673 -0.16390552 0.48698404
-0.12588054 -0.1659587 0.4835141
-0.11512848 -0.16867261 0.48211583
-0.10705271 -0.16875193 0.48092461
-0.074178196 -0.16957951 0.48096052
-0.064219892 -0.16485131 0.48374498
-0.057522964 -0.16549802 0.48861301
-0.14359611 -0.15377711 0.48762804
-0.13716115 -0.15647084 0.4836641
-0.073439464 -0.15174933 0.48408633
-0.066539943 -0.15657952 0.4852961
-0.15380554 -0.14466172 0.48726273
-0.14566903 -0.14691663 0.48287258
-0.095102623 -0.1421279 0.48519781
-0.084614351 -0.14691983 0.48480529
-0.078212284 -0.14951147 0.48605788
-0.1628069 -0.13460089 0.48674828
-0.15684301 -0.13690023 0.48218918
-0.11441707 -0.13319014 0.48489994
-0.10530251 -0.13785873 0.4852967
-0.17309302 -0.12333979 0.48763189
-0.16760883 -0.12485473 0.48443848
-0.12451215 -0.12443527 0.4849183
-0.11938781 -0.12946534 0.48589286
-0.17354348 -0.11529577 0.48578212
-0.16925699 -0.11788896 0.48083347
-0.13318235 -0.11462703 0.48497805
-0.12954609 -0.11931322 0.48587707
-0.17471755 -0.10655136 0.48454952
-0.14143957 -0.10223623 0.48494712
-0.13776553 -0.10758197 0.48432428
-0.18105277 -0.092278734 0.48820871
-0.17689417 -0.092103802 0.48252741
-0.14338218 -0.095008895 0.48504427
-0.18083592 -0.085282058 0.48830566
-0.17682201 -0.085638732 0.48314345
-0.14627343 -0.085061148 0.48534292
-0.18154447 -0.075034067 0.4880501
-0.17753004 -0.07463637 0.48312002
-0.15042521 -0.073911287 0.48083317
-0.14903539 -0.074975699 0.48593858
-0.18124735 -0.065637082 0.48824039
-0.17687115 -0.064523295 0.4834958
-0.15042654 -0.069514096 0.48083112
-0.14828666 -0.064586923 0.48537397
-0.18011925 -0.058027241 0.4897936
-0.17466889 -0.054843143 0.48507923
-0.16867352 -0.051582873 0.48146963
-0.15064101 -0.052762937 0.48082301
-0.14811245 -0.054978531 0.48562157
-0.17210209 -0.046200894 0.48805985
-0.16548498 -0.044629376 0.48377931
-0.15402032 -0.043828625 0.48201928
-0.14780501 -0.045461748 0.48634896
-0.16350746 -0.036955282 0.48735338
-0.15482499 -0.03536104 0.48595318
-0.14816679 -0.035597932 0.48805901
-0.15270257 -0.029496571 0.48980984
-0.14838769 -0.029348994 0.48981446
-0.094717965 -0.18312691 0.49683359
-0.085645363 -0.18299562 0.49663866
-0.074612744 -0.18346734 0.49775606
-0.065081328 -0.18318649 0.49780285
-0.12510954 -0.17623281 0.49436697
-0.1153843 -0.17786166 0.49291986
-0.10626208 -0.17873809 0.4923847
-0.096516013 -0.17879319 0.49127403
-0.083082713 -0.17888623 0.4915553
-0.07399454 -0.17872302 0.49229836
-0.064359702 -0.17783159 0.49241957
-0.054578073 -0.17483088 0.49543658
-0.048662119 -0.17180273 0.49938917
-0.14539702 -0.16530521 0.49521485
-0.13708854 -0.16781083 0.49216443
-0.053419419 -0.16375005 0.49451092
-0.048711378 -0.16679758 0.49898678
-0.14700432 -0.15682575 0.49337581
-0.071419388 -0.1507403 0.49473244
-0.064610735 -0.15516502 0.49549037
-0.057666969 -0.15905957 0.49827346
-0.16517398 -0.14493015 0.4966248
-0.157023 -0.14706594 0.49231499
-0.10033186 -0.14010429 0.49741843
-0.094833747 -0.1420951 0.49574009
-0.084667876 -0.14605689 0.49593827
-0.076314844 -0.14873259 0.49561509
-0.16732819 -0.13647756 0.49276099
-0.11427048 -0.13254832 0.49586138
-0.10560299 -0.13719922 0.49580428
-0.17686039 -0.12616234 0.49274224
-0.12395233 -0.12385508 0.49556953
-0.11890093 -0.12890461 0.49679309
-0.18419674 -0.11542793 0.49751312
-0.17845157 -0.11527397 0.4916223
-0.13296138 -0.11365098 0.49580172
-0.12844318 -0.11875869 0.4964934
-0.18541378 -0.10560706 0.49717379
-0.17937106 -0.10891439 0.49131835
-0.14084689 -0.10234028 0.49585688
-0.13752323 -0.1075686 0.49608517
-0.18655698 -0.094866313 0.49501827
-0.14172858 -0.094504252 0.49582103
-0.18665618 -0.085204341 0.49526599
-0.14489856 -0.085218772 0.49532726
-0.19286454 -0.073654763 0.49893719
-0.18686879 -0.075133808 0.49425271
-0.14726095 -0.074953906 0.49544424
-0.19353981 -0.06539803 0.49883962
-0.18649979 -0.064407177 0.49421832
-0.14575249 -0.065157332 0.49580383
-0.19182695 -0.055554051 0.49956551
-0.18535808 -0.055109181 0.49541453
-0.17897668 -0.051438332 0.49104175
-0.14451875 -0.05499395 0.49573064
-0.1837344 -0.046000384 0.49728408
-0.17664225 -0.04421708 0.49282655
-0.14352208 -0.044551969 0.49510935
-0.18118648 -0.03897123 0.49978352
-0.17416933 -0.036241841 0.49652311
-0.16652252 -0.032810997 0.49325487
-0.14308564 -0.034870088 0.49497086
-0.13934158 -0.033069443 0.49962598
-0.16386774 -0.027345549 0.49722534
-0.15518698 -0.025099402 0.49428338
-0.14462721 -0.025053604 0.49259615
-0.13867046 -0.024960263 0.49764109
-0.15250954 -0.016168557 0.49828199
-0.14453319 -0.015413123 0.49438104
-0.13579084 -0.014702925 0.49574426
-0.14415467 -0.0081095379 0.49815908
-0.13611427 -0.0080565782 0.49755687
-0.15897806 -0.02051782 0.50113219
-0.15705658 -0.014106794 0.50252527
-0.13181126 -0.016428374 0.50299299
-0.11524953 -0.15038145 0.46987104
-0.10597569 -0.15195185 0.46970135
-0.12354449 -0.14370732 0.46965188
-0.11567049 -0.14533323 0.46952003
-0.10720181 -0.14748605 0.46946982
-0.1414742 -0.13296582 0.46935642
-0.13445136 -0.13472758 0.46882415
-0.12589113 -0.13467605 0.46939245
-0.11742461 -0.13893306 0.4697946
-0.14233573 -0.12575467 0.46966532
-0.13512409 -0.12674172 0.46894285
-0.12840138 -0.12814103 0.46945071
-0.15223692 -0.11263043 0.46947715
-0.14947495 -0.11474613 0.46981177
-0.15219837 -0.10639699 0.46956795
-0.14905858 -0.10728912 0.46964195
-0.10371926 -0.17084815 0.47958705
-0.094928116 -0.17085391 0.47898784
-0.085053287 -0.17068973 0.47886223
-0.07806696 -0.17021871 0.47998503
-0.13263151 -0.16131982 0.47768903
-0.12503935 -0.16333419 0.4770219
-0.11479798 -0.16450101 0.47641805
-0.10472552 -0.16469358 0.47513664
-0.095003694 -0.16441385 0.4746412
-0.084650069 -0.16472927 0.4746235
-0.074875958 -0.16391994 0.47597277
-0.068174988 -0.16250437 0.47883907
-0.15097384 -0.15227737 0.47945204
-0.14415529 -0.15370932 0.47743085
-0.13528202 -0.15461767 0.47507957
-0.12445236 -0.15453693 0.47197923
-0.11480893 -0.15536135 0.47143966
-0.10409345 -0.15544771 0.47097555
-0.094950721 -0.15473074 0.47187275
-0.084889919 -0.15481307 0.47355542
-0.074816398 -0.15485466 0.47570804
-0.067957319 -0.15632947 0.47830644
-0.15430084 -0.14375846 0.47697964
-0.14436159 -0.14497672 0.47389486
-0.1346397 -0.14505991 0.47174647
-0.12642533 -0.14605805 0.47044918
-0.11327732 -0.14260741 0.47045389
-0.1041522 -0.14382511 0.47143853
-0.095158279 -0.14485675 0.47453547
-0.085349225 -0.1467452 0.47648057
-0.076739311 -0.14813054 0.47807544
-0.16194382 -0.13424182 0.4784719
-0.15433398 -0.13531879 0.47481593
-0.14596693 -0.13530441 0.47137797
-0.13936676 -0.13893212 0.47041506
-0.12216318 -0.13431156 0.47072482
-0.11492381 -0.13474022 0.47365966
-0.10594646 -0.13780954 0.47586837
-0.098684035 -0.13929746 0.47853684
-0.17108384 -0.12062965 0.47848475
-0.16476697 -0.12489037 0.47683358
-0.1546261 -0.12466532 0.47262222
-0.14550059 -0.12410463 0.47065511
-0.13336976 -0.12186744 0.47310081
-0.1252822 -0.12615034 0.47461623
-0.1186966 -0.12904945 0.47696427
-0.17261326 -0.11538763 0.47912857
-0.16509849 -0.11468487 0.47484505
-0.15612522 -0.11591579 0.47109371
-0.14433901 -0.11481977 0.47173667
-0.13631973 -0.11570822 0.47589776
-0.17236376 -0.10473733 0.47875544
-0.16489582 -0.10471715 0.47464871
-0.15577796 -0.10373438 0.4709706
-0.1439395 -0.1047743 0.47384804
-0.13905302 -0.10667402 0.4787479
-0.17350461 -0.095377445 0.4775798
-0.16428807 -0.094539829 0.47306496
-0.15455024 -0.095020249 0.47213924
-0.14411852 -0.094876997 0.47475708
-0.13987248 -0.096965194 0.47908193
-0.17431453 -0.084337302 0.47740921
-0.16424797 -0.084672108 0.47343284
-0.15487561 -0.084960587 0.47401673
-0.14481954 -0.08541514 0.47622699
-0.17377946 -0.075220682 0.47707769
-0.16413951 -0.074764095 0.47422615
-0.1547652 -0.075041309 0.47618341
-0.1478439 -0.076266438 0.4784205
-0.17342885 -0.065059416 0.4772636
-0.16486779 -0.065117486 0.4748458
-0.15479307 -0.064943835 0.47646275
-0.14957283 -0.064823933 0.47917536
-0.1712615 -0.057801675 0.4789772
-0.16422506 -0.055330671 0.47777757
-0.15535511 -0.055424895 0.47806266
-0.14952095 -0.057240468 0.47930801
-0.1570559 -0.049326401 0.47976765
-0.11446079 -0.18056396 0.48936272
-0.10396008 -0.18131201 0.48887175
-0.095373511 -0.18119012 0.48872459
-0.088456631 -0.18071395 0.48935723
-0.14287107 -0.17268771 0.48983139
-0.13411559 -0.17367662 0.48734877
-0.12478551 -0.1748278 0.48625216
-0.11508437 -0.1743882 0.48431101
-0.10506143 -0.17534019 0.48368812
-0.094966494 -0.17579193 0.48352343
-0.084966764 -0.17579915 0.48452747
-0.075184941 -0.17410961 0.48544899
-0.065184057 -0.17336357 0.48718047
-0.0573439 -0.17210814 0.48833108
-0.16122276 -0.16264103 0.48887178
-0.15414862 -0.164306 0.48725042
-0.14469965 -0.16430207 0.48426268
-0.13456813 -0.16714273 0.48256233
-0.12518889 -0.16869836 0.4811835
-0.072013766 -0.16886096 0.4811441
-0.064089961 -0.16504635 0.4824048
-0.055281371 -0.16448328 0.48636118
-0.17131574 -0.15276457 0.48997223
-0.16440287 -0.15400763 0.4872905
-0.15552782 -0.15618008 0.48358077
-0.14712112 -0.15867111 0.48118937
-0.070732489 -0.15027606 0.48081291
-0.064759001 -0.15510911 0.4844985
-0.057291873 -0.15900141 0.48817059
-0.17433912 -0.14300537 0.48733085
-0.16431864 -0.14483589 0.48254269
-0.15719743 -0.14720666 0.48008645
-0.093089774 -0.14124314 0.48432177
-0.084999651 -0.1438542 0.48455277
-0.074458145 -0.14725262 0.48488897
-0.068922505 -0.14961657 0.48446426
-0.18268903 -0.13411021 0.48846465
-0.17477934 -0.13494189 0.48493806
-0.1669298 -0.13585943 0.48136577
-0.11453852 -0.13264334 0.48527753
-0.10482085 -0.13693941 0.48486486
-0.097678989 -0.13907039 0.48472369
-0.19075288 -0.12386224 0.4899148
-0.18501939 -0.12476286 0.48727563
-0.1755345 -0.12550677 0.48228952
-0.16904743 -0.12973812 0.48018941
-0.13110958 -0.1202255 0.48127595
-0.12523051 -0.12397702 0.48522183
-0.1188004 -0.12909658 0.48364425
-0.18479078 -0.11545296 0.48705187
-0.17706332 -0.11430065 0.48204511
-0.13326979 -0.11451306 0.48463824
-0.12932631 -0.11881263 0.48697057
-0.19013371 -0.10418797 0.48928547
-0.18504904 -0.10574542 0.48667526
-0.17700914 -0.10728908 0.48218593
-0.14006408 -0.10135952 0.48401731
-0.13825616 -0.10548563 0.48452044
-0.19127193 -0.094618902 0.4889701
-0.18536429 -0.094750382 0.48522729
-0.17755869 -0.098359309 0.48040926
-0.14075316 -0.095064014 0.48515922
-0.1396146 -0.099690855 0.48250905
-0.19290209 -0.085465044 0.48862076
-0.18525551 -0.084774449 0.48399162
-0.17846052 -0.086920768 0.48010126
-0.14249164 -0.084760286 0.484725
-0.19206659 -0.075422287 0.4879609
-0.18448924 -0.074905619 0.48317951
-0.1794486 -0.076219156 0.48032799
-0.14651905 -0.074956998 0.48444307
-0.19158551 -0.066747777 0.48869836
-0.18442586 -0.064844459 0.48436686
-0.17796463 -0.064131379 0.48035851
-0.14822887 -0.064991072 0.48480156
-0.18276058 -0.056241829 0.48718697
-0.17496787 -0.054044083 0.48312595
-0.16851634 -0.051279634 0.48122686
-0.1517663 -0.051655546 0.48091874
-0.14799452 -0.055243075 0.48482779
-0.17358451 -0.046290845 0.48711663
-0.16460966 -0.045014638 0.48314232
-0.15426858 -0.044570055 0.48267728
-0.14900005 -0.04594386 0.48726049
-0.16378103 -0.038158614 0.48733279
-0.15395284 -0.036352348 0.48659772
-0.14927112 -0.035821609 0.48889482
-0.11480755 -0.18578789 0.49320117
-0.10484329 -0.18681508 0.49323761
-0.094705515 -0.18633051 0.49361831
-0.084425636 -0.18539377 0.49451068
-0.14486381 -0.17683353 0.49323407
-0.13670097 -0.17793548 0.4911716
-0.12685245 -0.17971809 0.4908464
-0.080152288 -0.17998692 0.49032515
-0.072886117 -0.17904779 0.49115875
-0.064149871 -0.17835352 0.49234486
-0.053714897 -0.17555828 0.49472168
-0.16558453 -0.16541052 0.4922356
-0.15721393 -0.16931862 0.49175051
-0.14954372 -0.16997743 0.49039945
-0.050820895 -0.16474797 0.49161017
-0.048046947 -0.16513921 0.49602035
-0.17495327 -0.1557931 0.49327731
-0.16920109 -0.15965731 0.49214426
-0.064288087 -0.15333301 0.49461851
-0.054861832 -0.15719762 0.49541503
-0.18567154 -0.1449969 0.49345583
-0.17859657 -0.14643641 0.49068671
-0.092566386 -0.14118187 0.49442458
-0.085060708 -0.14378761 0.49558327
-0.074781604 -0.14684732 0.49564409
-0.068855256 -0.14928278 0.49657774
-0.19465587 -0.13497941 0.49409854
-0.18686406 -0.13596776 0.49095339
-0.11503347 -0.13378191 0.49553338
-0.10461619 -0.13658452 0.49550602
-0.096990429 -0.13846317 0.49651158
-0.19545172 -0.12484039 0.49281773
-0.18971108 -0.12978825 0.49056876
-0.12434058 -0.12464065 0.49536121
-0.19590889 -0.1147978 0.4940469
-0.18951035 -0.11189187 0.49039423
-0.13288952 -0.11316025 0.495139
-0.12836727 -0.11775937 0.49569574
-0.19567797 -0.10527329 0.49316296
-0.14028601 -0.10093194 0.49639782
-0.13788833 -0.10591027 0.49514335
-0.20493014 -0.095239379 0.49629101
-0.19641578 -0.095126443 0.49221918
-0.14193742 -0.095361017 0.49510095
-0.20543209 -0.084878758 0.49560633
-0.19770415 -0.08417213 0.49135321
-0.14417537 -0.085249789 0.49516767
-0.20507406 -0.074899286 0.49608284
-0.19742653 -0.074446037 0.49150902
-0.14665726 -0.074925989 0.49519566
-0.20299339 -0.065157473 0.49742272
-0.1954881 -0.064285606 0.49264309
-0.14664641 -0.065088168 0.49545163
-0.20085852 -0.058330894 0.49926779
-0.19472323 -0.055709336 0.49661633
-0.18700631 -0.053223338 0.49235827
-0.14531015 -0.054671071 0.4952856
-0.19143175 -0.047543213 0.49914858
-0.18422377 -0.045213569 0.49542809
-0.17701231 -0.042828437 0.49201217
-0.1452968 -0.044995319 0.49555969
-0.18167667 -0.038983598 0.4985379
-0.17467448 -0.035873245 0.49704164
-0.16553135 -0.033694617 0.49391675
-0.15614253 -0.031579841 0.49132693
-0.14609665 -0.034843378 0.49470252
-0.16203363 -0.028388983 0.49786711
-0.15449782 -0.025349692 0.49599594
-0.14446524 -0.025599178 0.49440664
-0.13857587 -0.0220882 0.4970274
-0.15156402 -0.01534318 0.49859336
-0.14440735 -0.015069737 0.49497488
-0.13552769 -0.014549949 0.4952262
-0.14424326 -0.0074171689 0.49810913
-0.13571337 -0.0076519749 0.49670786
-0.15821473 -0.021203786 0.50092161
-0.14065838 -0.028101994 0.50144231
-0.15685607 -0.014717475 0.50193536
-0.14472693 -0.0027634134 0.50312549
