# .PCD v0.7 - Point Cloud Data file format
VERSION 0.7
FIELDS x y z
SIZE 4 4 4
TYPE F F F
COUNT 1 1 1
WIDTH 1424
HEIGHT 1
VIEWPOINT 0 0 0 1 0 0 0
POINTS 1424
DATA ascii
-0.20019382 0.1360947 0.5880307
0.1769598 0.11112583 0.48003504
0.17821118 0.11112592 0.48003507
0.17946258 0.11112603 0.48003507
0.18071397 0.11112612 0.48003507
0.18158631 0.11089473 0.47903511
0.18245344 0.11066332 0.47803512
0.18369962 0.11066341 0.47803512
0.18494579 0.11066352 0.47803512
0.1858025 0.11043213 0.47703516
0.18704607 0.11043222 0.47703516
0.18828964 0.11043232 0.47703519
0.18913594 0.11020091 0.47603518
0.19037689 0.11020101 0.47603521
0.19161786 0.11020111 0.47603521
0.19285882 0.1102012 0.47603521
0.19369207 0.10996981 0.47503525
0.19493042 0.10996991 0.47503525
0.19616878 0.10997 0.47503525
0.19699159 0.1097386 0.47403529
0.19822735 0.10973869 0.47403532
0.19946308 0.10973879 0.47403532
0.20027548 0.10950739 0.47303534
0.20150863 0.10950749 0.47303534
0.20231318 0.10927608 0.47203538
0.20268138 0.10881317 0.4700354
0.2039067 0.10881326 0.4700354
0.20513202 0.10881336 0.47003543
0.20591831 0.10858195 0.46903542
0.2099103 0.10811933 0.46703547
-0.34808567 0.14768127 0.63102889
-0.34644058 0.14768139 0.63102889
-0.34424907 0.14744748 0.6300289
-0.34206277 0.14721355 0.62902892
-0.33988166 0.14697967 0.62802899
-0.33770573 0.14674576 0.627029
-0.33607113 0.14674589 0.627029
-0.3339031 0.14651199 0.62602907
-0.3322711 0.14651211 0.62602907
-0.33011079 0.14627822 0.62502909
-0.32795578 0.1460443 0.6240291
-0.32580596 0.14581038 0.62302917
-0.32366139 0.14557651 0.62202919
-0.32203975 0.14557663 0.62202919
-0.32041818 0.14557676 0.62202924
-0.31828403 0.14534284 0.62102926
-0.31666502 0.14534298 0.62102926
-0.31453866 0.14510904 0.62002927
-0.3129223 0.14510918 0.62002927
-0.31130588 0.1451093 0.62002927
-0.30918998 0.14487541 0.61902934
-0.30757618 0.14487554 0.61902934
-0.30596241 0.14487566 0.61902934
-0.30385691 0.14464176 0.61802936
-0.30175665 0.14440784 0.61702943
-0.30014807 0.14440796 0.61702943
-0.29805565 0.14417405 0.6160295
-0.29596838 0.14394014 0.61502945
-0.29388633 0.14370622 0.61402953
-0.29228562 0.14370635 0.61402953
-0.29021141 0.14347245 0.61302954
-0.28814241 0.14323854 0.61202961
-0.28654689 0.14323866 0.61202961
-0.2844857 0.14300475 0.61102962
-0.28289276 0.14300486 0.61102962
-0.28083944 0.14277095 0.61002964
-0.27879131 0.14253704 0.60902971
-0.27720362 0.14253718 0.60902971
-0.27516329 0.14230326 0.60802978
-0.2735782 0.14230339 0.60802978
-0.2719931 0.14230351 0.60802978
-0.2699632 0.14206959 0.6070298
-0.26838073 0.14206971 0.60702986
-0.26635861 0.14183579 0.60602981
-0.26477876 0.14183591 0.60602981
-0.26319885 0.14183605 0.60602981
-0.26118726 0.14160213 0.60502988
-0.25960997 0.14160226 0.60502988
-0.25803271 0.14160238 0.60502988
-0.25645542 0.1416025 0.60502988
-0.25445685 0.14136858 0.60402995
-0.25288215 0.1413687 0.60402995
-0.25089133 0.1411348 0.60303003
-0.24931931 0.14113492 0.60303003
-0.24733636 0.14090101 0.60203004
-0.24576691 0.14090113 0.6020301
-0.24379173 0.14066719 0.60103005
-0.24182183 0.14043328 0.60003012
-0.24025759 0.1404334 0.60003012
-0.2382955 0.14019948 0.59903014
-0.2363386 0.13996556 0.59803021
-0.2347796 0.13996568 0.59803021
-0.23283048 0.13973175 0.59703016
-0.23088664 0.13949785 0.59603024
-0.22933282 0.13949797 0.59603024
-0.22739679 0.13926403 0.59503031
-0.22546598 0.13903011 0.59403032
-0.22391738 0.13903023 0.59403032
-0.22236879 0.13903037 0.59403038
-0.2204484 0.13879645 0.59303039
-0.21890242 0.13879657 0.59303039
-0.21735641 0.13879669 0.59303039
-0.21544641 0.13856274 0.59203041
-0.21390302 0.13856286 0.59203041
-0.21200091 0.13832894 0.59103048
-0.21046013 0.13832907 0.59103048
-0.20891936 0.13832919 0.59103048
-0.20702766 0.13809527 0.59003049
-0.20548947 0.13809539 0.59003055
-0.20360559 0.13786146 0.58903056
-0.20207003 0.13786158 0.58903056
0.17821108 0.11237732 0.48003495
0.17946248 0.11237742 0.48003495
0.18071386 0.11237752 0.48003498
0.18158621 0.11214351 0.47903499
0.18283498 0.11214361 0.47903502
0.18369952 0.11190959 0.47803503
0.18494569 0.11190969 0.47803503
0.18619187 0.11190979 0.47803503
0.18704598 0.11167579 0.47703508
0.18828955 0.11167589 0.47703508
0.18913585 0.11144187 0.47603509
0.1903768 0.11144197 0.47603509
0.19161777 0.11144207 0.47603509
0.19245361 0.11120807 0.47503513
0.19369197 0.11120816 0.47503513
0.19452 0.11097416 0.47403517
0.19575575 0.11097425 0.4740352
0.19699149 0.11097435 0.4740352
0.19822724 0.11097445 0.4740352
0.19946298 0.11097454 0.4740352
0.20027539 0.11074053 0.47303522
0.20065658 0.1102724 0.47103527
0.20145595 0.11003839 0.47003528
-0.34863746 0.14956294 0.6320287
-0.3464407 0.14932644 0.63102877
-0.34479567 0.14932658 0.63102877
-0.34260675 0.14909007 0.63002878
-0.34042305 0.14885353 0.6290288
-0.33878317 0.14885366 0.6290288
-0.33607128 0.14838052 0.62702888
-0.33443666 0.14838065 0.62702888
-0.33227122 0.14814413 0.62602895
-0.33063915 0.14814426 0.62602895
-0.3284815 0.14790775 0.62502891
-0.32632911 0.14767124 0.62402898
-0.32418188 0.14743471 0.62302905
-0.32255766 0.14743485 0.62302905
-0.3204183 0.14719835 0.62202907
-0.31879672 0.14719848 0.62202907
-0.31666514 0.14696196 0.62102914
-0.31504616 0.14696208 0.62102914
-0.31292242 0.14672557 0.62002915
-0.311306 0.14672568 0.62002915
-0.30968961 0.14672582 0.62002915
-0.30807322 0.14672594 0.62002915
-0.30596256 0.14648943 0.61902922
-0.3043488 0.14648956 0.61902922
-0.30224589 0.14625303 0.61802924
-0.30014819 0.14601652 0.61702931
-0.29805577 0.14578001 0.61602932
-0.29644981 0.14578015 0.61602938
-0.29436514 0.14554361 0.61502934
-0.29228574 0.14530709 0.61402941
-0.290685 0.14530721 0.61402941
-0.28814253 0.14483406 0.61202949
-0.28654701 0.14483418 0.61202949
-0.28448585 0.14459766 0.61102945
-0.28289291 0.14459778 0.61102951
-0.28083956 0.14436126 0.61002952
-0.27879143 0.14412475 0.60902959
-0.27720374 0.14412488 0.60902959
-0.27561602 0.144125 0.60902959
-0.2740283 0.14412512 0.60902959
-0.27199322 0.14388861 0.60802966
-0.27040812 0.14388873 0.60802966
-0.26882303 0.14388886 0.60802966
-0.26679835 0.14365233 0.60702974
-0.26477891 0.14341579 0.60602969
-0.263199 0.14341593 0.60602969
-0.26161915 0.14341605 0.60602969
-0.25961009 0.14317954 0.60502976
-0.25803283 0.14317966 0.60502976
-0.25645554 0.14317977 0.60502976
-0.25487828 0.14317991 0.60502976
-0.25288227 0.14294337 0.60402983
-0.25130761 0.1429435 0.60402983
-0.24931943 0.14270698 0.60302991
-0.24774738 0.14270709 0.60302991
-0.24576703 0.14247058 0.60202992
-0.24379186 0.14223403 0.60102993
-0.24182196 0.14199752 0.60002995
-0.24025773 0.14199764 0.60003
-0.23829561 0.14176111 0.59903002
-0.23633872 0.14152458 0.59803009
-0.23477972 0.1415247 0.59803009
-0.2328306 0.14128816 0.59703004
-0.23088677 0.14105165 0.59603012
-0.22933295 0.14105177 0.59603012
-0.22739691 0.14081524 0.59503013
-0.22584572 0.14081536 0.59503019
-0.2239175 0.14057884 0.5940302
-0.22236891 0.14057897 0.5940302
-0.22082031 0.14057909 0.5940302
-0.21890254 0.14034255 0.59303027
-0.21735653 0.14034267 0.59303027
-0.21544655 0.14010613 0.59203029
-0.21390316 0.14010625 0.59203029
-0.21235979 0.14010638 0.59203029
-0.2108164 0.1401065 0.59203029
-0.20891948 0.13986997 0.59103036
-0.20702778 0.13963343 0.59003037
-0.20548959 0.13963355 0.59003037
-0.20395143 0.13963367 0.59003037
0.17821097 0.1136287 0.48003486
0.17946237 0.1136288 0.48003486
0.18071376 0.1136289 0.48003486
0.18196514 0.113629 0.48003486
0.18283489 0.11339239 0.4790349
0.18408369 0.11339249 0.4790349
0.1849456 0.11315587 0.47803491
0.18619178 0.11315597 0.47803494
0.18704587 0.11291936 0.47703496
0.18828945 0.11291946 0.47703499
0.18913575 0.11268283 0.47603497
0.1903767 0.11268293 0.476035
0.19161767 0.11268303 0.476035
0.19245352 0.11244642 0.47503504
0.19369188 0.11244652 0.47503504
0.19451991 0.1122099 0.47403508
0.19575566 0.11221 0.47403508
0.1969914 0.11221009 0.47403508
0.19822715 0.11221019 0.47403511
0.19946289 0.11221029 0.47403511
0.19985193 0.11173695 0.47203514
0.20023054 0.11126362 0.4700352
0.20102727 0.11102699 0.46903518
-0.34918928 0.15144986 0.63302851
-0.34753898 0.15144998 0.63302857
-0.34534225 0.15121086 0.63202858
-0.34315073 0.15097176 0.63102865
-0.34150568 0.15097187 0.63102865
-0.33932197 0.15073277 0.63002867
-0.33714348 0.15049362 0.62902868
-0.33497021 0.15025453 0.62802869
-0.33280215 0.1500154 0.62702876
-0.33063927 0.14977628 0.62602884
-0.32900727 0.1497764 0.62602884
-0.32685223 0.1495373 0.62502879
-0.32470244 0.14929816 0.62402886
-0.32307562 0.1492983 0.62402886
-0.32093361 0.14905918 0.62302893
-0.31879687 0.14882007 0.62202895
-0.31717524 0.14882019 0.62202895
-0.31555367 0.14882033 0.62202895
-0.31342733 0.14858119 0.62102902
-0.31180832 0.14858131 0.62102902
-0.30968976 0.14834219 0.62002903
-0.30807337 0.14834231 0.62002903
-0.30596268 0.14810319 0.61902905
-0.30434892 0.14810333 0.6190291
-0.30273515 0.14810345 0.6190291
-0.30014834 0.14762507 0.61702919
-0.29853979 0.14762521 0.61702919
-0.29644993 0.14738609 0.6160292
-0.29484397 0.14738621 0.6160292
-0.29276192 0.14714707 0.61502922
-0.29068515 0.14690794 0.61402929
-0.28861353 0.14666884 0.6130293
-0.28654712 0.1464297 0.61202937
-0.2849516 0.14642984 0.61202937
-0.28289303 0.1461907 0.61102933
-0.28130013 0.14619084 0.61102939
-0.27970719 0.14619096 0.61102939
-0.27765909 0.14595182 0.6100294
-0.27606875 0.14595196 0.6100294
-0.27402845 0.14571281 0.60902947
-0.27244076 0.14571294 0.60902947
-0.27085307 0.14571306 0.60902947
-0.26882315 0.14547396 0.60802954
-0.26723805 0.14547408 0.60802954
-0.26521599 0.14523494 0.60702956
-0.26363349 0.14523506 0.60702962
-0.26161927 0.14499593 0.60602957
-0.26003936 0.14499605 0.60602957
-0.25845951 0.14499618 0.60602957
-0.25645566 0.14475705 0.60502964
-0.2548784 0.14475718 0.60502964
-0.25330111 0.1447573 0.60502964
-0.25172386 0.14475742 0.6050297
-0.24931957 0.14427903 0.60302973
-0.24774751 0.14427915 0.60302979
-0.24576715 0.14404003 0.6020298
-0.24419768 0.14404015 0.6020298
-0.24222516 0.14380102 0.60102981
-0.24025784 0.14356187 0.60002983
-0.23829575 0.14332274 0.5990299
-0.23673411 0.14332287 0.5990299
-0.23477983 0.14308374 0.59802997
-0.2332208 0.14308386 0.59802997
-0.23127432 0.14284469 0.59702992
-0.22933307 0.14260559 0.59603
-0.22777925 0.14260571 0.59603
-0.22584584 0.14236656 0.59503001
-0.22429463 0.14236668 0.59503007
-0.22236903 0.14212756 0.59403008
-0.22082043 0.14212768 0.59403008
-0.21927184 0.1421278 0.59403008
-0.21699004 0.14164938 0.59203011
-0.21544667 0.1416495 0.59203017
-0.21390328 0.14164962 0.59203017
-0.21235991 0.14164975 0.59203017
-0.21081652 0.14164987 0.59203017
-0.2089196 0.14141075 0.59103018
-0.20737882 0.14141087 0.59103024
-0.20548971 0.14117172 0.59003025
0.17946228 0.1148802 0.48003474
0.18071367 0.11488029 0.48003477
0.18196505 0.11488039 0.48003477
0.18283479 0.11464117 0.47903481
0.18408358 0.11464127 0.47903481
0.18494549 0.11440205 0.47803482
0.18619168 0.11440215 0.47803482
0.18704578 0.11416293 0.47703487
0.18828936 0.11416303 0.47703487
0.18913566 0.1139238 0.47603488
0.18997671 0.11368458 0.47503492
0.19121507 0.11368468 0.47503492
0.19245341 0.11368477 0.47503492
0.19657578 0.11320652 0.47303498
0.19780892 0.11320662 0.47303501
0.19904205 0.11320671 0.47303501
0.19942847 0.11272816 0.47103503
-0.3497411 0.15334196 0.63402838
-0.3475391 0.15310024 0.63302839
-0.34588882 0.15310037 0.63302839
-0.34369472 0.15285866 0.63202846
-0.34150583 0.15261693 0.63102847
-0.33986074 0.15261707 0.63102853
-0.33767965 0.15237536 0.63002855
-0.33550379 0.1521336 0.62902856
-0.3333331 0.1518919 0.62802857
-0.33116761 0.15165016 0.62702864
-0.32900742 0.15140843 0.62602866
-0.32737541 0.15140857 0.62602872
-0.32522297 0.15116684 0.62502867
-0.32307574 0.1509251 0.62402874
-0.32144892 0.15092522 0.62402874
-0.31982213 0.15092535 0.62402874
-0.31768534 0.15068363 0.62302881
-0.31555378 0.15044191 0.62202883
-0.31393218 0.15044203 0.62202883
-0.31231058 0.15044217 0.62202883
-0.31018943 0.15020044 0.6210289
-0.30807349 0.14995869 0.62002891
-0.30645713 0.14995882 0.62002891
-0.30434904 0.14971711 0.61902893
-0.30273527 0.14971723 0.61902893
-0.30063498 0.1494755 0.618029
-0.29853991 0.14923377 0.61702907
-0.29693136 0.14923389 0.61702907
-0.29484409 0.14899217 0.61602908
-0.29323816 0.1489923 0.61602908
-0.29115874 0.14875054 0.6150291
-0.28908452 0.14850882 0.61402911
-0.2870155 0.14826709 0.61302918
-0.28541738 0.14826721 0.61302918
-0.28335622 0.14802548 0.61202925
-0.28176072 0.1480256 0.61202925
-0.27970731 0.14778386 0.61102921
-0.27811441 0.14778399 0.61102927
-0.2765215 0.14778411 0.61102927
-0.27447855 0.14754239 0.61002928
-0.27288827 0.14754251 0.61002928
-0.27085319 0.14730076 0.60902935
-0.26926547 0.1473009 0.60902935
-0.26723817 0.14705917 0.60802943
-0.26565307 0.14705931 0.60802943
-0.26406798 0.14705943 0.60802943
-0.26205114 0.14681768 0.6070295
-0.26003948 0.14657593 0.60602945
-0.25845963 0.14657606 0.60602945
-0.25687972 0.14657618 0.60602945
-0.25487852 0.14633445 0.60502952
-0.25330123 0.14633457 0.60502952
-0.25172397 0.14633469 0.60502952
-0.24973319 0.14609295 0.6040296
-0.24774763 0.14585121 0.60302961
-0.24617557 0.14585134 0.60302967
-0.24419782 0.1456096 0.60202968
-0.24262838 0.14560972 0.60202968
-0.24025796 0.1451261 0.60002971
-0.23869373 0.14512622 0.60002971
-0.23673423 0.14488451 0.59902978
-0.23477995 0.14464276 0.59802979
-0.23322092 0.14464287 0.59802985
-0.23127444 0.14440112 0.59702981
-0.22933319 0.14415939 0.59602988
-0.22777937 0.14415951 0.59602988
-0.22584598 0.14391775 0.59502989
-0.22429477 0.14391787 0.59502989
-0.22236915 0.14367616 0.59402996
-0.22082055 0.14367628 0.59402996
-0.21927196 0.1436764 0.59402996
-0.21772334 0.14367652 0.59402996
-0.21581079 0.14343476 0.59303004
-0.2139034 0.14319301 0.59202999
-0.21236002 0.14319314 0.59203005
-0.21081664 0.14319326 0.59203005
-0.20927326 0.14319338 0.59203005
-0.20737895 0.14295164 0.59103006
0.18196495 0.11613178 0.48003465
0.18283468 0.11588996 0.47903469
0.18408348 0.11589006 0.47903469
0.1849454 0.11564822 0.4780347
0.18619159 0.11564832 0.4780347
0.18704568 0.1154065 0.47703475
0.18828925 0.1154066 0.47703478
0.18913555 0.11516476 0.47603476
0.18997662 0.11492293 0.4750348
0.19121498 0.11492303 0.47503483
0.19328398 0.1146813 0.47403488
0.1941094 0.11443947 0.47303486
0.19534254 0.11443956 0.47303489
0.19657567 0.11443966 0.47303489
0.19780882 0.11443976 0.47303489
0.19904195 0.11443985 0.47303489
-0.35029295 0.15523931 0.63502824
-0.34863743 0.15523945 0.63502824
-0.34643546 0.1549951 0.63402826
-0.34478259 0.15499523 0.63402826
-0.34258842 0.15475091 0.63302827
-0.3403995 0.15450658 0.63202834
-0.33821583 0.15426226 0.63102835
-0.33603734 0.15401793 0.63002843
-0.33386406 0.15377358 0.62902844
-0.33169594 0.15352926 0.62802845
-0.32953316 0.15328492 0.62702852
-0.32789853 0.15328504 0.62702852
-0.3257435 0.15304072 0.62602854
-0.32411146 0.15304084 0.6260286
-0.32196423 0.15279651 0.62502855
-0.31982228 0.15255217 0.62402862
-0.31819543 0.15255231 0.62402862
-0.31606126 0.15230796 0.62302864
-0.3139323 0.15206364 0.62202871
-0.3123107 0.15206377 0.62202871
-0.31068909 0.15206389 0.62202871
-0.30857059 0.15181956 0.62102878
-0.30645725 0.15157521 0.62002873
-0.30484086 0.15157533 0.62002879
-0.30273539 0.15133099 0.61902881
-0.30112159 0.15133113 0.61902881
-0.29902393 0.15108679 0.61802888
-0.29693148 0.15084244 0.61702889
-0.2953229 0.15084258 0.61702895
-0.29323828 0.15059826 0.61602896
-0.29163232 0.15059838 0.61602896
-0.28955552 0.15035401 0.61502898
-0.2874839 0.15010968 0.61402899
-0.28588319 0.15010981 0.61402905
-0.28428242 0.15010993 0.61402905
-0.28222126 0.1498656 0.61302906
-0.28016528 0.14962125 0.61202914
-0.27856979 0.14962137 0.61202914
-0.27652162 0.14937703 0.61102915
-0.27492869 0.14937717 0.61102915
-0.27333578 0.14937729 0.61102915
-0.27129808 0.14913294 0.61002916
-0.26926559 0.1488886 0.60902923
-0.2676779 0.14888872 0.60902923
-0.26565319 0.14864439 0.60802931
-0.2640681 0.14864451 0.60802931
-0.262483 0.14864463 0.60802931
-0.26046878 0.14840029 0.60702932
-0.25845975 0.14815593 0.60602933
-0.25687984 0.14815605 0.60602933
-0.25529999 0.14815617 0.60602933
-0.25330135 0.14791185 0.6050294
-0.25172409 0.14791197 0.6050294
-0.24973331 0.14766762 0.60402948
-0.24815863 0.14766774 0.60402948
-0.24617569 0.1474234 0.60302949
-0.24460363 0.14742352 0.60302949
-0.2426285 0.14717917 0.60202956
-0.24065855 0.14693482 0.60102957
-0.23869385 0.14669046 0.60002959
-0.23673435 0.14644614 0.59902966
-0.23478009 0.14620177 0.59802967
-0.23322105 0.14620189 0.59802967
-0.23127456 0.14595753 0.59702969
-0.22933331 0.1457132 0.5960297
-0.22739728 0.14546885 0.59502977
-0.2258461 0.14546897 0.59502977
-0.22429489 0.14546908 0.59502977
-0.22274369 0.14546922 0.59502977
-0.22082068 0.14522487 0.59402984
-0.21927209 0.14522499 0.59402984
-0.21735689 0.14498064 0.59302992
-0.21617489 0.14522523 0.59402984
-0.21426491 0.14498088 0.59302992
-0.21236014 0.14473651 0.59202987
-0.21081676 0.14473663 0.59202993
-0.20927338 0.14473675 0.59202993
0.1828346 0.11713874 0.4790346
0.18408339 0.11713884 0.4790346
0.1849453 0.1168944 0.47803462
0.18619148 0.1168945 0.47803462
0.18913546 0.11640573 0.47603467
0.18997651 0.11616129 0.47503471
0.19121487 0.11616139 0.47503471
0.19204812 0.11591695 0.47403476
0.19328387 0.11591705 0.47403476
0.19410931 0.1156726 0.47303477
0.19616003 0.11542826 0.47203481
0.19697241 0.11518382 0.47103482
0.19820035 0.11518391 0.47103482
-0.35139641 0.15738893 0.63702804
-0.34918663 0.157142 0.63602805
-0.34752855 0.15714213 0.63602805
-0.3453266 0.15689519 0.63502812
-0.34312984 0.15664823 0.63402814
-0.34093827 0.15640131 0.63302815
-0.33875197 0.15615438 0.63202822
-0.33657089 0.15590744 0.63102823
-0.33439505 0.15566051 0.63002831
-0.33222431 0.15541354 0.62902826
-0.33005887 0.15516663 0.62802833
-0.32789865 0.15491967 0.62702841
-0.32626402 0.1549198 0.62702841
-0.32411158 0.15467286 0.62602842
-0.32247958 0.154673 0.62602842
-0.32033497 0.15442604 0.62502843
-0.31819555 0.15417911 0.6240285
-0.31656876 0.15417923 0.6240285
-0.31443718 0.15393229 0.62302852
-0.31231084 0.15368536 0.62202859
-0.31068924 0.15368548 0.62202859
-0.30857071 0.15343854 0.62102866
-0.30695173 0.15343866 0.62102866
-0.30484098 0.1531917 0.62002861
-0.30322462 0.15319183 0.62002861
-0.30112174 0.15294489 0.61902869
-0.29950798 0.15294503 0.61902869
-0.29741287 0.15269808 0.61802876
-0.29532301 0.15245114 0.61702877
-0.29371446 0.15245126 0.61702877
-0.29210591 0.1524514 0.61702883
-0.29002652 0.15220445 0.61602885
-0.28842056 0.15220457 0.61602885
-0.28634894 0.15195762 0.61502886
-0.28428254 0.15171066 0.61402887
-0.28268182 0.15171079 0.61402893
-0.28062326 0.15146385 0.61302894
-0.27856991 0.15121689 0.61202902
-0.27697438 0.15121703 0.61202902
-0.27492881 0.15097009 0.61102897
-0.2733359 0.15097021 0.61102903
-0.27174297 0.15097032 0.61102903
-0.26970792 0.15072337 0.61002904
-0.26767802 0.15047643 0.60902911
-0.26609033 0.15047655 0.60902911
-0.26406822 0.1502296 0.60802919
-0.26248312 0.15022972 0.60802919
-0.26089802 0.15022986 0.60802919
-0.25888643 0.1499829 0.6070292
-0.25687996 0.14973593 0.60602921
-0.2553001 0.14973605 0.60602921
-0.25372019 0.14973618 0.60602921
-0.25172424 0.14948924 0.60502928
-0.25014696 0.14948937 0.60502928
-0.24815877 0.1492424 0.60402936
-0.24658412 0.14924254 0.60402936
-0.24460375 0.14899558 0.60302937
-0.24262862 0.14874864 0.60202944
-0.24105915 0.14874877 0.60202944
-0.23869398 0.14825471 0.60002947
-0.23712973 0.14825484 0.60002947
-0.23517284 0.14800788 0.59902954
-0.23322117 0.14776093 0.59802955
-0.23127469 0.14751394 0.59702957
-0.22933343 0.14726701 0.59602958
-0.2273974 0.14702004 0.59502965
-0.22584622 0.14702016 0.59502965
-0.22429501 0.14702028 0.59502965
-0.22274381 0.14702041 0.59502965
-0.2211926 0.14702053 0.59502965
-0.21927221 0.14677359 0.59402972
-0.21772359 0.14677371 0.59402972
-0.216175 0.14677383 0.59402972
-0.21426503 0.14652686 0.5930298
-0.21271905 0.14652699 0.5930298
0.18408328 0.11838762 0.47903448
0.18494521 0.11814057 0.4780345
0.18580192 0.11789354 0.47703454
0.18704548 0.11789364 0.47703454
0.18789439 0.11764659 0.47603455
0.18873806 0.11739955 0.47503459
0.19081227 0.1171526 0.47403464
0.19164291 0.11690555 0.47303465
-0.35139656 0.15904962 0.63702786
-0.34973583 0.15904975 0.63702792
-0.34807512 0.15904988 0.63702792
-0.34587058 0.15880035 0.63602793
-0.34367123 0.15855081 0.635028
-0.34147707 0.15830125 0.63402796
-0.33928815 0.15805171 0.63302803
-0.33710444 0.15780216 0.6320281
-0.33492601 0.15755263 0.63102812
-0.33222446 0.15705338 0.62902814
-0.33058465 0.15705352 0.62902814
-0.32842177 0.156804 0.62802821
-0.32626414 0.15655443 0.62702823
-0.32462949 0.15655456 0.62702829
-0.32247972 0.15630502 0.6260283
-0.32084772 0.15630515 0.6260283
-0.31870565 0.15605558 0.62502831
-0.31656888 0.15580603 0.62402833
-0.31494209 0.15580617 0.62402838
-0.31281313 0.15555662 0.6230284
-0.31068936 0.15530707 0.62202847
-0.30906776 0.1553072 0.62202847
-0.30744618 0.15530734 0.62202847
-0.30533284 0.15505779 0.62102854
-0.30322477 0.15480821 0.6200285
-0.30160838 0.15480833 0.6200285
-0.299992 0.15480846 0.6200285
-0.29789433 0.15455893 0.61902857
-0.29628053 0.15455906 0.61902857
-0.29419068 0.1543095 0.61802864
-0.2925795 0.15430962 0.61802864
-0.29049751 0.15406007 0.61702865
-0.28888893 0.1540602 0.61702871
-0.28681475 0.15381067 0.61602873
-0.28520879 0.15381078 0.61602873
-0.28314239 0.1535612 0.61502874
-0.28108123 0.15331165 0.61402875
-0.27948049 0.15331177 0.61402881
-0.27742711 0.15306222 0.61302882
-0.27537897 0.15281267 0.6120289
-0.27378345 0.15281281 0.6120289
-0.27174312 0.15256323 0.61102885
-0.27015021 0.15256336 0.61102891
-0.26811773 0.15231381 0.61002892
-0.26609045 0.15206425 0.609029
-0.26450273 0.15206438 0.609029
-0.26291505 0.1520645 0.609029
-0.26089817 0.15181495 0.60802907
-0.25931311 0.15181507 0.60802907
-0.25730404 0.15156552 0.60702908
-0.25530022 0.15131593 0.60602909
-0.25372031 0.15131606 0.60602909
-0.25214043 0.15131618 0.60602909
-0.25014707 0.15106665 0.60502917
-0.24856979 0.15106677 0.60502917
-0.24658424 0.1508172 0.60402918
-0.24460389 0.15056764 0.60302925
-0.24303183 0.15056776 0.60302925
-0.24105927 0.15031822 0.60202932
-0.23909195 0.15006863 0.60102928
-0.23712985 0.14981908 0.60002935
-0.23517296 0.14956951 0.59902936
-0.23322129 0.14931995 0.59802943
-0.23127481 0.14907037 0.59702939
-0.22933356 0.14882082 0.59602946
-0.22739752 0.14857125 0.59502953
-0.22584634 0.14857137 0.59502953
-0.22391811 0.14832181 0.59402955
-0.22236952 0.14832194 0.59402955
-0.22082092 0.14832206 0.59402961
-0.21927233 0.14832218 0.59402961
-0.21772371 0.1483223 0.59402961
-0.21617512 0.14832242 0.59402961
-0.21462652 0.14832255 0.59402961
-0.21307793 0.14832267 0.59402961
0.18873797 0.1186379 0.47503451
0.18957642 0.11838825 0.47403452
0.19040969 0.11813859 0.47303453
0.19164282 0.11813869 0.47303456
0.19206052 0.11763928 0.47103459
-0.35250008 0.1612149 0.63902771
-0.35028502 0.16096273 0.63802773
-0.34862173 0.16096286 0.63802773
-0.34641457 0.16071071 0.6370278
-0.34421265 0.16045858 0.63602781
-0.34201589 0.16020642 0.63502789
-0.33982432 0.15995425 0.63402784
-0.33763802 0.15970212 0.63302791
-0.33545694 0.15944995 0.63202792
-0.33328104 0.15919782 0.631028
-0.33058476 0.15869336 0.62902802
-0.32894492 0.15869349 0.62902802
-0.32678467 0.15844135 0.62802809
-0.32462963 0.15818919 0.62702811
-0.32299501 0.15818931 0.62702811
-0.32084784 0.15793717 0.62602818
-0.31921577 0.15793729 0.62602818
-0.31707639 0.15768515 0.62502819
-0.31494224 0.15743297 0.62402821
-0.31331545 0.15743311 0.62402821
-0.31118903 0.15718095 0.62302828
-0.30956483 0.15718107 0.62302828
-0.3074463 0.15692893 0.62202835
-0.3058247 0.15692905 0.62202835
-0.30371404 0.15667689 0.62102836
-0.30209503 0.15667702 0.62102842
-0.29999211 0.15642485 0.62002838
-0.29837573 0.15642498 0.62002838
-0.29675934 0.1564251 0.62002844
-0.29466689 0.15617295 0.61902845
-0.29305312 0.15617308 0.61902845
-0.29096851 0.15592092 0.61802852
-0.28888905 0.15566875 0.61702853
-0.2872805 0.15566887 0.61702859
-0.28520891 0.15541673 0.61602861
-0.28360295 0.15541686 0.61602861
-0.28153917 0.15516469 0.61502862
-0.27948061 0.1549125 0.61402863
-0.27787986 0.15491264 0.61402869
-0.27582908 0.15466049 0.61302871
-0.27378359 0.15440834 0.61202878
-0.27218807 0.15440845 0.61202878
-0.27015033 0.15415628 0.61102873
-0.2685574 0.1541564 0.61102879
-0.26652753 0.15390424 0.6100288
-0.26450288 0.15365207 0.60902888
-0.26291519 0.15365219 0.60902888
-0.26132748 0.15365233 0.60902888
-0.25931323 0.15340017 0.60802895
-0.2577281 0.1534003 0.60802895
-0.25572169 0.15314813 0.60702896
-0.25372046 0.15289594 0.60602897
-0.25214058 0.15289606 0.60602897
-0.25056073 0.15289618 0.60602897
-0.24856992 0.15264404 0.60502905
-0.24699266 0.15264416 0.60502905
-0.24500968 0.152392 0.60402906
-0.24303195 0.15213981 0.60302913
-0.24105941 0.15188767 0.60202914
-0.23909207 0.15163547 0.60102916
-0.23712997 0.15138331 0.60002923
-0.23517309 0.15113115 0.59902924
-0.23322141 0.15087897 0.59802932
-0.23166239 0.15087909 0.59802932
-0.22971851 0.15062691 0.59702927
-0.22777987 0.15037474 0.59602934
-0.22584645 0.15012257 0.59502935
-0.22429524 0.15012269 0.59502941
-0.22236964 0.14987054 0.59402943
-0.22082104 0.14987066 0.59402943
-0.21927245 0.14987078 0.59402949
-0.21772383 0.1498709 0.59402949
-0.21617524 0.14987102 0.59402949
-0.21462664 0.14987116 0.59402949
-0.3525002 0.16288082 0.6390276
-0.35083428 0.16288096 0.6390276
-0.34916836 0.16288109 0.6390276
-0.34695855 0.16262633 0.63802761
-0.34475401 0.16237155 0.63702762
-0.34255466 0.16211681 0.63602769
-0.34036052 0.16186205 0.63502777
-0.3381716 0.16160727 0.63402772
-0.3359879 0.16135253 0.63302779
-0.33380938 0.16109776 0.6320278
-0.33163613 0.16084301 0.63102788
-0.32894504 0.16033335 0.6290279
-0.3273052 0.16033347 0.6290279
-0.32514751 0.16007872 0.62802798
-0.32299513 0.15982395 0.62702799
-0.32136053 0.15982409 0.62702799
-0.31921589 0.15956932 0.62602806
-0.31758389 0.15956946 0.62602806
-0.31544709 0.15931468 0.62502807
-0.31331557 0.15905993 0.62402809
-0.31168872 0.15906005 0.62402809
-0.30956495 0.15880528 0.62302816
-0.30794075 0.15880542 0.62302816
-0.30582482 0.15855065 0.62202823
-0.30420324 0.15855078 0.62202823
-0.30258164 0.1585509 0.62202823
-0.30047616 0.15829614 0.6210283
-0.29885718 0.15829627 0.6210283
-0.29675946 0.15804149 0.62002826
-0.2951431 0.15804163 0.62002826
-0.29352671 0.15804175 0.62002832
-0.29143947 0.15778698 0.61902833
-0.28982571 0.15778711 0.61902833
-0.28774628 0.15753235 0.6180284
-0.28567207 0.15727758 0.61702842
-0.28406352 0.1572777 0.61702847
-0.28199711 0.15702294 0.61602849
-0.28039119 0.15702307 0.61602849
-0.27787998 0.15651339 0.61402851
-0.27627924 0.15651351 0.61402851
-0.27423108 0.15625875 0.61302859
-0.27218819 0.15600398 0.61202866
-0.27059266 0.15600412 0.61202866
-0.26855752 0.15574934 0.61102861
-0.26696461 0.15574947 0.61102861
-0.26493734 0.15549468 0.61002868
-0.26291531 0.15523991 0.60902876
-0.26132759 0.15524004 0.60902876
-0.25931334 0.15498528 0.60802877
-0.25772822 0.15498541 0.60802877
-0.25614315 0.15498553 0.60802883
-0.2541393 0.15473075 0.60702884
-0.2521407 0.15447596 0.60602885
-0.25056085 0.15447608 0.60602885
-0.24898092 0.15447621 0.60602885
-0.24699278 0.15422143 0.60502893
-0.24541549 0.15422156 0.60502893
-0.24343516 0.15396678 0.60402894
-0.24146 0.15371202 0.60302901
-0.23949009 0.15345724 0.60202903
-0.23713009 0.15294756 0.60002905
-0.23517321 0.15269278 0.59902912
-0.23361157 0.1526929 0.59902912
-0.23166253 0.15243812 0.5980292
-0.22971863 0.15218334 0.59702915
-0.22777998 0.15192856 0.59602922
-0.22584659 0.15167378 0.59502923
-0.22429538 0.1516739 0.59502923
-0.22236976 0.15141915 0.59402931
-0.22082116 0.15141927 0.59402931
-0.21927257 0.15141939 0.59402931
-0.21772395 0.15141951 0.59402931
-0.21617536 0.15141962 0.59402937
-0.35305202 0.16480421 0.6400274
-0.3508344 0.16454686 0.63902748
-0.34916848 0.164547 0.63902748
-0.34750259 0.16454713 0.63902748
-0.3452954 0.16428974 0.63802749
-0.34309343 0.16403237 0.6370275
-0.3408967 0.16377503 0.63602757
-0.33870521 0.16351765 0.63502759
-0.33598801 0.16300279 0.63302761
-0.33433771 0.16300291 0.63302761
-0.33163625 0.16248807 0.6310277
-0.32999119 0.16248819 0.63102776
-0.32730532 0.1619733 0.62902778
-0.32566547 0.16197343 0.62902778
-0.32351044 0.16171609 0.6280278
-0.32136065 0.1614587 0.62702787
-0.31972599 0.16145884 0.62702787
-0.31758401 0.16120146 0.62602794
-0.315952 0.1612016 0.62602794
-0.31381783 0.16094422 0.62502789
-0.31168884 0.16068684 0.62402797
-0.31006202 0.16068697 0.62402797
-0.30843523 0.16068709 0.62402797
-0.30631664 0.16042973 0.62302804
-0.30469245 0.16042985 0.62302804
-0.30258179 0.16017249 0.62202811
-0.30096018 0.16017263 0.62202811
-0.29933858 0.16017275 0.62202811
-0.29771698 0.16017288 0.62202811
-0.2960954 0.16017301 0.62202811
-0.29400033 0.15991564 0.62102818
-0.29191047 0.15965824 0.62002814
-0.29029408 0.15965836 0.6200282
-0.28821209 0.159401 0.61902821
-0.28659829 0.15940113 0.61902821
-0.28452408 0.15914376 0.61802828
-0.28245506 0.15888637 0.6170283
-0.28039134 0.15862902 0.61602837
-0.27878538 0.15862913 0.61602837
-0.27627936 0.15811424 0.61402839
-0.27467865 0.15811437 0.61402839
-0.27263311 0.157857 0.61302847
-0.27059278 0.15759963 0.61202848
-0.26899725 0.15759975 0.61202854
-0.26696473 0.15734237 0.61102849
-0.26537183 0.15734249 0.61102849
-0.26334718 0.15708511 0.61002856
-0.26132771 0.15682773 0.60902858
-0.25974002 0.15682785 0.60902864
-0.25772834 0.15657049 0.60802865
-0.25614327 0.15657061 0.60802865
-0.25455815 0.15657073 0.60802871
-0.25255698 0.15631334 0.60702872
-0.25056097 0.15605594 0.60602874
-0.24898106 0.15605608 0.60602874
-0.2469929 0.1557987 0.60502875
-0.24541561 0.15579884 0.60502881
-0.24343528 0.15554145 0.60402882
-0.24146013 0.15528406 0.60302889
-0.23949021 0.15502669 0.60202891
-0.23752548 0.15476929 0.60102892
-0.23556601 0.1545119 0.60002893
-0.23361169 0.15425453 0.599029
-0.23166265 0.15399714 0.59802902
-0.22971876 0.15373975 0.59702903
-0.2277801 0.15348236 0.5960291
-0.22584671 0.15322497 0.59502912
-0.22391847 0.1529676 0.59402919
-0.22236988 0.15296774 0.59402919
-0.22082128 0.15296786 0.59402919
-0.21927269 0.15296797 0.59402919
-0.21772407 0.15296809 0.59402919
-0.35305214 0.16647273 0.64002728
-0.3513836 0.16647287 0.64002728
-0.34916863 0.16621292 0.6390273
-0.34750274 0.16621305 0.63902736
-0.34529552 0.16595306 0.63802731
-0.34309354 0.16569309 0.63702738
-0.34143284 0.16569322 0.63702738
-0.33870533 0.16517314 0.63502747
-0.33704984 0.16517328 0.63502747
-0.33433786 0.1646532 0.63302749
-0.33216199 0.16439322 0.63202757
-0.32999131 0.16413325 0.63102758
-0.3278259 0.16387329 0.63002765
-0.32566562 0.16361329 0.62902761
-0.32402578 0.16361342 0.62902766
-0.32187334 0.16335344 0.62802768
-0.31972611 0.16309348 0.62702775
-0.31809148 0.1630936 0.62702775
-0.31595215 0.16283363 0.62602782
-0.31432012 0.16283375 0.62602782
-0.31218851 0.16257375 0.62502778
-0.31006214 0.16231379 0.62402785
-0.30843535 0.16231391 0.62402785
-0.30680853 0.16231404 0.62402785
-0.30518171 0.16231418 0.62402785
-0.3030684 0.1620542 0.62302792
-0.3014442 0.16205432 0.62302792
-0.2993387 0.16179435 0.62202799
-0.29771709 0.16179448 0.62202799
-0.29609552 0.16179462 0.62202799
-0.29447392 0.16179474 0.62202799
-0.29238147 0.16153476 0.62102807
-0.29029423 0.16127475 0.62002802
-0.28867784 0.16127488 0.62002802
-0.28659841 0.16101491 0.61902809
-0.28498465 0.16101503 0.61902809
-0.28291303 0.16075505 0.61802816
-0.28084666 0.16049507 0.61702818
-0.2787855 0.16023509 0.61602825
-0.27717954 0.16023523 0.61602825
-0.2746788 0.15971512 0.61402828
-0.27307805 0.15971524 0.61402828
-0.2710351 0.15945525 0.61302835
-0.26899737 0.15919527 0.61202836
-0.26696485 0.15893529 0.61102837
-0.26537195 0.15893541 0.61102837
-0.2633473 0.15867543 0.61002845
-0.26132783 0.15841544 0.60902846
-0.25974014 0.15841556 0.60902846
-0.25815243 0.15841568 0.60902852
-0.25614339 0.15815571 0.60802853
-0.25455827 0.15815583 0.60802853
-0.2525571 0.15789585 0.6070286
-0.2509746 0.15789597 0.6070286
-0.24898118 0.15763597 0.60602862
-0.24740131 0.15763609 0.60602862
-0.24541575 0.15737611 0.60502863
-0.24383849 0.15737623 0.60502863
-0.24146025 0.15685613 0.60302871
-0.23949035 0.15659615 0.60202879
-0.23792088 0.15659627 0.60202879
-0.23556612 0.15607615 0.60002881
-0.23361181 0.15581617 0.59902889
-0.23166277 0.15555617 0.5980289
-0.22971888 0.15529616 0.59702891
-0.22778022 0.15503618 0.59602892
-0.22584683 0.15477619 0.595029
-0.22429562 0.1547763 0.595029
-0.22237001 0.15451634 0.59402907
-0.22082141 0.15451646 0.59402907
-0.21927282 0.15451658 0.59402907
-0.35305229 0.16814125 0.64002711
-0.35138375 0.16814138 0.64002717
-0.34916875 0.16787882 0.63902718
-0.34750286 0.16787896 0.63902718
-0.34583694 0.16787907 0.63902718
-0.34363231 0.16761649 0.63802719
-0.34143299 0.16735391 0.63702726
-0.33923888 0.16709132 0.63602728
-0.33704996 0.16682875 0.63502735
-0.33486623 0.16656616 0.6340273
-0.33268771 0.16630359 0.63302737
-0.33051446 0.166041 0.63202745
-0.32834643 0.16577843 0.63102746
-0.32618356 0.16551584 0.63002753
-0.3240259 0.16525325 0.62902749
-0.32187346 0.16499068 0.62802756
-0.31972626 0.16472809 0.62702763
-0.31809163 0.16472821 0.62702763
-0.316457 0.16472834 0.62702763
-0.31432024 0.16446576 0.62602764
-0.3126882 0.16446589 0.6260277
-0.31055918 0.1642033 0.62502766
-0.3089298 0.16420344 0.62502766
-0.30680868 0.16394085 0.62402773
-0.30518186 0.16394098 0.62402773
-0.30355507 0.1639411 0.62402773
-0.30144432 0.16367851 0.6230278
-0.29982013 0.16367865 0.6230278
-0.2981959 0.16367877 0.6230278
-0.29609564 0.16341619 0.62202787
-0.29447404 0.16341631 0.62202787
-0.29285246 0.16341645 0.62202787
-0.29076263 0.16315386 0.62102795
-0.28867796 0.16289125 0.6200279
-0.28706157 0.16289137 0.6200279
-0.28498477 0.1626288 0.61902797
-0.283371 0.16262893 0.61902797
-0.28084677 0.16210361 0.61702806
-0.27923822 0.16210374 0.61702806
-0.27717966 0.16184117 0.61602813
-0.27512628 0.16157857 0.61502808
-0.27307817 0.16131596 0.61402816
-0.27103522 0.16105339 0.61302823
-0.26899749 0.16079079 0.61202824
-0.26740199 0.16079091 0.61202824
-0.2653721 0.16052832 0.61102825
-0.26334742 0.16026573 0.61002827
-0.26132795 0.16000314 0.60902834
-0.25974026 0.16000326 0.60902834
-0.25772861 0.15974067 0.60802841
-0.25614354 0.15974079 0.60802841
-0.25455841 0.15974091 0.60802841
-0.25255722 0.15947832 0.60702848
-0.25097471 0.15947844 0.60702848
-0.2489813 0.15921584 0.60602844
-0.24740143 0.15921596 0.6060285
-0.24541587 0.15895338 0.60502851
-0.24383861 0.1589535 0.60502851
-0.24146037 0.15842818 0.6030286
-0.23988833 0.1584283 0.6030286
-0.23752572 0.15790297 0.60102862
-0.23556624 0.15764038 0.60002869
-0.23361194 0.15737779 0.59902871
-0.23166288 0.15711518 0.59802878
-0.23010385 0.15711531 0.59802878
-0.22778036 0.15658998 0.5960288
-0.22622655 0.1565901 0.5960288
-0.22429574 0.1563275 0.59502888
-0.22274454 0.15632764 0.59502888
-0.22119333 0.15632775 0.59502888
-0.35305241 0.16980977 0.64002699
-0.35138386 0.16980991 0.64002699
-0.34971535 0.16981004 0.64002699
-0.34750298 0.16954488 0.63902706
-0.34583706 0.16954499 0.63902706
-0.34363246 0.1692798 0.63802707
-0.34143311 0.16901462 0.63702708
-0.33977243 0.16901475 0.63702708
-0.33705011 0.16848424 0.63502717
-0.33486634 0.16821904 0.63402718
-0.33268782 0.16795386 0.63302726
-0.33103758 0.167954 0.63302726
-0.32834655 0.1674235 0.63102734
-0.32670146 0.16742364 0.63102734
-0.32402602 0.16689309 0.62902737
-0.32238618 0.16689323 0.62902737
-0.32023636 0.16662805 0.62802744
-0.31809175 0.16636285 0.62702745
-0.31645712 0.16636299 0.62702751
-0.31482252 0.16636312 0.62702751
-0.31268832 0.16609792 0.62602752
-0.31105629 0.16609804 0.62602752
-0.30892995 0.16583286 0.62502754
-0.30730051 0.16583298 0.62502754
-0.30518198 0.1655678 0.62402761
-0.30355519 0.16556792 0.62402761
-0.30192837 0.16556805 0.62402761
-0.30030155 0.16556817 0.62402761
-0.29819602 0.16530296 0.62302768
-0.29657185 0.1653031 0.62302768
-0.29447418 0.16503792 0.62202775
-0.29285261 0.16503805 0.62202775
-0.29123101 0.16503817 0.62202775
-0.28914377 0.16477297 0.62102777
-0.28706169 0.16450776 0.62002778
-0.28544533 0.1645079 0.62002778
-0.28337112 0.16424271 0.61902785
-0.28130212 0.16397752 0.61802787
-0.27923834 0.16371231 0.61702794
-0.27717978 0.16344713 0.61602801
-0.27512643 0.16318192 0.61502796
-0.27307829 0.16291671 0.61402804
-0.27103534 0.16265152 0.61302805
-0.26899764 0.16238633 0.61202812
-0.26740214 0.16238645 0.61202812
-0.26537222 0.16212124 0.61102813
-0.26334754 0.16185604 0.61002815
-0.26132807 0.16159084 0.60902822
-0.25974038 0.16159096 0.60902822
-0.25772873 0.16132578 0.60802823
-0.25614366 0.1613259 0.60802829
-0.25455853 0.16132602 0.60802829
-0.25255734 0.16106082 0.60702831
-0.25097483 0.16106094 0.60702837
-0.24898143 0.16079573 0.60602832
-0.24740157 0.16079585 0.60602832
-0.24582168 0.16079599 0.60602832
-0.24383873 0.16053078 0.60502839
-0.24186097 0.16026556 0.60402846
-0.23988846 0.16000037 0.60302848
-0.23792112 0.15973517 0.60202855
-0.23595901 0.15946996 0.6010285
-0.23400211 0.15920475 0.60002857
-0.23205045 0.15893954 0.59902859
-0.23010398 0.15867434 0.59802866
-0.22816269 0.15840912 0.59702867
-0.22622667 0.15814392 0.59602869
-0.22429585 0.15787871 0.59502876
-0.22274466 0.15787885 0.59502876
-0.35305256 0.17147829 0.64002687
-0.35138401 0.17147842 0.64002687
-0.3497155 0.17147855 0.64002687
-0.34750313 0.17121078 0.63902694
-0.34583721 0.1712109 0.63902694
-0.34417129 0.17121103 0.63902694
-0.34196928 0.17094323 0.63802695
-0.33977255 0.17067544 0.63702697
-0.33758107 0.17040765 0.63602704
-0.33539471 0.17013986 0.63502705
-0.3332136 0.16987203 0.63402706
-0.33103773 0.16960426 0.63302714
-0.32886708 0.16933645 0.63202715
-0.32670158 0.16906868 0.63102722
-0.32454139 0.16880088 0.63002723
-0.32238632 0.16853307 0.62902725
-0.32074645 0.16853319 0.62902725
-0.31859922 0.16826542 0.62802732
-0.31645724 0.16799761 0.62702733
-0.31482264 0.16799775 0.62702733
-0.31268847 0.16772993 0.62602741
-0.31105644 0.16773005 0.62602741
-0.3094244 0.16773018 0.62602741
-0.30730063 0.16746238 0.62502742
-0.3051821 0.16719459 0.62402743
-0.30355531 0.16719471 0.62402749
-0.30192849 0.16719484 0.62402749
-0.29982039 0.16692704 0.6230275
-0.29819617 0.16692716 0.62302756
-0.296572 0.16692729 0.62302756
-0.2944743 0.1666595 0.62202758
-0.29285273 0.16665964 0.62202758
-0.29123113 0.16665976 0.62202764
-0.28914389 0.16639195 0.62102765
-0.28706181 0.16612414 0.62002766
-0.28544545 0.16612427 0.62002766
-0.28337127 0.16585648 0.61902773
-0.2817575 0.1658566 0.61902773
-0.27923846 0.16532086 0.61702782
-0.27717993 0.16505307 0.61602783
-0.27557397 0.16505319 0.61602783
-0.27307841 0.16451743 0.61402786
-0.27147767 0.16451757 0.61402792
-0.26899776 0.16398184 0.612028
-0.26740226 0.16398196 0.612028
-0.26537234 0.16371416 0.61102796
-0.26334766 0.16344634 0.61002803
-0.26132822 0.16317853 0.6090281
-0.25974053 0.16317865 0.6090281
-0.25772884 0.16291086 0.60802811
-0.25614378 0.16291098 0.60802811
-0.25455865 0.1629111 0.60802817
-0.25255746 0.1626433 0.60702819
-0.25097495 0.16264342 0.60702819
-0.24898155 0.1623756 0.6060282
-0.24740168 0.16237572 0.6060282
-0.2458218 0.16237585 0.6060282
-0.24383886 0.16210805 0.60502827
-0.24186109 0.16184023 0.60402828
-0.23988858 0.16157243 0.60302836
-0.23792124 0.16130462 0.60202837
-0.23595913 0.16103679 0.60102838
-0.23400225 0.16076897 0.60002846
-0.23205057 0.16050117 0.59902847
-0.2301041 0.16023336 0.59802854
-0.22854507 0.16023348 0.59802854
-0.22622679 0.15969773 0.59602857
-0.22467297 0.15969785 0.59602857
-0.22274479 0.15943004 0.59502864
-0.22119358 0.15943016 0.59502864
-0.35305268 0.17314681 0.64002669
-0.35138413 0.17314695 0.64002669
-0.34971562 0.17314708 0.64002675
-0.34750324 0.1728767 0.63902676
-0.34583732 0.17287682 0.63902676
-0.3441714 0.17287695 0.63902682
-0.34143338 0.17233601 0.63702685
-0.3397727 0.17233615 0.63702685
-0.338112 0.17233627 0.63702685
-0.33539483 0.17179535 0.63502693
-0.33321375 0.17152493 0.63402694
-0.33103785 0.17125455 0.63302696
-0.3288672 0.17098413 0.63202703
-0.32670173 0.17071375 0.63102704
-0.32505667 0.17071387 0.6310271
-0.32289904 0.17044346 0.63002712
-0.32074657 0.17017303 0.62902713
-0.31910676 0.17017317 0.62902713
-0.31696212 0.16990277 0.62802714
-0.31482279 0.16963238 0.62702721
-0.31318814 0.16963249 0.62702721
-0.31105655 0.16936208 0.62602729
-0.30942452 0.16936222 0.62602729
-0.30779251 0.16936235 0.62602729
-0.30567133 0.16909194 0.6250273
-0.30355546 0.16882153 0.62402731
-0.30192864 0.16882166 0.62402737
-0.30030182 0.16882178 0.62402737
-0.29819629 0.16855137 0.62302738
-0.29609603 0.16828099 0.62202746
-0.29447442 0.16828111 0.62202746
-0.29285285 0.16828124 0.62202746
-0.29123124 0.16828136 0.62202746
-0.28914401 0.16801095 0.62102753
-0.28706196 0.16774052 0.62002754
-0.2854456 0.16774066 0.62002754
-0.28382921 0.16774078 0.62002754
-0.28175762 0.16747038 0.61902755
-0.27923861 0.16692942 0.61702764
-0.27763003 0.16692954 0.6170277
-0.27557409 0.16665915 0.61602771
-0.2735233 0.16638872 0.61502773
-0.27147779 0.16611831 0.61402774
-0.26943746 0.16584791 0.61302781
-0.26740238 0.16557749 0.61202788
-0.26537246 0.16530707 0.61102784
-0.2633478 0.16503666 0.61002791
-0.26132834 0.16476625 0.60902792
-0.25974065 0.16476637 0.60902792
-0.25815293 0.16476649 0.60902798
-0.2561439 0.16449609 0.60802799
-0.25455877 0.16449621 0.60802799
-0.25255758 0.1642258 0.60702807
-0.25097507 0.16422592 0.60702807
-0.24898167 0.16395548 0.60602808
-0.2474018 0.1639556 0.60602808
-0.24541624 0.1636852 0.60502809
-0.24383898 0.16368532 0.60502815
-0.24186122 0.1634149 0.60402817
-0.2398887 0.16314448 0.60302824
-0.23792137 0.16287407 0.60202825
-0.23595925 0.16260365 0.60102826
-0.23400237 0.16233322 0.60002828
-0.23205069 0.16206281 0.59902835
-0.23048905 0.16206294 0.59902835
-0.22854519 0.16179252 0.59802842
-0.22660653 0.16152208 0.59702837
-0.35305279 0.17481534 0.64002657
-0.35138425 0.17481548 0.64002657
-0.34971574 0.17481561 0.64002657
-0.34750339 0.17454262 0.63902664
-0.34583747 0.17454274 0.63902664
-0.34417155 0.17454287 0.63902664
-0.34196955 0.17426986 0.63802665
-0.33977282 0.17399685 0.63702667
-0.33811212 0.17399697 0.63702673
-0.33539498 0.17345084 0.63502681
-0.33321387 0.17317781 0.63402677
-0.33103797 0.17290482 0.63302684
-0.32938769 0.17290494 0.63302684
-0.32721964 0.17263193 0.63202691
-0.32505679 0.17235893 0.63102692
-0.32341176 0.17235906 0.63102692
-0.3212567 0.17208605 0.630027
-0.31910688 0.17181303 0.62902701
-0.31746703 0.17181316 0.62902701
-0.31532505 0.17154016 0.62802702
-0.31318825 0.17126714 0.62702709
-0.3115536 0.17126727 0.62702709
-0.30942464 0.17099425 0.62602717
-0.30779263 0.17099439 0.62602717
-0.30567148 0.17072137 0.62502712
-0.30355558 0.17044835 0.62402719
-0.30192876 0.17044848 0.62402719
-0.29982063 0.17017546 0.62302727
-0.29819641 0.17017558 0.62302727
-0.29609615 0.16990259 0.62202734
-0.29447454 0.16990271 0.62202734
-0.29285297 0.16990285 0.62202734
-0.29076314 0.16962983 0.62102735
-0.28914416 0.16962995 0.62102741
-0.28706208 0.16935691 0.62002736
-0.28544572 0.16935705 0.62002736
-0.28382933 0.16935717 0.62002742
-0.28130251 0.16881102 0.61802751
-0.27923873 0.168538 0.61702752
-0.27763015 0.16853812 0.61702752
-0.27557421 0.1682651 0.61602759
-0.27352342 0.16799207 0.61502761
-0.27147794 0.16771905 0.61402762
-0.26943758 0.16744605 0.61302769
-0.2674025 0.16717301 0.6120277
-0.26537257 0.16689999 0.61102772
-0.26334792 0.16662697 0.61002773
-0.26132846 0.16635396 0.6090278
-0.25974077 0.16635408 0.6090278
-0.25772908 0.16608107 0.60802788
-0.25614402 0.16608119 0.60802788
-0.2541402 0.16580817 0.60702795
-0.25255772 0.16580829 0.60702795
-0.25056171 0.16553524 0.6060279
-0.2489818 0.16553538 0.6060279
-0.24740194 0.16553549 0.60602796
-0.24541636 0.16526249 0.60502797
-0.24343602 0.16498946 0.60402805
-0.24186134 0.16498958 0.60402805
-0.23988882 0.16471656 0.60302806
-0.23792149 0.16444354 0.60202813
-0.23635204 0.16444367 0.60202813
-0.23400249 0.16389747 0.60002816
-0.23243825 0.16389759 0.60002816
-0.23048918 0.16362458 0.59902823
-0.22854531 0.16335155 0.5980283
-0.22505023 0.16307862 0.59702826
-0.35305294 0.17648385 0.64002645
-0.35083532 0.17620826 0.63902646
-0.3491694 0.17620839 0.63902646
-0.34750351 0.17620853 0.63902652
-0.34583759 0.17620865 0.63902652
-0.34363297 0.17593302 0.63802648
-0.34143364 0.17565741 0.63702655
-0.33977297 0.17565754 0.63702655
-0.33811226 0.17565766 0.63702655
-0.3353951 0.17510632 0.63502663
-0.33373964 0.17510644 0.63502663
-0.33156112 0.17483081 0.63402665
-0.32938784 0.1745552 0.63302672
-0.32721975 0.17427959 0.63202673
-0.32505691 0.17400397 0.6310268
-0.32341188 0.17400411 0.6310268
-0.32125685 0.17372848 0.63002688
-0.31910703 0.17345285 0.62902683
-0.31746718 0.17345299 0.62902683
-0.31532517 0.17317738 0.6280269
-0.31318837 0.17290175 0.62702698
-0.31155372 0.17290188 0.62702698
-0.30942479 0.17262626 0.62602699
-0.30779278 0.17262639 0.62602705
-0.30518249 0.17207502 0.62402707
-0.3035557 0.17207514 0.62402707
-0.30144495 0.17179951 0.62302709
-0.29933947 0.1715239 0.62202716
-0.29771787 0.17152403 0.62202716
-0.2960963 0.17152417 0.62202716
-0.29400122 0.17124854 0.62102723
-0.29238224 0.17124866 0.62102723
-0.29029498 0.17097302 0.62002724
-0.28867859 0.17097315 0.62002724
-0.2870622 0.17097327 0.62002724
-0.28498542 0.17069766 0.61902732
-0.28337166 0.17069779 0.61902732
-0.28130263 0.17042217 0.61802733
-0.27923885 0.17014654 0.6170274
-0.27763027 0.17014666 0.6170274
-0.27557433 0.16987105 0.61602747
-0.27352357 0.16959541 0.61502743
-0.27147806 0.16931978 0.6140275
-0.2694377 0.16904417 0.61302751
-0.26740262 0.16876853 0.61202759
-0.26537272 0.1684929 0.6110276
-0.26377982 0.16849303 0.6110276
-0.26132858 0.16794164 0.60902768
-0.25974089 0.16794176 0.60902768
-0.25772923 0.16766615 0.60802776
-0.25614417 0.16766627 0.60802776
-0.25455904 0.16766639 0.60802776
-0.25214168 0.16711499 0.60602778
-0.25056183 0.16711511 0.60602778
-0.24898192 0.16711524 0.60602778
-0.24740206 0.16711536 0.60602778
-0.24541649 0.16683975 0.60502785
-0.24383923 0.16683987 0.60502785
-0.24146099 0.16628848 0.60302794
-0.23988895 0.1662886 0.60302794
-0.23792161 0.16601297 0.60202801
-0.23635216 0.16601311 0.60202801
-0.23439264 0.16573745 0.60102803
-0.23243837 0.16546181 0.60002804
-0.23087412 0.16546194 0.60002804
-0.22736603 0.16518643 0.59902811
-0.35305306 0.17815238 0.64002627
-0.35083544 0.17787418 0.63902634
-0.34916952 0.17787431 0.63902634
-0.34750363 0.17787445 0.63902634
-0.34583771 0.17787457 0.63902634
-0.34363312 0.17759633 0.63802636
-0.34196982 0.17759646 0.63802636
-0.33977309 0.17731825 0.63702643
-0.33811238 0.17731836 0.63702643
-0.33539525 0.17676182 0.63502651
-0.33373979 0.17676194 0.63502651
-0.33156127 0.17648371 0.63402653
-0.32938796 0.17620549 0.63302654
-0.32773766 0.17620562 0.6330266
-0.32557222 0.1759274 0.63202661
-0.32341203 0.17564918 0.63102669
-0.32176694 0.17564932 0.63102669
-0.31961453 0.17537108 0.6300267
-0.3174673 0.17509285 0.62902671
-0.31532529 0.17481463 0.62802678
-0.31318852 0.17453639 0.6270268
-0.31155387 0.17453653 0.6270268
-0.30942491 0.17425829 0.62602687
-0.30730113 0.17398006 0.62502688
-0.30518261 0.17370184 0.62402689
-0.30355582 0.17370196 0.62402689
-0.3014451 0.17342372 0.62302697
-0.29933959 0.1731455 0.62202704
-0.29771799 0.17314564 0.62202704
-0.29609641 0.17314577 0.62202704
-0.29400134 0.17286754 0.62102711
-0.29191151 0.17258929 0.62002707
-0.29029512 0.17258941 0.62002707
-0.2882131 0.17231119 0.61902714
-0.28659931 0.17231132 0.61902714
-0.28498554 0.17231144 0.61902714
-0.28291392 0.17203321 0.61802721
-0.28084752 0.17175497 0.61702722
-0.27923897 0.17175511 0.61702728
-0.27718043 0.1714769 0.6160273
-0.27557448 0.17147702 0.6160273
-0.27307892 0.1709204 0.61402732
-0.27147818 0.17092054 0.61402738
-0.26943782 0.17064232 0.61302739
-0.26740277 0.17036407 0.61202747
