# .PCD v0.7 - Point Cloud Data file format
VERSION 0.7
FIELDS x y z
SIZE 4 4 4
TYPE F F F
COUNT 1 1 1
WIDTH 1283
HEIGHT 1
VIEWPOINT 0 0 0 1 0 0 0
POINTS 1283
DATA ascii
-0.086823761 -0.018934265 0.39035541
-0.085316986 -0.01975888 0.39039373
-0.083806247 -0.020585269 0.39042914
-0.081633657 -0.021849066 0.39113426
-0.07945329 -0.023116454 0.39183351
-0.077265024 -0.024387434 0.39252687
-0.07506898 -0.025662005 0.39321443
-0.074196488 -0.026061833 0.3925626
-0.072656363 -0.026901722 0.39257601
-0.071781933 -0.027302444 0.39192271
-0.070907503 -0.027703166 0.39126942
-0.070033103 -0.028103888 0.39061612
-0.069834203 -0.028060943 0.38930345
-0.06896171 -0.028460756 0.38865161
-0.068089247 -0.028860584 0.38799977
-0.067216784 -0.029260397 0.38734794
-0.067027688 -0.029212967 0.38604254
-0.066157192 -0.029611886 0.38539219
-0.065286666 -0.030010819 0.38474181
-0.0644162 -0.030409724 0.38409147
-0.064236909 -0.030357808 0.38279337
-0.064061552 -0.030304074 0.38149825
-0.06319496 -0.030701205 0.38085082
-0.063025475 -0.030644774 0.37956005
-0.06216085 -0.031040996 0.37891406
-0.061296254 -0.031437218 0.37826812
-0.061837584 -0.030920967 0.37634432
-0.091647834 -0.010555416 0.3404099
-0.090885192 -0.010904908 0.33984011
-0.090843141 -0.01079008 0.33864453
-0.090082437 -0.011138678 0.3380762
-0.090046257 -0.011021182 0.33688506
-0.090014011 -0.010901853 0.33569688
-0.089985698 -0.010780752 0.33451158
-0.089230865 -0.011126667 0.33394763
-0.089208454 -0.011002854 0.33276671
-0.088455558 -0.01134786 0.33220425
-0.088439018 -0.011221364 0.33102778
-0.087688088 -0.011565477 0.33046675
-0.086937189 -0.011909604 0.32990575
-0.08618629 -0.012253717 0.32934475
-0.08543539 -0.012597829 0.32878372
-0.084684461 -0.012941942 0.32822272
-0.083933562 -0.013286054 0.32766169
-0.083182663 -0.013630182 0.32710069
-0.082431763 -0.013974294 0.3265397
-0.081680834 -0.014318407 0.32597867
-0.080929935 -0.014662534 0.32541764
-0.079421133 -0.015488043 0.3254545
-0.078668267 -0.01583305 0.32489201
-0.0779154 -0.016178071 0.32432956
-0.077162534 -0.016523093 0.32376707
-0.076409668 -0.0168681 0.32320458
-0.075656801 -0.017213106 0.32264212
-0.074903935 -0.017558128 0.32207963
-0.073379487 -0.018390834 0.32210481
-0.072624654 -0.01873675 0.32154089
-0.07186982 -0.019082665 0.32097694
-0.071114987 -0.019428581 0.32041299
-0.069580734 -0.020265758 0.32043085
-0.068823934 -0.020612568 0.31986544
-0.085569024 -0.022069752 0.42364308
-0.085275233 -0.022073179 0.42225844
-0.084985346 -0.022074774 0.42087674
-0.084699392 -0.022074595 0.419498
-0.085039169 -0.021656439 0.41742158
-0.08476302 -0.02165176 0.41605014
-0.085116476 -0.0212273 0.413984
-0.085477829 -0.020799249 0.41192368
-0.08584702 -0.020367622 0.40986925
-0.08622402 -0.019932404 0.4078207
-0.087242454 -0.019071996 0.40508619
-0.087637126 -0.018628687 0.40305081
-0.088677108 -0.017758399 0.40033245
-0.089089423 -0.017307013 0.39831021
-0.089509577 -0.016852021 0.39629385
-0.089294225 -0.016819462 0.39496779
-0.089082748 -0.016785145 0.39364472
-0.088875204 -0.016749024 0.39232457
-0.088671625 -0.016711101 0.39100727
-0.087820739 -0.017101049 0.39037156
-0.086969823 -0.017490983 0.38973585
-0.085463762 -0.01831238 0.38977581
-0.084610909 -0.018703222 0.38913864
-0.082439989 -0.019960523 0.38984692
-0.080261171 -0.021221459 0.39054936
-0.077411532 -0.022921041 0.39191577
-0.075215101 -0.024190068 0.39260501
-0.074344605 -0.024588987 0.39195466
-0.072805256 -0.025425643 0.39196971
-0.071261972 -0.026264101 0.39198178
-0.07106033 -0.026225284 0.39066604
-0.069513112 -0.027065545 0.39067519
-0.069315404 -0.027024925 0.38936239
-0.068442911 -0.027424753 0.38871056
-0.067570448 -0.027824581 0.38805872
-0.066697985 -0.028224394 0.38740689
-0.066510051 -0.028179288 0.38610137
-0.065639585 -0.028578207 0.38545099
-0.064769059 -0.028977141 0.38480061
-0.063898563 -0.02937606 0.38415027
-0.063720435 -0.029326454 0.38285202
-0.06354624 -0.02927506 0.38155681
-0.06337595 -0.029221863 0.3802644
-0.062511355 -0.029618084 0.37961847
-0.06164673 -0.030014306 0.37897247
-0.062888652 -0.029051498 0.37640497
-0.063438207 -0.028537214 0.37448531
-0.09052518 -0.010218889 0.34229174
-0.090476483 -0.010109961 0.3410902
-0.09043166 -0.0099992752 0.33989161
-0.090390772 -0.0098867714 0.33869594
-0.089630097 -0.010235384 0.33812758
-0.089595079 -0.010120213 0.33693632
-0.089563996 -0.010003209 0.33574799
-0.089536846 -0.009884432 0.33456257
-0.088782012 -0.010230348 0.33399862
-0.088760763 -0.010108858 0.33281758
-0.088007897 -0.01045388 0.3322551
-0.087992489 -0.010329694 0.3310785
-0.08724159 -0.010673821 0.33051747
-0.086490661 -0.011017933 0.32995647
-0.085739762 -0.011362046 0.32939547
-0.084988862 -0.011706173 0.32883444
-0.084237963 -0.012050286 0.32827345
-0.083487064 -0.012394398 0.32771242
-0.082736135 -0.012738511 0.32715142
-0.081985235 -0.013082623 0.32659042
-0.081234336 -0.013426751 0.32602939
-0.080483407 -0.013770863 0.32546836
-0.079732507 -0.014114976 0.32490736
-0.078220606 -0.01493907 0.32494289
-0.07746774 -0.015284076 0.3243804
-0.076714873 -0.015629098 0.32381791
-0.075962007 -0.015974104 0.32325545
-0.075209141 -0.016319126 0.32269296
-0.074456275 -0.016664132 0.3221305
-0.072930634 -0.017494515 0.3221558
-0.072175801 -0.017840415 0.32159188
-0.071420968 -0.018186331 0.32102793
-0.070666164 -0.018532246 0.32046399
-0.069130719 -0.019367114 0.32048196
-0.068373919 -0.019713923 0.31991655
-0.08535254 -0.020584092 0.42161468
-0.085065782 -0.020587146 0.42023432
-0.084782958 -0.020588383 0.41885689
-0.084504038 -0.020587832 0.41748238
-0.084853977 -0.020170733 0.41541159
-0.085211784 -0.019750044 0.41334659
-0.085577399 -0.019325748 0.41128752
-0.085320055 -0.019315317 0.40992913
-0.085699409 -0.018884748 0.40788028
-0.086721331 -0.018031329 0.40514541
-0.087118328 -0.017592669 0.40310976
-0.088161826 -0.016729385 0.40039098
-0.088576466 -0.016282648 0.39836848
-0.088998944 -0.015832305 0.39635187
-0.088784724 -0.015802085 0.39502567
-0.089220911 -0.015345469 0.39301935
-0.089016527 -0.015310764 0.39170048
-0.088165641 -0.015700713 0.39106476
-0.087967128 -0.015663326 0.38975036
-0.087118179 -0.016052365 0.38911608
-0.085612953 -0.016870528 0.38915759
-0.084762067 -0.017260462 0.38852191
-0.082590729 -0.018512249 0.38923192
-0.080411553 -0.019767612 0.38993609
-0.077560395 -0.021459296 0.39130434
-0.075363547 -0.022722751 0.39199531
-0.073826969 -0.023555309 0.39201343
-0.072286457 -0.024389639 0.39202863
-0.071413964 -0.024789467 0.39137679
-0.070541531 -0.025189281 0.39072496
-0.069669038 -0.025589108 0.39007312
-0.068118721 -0.026427925 0.39008096
-0.067924112 -0.026388749 0.38876948
-0.067051649 -0.026788563 0.38811764
-0.066179186 -0.02718839 0.3874658
-0.065306723 -0.027588218 0.386814
-0.06443426 -0.027988032 0.38616216
-0.064251423 -0.027943462 0.38485941
-0.063380927 -0.028342381 0.38420907
-0.063203961 -0.0282951 0.3829107
-0.063030928 -0.02824603 0.38161534
-0.06286183 -0.028195173 0.38032281
-0.061997205 -0.028591394 0.37967685
-0.06113258 -0.028987616 0.37903088
-0.064488053 -0.026679724 0.37454104
-0.066456437 -0.025264218 0.37134713
-0.08935228 -0.0097655654 0.34297392
-0.089302748 -0.0096599013 0.3417708
-0.089257151 -0.0095524192 0.34057057
-0.089215487 -0.0094431639 0.33937335
-0.089177758 -0.0093320906 0.33817899
-0.089143902 -0.0092192292 0.33698756
-0.089113981 -0.0091045499 0.3357991
-0.089087993 -0.0089881122 0.33461356
-0.08833316 -0.0093340278 0.33404961
-0.087578356 -0.0096799433 0.33348566
-0.087560207 -0.0095598847 0.33230597
-0.08680734 -0.0099048913 0.33174348
-0.086795062 -0.0097821653 0.33056819
-0.086044163 -0.010126263 0.3300072
-0.085293263 -0.01047039 0.3294462
-0.084542364 -0.010814503 0.32888517
-0.083791435 -0.011158615 0.32832417
-0.083040535 -0.011502728 0.32776314
-0.082289606 -0.01184684 0.32720214
-0.081538707 -0.012190968 0.32664114
-0.080787808 -0.01253508 0.32608011
-0.080036908 -0.012879193 0.32551908
-0.079286009 -0.01322332 0.32495809
-0.07853508 -0.013567433 0.32439706
-0.077020049 -0.014390081 0.32443124
-0.076267183 -0.014735103 0.32386878
-0.075514317 -0.015080109 0.32330629
-0.07476145 -0.015425131 0.32274383
-0.074008584 -0.015770137 0.32218134
-0.072481781 -0.016598195 0.3222068
-0.071726948 -0.01694411 0.32164288
-0.070972115 -0.017290026 0.32107893
-0.070217311 -0.017635942 0.32051498
-0.069462448 -0.017981857 0.31995103
-0.067923903 -0.018815279 0.31996769
-0.085719705 -0.019093409 0.42235258
-0.084813923 -0.019508511 0.42167586
-0.085148543 -0.019104153 0.41959161
-0.084868848 -0.019106835 0.41821551
-0.084593028 -0.019107714 0.41684234
-0.084321201 -0.01910679 0.41547209
-0.084681332 -0.01869075 0.41340685
-0.085049301 -0.018271118 0.41134751
-0.084793091 -0.018263012 0.40998897
-0.085174769 -0.017837107 0.40793988
-0.086200207 -0.016990677 0.40520459
-0.086599529 -0.016556665 0.40316868
-0.087646514 -0.015700355 0.40044951
-0.088063508 -0.015258282 0.39842674
-0.088488311 -0.014812589 0.39640987
-0.088920981 -0.014363319 0.39439887
-0.088713795 -0.014332741 0.39307696
-0.088510573 -0.014300376 0.39175797
-0.088311225 -0.014266208 0.39044195
-0.088115841 -0.014230251 0.3891288
-0.087268859 -0.014618382 0.38849601
-0.085764438 -0.015433326 0.3885392
-0.084256083 -0.016250059 0.38857937
-0.083405167 -0.016640007 0.38794366
-0.08056426 -0.0183184 0.38932255
-0.078376859 -0.019571811 0.39002261
-0.075514346 -0.021260113 0.39138541
-0.071767658 -0.023353636 0.39208758
-0.07022205 -0.024187446 0.39209992
-0.06934762 -0.024588153 0.39144662
-0.06847319 -0.024988875 0.39079332
-0.06759879 -0.025389597 0.39014003
-0.06672433 -0.025790319 0.38948673
-0.06584993 -0.026191041 0.38883343
-0.0649755 -0.026591748 0.38818014
-0.064787924 -0.0265522 0.38687292
-0.063915461 -0.026952028 0.38622108
-0.063733786 -0.026909783 0.38491821
-0.06286329 -0.027308702 0.38426787
-0.061992794 -0.027707621 0.38361749
-0.061818987 -0.027661771 0.38232046
-0.061649054 -0.027614132 0.38102642
-0.061483055 -0.02756469 0.37973526
-0.088177055 -0.0093075931 0.3436563
-0.088126719 -0.0092051476 0.34245163
-0.088802487 -0.0086444616 0.34062222
-0.088761955 -0.0085375309 0.33942485
-0.088725388 -0.0084287822 0.33823037
-0.088692725 -0.0083182454 0.33703882
-0.088663965 -0.0082059056 0.33585024
-0.087907195 -0.0085527301 0.3352848
-0.087884337 -0.008437708 0.3341006
-0.087129503 -0.0087836087 0.33353665
-0.087112516 -0.0086658895 0.33235681
-0.08635965 -0.009010911 0.33179432
-0.085606784 -0.0093559176 0.33123186
-0.084853917 -0.0097009242 0.33066937
-0.084846735 -0.0095787197 0.32949692
-0.084095836 -0.0099228323 0.32893589
-0.083344907 -0.01026696 0.32837489
-0.082594007 -0.010611057 0.32781386
-0.081843108 -0.010955185 0.32725286
-0.081092209 -0.011299297 0.32669187
-0.080341309 -0.01164341 0.32613084
-0.07959038 -0.011987537 0.32556981
-0.078839481 -0.01233165 0.32500881
-0.078088582 -0.012675762 0.32444778
-0.077337652 -0.013019875 0.32388678
-0.075819492 -0.013841107 0.32391962
-0.075066656 -0.014186114 0.32335716
-0.07431376 -0.014531136 0.32279468
-0.073560894 -0.014876157 0.32223219
-0.072032928 -0.015701875 0.32225779
-0.071278095 -0.016047776 0.32169384
-0.070523262 -0.016393691 0.32112992
-0.069768459 -0.016739607 0.32056597
-0.069013625 -0.017085522 0.32000202
-0.067473888 -0.01791662 0.3200188
-0.084563643 -0.018423438 0.42312059
-0.084275305 -0.018432915 0.42173705
-0.08461225 -0.018033236 0.41965252
-0.084333718 -0.018038243 0.41827628
-0.083433807 -0.018450633 0.41760397
-0.083788425 -0.018042848 0.41553262
-0.084150881 -0.017631471 0.41346711
-0.084521145 -0.017216489 0.4114075
-0.084266126 -0.017210722 0.41004884
-0.084650159 -0.016789466 0.40799949
-0.085679084 -0.015950024 0.40526378
-0.08608073 -0.015520662 0.40322763
-0.087131232 -0.014671341 0.40050805
-0.087550521 -0.014233917 0.39848503
-0.087977678 -0.013792887 0.39646786
-0.088412672 -0.013348252 0.3944566
-0.088206649 -0.013320014 0.39313456
-0.088004589 -0.013289973 0.39181542
-0.087806433 -0.013258144 0.39049929
-0.087612212 -0.013224512 0.38918602
-0.08676523 -0.013612643 0.38855323
-0.085918278 -0.014000788 0.38792044
-0.084410667 -0.014814302 0.38796228
-0.083561748 -0.015203342 0.38732803
-0.080719292 -0.016873866 0.38870877
-0.0719212 -0.02188687 0.39148068
-0.070376366 -0.022717446 0.39149466
-0.068827659 -0.023549825 0.39150569
-0.065329969 -0.025152713 0.3888925
-0.064455539 -0.02555342 0.3882392
-0.062524199 -0.026315838 0.38562819
-0.062345654 -0.026275024 0.38432667
-0.061475128 -0.026673943 0.38367629
-0.061302513 -0.026630431 0.38237914
-0.084322184 -0.010930359 0.35051578
-0.087718874 -0.0083926469 0.34370837
-0.0876697 -0.008292526 0.34250355
-0.08762449 -0.008190617 0.34130162
-0.087583154 -0.00808689 0.34010261
-0.087545782 -0.0079813898 0.33890659
-0.088241547 -0.0074172765 0.33709008
-0.08821398 -0.0073072612 0.33590135
-0.08745718 -0.0076540709 0.33533591
-0.087435484 -0.0075413883 0.33415157
-0.086680651 -0.0078873038 0.33358765
-0.085925817 -0.0082332194 0.3330237
-0.085911959 -0.0081169158 0.33184519
-0.085159093 -0.0084619224 0.33128271
-0.084406227 -0.0088069439 0.33072025
-0.083653361 -0.0091519654 0.33015776
-0.083649307 -0.0090311766 0.32898661
-0.082898408 -0.0093752891 0.32842562
-0.082147509 -0.0097194016 0.32786459
-0.08139661 -0.010063529 0.32730359
-0.08064571 -0.010407627 0.32674259
-0.079894781 -0.010751754 0.32618156
-0.079143852 -0.011095867 0.32562053
-0.078392953 -0.011439979 0.32505953
-0.077642053 -0.011784106 0.3244985
-0.076891154 -0.012128219 0.32393751
-0.075371832 -0.012947112 0.3239705
-0.074618965 -0.013292134 0.32340801
-0.073866099 -0.013637155 0.32284552
-0.073113233 -0.013982147 0.32228306
-0.071584076 -0.014805555 0.32230878
-0.070829242 -0.015151471 0.32174483
-0.070074409 -0.015497386 0.32118088
-0.069319606 -0.015843287 0.32061696
-0.068564773 -0.016189203 0.32005298
-0.067023873 -0.01701799 0.32006991
-0.084075958 -0.016962305 0.41971344
-0.083174109 -0.017375603 0.41903964
-0.082898706 -0.017382041 0.41766474
-0.083255619 -0.016978905 0.41559315
-0.083620399 -0.016572177 0.41352737
-0.083993047 -0.016161859 0.41146749
-0.084373474 -0.015747964 0.40941346
-0.084125519 -0.01574181 0.40805906
-0.085157931 -0.014909357 0.405323
-0.085561931 -0.014484659 0.40328655
-0.08661592 -0.013642311 0.40056658
-0.087037563 -0.013209552 0.3985433
-0.087467045 -0.012773186 0.39652589
-0.087904364 -0.012333199 0.39451435
-0.087699503 -0.012307286 0.39319217
-0.087498635 -0.01227957 0.39187291
-0.087301612 -0.012250066 0.39055663
-0.087108582 -0.012218773 0.38924325
-0.086919427 -0.012185663 0.38793278
-0.086074382 -0.012572914 0.38730145
-0.084567636 -0.01338318 0.38734487
-0.083854675 -0.0099967867 0.35056889
-0.085218459 -0.0090124905 0.34808034
-0.086593956 -0.0080227852 0.34560061
-0.086540103 -0.0079277009 0.34439123
-0.086490184 -0.0078307986 0.34318477
-0.086444139 -0.0077321231 0.34198126
-0.08712849 -0.0071789324 0.34015423
-0.08709228 -0.0070757568 0.33895808
-0.087059975 -0.0069707781 0.3377648
-0.087031633 -0.0068640113 0.33657447
-0.087007165 -0.0067554265 0.33538705
-0.086250395 -0.0071022362 0.33482164
-0.086231798 -0.0069909692 0.33363864
-0.085476965 -0.0073368847 0.33307469
-0.084722131 -0.0076828003 0.33251074
-0.084711403 -0.0075679421 0.33133358
-0.083958536 -0.0079129487 0.33077109
-0.08320567 -0.0082579553 0.3302086
-0.082452804 -0.0086029768 0.32964614
-0.08245188 -0.0084836185 0.32847631
-0.081700981 -0.0088277459 0.32791531
-0.080950081 -0.0091718584 0.32735431
-0.080199182 -0.0095159709 0.32679328
-0.079448253 -0.0098600835 0.32623225
-0.078697354 -0.010204211 0.32567126
-0.077946454 -0.010548323 0.32511026
-0.077195555 -0.010892436 0.32454923
-0.075677007 -0.011708111 0.32458383
-0.074924141 -0.012053132 0.32402134
-0.074171275 -0.012398139 0.32345885
-0.073418409 -0.012743145 0.32289639
-0.072665542 -0.013088167 0.3223339
-0.071135253 -0.013909236 0.32235977
-0.070380419 -0.014255136 0.32179582
-0.069625586 -0.014601052 0.32123187
-0.068870753 -0.014946967 0.32066792
-0.06811592 -0.015292883 0.320104
-0.066573858 -0.016119331 0.32012102
-0.083198071 -0.016281754 0.42185941
-0.083539695 -0.015891373 0.41977435
-0.082637817 -0.016304672 0.41910055
-0.082363576 -0.016313434 0.41772553
-0.082722843 -0.015914962 0.41565368
-0.083089948 -0.015512884 0.41358763
-0.083464891 -0.015107214 0.41152748
-0.083847672 -0.014697984 0.40947318
-0.084238321 -0.014285132 0.40742475
-0.084636807 -0.01386869 0.40538219
-0.085043132 -0.013448656 0.4033455
-0.086100608 -0.012613297 0.40062511
-0.086524576 -0.012185186 0.39860156
-0.086956382 -0.01175347 0.39658388
-0.087396055 -0.011318147 0.39457208
-0.087192386 -0.011294559 0.39324978
-0.086992651 -0.011269182 0.3919304
-0.08679679 -0.011242002 0.39061397
-0.086604923 -0.011213019 0.38930044
-0.08641693 -0.011182249 0.38798985
-0.0847269 -0.011956751 0.38672721
-0.084103048 -0.0086182356 0.34998667
-0.084036618 -0.0085317641 0.34876692
-0.084693879 -0.0079967231 0.34691769
-0.085359007 -0.0074580908 0.34507433
-0.085308284 -0.0073644221 0.34386629
-0.085987121 -0.0068194866 0.34203318
-0.085946202 -0.0067213476 0.34083247
-0.086638778 -0.0061701238 0.33900961
-0.086607635 -0.0060674846 0.33781618
-0.08731395 -0.0055099726 0.3360036
-0.08655715 -0.0058567822 0.33543816
-0.08580038 -0.0062035918 0.33487278
-0.085782945 -0.0060946643 0.33368963
-0.085028112 -0.0064405799 0.33312568
-0.084273309 -0.0067864805 0.33256173
-0.083518475 -0.0071323961 0.33199778
-0.083510876 -0.0070189536 0.33082193
-0.08275798 -0.007363975 0.33025947
-0.082005143 -0.0077089965 0.32969698
-0.081252247 -0.0080540031 0.32913452
-0.081254482 -0.0079360753 0.32796603
-0.080503553 -0.0082801878 0.32740504
-0.079752654 -0.0086243153 0.32684401
-0.079001755 -0.0089684129 0.32628298
-0.078250825 -0.0093125403 0.32572198
-0.077499926 -0.0096566528 0.32516098
-0.076749027 -0.010000765 0.32459995
-0.075229317 -0.010814115 0.32463467
-0.074476451 -0.011159137 0.32407218
-0.073723584 -0.011504143 0.32350972
-0.072970718 -0.011849165 0.32294723
-0.072217852 -0.012194172 0.32238477
-0.07068637 -0.013012916 0.32241076
-0.069931567 -0.013358831 0.32184681
-0.069176733 -0.013704747 0.32128286
-0.0684219 -0.014050648 0.32071891
-0.067667067 -0.014396563 0.32015496
-0.082659453 -0.015206158 0.4219206
-0.082378536 -0.015220866 0.42053956
-0.082101524 -0.015233755 0.4191615
-0.081828445 -0.015244842 0.41778633
-0.082190067 -0.014851004 0.4157142
-0.082559496 -0.014453605 0.41364789
-0.082936794 -0.0140526 0.41158748
-0.083321899 -0.013648003 0.4095329
-0.083714873 -0.013239816 0.40748423
-0.084115684 -0.012828022 0.4054414
-0.084524333 -0.012412637 0.40340441
-0.085585326 -0.011584267 0.40068364
-0.086011618 -0.011160821 0.39865983
-0.08579734 -0.011144936 0.39732862
-0.086237371 -0.010715172 0.39531505
-0.08668521 -0.010281831 0.39330739
-0.086486667 -0.010258779 0.39198786
-0.086291999 -0.010233939 0.39067131
-0.086101294 -0.010207281 0.38935766
-0.085914463 -0.010178834 0.38804692
-0.083636701 -0.0076870024 0.35003963
-0.083571464 -0.0076028556 0.34881973
-0.084231049 -0.0070724636 0.34697026
-0.084175617 -0.0069838315 0.34575769
-0.084124088 -0.0068933815 0.34454805
-0.084803313 -0.0063540041 0.34271318
-0.085490346 -0.0058110654 0.34088424
-0.085454494 -0.005713433 0.33968627
-0.086155295 -0.0051641762 0.33786756
-0.086129278 -0.0050620586 0.33667696
-0.086107135 -0.004958123 0.33548927
-0.085350364 -0.0053049326 0.33492389
-0.084593564 -0.0056517571 0.33435848
-0.084579259 -0.0055442452 0.33317667
-0.083824456 -0.0058901608 0.33261272
-0.083069623 -0.0062360764 0.33204877
-0.082314789 -0.0065819919 0.33148485
-0.082310319 -0.0064699799 0.33031031
-0.081557453 -0.0068149865 0.32974786
-0.080804586 -0.007160008 0.32918537
-0.08005172 -0.0075050294 0.32862288
-0.080057055 -0.0073885322 0.32745576
-0.079306155 -0.0077326447 0.32689473
-0.078555226 -0.0080767572 0.3263337
-0.077804297 -0.0084208846 0.3257727
-0.077053398 -0.0087649822 0.3252117
-0.075534493 -0.0095751137 0.325248
-0.074781656 -0.0099201202 0.32468551
-0.07402876 -0.010265142 0.32412305
-0.073275924 -0.010610163 0.32356057
-0.072523028 -0.01095517 0.32299811
-0.071770161 -0.011300176 0.32243562
-0.070237547 -0.012116596 0.32246172
-0.069482714 -0.012462497 0.3218978
-0.068727881 -0.012808412 0.32133386
-0.067973047 -0.013154328 0.32076991
-0.067218214 -0.013500243 0.32020596
-0.082404494 -0.014111787 0.42336586
-0.082120836 -0.014130592 0.42198178
-0.081841081 -0.014147609 0.42060062
-0.081565231 -0.014162809 0.41922241
-0.081293315 -0.014176235 0.4178471
-0.081657261 -0.013787061 0.4157747
-0.082029045 -0.013394326 0.41370815
-0.082408667 -0.012997955 0.41164747
-0.082796097 -0.012598038 0.40959266
-0.083191395 -0.012194499 0.40754369
-0.083594531 -0.011787355 0.40550059
-0.084649235 -0.010970473 0.4027721
-0.085070014 -0.010555252 0.4007422
-0.084851056 -0.010544404 0.39940643
-0.085285544 -0.010122895 0.39738676
-0.0857279 -0.0096977949 0.39537293
-0.085524619 -0.0096797794 0.39404893
-0.085980713 -0.0092483759 0.39204535
-0.085129797 -0.0096383244 0.39140964
-0.085597664 -0.0092015415 0.38941485
-0.085411996 -0.0091754347 0.38810402
-0.082452178 -0.0071960837 0.35072821
-0.082386166 -0.0071151406 0.34950671
-0.083046108 -0.0065903217 0.34765548
-0.082989872 -0.0065048933 0.34644133
-0.083663583 -0.0059737861 0.34460038
-0.084345132 -0.0054390728 0.34276524
-0.084304541 -0.005346477 0.34156281
-0.08499983 -0.0048054606 0.33973795
-0.085702956 -0.0042608678 0.33791894
-0.085678071 -0.0041610748 0.33672822
-0.08565712 -0.0040594935 0.33554041
-0.084900349 -0.0044062883 0.334975
-0.084143549 -0.0047531128 0.33440959
-0.083386749 -0.0050999224 0.33384418
-0.083375603 -0.0049938411 0.33266371
-0.08262077 -0.0053397566 0.33209977
-0.081865937 -0.0056856573 0.33153582
-0.081111103 -0.0060315728 0.33097187
-0.081109792 -0.0059210062 0.3297987
-0.080356896 -0.0062660277 0.32923621
-0.079604059 -0.0066110343 0.32867375
-0.078851163 -0.0069560409 0.32811126
-0.078098297 -0.0073010623 0.3275488
-0.077345431 -0.0076460838 0.32698631
-0.076592565 -0.0079911053 0.32642382
-0.075839698 -0.008336097 0.32586133
-0.075086832 -0.0086811185 0.32529885
-0.074333966 -0.00902614 0.32473639
-0.0735811 -0.0093711615 0.3241739
-0.072828233 -0.0097161531 0.32361144
-0.072075367 -0.010061175 0.32304895
-0.070543528 -0.010874361 0.32307667
-0.069788694 -0.011220276 0.32251272
-0.069033861 -0.011566192 0.3219488
-0.068279028 -0.011912107 0.32138485
-0.067524225 -0.012258008 0.3208209
-0.065980613 -0.013076574 0.32083979
-0.081864715 -0.013033882 0.42342719
-0.081582218 -0.013054997 0.42204297
-0.081303626 -0.013074353 0.42066169
-0.081028968 -0.013091892 0.41928333
-0.081389338 -0.012710094 0.41720626
-0.081124485 -0.012723118 0.41583523
-0.081498593 -0.012335032 0.41376841
-0.08188054 -0.01194334 0.41170746
-0.082270294 -0.011548072 0.40965238
-0.082667947 -0.011149183 0.40760314
-0.083073407 -0.010746703 0.40555978
-0.083486736 -0.010340631 0.40352228
-0.083907902 -0.0099309683 0.4014906
-0.084336907 -0.0095177144 0.39946482
-0.084773749 -0.0091008544 0.39744487
-0.084565729 -0.0090878606 0.39611635
-0.08501631 -0.0086647272 0.39410666
-0.084818095 -0.0086472332 0.39278543
-0.082841665 -0.0059781075 0.3525947
-0.082053512 -0.0063392967 0.35200584
-0.081984669 -0.006262511 0.35078132
-0.081919819 -0.0061838925 0.34955966
-0.081858844 -0.0061035156 0.34834099
-0.081801802 -0.0060213208 0.3471252
-0.081748664 -0.0059373379 0.34591237
-0.082428634 -0.0054090768 0.34407407
-0.083116442 -0.0048772097 0.34224162
-0.083812088 -0.0043417811 0.34041506
-0.084515572 -0.0038027465 0.33859435
-0.084489912 -0.0037061572 0.33740199
-0.084468156 -0.0036078095 0.33621258
-0.084450334 -0.0035076439 0.33502612
-0.083693534 -0.0038544536 0.33446071
-0.082936734 -0.0042012632 0.3338953
-0.082179964 -0.0045480728 0.33332992
-0.082171917 -0.0044434369 0.33215076
-0.081417114 -0.0047893524 0.33158681
-0.08066228 -0.005135268 0.33102286
-0.079907447 -0.0054811686 0.33045891
-0.079909235 -0.0053720325 0.32928708
-0.079156369 -0.0057170391 0.32872459
-0.078403503 -0.0060620606 0.32816213
-0.077650636 -0.0064070672 0.32759964
-0.07689774 -0.0067520887 0.32703716
-0.076144874 -0.0070970953 0.32647467
-0.075392008 -0.0074421167 0.32591221
-0.074639142 -0.0077871382 0.32534972
-0.073886275 -0.0081321448 0.32478726
-0.073133409 -0.0084771514 0.32422477
-0.071604341 -0.0092862099 0.32425553
-0.070849508 -0.0096321255 0.32369161
-0.070094675 -0.0099780411 0.32312766
-0.069339842 -0.010323957 0.32256371
-0.068585008 -0.010669857 0.32199979
-0.067830175 -0.011015773 0.32143581
-0.066287398 -0.011831105 0.32145634
-0.081043601 -0.011979416 0.42210415
-0.080766171 -0.012001097 0.42072272
-0.080492675 -0.01202096 0.41934425
-0.080223083 -0.012039036 0.41796869
-0.080591679 -0.011659175 0.41589576
-0.080968112 -0.011275738 0.41382867
-0.081352413 -0.010888696 0.41176745
-0.081744522 -0.010498092 0.40971211
-0.082144469 -0.010103852 0.4076626
-0.082552284 -0.0097060353 0.405619
-0.082967937 -0.0093046278 0.4035812
-0.083391428 -0.0088996142 0.40154928
-0.083822757 -0.0084910095 0.39952323
-0.083610028 -0.0084830523 0.39819014
-0.084055096 -0.0080681592 0.39617434
-0.083852202 -0.0080556571 0.39484856
-0.083653182 -0.0080414116 0.39352575
-0.08411786 -0.0076175332 0.39152458
-0.083928645 -0.0075987577 0.39020911
-0.083743364 -0.0075781941 0.3888965
-0.084227651 -0.0071453452 0.38690999
-0.082446486 -0.0051139891 0.35387704
-0.081656367 -0.0054760724 0.35328674
-0.080866247 -0.0058381557 0.35269642
-0.080796689 -0.0057645887 0.35147023
-0.080008537 -0.006125778 0.3508814
-0.07994476 -0.0060495138 0.34965968
-0.079885006 -0.0059714317 0.34844083
-0.080557466 -0.0054523349 0.34659493
-0.082621992 -0.0038734376 0.34109244
-0.083325833 -0.0033399463 0.33926997
-0.084037572 -0.0028028488 0.33745337
-0.084016949 -0.0027068406 0.33626384
-0.083258212 -0.0030545592 0.33569697
-0.083243519 -0.0029558092 0.33451182
-0.082486719 -0.0033026189 0.33394641
-0.081729949 -0.0036494285 0.33338103
-0.080973148 -0.0039962381 0.33281562
-0.080968261 -0.0038930178 0.3316378
-0.080213428 -0.0042389333 0.33107385
-0.079458594 -0.0045848489 0.3305099
-0.078703761 -0.0049307644 0.32994595
-0.077948928 -0.00527668 0.32938203
-0.077955812 -0.0051680654 0.32821298
-0.077202946 -0.005513072 0.32765049
-0.07645008 -0.0058580935 0.327088
-0.075697213 -0.006203115 0.32652551
-0.074944347 -0.0065481216 0.32596305
-0.074191451 -0.0068931282 0.32540056
-0.073438615 -0.0072381496 0.3248381
-0.071910292 -0.0080439746 0.32487047
-0.071155488 -0.0083898902 0.32430655
-0.070400655 -0.0087358057 0.3237426
-0.069645822 -0.0090817213 0.32317865
-0.068890989 -0.0094276369 0.3226147
-0.068136185 -0.0097735524 0.32205075
-0.067381352 -0.010119468 0.32148683
-0.080504984 -0.010903835 0.42216533
-0.080228716 -0.010927841 0.42078379
-0.079956383 -0.010950029 0.41940516
-0.079687983 -0.010970443 0.41802946
-0.080058903 -0.010595232 0.41595629
-0.08043769 -0.010216445 0.41388893
-0.080184937 -0.010229662 0.41252494
-0.081218719 -0.0094481111 0.40977183
-0.080977768 -0.0094559342 0.40841666
-0.08138594 -0.0090636611 0.4063713
-0.082449138 -0.0082686245 0.40364015
-0.082225829 -0.0082683563 0.40229815
-0.082657546 -0.0078653097 0.40027037
-0.08309707 -0.0074586868 0.3982484
-0.082889438 -0.0074512064 0.39691812
-0.082685739 -0.0074419826 0.39559078
-0.083144873 -0.0070263445 0.39358351
-0.08295095 -0.0070126206 0.39226347
-0.08276099 -0.0069970787 0.39094633
-0.082574904 -0.0069797337 0.3896322
-0.08305952 -0.0065524429 0.38764393
-0.077833802 -0.0093576312 0.38844037
-0.078884631 -0.005695343 0.35279548
-0.078816175 -0.0056241155 0.35156918
-0.078026056 -0.0059861988 0.35097888
-0.077963531 -0.0059122443 0.34975696
-0.078634411 -0.0053995848 0.34790787
-0.079313159 -0.0048833489 0.34606466
-0.079999745 -0.004363507 0.34422728
-0.080694169 -0.003840059 0.34239581
-0.081396431 -0.0033130199 0.34057015
-0.08210656 -0.0027823895 0.33875036
-0.082824498 -0.002248168 0.33693641
-0.082807034 -0.0021535754 0.33574823
-0.082048267 -0.0025012791 0.33518136
-0.082036704 -0.0024039745 0.33399755
-0.081279933 -0.0027507842 0.33343214
-0.080523133 -0.0030975938 0.33286673
-0.079766363 -0.0034444034 0.33230132
-0.079764575 -0.0033426285 0.33112484
-0.079009742 -0.0036885291 0.33056089
-0.078254908 -0.0040344447 0.32999694
-0.077500075 -0.0043803602 0.32943302
-0.076745242 -0.0047262758 0.32886904
-0.075990438 -0.0050721765 0.32830513
-0.075235605 -0.005418092 0.32774118
-0.074480772 -0.0057640076 0.32717723
-0.073725969 -0.0061099231 0.32661331
-0.072971135 -0.0064558387 0.32604933
-0.072216302 -0.0068017542 0.32548541
-0.071461469 -0.0071476698 0.32492146
-0.070706636 -0.0074935704 0.32435751
-0.069951802 -0.007839486 0.32379359
-0.069196969 -0.0081854016 0.32322964
-0.068442136 -0.0085313171 0.32266569
-0.066900939 -0.0093401968 0.32268938
-0.066144139 -0.0096870065 0.32212397
-0.079691261 -0.0098545849 0.42084482
-0.07942012 -0.0098791122 0.41946608
-0.079152852 -0.0099018365 0.41809025
-0.079526097 -0.0095312893 0.41601682
-0.079268664 -0.0095495284 0.41464829
-0.079655647 -0.0091727078 0.41258508
-0.080050468 -0.0087922812 0.41052771
-0.080453128 -0.0084082782 0.40847623
-0.080863655 -0.0080206692 0.4064306
-0.08128202 -0.007629469 0.40439081
-0.081708193 -0.0072346777 0.40235695
-0.08148995 -0.0072349459 0.40101773
-0.081929892 -0.0068338513 0.39899406
-0.081721455 -0.0068296492 0.39766216
-0.082175106 -0.0064222664 0.39564878
-0.081316352 -0.006815806 0.39500719
-0.081119686 -0.006806165 0.39368409
-0.064175069 -0.015668496 0.39396235
-0.077763945 -0.0052520037 0.35471588
-0.076967925 -0.005616799 0.35412118
-0.076896727 -0.0055496842 0.35289183
-0.076102674 -0.0059135556 0.35229859
-0.076037407 -0.0058437437 0.35107365
-0.076706707 -0.0053375363 0.34922135
-0.077383846 -0.0048277378 0.34737495
-0.079462349 -0.0032767951 0.34187084
-0.08017087 -0.0027526021 0.34004787
-0.080887228 -0.0022248328 0.33823073
-0.081611425 -0.0016934723 0.33641946
-0.08085072 -0.0020420849 0.33585113
-0.080838352 -0.0019480139 0.33466572
-0.080829918 -0.0018521249 0.33348328
-0.080073118 -0.0021989495 0.33291787
-0.079316348 -0.0025457442 0.33235246
-0.078559548 -0.0028925687 0.33178705
-0.077802747 -0.0032393783 0.33122164
-0.077045947 -0.003586188 0.33065623
-0.077051252 -0.0034840405 0.32948399
-0.076296419 -0.0038299561 0.32892004
-0.075541586 -0.0041758716 0.32835609
-0.074786752 -0.0045217872 0.32779217
-0.074031919 -0.0048676878 0.32722822
-0.073277086 -0.0052136034 0.32666427
-0.072522253 -0.0055595189 0.32610032
-0.071767449 -0.0059054196 0.3255364
-0.071012616 -0.0062513351 0.32497245
-0.070257783 -0.0065972507 0.3244085
-0.06950295 -0.0069431663 0.32384455
-0.068748146 -0.0072890818 0.32328063
-0.067207724 -0.008094728 0.3233059
-0.066450924 -0.0084415376 0.32274053
-0.078617722 -0.0088332444 0.41815105
-0.078355551 -0.0088565052 0.416778
-0.07873702 -0.0084879249 0.41470867
-0.079126358 -0.0081157386 0.41264519
-0.079523504 -0.0077399909 0.41058758
-0.07928291 -0.0077533722 0.40923065
-0.079693794 -0.0073713213 0.40718332
-0.080112517 -0.0069856644 0.40514183
-0.080539078 -0.0065964311 0.40310618
-0.08032006 -0.006599918 0.40176538
-0.08076033 -0.0062043965 0.39973998
-0.080551118 -0.0062033832 0.39840651
-0.080345809 -0.0062006116 0.39707595
-0.080144435 -0.0061959922 0.39574832
-0.062087685 -0.01543963 0.39402953
-0.061207354 -0.015843034 0.39337182
-0.060327053 -0.016246453 0.39271414
-0.059446752 -0.016649872 0.39205647
-0.058566421 -0.017053291 0.39139876
-0.076568544 -0.0047345757 0.35540736
-0.075770587 -0.0051002502 0.35481119
-0.07497263 -0.0054659396 0.35421503
-0.074174672 -0.0058316141 0.35361886
-0.074836493 -0.0053345561 0.35175902
-0.074774295 -0.0052661896 0.35053539
-0.074716061 -0.0051959902 0.34931469
-0.075397491 -0.0046899617 0.34746948
-0.077523619 -0.0032312274 0.34317207
-0.07897222 -0.0022767484 0.34072283
-0.079688936 -0.0017545521 0.33890399
-0.080413491 -0.0012287349 0.337091
-0.080398381 -0.0011387765 0.33590251
-0.079637676 -0.0014873892 0.33533418
-0.079628438 -0.0013947487 0.33415011
-0.078869671 -0.0017424524 0.33358324
-0.078866333 -0.0016470999 0.33240357
-0.078109533 -0.0019939244 0.33183816
-0.077352732 -0.002340734 0.33127275
-0.076595932 -0.0026875436 0.33070734
-0.075839162 -0.0030343533 0.33014193
-0.075082392 -0.0033811629 0.32957652
-0.074325591 -0.0037279725 0.32901111
-0.073568791 -0.0040747821 0.3284457
-0.072811991 -0.0044215918 0.32788029
-0.072055221 -0.0047684014 0.32731488
-0.07129845 -0.0051152259 0.32674947
-0.07054165 -0.0054620355 0.32618409
-0.06978485 -0.0058088452 0.32561865
-0.06902805 -0.0061556548 0.32505327
-0.069054097 -0.0060468465 0.32389554
-0.067514509 -0.0068492889 0.32392246
-0.066757709 -0.0071960986 0.32335705
-0.077821612 -0.0077902228 0.41683868
-0.077564538 -0.0078140199 0.41546842
-0.077954233 -0.0074473917 0.41340321
-0.078351766 -0.0070771873 0.41134387
-0.078110367 -0.0070937872 0.40998536
-0.078521609 -0.0067173094 0.40793628
-0.078940719 -0.0063372105 0.40589306
-0.079367667 -0.0059535205 0.40385565
-0.079802424 -0.0055662394 0.40182418
-0.079588473 -0.0055702627 0.40048614
-0.079378456 -0.0055724978 0.39915109
-0.079172373 -0.0055729151 0.39781892
-0.078970194 -0.005571574 0.39648971
-0.064692825 -0.012772515 0.39407009
-0.063130468 -0.013582513 0.394081
-0.061564207 -0.014394298 0.39408898
-0.060683906 -0.014797717 0.39343131
-0.059803575 -0.015201136 0.3927736
-0.058923274 -0.015604556 0.39211592
-0.058042973 -0.016007975 0.39145821
-0.057162672 -0.016411379 0.39080054
-0.074647605 -0.0046379268 0.35673696
-0.073845714 -0.0050054044 0.35613784
-0.073043853 -0.0053728819 0.35553873
-0.072971046 -0.0053122193 0.35430619
-0.072171122 -0.0056788027 0.35370857
-0.072837263 -0.0051854998 0.35184991
-0.072776228 -0.0051194429 0.35062617
-0.073456079 -0.0046198517 0.34877777
-0.074143797 -0.0041166842 0.34693521
-0.07774353 -0.0017149001 0.3401992
-0.079213262 -0.00075931847 0.33776277
-0.079197317 -0.00067260861 0.33657274
-0.079185337 -0.00058408082 0.33538556
-0.07917726 -0.00049376488 0.33420137
-0.078418493 -0.00084148347 0.3336345
-0.078416318 -0.00074845552 0.33245468
-0.077659518 -0.0010952652 0.33188927
-0.076902717 -0.0014420748 0.33132386
-0.076145947 -0.0017888993 0.33075845
-0.075389147 -0.0021357089 0.33019304
-0.074632376 -0.0024825186 0.32962763
-0.073875576 -0.0028293282 0.32906222
-0.073118776 -0.0031761378 0.32849681
-0.072362006 -0.0035229474 0.3279314
-0.071605206 -0.0038697571 0.32736599
-0.070848435 -0.0042165816 0.32680058
-0.070091635 -0.0045633912 0.3262352
-0.069334835 -0.0049102008 0.32566977
-0.068578064 -0.0052570105 0.32510439
-0.067821264 -0.0056038201 0.32453895
-0.067064494 -0.0059506297 0.32397357
-0.07664758 -0.0071084499 0.41760027
-0.077031761 -0.006750077 0.41552895
-0.076779753 -0.0067743957 0.41416153
-0.077177674 -0.0064097345 0.41210043
-0.077583402 -0.0060414821 0.41004521
-0.0773471 -0.0060586333 0.4086895
-0.077766567 -0.0056840926 0.40664455
-0.078193873 -0.0053059608 0.40460545
-0.078629017 -0.0049242377 0.40257221
-0.078414291 -0.0049314946 0.4012326
-0.07820347 -0.0049369335 0.39989591
-0.077996582 -0.0049405992 0.39856219
-0.077793598 -0.0049424469 0.39723134
-0.077594548 -0.0049425364 0.39590347
-0.075678021 -0.0057296455 0.39329243
-0.071063936 -0.0081176013 0.39338273
-0.068838745 -0.0093196332 0.39407858
-0.067286998 -0.010121912 0.39409843
-0.065731317 -0.010925978 0.3941153
-0.064856917 -0.0113267 0.393462
-0.062608182 -0.012539521 0.39414033
-0.061040729 -0.013348982 0.39414847
-0.060160428 -0.013752401 0.39349076
-0.059280127 -0.01415582 0.39283305
-0.058399826 -0.014559239 0.39217538
-0.057519525 -0.014962643 0.3915177
-0.056639224 -0.015366063 0.39085999
-0.055058032 -0.016181812 0.39085785
-0.054175764 -0.016586125 0.39019871
-0.053293496 -0.016990438 0.38953954
-0.071748912 -0.0056159794 0.36559427
-0.073613137 -0.0042147487 0.35991204
-0.072721988 -0.0045319647 0.35806704
-0.072642535 -0.0044772327 0.35682851
-0.071838707 -0.0048456043 0.35622796
-0.071034849 -0.0052139759 0.35562739
-0.070963234 -0.0051556528 0.3543947
-0.070895553 -0.0050955117 0.35316497
-0.070831776 -0.0050335824 0.35193816
-0.071510047 -0.0045404434 0.35008657
-0.073632151 -0.003112182 0.34577611
-0.074335903 -0.0026073754 0.34394357
-0.077262729 -0.00071915984 0.33905521
-0.077993959 -0.00020176172 0.33724314
-0.077981144 -0.00011648238 0.33605444
-0.078726083 0.00040720403 0.3342526
-0.077967316 5.9500337e-05 0.33368573
-0.077208579 -0.00028821826 0.33311886
-0.076449811 -0.00063592196 0.33255199
-0.076452702 -0.00054343045 0.331375
-0.075695932 -0.00089025497 0.33080956
-0.07417357 -0.0016790479 0.33085138
-0.073414832 -0.0020267665 0.33028451
-0.073425561 -0.0019306839 0.32911336
-0.072668761 -0.0022774935 0.32854795
-0.071911991 -0.0026243031 0.32798254
-0.07115519 -0.0029711127 0.32741714
-0.07039842 -0.0033179224 0.32685173
-0.06964162 -0.003664732 0.32628632
-0.06888482 -0.0040115416 0.32572091
-0.068128049 -0.0043583512 0.3251555
-0.067371249 -0.0047051758 0.32459009
-0.076637626 -0.0059757531 0.42041379
-0.07637307 -0.0060086995 0.41903597
-0.076112479 -0.006039843 0.41766107
-0.075212568 -0.0064522326 0.41698873
-0.075602978 -0.0060967356 0.41492006
-0.076001257 -0.0057376325 0.41285723
-0.075758249 -0.0057606846 0.41149554
-0.076170266 -0.0053952932 0.40944299
-0.076590091 -0.0050263256 0.40739632
-0.077017784 -0.0046537519 0.40535548
-0.077453315 -0.004277572 0.40332049
-0.077237755 -0.0042880476 0.40197933
-0.077026159 -0.0042967349 0.40064105
-0.076818466 -0.0043036193 0.39930567
-0.076614708 -0.0043087006 0.3979733
-0.076414853 -0.0043119937 0.39664379
-0.075550228 -0.0047082156 0.39599782
-0.075356275 -0.0047088265 0.39467272
-0.074493617 -0.0051041543 0.39402822
-0.073630959 -0.0054994822 0.39338371
-0.072091728 -0.0062931329 0.39341393
-0.070548624 -0.0070885867 0.39344126
-0.068321109 -0.0082859695 0.39413738
-0.066768199 -0.0090859085 0.39415735
-0.065895736 -0.0094857365 0.39350551
-0.064336956 -0.010288358 0.39352107
-0.062774211 -0.011092812 0.39353374
-0.061207563 -0.011899054 0.39354342
-0.05963698 -0.012707084 0.39355022
-0.058756679 -0.013110504 0.39289254
-0.057876378 -0.013513923 0.39223483
-0.056297958 -0.014325544 0.39223576
-0.05541569 -0.014729857 0.39157659
-0.054533422 -0.015134171 0.39091745
-0.053651154 -0.015538484 0.39025831
-0.052768886 -0.015942797 0.38959914
-0.054718286 -0.0146963 0.38633481
-0.060232669 -0.011374578 0.3798331
-0.071977347 -0.0042265356 0.36500421
-0.073220909 -0.003303498 0.36121255
-0.073132783 -0.0032555759 0.35996661
-0.072325021 -0.0036257505 0.35936311
-0.072242826 -0.0035751164 0.35812148
-0.071437031 -0.003944397 0.35751945
-0.070631236 -0.0043136626 0.35691744
-0.069825411 -0.0046829432 0.3563154
-0.069019616 -0.0050522089 0.35571337
-0.068949163 -0.0049962103 0.35448056
-0.068882674 -0.0049383938 0.35325068
-0.068820029 -0.0048788041 0.35202372
-0.070243806 -0.0039614439 0.34954694
-0.070936173 -0.0034675747 0.34770387
-0.072381586 -0.0025403202 0.34524319
-0.073838681 -0.0016077161 0.34279129
-0.076037169 -0.00015875697 0.33853292
-0.076774627 0.00035578012 0.33672351
-0.077519923 0.0008739233 0.33491999
-0.077516139 0.00096046925 0.33373699
-0.076757401 0.00061276555 0.33317012
-0.075998634 0.00026504695 0.33260325
-0.075239897 -8.2656741e-05 0.33203638
-0.074481159 -0.00043036044 0.33146951
-0.073722392 -0.00077807903 0.33090264
-0.072963655 -0.0011257827 0.33033574
-0.072204918 -0.0014734864 0.3297689
-0.071446151 -0.001821205 0.329202
-0.070687383 -0.0021689236 0.32863513
-0.069928646 -0.0025166273 0.32806826
-0.069169909 -0.002864331 0.32750139
-0.068411142 -0.0032120347 0.32693452
-0.067652404 -0.0035597533 0.32636765
-0.067678034 -0.0034597069 0.32520661
-0.075461686 -0.0052805245 0.42117897
-0.074555904 -0.0056956112 0.42050225
-0.074292511 -0.0057308972 0.41912431
-0.074033052 -0.0057643652 0.41774929
-0.07442382 -0.0054144114 0.41567889
-0.074174196 -0.0054433942 0.41431117
-0.074578732 -0.0050871521 0.41225103
-0.074991077 -0.004727304 0.41019675
-0.07541129 -0.0043638945 0.40814835
-0.076495469 -0.00361076 0.40541482
-0.076275229 -0.0036262572 0.4040691
-0.076058924 -0.0036399662 0.40272626
-0.075846493 -0.0036518723 0.40138644
-0.075638026 -0.0036619753 0.40004948
-0.075433463 -0.0036702901 0.39871544
-0.075232804 -0.0036768019 0.39738441
-0.075036108 -0.0036815256 0.39605623
-0.074843317 -0.0036844611 0.39473099
-0.073980629 -0.0040797889 0.39408648
-0.073117971 -0.0044751167 0.39344198
-0.072255313 -0.0048704445 0.39279747
-0.070033342 -0.0060595572 0.39349979
-0.068485111 -0.0068544894 0.39352423
-0.066932976 -0.0076512098 0.39354584
-0.06606248 -0.0080501288 0.39289546
-0.064504474 -0.0088495463 0.39291263
-0.062942535 -0.0096507668 0.39292684
-0.061376691 -0.010453761 0.39293817
-0.059113532 -0.011661768 0.3936097
-0.058233202 -0.012065172 0.392952
-0.056655586 -0.012873575 0.39295453
-0.055074066 -0.013683781 0.39295411
-0.054189831 -0.014088988 0.39229348
-0.053305596 -0.01449421 0.39163285
-0.051716208 -0.015307978 0.3916266
-0.050122917 -0.016123563 0.39161739
-0.071491212 -0.0032557249 0.36505944
-0.07283023 -0.0023857951 0.36251631
-0.072739422 -0.0023419857 0.36126727
-0.071929693 -0.0027130544 0.36066228
-0.071844697 -0.0026665628 0.35941768
-0.071036935 -0.0030367374 0.35881418
-0.070229173 -0.0034069121 0.35821068
-0.069421411 -0.0037770867 0.35760719
-0.069346279 -0.003726095 0.35636982
-0.068540484 -0.0040953606 0.35576779
-0.067734659 -0.0044646263 0.35516578
-0.067667335 -0.0044100583 0.35393429
-0.066863477 -0.0047784448 0.35333371
-0.06754446 -0.004295513 0.35148013
-0.06967625 -0.0028914213 0.34716696
-0.072597474 -0.0010401458 0.34226233
-0.074075758 -0.00010642409 0.33982325
-0.077064961 0.0018614531 0.33378825
-0.076306224 0.0015137494 0.33322138
-0.075547457 0.0011660308 0.33265448
-0.074788719 0.00081831217 0.33208764
-0.074029952 0.00047060847 0.33152074
-0.073271215 0.00012290478 0.3309539
-0.072512478 -0.00022481382 0.330387
-0.071753711 -0.00057251751 0.32982013
-0.070994973 -0.00092023611 0.32925326
-0.070236206 -0.0012679398 0.32868639
-0.069477469 -0.0016156435 0.32811952
-0.068718731 -0.0019633621 0.32755265
-0.067959994 -0.0023110658 0.32698578
-0.067201227 -0.0026587844 0.32641888
-0.073643744 -0.0049563348 0.42264873
-0.073375642 -0.0049966425 0.42126626
-0.073111475 -0.0050351322 0.41988671
-0.072851241 -0.0050718337 0.41851008
-0.072594911 -0.0051067322 0.4171364
-0.072991937 -0.0047596395 0.41506866
-0.073396832 -0.0044089556 0.41300681
-0.073809564 -0.0040546656 0.41095078
-0.074230164 -0.0036967993 0.40890065
-0.074658573 -0.0033353418 0.40685636
-0.075094849 -0.0029702783 0.40481794
-0.075538963 -0.0026016235 0.40278533
-0.075327694 -0.002615869 0.40144536
-0.075120389 -0.0026282966 0.40010828
-0.074916989 -0.002638936 0.39877412
-0.074717522 -0.0026477873 0.39744294
-0.074521959 -0.0026548207 0.39611462
-0.073657334 -0.0030510575 0.39546865
-0.073467672 -0.0030554235 0.39414477
-0.072605014 -0.0034507513 0.39350027
-0.071742326 -0.0038460791 0.39285573
-0.070198864 -0.0046359599 0.39288476
-0.067968637 -0.0058231354 0.39358291
-0.06641534 -0.0066175312 0.39360464
-0.065544844 -0.0070164502 0.39295426
-0.063297033 -0.0082117021 0.39363921
-0.061731935 -0.0090114921 0.39365214
-0.060162961 -0.0098130703 0.3936621
-0.057200938 -0.011418164 0.39499569
-0.055620193 -0.012225121 0.39499688
-0.054035544 -0.013033897 0.39499512
-0.052446932 -0.01384446 0.39499044
-0.050854474 -0.014656812 0.39498284
-0.049962372 -0.015065625 0.39431638
-0.048363984 -0.015880689 0.39430439
-0.046761692 -0.016697541 0.39428946
-0.048706651 -0.015475944 0.39101383
-0.071005046 -0.0022849143 0.36511466
-0.072347581 -0.0014219582 0.36257115
-0.072257906 -0.0013804734 0.36132196
-0.071448207 -0.0017515421 0.360717
-0.070638478 -0.0021226108 0.36011201
-0.069828749 -0.0024936795 0.35950708
-0.06901902 -0.0028647631 0.3589021
-0.068941087 -0.002817899 0.35766175
-0.068133324 -0.0031880736 0.35705826
-0.067325562 -0.0035582483 0.35645476
-0.0665178 -0.0039284229 0.35585126
-0.065710038 -0.0042985976 0.3552478
-0.065643877 -0.0042463243 0.35401616
-0.06558165 -0.0041922927 0.35278746
-0.066268891 -0.003712222 0.35093653
-0.070543796 -1.92523e-05 0.32930452
-0.069785029 -0.0003669709 0.32873762
-0.069026291 -0.00071467459 0.32817078
-0.068267554 -0.0010623783 0.32760388
-0.072193086 -0.0042929947 0.42203051
-0.071928114 -0.0043347329 0.42064938
-0.071020365 -0.0047507286 0.41997117
-0.070761293 -0.0047897398 0.41859442
-0.07115674 -0.0044490993 0.41652352
-0.071560025 -0.0041048676 0.41445845
-0.071971178 -0.0037570447 0.41239926
-0.072390169 -0.0034056306 0.41034588
-0.07347545 -0.0026691556 0.40760717
-0.073912114 -0.0023096502 0.40556702
-0.074356586 -0.0019465536 0.40353271
-0.074144572 -0.0019640028 0.4021911
-0.074602753 -0.001594618 0.40016708
-0.074400514 -0.0016075969 0.3988328
-0.07420221 -0.0016187578 0.39750147
-0.073335618 -0.0020158887 0.39685404
-0.073143214 -0.0020243675 0.39552706
-0.072954684 -0.0020310581 0.39420304
-0.072092026 -0.0024263859 0.39355853
-0.071229368 -0.0028217137 0.392914
-0.069684714 -0.0036092699 0.39294317
-0.067452163 -0.0047917962 0.39364159
-0.065897733 -0.0055838525 0.39366344
-0.065027207 -0.0059827715 0.39301306
-0.062777072 -0.0071733594 0.39369828
-0.06051901 -0.0083675683 0.39437765
-0.058253139 -0.0095653385 0.39505118
-0.055979431 -0.010766715 0.39571881
-0.053697884 -0.011971682 0.3963806
-0.052108139 -0.012779921 0.39637607
-0.05051443 -0.013589948 0.39636862
-0.048916876 -0.014401793 0.39635822
-0.047315329 -0.015215427 0.39634487
-0.045709908 -0.016030833 0.39632863
-0.044809997 -0.016443238 0.39565629
-0.04604429 -0.015638471 0.39302891
-0.071864933 -0.0004581213 0.36262599
-0.07177642 -0.00041896105 0.36137664
-0.070966691 -0.00079002976 0.36077169
-0.070156962 -0.0011611134 0.36016673
-0.069347262 -0.0015321821 0.35956177
-0.068537503 -0.0019032508 0.35895681
-0.068460763 -0.0018587261 0.35771632
-0.066918075 -0.0026453882 0.3577469
-0.066845238 -0.0025990605 0.35650933
-0.066037476 -0.0029692352 0.35590583
-0.065229714 -0.0033394098 0.35530233
-0.064421952 -0.0037095845 0.35469884
-0.06435892 -0.0036587417 0.35346854
-0.064299822 -0.0036061406 0.35224122
-0.064993292 -0.0031289309 0.35039294
-0.064943999 -0.0030718148 0.34917292
-0.068555802 9.7751617e-05 0.32939076
-0.071008176 -0.0035847127 0.42279509
-0.070096523 -0.0040025115 0.42211396
-0.069832712 -0.0040465444 0.42073265
-0.069572836 -0.0040888041 0.41935429
-0.069316864 -0.0041292459 0.41797888
-0.06971857 -0.0037914813 0.41591063
-0.070128113 -0.0034500957 0.41384822
-0.070545524 -0.0031051338 0.41179168
-0.071630418 -0.0023774356 0.40904963
-0.072065443 -0.0020243973 0.40700629
-0.072508335 -0.0016677529 0.4049688
-0.072959065 -0.0013075173 0.40293717
-0.073417634 -0.00094367564 0.40091139
-0.07321462 -0.0009598732 0.39957553
-0.073015511 -0.00097426772 0.39824253
-0.072820336 -0.0009868592 0.39691257
-0.072629064 -0.00099766254 0.39558545
-0.071764439 -0.0013938993 0.39493948
-0.071579069 -0.0014020205 0.3936168
-0.070716411 -0.0017973483 0.39297229
-0.069170594 -0.0025825799 0.39300156
-0.067620844 -0.0033696294 0.39302796
-0.066067189 -0.0041584671 0.39305136
-0.063820541 -0.0053417087 0.39374125
-0.062257081 -0.0061350316 0.39375734
-0.059303731 -0.0077189803 0.39510345
-0.057033598 -0.0089130104 0.39577577
-0.054058701 -0.010506824 0.39710575
-0.051770896 -0.01170893 0.39776489
-0.049475223 -0.012914643 0.39841816
-0.048577279 -0.013326138 0.39774728
-0.046269894 -0.01453723 0.39839178
-0.045368016 -0.014950529 0.39771795
-0.044466138 -0.015363827 0.39704418
-0.071382254 0.00050571561 0.36268079
-0.071294934 0.00054253638 0.36143133
-0.070485204 0.00017146766 0.36082637
-0.069675475 -0.00019960105 0.36022142
-0.068865776 -0.00057066977 0.35961646
-0.068056017 -0.00094175339 0.3590115
-0.067246318 -0.0013128072 0.35840654
-0.066436589 -0.0016838908 0.35780159
-0.06562686 -0.0020549595 0.35719663
-0.064817131 -0.0024260283 0.35659167
