# .PCD v0.7 - Point Cloud Data file format
VERSION 0.7
FIELDS x y z
SIZE 4 4 4
TYPE F F F
COUNT 1 1 1
WIDTH 1383
HEIGHT 1
VIEWPOINT 0 0 0 1 0 0 0
POINTS 1383
DATA ascii
0.13997793 -0.16206305 0.42803717
0.14109376 -0.16206285 0.42803723
0.14187744 -0.16168401 0.4270373
0.14299066 -0.16168381 0.42703736
0.14410388 -0.16168363 0.42703745
0.14521711 -0.16168344 0.42703751
0.14633031 -0.16168326 0.4270376
0.14744353 -0.16168307 0.42703766
0.14855674 -0.16168289 0.42703775
0.14966996 -0.1616827 0.42703781
0.15043019 -0.16130388 0.42603791
0.1515408 -0.16130368 0.42603797
0.1526514 -0.16130351 0.42603806
0.15376201 -0.16130333 0.42603812
0.15487264 -0.16130313 0.42603821
0.15561722 -0.16092429 0.42503825
0.15672523 -0.16092409 0.42503831
0.15783322 -0.16092391 0.4250384
0.15894122 -0.16092373 0.42503846
0.16004923 -0.16092354 0.42503855
0.16077816 -0.16054471 0.42403862
0.16188355 -0.16054453 0.42403871
0.16298895 -0.16054434 0.42403877
0.16370746 -0.1601655 0.42303881
0.16481026 -0.16016532 0.4230389
0.16552095 -0.15978649 0.42203897
0.16662113 -0.15978631 0.42203906
0.16772132 -0.15978612 0.42203912
0.1684216 -0.15940733 0.42103919
0.16951917 -0.15940714 0.42103928
0.17061675 -0.15940696 0.42103934
0.1713066 -0.15902811 0.42003939
0.17240155 -0.15902793 0.42003947
0.17349653 -0.15902776 0.42003953
0.17459148 -0.15902758 0.42003962
0.17568646 -0.15902738 0.42003968
0.17678142 -0.1590272 0.42003977
0.17787638 -0.15902703 0.42003983
0.17897135 -0.15902685 0.42003992
0.18006632 -0.15902665 0.42003998
0.18073007 -0.15864784 0.41904005
0.18182243 -0.15864766 0.41904014
0.18291479 -0.15864746 0.4190402
0.18400715 -0.15864728 0.41904029
0.1846579 -0.15826847 0.41804034
0.18574764 -0.15826829 0.41804039
0.1868374 -0.15826811 0.41804048
0.18747769 -0.15788928 0.41704056
0.18856487 -0.1578891 0.41704062
0.189652 -0.15788892 0.41704071
0.19028188 -0.1575101 0.41604075
0.19136642 -0.15750992 0.41604081
0.19245097 -0.15750974 0.41604087
0.19353551 -0.15750957 0.41604096
-0.30206466 -0.20314454 0.54000545
-0.30010003 -0.2027681 0.53900564
-0.29869479 -0.20276786 0.53900576
-0.29728961 -0.20276763 0.53900582
-0.29533529 -0.20239119 0.53800601
-0.29447919 -0.20276716 0.53900599
-0.29253012 -0.20239073 0.53800619
-0.29166877 -0.20276669 0.53900623
-0.28972489 -0.20239027 0.53800637
-0.28885835 -0.20276622 0.53900641
-0.053484581 -0.17715193 0.47102341
-0.052478798 -0.17790397 0.47302344
-0.051354121 -0.17827988 0.47402352
-0.050118372 -0.17827967 0.47402361
-0.048882622 -0.17827946 0.4740237
-0.047646876 -0.17827927 0.47402379
-0.046411123 -0.17827906 0.47402388
-0.045175377 -0.17827885 0.47402397
-0.043939628 -0.17827864 0.47402403
-0.042703882 -0.17827843 0.47402412
-0.041380525 -0.17790212 0.47302422
-0.040147379 -0.17790191 0.47302428
-0.038914241 -0.1779017 0.47302437
-0.037601311 -0.17752537 0.4720245
-0.036370777 -0.17752516 0.47202459
-0.035140246 -0.17752497 0.47202465
-0.033837747 -0.17714866 0.47102475
-0.032609817 -0.17714845 0.47102484
-0.03138189 -0.17714825 0.4710249
-0.030153964 -0.17714804 0.47102499
-0.028926037 -0.17714784 0.47102508
-0.027698111 -0.17714763 0.47102517
-0.026470182 -0.17714743 0.47102526
-0.025242256 -0.17714722 0.47102532
-0.02401433 -0.17714702 0.47102541
-0.022786399 -0.17714682 0.4710255
-0.021512577 -0.17677049 0.4700256
-0.020287259 -0.1767703 0.47002569
-0.019061938 -0.17677009 0.47002578
-0.017836617 -0.17676988 0.47002587
-0.016611299 -0.17676967 0.47002596
-0.015353119 -0.17639334 0.46902603
-0.014130405 -0.17639315 0.46902612
-0.012907693 -0.17639294 0.46902621
-0.011659941 -0.17601664 0.46802631
-0.010439835 -0.17601644 0.4680264
-0.0091999052 -0.17564012 0.46702647
-0.0079824058 -0.17563991 0.46702656
-0.0067649074 -0.1756397 0.46702665
-0.0055354056 -0.1752634 0.46602675
-0.0043205139 -0.1752632 0.46602684
-0.0030988334 -0.17488691 0.46502694
-0.0018865486 -0.17488672 0.46502703
-0.00067426375 -0.17488651 0.46502712
0.00053802104 -0.17488632 0.46502718
0.0017503059 -0.17488611 0.46502727
0.0029563438 -0.17450979 0.46402735
0.0041660224 -0.17450958 0.46402743
0.0053756996 -0.17450938 0.46402752
0.0065713096 -0.17413309 0.46302763
0.0077783805 -0.1741329 0.46302772
0.0089854505 -0.17413269 0.46302781
0.010170632 -0.17375638 0.46202788
0.011375097 -0.17375617 0.46202797
0.01257956 -0.17375597 0.46202803
0.013754314 -0.17337967 0.46102816
0.01495617 -0.17337947 0.46102822
0.016123099 -0.17300317 0.46002829
0.01732235 -0.17300297 0.46002838
0.018521599 -0.17300276 0.46002847
0.019678103 -0.17262648 0.45902857
0.020874746 -0.17262629 0.45902866
0.022071389 -0.17262609 0.45902872
0.023217466 -0.17224979 0.45802885
0.024358328 -0.17187349 0.45702893
0.025549756 -0.1718733 0.45702899
0.026682796 -0.171497 0.45602912
0.027871618 -0.17149681 0.45602918
0.029060436 -0.17149661 0.45602927
0.030183051 -0.17112032 0.45502934
0.031369265 -0.17112012 0.45502943
0.03255548 -0.17111991 0.45502949
0.033667661 -0.17074363 0.45402962
0.034851268 -0.17074344 0.45402968
0.036034875 -0.17074324 0.45402977
0.037218485 -0.17074303 0.45402986
0.038402088 -0.17074284 0.45402992
0.039585695 -0.17074265 0.45403001
0.040769301 -0.17074245 0.4540301
0.041860629 -0.17036615 0.45303017
0.043041628 -0.17036596 0.45303023
0.044222631 -0.17036577 0.45303032
0.045403633 -0.17036557 0.45303041
0.046584632 -0.17036538 0.45303047
0.047660317 -0.16998909 0.45203057
0.048838712 -0.1699889 0.45203066
0.050017104 -0.16998871 0.45203075
0.051082361 -0.16961242 0.45103085
0.052258153 -0.16961223 0.45103091
0.053315584 -0.16923593 0.45003098
0.054488763 -0.16923574 0.45003107
0.055538375 -0.16885947 0.44903117
0.056708947 -0.16885927 0.44903126
0.057879519 -0.16885908 0.44903132
0.058918703 -0.1684828 0.4480314
0.060086668 -0.16848259 0.44803149
0.061254632 -0.16848239 0.44803154
0.062422596 -0.1684822 0.44803163
0.063590571 -0.16848201 0.44803172
0.06461411 -0.16810574 0.44703183
0.06577947 -0.16810554 0.44703189
0.066944823 -0.16810535 0.44703197
0.068262428 -0.16848123 0.44803202
0.069430389 -0.16848104 0.44803211
0.070598356 -0.16848084 0.4480322
0.071766317 -0.16848065 0.44803226
0.072934285 -0.16848046 0.44803235
0.074102245 -0.16848026 0.44803244
0.075270213 -0.16848007 0.4480325
0.076267682 -0.16810378 0.4470326
0.077259935 -0.16772753 0.44603267
0.078422695 -0.16772734 0.44603276
0.079407133 -0.16735107 0.44503284
0.080567278 -0.16735087 0.44503292
0.081543893 -0.16697462 0.44403303
0.08270143 -0.16697444 0.44403309
0.083670221 -0.16659816 0.44303316
0.084633797 -0.16622189 0.44203326
0.085786119 -0.16622169 0.44203335
0.086938441 -0.1662215 0.44203341
0.088090762 -0.16622131 0.4420335
0.089243084 -0.16622111 0.44203356
0.090191022 -0.16584486 0.44103363
0.091340736 -0.16584466 0.44103372
0.092490457 -0.16584447 0.44103378
0.093640171 -0.16584428 0.44103387
0.094575092 -0.16546804 0.44003397
0.095722198 -0.16546784 0.44003403
0.096869305 -0.16546765 0.44003412
0.098016411 -0.16546746 0.44003418
0.099163517 -0.16546726 0.44003427
0.10008277 -0.16509101 0.43903434
0.10122727 -0.16509081 0.4390344
0.10237177 -0.16509062 0.43903449
0.10328061 -0.16471437 0.43803456
0.1044225 -0.16471419 0.43803465
0.10556439 -0.16471399 0.43803474
0.1067063 -0.1647138 0.4380348
0.10784819 -0.16471361 0.43803489
0.10899008 -0.16471341 0.43803495
0.11013197 -0.16471323 0.43803504
0.11127387 -0.16471304 0.43803513
0.11215923 -0.16433677 0.43703514
0.11329852 -0.16433658 0.43703523
0.11443782 -0.16433638 0.43703529
0.11531276 -0.16396016 0.43603539
0.11644944 -0.16395997 0.43603545
0.11758611 -0.16395977 0.43603554
0.11845064 -0.16358353 0.43503565
0.1195847 -0.16358334 0.43503571
0.12044139 -0.16320708 0.43403578
0.12157285 -0.16320691 0.43403584
0.12242173 -0.16283067 0.43303594
0.12355059 -0.16283049 0.433036
0.12467945 -0.16283029 0.43303609
0.12551787 -0.16245404 0.43203613
0.12664413 -0.16245385 0.43203622
0.12747478 -0.16207761 0.43103629
0.12859842 -0.16207741 0.43103638
0.12972207 -0.16207723 0.43103644
0.13054223 -0.16170098 0.43003651
0.13166328 -0.1617008 0.43003657
0.13278431 -0.16170061 0.43003666
0.13390535 -0.16170043 0.43003672
0.13502638 -0.16170023 0.43003681
0.13614742 -0.16170006 0.43003687
0.13694938 -0.16132382 0.42903697
0.13806781 -0.16132362 0.42903703
0.13918623 -0.16132344 0.42903712
0.13997775 -0.16094723 0.4280372
0.14109358 -0.16094704 0.42803729
0.1422094 -0.16094686 0.42803735
0.14332522 -0.16094667 0.42803743
0.14444104 -0.16094649 0.42803749
0.14521693 -0.16057023 0.42703757
0.14633013 -0.16057006 0.42703763
0.14744335 -0.16056986 0.42703772
0.14855656 -0.16056968 0.42703778
0.14966978 -0.16056949 0.42703786
0.15078299 -0.16056931 0.42703792
0.15189622 -0.16056912 0.42703801
0.15300943 -0.16056894 0.42703807
0.15376183 -0.16019271 0.42603818
0.15487246 -0.16019252 0.42603824
0.15598306 -0.16019234 0.42603832
0.15672503 -0.1598161 0.42503837
0.15783302 -0.15981592 0.42503843
0.15894103 -0.15981574 0.42503852
0.16004904 -0.15981555 0.42503861
0.16077799 -0.15943933 0.42403868
0.16188337 -0.15943915 0.42403874
0.16298877 -0.15943895 0.42403883
0.16370729 -0.15906273 0.42303887
0.16481008 -0.15906255 0.42303893
0.16552077 -0.15868632 0.42203903
0.16662095 -0.15868615 0.42203909
0.16772114 -0.15868595 0.42203918
0.16882132 -0.15868577 0.42203924
0.16951899 -0.15830956 0.42103931
0.17061657 -0.15830939 0.4210394
0.17171414 -0.15830921 0.42103946
0.17240135 -0.15793298 0.4200395
0.17349634 -0.1579328 0.42003959
0.17459129 -0.15793262 0.42003965
0.17568627 -0.15793243 0.42003974
0.17678122 -0.15793225 0.4200398
0.17787619 -0.15793207 0.42003989
0.17897116 -0.15793189 0.42003995
0.18006612 -0.1579317 0.42004004
0.18116111 -0.15793152 0.4200401
0.18182226 -0.15755531 0.41904017
0.18291461 -0.15755512 0.41904026
0.18400697 -0.15755494 0.41904032
0.18465772 -0.15717871 0.41804036
0.18574746 -0.15717854 0.41804045
0.18683723 -0.15717836 0.41804051
0.18747751 -0.15680215 0.41704059
0.18856469 -0.15680197 0.41704068
0.18965182 -0.15680179 0.41704074
0.1902817 -0.15642557 0.41604078
0.19136624 -0.15642539 0.41604087
0.19245079 -0.15642521 0.41604093
0.19353533 -0.15642503 0.41604099
-0.3020649 -0.20173672 0.54000551
-0.30065709 -0.20173648 0.54000562
-0.29924929 -0.20173624 0.54000574
-0.29728979 -0.20136242 0.53900588
-0.29588461 -0.20136218 0.53900599
-0.29447937 -0.20136195 0.53900605
-0.29307419 -0.20136172 0.53900617
-0.29166901 -0.20136148 0.53900629
-0.29026377 -0.20136125 0.53900635
-0.28885853 -0.20136102 0.53900647
-0.053484786 -0.17592399 0.47102347
-0.052479003 -0.17667082 0.4730235
-0.051354326 -0.17704412 0.47402358
-0.050118577 -0.17704391 0.47402367
-0.048882827 -0.17704371 0.47402376
-0.047647081 -0.17704351 0.47402385
-0.046411328 -0.1770433 0.47402391
-0.045175582 -0.1770431 0.474024
-0.043939833 -0.17704289 0.47402409
-0.042704087 -0.17704268 0.47402418
-0.04138073 -0.17666897 0.47302425
-0.040147584 -0.17666876 0.47302434
-0.038914446 -0.17666855 0.47302443
-0.037681304 -0.17666835 0.47302452
-0.036448162 -0.17666814 0.47302461
-0.035140451 -0.17629443 0.47202471
-0.033909917 -0.17629422 0.4720248
-0.032610022 -0.1759205 0.47102487
-0.031382095 -0.17592031 0.47102496
-0.030154169 -0.1759201 0.47102505
-0.028926242 -0.17591989 0.47102514
-0.027698316 -0.17591968 0.47102523
-0.026470387 -0.17591949 0.47102529
-0.025242461 -0.17591928 0.47102538
-0.024014534 -0.17591907 0.47102547
-0.022786604 -0.17591888 0.47102556
-0.021558678 -0.17591867 0.47102565
-0.020287462 -0.17554498 0.47002575
-0.019062141 -0.17554477 0.47002584
-0.01783682 -0.17554456 0.47002593
-0.016611502 -0.17554435 0.47002599
-0.015386184 -0.17554416 0.47002608
-0.014130608 -0.17517044 0.46902618
-0.012907896 -0.17517023 0.46902624
-0.011685182 -0.17517002 0.46902633
-0.010440039 -0.17479631 0.46802643
-0.0092199324 -0.17479612 0.46802652
-0.0079826089 -0.17442241 0.46702662
-0.00676511 -0.1744222 0.46702668
-0.0055356077 -0.17404851 0.46602681
-0.004320716 -0.1740483 0.46602687
-0.0031058243 -0.1740481 0.46602696
-0.0018867502 -0.17367442 0.46502709
-0.00067446544 -0.17367421 0.46502715
0.0005378194 -0.17367402 0.46502724
0.0017501042 -0.17367381 0.46502733
0.0029561426 -0.17330012 0.4640274
0.0041658208 -0.17329991 0.46402749
0.005375498 -0.1732997 0.46402758
0.0065851761 -0.17329951 0.46402764
0.0077781798 -0.17292581 0.46302778
0.0089852493 -0.17292561 0.46302783
0.01019232 -0.17292541 0.46302792
0.011374896 -0.17255169 0.462028
0.01257936 -0.1725515 0.46202809
0.013783824 -0.17255129 0.46202818
0.01495597 -0.17217761 0.46102828
0.016157826 -0.17217742 0.46102837
0.017322151 -0.17180371 0.46002844
0.0185214 -0.1718035 0.46002853
0.019720649 -0.17180331 0.46002859
0.020874547 -0.17142963 0.45902869
0.02207119 -0.17142944 0.45902878
0.023217266 -0.17105576 0.45802888
0.024411304 -0.17105557 0.45802897
0.025549557 -0.17068186 0.45702904
0.026740985 -0.17068166 0.45702913
0.027871421 -0.17030798 0.45602924
0.029060239 -0.17030779 0.45602933
0.030249063 -0.17030758 0.45602939
0.031369068 -0.1699339 0.45502946
0.032555282 -0.16993369 0.45502955
0.033741493 -0.1699335 0.45502964
0.034927707 -0.1699333 0.45502973
0.036034681 -0.16955963 0.45402983
0.037218291 -0.16955942 0.45402989
0.038401894 -0.16955923 0.45402998
0.039585501 -0.16955903 0.45403007
0.040769108 -0.16955884 0.45403013
0.041952714 -0.16955863 0.45403022
0.043136321 -0.16955844 0.45403031
0.044319928 -0.16955824 0.45403036
0.045403436 -0.16918457 0.45303044
0.046584435 -0.16918437 0.45303053
0.047765438 -0.16918416 0.45303062
0.048838515 -0.1688105 0.45203072
0.050016906 -0.16881031 0.45203078
0.051195297 -0.16881011 0.45203087
0.052373692 -0.16880992 0.45203096
0.053433739 -0.16843624 0.45103106
0.054488569 -0.16806255 0.45003113
0.055661745 -0.16806236 0.45003119
0.056834925 -0.16806217 0.45003128
0.057879325 -0.1676885 0.44903138
0.059049897 -0.16768831 0.44903147
0.06008647 -0.16731462 0.44803151
0.061254434 -0.16731443 0.4480316
0.062422398 -0.16731423 0.44803169
0.063590378 -0.16731404 0.44803175
0.064758338 -0.16731384 0.44803184
0.065926306 -0.16731365 0.44803193
0.067094266 -0.16731346 0.44803199
0.068262234 -0.16731326 0.44803208
0.069430195 -0.16731307 0.44803217
0.070598163 -0.16731288 0.44803223
0.071766123 -0.16731268 0.44803232
0.072934091 -0.16731249 0.44803241
0.074102052 -0.16731229 0.44803247
0.075270019 -0.1673121 0.44803256
0.076267488 -0.16693842 0.44703266
0.077432841 -0.16693823 0.44703272
0.078422502 -0.16656458 0.44603279
0.079585247 -0.16656439 0.44603288
0.080567084 -0.16619073 0.44503298
0.081543699 -0.16581707 0.44403306
0.082701236 -0.16581689 0.44403315
0.083670028 -0.16544323 0.44303322
0.084824957 -0.16544303 0.44303328
0.085785933 -0.16506937 0.44203338
0.086938255 -0.16506918 0.44203347
0.088090576 -0.16506898 0.44203353
0.089242898 -0.16506879 0.44203362
0.09039522 -0.1650686 0.44203371
0.091340542 -0.16469494 0.44103375
0.092490263 -0.16469474 0.44103384
0.093639977 -0.16469455 0.44103393
0.094574898 -0.16432093 0.440034
0.09593942 -0.16469416 0.44103408
0.096869111 -0.16432054 0.44003415
0.098016217 -0.16432035 0.44003424
0.099163324 -0.16432016 0.44003433
0.10008258 -0.16394649 0.43903437
0.10122708 -0.1639463 0.43903446
0.10237159 -0.16394611 0.43903452
0.10328042 -0.16357246 0.43803462
0.10442231 -0.16357228 0.43803471
0.1055642 -0.16357209 0.43803477
0.10670611 -0.16357189 0.43803486
0.107848 -0.1635717 0.43803492
0.10898989 -0.16357151 0.43803501
0.11013178 -0.16357133 0.4380351
0.11127368 -0.16357113 0.43803516
0.11215904 -0.16319749 0.4370352
0.11329833 -0.16319729 0.43703526
0.11443763 -0.1631971 0.43703535
0.11557691 -0.16319692 0.43703544
0.11644925 -0.16282327 0.43603551
0.11758593 -0.16282308 0.4360356
0.11845045 -0.16244945 0.43503568
0.11958451 -0.16244926 0.43503577
0.12044121 -0.16207562 0.43403581
0.12157267 -0.16207545 0.4340359
0.12270413 -0.16207525 0.43403596
0.1235504 -0.16170162 0.43303606
0.12467926 -0.16170143 0.43303612
0.12551768 -0.16132778 0.43203619
0.12664394 -0.16132759 0.43203625
0.1277702 -0.16132739 0.43203634
0.12859823 -0.16095378 0.43103641
0.12972188 -0.1609536 0.4310365
0.13084552 -0.1609534 0.43103656
0.13196917 -0.16095321 0.43103665
0.13278413 -0.16057956 0.43003669
0.13390517 -0.16057938 0.43003678
0.1350262 -0.16057919 0.43003687
0.13614725 -0.16057901 0.43003693
0.13726828 -0.16057882 0.43003702
0.13806763 -0.16020519 0.42903709
0.13918605 -0.16020501 0.42903718
0.14030449 -0.16020481 0.42903724
0.14142293 -0.16020463 0.42903733
0.1422092 -0.15983102 0.42803741
0.14332503 -0.15983082 0.42803746
0.14444084 -0.15983064 0.42803755
0.14555667 -0.15983045 0.42803764
0.14667249 -0.15983027 0.4280377
0.14744316 -0.15945664 0.42703775
0.14855637 -0.15945646 0.42703784
0.14966959 -0.15945627 0.42703789
0.15078279 -0.15945609 0.42703798
0.15189603 -0.1594559 0.42703804
0.15300924 -0.15945572 0.42703813
0.15376164 -0.1590821 0.42603821
0.15487227 -0.15908191 0.4260383
0.15598287 -0.15908173 0.42603835
0.15672486 -0.1587081 0.42503843
0.15783285 -0.15870792 0.42503849
0.15894085 -0.15870774 0.42503858
0.16004886 -0.15870754 0.42503864
0.16115686 -0.15870737 0.42503873
0.16188319 -0.15833375 0.4240388
0.16298859 -0.15833355 0.42403886
0.16370711 -0.15795992 0.4230389
0.1648099 -0.15795974 0.42303899
0.16591269 -0.15795957 0.42303905
0.16662076 -0.15758596 0.42203915
0.16772094 -0.15758577 0.42203921
0.16882113 -0.15758559 0.4220393
0.16992131 -0.15758541 0.42203936
0.17061637 -0.15721181 0.42103943
0.17171395 -0.15721163 0.42103952
0.17281152 -0.15721145 0.42103958
0.1739091 -0.15721126 0.42103967
0.17500666 -0.15721108 0.42103973
0.17610425 -0.1572109 0.42103982
0.17720181 -0.15721071 0.42103988
0.17787601 -0.15683709 0.42003992
0.17897098 -0.15683691 0.42004001
0.18006594 -0.15683672 0.42004007
0.18116093 -0.15683654 0.42004016
0.18225588 -0.15683636 0.42004022
0.18291444 -0.15646274 0.41904029
0.1840068 -0.15646257 0.41904038
0.18509915 -0.15646239 0.41904044
0.18574728 -0.15608878 0.41804048
0.18683705 -0.15608861 0.41804057
0.1879268 -0.15608841 0.41804063
0.18856451 -0.15571481 0.41704071
0.18965164 -0.15571463 0.4170408
0.1907388 -0.15571445 0.41704085
0.19136605 -0.15534085 0.4160409
0.1924506 -0.15534067 0.41604099
0.19353513 -0.15534049 0.41604105
-0.30206513 -0.2003289 0.54000556
-0.30065733 -0.20032866 0.54000568
-0.29924953 -0.20032842 0.5400058
-0.29784173 -0.20032819 0.54000586
-0.29643387 -0.20032796 0.54000598
-0.29447961 -0.19995676 0.53900611
-0.29307443 -0.19995652 0.53900623
-0.29166925 -0.19995628 0.53900635
-0.29026401 -0.19995606 0.53900641
-0.28885877 -0.19995582 0.53900653
-0.28745359 -0.19995558 0.53900659
-0.052479208 -0.17543769 0.47302356
-0.051354531 -0.17580839 0.47402364
-0.050118782 -0.17580818 0.47402373
-0.048883032 -0.17580797 0.47402382
-0.047647286 -0.17580777 0.47402388
-0.046411533 -0.17580757 0.47402397
-0.045175787 -0.17580736 0.47402406
-0.043940037 -0.17580715 0.47402415
-0.042704292 -0.17580694 0.47402424
-0.041468542 -0.17580673 0.4740243
-0.040147789 -0.17543563 0.4730244
-0.038914651 -0.17543542 0.47302449
-0.037681509 -0.17543522 0.47302458
-0.036448367 -0.17543501 0.47302464
-0.035140656 -0.17506391 0.47202477
-0.033910122 -0.1750637 0.47202486
-0.032679584 -0.17506349 0.47202492
-0.0313823 -0.17469239 0.47102502
-0.030154373 -0.17469218 0.47102511
-0.028926447 -0.17469198 0.4710252
-0.027698521 -0.17469177 0.47102526
-0.026470592 -0.17469157 0.47102535
-0.025242666 -0.17469136 0.47102544
-0.024014739 -0.17469116 0.47102553
-0.022786809 -0.17469096 0.47102562
-0.021558883 -0.17469075 0.47102568
-0.020330956 -0.17469054 0.47102576
-0.019103028 -0.17469034 0.47102585
-0.017837025 -0.17431924 0.47002596
-0.016611706 -0.17431903 0.47002605
-0.015386387 -0.17431884 0.47002614
-0.014161065 -0.17431863 0.47002622
-0.0129081 -0.17394753 0.4690263
-0.011685386 -0.17394732 0.46902639
-0.010462673 -0.17394713 0.46902648
-0.0092201354 -0.17357603 0.46802658
-0.007982811 -0.17320491 0.46702665
-0.0067653125 -0.17320471 0.46702674
-0.0055478131 -0.17320451 0.46702683
-0.0043209181 -0.17283343 0.46602693
-0.0031060264 -0.17283322 0.46602702
-0.0018911344 -0.17283303 0.46602711
-0.00067466713 -0.17246194 0.46502721
0.00053761771 -0.17246175 0.4650273
0.0017499026 -0.17246154 0.46502739
0.0029621872 -0.17246133 0.46502745
0.0041656196 -0.17209023 0.46402755
0.0053752968 -0.17209002 0.46402761
0.0065849749 -0.17208983 0.4640277
0.0077946526 -0.17208962 0.46402779
0.0089850491 -0.17171854 0.46302789
0.01019212 -0.17171834 0.46302798
0.011399191 -0.17171814 0.46302807
0.01257916 -0.17134705 0.46202815
0.013783623 -0.17134684 0.46202821
0.014988086 -0.17134665 0.46202829
0.016192548 -0.17134644 0.46202838
0.017359484 -0.17097536 0.46102849
0.018521201 -0.17060426 0.46002856
0.01972045 -0.17060407 0.46002865
0.020919699 -0.17060387 0.46002874
0.022070991 -0.17023282 0.45902884
0.023267632 -0.17023261 0.45902893
0.024411106 -0.16986154 0.45802903
0.02560514 -0.16986133 0.45802909
0.026740788 -0.16949023 0.45702919
0.027932217 -0.16949004 0.45702925
0.029060042 -0.16911897 0.45602936
0.030248865 -0.16911876 0.45602944
0.031437688 -0.16911857 0.45602953
0.03262651 -0.16911837 0.45602959
0.033741295 -0.16874729 0.4550297
0.03492751 -0.1687471 0.45502976
0.036113724 -0.1687469 0.45502985
0.037299938 -0.16874669 0.45502993
0.038486153 -0.1687465 0.45502999
0.039672367 -0.16874631 0.45503008
0.04076891 -0.16837524 0.45403019
0.041952517 -0.16837503 0.45403028
0.043136124 -0.16837484 0.45403033
0.04431973 -0.16837464 0.45403042
0.045503341 -0.16837445 0.45403051
0.046584237 -0.16800338 0.45303059
0.04776524 -0.16800317 0.45303065
0.048946239 -0.16800298 0.45303074
0.050127238 -0.16800278 0.45303082
0.051195104 -0.16763173 0.45203093
0.052373499 -0.16763154 0.45203102
0.053551894 -0.16763134 0.45203108
0.054609332 -0.16726027 0.45103118
0.055785116 -0.16726008 0.45103127
0.056834728 -0.166889 0.45003134
0.058007903 -0.1668888 0.4500314
0.059181083 -0.16688861 0.45003149
0.060220271 -0.16651754 0.44903159
0.061390843 -0.16651735 0.44903168
0.062561408 -0.16651715 0.44903174
0.063590184 -0.16614608 0.44803181
0.064758144 -0.16614589 0.4480319
0.065926112 -0.1661457 0.44803196
0.067094073 -0.1661455 0.44803205
0.068262041 -0.16614531 0.44803214
0.069430001 -0.16614512 0.4480322
0.070597969 -0.16614492 0.44803229
0.071765929 -0.16614473 0.44803238
0.072933897 -0.16614453 0.44803244
0.074101858 -0.16614434 0.44803253
0.075269826 -0.16614415 0.44803262
0.076437786 -0.16614395 0.44803268
0.077432647 -0.16577289 0.44703278
0.078598015 -0.16577269 0.44703287
0.079585053 -0.16540164 0.44603294
0.080566891 -0.1650306 0.44503301
0.081543513 -0.16465954 0.44403312
0.08270105 -0.16465937 0.44403321
0.083669834 -0.1642883 0.44303325
0.084824763 -0.1642881 0.44303334
0.085785739 -0.16391705 0.44203344
0.086938061 -0.16391686 0.4420335
0.088090383 -0.16391666 0.44203359
0.089242704 -0.16391647 0.44203368
0.090190642 -0.16354543 0.44103372
0.091340356 -0.16354524 0.44103381
0.092490077 -0.16354504 0.4410339
0.093639791 -0.16354485 0.44103396
0.094789512 -0.16354465 0.44103405
0.095939234 -0.16354446 0.44103411
0.096868917 -0.16317344 0.44003421
0.098016024 -0.16317324 0.4400343
0.09916313 -0.16317305 0.44003436
0.10008239 -0.162802 0.43903443
0.10122689 -0.1628018 0.43903449
0.10237139 -0.16280161 0.43903458
0.10328023 -0.16243058 0.43803468
0.10442212 -0.16243041 0.43803474
0.10556401 -0.16243021 0.43803483
0.10670592 -0.16243002 0.43803489
0.10784781 -0.16242982 0.43803498
0.1089897 -0.16242963 0.43803507
0.11013159 -0.16242945 0.43803513
0.11127349 -0.16242926 0.43803522
0.11241537 -0.16242906 0.43803528
0.11329815 -0.16205801 0.43703532
0.11443745 -0.16205782 0.43703541
0.11557672 -0.16205764 0.43703547
0.11671601 -0.16205744 0.43703556
0.11758573 -0.16168641 0.43603563
0.11872242 -0.16168623 0.43603572
0.11958432 -0.16131519 0.43503579
0.1207184 -0.16131499 0.43503588
0.12157248 -0.16094398 0.43403593
0.12270395 -0.16094379 0.43403602
0.12355021 -0.16057277 0.43303609
0.12467907 -0.16057257 0.43303618
0.12580793 -0.16057238 0.43303627
0.12664376 -0.16020134 0.43203631
0.12777002 -0.16020115 0.4320364
0.12859803 -0.15983014 0.43103647
0.12972169 -0.15982996 0.43103656
0.13084532 -0.15982977 0.43103662
0.13196898 -0.15982957 0.43103671
0.13309261 -0.15982939 0.43103677
0.13390498 -0.15945835 0.43003684
0.13502601 -0.15945816 0.4300369
0.13614705 -0.15945798 0.43003699
0.13726808 -0.15945779 0.43003705
0.13838913 -0.15945761 0.43003714
0.13918586 -0.15908659 0.42903721
0.1403043 -0.15908639 0.4290373
0.14142273 -0.15908621 0.42903736
0.14254116 -0.15908602 0.42903745
0.14332485 -0.15871501 0.42803752
0.14444067 -0.15871483 0.42803761
0.14555649 -0.15871464 0.42803767
0.14667231 -0.15871446 0.42803776
0.14778814 -0.15871426 0.42803782
0.14890397 -0.15871409 0.42803791
0.14966941 -0.15834306 0.42703795
0.15078261 -0.15834288 0.42703804
0.15189585 -0.15834269 0.4270381
0.15300906 -0.15834251 0.42703819
0.15412228 -0.15834233 0.42703825
0.15487209 -0.15797131 0.42603832
0.15598269 -0.15797113 0.42603841
0.15672468 -0.15760009 0.42503846
0.15783267 -0.15759991 0.42503855
0.15894067 -0.15759973 0.42503861
0.16004868 -0.15759954 0.4250387
0.16115668 -0.15759936 0.42503875
0.161883 -0.15722837 0.42403883
0.16298839 -0.15722817 0.42403892
0.16409379 -0.15722799 0.42403898
0.1648097 -0.15685697 0.42303905
0.16591249 -0.15685679 0.42303911
0.16662058 -0.15648578 0.42203918
0.16772076 -0.15648559 0.42203927
0.16882095 -0.15648541 0.42203933
0.16992113 -0.15648523 0.42203942
0.1710213 -0.15648505 0.42203948
0.17171377 -0.15611406 0.42103955
0.17281134 -0.15611388 0.42103964
0.17390892 -0.15611368 0.4210397
0.17500648 -0.15611351 0.42103979
0.17610407 -0.15611333 0.42103985
0.17720163 -0.15611313 0.42103994
0.17829922 -0.15611295 0.42104
0.17939678 -0.15611278 0.42104009
0.18006577 -0.15574177 0.42004013
0.18116075 -0.15574159 0.42004019
0.1822557 -0.15574141 0.42004028
0.18335068 -0.15574123 0.42004034
0.18400662 -0.15537022 0.41904041
0.18509898 -0.15537004 0.4190405
0.1857471 -0.15499903 0.41804054
0.18683687 -0.15499885 0.4180406
0.18792662 -0.15499866 0.41804069
0.18856432 -0.15462768 0.41704077
0.18965144 -0.1546275 0.41704082
0.1907386 -0.15462732 0.41704091
0.19182575 -0.15462714 0.41704097
0.19245042 -0.15425614 0.41604102
0.19353496 -0.15425596 0.41604111
-0.30262488 -0.19928944 0.54100561
-0.30065757 -0.19892085 0.54000574
-0.29924977 -0.19892061 0.54000586
-0.29784197 -0.19892037 0.54000592
-0.2964341 -0.19892015 0.54000604
-0.2950263 -0.19891991 0.5400061
-0.2936185 -0.19891967 0.54000622
-0.2922107 -0.19891943 0.54000634
-0.29080284 -0.19891921 0.5400064
-0.28939503 -0.19891897 0.54000652
-0.052479412 -0.17420453 0.47302362
-0.051354736 -0.17457263 0.4740237
-0.050224852 -0.17494072 0.47502375
-0.048986491 -0.17494053 0.47502384
-0.047748137 -0.17494032 0.4750239
-0.046411738 -0.17457181 0.47402403
-0.045175992 -0.1745716 0.47402412
-0.043940242 -0.17457139 0.47402421
-0.042704497 -0.17457119 0.47402427
-0.041468747 -0.17457098 0.47402436
-0.040232997 -0.17457078 0.47402444
-0.038914856 -0.17420226 0.47302455
-0.037681714 -0.17420205 0.47302461
-0.036448572 -0.17420185 0.4730247
-0.035215434 -0.17420165 0.47302479
-0.033910327 -0.17383316 0.47202489
-0.032679789 -0.17383295 0.47202498
-0.031449255 -0.17383274 0.47202507
-0.03021872 -0.17383255 0.47202516
-0.02892665 -0.17346404 0.47102523
-0.027698724 -0.17346384 0.47102532
-0.026470795 -0.17346364 0.47102541
-0.025242869 -0.17346343 0.4710255
-0.024014942 -0.17346323 0.47102556
-0.022787012 -0.17346303 0.47102565
-0.021559086 -0.17346282 0.47102574
-0.020331159 -0.17346261 0.47102582
-0.019103231 -0.17346241 0.47102591
-0.017837228 -0.17309391 0.47002602
-0.016611909 -0.17309371 0.47002611
-0.015386591 -0.17309351 0.4700262
-0.014161269 -0.1730933 0.47002625
-0.01293595 -0.1730931 0.47002634
-0.011685589 -0.17272459 0.46902645
-0.010462876 -0.1727244 0.46902651
-0.0092203384 -0.17235592 0.46802664
-0.007983014 -0.17198741 0.46702671
-0.0067655151 -0.17198721 0.4670268
-0.0055480157 -0.17198701 0.46702689
-0.0043211202 -0.17161852 0.46602699
-0.0031062285 -0.17161831 0.46602708
-0.0018913365 -0.17161812 0.46602714
-0.00067644467 -0.17161791 0.46602723
0.00053741602 -0.17124945 0.46502733
0.0017497009 -0.17124924 0.46502742
0.0029619855 -0.17124903 0.46502751
0.0041742707 -0.17124884 0.4650276
0.0053750956 -0.17088035 0.46402767
0.0065847738 -0.17088015 0.46402776
0.0077944514 -0.17087995 0.46402782
0.0090041282 -0.17087975 0.46402791
0.010191918 -0.17051128 0.46302801
0.01139899 -0.17051107 0.4630281
0.01260606 -0.17051087 0.46302819
0.013783422 -0.17014237 0.46202826
0.014987885 -0.17014217 0.46202835
0.016192349 -0.17014197 0.46202844
0.017396813 -0.17014177 0.4620285
0.01856114 -0.1697733 0.46102864
0.019762997 -0.1697731 0.4610287
0.0209195 -0.16940463 0.46002877
0.022118749 -0.16940442 0.46002886
0.023267433 -0.16903596 0.45902896
0.024464078 -0.16903576 0.45902905
0.025604941 -0.16866729 0.45802915
0.026798977 -0.16866709 0.45802924
0.027932018 -0.1682986 0.45702931
0.029123444 -0.16829841 0.4570294
0.030314874 -0.16829821 0.45702946
0.03143749 -0.16792974 0.45602956
0.032626312 -0.16792955 0.45602965
0.033815131 -0.16792934 0.45602974
0.035003953 -0.16792914 0.45602983
0.036192775 -0.16792895 0.45602989
0.037299741 -0.16756047 0.45502996
0.038485955 -0.16756028 0.45503005
0.03967217 -0.16756009 0.45503014
0.040858384 -0.16755989 0.4550302
0.041952319 -0.16719142 0.45403031
0.043135926 -0.16719122 0.45403039
0.044319533 -0.16719103 0.45403048
0.045503143 -0.16719083 0.45403054
0.04658404 -0.16682237 0.45303062
0.047765043 -0.16682217 0.45303071
0.048946042 -0.16682197 0.45303079
0.050127041 -0.16682178 0.45303088
0.05130804 -0.16682158 0.45303094
0.052489042 -0.16682138 0.45303103
0.053551696 -0.16645294 0.45203114
0.054730088 -0.16645274 0.45203122
0.055784918 -0.16608429 0.4510313
0.056960706 -0.16608408 0.45103139
0.058136489 -0.16608389 0.45103148
0.059180889 -0.16571543 0.45003155
0.060354069 -0.16571522 0.45003161
0.06139065 -0.16534677 0.44903171
0.062561214 -0.16534658 0.4490318
0.063731797 -0.16534638 0.44903189
0.064902365 -0.16534619 0.44903195
0.066072941 -0.165346 0.44903204
0.067243509 -0.16534579 0.44903213
0.068414077 -0.16534559 0.44903219
0.069584653 -0.1653454 0.44903228
0.070755221 -0.16534521 0.44903237
0.071925797 -0.16534501 0.44903243
0.073096365 -0.16534482 0.44903252
0.074266933 -0.16534463 0.4490326
0.075269632 -0.16497618 0.44803265
0.076437593 -0.16497599 0.44803274
0.077432454 -0.16460752 0.44703284
0.078597821 -0.16460733 0.4470329
0.079584859 -0.16423889 0.44603297
0.080566697 -0.16387044 0.44503307
0.081726842 -0.16387025 0.44503316
0.082700856 -0.16350181 0.44403324
0.08366964 -0.16313337 0.44303331
0.08482457 -0.16313317 0.4430334
0.085785545 -0.16276473 0.44203347
0.086937867 -0.16276453 0.44203356
0.088090189 -0.16276434 0.44203365
0.08924251 -0.16276415 0.44203371
0.090190448 -0.1623957 0.44103378
0.091340162 -0.16239551 0.44103387
0.092489883 -0.16239531 0.44103393
0.093639597 -0.16239512 0.44103402
0.094789319 -0.16239493 0.44103408
0.09593904 -0.16239473 0.44103417
0.096868731 -0.16202632 0.44003427
0.098015837 -0.16202612 0.44003433
0.099162944 -0.16202593 0.44003442
0.1000822 -0.1616575 0.43903446
0.1012267 -0.1616573 0.43903455
0.10237121 -0.16165711 0.43903464
0.10351571 -0.16165693 0.4390347
0.10442193 -0.1612885 0.4380348
0.10556382 -0.16128831 0.43803486
0.10670573 -0.16128811 0.43803495
0.10784762 -0.16128792 0.43803504
0.10898951 -0.16128772 0.4380351
0.1101314 -0.16128755 0.43803519
0.1112733 -0.16128735 0.43803525
0.11241518 -0.16128716 0.43803534
0.11329795 -0.16091871 0.43703538
0.11443725 -0.16091852 0.43703544
0.11557653 -0.16091834 0.43703553
0.11671582 -0.16091815 0.43703559
0.11758555 -0.16054972 0.43603569
0.11872223 -0.16054954 0.43603575
0.11958414 -0.16018112 0.43503585
0.12071822 -0.16018093 0.43503594
0.12157229 -0.15981251 0.43403599
0.12270375 -0.15981232 0.43403608
0.12383521 -0.15981212 0.43403614
0.12467888 -0.15944371 0.43303624
0.12580773 -0.15944351 0.4330363
0.12664357 -0.15907508 0.43203637
0.12776983 -0.15907489 0.43203643
0.12889607 -0.15907471 0.43203652
0.13002233 -0.15907452 0.43203658
0.13084514 -0.15870611 0.43103668
0.1319688 -0.15870592 0.43103674
0.13309243 -0.15870574 0.43103683
0.13421607 -0.15870555 0.43103689
0.13502583 -0.15833712 0.43003696
0.13614687 -0.15833694 0.43003702
0.1372679 -0.15833674 0.43003711
0.13838895 -0.15833656 0.43003717
0.13950998 -0.15833637 0.43003726
0.14030412 -0.15796795 0.42903733
0.14142255 -0.15796778 0.42903742
0.14254098 -0.15796758 0.42903748
0.14365941 -0.1579674 0.42903757
0.14477783 -0.15796721 0.42903763
0.14589627 -0.15796703 0.42903772
0.14667213 -0.15759863 0.42803779
0.14778796 -0.15759844 0.42803788
0.14890379 -0.15759826 0.42803794
0.15001962 -0.15759806 0.42803803
0.15113543 -0.15759788 0.42803809
0.15189566 -0.15722947 0.42703816
0.15300886 -0.15722929 0.42703822
0.15412208 -0.15722911 0.42703831
0.15523531 -0.15722892 0.42703837
0.15598249 -0.15686052 0.42603844
0.15709311 -0.15686032 0.42603853
0.15783247 -0.15649191 0.42503858
0.15894048 -0.15649173 0.42503867
0.16004848 -0.15649153 0.42503873
0.16115649 -0.15649135 0.42503881
0.16188282 -0.15612295 0.42403889
0.16298822 -0.15612276 0.42403895
0.16409361 -0.15612258 0.42403904
0.16480953 -0.15575418 0.42303908
0.16591232 -0.155754 0.42303917
0.16701511 -0.15575381 0.42303923
0.16772059 -0.1553854 0.4220393
0.16882077 -0.15538523 0.42203939
0.16992095 -0.15538505 0.42203945
0.17102112 -0.15538487 0.42203954
0.17212132 -0.15538467 0.4220396
0.17322148 -0.1553845 0.42203969
0.17432167 -0.15538432 0.42203975
0.1750063 -0.15501593 0.42103982
0.17610389 -0.15501575 0.42103991
0.17720145 -0.15501556 0.42103997
0.17829904 -0.15501538 0.42104006
0.1793966 -0.1550152 0.42104012
0.18049417 -0.15501502 0.42104021
0.18116057 -0.15464661 0.42004025
0.18225552 -0.15464643 0.42004031
0.1833505 -0.15464625 0.4200404
0.18400644 -0.15427786 0.41904047
0.1850988 -0.15427768 0.41904053
0.18619116 -0.1542775 0.41904062
0.18683667 -0.1539091 0.41804066
0.18792643 -0.15390891 0.41804072
0.18901619 -0.15390873 0.41804081
0.18965127 -0.15354034 0.41704088
0.19073842 -0.15354016 0.41704094
0.19182557 -0.15353999 0.41704103
0.19291271 -0.15353981 0.41704109
0.19353478 -0.15317141 0.41604114
-0.30262512 -0.19787902 0.54100567
-0.30121464 -0.19787878 0.54100573
-0.29980427 -0.19787854 0.54100585
-0.2978422 -0.19751255 0.54000598
-0.29643434 -0.19751233 0.5400061
-0.29502654 -0.19751209 0.54000616
-0.29361874 -0.19751185 0.54000628
-0.29221094 -0.19751161 0.5400064
-0.29080307 -0.19751139 0.54000646
-0.28939527 -0.19751115 0.54000658
-0.28798747 -0.19751091 0.54000664
-0.28657967 -0.19751067 0.54000676
-0.052479617 -0.17297138 0.47302365
-0.051354941 -0.17333688 0.47402373
-0.050225057 -0.17370236 0.47502381
-0.048986696 -0.17370217 0.47502387
-0.047748342 -0.17370196 0.47502396
-0.046509985 -0.17370175 0.47502404
-0.045271628 -0.17370154 0.47502413
-0.043940447 -0.17333564 0.47402424
-0.042704701 -0.17333543 0.47402433
-0.041468952 -0.17333522 0.47402442
-0.040233202 -0.17333503 0.4740245
-0.03891506 -0.17296912 0.47302458
-0.037681919 -0.17296891 0.47302467
-0.036448777 -0.1729687 0.47302476
-0.035215639 -0.17296851 0.47302485
-0.033982497 -0.1729683 0.47302493
-0.032749355 -0.17296809 0.47302499
-0.031449459 -0.17260219 0.47202513
-0.030218925 -0.172602 0.47202522
-0.028988393 -0.17260179 0.47202528
-0.027698928 -0.17223591 0.47102538
-0.026471 -0.17223571 0.47102547
-0.025243074 -0.1722355 0.47102553
-0.024015147 -0.1722353 0.47102562
-0.022787217 -0.1722351 0.47102571
-0.021559291 -0.17223489 0.47102579
-0.020331364 -0.17223468 0.47102588
-0.019103436 -0.17223448 0.47102594
-0.017837433 -0.17186859 0.47002608
-0.016612114 -0.17186838 0.47002617
-0.015386795 -0.17186819 0.47002622
-0.014161473 -0.17186798 0.47002631
-0.012936154 -0.17186777 0.4700264
-0.011685793 -0.17150187 0.46902648
-0.01046308 -0.17150168 0.46902657
-0.0092403674 -0.17150147 0.46902665
-0.0080004353 -0.17113559 0.46802676
-0.0067657176 -0.17076971 0.46702686
-0.0055482183 -0.17076951 0.46702692
-0.0043307198 -0.1707693 0.46702701
-0.0031064306 -0.17040342 0.46602711
-0.0018915387 -0.17040323 0.4660272
-0.00067664677 -0.17040302 0.46602729
0.00053721434 -0.17003717 0.46502739
0.0017494992 -0.17003696 0.46502748
0.0029617839 -0.17003675 0.46502757
0.0041740686 -0.17003655 0.46502763
0.005386353 -0.17003635 0.46502772
0.0065845726 -0.16967046 0.46402779
0.0077942503 -0.16967025 0.46402788
0.009003927 -0.16967006 0.46402797
0.010213605 -0.16966985 0.46402806
0.011398789 -0.16930398 0.46302816
0.01260586 -0.16930379 0.46302825
0.013812931 -0.16930358 0.46302831
0.015020001 -0.16930339 0.4630284
0.016192148 -0.1689375 0.46202847
0.017396612 -0.16893731 0.46202856
0.018601075 -0.16893712 0.46202865
0.019762795 -0.16857125 0.46102875
0.020964652 -0.16857104 0.46102884
0.02211855 -0.16820516 0.46002892
0.023317799 -0.16820496 0.46002901
0.024463879 -0.16783911 0.45902911
0.02566052 -0.16783892 0.45902917
0.026798779 -0.16747305 0.4580293
0.027992815 -0.16747284 0.45802936
0.029123247 -0.16710699 0.45702943
0.030314676 -0.16710679 0.45702952
0.031506106 -0.16710658 0.45702961
0.032697532 -0.16710639 0.45702967
0.033814933 -0.16674052 0.4560298
0.035003755 -0.16674033 0.45602986
0.036192577 -0.16674013 0.45602995
0.037381399 -0.16673993 0.45603004
0.038485758 -0.16637406 0.45503011
0.039671972 -0.16637386 0.45503017
0.040858187 -0.16637367 0.45503026
0.041952122 -0.1660078 0.45403036
0.043135729 -0.16600761 0.45403045
0.044319335 -0.16600741 0.45403051
0.045502946 -0.16600722 0.4540306
0.046686552 -0.16600701 0.45403069
0.047764849 -0.16564116 0.45303077
0.048945848 -0.16564097 0.45303085
0.050126847 -0.16564077 0.45303091
0.051307846 -0.16564058 0.453031
0.052488849 -0.16564037 0.45303109
0.053669848 -0.16564018 0.45303115
0.05472989 -0.16527432 0.45203125
0.055908281 -0.16527413 0.45203134
0.056960512 -0.16490829 0.45103145
0.058136296 -0.1649081 0.45103151
0.059312083 -0.1649079 0.4510316
0.060353875 -0.16454203 0.45003167
0.061527051 -0.16454184 0.45003176
0.062700227 -0.16454165 0.45003182
0.063731603 -0.16417581 0.44903192
0.064902171 -0.16417561 0.44903201
0.066072747 -0.16417542 0.4490321
0.067243315 -0.16417521 0.44903216
0.068413883 -0.16417502 0.44903225
0.069584459 -0.16417482 0.44903234
0.070755027 -0.16417463 0.4490324
0.071925603 -0.16417444 0.44903249
0.073096171 -0.16417424 0.44903257
0.074266739 -0.16417405 0.44903263
0.075437315 -0.16417386 0.44903272
0.076437391 -0.163808 0.4480328
0.077605359 -0.16380781 0.44803286
0.078597628 -0.16344196 0.44703296
0.079584666 -0.16307613 0.44603303
0.080747418 -0.16307594 0.44603312
0.081726648 -0.1627101 0.44503319
0.082700662 -0.16234428 0.44403329
0.083858199 -0.16234408 0.44403338
0.084824383 -0.16197823 0.44303343
0.085785359 -0.16161239 0.44203353
0.086937681 -0.1616122 0.44203362
0.088090003 -0.161612 0.44203368
0.089242324 -0.16161181 0.44203377
0.090190254 -0.16124599 0.44103384
0.091339968 -0.16124579 0.4410339
0.09248969 -0.1612456 0.44103399
0.093639404 -0.16124541 0.44103405
0.094789125 -0.16124521 0.44103414
0.095938846 -0.16124502 0.44103423
0.096868537 -0.16087921 0.4400343
0.098015644 -0.16087902 0.44003439
0.09916275 -0.16087882 0.44003448
0.10030986 -0.16087864 0.44003454
0.10122651 -0.16051279 0.43903461
0.10237101 -0.1605126 0.43903467
0.10351551 -0.16051242 0.43903476
0.10442174 -0.16014659 0.43803486
0.10556363 -0.1601464 0.43803492
0.10670554 -0.16014621 0.43803501
0.10784743 -0.16014601 0.43803507
0.10898932 -0.16014582 0.43803516
0.11013121 -0.16014564 0.43803522
0.11127311 -0.16014545 0.43803531
0.11241499 -0.16014525 0.4380354
0.1135569 -0.16014506 0.43803546
0.1146988 -0.16014488 0.43803555
0.11557634 -0.15977906 0.43703556
0.11671563 -0.15977886 0.43703565
0.11785492 -0.15977867 0.43703574
0.11872204 -0.15941286 0.43603581
0.11985872 -0.15941267 0.4360359
0.12071802 -0.15904684 0.43503597
0.12185209 -0.15904666 0.43503606
0.12270357 -0.15868084 0.43403611
0.12383503 -0.15868065 0.4340362
0.1249665 -0.15868047 0.43403625
0.12580755 -0.15831465 0.43303636
0.12693641 -0.15831447 0.43303642
0.12776963 -0.15794864 0.43203649
0.12889588 -0.15794846 0.43203655
0.13002214 -0.15794827 0.43203664
0.13114838 -0.15794809 0.4320367
0.1319686 -0.15758227 0.4310368
0.13309224 -0.15758209 0.43103686
0.13421588 -0.1575819 0.43103695
0.13533953 -0.15758172 0.43103701
0.13614668 -0.15721589 0.43003708
0.13726771 -0.1572157 0.43003714
0.13838875 -0.15721552 0.43003723
0.13950978 -0.15721533 0.43003729
0.14063083 -0.15721513 0.43003738
0.14175187 -0.15721495 0.43003747
0.14254078 -0.15684915 0.42903754
0.14365922 -0.15684897 0.4290376
0.14477764 -0.15684877 0.42903769
0.14589608 -0.15684859 0.42903778
0.1470145 -0.1568484 0.42903784
0.14813294 -0.15684822 0.42903793
0.14890359 -0.15648243 0.428038
0.15001942 -0.15648223 0.42803806
0.15113524 -0.15648206 0.42803815
0.15225106 -0.15648186 0.42803821
0.15300868 -0.15611607 0.42703828
0.15412191 -0.15611589 0.42703834
0.15523513 -0.1561157 0.42703843
0.15598232 -0.1557499 0.4260385
0.15709293 -0.15574971 0.42603859
0.15783229 -0.1553839 0.42503864
0.1589403 -0.15538372 0.4250387
0.16004831 -0.15538353 0.42503878
0.16115631 -0.15538335 0.42503884
0.16188264 -0.15501755 0.42403892
0.16298804 -0.15501736 0.42403901
0.16409343 -0.15501718 0.4240391
0.16480935 -0.15465137 0.42303914
0.16591214 -0.15465119 0.4230392
0.16701493 -0.154651 0.42303929
0.16811772 -0.15465082 0.42303935
0.16882059 -0.15428504 0.42203942
0.16992077 -0.15428486 0.42203951
0.17102094 -0.15428469 0.42203957
0.17212114 -0.15428449 0.42203966
0.17322131 -0.15428431 0.42203972
0.17432149 -0.15428413 0.42203981
0.17542167 -0.15428394 0.42203987
0.17652185 -0.15428376 0.42203996
0.17720127 -0.15391798 0.42104003
0.17829886 -0.1539178 0.42104009
0.17939642 -0.15391763 0.42104018
0.180494 -0.15391745 0.42104024
0.18116038 -0.15355164 0.42004028
0.18225533 -0.15355146 0.42004037
0.18335031 -0.15355128 0.42004043
0.18400624 -0.15318549 0.4190405
0.1850986 -0.15318531 0.41904059
0.18619096 -0.15318513 0.41904065
0.1868365 -0.15281934 0.41804069
0.18792625 -0.15281914 0.41804078
0.18901601 -0.15281896 0.41804084
0.19010575 -0.15281878 0.41804093
0.19073825 -0.15245302 0.417041
0.19182539 -0.15245284 0.41704106
0.19291253 -0.15245266 0.41704115
0.19399969 -0.15245247 0.41704121
-0.30262536 -0.19646859 0.54100573
-0.30121487 -0.19646835 0.54100579
-0.29980451 -0.19646811 0.54100591
-0.29839408 -0.19646789 0.54100597
-0.29698366 -0.19646765 0.54100609
-0.29502678 -0.19610427 0.54000622
-0.29361898 -0.19610403 0.54000634
-0.29221117 -0.1961038 0.54000646
-0.29080331 -0.19610357 0.54000652
-0.28939551 -0.19610333 0.54000664
-0.28798771 -0.1961031 0.5400067
-0.28657991 -0.19610286 0.54000682
-0.2851721 -0.19610263 0.54000694
-0.052479822 -0.17173825 0.47302371
-0.05135515 -0.17210114 0.47402379
-0.050225262 -0.17246401 0.47502384
-0.048986901 -0.17246382 0.47502393
-0.047748547 -0.17246361 0.47502401
-0.04651019 -0.1724634 0.4750241
-0.045271832 -0.17246319 0.47502419
-0.044033479 -0.17246298 0.47502425
-0.042795125 -0.17246278 0.47502434
-0.04146916 -0.17209949 0.47402447
-0.040233411 -0.17209929 0.47402456
-0.038997661 -0.17209908 0.47402462
-0.037761915 -0.17209888 0.47402471
-0.036448982 -0.17173557 0.47302482
-0.035215843 -0.17173538 0.47302487
-0.033982702 -0.17173517 0.47302496
-0.03274956 -0.17173496 0.47302505
-0.031516418 -0.17173475 0.47302514
-0.03021913 -0.17137147 0.47202525
-0.028988598 -0.17137127 0.47202533
-0.027758064 -0.17137106 0.47202542
-0.026471205 -0.17100778 0.4710255
-0.025243279 -0.17100757 0.47102559
-0.024015352 -0.17100736 0.47102568
-0.022787422 -0.17100717 0.47102576
-0.021559495 -0.17100696 0.47102585
-0.020331569 -0.17100675 0.47102591
-0.019103641 -0.17100655 0.471026
-0.017875714 -0.17100635 0.47102609
-0.016612317 -0.17064306 0.4700262
-0.015386999 -0.17064287 0.47002628
-0.014161677 -0.17064266 0.47002637
-0.012936358 -0.17064245 0.47002646
-0.011711038 -0.17064226 0.47002652
-0.010463283 -0.17027898 0.46902663
-0.0092405705 -0.17027877 0.46902671
-0.0080006383 -0.1699155 0.46802682
-0.0067659202 -0.16955221 0.46702689
-0.0055484208 -0.16955201 0.46702698
-0.0043309224 -0.1695518 0.46702707
-0.0031066327 -0.16918853 0.46602717
-0.0018917408 -0.16918834 0.46602726
-0.00067684887 -0.16918813 0.46602735
0.00053804292 -0.16918793 0.46602741
0.0017492976 -0.16882467 0.46502754
0.0029615823 -0.16882446 0.4650276
0.0041738669 -0.16882427 0.46502769
0.0053861514 -0.16882406 0.46502778
0.0065984363 -0.16882387 0.46502787
0.0077940491 -0.16846059 0.46402794
0.0090037258 -0.1684604 0.46402803
0.010213404 -0.16846019 0.46402809
0.011423081 -0.16846 0.46402818
0.012605659 -0.16809674 0.46302828
0.01381273 -0.16809653 0.46302837
0.0150198 -0.16809633 0.46302846
0.016226869 -0.16809613 0.46302855
0.017396413 -0.16773285 0.46202862
0.018600876 -0.16773266 0.46202871
0.019805338 -0.16773245 0.46202877
0.020964453 -0.16736919 0.46102887
0.022166308 -0.16736899 0.46102896
0.0233176 -0.16700572 0.46002904
0.024516853 -0.16700551 0.46002913
0.025660321 -0.16664228 0.45902923
0.026856963 -0.16664207 0.45902932
0.027992615 -0.16627881 0.45802942
0.029186649 -0.16627862 0.45802951
0.030380687 -0.16627842 0.45802957
0.031574719 -0.16627821 0.45802966
0.032697335 -0.16591497 0.45702973
0.033888765 -0.16591477 0.45702982
0.035080191 -0.16591457 0.45702991
0.03619238 -0.16555132 0.45603001
0.037381202 -0.16555111 0.45603007
0.038570024 -0.16555092 0.45603016
0.039758842 -0.16555072 0.45603025
0.040857989 -0.16518746 0.45503032
0.0420442 -0.16518725 0.45503038
0.043135531 -0.16482401 0.45403048
0.044319138 -0.16482382 0.45403057
0.045502748 -0.16482362 0.45403066
0.046686355 -0.16482341 0.45403075
0.047869965 -0.16482322 0.45403081
0.049053572 -0.16482303 0.4540309
0.050126649 -0.16445978 0.45303097
0.051307648 -0.16445959 0.45303106
0.052488651 -0.16445938 0.45303112
0.05366965 -0.16445918 0.45303121
0.054729696 -0.16409594 0.45203131
0.055908088 -0.16409574 0.4520314
0.057086479 -0.16409555 0.45203146
0.058136098 -0.16373231 0.45103157
0.059311885 -0.16373211 0.45103166
0.060353678 -0.16336887 0.45003173
0.061526854 -0.16336867 0.45003179
0.062700033 -0.16336848 0.45003188
0.063873217 -0.16336828 0.45003197
0.065046392 -0.16336809 0.45003203
0.066072553 -0.16300486 0.44903213
0.067243122 -0.16300465 0.44903222
0.06841369 -0.16300446 0.44903231
0.069739111 -0.1633673 0.45003235
0.070754834 -0.16300407 0.44903246
0.071925409 -0.16300388 0.44903255
0.073095977 -0.16300368 0.4490326
0.074266545 -0.16300349 0.44903269
0.075437121 -0.1630033 0.44903278
0.076607689 -0.1630031 0.44903284
0.077605166 -0.16263986 0.44803292
0.078597434 -0.16227661 0.44703302
0.079584472 -0.16191338 0.44603309
0.080747224 -0.16191319 0.44603315
0.081726454 -0.16154996 0.44503325
0.082700469 -0.16118675 0.44403335
0.083858006 -0.16118656 0.44403341
0.08482419 -0.16082332 0.44303349
0.085979119 -0.16082312 0.44303358
0.086937487 -0.16045989 0.44203365
0.088089809 -0.1604597 0.44203374
0.089242131 -0.1604595 0.44203383
0.090394452 -0.16045931 0.44203389
0.091339782 -0.16009608 0.44103396
0.092489503 -0.16009589 0.44103402
0.093639217 -0.16009569 0.44103411
0.094788939 -0.1600955 0.4410342
0.09593866 -0.1600953 0.44103426
0.097088374 -0.16009513 0.44103435
0.098015457 -0.15973191 0.44003445
0.099162564 -0.15973172 0.44003451
0.10030967 -0.15973154 0.4400346
0.10122631 -0.15936831 0.43903464
0.10237082 -0.15936811 0.43903473
0.10351532 -0.15936793 0.43903482
0.10465982 -0.15936774 0.43903488
0.10556344 -0.15900452 0.43803498
0.10670535 -0.15900433 0.43803504
0.10784724 -0.15900414 0.43803513
0.10898913 -0.15900394 0.43803522
0.11013102 -0.15900376 0.43803528
0.11127292 -0.15900357 0.43803537
0.1124148 -0.15900338 0.43803543
0.11355671 -0.15900318 0.43803552
0.1146986 -0.159003 0.43803561
0.11557615 -0.15863977 0.43703562
0.11671544 -0.15863958 0.43703571
0.11785472 -0.15863939 0.43703577
0.11872185 -0.15827619 0.43603587
0.11985853 -0.15827599 0.43603593
0.12099521 -0.1582758 0.43603602
0.12185191 -0.1579126 0.43503609
