# .PCD v0.7 - Point Cloud Data file format
VERSION 0.7
FIELDS x y z
SIZE 4 4 4
TYPE F F F
COUNT 1 1 1
WIDTH 1384
HEIGHT 1
VIEWPOINT 0 0 0 1 0 0 0
POINTS 1384
DATA ascii
0.17500308 -0.045022707 0.51390147
0.18492384 -0.045019835 0.51479983
0.19491819 -0.044959493 0.51539391
0.20487595 -0.044987548 0.51533234
0.21499744 -0.044983968 0.51470238
0.22502272 -0.045036111 0.51478016
0.23491274 -0.044953059 0.51516163
0.24430919 -0.043973297 0.51661307
0.25256062 -0.041692663 0.51690739
-0.2838484 -0.034150422 0.51019949
-0.27891743 -0.035251036 0.51023197
-0.19098416 -0.030908417 0.51026899
-0.18359055 -0.035375699 0.51050735
-0.17671353 -0.034997392 0.51060468
-0.16981862 -0.038588047 0.51001334
-0.13442355 -0.031911027 0.51021993
-0.10439342 -0.03506935 0.51096863
-0.095023252 -0.035209682 0.51228929
-0.085004613 -0.034903999 0.51173818
-0.075219311 -0.03366797 0.5106194
-0.06558767 -0.032763813 0.51045996
-0.055900689 -0.032802131 0.51026183
-0.044023789 -0.034941517 0.510934
-0.03495628 -0.034911212 0.51195258
-0.024917172 -0.035090912 0.51249963
-0.014764925 -0.035038672 0.51269692
-0.0049831569 -0.034933787 0.5127089
0.0048692496 -0.034974761 0.51279217
0.015091901 -0.035091478 0.51217598
0.025291538 -0.034917615 0.5119198
0.034974065 -0.035073131 0.51300234
0.0448725 -0.035137661 0.51375818
0.054733921 -0.035165884 0.51422703
0.065002218 -0.034932908 0.51415515
0.075207658 -0.035160985 0.51390529
0.085055247 -0.034922045 0.51383233
0.095136113 -0.034940165 0.5133692
0.10508641 -0.035107821 0.51369399
0.11502126 -0.035010573 0.51461262
0.1251722 -0.034889374 0.51458347
0.13521269 -0.035067331 0.5138275
0.14511003 -0.035083272 0.51391709
0.15503447 -0.034897182 0.51509035
0.16504893 -0.034851927 0.51478469
0.17513472 -0.034980077 0.51391941
0.18506281 -0.035018351 0.51516342
0.19494766 -0.034999657 0.51632667
0.204909 -0.034941066 0.51502115
0.21506801 -0.034818694 0.5154534
0.22503783 -0.035101488 0.51589727
0.23504974 -0.035036024 0.51549077
0.24512304 -0.034962967 0.51741582
0.25508636 -0.035046972 0.51750213
0.26421639 -0.033056196 0.5164662
0.27201617 -0.030941481 0.5165931
-0.30468786 -0.022415489 0.51035476
-0.29817963 -0.021937974 0.51015973
-0.19350497 -0.023911936 0.51030207
-0.18517017 -0.024541451 0.5104937
-0.17751858 -0.024999168 0.51039118
-0.14172821 -0.023422517 0.51043135
-0.13490097 -0.024884058 0.51089162
-0.12618937 -0.023520131 0.51101476
-0.11537795 -0.021877771 0.51032877
-0.1033954 -0.025077125 0.51045603
-0.095256202 -0.024998456 0.51239371
-0.085016444 -0.025029734 0.51273847
-0.074916348 -0.024877967 0.51169086
-0.064993829 -0.025003197 0.51186872
-0.054784141 -0.025076114 0.51181495
-0.0449511 -0.025183724 0.51166952
-0.035032187 -0.024971711 0.51191068
-0.024950357 -0.024888018 0.51168168
-0.015216607 -0.025063625 0.51205444
-0.0051357355 -0.024959195 0.51308793
0.0049233167 -0.024943924 0.51268214
0.014938449 -0.024876796 0.51152897
0.025091182 -0.024980703 0.51185149
0.035219852 -0.025128748 0.51312232
0.04500166 -0.024933774 0.51412815
0.054941148 -0.025093537 0.51435798
0.06499666 -0.024960743 0.51389962
0.07486511 -0.025138391 0.51379657
0.085060567 -0.024964707 0.51399422
0.095069394 -0.024982238 0.51369977
0.10513357 -0.024881795 0.51354325
0.11515842 -0.025099022 0.51430559
0.12507747 -0.025010662 0.51450425
0.13507807 -0.025122488 0.51429707
0.14509776 -0.024956904 0.51454592
0.15492046 -0.025116086 0.51493281
0.16501737 -0.024948627 0.51632613
0.17507389 -0.025143621 0.51524073
0.18487152 -0.024901425 0.51518369
0.19496202 -0.024979915 0.51634765
0.20510292 -0.025032669 0.51601487
0.21503739 -0.025044255 0.51629651
0.22501969 -0.025056642 0.51670474
0.23507243 -0.024973068 0.5158118
0.24494265 -0.024883797 0.51609492
0.25495654 -0.025075989 0.51724291
0.26501057 -0.024981307 0.51688033
0.27495825 -0.024901563 0.51678228
0.28433326 -0.0232077 0.51783693
0.29198354 -0.020983689 0.51870984
-0.3126086 -0.013614253 0.51136851
-0.30543217 -0.015024367 0.51074076
-0.29769981 -0.016354822 0.51033777
-0.25098258 -0.010942712 0.51034647
-0.24385576 -0.012532187 0.51050103
-0.23556407 -0.013724918 0.51060367
-0.22697829 -0.01164088 0.51045817
-0.19394907 -0.014892004 0.51044941
-0.1849599 -0.014961352 0.5107221
-0.17657281 -0.014316769 0.51042199
-0.16315505 -0.011430756 0.51028419
-0.15515439 -0.011620746 0.51050782
-0.14413047 -0.014698588 0.51045847
-0.1349756 -0.015127907 0.51147723
-0.12474489 -0.014932553 0.51188588
-0.11510491 -0.015278109 0.51075858
-0.10456304 -0.014581221 0.51057225
-0.095162533 -0.01514159 0.51193154
-0.085054062 -0.015045838 0.51206684
-0.074929439 -0.014732381 0.51166177
-0.064756677 -0.015124239 0.51220119
-0.055031054 -0.015027808 0.51270157
-0.045049019 -0.014915585 0.51242876
-0.035028879 -0.015169855 0.51211876
-0.024935424 -0.014911823 0.51196855
-0.014817447 -0.014981639 0.51203227
-0.005069152 -0.01503242 0.512842
0.0050651366 -0.014975015 0.51299989
0.01498061 -0.01494234 0.51210111
0.025044193 -0.015134484 0.51193064
0.034792908 -0.015092242 0.51306432
0.04480404 -0.014944019 0.51374298
0.054862093 -0.014968866 0.51373005
0.064981595 -0.014970913 0.51365715
0.075027548 -0.014998917 0.51383281
0.084968321 -0.015048606 0.51381433
0.094972707 -0.015012181 0.51446199
0.10505529 -0.014903429 0.51391613
0.11502302 -0.015159357 0.51452488
0.12493765 -0.015045566 0.51490676
0.13493051 -0.015065688 0.51413751
0.1450325 -0.0150403 0.51450819
0.15505208 -0.01494777 0.51505923
0.16491511 -0.014920047 0.51532984
0.17506361 -0.01505342 0.51520926
0.18503271 -0.014951508 0.51490998
0.19506855 -0.015037091 0.51626933
0.20501356 -0.014881437 0.51589847
0.21488304 -0.015188322 0.51599479
0.22499034 -0.014959989 0.51647294
0.23490256 -0.014974923 0.51657277
0.24502198 -0.0150583 0.51634067
0.25500679 -0.014848169 0.5165422
0.26506674 -0.015015631 0.51661855
0.27507007 -0.014993941 0.51651257
0.28502056 -0.015082281 0.51768106
0.29486889 -0.014770052 0.51907915
0.30400592 -0.012420649 0.51777577
0.31134638 -0.010758296 0.51737916
-0.32094175 -0.0015826188 0.51033813
-0.31495842 -0.0053655165 0.51056403
-0.3083159 -0.0071219951 0.51041108
-0.25054732 -0.005493605 0.51027584
-0.24414593 -0.0062305857 0.51048976
-0.23435256 -0.0051925061 0.5108754
-0.22492631 -0.0047222991 0.51118648
-0.21567123 -0.0036477461 0.51070875
-0.20413613 -0.0031004592 0.51024526
-0.19413966 -0.004477479 0.51047838
-0.18542463 -0.0051184795 0.5112524
-0.17522275 -0.0049832207 0.51087302
-0.16421467 -0.0046958043 0.51055419
-0.1553974 -0.0048088925 0.51156932
-0.14509965 -0.0047838497 0.51089829
-0.13493598 -0.0063599278 0.51028848
-0.12506416 -0.0076114405 0.51055932
-0.11514334 -0.0050878283 0.51049942
-0.10475798 -0.0046585659 0.51050031
-0.09504696 -0.0050107078 0.5112828
-0.08504355 -0.0048717689 0.51236081
-0.074691355 -0.0049636024 0.51227498
-0.064861603 -0.0052829594 0.51223558
-0.054933544 -0.0050622537 0.51232976
-0.04485089 -0.0047654738 0.51231104
-0.034974352 -0.0049627516 0.51275384
-0.024857065 -0.0051229494 0.51257277
-0.014925643 -0.0048580407 0.51262051
-0.0049019121 -0.0050598765 0.51319861
0.0050599594 -0.0050405948 0.51385635
0.014870737 -0.0048950831 0.51436907
0.024956821 -0.0051839999 0.51404405
0.035202213 -0.0050707138 0.51325041
0.044967595 -0.0048774146 0.51362365
0.05504822 -0.0048903492 0.51403749
0.064845353 -0.0050519183 0.51488847
0.074915446 -0.005130223 0.51501423
0.085018486 -0.0051026056 0.51429337
0.094896637 -0.0050511784 0.5149464
0.1049616 -0.0047300751 0.51499718
0.11489538 -0.0052755675 0.51547533
0.12494139 -0.0050783074 0.51583683
0.13515693 -0.0050189006 0.51546746
0.14498977 -0.0051010391 0.51504499
0.15502965 -0.005058764 0.51503867
0.16514972 -0.0049800202 0.51604372
0.17516723 -0.0049921595 0.51577514
0.18508275 -0.0048220898 0.51644385
0.19495706 -0.0052402536 0.51728338
0.20506422 -0.0050775073 0.51766276
0.21509719 -0.0050617955 0.51693398
0.22501348 -0.0050274692 0.51742738
0.23504622 -0.0050258152 0.51763928
0.24499601 -0.005006162 0.51692522
0.25504392 -0.0049053147 0.51723528
0.26498094 -0.0050694365 0.51696944
0.27503386 -0.005004806 0.51782548
0.28509215 -0.0050005061 0.51829028
0.29514322 -0.0050596879 0.51820296
0.3051106 -0.0049852668 0.51749134
0.31110147 -0.0072166193 0.51747328
-0.3309893 0.0092413351 0.51250571
-0.32405433 0.0054411469 0.51100284
-0.31707352 0.00595704 0.51029384
-0.30438498 0.0066617271 0.51010627
-0.29752383 0.00767721 0.51020151
-0.24134614 0.00083102658 0.51025981
-0.23251714 0.0033328931 0.51038688
-0.22473496 0.0049504498 0.51072258
-0.21485721 0.0047957818 0.51095545
-0.20479015 0.0053553456 0.51072007
-0.19487683 0.0051125251 0.51104468
-0.18511076 0.0049190838 0.51165146
-0.17506656 0.0048449077 0.51138961
-0.16485657 0.0050153364 0.51147562
-0.15506582 0.0049018478 0.51309657
-0.14491852 0.0051651443 0.51331973
-0.13461448 0.0049255621 0.51185763
-0.12522736 0.0056617362 0.51133025
-0.11495552 0.0050644102 0.51105046
-0.10508823 0.0050251326 0.51149464
-0.0949421 0.004968157 0.51170862
-0.085121058 0.0050854278 0.5122726
-0.075232804 0.0047927573 0.51283967
-0.065139025 0.0048414301 0.51306325
-0.055060863 0.0049160561 0.51236689
-0.045085602 0.0052121668 0.51212996
-0.035137452 0.0052523944 0.51313543
-0.025044862 0.0050822375 0.51408368
-0.015053723 0.0048228675 0.51335013
-0.0050013578 0.0049637216 0.51343286
0.0049226116 0.0048150108 0.51490682
0.015036213 0.0050125052 0.51525378
0.02505609 0.0049117436 0.51471078
0.035041276 0.0050869416 0.51397276
0.044901807 0.0049719927 0.51513779
0.054956648 0.0049626962 0.51569539
0.06487307 0.0051724729 0.51664597
0.075056337 0.004805245 0.51620626
0.085147567 0.0050519267 0.51511043
0.09516342 0.0050119744 0.51449317
0.10496135 0.005023519 0.51559824
0.11490957 0.0047847661 0.51620197
0.12501936 0.0049651442 0.51638818
0.13503946 0.0049471701 0.51661772
0.14519568 0.0050004153 0.51586777
0.15500996 0.0049902559 0.51602989
0.16484894 0.0049900413 0.51670378
0.17483304 0.0051750708 0.51764095
0.18484329 0.0050263843 0.51732367
0.19496839 0.0049402835 0.51729095
0.20489386 0.0049481103 0.51758909
0.2149435 0.0050083892 0.51760781
0.22504842 0.0051064747 0.51810431
0.23504519 0.0049596569 0.51792806
0.24508505 0.0049415836 0.51772845
0.25488594 0.0049964492 0.51769179
0.2649509 0.0048907972 0.51792902
0.27495968 0.0050388104 0.51811606
0.28503367 0.0051369178 0.51903999
0.29506975 0.0049874363 0.51827961
0.30437261 0.0046383785 0.51845795
-0.33238664 0.01575397 0.51169938
-0.32555461 0.015075052 0.51287502
-0.31493765 0.014996463 0.51167136
-0.30542752 0.016027292 0.51057786
-0.29848942 0.013797332 0.51010931
-0.23335096 0.017348029 0.5104205
-0.22506799 0.015007808 0.51155585
-0.2148311 0.014819588 0.51175416
-0.20465168 0.014917626 0.51113993
-0.19476685 0.014941673 0.51135707
-0.18526785 0.014935007 0.51238495
-0.17506039 0.014996116 0.51227242
-0.16500907 0.01499846 0.51223505
-0.15503779 0.015034852 0.51280469
-0.14506219 0.015115771 0.51323718
-0.13497761 0.015131119 0.51301593
-0.1252104 0.015291246 0.51326162
-0.11498053 0.014898471 0.51307422
-0.10504505 0.014902638 0.51308507
-0.095086887 0.014865949 0.51339298
-0.084960103 0.014823312 0.5136016
-0.074908189 0.01493011 0.51395363
-0.064888939 0.015199875 0.51397824
-0.055017967 0.01503538 0.51321369
-0.044955965 0.015167915 0.51230103
-0.03492577 0.015064985 0.51295829
-0.025053939 0.015103473 0.51455343
-0.014790283 0.015047667 0.51382053
-0.0048147696 0.015028197 0.51283294
0.005057157 0.014941636 0.5132755
0.014870691 0.014942021 0.51467794
0.024932776 0.01499414 0.51526564
0.035172265 0.014950281 0.51441354
0.045021556 0.015044672 0.51513135
0.055032577 0.015087879 0.51611078
0.065095603 0.015004912 0.51637793
0.074877016 0.014964974 0.51681536
0.085099682 0.015157248 0.51576447
0.095207222 0.014905994 0.51488
0.10507096 0.015018977 0.51544267
0.11503749 0.014962757 0.51647735
0.12513456 0.014953886 0.51710296
0.1350394 0.014920861 0.51810366
0.14510655 0.015033449 0.51794058
0.15509224 0.015025043 0.51720929
0.16516328 0.015074302 0.51662874
0.1751467 0.015163337 0.51725316
0.18511438 0.014981479 0.51771605
0.19505024 0.014902511 0.51734561
0.20503077 0.01493666 0.51809341
0.21503422 0.015050086 0.51784879
0.22500744 0.015130958 0.51778084
0.23502785 0.015075535 0.51717746
0.24491158 0.014929719 0.51743096
0.25504038 0.014903973 0.51856393
0.264768 0.014586127 0.5192005
0.27501601 0.014994308 0.51806283
0.28506309 0.015038114 0.51878297
0.29499573 0.015040877 0.51894444
0.30227861 0.014303847 0.51830488
-0.33258033 0.023759047 0.51097637
-0.325185 0.025073063 0.51226306
-0.31517512 0.024847733 0.51257497
-0.30511883 0.025349397 0.51141524
-0.29631349 0.026576808 0.51066172
-0.2864258 0.029445266 0.51023513
-0.2712 0.028769284 0.51038259
-0.26417401 0.027336411 0.51081717
-0.25446504 0.026761163 0.51092643
-0.24469042 0.025855547 0.51108736
-0.23496966 0.025021022 0.51206988
-0.22489247 0.024833359 0.5132497
-0.21491976 0.024826432 0.5129081
-0.20481822 0.025093868 0.51175869
-0.1948421 0.025032312 0.51166439
-0.18507753 0.025063425 0.51282984
-0.17522986 0.02510638 0.51272064
-0.1650462 0.025237804 0.51148546
-0.15538408 0.02475597 0.51091766
-0.14409068 0.024062434 0.51119369
-0.13475613 0.025271477 0.51209408
-0.12496046 0.025045857 0.51339042
-0.11507351 0.02494354 0.51438051
-0.10496139 0.024874654 0.51456338
-0.09500546 0.024978591 0.51400012
-0.085048974 0.024923936 0.51344913
-0.074927352 0.024991283 0.51339293
-0.065021425 0.025334129 0.51438773
-0.055143405 0.024947854 0.51514131
-0.044901788 0.025133001 0.51438802
-0.034801073 0.024905624 0.51377231
-0.025044562 0.025047874 0.51414919
-0.014904373 0.025212467 0.51375216
-0.0050762817 0.025012914 0.51392263
0.0048743002 0.02497617 0.51401228
0.014909445 0.024860583 0.51431823
0.024920221 0.02518042 0.51511973
0.035237916 0.025130142 0.51451421
0.045030508 0.025117911 0.51493114
0.054955859 0.025086571 0.51539278
0.065014362 0.025035258 0.51565987
0.075059533 0.024957146 0.51579791
0.085055456 0.024974767 0.51568419
0.09503635 0.024979381 0.51534945
0.1050906 0.024945077 0.51580226
0.1150638 0.025064034 0.51647365
0.12501477 0.025062498 0.51744652
0.13498646 0.024945958 0.51885343
0.14522102 0.024806511 0.51883686
0.15498216 0.024965571 0.51731575
0.16498682 0.025003942 0.51638758
0.17489178 0.024886051 0.51677775
0.18502907 0.024903608 0.51701349
0.19500574 0.025091046 0.51835799
0.20350276 0.023737879 0.51950401
0.21567167 0.024869073 0.51876593
0.2249877 0.024921978 0.51828259
0.23489156 0.024732608 0.51880157
0.24500507 0.025007075 0.5178827
0.25503457 0.025204331 0.51745248
0.26475099 0.025234124 0.51877254
0.275536 0.025058037 0.51892793
0.28507212 0.024982322 0.51872295
0.29486725 0.024614843 0.5192337
0.30076331 0.021949675 0.5185256
-0.34282452 0.037987493 0.51023465
-0.33435559 0.036945716 0.51054925
-0.32515654 0.034908194 0.51110202
-0.31543589 0.034709025 0.51191872
-0.30499515 0.03517396 0.51198798
-0.29485983 0.035176206 0.51196188
-0.28482237 0.035467401 0.51160634
-0.27489224 0.035138302 0.51159233
-0.26508036 0.035167068 0.51251173
-0.2550455 0.034866598 0.51272696
-0.24468404 0.034856357 0.51233381
-0.23449972 0.034775756 0.51223916
-0.22505213 0.034800291 0.51222116
-0.2152783 0.035039492 0.51182967
-0.20484202 0.035091009 0.5112552
-0.19493032 0.034879126 0.5124467
-0.18507965 0.034967482 0.51419491
-0.17505802 0.035270188 0.51430857
-0.16484798 0.035156 0.51352358
-0.15483564 0.035180602 0.51215917
-0.14584069 0.037124064 0.51087648
-0.13411924 0.035384577 0.51057762
-0.12515095 0.034973525 0.51249641
-0.11505554 0.034699563 0.51357627
-0.10492012 0.034976099 0.51321262
-0.094870083 0.035029385 0.51314163
-0.084837511 0.034932569 0.51320636
-0.074997656 0.034864284 0.51348972
-0.065133765 0.035015486 0.51508212
-0.055054132 0.035168145 0.51612049
-0.044926479 0.035117779 0.51523614
-0.035023391 0.035129484 0.51419538
-0.025032066 0.035000548 0.51437235
-0.015054807 0.034814164 0.51560521
-0.0049928376 0.035104565 0.51615816
0.0051556989 0.03496217 0.51590323
0.015088729 0.034812301 0.51625913
0.024876701 0.035054401 0.51680988
0.034986679 0.035016138 0.51614898
0.044944625 0.035165258 0.51597148
0.054925591 0.035107113 0.51610786
0.064966455 0.034994096 0.51650482
0.074975513 0.034772564 0.5167973
0.085087821 0.035029061 0.51621777
0.09492477 0.034962561 0.51609176
0.10496594 0.03490724 0.51622015
0.11512177 0.035018418 0.51657844
0.12515838 0.035126895 0.51722968
0.13503419 0.034994036 0.51857054
0.1448696 0.03536398 0.51933044
0.15496562 0.034797423 0.51885664
0.16498423 0.034943532 0.51792336
0.1751143 0.034924794 0.51768106
0.18509893 0.034910776 0.51716894
0.19504526 0.034948714 0.51789987
0.20487173 0.035234142 0.51927638
0.21495014 0.03497868 0.51887602
0.22502929 0.034955252 0.51878124
0.23264664 0.034541667 0.5195303
0.24650595 0.034697507 0.51918364
0.25496635 0.035090175 0.51875889
0.26469511 0.034696102 0.51908964
0.27516231 0.033835918 0.51934057
0.28500414 0.034284562 0.51903993
0.29292661 0.033730354 0.51968455
-0.35224056 0.047538828 0.51123321
-0.34478986 0.045239218 0.51102823
-0.33488065 0.045046173 0.51139176
-0.32512382 0.044826224 0.51179647
-0.31474301 0.044988878 0.51202244
-0.30479962 0.045015778 0.51207364
-0.29512647 0.044961791 0.51274031
-0.28508133 0.045105942 0.51345998
-0.27451694 0.044992398 0.51317149
-0.26503038 0.045104198 0.51337618
-0.25543144 0.04503382 0.51325172
-0.24524604 0.044935234 0.51275784
-0.23489477 0.044852447 0.51212192
-0.22499168 0.044943325 0.51197135
-0.21521796 0.04505742 0.51188463
-0.20523798 0.044915371 0.51140189
-0.19483522 0.045050904 0.51168495
-0.18480304 0.044976752 0.51330662
-0.1746273 0.044923689 0.51428837
-0.16477568 0.044991106 0.5143975
-0.15512556 0.045052197 0.51418209
-0.14489995 0.045300484 0.51314342
-0.13470595 0.044969045 0.5122388
-0.12503642 0.044915181 0.51335078
-0.11506939 0.044787176 0.51439345
-0.10506678 0.045044135 0.51396531
-0.095101953 0.045099936 0.51370406
-0.085067049 0.044986695 0.51401073
-0.074972183 0.044963442 0.5141502
-0.064916745 0.044994898 0.51435417
-0.055108629 0.044971671 0.51491392
-0.044779245 0.045073912 0.51472622
-0.034859177 0.045083892 0.5153417
-0.024784967 0.044933107 0.51646048
-0.014922334 0.04478525 0.51797593
-0.0048303064 0.045268185 0.5172931
0.0051642112 0.044990577 0.51628155
0.014974318 0.045042459 0.51689613
0.024943152 0.044995155 0.51774096
0.034920853 0.045003653 0.51820678
0.045048568 0.045090277 0.51740867
0.054984793 0.044954266 0.51683521
0.065023169 0.045007199 0.51725835
0.075121403 0.044841364 0.51784062
0.084970951 0.04517775 0.51729357
0.094906889 0.04497584 0.51721895
0.10513864 0.044967752 0.51723778
0.11501805 0.045002822 0.51770782
0.12502038 0.044989668 0.51793855
0.13499175 0.045105472 0.51811087
0.14495525 0.044932723 0.51832551
0.15507801 0.045022357 0.51929659
0.16500136 0.045045208 0.51898229
0.17507644 0.044964273 0.51897621
0.18502688 0.045027748 0.51857412
0.19496389 0.044983655 0.51825202
0.20488314 0.045202963 0.51915938
0.21539883 0.045095421 0.51890594
0.225053 0.044910647 0.51839149
0.23458339 0.045459367 0.51897764
0.24548547 0.045312688 0.51940924
0.2543402 0.044346415 0.5194478
0.26403308 0.045297079 0.51966369
0.27310246 0.048688799 0.51977783
0.28780594 0.044036951 0.51971549
0.29196694 0.044098657 0.51966143
-0.36004883 0.059765607 0.51008409
-0.35407665 0.054925155 0.51072305
-0.34452897 0.054906901 0.510948
-0.33460522 0.055167791 0.51100725
-0.3248477 0.054741964 0.51114899
-0.31474081 0.055201713 0.5112986
-0.30486819 0.055094872 0.51161408
-0.29501042 0.055099498 0.51274312
-0.28525105 0.054933582 0.51420319
-0.27545539 0.0548057 0.51400149
-0.2650401 0.054918699 0.51298964
-0.2549381 0.055017915 0.51239812
-0.24534255 0.055045202 0.51280493
-0.23496823 0.054997165 0.51300371
-0.22493961 0.054955699 0.51310742
-0.21520855 0.055077787 0.51321286
-0.20515673 0.055145644 0.51302636
-0.19492763 0.054753095 0.51233196
-0.18479866 0.054975301 0.51249629
-0.17499751 0.054993879 0.51392096
-0.16492856 0.054789878 0.51393801
-0.15505326 0.054990493 0.51365471
-0.14519143 0.055220198 0.51423585
-0.13505182 0.054948911 0.51405799
-0.1251304 0.054745521 0.51413023
-0.11500838 0.05491244 0.51483816
-0.10511146 0.055246979 0.51556361
-0.094704106 0.054828227 0.51475137
-0.084798507 0.054952331 0.51415151
-0.075073883 0.055112142 0.51437092
-0.064977251 0.054981731 0.51449913
-0.055117823 0.054940023 0.51474005
-0.045139149 0.054973923 0.51511246
-0.035000887 0.055103861 0.51542211
-0.025178321 0.054956727 0.5163964
-0.015258406 0.055017088 0.51712543
-0.0050743558 0.055066161 0.51677316
0.0050481074 0.054939058 0.51615101
0.014768521 0.054965865 0.51695216
0.024964152 0.055060484 0.51782048
0.035025463 0.054997128 0.5189088
0.044992875 0.055157308 0.51889688
0.055073038 0.054874498 0.51796752
0.064917542 0.055042051 0.51800996
0.075063147 0.055081602 0.51831031
0.085138626 0.055022437 0.51864272
0.095112376 0.054895051 0.51801056
0.10487117 0.054984059 0.51738793
0.11504475 0.054887507 0.51745516
0.12510581 0.055003107 0.51762444
0.13499041 0.055056382 0.51870644
0.14494191 0.054958217 0.51878101
0.1550508 0.054648601 0.51919013
0.16526936 0.054885872 0.51909727
0.17500879 0.054965422 0.51905584
0.18533833 0.054180197 0.5193823
0.19505343 0.054945298 0.51874542
0.20483118 0.054904282 0.5189302
0.21495746 0.055088714 0.51836199
0.22503012 0.054872315 0.51770616
0.23499699 0.055110689 0.51823843
0.24504936 0.05492669 0.51915014
0.2544986 0.055099539 0.51943904
0.26532793 0.054918852 0.51951087
0.27473342 0.055543184 0.51947415
0.28360611 0.056046061 0.51972651
-0.3643831 0.069726035 0.51016241
-0.35409337 0.064443171 0.51018071
-0.34415373 0.064651296 0.51035881
-0.3348496 0.065022223 0.5106321
-0.32511821 0.065121442 0.51135665
-0.31495762 0.064799488 0.51175869
-0.3048881 0.064872123 0.51198995
-0.29485822 0.065028146 0.51294577
-0.28503117 0.065177716 0.51412106
-0.27502841 0.064892709 0.51414675
-0.2647014 0.065118164 0.51305437
-0.25490877 0.065071188 0.51249278
-0.24512111 0.064836569 0.51323366
-0.23515826 0.065074421 0.51371038
-0.22501819 0.06503354 0.51284254
-0.21472764 0.064682558 0.51185304
-0.20502129 0.065214284 0.51252842
-0.19526739 0.065158442 0.51398462
-0.18498424 0.065015957 0.51393032
-0.17494874 0.064890802 0.51487035
-0.16468628 0.065074712 0.51534992
-0.15471601 0.064951301 0.51485676
-0.1450668 0.064816564 0.51550651
-0.13508266 0.065091863 0.51562989
-0.1248339 0.064903833 0.51474386
-0.11502825 0.064993083 0.51464683
-0.10521173 0.064858086 0.51510245
-0.095057093 0.065099463 0.51458782
-0.08486332 0.065019093 0.5140413
-0.074850291 0.064865492 0.51440901
-0.065188386 0.06499023 0.51490545
-0.054900557 0.064960495 0.51447719
-0.045000155 0.064834096 0.51420581
-0.034923017 0.06508866 0.51481706
-0.02490508 0.064919055 0.51569605
-0.015069756 0.065082304 0.51700836
-0.0050743292 0.06500414 0.51729858
0.0050093695 0.064908363 0.51668906
0.015115995 0.065097451 0.5163427
0.025146468 0.064942047 0.51621985
0.034899637 0.064916544 0.51709622
0.044889327 0.065134749 0.51769078
0.054971889 0.064884931 0.51792496
0.064929672 0.065125212 0.51808769
0.074923307 0.064899266 0.51834756
0.084688872 0.065753274 0.51920933
0.095198393 0.065053441 0.51913422
0.10493434 0.064927377 0.51893312
0.11488786 0.064984731 0.51837718
0.12512851 0.065063506 0.51787984
0.13480107 0.064734437 0.51900572
0.14469491 0.063474886 0.51967388
0.15610203 0.065592021 0.51947415
0.16537885 0.065085925 0.51950657
0.17511068 0.064982519 0.51903492
0.18442369 0.065561615 0.51957273
0.19516769 0.064684868 0.51928002
0.2038428 0.063348964 0.5194127
0.21675736 0.064582728 0.51938897
0.224979 0.064933099 0.51892549
0.23476249 0.0640807 0.51923597
0.24418895 0.06436152 0.51941943
0.25571784 0.062456563 0.51979285
0.26468879 0.063998573 0.5197069
0.27416357 0.061181635 0.51974666
0.28174418 0.060623009 0.51963055
-0.37248644 0.077160835 0.51338601
-0.3647587 0.075100906 0.5116908
-0.35569206 0.075817928 0.51079607
-0.34499377 0.074993454 0.51066118
-0.33496663 0.07507275 0.51149392
-0.32511073 0.074965447 0.51262814
-0.31532061 0.074975185 0.51296222
-0.30458865 0.074594334 0.51222986
-0.29493576 0.075065553 0.51236922
-0.28535178 0.074875735 0.51314032
-0.27515516 0.074937142 0.51341212
-0.26502991 0.075205393 0.51343429
-0.25498766 0.075171687 0.51385486
-0.24508646 0.074833289 0.51464343
-0.2348019 0.075192295 0.51464945
-0.22484629 0.075025208 0.51367527
-0.21499573 0.075146273 0.51210648
-0.20482624 0.07471662 0.51182485
-0.19499245 0.075124137 0.51379323
-0.18479428 0.074824058 0.51452523
-0.174826 0.074985124 0.51566863
-0.1652821 0.075138696 0.51693028
-0.15487222 0.074832849 0.51675504
-0.14514971 0.07487423 0.51652783
-0.13514006 0.075209551 0.51682216
-0.12509541 0.075018369 0.51670533
-0.11531395 0.075039193 0.51700985
-0.10530362 0.075032562 0.51728517
-0.095021687 0.075079687 0.51650017
-0.085001804 0.074824177 0.51597345
-0.075047381 0.074985571 0.51595145
-0.065001696 0.074995399 0.51659143
-0.055208545 0.075017102 0.51672924
-0.045130026 0.074972562 0.51601917
-0.035169736 0.074905485 0.51585442
-0.025022049 0.074940212 0.51553273
-0.015183644 0.074887164 0.51614875
-0.0049988511 0.075048082 0.51671749
0.0049258755 0.075051673 0.51687902
0.015065659 0.075063027 0.51698613
0.025171105 0.075020567 0.51682073
0.035030898 0.074916013 0.51755857
0.045138154 0.075101055 0.51771587
0.054869089 0.074942373 0.51741266
0.064984217 0.075030997 0.51749015
0.075044349 0.074941479 0.5178166
0.085229374 0.074902989 0.51705068
0.095004089 0.075117849 0.51788694
0.1040047 0.074568219 0.51953119
0.11579142 0.073148422 0.51935786
0.12502229 0.074947141 0.51885837
0.13322517 0.075438045 0.51940507
0.14956729 0.071766518 0.51964647
0.15523843 0.075023524 0.51878405
0.16485894 0.075058483 0.51889455
0.17542428 0.0744932 0.51941389
0.18407837 0.074414797 0.51942098
0.19406061 0.072758459 0.51971072
0.21646991 0.073546886 0.51958001
0.22510871 0.074778341 0.51943707
0.23223624 0.07675501 0.51975906
0.24583337 0.071348943 0.5198558
0.25544751 0.071040154 0.51997519
0.26997891 0.074532792 0.51994914
-0.38113362 0.087087139 0.51465797
-0.37470064 0.084980391 0.51427829
-0.36527312 0.085201658 0.51304489
-0.3551468 0.085109971 0.51195139
-0.34494528 0.084989876 0.51210392
-0.33450815 0.084949926 0.51359373
-0.32536426 0.08510498 0.51547796
-0.315162 0.084827192 0.51507843
-0.30500126 0.085054204 0.5138669
-0.29492584 0.084829852 0.51324475
-0.28517321 0.085003071 0.51413071
-0.27494276 0.084914118 0.51431042
-0.26490161 0.084801547 0.51403213
-0.25489974 0.085101232 0.51428926
-0.2451387 0.084946148 0.51452607
-0.23482408 0.085125029 0.51468652
-0.22499271 0.084985808 0.51500809
-0.21523418 0.08514595 0.51482534
-0.20496304 0.084961846 0.51479656
-0.19522309 0.084964812 0.51501536
-0.18474974 0.084756449 0.5145269
-0.17472234 0.085024856 0.51475531
-0.16508751 0.084998861 0.5163821
-0.15504572 0.085059814 0.51693094
-0.14478773 0.084907308 0.5171532
-0.13472652 0.084898695 0.5171603
-0.12488016 0.084874719 0.51722372
-0.11500965 0.085219219 0.51746154
-0.10488596 0.084986322 0.51791471
-0.094881758 0.085057631 0.51782566
-0.084892727 0.084786236 0.51743048
-0.074985392 0.085124031 0.51718158
-0.065069266 0.084929787 0.51754814
-0.054867636 0.085071869 0.51817477
-0.044922736 0.085070141 0.51820016
-0.035124928 0.084970869 0.51782823
-0.024891017 0.085172795 0.51745492
-0.014912034 0.084949404 0.51763117
-0.0050729034 0.084932849 0.51765293
0.0049074693 0.08507219 0.51763207
0.014973072 0.0848943 0.51818472
0.025166033 0.08506912 0.51849771
0.035069518 0.084971234 0.51876503
0.045066711 0.085127704 0.51900995
0.055140354 0.084778853 0.51855642
0.064916544 0.084843665 0.51871622
0.075140446 0.084450312 0.51916766
0.084939092 0.084969945 0.5183323
0.095142923 0.084916763 0.51789367
0.10479556 0.085132219 0.5185318
0.11466335 0.086168595 0.51935428
0.12506436 0.084456533 0.51947665
0.13364804 0.084493563 0.51948994
0.14271809 0.085430332 0.51988238
0.15622778 0.082777306 0.51937056
0.1649148 0.084053412 0.51938796
0.17464821 0.082918644 0.51980007
0.18219194 0.083035089 0.51968175
0.21943608 0.080466107 0.51991302
0.22642769 0.083208427 0.51951629
0.23259813 0.083851665 0.51963264
-0.3840709 0.095561154 0.51403034
-0.37517294 0.095166951 0.51310194
-0.36520639 0.094774492 0.51216859
-0.35497734 0.095231958 0.51195681
-0.34483507 0.095063701 0.51301008
-0.33457264 0.094683707 0.5141719
-0.32519773 0.095252819 0.51577872
-0.31503502 0.095057391 0.51623285
-0.30487216 0.095196605 0.51533467
-0.29494634 0.09486644 0.51444739
-0.28492406 0.094914213 0.51482731
-0.27538633 0.095002763 0.51563412
-0.26486641 0.09510956 0.51510656
-0.25531718 0.095077358 0.51484579
-0.24523468 0.094570883 0.5143863
-0.23487411 0.095089667 0.51429772
-0.22517496 0.094914518 0.51516187
-0.21521248 0.095243372 0.51597357
-0.20482962 0.09502697 0.51616359
-0.19456235 0.094994292 0.51551652
-0.18467993 0.094928049 0.5145061
-0.1747658 0.094956629 0.51438099
-0.16524167 0.094845757 0.5158596
-0.15500002 0.094947353 0.51686943
-0.14514558 0.095107354 0.5179342
-0.13478549 0.094996326 0.51751983
-0.12490264 0.094860487 0.51663697
-0.11492945 0.095039167 0.51674843
-0.10478441 0.095055141 0.51735008
-0.094949 0.095026538 0.51790327
-0.084923096 0.094951108 0.51748961
-0.074727803 0.094902605 0.51758933
-0.065002121 0.094889015 0.51853794
-0.055095639 0.095212579 0.51911092
-0.044854101 0.094933152 0.51879257
-0.03490445 0.094911493 0.51844412
-0.024872469 0.095282555 0.51908034
-0.014985949 0.093083069 0.51958597
-0.0043377583 0.093926333 0.51949143
0.0051877876 0.094949715 0.51871389
0.015239667 0.095033772 0.51861471
0.024985397 0.095004521 0.51902092
0.034967486 0.094724372 0.51922739
0.04450829 0.094045483 0.51948744
0.054747503 0.092303671 0.51959968
0.061771683 0.091878943 0.51973182
0.078758851 0.092938796 0.51987952
0.08622852 0.094775952 0.51945436
0.09505976 0.095120341 0.51911789
0.1048445 0.094849013 0.51911575
0.11311543 0.092944592 0.51944745
0.14551291 0.095092945 0.51986605
0.16737145 0.094329104 0.51973498
0.17085433 0.094340406 0.51991701
-0.39239439 0.10559358 0.51449513
-0.38461915 0.10503286 0.51402551
-0.37487552 0.10502283 0.51257265
-0.36491814 0.10496113 0.51156372
-0.35498652 0.10520143 0.51153994
-0.34539887 0.10490607 0.51294452
-0.33517644 0.1051428 0.51334202
-0.32462731 0.10466742 0.5131914
-0.31483015 0.10527714 0.5139395
-0.30520985 0.10505055 0.51495451
-0.29459313 0.10502248 0.51456207
-0.28493938 0.10477299 0.51461875
-0.27514312 0.10505602 0.51517272
-0.26484564 0.10510171 0.51498568
-0.2551716 0.10499189 0.51506048
-0.24495159 0.10502138 0.51476878
-0.23482096 0.10500768 0.51431561
-0.22477581 0.10482252 0.51471317
-0.21529426 0.10520862 0.51589137
-0.20527521 0.10497232 0.51628476
-0.19555587 0.10499477 0.51653451
-0.18530412 0.10511924 0.51646996
-0.17507814 0.10479755 0.51580042
-0.16493042 0.10472871 0.5156486
-0.15453865 0.10504666 0.51591492
-0.14503607 0.10481972 0.5168435
-0.13503236 0.10502798 0.51669282
-0.12483923 0.10506163 0.51629215
-0.11494261 0.10514545 0.516702
-0.10494393 0.1049351 0.51754361
-0.095019102 0.10478124 0.51816058
-0.084897712 0.10487554 0.51691085
-0.074924797 0.105201 0.51625115
-0.065033458 0.10485028 0.51737761
-0.055003226 0.10505737 0.5182845
-0.045006175 0.10498187 0.51860052
-0.0348683 0.10511073 0.5187279
-0.024967939 0.1045944 0.5189783
-0.016867943 0.10484373 0.51958841
-0.0020931612 0.10119947 0.51973838
0.0061391518 0.1035474 0.51939505
0.01533627 0.10418842 0.51923001
0.024863502 0.10504134 0.5193851
0.032942317 0.10446121 0.51967132
0.045640379 0.10127514 0.51988405
0.056552459 0.1079696 0.51978332
0.062250044 0.10915601 0.51964962
0.086498126 0.10420341 0.51910055
0.095076174 0.10496462 0.51805735
0.1040843 0.10481936 0.5190171
0.111026 0.10441118 0.5197714
0.13644035 0.10801792 0.51982772
0.14440973 0.10323789 0.51991493
-0.39345321 0.1152375 0.51248175
-0.3851904 0.11521959 0.51272786
-0.37488848 0.11527222 0.51234376
-0.36524972 0.11506341 0.51216263
-0.35513577 0.11519583 0.51294768
-0.34489033 0.11491639 0.51353693
-0.33495507 0.11460342 0.51309854
-0.32487527 0.11490052 0.51222843
-0.31469426 0.1150376 0.51248401
-0.3055456 0.11518001 0.51428014
-0.29541239 0.11490776 0.51458073
-0.28487456 0.1150118 0.51427889
-0.27511758 0.11507743 0.51480001
-0.26528862 0.11492466 0.5148319
-0.25491601 0.11486352 0.51459914
-0.24494855 0.11526426 0.51422048
-0.23527938 0.11501289 0.51373613
-0.22521931 0.11508007 0.51447481
-0.2153668 0.11503899 0.51631135
-0.20508757 0.11479521 0.51743454
-0.19486675 0.11504655 0.51816982
-0.1850069 0.11514096 0.51877546
-0.17517231 0.11511485 0.51842666
-0.16506936 0.11522358 0.51737338
-0.15488724 0.1148027 0.51645708
-0.14513537 0.1149909 0.51650345
-0.1351559 0.11492698 0.51603025
-0.12514983 0.11491807 0.5158903
-0.11525517 0.1149339 0.51675159
-0.10530336 0.11479051 0.51783836
-0.095207259 0.11500832 0.51762402
-0.084880888 0.11499366 0.51590991
-0.074760005 0.11480886 0.51577544
-0.065100089 0.11504094 0.51726621
-0.055188522 0.11498544 0.51839501
-0.04580285 0.11393529 0.51923078
-0.03727641 0.11084138 0.51969349
-0.027111098 0.11071052 0.51989055
-0.014427565 0.11090244 0.51984555
-0.0088046342 0.11938608 0.51999342
0.0049650669 0.11847036 0.51987028
0.013995573 0.11510564 0.5199396
0.02620277 0.11433776 0.51962709
0.034583893 0.11546396 0.51941419
0.045664873 0.1188088 0.51962477
0.055962645 0.11548681 0.51914203
0.064347185 0.1157362 0.51928115
0.070329368 0.11807448 0.51990163
0.088845745 0.11253373 0.51962596
0.09522666 0.11485523 0.518888
0.10304937 0.11460689 0.51944315
0.13576938 0.11510851 0.51972991
0.1406543 0.11299554 0.51986337
-0.4025631 0.12754616 0.51254809
-0.3945646 0.12493521 0.51210731
-0.38474491 0.12490798 0.51277572
-0.37507614 0.12489354 0.51320857
-0.36482662 0.12496219 0.51355946
-0.35494229 0.12510033 0.51472652
-0.34514451 0.12530199 0.5155704
-0.33530384 0.12484271 0.51491994
-0.32522649 0.12503867 0.51369077
-0.31466311 0.12476126 0.51302326
-0.30466157 0.12498564 0.51384032
-0.29432166 0.12496633 0.51436043
-0.28468189 0.12481348 0.51418781
-0.27535248 0.12497281 0.51446402
-0.26537126 0.12517098 0.51479155
-0.25509 0.12498055 0.51456648
-0.24495654 0.12496752 0.51457304
-0.23473808 0.12524271 0.51451087
-0.22475882 0.1246848 0.51511669
-0.21493655 0.12500228 0.51723611
-0.20500603 0.12483123 0.51783741
-0.19484761 0.12512647 0.51751137
-0.18468437 0.12502462 0.51744217
-0.17505328 0.12510931 0.51788133
-0.1650074 0.12487685 0.51765537
-0.15499644 0.12500209 0.51710927
-0.14504738 0.12495524 0.51724434
-0.1347888 0.12514457 0.51737034
-0.12502693 0.12485372 0.51764446
-0.11496649 0.12483196 0.51784748
-0.10465947 0.12500249 0.51870263
-0.095061421 0.12494905 0.51917058
-0.085156478 0.12534453 0.51830512
-0.074908018 0.12483445 0.5175823
-0.064870425 0.12502295 0.5185467
-0.055018809 0.12494421 0.51929033
-0.045176245 0.12518574 0.51916248
-0.035232376 0.12645207 0.51912206
-0.024734344 0.12712146 0.51943761
-0.015269071 0.12586927 0.5196774
-0.0062873242 0.12677608 0.51965564
0.0059924899 0.12288777 0.51985317
0.015385801 0.12480741 0.51977819
0.025634833 0.12546036 0.51961446
0.03542212 0.12476561 0.51954645
0.045206048 0.1247834 0.51915801
0.055178363 0.12508333 0.51889938
0.064002775 0.12449273 0.51932442
0.071847253 0.12319238 0.51979452
0.094856076 0.12080593 0.51992875
0.10122973 0.12118759 0.51963854
0.13585079 0.12053477 0.51986915
-0.41292813 0.13691373 0.5159955
-0.40515962 0.13518013 0.5154177
-0.39536408 0.13492742 0.51575369
-0.3852036 0.1354125 0.51637435
-0.37517771 0.13459265 0.51552022
-0.36484143 0.13457009 0.51444203
-0.35493162 0.13485684 0.51441425
-0.34510621 0.13518527 0.51510245
-0.33524495 0.13536629 0.51589245
-0.32494512 0.13518147 0.51597613
-0.31478074 0.13507339 0.51556444
-0.30480146 0.13499278 0.51515746
-0.29517642 0.13505968 0.51488596
-0.28514355 0.13477539 0.51466656
-0.27490124 0.13501082 0.51502186
-0.26489019 0.13488743 0.51529539
-0.25462544 0.13517931 0.51505595
-0.24470246 0.13487943 0.5151633
-0.23512496 0.13500108 0.51545465
-0.22528003 0.13498688 0.51565582
-0.21535501 0.13485774 0.51647621
-0.20485711 0.13517097 0.51669407
-0.1950866 0.13515253 0.51675016
-0.18522359 0.13490269 0.51680648
-0.17522398 0.13475835 0.51731068
-0.16532494 0.13523825 0.51778096
-0.15524387 0.13483341 0.51781517
-0.145034 0.1348955 0.51799864
-0.13498159 0.1350425 0.51828802
-0.12478539 0.1349694 0.51859516
-0.11485783 0.13498747 0.51901889
-0.10487141 0.13494468 0.51900655
-0.095420063 0.13511479 0.51945895
-0.084225997 0.13432096 0.51936245
-0.075000718 0.13504174 0.51855344
-0.064942487 0.13513975 0.51854712
-0.055117216 0.13484587 0.51913172
-0.045180403 0.13497314 0.51888734
-0.035217416 0.13493848 0.51892948
-0.02499618 0.13493277 0.51885396
-0.015065799 0.13494316 0.51931447
-0.005656315 0.13496883 0.51962751
0.026542449 0.13394874 0.51970893
0.035515558 0.13537508 0.51953405
0.045117564 0.13547048 0.51960588
0.054871436 0.13422401 0.51965016
0.061593402 0.13231322 0.51974261
-0.42245141 0.14695109 0.51759237
-0.41512445 0.14497361 0.51715153
-0.40476832 0.14480476 0.51685685
-0.39455113 0.14505836 0.51715547
-0.38457215 0.14546452 0.51757056
-0.37529364 0.1448395 0.51734334
-0.36534202 0.14478244 0.51597077
-0.3553049 0.14494641 0.51446056
-0.34472823 0.14482902 0.51321846
-0.33500302 0.14463308 0.51390755
-0.32511207 0.14509335 0.51525515
-0.31532103 0.14541475 0.51671553
-0.30475873 0.14473528 0.51687998
-0.29471299 0.14524154 0.51626629
-0.28505805 0.1447604 0.51549447
-0.27507457 0.14502598 0.5156306
-0.26535955 0.14501648 0.5162105
-0.25516927 0.14473097 0.51589376
-0.24483459 0.14521475 0.51527071
-0.23487574 0.14502773 0.51497191
-0.22500931 0.14497787 0.51532769
-0.21477319 0.14471072 0.51579058
-0.20461266 0.14503603 0.51574582
-0.19475882 0.14494091 0.51651919
-0.18476927 0.14523491 0.51771295
-0.17487371 0.14490347 0.51815951
-0.16506125 0.14509895 0.51860392
-0.15510203 0.14461182 0.51913303
-0.144878 0.1445429 0.51938814
-0.13466443 0.14436474 0.51919538
-0.12473764 0.14446272 0.51904458
-0.11554228 0.14396155 0.51954347
-0.10500094 0.14508665 0.51945573
-0.094833098 0.14486544 0.51908165
-0.08603704 0.14505543 0.51966381
-0.074292935 0.14372899 0.51954681
-0.06460648 0.14406571 0.51942384
-0.055266313 0.14264111 0.51952636
-0.04545515 0.14238673 0.51967674
-0.033092383 0.14239459 0.51964778
-0.025079682 0.14417401 0.51958299
-0.015379185 0.14404508 0.51957071
-0.0049645151 0.14488752 0.51964676
0.028579714 0.14261185 0.51970214
0.035878066 0.14385152 0.51950932
0.044555202 0.14408837 0.51959836
0.05113367 0.14360157 0.51986349
-0.43001473 0.15808296 0.5190779
-0.42455626 0.15495126 0.51864779
-0.41479054 0.15465823 0.51782793
-0.40505457 0.15459733 0.51702273
-0.39462039 0.15512027 0.51657987
-0.3845323 0.15512951 0.51750064
-0.37528905 0.15481438 0.51848406
-0.36537212 0.15512486 0.51750404
-0.35454413 0.15482971 0.51549798
-0.3441065 0.15499404 0.51391345
-0.3346599 0.15496595 0.51373667
-0.32475641 0.15479758 0.5144518
-0.31497514 0.15477726 0.51642013
-0.30529663 0.15483618 0.51777524
-0.29514009 0.15516569 0.51754194
-0.2845991 0.15505362 0.51658159
-0.27477711 0.15503524 0.51666522
-0.26494205 0.15494098 0.51730788
-0.25515276 0.15503843 0.51726305
-0.24534605 0.15518208 0.51644129
-0.23490283 0.15491407 0.51591349
-0.2248428 0.1549857 0.51679063
-0.21507125 0.15490867 0.51732022
-0.20547214 0.15492459 0.51732641
-0.19510628 0.15492097 0.51724982
-0.18494022 0.15500444 0.51772279
-0.17498744 0.15506715 0.51831043
-0.16487481 0.15483771 0.51890862
-0.15483814 0.1541498 0.51967579
-0.1464605 0.15408412 0.51982021
-0.13895382 0.15149346 0.51987064
-0.1238527 0.15060204 0.5197131
-0.1104816 0.15024471 0.51995063
-0.10441005 0.15251775 0.51973265
-0.094441697 0.15384226 0.51950407
-0.084970549 0.15473476 0.51942003
-0.075931162 0.15610798 0.51963651
-0.066944838 0.15357018 0.51980221
-0.031115249 0.1512143 0.51984811
-0.026096808 0.1535566 0.51985449
-0.01382044 0.15196818 0.51991093
-0.0053603975 0.15222004 0.51967674
0.00033236048 0.15345159 0.51982886
0.039563283 0.1515891 0.51970834
0.041314222 0.15191123 0.51981902
-0.42355478 0.16005808 0.51928627
-0.41332525 0.16037455 0.51831192
-0.40452981 0.16146554 0.51737535
-0.39442322 0.16313685 0.51698387
-0.38469672 0.16450398 0.51768458
-0.37543464 0.16496615 0.51874578
-0.36501244 0.16511706 0.51783836
-0.35467505 0.16520259 0.5162856
-0.34504703 0.16457282 0.51558888
-0.33492246 0.16492471 0.5159651
-0.32484972 0.1649836 0.51726025
-0.31499299 0.16424438 0.51865941
-0.30508825 0.16313978 0.51905692
-0.29471958 0.16484943 0.51862818
-0.28446385 0.16485499 0.51744461
-0.27463195 0.16482238 0.51747626
-0.26487941 0.16518527 0.51838779
-0.25512815 0.1650997 0.51887459
-0.24516314 0.16516468 0.51853198
-0.23556897 0.16462614 0.51863915
-0.22510688 0.16328542 0.51895654
-0.21457724 0.16447836 0.51932359
-0.20517005 0.16490543 0.51915902
-0.19518276 0.1651735 0.51911718
-0.18510312 0.16483822 0.51853198
-0.1750686 0.16495447 0.51858765
-0.16484576 0.16472355 0.51908809
-0.15706028 0.16594853 0.51967037
-0.082898535 0.16120578 0.51952672
-0.075651623 0.16145141 0.51974946
-0.023004781 0.16673864 0.51980323
-0.017330449 0.16612145 0.51973027
-0.37461933 0.17118071 0.51874715
-0.36421338 0.17285611 0.51835358
-0.35426345 0.17414123 0.51749957
-0.34459594 0.17474088 0.51715696
-0.33447963 0.1748244 0.51763606
-0.32498574 0.1751301 0.51902181
-0.31717354 0.17833309 0.51941365
-0.30388346 0.1789339 0.51950812
-0.29473913 0.17497945 0.51887608
-0.28478894 0.17524378 0.51702487
-0.27517799 0.17516522 0.51708847
-0.26527199 0.17492598 0.51848125
-0.25507507 0.17487495 0.51938093
-0.24609683 0.17358905 0.5196619
-0.23815587 0.17322241 0.51981586
-0.22305872 0.17613153 0.51993877
-0.21383606 0.17433257 0.51987302
-0.20444725 0.17400841 0.5196268
-0.19504306 0.17489646 0.5195294
-0.1852726 0.17498538 0.51888704
-0.17470716 0.17494708 0.51849997
-0.16464445 0.1749628 0.51839113
-0.15529591 0.17509039 0.51905751
-0.14810702 0.17771065 0.51957375
-0.13837491 0.17995182 0.5199334
-0.023180898 0.17167661 0.5198161
-0.016973024 0.17185086 0.51982886
-0.33270144 0.18111014 0.51756495
-0.32455471 0.18241261 0.51849908
-0.31470415 0.18413621 0.51898539
-0.30489591 0.18496828 0.51864439
-0.29503977 0.18476914 0.51727217
-0.28477827 0.18482366 0.51609683
-0.27440524 0.1848809 0.51635122
-0.26481721 0.18502124 0.51793027
-0.25712165 0.18509597 0.51950121
-0.22909309 0.18150957 0.5199306
-0.21540634 0.18021011 0.51979274
-0.19418477 0.18223804 0.5196752
-0.18474819 0.18449445 0.51925451
-0.17499749 0.18429145 0.51890123
-0.16483851 0.18483955 0.51903874
-0.15496412 0.18481268 0.51885855
-0.145263 0.18486181 0.51906502
-0.13626666 0.18573995 0.51945513
-0.30159563 0.19059938 0.51844162
-0.29373521 0.19180724 0.51787364
-0.28426981 0.19312422 0.51747745
-0.27487949 0.19407454 0.5172196
-0.26450902 0.19452915 0.51755774
-0.25550807 0.19535245 0.51875573
-0.24624525 0.19754854 0.51944554
-0.18017329 0.19103387 0.51975989
-0.1739171 0.1922067 0.51980728
-0.16329576 0.19247836 0.51981413
-0.15544826 0.19371596 0.51970655
-0.14580539 0.19208623 0.51957494
-0.13645169 0.19070598 0.51966
-0.26056165 0.20026872 0.51796907
-0.25382113 0.2014796 0.51843476
-0.24451208 0.20319283 0.51891339
-0.23753078 0.20306653 0.51962829
0.28481954 0.0020604506 0.52010041
0.26655927 0.01664925 0.52022582
0.13841638 0.027136382 0.52004218
0.14063892 0.028233483 0.52029711
0.20631365 0.026044939 0.52046901
0.21133493 0.025495531 0.52029794
0.23676586 0.028824145 0.52010506
0.26792848 0.022270963 0.52035683
0.27077445 0.024564166 0.52026021
0.29642007 0.028182732 0.52013588
0.14481127 0.033872921 0.52017856
0.15005058 0.03763653 0.52022785
0.20584884 0.030533206 0.5201543
0.23698577 0.035081808 0.52059281
0.24188334 0.035633091 0.52059013
0.26833433 0.03756376 0.52027929
0.2747055 0.038374189 0.52043313
0.28418055 0.038447682 0.52027994
0.29474267 0.035022262 0.52041644
0.15292913 0.041768398 0.52006447
0.20808685 0.04303341 0.5201025
0.2110081 0.044151463 0.52022749
0.23814411 0.042052384 0.52032202
0.2422256 0.042333592 0.5202961
0.25723624 0.046968732 0.52030969
0.26575992 0.044602696 0.52038538
0.27537441 0.044545554 0.52077585
0.28429294 0.045231067 0.52070308
0.29199585 0.043776657 0.52031529
0.040793911 0.054372925 0.52007771
0.14344332 0.059285682 0.52001667
0.15473095 0.059110131 0.52026391
0.16174829 0.058766842 0.52015823
0.17964305 0.053340394 0.51999998
0.18386045 0.057564471 0.52027732
0.20875852 0.059559822 0.5200007
0.2575185 0.054387655 0.52017301
0.26343027 0.055737812 0.52016383
0.27585539 0.052985605 0.5202747
0.28492379 0.054640606 0.52082843
0.29047054 0.051600497 0.52045268
0.085793898 0.062370278 0.52024674
0.090236187 0.064595297 0.52007359
0.1370455 0.067794837 0.52018249
0.14517109 0.066235907 0.52048063
0.15336609 0.06407024 0.52029902
0.16274247 0.064395681 0.52017146
0.18611217 0.06401635 0.52024883
0.19402301 0.067987733 0.52023894
0.20653489 0.06667196 0.52044618
0.21277292 0.065780714 0.52038199
0.22997706 0.069969393 0.52005589
0.23619808 0.068108723 0.52033949
0.24691342 0.066683561 0.52029717
0.25482988 0.065651543 0.52045918
0.26512983 0.065650009 0.52039284
0.27515212 0.06549421 0.52111793
0.28363803 0.064794265 0.52171957
0.10728109 0.076000199 0.52029699
0.11367942 0.077143386 0.5205043
0.12298572 0.079262838 0.52000964
0.13756083 0.074656501 0.52053297
0.14477499 0.07515087 0.52075469
0.15104847 0.074575081 0.52008331
0.16817173 0.072929241 0.52018487
0.17356196 0.076927602 0.52021807
0.18766293 0.076501466 0.52033424
0.19552003 0.075923927 0.52055377
0.20498188 0.07509879 0.52095479
0.21372649 0.076092213 0.5206641
0.22283587 0.07821101 0.52022076
0.23542647 0.074802332 0.52061337
0.24506664 0.075337552 0.52108026
0.25507835 0.075009845 0.52089506
0.26501322 0.074936949 0.52113986
0.27509743 0.075074501 0.52160138
0.28189346 0.073825352 0.52343732
0.0561748 0.089304969 0.52008796
0.068479732 0.088130116 0.52013737
0.073512405 0.088369817 0.52035838
0.10944786 0.081771828 0.52015144
0.11586396 0.082804933 0.52038395
0.12483823 0.086958252 0.52028686
0.1364131 0.085698478 0.52031261
0.14526862 0.084883459 0.52053308
0.15394397 0.086451188 0.52046543
0.16571279 0.088140212 0.52024418
0.17523837 0.085986719 0.52045375
0.18556762 0.085346729 0.5208714
0.1950767 0.085059121 0.5215739
0.20508496 0.084966429 0.52127445
0.21501969 0.085089095 0.52178681
0.22366934 0.086557925 0.52085066
0.2361379 0.085611627 0.52057141
0.24501891 0.084991224 0.52197158
0.25504619 0.08497446 0.52236587
0.26509547 0.084937841 0.52246219
0.27446353 0.084736474 0.52193093
0.28005931 0.080871731 0.52240241
-0.014988696 0.096415959 0.52035666
-0.0064087557 0.097552188 0.52035439
0.025990576 0.099314749 0.52005577
0.038000703 0.099001393 0.52031368
0.047012664 0.097374953 0.52035469
0.055345643 0.096646719 0.5205617
0.065315396 0.09523192 0.52081478
0.074879639 0.095065303 0.52095991
0.08200068 0.096213445 0.5203011
0.10682374 0.098479256 0.52004856
0.11573541 0.096197695 0.52077651
0.12491801 0.095063329 0.52151227
0.13508603 0.094981164 0.52106047
0.14513235 0.09496212 0.52049214
0.15503456 0.094969988 0.52119106
0.16406038 0.095168173 0.5205695
0.17509085 0.095107928 0.52099645
0.18502501 0.094866581 0.521384
0.19499764 0.095023684 0.52132905
0.20503357 0.095088221 0.52086997
0.21510048 0.095076755 0.52171564
0.22508219 0.094953217 0.5222283
0.23505694 0.094888918 0.52180874
0.24499665 0.095090121 0.52262819
0.25495693 0.094921634 0.5228374
0.26485822 0.094857089 0.52215838
0.27291083 0.094685853 0.52279508
-0.027665123 0.10982636 0.52025473
-0.013519813 0.10509925 0.52034795
-0.0052753147 0.10523896 0.52049708
0.0037728294 0.10709658 0.52033865
0.013255097 0.10836424 0.52021825
0.028688625 0.10448416 0.52013624
0.036404062 0.10530166 0.52037716
0.044902228 0.10512908 0.5209161
0.054843079 0.10449103 0.52065337
0.065362699 0.10480516 0.52096772
0.075226746 0.10508081 0.52143711
0.08241529 0.10649146 0.52080661
0.10839817 0.10526888 0.52030057
0.11548027 0.10500734 0.52078921
