# .PCD v0.7 - Point Cloud Data file format
VERSION 0.7
FIELDS x y z
SIZE 4 4 4
TYPE F F F
COUNT 1 1 1
WIDTH 1
HEIGHT 246
VIEWPOINT 0 0 0 1 0 0 0
POINTS 246
DATA ascii
0.12335256 -0.0013532117 0.41930455
0.1265765 0.0052973777 0.41926032
0.12896858 0.013802551 0.41974875
0.098949127 -0.025923027 0.42889789
0.10470855 -0.022465425 0.4273541
0.10786209 -0.018011808 0.42837879
0.11367291 -0.013589587 0.42545781
0.11784992 -0.0063712839 0.42559659
0.12130575 -0.0033041481 0.42259896
0.12471932 0.0048190784 0.42480311
0.12829447 0.014461569 0.42541286
0.13047518 0.018119041 0.42299277
0.12881193 0.025822641 0.42665312
0.13085906 0.024027258 0.42353615
0.12683937 0.03505028 0.42530501
0.11934614 0.048911802 0.42931208
0.12246557 0.044236034 0.42569822
0.10794742 0.058951199 0.42826334
0.11573299 0.054536104 0.42791855
0.10398751 0.0621415 0.42709658
0.093540326 -0.051697627 0.43753433
0.095068134 -0.044806562 0.43597049
0.088261537 -0.032007705 0.43805641
0.094281122 -0.035223287 0.43545291
0.058604501 -0.020633433 0.43355787
0.06591443 -0.022402676 0.43474987
0.075091332 -0.023961913 0.43634978
0.085404724 -0.026258655 0.43644127
0.095199198 -0.025346112 0.43386176
0.10147467 -0.021331979 0.43334791
0.048557289 -0.011212121 0.43421668
0.05501049 -0.015424307 0.43432367
0.064431347 -0.017590359 0.4362953
0.071591541 -0.019891396 0.43856886
0.10663021 -0.016650522 0.43539587
0.11140634 -0.01200912 0.43427888
0.044300642 -0.0045283479 0.43389758
0.050759807 -0.0089428872 0.43301758
0.11652907 -0.0052109226 0.43509117
0.12045746 -0.0010632649 0.43113056
0.042880464 0.0042566187 0.436827
0.11944856 0.00085690914 0.43637824
0.1232892 0.005137986 0.43487674
0.041743327 0.014781602 0.43773162
0.12744436 0.01483499 0.435339
0.042235713 0.025603686 0.43791154
0.12780362 0.024641352 0.43517765
0.045062218 0.035324648 0.43807971
0.12555902 0.03505151 0.43499374
0.046834994 0.042883784 0.43687382
0.11903642 0.047618903 0.43500561
0.12111589 0.042965785 0.43476379
0.10542046 0.056811292 0.43424514
0.1143524 0.05237918 0.43417975
0.099082038 0.062541552 0.43452665
0.10090297 0.060819261 0.4333038
0.089750454 -0.052753568 0.44603714
0.090926364 -0.051752996 0.44390658
0.09178783 -0.045264531 0.44450182
0.087166272 -0.034392979 0.4441396
0.091033012 -0.038489979 0.444341
0.076509267 -0.026455423 0.44314131
0.085849904 -0.022705125 0.44433793
0.09504535 -0.022684004 0.44435596
0.10165319 -0.020712445 0.44471794
0.054642335 -0.019811332 0.44092748
0.068787739 -0.016191147 0.44435388
0.072917804 -0.018490342 0.44606701
0.10669768 -0.016143056 0.44494557
0.11105338 -0.011432317 0.44486925
0.041284565 -0.00083332061 0.44375095
0.11616527 -0.0052032638 0.44503838
0.041443612 0.0053315833 0.44459584
0.11914203 0.0028716328 0.44575262
0.12161414 0.0071953675 0.44398716
0.04077857 0.015126239 0.44445521
0.12314578 0.015050367 0.44468197
0.041357342 0.024977583 0.44433671
0.12707013 0.024676621 0.44511643
0.044033259 0.034720909 0.44432181
0.12604891 0.034891404 0.44522423
0.11731932 0.047711458 0.44524655
0.12176806 0.042606145 0.44437853
0.10515065 0.056455821 0.44484049
0.11238798 0.051196489 0.44453403
0.09947212 0.062814936 0.44322282
0.10216314 0.061765566 0.44452575
0.094210155 -0.051551223 0.45580456
0.094195038 -0.045254208 0.45459518
0.079881892 -0.032910988 0.45210916
0.086567648 -0.036252521 0.45535526
0.092373393 -0.039197009 0.45353749
0.086789533 -0.021661999 0.45408291
0.095025465 -0.022229055 0.45473695
0.10236107 -0.021078238 0.45487925
0.058091506 -0.019514382 0.4503589
0.076537386 -0.018208884 0.45394871
0.10737472 -0.015913999 0.45500824
0.11154959 -0.011042336 0.4550322
0.11571945 -0.0053365845 0.45463482
0.042570356 0.0047333767 0.45442998
0.11872073 0.0027336702 0.45323867
0.12102282 0.0065839617 0.45592877
0.04125211 0.01547617 0.45504677
0.12206976 0.015642947 0.45342365
0.042581037 0.02482182 0.45454371
0.1270252 0.025121836 0.45441052
0.045201819 0.034171816 0.45465764
0.12635261 0.034687459 0.45507059
0.11715558 0.046924621 0.45448944
0.12207838 0.042039674 0.45492637
0.108059 0.056010522 0.45553344
0.1122877 0.051709168 0.45588049
0.10544765 0.061088841 0.4553012
0.11731783 0.062912963 0.45588964
0.0975587 -0.052186374 0.4662098
0.096212842 -0.04527539 0.46473113
0.087628528 -0.038140245 0.46550232
0.090064362 -0.039918512 0.46599057
0.096567117 -0.022173243 0.46441936
0.10227598 -0.021124428 0.4655982
0.10643245 -0.016776785 0.46494004
0.11124539 -0.011516829 0.46525422
0.050166115 -0.00087473541 0.46873796
0.11613523 -0.0055241166 0.4641341
0.12109904 -0.0008844845 0.46888047
0.046061948 0.0041240454 0.46467617
0.12397038 0.0044276281 0.46550992
0.041980851 0.016337764 0.46244848
0.12809792 0.016449235 0.46665728
0.044682696 0.025144601 0.46477383
0.12848799 0.025203494 0.46493956
0.04705384 0.033460122 0.46481952
0.051423952 0.036450297 0.46998376
0.1259926 0.035276268 0.46475261
0.117535 0.047068588 0.46491817
0.12134839 0.042036965 0.46478894
0.10898668 0.056664921 0.46492976
0.11199027 0.053847771 0.46535474
0.12099552 0.062320594 0.46574897
0.098955728 -0.051702797 0.47423479
0.10128444 -0.055393353 0.47674417
0.096440598 -0.045598168 0.47409341
0.096878275 -0.022065684 0.47378808
0.10136065 -0.021054955 0.47557053
0.10645063 -0.016828043 0.4749904
0.11166672 -0.011754208 0.47533911
0.051676199 -0.00044164807 0.47355878
0.11688796 -0.006588235 0.47480905
0.12235209 -0.0014851039 0.47600594
0.12713534 0.003944159 0.47499323
0.13151425 0.0083312821 0.47789732
0.045826003 0.016882328 0.47523463
0.13177943 0.015053084 0.47612914
0.046750683 0.024659213 0.47425938
0.1294326 0.0269439 0.47437453
0.1304464 0.023131771 0.4766365
0.048673518 0.031831928 0.4746998
0.051919121 0.034435146 0.4764885
0.1265599 0.034769889 0.47451332
0.11738585 0.047158986 0.47508109
0.12196181 0.041813556 0.47515616
0.10776614 0.055556439 0.47528934
0.11237117 0.053515587 0.47475144
0.11900373 0.060402885 0.4776639
0.12165798 0.062002469 0.47205153
0.1081111 -0.062603161 0.4877691
0.11042844 -0.065074056 0.489126
0.10140946 -0.053316902 0.48439059
0.099080674 -0.047027044 0.4843325
0.10022463 -0.049458057 0.48700085
0.09870813 -0.022323839 0.48290387
0.10129959 -0.021168899 0.48630095
0.10632139 -0.01639705 0.48526499
0.11169088 -0.011436554 0.48458001
0.11636614 -0.0065045175 0.48580232
0.12145068 -0.0018167798 0.48472539
0.12620299 0.0049572443 0.4857243
0.13095352 0.0086853104 0.48213443
0.04886023 0.018005915 0.48459911
0.050651334 0.015859334 0.48951489
0.12833935 0.014691692 0.48832753
0.13153835 0.014564362 0.48357445
0.048868909 0.025232378 0.48301283
0.050465595 0.02473733 0.48850599
0.12857381 0.025815262 0.48626879
0.13081262 0.022359315 0.48268685
0.053482123 0.033125803 0.48462206
0.12481062 0.034852326 0.48534986
0.11569335 0.045998204 0.48589259
0.12145408 0.041607775 0.48412403
0.10899974 0.052086461 0.48688918
0.11111629 0.050870605 0.48362204
0.10984601 0.06042438 0.48412234
0.12297525 0.061349168 0.48502752
0.13520138 0.062303487 0.48672017
0.14379485 0.06191317 0.48878703
0.10787322 -0.063582554 0.49619991
0.11260439 -0.068091325 0.49522457
0.10287073 -0.054787502 0.4958086
0.098273516 -0.045049716 0.49670434
0.10033195 -0.048627183 0.49441063
0.097660556 -0.021413287 0.49338517
0.10024019 -0.021409497 0.49139962
0.09669283 -0.015134008 0.49537462
0.10427301 -0.013748548 0.49348554
0.11072302 -0.010580773 0.49188876
0.089374661 -0.0018878406 0.49792838
0.095514774 -0.004979773 0.49761805
0.10570271 -0.0049236156 0.49703783
0.1139817 -0.0042537432 0.49353343
0.1203988 -0.00047405064 0.49071693
0.088518672 0.0058108834 0.49771243
0.095075384 0.0051544765 0.49703395
0.10437261 0.0048997654 0.49536178
0.11516982 0.0051705833 0.49426192
0.12183503 0.0055892691 0.49166465
0.051374935 0.01720579 0.49499446
0.088144824 0.015537679 0.49633944
0.09520147 0.014994987 0.49528247
0.10493945 0.014449795 0.4953973
0.11541448 0.015046851 0.49695137
0.12369367 0.01572933 0.49319059
0.051533472 0.025210118 0.49448872
0.08798518 0.023463586 0.49546525
0.094639808 0.025293037 0.49519783
0.10520431 0.025288612 0.4958159
0.11554622 0.024970252 0.4966121
0.12399682 0.024384545 0.4932768
0.055855442 0.032640249 0.49587944
0.062904693 0.037018362 0.49760765
0.096725665 0.033445947 0.49762917
0.10486099 0.035034142 0.49717307
0.11495021 0.034909483 0.49520886
0.12161821 0.033523008 0.49188665
0.10732854 0.044859815 0.49495083
0.11399148 0.04264313 0.49278632
0.097153723 0.054813985 0.4984532
0.10455824 0.057973117 0.4956671
0.11223875 0.059768759 0.49567991
0.10557462 0.061643071 0.49888977
0.052114747 0.015129575 0.50547564
0.052484706 0.024795702 0.50538707
0.05637021 0.034038052 0.50646949
0.063428059 0.038419358 0.50403595
0.0711153 0.039517719 0.50059783
