# .PCD v0.7 - Point Cloud Data file format
VERSION 0.7
FIELDS x y z
SIZE 4 4 4
TYPE F F F
COUNT 1 1 1
WIDTH 1398
HEIGHT 1
VIEWPOINT 0 0 0 1 0 0 0
POINTS 1398
DATA ascii
0.068658032 0.031898886 0.49845973
0.069832809 0.032463565 0.49862561
0.071244225 0.033155397 0.49781036
0.072416663 0.033718951 0.49797592
0.1089052 0.051365081 0.49501172
0.11005901 0.05191968 0.49517462
0.1112128 0.052474279 0.49533755
0.112524 0.053117931 0.49450815
0.11367548 0.053671405 0.49467072
0.11482695 0.054224886 0.49483332
0.11597841 0.054778367 0.49499589
0.11712988 0.055331849 0.49515849
0.11828135 0.055885326 0.49532107
0.11943282 0.056438807 0.49548367
0.12072538 0.057073481 0.49465162
0.12173577 0.057545766 0.49580884
0.12288724 0.058099248 0.49597144
0.1240387 0.058652725 0.49613401
0.12519017 0.059206206 0.49629661
0.12634164 0.059759684 0.49645922
0.12762022 0.060387637 0.49562517
0.12876935 0.060939997 0.49578744
0.12991849 0.061492357 0.49594972
0.13106763 0.062044717 0.49611196
0.13221677 0.062597074 0.49627423
0.13348135 0.06321831 0.49543819
0.13462815 0.063769549 0.49560013
0.13588573 0.064387426 0.49476317
0.13703021 0.064937547 0.49492478
0.13817468 0.06548766 0.49508637
0.13942295 0.066101059 0.49424806
0.1405651 0.066650048 0.49440932
0.14180636 0.067260087 0.49357006
0.14294618 0.067807965 0.49373102
0.14418045 0.068414629 0.49289075
0.14531793 0.068961389 0.49305135
0.14654522 0.0695647 0.49221009
0.14776783 0.070165768 0.49136817
0.14890066 0.070710286 0.49152812
0.15003347 0.071254797 0.49168807
0.1511663 0.071799316 0.49184802
0.15229912 0.072343826 0.492008
0.15343195 0.072888345 0.49216795
0.15463825 0.073481567 0.49132371
0.18969327 0.090438657 0.48815709
0.19080512 0.090973094 0.48831409
0.19191352 0.091519259 0.48745602
0.19302303 0.092052571 0.48761266
0.19412446 0.092595376 0.48675367
0.19523163 0.093127564 0.48691002
0.19633882 0.093659759 0.48706636
0.19743089 0.094198078 0.486206
0.19853576 0.094729155 0.48636201
0.1996406 0.095260233 0.486518
0.20072338 0.095794074 0.48565635
0.20182589 0.096324027 0.48581201
0.20292841 0.096853971 0.4859677
0.20400184 0.097383335 0.48510471
0.20510206 0.09791217 0.48526007
0.2061685 0.098438166 0.4843961
0.20726636 0.098965876 0.4845511
0.20836422 0.099493593 0.48470613
0.20946208 0.1000213 0.48486114
0.21051686 0.1005417 0.48399553
0.21161237 0.10106829 0.48415023
0.21270791 0.10159488 0.4843049
0.21380344 0.10212147 0.48445961
0.21489897 0.10264806 0.48461428
0.21593979 0.10316174 0.48374668
0.21703297 0.1036872 0.48390102
0.21812618 0.10421267 0.4840554
0.21915767 0.10472187 0.48318651
0.22024852 0.10524622 0.48334053
0.22127301 0.10575205 0.48247063
0.22236155 0.10627528 0.48262432
0.22345009 0.10679851 0.48277801
0.22446525 0.10729985 0.48190683
0.22555146 0.10782196 0.48206022
0.22663766 0.10834407 0.48221359
0.22764352 0.10884094 0.48134106
0.22872739 0.10936193 0.4814941
0.22981125 0.10988292 0.48164713
0.23080778 0.11037531 0.4807733
0.23188932 0.11089518 0.48092601
0.23287885 0.1113842 0.48005119
0.23395807 0.11190295 0.48020357
0.23503727 0.11242169 0.48035595
0.23601748 0.11290625 0.47947979
0.23709436 0.11342387 0.47963184
0.23806757 0.11390506 0.47875473
0.23914212 0.11442156 0.47890645
0.24021667 0.11493807 0.47905818
0.24118057 0.11541477 0.47817969
0.24225277 0.11593015 0.47833109
0.243325 0.11644554 0.47848248
0.24427956 0.11691777 0.47760275
0.24534944 0.11743203 0.47775382
0.24641934 0.1179463 0.47790489
0.24748923 0.11846057 0.47805595
0.24855912 0.11897483 0.47820705
0.24949969 0.11944032 0.47732529
0.25056726 0.11995347 0.47747603
0.25163481 0.12046662 0.47762677
0.25270236 0.12097976 0.47777751
0.25376993 0.12149291 0.47792825
0.25469652 0.12195168 0.47704452
0.25576174 0.12246371 0.47719496
0.25682697 0.12297572 0.47734535
0.25774425 0.12343003 0.47646034
0.25865683 0.12388207 0.47557461
0.2597174 0.12439186 0.4757244
0.26077798 0.12490164 0.47587413
0.26168126 0.12534922 0.47498712
0.26273951 0.12585789 0.47513655
0.26379773 0.12636656 0.47528598
0.26469168 0.12680964 0.47439763
0.26574758 0.12731719 0.4745467
0.2668035 0.12782472 0.4746958
0.2678594 0.12833227 0.4748449
0.2687417 0.12876976 0.47395498
0.26979527 0.12927617 0.47410372
0.27084884 0.1297826 0.47425249
0.27190241 0.13028902 0.47440127
0.27295598 0.13079545 0.47455001
0.27400959 0.13130188 0.47469878
0.27487555 0.13173151 0.4738065
0.2759268 0.13223681 0.47395495
0.27697802 0.13274211 0.47410339
0.27802926 0.13324742 0.47425181
0.27888361 0.13367146 0.47335789
0.2799325 0.13417566 0.473506
0.28098142 0.13467982 0.47365412
0.28203034 0.13518402 0.47380221
0.282873 0.13560244 0.47290665
0.2839196 0.13610551 0.47305444
0.28496617 0.13660857 0.47320223
0.28601277 0.13711163 0.47334999
0.28684378 0.13752449 0.47245279
0.28788802 0.13802642 0.47260022
0.28893229 0.13852836 0.47274768
0.28975397 0.13893671 0.47184914
0.29079592 0.13943754 0.47199628
0.29183781 0.13993835 0.47214338
0.29287973 0.14043918 0.47229052
0.29368979 0.14084193 0.47139031
0.29472935 0.14134164 0.47153708
0.29576895 0.14184132 0.47168389
0.29656968 0.14223962 0.47078243
0.29784811 0.14284074 0.47197747
0.29864419 0.14323677 0.47107536
0.29968145 0.14373535 0.4712218
0.30071869 0.14423394 0.47136825
0.30175596 0.14473252 0.47151473
0.3027932 0.1452311 0.47166118
0.30357531 0.14562041 0.47075707
0.30461022 0.14611787 0.47090319
0.30564514 0.14661531 0.47104934
0.30668008 0.14711277 0.47119546
0.307715 0.14761023 0.47134161
0.30848306 0.14799282 0.4704355
0.30951566 0.14848918 0.47058129
0.31054825 0.14898551 0.47072712
0.31158087 0.14948185 0.47087291
0.31233731 0.14985883 0.46996516
0.31336758 0.15035406 0.47011063
0.31411701 0.15072767 0.46920189
0.31514496 0.15122178 0.46934706
0.31617287 0.15171587 0.4694922
0.31691298 0.15208501 0.46858215
0.31793857 0.152578 0.46872696
0.3186717 0.15294376 0.46781591
0.319695 0.15343563 0.46796039
0.32071826 0.15392749 0.46810487
0.32174152 0.15441935 0.46824935
0.32246301 0.15477952 0.46733671
0.32378805 0.15540306 0.46853834
0.32450488 0.155761 0.46762502
0.32552582 0.15625174 0.46776918
-0.15952495 -0.077079356 0.53820169
-0.15818468 -0.076435119 0.53839093
-0.1562407 -0.075490192 0.53765094
-0.15490273 -0.074847087 0.53783989
-0.15296575 -0.073905528 0.537099
-0.15163016 -0.073263526 0.53728759
-0.14970019 -0.072325349 0.53654569
-0.1483669 -0.07168445 0.53673393
-0.14644393 -0.070749655 0.53599101
-0.14511296 -0.070109889 0.53617895
-0.143197 -0.069178417 0.53543508
-0.14186838 -0.068539783 0.53562266
-0.13995937 -0.06761165 0.53487778
-0.1386331 -0.066974148 0.53506505
-0.13730678 -0.066336632 0.53525233
-0.13540709 -0.065412998 0.53450614
-0.13408315 -0.064776599 0.53469312
-0.13275918 -0.06414023 0.53488004
-0.13086885 -0.063221067 0.53413254
-0.12954724 -0.062585801 0.53431916
-0.12822562 -0.061950549 0.53450578
-0.12690401 -0.061315283 0.53469235
-0.12558237 -0.060680002 0.53487897
-0.12426072 -0.060044736 0.53506559
-0.12293911 -0.059409469 0.53525221
-0.12161747 -0.058774203 0.53543884
-0.12029585 -0.058138937 0.53562546
-0.11897424 -0.05750367 0.53581208
-0.1176526 -0.056868389 0.5359987
-0.11633095 -0.056233123 0.53618532
-0.1144709 -0.055328533 0.53543353
-0.11315164 -0.054694399 0.5356198
-0.11183232 -0.054060251 0.53580606
-0.1099816 -0.053160131 0.5350529
-0.1086646 -0.0525271 0.53523886
-0.10682088 -0.051630348 0.53448486
-0.10550624 -0.050998434 0.53467047
-0.10366955 -0.050105065 0.5339154
-0.10235724 -0.049474269 0.53410071
-0.10052747 -0.048584267 0.53334463
-0.099217504 -0.047954589 0.53352958
-0.096881926 -0.046810925 0.53183049
-0.095576644 -0.046183512 0.53201479
-0.093763202 -0.045301318 0.53125644
-0.09195444 -0.04442139 0.53049743
-0.090653807 -0.043796211 0.53068107
-0.088852018 -0.042919636 0.52992105
-0.08755371 -0.042295575 0.5301044
-0.085758954 -0.041422352 0.52934337
-0.083968788 -0.040551364 0.52858174
-0.082675129 -0.039929539 0.52876437
-0.080892026 -0.039061934 0.52800173
-0.079600722 -0.038441241 0.52818406
-0.078309387 -0.037820533 0.52836639
-0.076535553 -0.036957398 0.52760243
-0.075246572 -0.036337823 0.52778447
-0.073479772 -0.035478041 0.5270195
-0.072193116 -0.034859583 0.52720118
-0.07090643 -0.034241125 0.52738285
-0.069619805 -0.033622667 0.52756453
-0.068333119 -0.033004194 0.5277462
-0.067046463 -0.032385737 0.52792788
-0.065295935 -0.031533793 0.52716058
-0.064011604 -0.030916438 0.5273419
-0.062268108 -0.030067891 0.52657372
-0.060986131 -0.029451668 0.52675474
-0.05924961 -0.028606474 0.52598554
-0.057969928 -0.027991369 0.5261662
-0.05624041 -0.027149528 0.52539599
-0.05451557 -0.026309907 0.52462512
-0.053240567 -0.025697052 0.52480513
-0.051522672 -0.024860807 0.52403325
-0.049809486 -0.024026819 0.52326077
-0.048539132 -0.023416199 0.52344012
-0.046832949 -0.022585556 0.52266663
-0.04556492 -0.021976054 0.52284569
-0.04386571 -0.021148771 0.52207118
-0.042600006 -0.020540401 0.52224988
-0.041334331 -0.019932017 0.52242857
-0.03964445 -0.019109219 0.52165276
-0.038381085 -0.018501952 0.52183115
-0.037117749 -0.0178947 0.52200955
-0.035437137 -0.017076366 0.52123243
-0.034176141 -0.016470246 0.52141047
-0.032915115 -0.015864097 0.52158856
-0.031243876 -0.015050277 0.52081007
-0.029985189 -0.01444526 0.52098781
-0.028726488 -0.013840243 0.52116555
-0.027467787 -0.013235226 0.52134329
-0.025808215 -0.012426987 0.52056319
-0.024551854 -0.011823088 0.52074057
-0.023295492 -0.011219189 0.52091795
-0.021645218 -0.01041545 0.52013659
-0.020391196 -0.009812668 0.52031362
-0.018747896 -0.0090122595 0.51953119
-0.017496198 -0.0084106103 0.51970792
-0.015859932 -0.0076135769 0.51892459
-0.014610559 -0.0070130453 0.51910102
-0.012981266 -0.0062193871 0.51831663
-0.011356652 -0.0054279566 0.51753163
-0.0097366869 -0.0046387762 0.51674592
-0.008867234 -0.0042313635 0.51788312
-0.0072519481 -0.0034444332 0.51709676
-0.0060095787 -0.0028472543 0.51727217
-0.0047671795 -0.0022500753 0.51744759
0.064085096 0.031129166 0.49978003
0.065511607 0.031825356 0.49896699
0.066688716 0.032391153 0.4991332
0.067865826 0.032956965 0.49929941
0.069283001 0.03364867 0.49848509
0.070457779 0.034213349 0.49865097
0.07186795 0.034901701 0.4978357
0.085603938 0.041546263 0.49571747
0.10819975 0.052438967 0.49586478
0.10935588 0.052994691 0.49602804
0.11051201 0.053550415 0.49619126
0.11182662 0.054192822 0.49536246
0.11298043 0.054747421 0.49552539
0.11413422 0.055302028 0.49568829
0.11528803 0.055856623 0.49585122
0.11644183 0.056411225 0.49601415
0.11759563 0.056965824 0.49617705
0.11889393 0.057600394 0.49534595
0.1200454 0.058153875 0.49550852
0.12119687 0.058707353 0.49567112
0.12234834 0.059260834 0.49583372
0.12349981 0.059814312 0.4959963
0.12465128 0.060367793 0.4961589
0.12580276 0.06092127 0.49632147
0.12708241 0.061546877 0.49548775
0.12823154 0.062099237 0.49564999
0.12938067 0.062651597 0.49581227
0.13052982 0.063203961 0.49597451
0.13167897 0.063756317 0.49613678
0.13294463 0.064375192 0.49530104
0.13409144 0.064926431 0.49546295
0.13535011 0.065541953 0.49462628
0.13649458 0.066092074 0.4947879
0.13763906 0.066642195 0.49494949
0.13888842 0.067253232 0.49411145
0.14003056 0.067802235 0.49427271
0.14127292 0.068409912 0.49343374
0.14241274 0.068957791 0.49359468
0.14364809 0.069562107 0.4927547
0.14478558 0.070108868 0.4929153
0.14592306 0.070655622 0.49307591
0.14714912 0.07125546 0.49223459
0.14828426 0.071801096 0.49239489
0.14950331 0.072397575 0.49155259
0.15063614 0.072942093 0.49171254
0.15176895 0.073486604 0.49187249
0.15290177 0.074031122 0.49203247
0.1540346 0.074575633 0.49219242
0.15523967 0.075165391 0.49134815
0.15637016 0.075708784 0.49150777
0.19250378 0.093171827 0.48747998
0.19360629 0.093712285 0.48662126
0.19471346 0.094244473 0.48677757
0.19582064 0.094776668 0.48693392
0.19691381 0.09531264 0.48607385
0.19801867 0.095843717 0.48622987
0.19912353 0.096374787 0.48638585
0.20020738 0.096906282 0.48552448
0.20130992 0.097436234 0.48568016
0.20241243 0.097966179 0.48583582
0.20351493 0.098496139 0.48599151
0.20458715 0.099022023 0.48512846
0.20568733 0.099550851 0.48528382
0.20678753 0.10007969 0.48543918
0.2078504 0.10060109 0.48457482
0.20894825 0.1011288 0.48472983
0.21004613 0.10165651 0.48488486
0.21114397 0.10218422 0.48503986
0.2121952 0.10270003 0.48417386
0.21329074 0.10322662 0.48432857
0.21438625 0.10375322 0.48448324
0.21548179 0.1042798 0.48463795
0.21652135 0.10479 0.48377028
0.21761456 0.10531548 0.48392463
0.21870776 0.10584094 0.484079
0.21973801 0.10634667 0.48321006
0.22082886 0.10687102 0.48336411
0.22185211 0.10737337 0.48249412
0.22294065 0.1078966 0.48264784
0.22402918 0.10841983 0.48280153
0.22504312 0.10891771 0.48193029
0.22612932 0.10943982 0.48208368
0.22721553 0.10996193 0.48223704
0.22822013 0.11045533 0.48136446
0.22930399 0.11097632 0.48151752
0.23030162 0.11146636 0.48064393
0.23138316 0.11198622 0.48079666
0.2324647 0.11250609 0.48094937
0.23345298 0.11299165 0.4800745
0.23453221 0.11351039 0.48022687
0.23561141 0.11402914 0.48037925
0.23659037 0.11451021 0.47950304
0.23766725 0.11502783 0.47965509
0.23863922 0.11550555 0.47877795
0.23971377 0.11602206 0.47892967
0.24078833 0.11653856 0.47908139
0.24175097 0.11701179 0.47820285
0.24282318 0.11752717 0.47835425
0.24389541 0.11804257 0.47850564
0.24484873 0.11851131 0.47762588
0.24591862 0.11902558 0.47777694
0.24698852 0.11953985 0.47792801
0.24805839 0.12005411 0.47807908
0.2491283 0.12056838 0.47823015
0.25019819 0.12108264 0.47838122
0.25113517 0.12154356 0.4774991
0.25220275 0.1220567 0.47764984
0.2532703 0.12256984 0.47780058
0.25433785 0.12308299 0.47795132
0.25526321 0.12353829 0.47706753
0.25632843 0.12405031 0.47721794
0.25724679 0.12450226 0.4763332
0.25830969 0.12501316 0.47648329
0.25922105 0.12546174 0.47559753
0.26028162 0.12597153 0.47574729
0.261186 0.12641674 0.47486055
0.26224422 0.12692542 0.47500998
0.26330248 0.12743407 0.47515941
0.26436073 0.12794274 0.47530884
0.26541895 0.12845141 0.47545826
0.26630932 0.1288899 0.47456953
0.26736522 0.12939745 0.4747186
0.26842114 0.12990499 0.4748677
0.26930219 0.130339 0.47397771
0.27035576 0.13084543 0.47412649
0.27140933 0.13135184 0.47427523
0.2724629 0.13185827 0.474424
0.27351651 0.13236471 0.47457278
0.27457005 0.13287112 0.47472155
0.27543482 0.13329729 0.47382921
0.27648604 0.13380259 0.47397766
0.27753729 0.13430789 0.4741261
0.27858853 0.1348132 0.47427452
0.27944162 0.13523376 0.47338057
0.28049052 0.13573796 0.47352865
0.28153944 0.13624214 0.47367677
0.28258836 0.13674632 0.47382486
0.28342977 0.13716128 0.47292924
0.28447637 0.13766435 0.47307703
0.28552294 0.13816741 0.47322482
0.28656954 0.13867047 0.47337258
0.28739932 0.13907984 0.47247532
0.28844357 0.13958178 0.47262278
0.28948781 0.14008373 0.47277021
0.29053208 0.14058566 0.47291768
0.29135019 0.14098942 0.47201878
0.2923921 0.14149025 0.47216588
0.29343402 0.14199108 0.47231302
0.29447594 0.14249191 0.47246012
0.29528242 0.14289004 0.47155952
0.29632199 0.14338976 0.47170633
0.29736158 0.14388946 0.47185314
0.29840118 0.14438915 0.47199991
0.29944077 0.14488885 0.47214669
0.30048037 0.14538854 0.4722935
0.30151993 0.14588825 0.4724403
0.30230778 0.14627746 0.47153711
0.30334502 0.14677604 0.47168359
0.30438229 0.14727461 0.47183004
0.30541953 0.14777319 0.47197652
0.30619571 0.14815679 0.47107169
0.30723062 0.14865425 0.47121781
0.30826557 0.14915171 0.47136396
0.30930048 0.14964917 0.47151008
0.310065 0.15002717 0.47060359
0.31109762 0.15052351 0.47074941
0.31185514 0.15089816 0.46984193
0.3128854 0.15139337 0.46998742
0.31391564 0.15188858 0.47013289
0.31466386 0.15225874 0.4692241
0.31569177 0.15275283 0.46936926
0.31643301 0.15311962 0.46845949
0.31745857 0.15361261 0.4686043
0.31848419 0.15410557 0.46874911
0.3195098 0.15459856 0.46889392
0.32023937 0.15495975 0.46798247
0.32126263 0.15545161 0.46812695
0.32228589 0.15594347 0.46827146
0.32330918 0.15643533 0.46841595
0.32433245 0.15692718 0.46856043
0.32535571 0.15741904 0.46870491
-0.1601522 -0.075727314 0.53804141
-0.15881193 -0.075083077 0.53823066
-0.15686685 -0.074140504 0.5374909
-0.15552887 -0.0734974 0.53767985
-0.15419093 -0.07285428 0.5378688
-0.15225524 -0.071916178 0.53712785
-0.15032417 -0.07098037 0.53638619
-0.14899087 -0.070339471 0.53657448
-0.14765757 -0.069698602 0.53676271
-0.14573589 -0.06876725 0.5360198
-0.14440492 -0.068127498 0.53620774
-0.14249018 -0.067199484 0.53546375
-0.14116153 -0.06656085 0.53565139
-0.13983294 -0.06592223 0.53583896
-0.1379275 -0.064998701 0.53509372
-0.13660121 -0.06436117 0.535281
-0.13527492 -0.063723668 0.53546828
-0.1333788 -0.062804639 0.53472167
-0.13205487 -0.062168241 0.53490865
-0.1307309 -0.061531842 0.53509557
-0.12884414 -0.060617313 0.53434771
-0.12752253 -0.059982046 0.53453428
-0.12620088 -0.059346765 0.5347209
-0.12487924 -0.058711499 0.53490752
-0.12355763 -0.058076233 0.53509414
-0.12223598 -0.057440966 0.53528076
-0.12091437 -0.0568057 0.53546739
-0.11959276 -0.056170434 0.53565401
-0.11827111 -0.055535153 0.53584063
-0.1169495 -0.054899886 0.53602725
-0.11508834 -0.053997651 0.5352757
-0.11376908 -0.053363517 0.53546202
-0.11244977 -0.052729368 0.53564829
-0.11113048 -0.052095205 0.53583455
-0.10928094 -0.051198557 0.53508139
-0.10796401 -0.050565541 0.53526729
-0.10612151 -0.049672261 0.53451324
-0.10480687 -0.049040347 0.53469884
-0.1029714 -0.04815045 0.53394371
-0.10165909 -0.047519654 0.53412902
-0.099830568 -0.046633124 0.53337294
-0.098006725 -0.0457488 0.53261614
-0.096187532 -0.044866726 0.53185862
-0.094373018 -0.043986887 0.53110063
-0.09307006 -0.043360591 0.53128457
-0.091262519 -0.042484134 0.53052551
-0.089961857 -0.041858956 0.53070915
-0.088161349 -0.040985852 0.52994907
-0.086365461 -0.040114984 0.52918839
-0.084574252 -0.039246336 0.528427
-0.083280593 -0.03862451 0.52860963
-0.081496388 -0.037759274 0.52784729
-0.080205053 -0.037138581 0.52802962
-0.078913718 -0.036517859 0.52821195
-0.077138811 -0.035657078 0.52744824
-0.075849831 -0.035037503 0.52763027
-0.074081928 -0.034180075 0.5268656
-0.072795272 -0.033561617 0.52704728
-0.071508616 -0.032943159 0.52722895
-0.070221961 -0.032324702 0.52741063
-0.068935305 -0.031706229 0.5275923
-0.067181379 -0.030855522 0.52682561
-0.065897018 -0.030238166 0.52700692
-0.064612687 -0.029620826 0.5271883
-0.062868088 -0.028774619 0.52642041
-0.061586112 -0.028158396 0.52660143
-0.059848517 -0.02731555 0.52583247
-0.058568835 -0.026700445 0.52601314
-0.056838214 -0.025860965 0.52524322
-0.055112273 -0.025023699 0.52447259
-0.05383727 -0.024410844 0.52465266
-0.052562252 -0.023797989 0.52483267
-0.050404027 -0.022745304 0.52310878
-0.049133673 -0.022134684 0.52328819
-0.047426373 -0.021306396 0.52251494
-0.046158344 -0.020696908 0.52269399
-0.044890344 -0.020087391 0.52287304
-0.043192357 -0.01926358 0.52209848
-0.041926682 -0.018655211 0.52227724
-0.040235698 -0.017834768 0.52150166
-0.038972348 -0.017227501 0.52168006
-0.037708998 -0.016620249 0.52185845
-0.036445647 -0.016012982 0.52203685
-0.034766316 -0.015198134 0.52125967
-0.033505291 -0.014591999 0.5214377
-0.031832948 -0.013780534 0.52065957
-0.030574262 -0.013175502 0.52083725
-0.029315561 -0.012570485 0.52101499
-0.02805686 -0.011965469 0.52119273
-0.0263962 -0.011159599 0.52041292
-0.025139838 -0.010555685 0.52059031
-0.023883477 -0.0099518001 0.52076769
-0.022232115 -0.0091504008 0.51998657
-0.020978093 -0.008547619 0.52016366
-0.01933369 -0.0077495649 0.51938146
-0.018081993 -0.0071479157 0.51955819
-0.016444653 -0.0063532367 0.51877517
-0.01519528 -0.005752705 0.51895159
-0.013564885 -0.0049613938 0.5181675
-0.011939198 -0.0041723251 0.51738274
-0.010694474 -0.0035740286 0.51755852
-0.0090757459 -0.0027883053 0.51677275
-0.0078333914 -0.0021911412 0.51694816
-0.0065910071 -0.0015939623 0.51712358
-0.0053486228 -0.00099678338 0.517299
-0.0041062534 -0.00039960444 0.51747447
0.062353671 0.031752035 0.49947244
0.063533127 0.032318965 0.49963897
0.064712554 0.032885879 0.49980551
0.065892003 0.033452809 0.49997205
0.067071438 0.034019738 0.50013858
0.06849204 0.034710221 0.49932483
0.069907978 0.035398453 0.49851045
0.071082756 0.035963133 0.49867633
0.072491691 0.036648013 0.497861
0.1074921 0.053517558 0.49671724
0.10865057 0.054074399 0.49688083
0.10980903 0.054631241 0.49704441
0.11112706 0.055272423 0.49621624
0.1122832 0.055828139 0.49637949
0.11343934 0.056383856 0.49654272
0.11474804 0.05702056 0.4957132
0.11590184 0.057575163 0.49587613
0.11705564 0.058129761 0.49603906
0.11820944 0.05868436 0.49620196
0.11936325 0.059238959 0.49636489
0.12051705 0.059793562 0.49652782
0.12167085 0.060348161 0.49669072
0.12282465 0.060902763 0.49685365
0.12411238 0.061529379 0.49602118
0.12526385 0.062082857 0.49618375
0.12641533 0.062636338 0.49634635
0.1275668 0.063189819 0.49650893
0.12884288 0.063810825 0.49567482
0.12999202 0.064363189 0.49583706
0.13114116 0.064915545 0.49599934
0.13240792 0.065532081 0.49516386
0.13355473 0.066083319 0.4953258
0.13481449 0.066696495 0.4944894
0.13595897 0.067246608 0.49465099
0.13710344 0.067796722 0.49481261
0.13835388 0.06840542 0.49397483
0.13949603 0.068954416 0.4941361
0.14073947 0.069559745 0.4932974
0.14187929 0.070107624 0.49345836
0.14301911 0.070655502 0.49361929
0.14425322 0.07125634 0.49277925
0.14539072 0.0718031 0.49293986
0.14661786 0.072400585 0.49209884
0.147753 0.072946221 0.49225911
0.14888816 0.073491856 0.49241939
0.15010595 0.074084863 0.49157706
0.15123878 0.074629381 0.49173701
0.15237162 0.0751739 0.49189696
0.15350443 0.075718418 0.49205691
0.15463725 0.076262936 0.49221689
0.15584108 0.076849215 0.49137256
0.15697157 0.077392608 0.49153218
0.15810207 0.077936001 0.4916918
0.15923256 0.078479402 0.49185142
0.1941953 0.095361382 0.48664516
0.19530249 0.095893577 0.48680151
0.19639674 0.096427202 0.48594171
0.1975016 0.096958272 0.48609769
0.19860646 0.097489342 0.48625371
0.19971131 0.098020419 0.48640972
0.20079392 0.098548442 0.48554829
0.20189643 0.099078387 0.48570395
0.20299897 0.099608339 0.48585963
0.20407225 0.10013188 0.48499689
0.20517243 0.1006607 0.48515224
0.20627263 0.10118954 0.48530757
0.2073366 0.10170859 0.48444352
0.20843446 0.1022363 0.48459852
0.20953232 0.10276401 0.48475355
0.21063018 0.10329172 0.48490855
0.21172804 0.10381944 0.48506358
0.21277803 0.10433178 0.48419753
0.21387354 0.10485837 0.48435223
0.21496907 0.10538495 0.48450691
0.21600974 0.10589281 0.48363951
0.21710293 0.10641827 0.48379388
0.21819612 0.10694375 0.48394823
0.21928932 0.10746922 0.48410261
0.22031832 0.10797146 0.48323363
0.22134267 0.10847148 0.48236394
0.22243121 0.1089947 0.48251763
0.22351974 0.10951793 0.48267132
0.22453475 0.11001346 0.48180038
0.22562096 0.11053557 0.48195374
0.22670716 0.11105768 0.48210713
0.22771287 0.11154872 0.48123482
0.22879674 0.11206971 0.48138788
0.2298806 0.1125907 0.48154092
0.23087698 0.11307727 0.48066729
0.23195852 0.11359713 0.48082
0.23294792 0.11408034 0.47994542
0.23402712 0.11459908 0.4800978
0.23510632 0.11511783 0.48025018
0.23608638 0.11559655 0.47937423
0.23716326 0.11611418 0.47952628
0.23824015 0.11663181 0.47967833
0.23931703 0.11714943 0.47983041
0.24028543 0.11762255 0.47895285
0.24124917 0.11809343 0.47807461
0.24232137 0.11860882 0.47822601
0.2433936 0.1191242 0.4783774
0.24446583 0.11963959 0.4785288
0.24553803 0.12015498 0.47868019
0.24648781 0.12061914 0.47780004
0.24755768 0.1211334 0.47795111
0.24862759 0.12164767 0.47810218
0.24969746 0.12216193 0.47825325
0.25076735 0.1226762 0.47840431
0.25183725 0.12319046 0.47855538
0.25277066 0.12364677 0.47767287
0.25383824 0.12415992 0.47782362
0.25476468 0.12461288 0.47694013
0.2558299 0.12512489 0.47709054
0.25674936 0.1255745 0.47620606
0.25781226 0.1260854 0.47635615
0.25887513 0.1265963 0.47650623
0.25978526 0.12704141 0.47562045
0.26084584 0.1275512 0.47577018
0.26174897 0.12799296 0.47488341
0.26280719 0.12850161 0.47503284
0.26386547 0.12901028 0.47518227
0.26492369 0.12951894 0.47533169
0.26598191 0.13002761 0.47548109
0.26687106 0.13046262 0.47459233
0.26792696 0.13097017 0.4747414
0.26898286 0.13147771 0.4748905
0.26986268 0.13190827 0.47400045
0.27091625 0.13241467 0.47414923
0.27196983 0.1329211 0.474298
0.27302343 0.13342753 0.47444677
0.27407697 0.13393395 0.47459552
0.27494282 0.13435778 0.47370347
0.27599406 0.13486308 0.47385192
0.27704531 0.13536838 0.47400036
0.27809656 0.13587368 0.47414878
0.27895072 0.13629189 0.4732551
0.27999961 0.13679609 0.47340322
0.28104854 0.13730027 0.4735513
0.28209746 0.13780445 0.47369942
0.28314635 0.13830863 0.47384754
0.28398657 0.13872012 0.47295186
0.28503314 0.13922319 0.47309965
0.28607973 0.13972625 0.47324741
0.2871263 0.14022931 0.4733952
0.28795487 0.14063519 0.47249788
0.28899911 0.14113715 0.47264534
0.29004335 0.14163908 0.47279277
0.2910876 0.14214101 0.47294024
0.29213184 0.14264297 0.47308767
0.2929464 0.14304215 0.47218838
0.29398832 0.14354298 0.47233552
0.29503024 0.14404377 0.47248262
0.29607216 0.1445446 0.47262976
0.29687506 0.14493817 0.47172877
0.29791462 0.14543787 0.47187558
0.29895425 0.14593758 0.47202235
0.29999381 0.14643727 0.47216916
0.30103341 0.14693698 0.47231594
0.302073 0.14743668 0.47246274
0.30285957 0.14782241 0.47155952
0.30389684 0.14832099 0.471706
0.30493408 0.14881957 0.47185245
0.30597135 0.14931814 0.4719989
0.30674627 0.14969827 0.47109404
0.30778122 0.15019573 0.47124016
0.30881613 0.15069319 0.47138628
0.30958176 0.15106884 0.47048008
0.31061435 0.15156518 0.47062591
0.31164694 0.15206152 0.4707717
0.31240323 0.15243268 0.46986419
0.31343347 0.15292791 0.47000965
0.31418276 0.1532957 0.46910116
0.3152107 0.1537898 0.4692463
0.31623864 0.1542839 0.46939144
0.3169786 0.15464722 0.46848163
0.31800419 0.15514019 0.46862644
0.31902981 0.15563318 0.46877125
0.32005543 0.15612614 0.46891606
0.32108101 0.15661913 0.4690609
0.321807 0.15697572 0.46814907
0.32283026 0.15746757 0.46829355
0.32385355 0.15795943 0.46843803
0.32487682 0.15845129 0.46858251
-0.16077945 -0.074375257 0.53788108
-0.15943918 -0.07373102 0.53807032
-0.15749303 -0.072790802 0.53733093
-0.15615505 -0.072147697 0.53751981
-0.1548171 -0.071504578 0.53770876
-0.15288031 -0.07056883 0.53696811
-0.15154469 -0.069926858 0.5371567
-0.14961487 -0.068994492 0.53641498
-0.14828157 -0.068353623 0.53660327
-0.14635876 -0.06742461 0.5358606
-0.14502782 -0.066784859 0.53604853
-0.14369684 -0.066145107 0.53623646
-0.1423659 -0.065505356 0.5364244
-0.14045474 -0.064581946 0.53568006
-0.13912615 -0.063943312 0.53586769
-0.1372219 -0.063023239 0.53512233
-0.13589564 -0.062385738 0.53530961
-0.13456938 -0.061748236 0.53549689
-0.13267449 -0.060832649 0.53475028
-0.13135052 -0.060196251 0.5349372
-0.13002658 -0.059559882 0.53512418
-0.12870261 -0.058923483 0.5353111
-0.1268194 -0.058013529 0.53456283
-0.12549776 -0.057378262 0.53474945
-0.12417614 -0.056742996 0.53493607
-0.1228545 -0.05610773 0.53512269
-0.12153289 -0.055472463 0.53530931
-0.12021127 -0.054837197 0.53549594
-0.11888963 -0.054201916 0.53568256
-0.11756802 -0.05356665 0.53586918
-0.11624637 -0.052931368 0.53605574
-0.11438653 -0.05203262 0.53530419
-0.11306721 -0.051398471 0.53549051
-0.11174792 -0.050764307 0.53567678
-0.11042863 -0.050130174 0.53586304
-0.10858035 -0.049236998 0.53510982
-0.10726339 -0.048603967 0.53529578
-0.10542211 -0.047714159 0.53454161
-0.10358557 -0.046826601 0.53378677
-0.10227326 -0.046195835 0.53397208
-0.10044366 -0.04531163 0.53321624
-0.09913367 -0.044681966 0.53340119
-0.09679845 -0.043549955 0.53170252
-0.095493108 -0.042922512 0.53188682
-0.093679845 -0.04204616 0.53112876
-0.091871232 -0.041172057 0.53036994
-0.090570599 -0.040546879 0.53055358
-0.088768989 -0.03967613 0.5297938
-0.086971998 -0.038807616 0.52903336
-0.085179687 -0.037941322 0.52827227
-0.083886027 -0.037319496 0.5284549
-0.082100719 -0.0364566 0.52769285
-0.080809414 -0.035835907 0.52787519
-0.07951808 -0.035215199 0.52805752
-0.07774207 -0.034356758 0.5272941
-0.07645309 -0.033737183 0.52747613
-0.074684113 -0.032882109 0.5267117
-0.073397428 -0.032263651 0.52689338
-0.072110772 -0.031645179 0.52707505
-0.070824116 -0.031026721 0.52725673
-0.069066733 -0.030177251 0.52649063
-0.067782432 -0.029559895 0.52667201
-0.066498071 -0.028942555 0.52685332
-0.06521377 -0.028325215 0.5270347
-0.063468069 -0.027481355 0.52626705
-0.062186092 -0.026865147 0.52644807
-0.060447395 -0.026024632 0.52567941
-0.059167713 -0.025409542 0.52586007
-0.057436019 -0.024572402 0.52509046
-0.056158692 -0.023958415 0.52527082
-0.054433987 -0.023124635 0.52450013
-0.053158969 -0.02251178 0.5246802
-0.051441252 -0.021681361 0.52390856
-0.0497282 -0.020853169 0.52313626
-0.048457861 -0.020242549 0.52331561
-0.046751797 -0.019417733 0.52254236
-0.045483768 -0.018808246 0.52272141
-0.043784708 -0.017986789 0.52194709
-0.042519033 -0.017378405 0.52212584
-0.040826961 -0.016560316 0.52135056
-0.039563596 -0.015953049 0.52152896
-0.038300261 -0.015345797 0.52170736
-0.036617488 -0.014532171 0.52093077
-0.035356462 -0.013926037 0.52110881
-0.034095436 -0.013319902 0.5212869
-0.032422021 -0.012510777 0.520509
-0.031163335 -0.01190576 0.52068675
-0.029904634 -0.011300743 0.52086443
-0.028645933 -0.010695726 0.52104217
-0.026984185 -0.0098921955 0.52026266
-0.025727823 -0.0092882961 0.52044004
-0.024471462 -0.0086843967 0.52061743
-0.022819012 -0.0078853518 0.5198366
-0.02156499 -0.00728257 0.52001369
-0.0199195 -0.0064868703 0.51923174
-0.018667802 -0.0058852211 0.51940852
-0.01702936 -0.0050928965 0.51862574
-0.015779987 -0.0044923648 0.51880217
-0.014148504 -0.0037034005 0.51801831
-0.012901485 -0.0031039864 0.51819444
-0.01127702 -0.0023183823 0.51740962
-0.010032296 -0.0017200857 0.5175854
-0.0087876022 -0.0011217892 0.51776111
-0.0071724504 -0.00034067035 0.51697499
-0.0059300661 0.00025649369 0.5171504
-0.0046876967 0.00085367262 0.51732588
0.059184238 0.031678945 0.49997595
0.06036602 0.032246992 0.50014281
0.061547786 0.032815039 0.50030971
0.062729552 0.033383086 0.5004766
0.063911334 0.033951133 0.50064343
0.0650931 0.034519173 0.50081027
0.066519454 0.035209533 0.49999753
0.067698896 0.035776462 0.50016403
0.069118254 0.036463477 0.49935025
0.070532948 0.03714823 0.49853584
0.10694994 0.054686196 0.49657869
0.1081084 0.055243038 0.49674228
0.10926686 0.055799879 0.49690583
0.11042532 0.056356721 0.49706942
0.11158378 0.056913562 0.497233
0.11274225 0.057470404 0.49739659
0.11405439 0.058105871 0.4965677
0.11521052 0.058661595 0.49673095
0.11636665 0.059217311 0.49689418
0.11766946 0.059848297 0.49606398
0.11882326 0.060402896 0.49622688
0.11997706 0.060957499 0.49638981
0.12113086 0.061512098 0.49655274
0.12228467 0.0620667 0.49671564
0.12343846 0.062621295 0.49687856
0.12472496 0.063244447 0.49604604
0.12587643 0.063797921 0.49620864
0.1270279 0.064351402 0.49637121
0.12830508 0.064970061 0.49553737
0.12945421 0.065522425 0.49569964
0.13060334 0.066074781 0.49586189
0.13187119 0.066688962 0.49502671
0.13301802 0.067240201 0.49518862
0.13427886 0.067851022 0.49435252
0.13542333 0.068401136 0.49451411
0.13656782 0.068951249 0.49467573
0.1377123 0.06950137 0.49483731
0.13896149 0.070106596 0.49399951
0.14010364 0.070655592 0.49416077
0.14134586 0.07125745 0.49332201
0.14248566 0.071805328 0.49348298
0.14362548 0.072353207 0.49364391
0.14485836 0.072950579 0.49280381
0.14599586 0.073497333 0.49296442
0.14722174 0.074091353 0.49212334
0.1483569 0.074636988 0.49228364
0.14949206 0.075182624 0.49244392
0.15070862 0.075772151 0.49160153
0.15184143 0.07631667 0.49176148
0.15297426 0.076861188 0.49192142
0.15410709 0.077405706 0.49208137
0.15523991 0.077950224 0.49224135
0.15637273 0.078494743 0.4924013
0.15757298 0.079076424 0.49155658
0.15870348 0.079619825 0.49171621
0.15983397 0.080163218 0.49187586
0.16096446 0.080706619 0.49203548
0.19698451 0.098072827 0.48596555
0.19808938 0.098603904 0.48612157
0.19917542 0.09913069 0.48526073
0.20027792 0.09966065 0.48541641
0.20138045 0.10019059 0.4855721
0.20248297 0.10072055 0.48572776
0.20358549 0.1012505 0.48588344
0.20465754 0.10177056 0.48502064
0.20575774 0.10229939 0.485176
0.20685792 0.10282822 0.48533133
0.20792064 0.10334381 0.48446721
0.20901851 0.10387152 0.48462224
0.21011636 0.10439923 0.48477724
0.21121424 0.10492694 0.48493227
0.21226531 0.10543693 0.48406652
0.21336083 0.10596352 0.48422119
0.21445635 0.10649011 0.48437589
0.21555188 0.1070167 0.48453057
0.2165913 0.10752108 0.48366314
0.21768451 0.10804655 0.48381749
0.21877769 0.10857201 0.48397186
0.2198078 0.10907191 0.48310316
0.22089866 0.10959626 0.48325717
0.22192177 0.1100928 0.48238742
0.2230103 0.11061603 0.48254114
0.22409883 0.11113926 0.48269483
0.22511262 0.11163132 0.48182383
0.22619882 0.11215343 0.48197722
0.22728503 0.11267553 0.48213059
0.22828948 0.11316311 0.48125824
0.22937335 0.1136841 0.48141128
0.23045722 0.11420508 0.48156431
0.23145236 0.11468817 0.48069066
0.2325339 0.11520804 0.48084337
0.23361544 0.11572792 0.48099607
0.23460126 0.11620653 0.48012111
0.23568046 0.11672527 0.48027349
0.23665927 0.11720052 0.47939748
0.23773617 0.11771815 0.47954956
0.23881304 0.11823578 0.47970161
0.23988992 0.1187534 0.47985366
0.24085708 0.11922305 0.47897607
0.24193162 0.11973955 0.47912779
0.24289179 0.12020585 0.47824916
0.24396402 0.12072123 0.47840056
0.24503624 0.12123661 0.47855195
0.24610847 0.12175201 0.47870335
0.24718067 0.12226739 0.47885478
0.2482529 0.12278277 0.47900617
0.24932513 0.12329816 0.47915757
0.25026664 0.12375548 0.47827634
0.25133651 0.12426975 0.47842741
0.25240642 0.12478402 0.47857848
0.25333861 0.12523685 0.47769594
0.25440615 0.12575001 0.47784668
0.25533137 0.12619948 0.47696313
0.25639659 0.1267115 0.47711354
0.2573148 0.12715763 0.47622901
0.2583777 0.12766853 0.4763791
0.2594406 0.12817945 0.47652918
0.26034948 0.12862107 0.47564334
0.26141006 0.12913087 0.47579309
0.2624706 0.12964064 0.47594285
0.26337019 0.13007781 0.47505569
0.26442844 0.13058648 0.47520512
0.26548666 0.13109514 0.47535452
0.26654488 0.13160379 0.47550395
0.26743281 0.13203534 0.47461513
0.26848871 0.13254289 0.47476423
0.2695446 0.13305044 0.4749133
0.2706005 0.13355798 0.4750624
0.27147675 0.13398394 0.474172
0.27253035 0.13449036 0.47432074
0.27358389 0.13499677 0.47446951
0.27445084 0.13541824 0.47357774
0.27550209 0.13592353 0.47372618
0.27655333 0.13642885 0.47387463
0.27760458 0.13693416 0.47402304
0.27865583 0.13743946 0.47417149
0.27970704 0.13794476 0.47431993
0.28055766 0.13835838 0.47342587
0.28160655 0.13886257 0.47357395
0.28265548 0.13936675 0.47372207
0.28370437 0.13987093 0.47387019
0.28454334 0.14027897 0.47297445
0.28558993 0.14078203 0.47312224
0.2866365 0.14128509 0.47327003
0.28768307 0.14178815 0.47341779
0.28872967 0.14229122 0.47356558
0.28955466 0.14269251 0.47266787
0.29059887 0.14319444 0.47281533
0.29164314 0.1436964 0.47296277
0.29268739 0.14419833 0.47311023
0.29373163 0.14470027 0.47325766
0.29454261 0.14509484 0.47235802
0.29558453 0.14559567 0.47250512
0.29662645 0.1460965 0.47265226
0.29766837 0.14659731 0.47279936
0.29871029 0.14709814 0.47294649
0.29975221 0.14759895 0.4730936
0.30054688 0.1479857 0.4721916
0.30158645 0.14848539 0.47233841
0.30262607 0.14898509 0.47248518
0.30366564 0.14948478 0.47263199
0.3047052 0.14998449 0.47277877
0.3054859 0.15036452 0.47187486
0.30652317 0.1508631 0.47202131
0.30729687 0.15123975 0.47111639
0.30833179 0.15173721 0.47126251
0.3093667 0.15223467 0.47140864
0.31013107 0.15260684 0.47050241
0.31116366 0.15310317 0.4706482
0.31192106 0.15347201 0.46974096
0.31295133 0.15396722 0.46988642
0.31398159 0.15446243 0.47003192
0.31472963 0.15482676 0.46912336
0.31575757 0.15532085 0.4692685
0.31678551 0.15581495 0.46941364
0.31752422 0.15617481 0.46850377
0.31854984 0.15666778 0.46864858
0.31957543 0.15716076 0.46879339
0.32060105 0.15765375 0.46893823
0.3216266 0.15814671 0.46908304
0.32265222 0.1586397 0.46922785
0.32367784 0.15913266 0.46937266
0.32470345 0.15962565 0.4695175
-0.1614067 -0.073023215 0.5377208
-0.16006643 -0.072378978 0.53791004
-0.15872619 -0.071734771 0.53809929
-0.15678123 -0.070797995 0.53735977
-0.15544328 -0.070154876 0.53754872
-0.15410537 -0.069511771 0.53773761
-0.15216976 -0.06857951 0.53699696
-0.15023884 -0.067649484 0.53625554
-0.14890555 -0.067008615 0.53644377
-0.14757231 -0.066367745 0.53663206
-0.14623904 -0.065726876 0.53682029
-0.14431974 -0.064802468 0.53607726
-0.1429888 -0.064162716 0.53626519
-0.14165786 -0.063522965 0.53645313
-0.13974795 -0.062603027 0.53570873
-0.1384193 -0.061964393 0.53589636
-0.13651636 -0.061047807 0.535151
-0.1351901 -0.060410306 0.53533828
-0.13386378 -0.059772775 0.53552556
-0.13197014 -0.05886066 0.53477889
-0.1306462 -0.058224291 0.53496581
-0.12932223 -0.057587892 0.53515279
-0.12799826 -0.056951508 0.53533971
-0.12611631 -0.056045026 0.53459138
-0.12479469 -0.055409759 0.534778
-0.12347305 -0.054774493 0.53496462
-0.12215143 -0.054139227 0.53515124
-0.12082982 -0.05350396 0.53533787
-0.11950818 -0.052868679 0.53552449
-0.11818653 -0.052233413 0.53571111
-0.11686489 -0.051598132 0.53589767
-0.11554328 -0.050962865 0.53608429
-0.11368465 -0.050067589 0.53533268
-0.11236537 -0.049433425 0.535519
-0.11104605 -0.048799291 0.53570527
-0.10919669 -0.04790847 0.53495228
-0.10787973 -0.047275424 0.53513825
-0.10603738 -0.046387985 0.53438437
-0.10472277 -0.045756057 0.53457004
-0.10288742 -0.044871986 0.53381509
-0.10105672 -0.04399015 0.53305954
-0.099746734 -0.043360487 0.53324455
-0.097409338 -0.042233169 0.53154641
-0.096103996 -0.041605741 0.53173071
-0.09428966 -0.040731758 0.5309729
-0.092479944 -0.03985998 0.53021437
-0.091179281 -0.039234802 0.53039801
-0.089376599 -0.038366407 0.52963853
-0.087578535 -0.037500247 0.52887833
-0.085785121 -0.036636293 0.52811754
-0.084491462 -0.036014467 0.52830023
-0.082705081 -0.035153925 0.52753836
-0.081413746 -0.034533232 0.52772069
-0.079634339 -0.033676028 0.52695793
-0.078345329 -0.033056453 0.5271399
-0.077056348 -0.032436863 0.52732193
-0.075286299 -0.031584144 0.5265578
-0.073999614 -0.030965686 0.52673948
-0.072712928 -0.030347228 0.52692115
-0.070952177 -0.029498979 0.52615565
-0.069667816 -0.028881624 0.52633703
-0.068383515 -0.028264284 0.5265184
-0.067099154 -0.027646944 0.52669972
-0.065350085 -0.026804321 0.52593273
-0.064068049 -0.026188098 0.52611375
-0.062786072 -0.025571875 0.52629477
-0.061046302 -0.02473373 0.52552634
-0.05976662 -0.024118625 0.52570707
-0.058033824 -0.023283839 0.52493763
-0.056756496 -0.022669852 0.52511799
-0.055030704 -0.021838427 0.52434766
-0.053755686 -0.021225572 0.52452767
-0.052036881 -0.020397507 0.52375633
-0.050764188 -0.019785754 0.52393603
-0.049052387 -0.01896105 0.52316368
-0.047782034 -0.01835043 0.52334303
-0.046077222 -0.017529085 0.52256972
-0.044809192 -0.016919583 0.52274877
-0.043111384 -0.016101614 0.52197444
-0.041845709 -0.015493229 0.52215314
-0.040154859 -0.014678597 0.52137786
-0.038891524 -0.014071345 0.52155626
-0.037207663 -0.013260074 0.52077997
-0.035946637 -0.012653939 0.52095801
-0.034685612 -0.012047805 0.52113605
-0.033011094 -0.011241034 0.52035844
-0.031752422 -0.010636002 0.52053618
-0.030493721 -0.010030985 0.52071393
-0.028828517 -0.0092286915 0.51993495
-0.02757217 -0.0086247921 0.5201124
-0.026315808 -0.0080208927 0.52028978
-0.024659961 -0.0072230846 0.51950955
-0.02340591 -0.0066203028 0.51968658
-0.022151887 -0.006017521 0.51986367
-0.020505309 -0.0052241758 0.51908207
-0.019253612 -0.0046225265 0.5192588
-0.017614067 -0.0038325414 0.51847631
-0.016364694 -0.0032320097 0.51865274
-0.015115321 -0.002631478 0.51882911
-0.013485104 -0.0018459931 0.51804525
-0.011859536 -0.0010627434 0.51726073
-0.010614842 -0.00046443939 0.5174365
-0.0093701482 0.00013384968 0.51761228
-0.0077538788 0.00091262162 0.51682639
-0.0065115094 0.0015097857 0.51700181
-0.00526914 0.0021069646 0.51717728
-0.0040267408 0.0027041435 0.5173527
0.057187408 0.032175243 0.5006448
0.058371514 0.032744408 0.50081199
0.05955562 0.033313572 0.50097919
0.060739726 0.033882737 0.50114644
0.061923832 0.034451902 0.50131357
0.063107938 0.035021067 0.50148082
0.064540029 0.035711326 0.50066894
0.065721795 0.036279365 0.50083578
0.067146912 0.036966261 0.50002301
0.068567358 0.03765092 0.49920946
0.06998314 0.038333334 0.49839532
0.1052493 0.055297993 0.49627656
0.10640777 0.055854835 0.49644014
0.10739981 0.056329802 0.4975943
0.10872469 0.056968518 0.49676728
0.10988316 0.057525359 0.49693087
0.11104162 0.058082201 0.49709445
0.11220008 0.058639042 0.49725801
0.11335854 0.059195884 0.49742159
0.114517 0.059752725 0.49758518
0.11582558 0.060383603 0.4967559
0.11698171 0.060939319 0.49691916
0.11828327 0.061566833 0.49608889
0.11943708 0.062121436 0.49625179
0.12059087 0.062676035 0.49641472
0.12174468 0.063230634 0.49657765
0.12289847 0.06378524 0.49674055
0.12405228 0.064339831 0.49690348
0.12520608 0.064894438 0.49706641
0.12648901 0.065512985 0.49623349
0.12776726 0.066129297 0.49539992
0.12891641 0.066681653 0.4955622
0.13006555 0.06723401 0.49572444
0.13133448 0.067845851 0.49488953
0.13248129 0.06839709 0.49505147
0.13374324 0.069005549 0.49421564
0.13488771 0.06955567 0.49437723
0.13603219 0.070105791 0.49453884
0.13717666 0.070655912 0.49470043
0.13842696 0.071258776 0.4938629
0.1395691 0.071807772 0.49402416
0.14081241 0.072407283 0.4931857
0.14195222 0.072955161 0.49334663
0.14309204 0.073503032 0.49350759
0.14432602 0.074098058 0.49266776
0.1454635 0.074644811 0.49282837
0.14660099 0.075191572 0.492989
0.14773847 0.075738326 0.49314961
0.1489608 0.076327749 0.49230814
0.15009594 0.076873384 0.49246842
0.15131128 0.077459455 0.49162596
0.15244409 0.078003965 0.49178594
0.15357691 0.078548484 0.49194589
0.15470974 0.079092994 0.49210584
0.15584257 0.079637513 0.49226579
0.15697539 0.080182031 0.49242577
0.1581082 0.080726549 0.49258572
0.15930489 0.081303641 0.49174064
0.16043538 0.081847042 0.49190027
0.16156587 0.082390435 0.49205989
0.16275322 0.082963049 0.49121347
0.16388139 0.083505332 0.49137279
0.19867715 0.10024953 0.48614544
0.19976196 0.10077286 0.48528454
0.20086446 0.1013028 0.48544022
0.20196697 0.10183275 0.48559591
0.20306951 0.10236271 0.48575157
0.20414265 0.10288042 0.48488906
0.20524284 0.10340925 0.48504439
0.20634302 0.10393807 0.48519975
0.20744321 0.10446691 0.48535511
0.20850471 0.10497902 0.48449093
0.20960256 0.10550673 0.48464593
0.21070042 0.10603444 0.48480096
0.21175259 0.10654208 0.48393548
0.21284813 0.10706867 0.48409015
0.21394365 0.10759526 0.48424485
0.21503918 0.10812185 0.48439956
0.21607968 0.10862388 0.48353237
0.21717289 0.10914935 0.48368675
0.21826607 0.10967482 0.48384109
0.21935928 0.11020029 0.48399547
0.22038811 0.11069671 0.4831267
0.22141232 0.1111909 0.48225725
0.22250086 0.11171413 0.48241094
0.22358939 0.11223736 0.48256466
0.22467794 0.11276059 0.48271835
0.22569047 0.11324917 0.48184729
0.22677667 0.11377127 0.48200068
0.22778222 0.1142565 0.4811286
0.2288661 0.11477749 0.48128164
0.22994997 0.11529848 0.48143467
0.23103383 0.11581947 0.48158774
0.23202774 0.11629909 0.48071402
0.23310927 0.11681896 0.48086673
0.23419082 0.11733882 0.48101944
0.23517539 0.11781396 0.48014441
0.2362546 0.11833271 0.48029679
0.2373338 0.11885146 0.48044917
0.23841304 0.11937021 0.48060158
0.23938593 0.11983974 0.47972485
0.24046281 0.12035736 0.47987691
0.24153969 0.12087499 0.48002899
0.24250329 0.12134006 0.47915101
0.24357782 0.12185656 0.47930273
0.24465238 0.12237307 0.47945446
0.24572694 0.12288958 0.47960618
0.24667886 0.12334903 0.47872651
0.24775109 0.12386441 0.4788779
0.24882331 0.1243798 0.47902933
0.24989554 0.12489519 0.47918072
0.25096774 0.12541056 0.47933212
0.25190568 0.1258633 0.47845054
0.25297558 0.12637757 0.4786016
0.25390655 0.12682694 0.47771901
0.2549741 0.12734008 0.47786975
0.25589806 0.1277861 0.47698614
0.25696328 0.12829812 0.47713655
0.25788027 0.12874076 0.47625196
0.25894314 0.12925167 0.47640204
0.26000607 0.12976258 0.47655213
0.2609137 0.13020074 0.47566625
0.26197425 0.13071051 0.47581601
0.26303482 0.13122031 0.47596574
0.2640954 0.13173009 0.47611549
0.2649914 0.13216266 0.47522795
0.26604962 0.13267133 0.47537738
0.26710784 0.13317999 0.47552681
0.26799452 0.13360807 0.47463793
0.26905042 0.13411561 0.47478703
0.27010632 0.13462315 0.4749361
0.27116224 0.1351307 0.4750852
0.27203727 0.13555318 0.47419474
0.27309081 0.1360596 0.47434351
0.27414438 0.13656601 0.47449225
0.27501008 0.13698402 0.47360045
0.27606133 0.13748932 0.47374889
0.27711257 0.13799463 0.47389731
0.27816382 0.13849995 0.47404575
0.27921504 0.13900524 0.4741942
0.28026628 0.13951054 0.47434264
0.28111565 0.13992068 0.47344851
0.28216457 0.14042488 0.4735966
0.28321347 0.14092904 0.47374472
0.28426239 0.14143324 0.47389284
0.28531131 0.14193742 0.47404093
0.2861467 0.14234085 0.47314483
0.28719327 0.14284392 0.47329262
0.28823987 0.14334698 0.47344041
0.28928643 0.14385004 0.47358817
0.290333 0.14435309 0.47373596
0.29115441 0.14474982 0.47283787
0.29219866 0.14525175 0.47298533
0.29324293 0.1457537 0.47313279
0.29428717 0.14625563 0.47328022
0.29533142 0.14675757 0.47342768
0.29613882 0.14714757 0.47252762
0.29718074 0.14764839 0.47267476
0.29822266 0.14814922 0.47282186
0.29926458 0.14865002 0.472969
0.3003065 0.14915085 0.4731161
0.30134842 0.14965168 0.47326323
0.30213952 0.1500338 0.47236085
0.30317909 0.1505335 0.47250763
0.30421868 0.15103321 0.47265443
0.30500045 0.15141088 0.4717508
0.30603772 0.15190947 0.47189724
0.30681252 0.15228376 0.47099259
0.30784744 0.15278122 0.47113872
0.30888236 0.15327868 0.47128487
0.30964783 0.15364851 0.47037888
0.31068042 0.15414484 0.4705247
0.31171301 0.15464118 0.47067049
0.31246915 0.15500653 0.46976322
0.31349942 0.15550175 0.46990868
0.31424856 0.15586373 0.4690004
0.3152765 0.15635782 0.46914557
0.31630442 0.15685192 0.4692907
0.31733233 0.15734601 0.46943584
0.31836027 0.1578401 0.46958098
0.31909543 0.15819538 0.46867073
0.32012105 0.15868835 0.46881557
0.32114661 0.15918133 0.46896037
0.32217222 0.1596743 0.46910518
0.32319784 0.16016728 0.46924999
0.32422346 0.16066027 0.46939483
-0.16264668 -0.071964696 0.53848791
-0.16069371 -0.071026921 0.53774971
-0.15935346 -0.070382714 0.53793895
-0.1574074 -0.069448292 0.5371998
-0.15606946 -0.068805173 0.53738868
-0.15473151 -0.068162069 0.53757763
-0.15339357 -0.06751895 0.53776652
-0.15145922 -0.06659016 0.53702581
-0.1501236 -0.065948173 0.5372144
-0.14819631 -0.065022737 0.53647256
-0.14686304 -0.064381897 0.53666085
-0.14552972 -0.063740999 0.53684908
-0.14419645 -0.063100129 0.53703737
-0.14228076 -0.06218031 0.53629392
-0.14094982 -0.061540559 0.53648186
-0.1390411 -0.060624093 0.53573745
-0.13771248 -0.059985459 0.53592503
-0.13581079 -0.05907236 0.53517962
-0.13448447 -0.058434829 0.53536689
-0.13315818 -0.057797328 0.53555417
-0.13126582 -0.0568887 0.53480744
-0.12994185 -0.056252301 0.53499442
-0.12861788 -0.055615917 0.53518134
-0.12673482 -0.054711789 0.53443331
-0.12541321 -0.054076523 0.53461993
-0.12409157 -0.053441241 0.53480655
-0.12276995 -0.052805975 0.53499317
-0.12144834 -0.052170709 0.53517979
-0.12012669 -0.051535442 0.53536642
-0.11880508 -0.050900176 0.53555298
-0.11694068 -0.050004974 0.53480232
-0.11562139 -0.04937084 0.53498864
-0.1143021 -0.048736706 0.53517491
-0.11298281 -0.048102543 0.53536117
-0.11113 -0.047212958 0.53460878
-0.10981306 -0.046579927 0.53479475
-0.10849607 -0.045946896 0.53498071
-0.10665265 -0.045061797 0.53422713
-0.10533801 -0.044429883 0.5344128
-0.10350159 -0.043548167 0.53365815
-0.10218927 -0.042917371 0.53384346
-0.10035983 -0.042039007 0.53308785
-0.098020226 -0.040916383 0.53139025
-0.096714914 -0.040288955 0.53157461
-0.094899446 -0.039417326 0.53081703
-0.093088657 -0.038547903 0.5300588
-0.091788024 -0.037922725 0.53024244
-0.089984208 -0.03705667 0.52948326
-0.088185072 -0.036192864 0.52872336
-0.086390555 -0.035331279 0.5279628
-0.085096896 -0.034709454 0.52814549
-0.083309412 -0.033851266 0.52738392
-0.082018107 -0.033230558 0.52756625
-0.080237597 -0.032375708 0.52680373
-0.078948587 -0.031756118 0.52698576
-0.077659607 -0.031136543 0.52716774
-0.075888425 -0.030286178 0.5264039
-0.074601769 -0.02966772 0.52658558
-0.073315114 -0.029049248 0.52676725
-0.072028458 -0.02843079 0.52694893
-0.070268899 -0.027586013 0.52618343
-0.068984598 -0.026968673 0.52636474
-0.067700237 -0.026351318 0.52654612
