# .PCD v0.7 - Point Cloud Data file format
VERSION 0.7
FIELDS x y z
SIZE 4 4 4
TYPE F F F
COUNT 1 1 1
WIDTH 1348
HEIGHT 1
VIEWPOINT 0 0 0 1 0 0 0
POINTS 1348
DATA ascii
0.058264118 -0.035561364 0.48090371
0.059518117 -0.035561431 0.48090348
0.060645737 -0.035487555 0.47990325
0.061897129 -0.035487618 0.47990301
0.063148513 -0.035487685 0.47990274
0.064265706 -0.035413813 0.47890255
0.06551449 -0.035413876 0.47890231
0.066623867 -0.03534 0.47790208
0.067870051 -0.035340063 0.47790185
0.06911622 -0.03534013 0.47790158
0.070362397 -0.035340194 0.47790134
0.071458742 -0.035266321 0.47690114
0.072702311 -0.035266384 0.47690091
0.07394588 -0.035266452 0.47690064
0.075031787 -0.035192572 0.47590044
0.076272748 -0.035192635 0.47590017
0.077350847 -0.035118759 0.47490001
0.078589201 -0.035118826 0.47489977
0.079827555 -0.035118889 0.4748995
0.080895215 -0.035045013 0.47389933
0.082130961 -0.03504508 0.47389907
0.083190814 -0.034971192 0.47289887
0.084423952 -0.03497126 0.47289863
0.08565709 -0.034971323 0.47289836
0.086890236 -0.034971386 0.47289813
0.087937035 -0.03489751 0.47189796
0.088978626 -0.03482363 0.47089773
0.090206556 -0.034823693 0.4708975
0.091434479 -0.034823757 0.47089726
0.092465639 -0.03474988 0.46989709
0.093690962 -0.034749944 0.46989682
0.094714306 -0.03467606 0.46889663
0.095937021 -0.034676127 0.46889639
0.097159736 -0.03467619 0.46889615
0.098382451 -0.034676254 0.46889588
0.099605165 -0.034676317 0.46889564
0.10082788 -0.03467638 0.46889541
0.10205059 -0.034676444 0.46889517
0.1032733 -0.034676511 0.4688949
0.10449602 -0.034676574 0.46889466
0.10571872 -0.034676638 0.46889442
0.10694144 -0.034676701 0.46889418
0.10816415 -0.034676764 0.46889392
0.10938686 -0.034676827 0.46889368
0.11060958 -0.034676895 0.46889344
0.11159381 -0.034603011 0.46789327
0.11281391 -0.034603078 0.46789303
0.11379033 -0.034529191 0.46689284
0.11500783 -0.034529254 0.4668926
0.11622533 -0.034529321 0.46689233
0.11719131 -0.034455433 0.4658922
0.11840621 -0.034455497 0.46589193
0.11962109 -0.03445556 0.46589169
0.12057666 -0.03438168 0.46489152
0.12178896 -0.034381744 0.46489128
0.12273667 -0.034307856 0.46389112
0.12394635 -0.034307919 0.46389085
0.12515603 -0.034307983 0.46389061
0.12636571 -0.034308046 0.46389037
0.12730041 -0.034234162 0.46289024
0.12850749 -0.034234226 0.46288997
0.12971455 -0.034234289 0.46288973
0.13063881 -0.034160402 0.46188956
0.13184327 -0.034160465 0.46188933
0.13304774 -0.034160528 0.46188909
0.13396159 -0.034086645 0.46088892
0.13516344 -0.034086708 0.46088868
0.13606948 -0.034012817 0.45988852
0.13726872 -0.03401288 0.45988825
0.13846797 -0.034012944 0.45988801
0.13936357 -0.033939056 0.45888788
0.14056022 -0.033939116 0.45888764
0.14175685 -0.033939179 0.4588874
0.14264202 -0.033865295 0.45788726
0.14383605 -0.033865355 0.45788702
0.14503008 -0.033865418 0.45788679
0.14622411 -0.033865482 0.45788655
0.14741816 -0.033865545 0.45788628
0.14828767 -0.033791658 0.45688611
0.14947911 -0.033791721 0.45688587
0.15034083 -0.03371783 0.45588574
0.15152964 -0.033717889 0.4558855
0.15271847 -0.033717953 0.45588526
0.15356973 -0.033644062 0.4548851
0.15475595 -0.033644125 0.45488486
0.15559939 -0.033570237 0.45388472
0.15643764 -0.033496343 0.45288455
0.15727066 -0.033422455 0.45188442
0.15774789 -0.033274613 0.44988438
0.15856789 -0.033200718 0.44888425
0.15973847 -0.033200782 0.44888401
0.1683065 -0.033275165 0.44988224
-0.32399958 -0.0414914 0.58197886
-0.32248229 -0.041491482 0.5819785
-0.32041353 -0.041420266 0.58097816
-0.31834996 -0.041349046 0.57997775
-0.31683788 -0.041349124 0.57997745
-0.31478214 -0.041277908 0.57897711
-0.31273156 -0.041206684 0.57797664
-0.31122467 -0.041206762 0.57797635
-0.30918199 -0.041135542 0.57697594
-0.30767772 -0.04113562 0.57697564
-0.30617347 -0.041135699 0.57697535
-0.30466917 -0.041135777 0.57697505
-0.30263951 -0.041064557 0.5759747
-0.30113786 -0.041064639 0.5759744
-0.29963621 -0.041064717 0.57597411
-0.29761696 -0.040993493 0.5749737
-0.2961179 -0.040993571 0.5749734
-0.29410645 -0.040922347 0.573973
-0.29260996 -0.040922426 0.57397264
-0.29060641 -0.040851202 0.5729723
-0.28860804 -0.040779985 0.57197195
-0.28711683 -0.04078006 0.57197165
-0.28512624 -0.04070884 0.57097125
-0.28363758 -0.040708918 0.57097095
-0.28165483 -0.040637694 0.56997061
-0.2801688 -0.040637773 0.56997031
-0.27819389 -0.040566545 0.56896991
-0.27671045 -0.040566623 0.56896961
-0.27474338 -0.040495396 0.5679692
-0.27278152 -0.040424176 0.56696886
-0.2713033 -0.040424254 0.56696856
-0.2698251 -0.040424328 0.56696826
-0.26787364 -0.040353108 0.56596792
-0.26639804 -0.040353186 0.56596762
-0.26445439 -0.040281955 0.56496722
-0.26298141 -0.040282033 0.56496692
-0.2610456 -0.04021081 0.56396657
-0.25911501 -0.040139582 0.56296617
-0.25764722 -0.040139657 0.56296587
-0.25572443 -0.040068433 0.56196553
-0.25425926 -0.040068511 0.56196523
-0.2518945 -0.039925974 0.55996478
-0.25043458 -0.039926052 0.55996448
-0.24897461 -0.039926127 0.55996418
-0.2470727 -0.039854903 0.55896384
-0.24561533 -0.039854977 0.55896354
-0.24372126 -0.03978375 0.55796319
-0.24226652 -0.039783828 0.55796289
-0.24038023 -0.0397126 0.55696255
-0.23892809 -0.039712675 0.55696225
-0.23747596 -0.039712753 0.55696195
-0.23560011 -0.039641526 0.55596161
-0.2341506 -0.039641604 0.55596137
-0.23270106 -0.039641678 0.55596107
-0.23083562 -0.039570443 0.55496067
-0.2293887 -0.039570518 0.55496037
-0.22794178 -0.039570596 0.55496007
-0.22608681 -0.039499369 0.55395973
-0.22464249 -0.039499443 0.55395943
-0.22319818 -0.039499518 0.55395913
-0.22175387 -0.039499596 0.55395883
-0.21991189 -0.039428364 0.55295855
-0.21847019 -0.039428439 0.55295825
-0.21702848 -0.039428513 0.55295795
-0.21558677 -0.039428588 0.55295765
-0.21375787 -0.03935736 0.55195731
-0.21231876 -0.039357435 0.55195701
-0.21087965 -0.039357509 0.55195671
-0.20906115 -0.039286278 0.55095637
-0.20762464 -0.039286353 0.55095607
-0.20618817 -0.039286427 0.55095577
-0.2043801 -0.039215192 0.54995543
-0.20294622 -0.039215267 0.54995513
-0.20114596 -0.039144035 0.54895484
-0.19971469 -0.03914411 0.54895455
-0.19792226 -0.039072875 0.5479542
-0.1964936 -0.039072953 0.5479539
-0.19506492 -0.039073028 0.54795367
-0.19328295 -0.039001796 0.54695332
-0.19185688 -0.039001871 0.54695302
-0.19043081 -0.039001945 0.54695272
-0.18865924 -0.03893071 0.54595238
-0.18689285 -0.038859472 0.54495203
-0.18547201 -0.038859546 0.54495174
-0.18371347 -0.038788315 0.54395145
-0.18229523 -0.038788389 0.54395115
-0.18054454 -0.038717154 0.54295081
-0.17912892 -0.038717225 0.54295051
-0.17738602 -0.038645994 0.54195023
-0.17597298 -0.038646068 0.54194993
-0.17423789 -0.038574826 0.54094958
-0.17250805 -0.038503587 0.53994924
-0.17110023 -0.038503662 0.53994894
-0.16937821 -0.038432427 0.53894866
-0.167973 -0.038432501 0.53894836
-0.16625878 -0.038361263 0.53794807
-0.1648562 -0.038361337 0.53794777
-0.16314977 -0.038290098 0.53694743
-0.1617498 -0.038290173 0.53694713
-0.16005121 -0.038218934 0.53594685
-0.15865383 -0.038219009 0.53594655
-0.15725644 -0.038219083 0.53594625
-0.15585907 -0.038219154 0.53594595
-0.15417354 -0.038147915 0.53494567
-0.15277876 -0.03814799 0.53494537
-0.15138398 -0.03814806 0.53494513
-0.14998919 -0.038148135 0.53494483
0.010833177 -0.035018157 0.49091342
0.012113247 -0.035018224 0.49091315
0.013393315 -0.035018291 0.49091288
0.014673383 -0.035018358 0.49091265
0.015920931 -0.034947094 0.48991239
0.017198391 -0.034947161 0.48991212
0.018475855 -0.034947228 0.48991188
0.019712975 -0.03487597 0.48891166
0.020987829 -0.034876037 0.48891142
0.022262683 -0.034876104 0.48891115
0.023537539 -0.034876168 0.48891088
0.024812393 -0.034876235 0.48891065
0.026087249 -0.034876302 0.48891038
0.027306119 -0.034805037 0.48791018
0.028578365 -0.034805104 0.48790991
0.029850613 -0.034805171 0.48790964
0.03112286 -0.034805238 0.48790941
0.03239511 -0.034805305 0.48790914
0.033667356 -0.034805372 0.4879089
0.03486798 -0.034734108 0.48690864
0.036137618 -0.034734171 0.48690841
0.037330419 -0.034662906 0.48590818
0.038597453 -0.034662973 0.48590794
0.039864488 -0.03466304 0.48590767
0.041131519 -0.034663107 0.48590744
0.042311285 -0.034591839 0.48490718
0.043575708 -0.034591906 0.48490694
0.044747654 -0.034520641 0.48390675
0.04600947 -0.034520708 0.48390648
0.047271293 -0.034520775 0.48390624
0.048533116 -0.034520842 0.48390597
0.04969202 -0.034449574 0.48290575
0.050951231 -0.034449641 0.48290551
0.052210443 -0.034449704 0.48290524
0.053469654 -0.034449771 0.482905
0.054728866 -0.034449838 0.48290473
0.055988081 -0.034449901 0.48290449
0.057128739 -0.034378637 0.4819043
0.058385346 -0.034378704 0.48190403
0.059518185 -0.034307435 0.48090383
0.060772181 -0.034307502 0.4809036
0.061897196 -0.03423623 0.47990337
0.06314858 -0.034236297 0.4799031
0.064265773 -0.034165032 0.47890294
0.065514557 -0.034165096 0.47890267
0.066623934 -0.034093823 0.47790244
0.067870118 -0.034093887 0.4779022
0.069116287 -0.034093954 0.47790194
0.070362464 -0.034094017 0.4779017
0.071458802 -0.034022752 0.4769015
0.072702371 -0.034022816 0.47690126
0.07394594 -0.034022883 0.47690102
0.075031854 -0.033951607 0.4759008
0.076272815 -0.03395167 0.47590056
0.077350907 -0.033880401 0.47490036
0.078589261 -0.033880468 0.47490013
0.079827614 -0.033880532 0.47489986
0.080895282 -0.03380926 0.47389969
0.082131028 -0.033809327 0.47389942
0.083366789 -0.033809394 0.47389919
0.084424011 -0.033738121 0.47289899
0.08565715 -0.033738185 0.47289872
0.086890295 -0.033738248 0.47289848
0.088123433 -0.033738315 0.47289824
0.08916764 -0.033667043 0.47189805
0.090206616 -0.033595767 0.47089785
0.091434538 -0.03359583 0.47089761
0.092662469 -0.033595897 0.47089738
0.093691029 -0.033524625 0.46989718
0.094916351 -0.033524688 0.46989694
0.096141674 -0.033524752 0.4698967
0.097366996 -0.033524819 0.46989644
0.09838251 -0.033453539 0.46889624
0.099605225 -0.033453602 0.468896
0.10082794 -0.033453666 0.46889576
0.10205065 -0.033453729 0.46889552
0.10327336 -0.033453796 0.46889526
0.10449608 -0.033453859 0.46889502
0.10571878 -0.033453923 0.46889478
0.1069415 -0.033453986 0.46889454
0.10816421 -0.033454049 0.46889427
0.10938692 -0.033454113 0.46889403
0.11060964 -0.03345418 0.4688938
0.11159388 -0.033382904 0.46789363
0.11281398 -0.033382971 0.46789339
0.11403409 -0.033383034 0.46789312
0.11500789 -0.033311754 0.46689296
0.11622539 -0.033311822 0.46689269
0.11744288 -0.033311885 0.46689245
0.11840627 -0.033240605 0.46589229
0.11962116 -0.033240668 0.46589205
0.12057672 -0.033169396 0.46489188
0.12178902 -0.03316946 0.46489164
0.12300129 -0.033169523 0.4648914
0.12394642 -0.033098243 0.46389121
0.12515609 -0.033098307 0.46389097
0.12636577 -0.03309837 0.46389073
0.12730047 -0.033027094 0.46289057
0.12850755 -0.033027157 0.46289033
0.12971461 -0.033027221 0.46289009
0.13092169 -0.033027284 0.46288985
0.13184333 -0.032956004 0.46188965
0.1330478 -0.032956067 0.46188942
0.13425225 -0.032956131 0.46188918
0.13516352 -0.032884851 0.46088904
0.13636538 -0.032884911 0.4608888
0.13726878 -0.032813631 0.45988861
0.13846803 -0.032813694 0.45988837
0.13936363 -0.032742415 0.45888823
0.14056028 -0.032742474 0.45888799
0.14175691 -0.032742538 0.45888776
0.14295356 -0.032742601 0.45888752
0.14383611 -0.032671321 0.45788735
0.14503014 -0.032671385 0.45788711
0.14622417 -0.032671448 0.45788687
0.14741822 -0.032671511 0.45788664
0.14828774 -0.032600228 0.45688647
0.14947918 -0.032600291 0.45688623
0.15034088 -0.032529008 0.4558861
0.1515297 -0.032529067 0.45588586
0.15271853 -0.032529131 0.45588562
0.15356979 -0.032457851 0.45488545
-0.32455617 -0.040042784 0.58297938
-0.3224822 -0.039974172 0.58197898
-0.32096487 -0.03997425 0.58197868
-0.31889871 -0.039905641 0.58097827
-0.317384 -0.039905719 0.58097798
-0.31532571 -0.039837103 0.57997757
-0.31381363 -0.039837182 0.57997727
-0.31176308 -0.039768573 0.57897693
-0.30971774 -0.039699961 0.57797647
-0.30821085 -0.039700039 0.57797617
-0.30617341 -0.039631426 0.57697582
-0.30466911 -0.039631505 0.57697552
-0.30316484 -0.039631583 0.57697517
-0.30166057 -0.039631661 0.57697487
-0.29963613 -0.039563049 0.57597452
-0.29813442 -0.039563127 0.57597423
-0.29611781 -0.039494511 0.57497382
-0.29461876 -0.039494589 0.57497352
-0.29260987 -0.039425973 0.57397312
-0.29111344 -0.039426051 0.57397282
-0.28911248 -0.039357431 0.57297242
-0.28711674 -0.039288819 0.57197207
-0.28562549 -0.039288897 0.57197177
-0.28363752 -0.039220285 0.57097143
-0.2821489 -0.039220363 0.57097113
-0.28016874 -0.039151747 0.56997073
-0.27868274 -0.039151825 0.56997043
-0.27671039 -0.039083205 0.56897002
-0.27474329 -0.039014585 0.56796968
-0.27326247 -0.039014664 0.56796938
-0.27130321 -0.038946051 0.56696898
-0.26982501 -0.038946126 0.56696868
-0.26787356 -0.038877513 0.56596833
-0.26639795 -0.038877591 0.56596804
-0.26445431 -0.038808964 0.56496763
-0.2625159 -0.038740348 0.56396729
-0.26104552 -0.038740426 0.56396699
-0.25957513 -0.038740501 0.56396669
-0.25764716 -0.038671881 0.56296635
-0.25572437 -0.038603261 0.56196594
-0.2542592 -0.038603339 0.56196564
-0.25234425 -0.038534723 0.5609653
-0.25043449 -0.0384661 0.5599649
-0.24897453 -0.038466174 0.5599646
-0.24707262 -0.038397558 0.55896425
-0.24561526 -0.038397633 0.55896395
-0.24415793 -0.038397711 0.55896366
-0.24226645 -0.038329087 0.55796331
-0.24081171 -0.038329162 0.55796301
-0.23892802 -0.038260542 0.55696267
-0.23747589 -0.03826062 0.55696243
-0.23602374 -0.038260695 0.55696213
-0.23415053 -0.038192078 0.55596179
-0.23270099 -0.038192153 0.55596149
-0.23125146 -0.038192227 0.55596119
-0.22938862 -0.038123596 0.55496079
-0.22794171 -0.038123675 0.55496049
-0.22649479 -0.038123749 0.55496019
-0.22504786 -0.038123824 0.55495989
-0.2231981 -0.038055204 0.55395955
-0.22175379 -0.038055282 0.55395931
-0.22030948 -0.038055357 0.55395901
-0.21886516 -0.038055431 0.55395871
-0.21702841 -0.037986808 0.55295837
-0.21558669 -0.037986882 0.55295807
-0.214145 -0.03798696 0.55295777
-0.21270329 -0.037987035 0.55295748
-0.21087958 -0.037918411 0.55195719
-0.2094405 -0.037918489 0.55195689
-0.20800139 -0.037918564 0.55195659
-0.2061881 -0.037849933 0.55095619
-0.2047516 -0.037850011 0.55095589
-0.20294616 -0.037781384 0.54995555
-0.20151225 -0.037781458 0.54995531
-0.19971462 -0.037712835 0.54895496
-0.19828333 -0.037712909 0.54895467
-0.19649352 -0.037644282 0.54795432
-0.19506484 -0.037644356 0.54795408
-0.19328287 -0.037575733 0.54695374
-0.1918568 -0.037575807 0.54695344
-0.19043073 -0.037575882 0.54695314
-0.18865916 -0.037507255 0.5459528
-0.18723567 -0.037507329 0.5459525
-0.18547194 -0.037438698 0.54495215
-0.18405108 -0.037438773 0.54495186
-0.18229516 -0.037370145 0.54395157
-0.18087691 -0.03737022 0.54395127
-0.17912884 -0.037301589 0.54295093
-0.17738594 -0.037232965 0.54195064
-0.17597291 -0.03723304 0.54195035
-0.17423782 -0.037164405 0.54095
-0.17282741 -0.037164479 0.5409497
-0.17110015 -0.037095848 0.53994936
-0.16937813 -0.037027221 0.53894907
-0.16797292 -0.037027296 0.53894877
-0.16625871 -0.036958665 0.53794849
-0.16485612 -0.036958739 0.53794819
-0.1631497 -0.036890104 0.53694785
-0.16174972 -0.036890179 0.53694755
-0.16005114 -0.036821548 0.5359472
-0.15865375 -0.036821622 0.53594697
-0.15725636 -0.036821697 0.53594667
-0.15585899 -0.036821768 0.53594637
0.0070215804 -0.033875328 0.49291453
0.0082899854 -0.033806674 0.49191427
0.0095726596 -0.033806741 0.491914
0.010855336 -0.033806808 0.49191374
0.012113314 -0.033738155 0.49091354
0.013393382 -0.033738222 0.49091327
0.01467345 -0.033738289 0.490913
0.015953518 -0.033738356 0.49091277
0.017233586 -0.033738423 0.4909125
0.018475922 -0.033669766 0.48991224
0.019713042 -0.033601116 0.48891205
0.021030843 -0.0336699 0.48991174
0.02226275 -0.03360125 0.48891151
0.023537606 -0.033601314 0.48891127
0.02481246 -0.033601381 0.488911
0.026087316 -0.033601448 0.48891076
0.02736217 -0.033601515 0.4889105
0.028637022 -0.033601582 0.48891023
0.02985068 -0.033532925 0.48791003
0.031122927 -0.033532992 0.48790976
0.032395173 -0.033533059 0.48790953
0.033667419 -0.033533126 0.48790926
0.034939665 -0.033533193 0.48790902
0.036137681 -0.033464532 0.48690876
0.03740732 -0.033464599 0.48690853
0.038597517 -0.033395942 0.4859083
0.039864551 -0.033396009 0.48590806
0.041131582 -0.033396076 0.48590779
0.042311348 -0.033327416 0.48490757
0.043575771 -0.033327483 0.4849073
0.044747718 -0.033258826 0.4839071
0.046009533 -0.033258893 0.48390687
0.047271356 -0.03325896 0.4839066
0.048533179 -0.033259027 0.48390636
0.049794998 -0.03325909 0.48390609
0.050951295 -0.033190429 0.48290586
0.052210506 -0.033190493 0.4829056
0.053469718 -0.03319056 0.48290536
0.054728929 -0.033190627 0.48290509
0.055988144 -0.03319069 0.48290485
0.057247356 -0.033190757 0.48290458
0.058385409 -0.033122096 0.48190439
0.059518248 -0.033053435 0.48090419
0.060772244 -0.033053502 0.48090395
0.06202624 -0.033053566 0.48090371
0.063148648 -0.032984905 0.47990349
0.06440004 -0.032984968 0.47990322
0.065514624 -0.032916311 0.47890303
0.066763408 -0.032916378 0.47890279
0.067870185 -0.03284771 0.47790256
0.069116354 -0.032847777 0.47790232
0.070362531 -0.03284784 0.47790205
0.071458869 -0.032779183 0.47690189
0.072702438 -0.032779247 0.47690162
0.073946007 -0.032779314 0.47690138
0.075189576 -0.032779377 0.47690111
0.076272883 -0.032710709 0.47590092
0.077350974 -0.032642048 0.47490072
0.078589328 -0.032642115 0.47490048
0.079827681 -0.032642178 0.47490022
0.081066042 -0.032642245 0.47489998
0.082131088 -0.032573581 0.47389981
0.083366849 -0.032573648 0.47389954
0.084602594 -0.032573707 0.4738993
0.085657217 -0.032505043 0.47289908
0.086890362 -0.032505106 0.47289884
0.0881235 -0.032505173 0.4728986
0.089167699 -0.032436509 0.47189841
0.09039823 -0.032436576 0.47189817
0.091434605 -0.032367904 0.47089797
0.092662536 -0.032367971 0.47089773
0.093890466 -0.032368034 0.47089747
0.094916411 -0.03229937 0.4698973
0.096141733 -0.032299433 0.46989706
0.097367056 -0.0322995 0.46989679
0.098592378 -0.032299563 0.46989655
0.099605292 -0.032230891 0.46889636
0.10082801 -0.032230955 0.46889612
0.10205071 -0.032231018 0.46889588
0.10327343 -0.032231085 0.46889561
0.10449614 -0.032231148 0.46889538
0.10571885 -0.032231212 0.46889514
0.10694157 -0.032231275 0.4688949
0.10816428 -0.032231338 0.46889463
0.10938699 -0.032231402 0.46889439
0.1106097 -0.032231469 0.46889415
0.11183242 -0.032231532 0.46889392
0.11281404 -0.032162867 0.46789375
0.11403415 -0.032162931 0.46789348
0.11500796 -0.032094259 0.46689329
0.11622546 -0.032094326 0.46689305
0.11744295 -0.032094389 0.46689281
0.11840633 -0.032025717 0.46589264
0.11962122 -0.032025781 0.4658924
0.12083612 -0.032025844 0.46589217
0.12178908 -0.031957176 0.464892
0.12300136 -0.031957239 0.46489176
0.12394648 -0.031888563 0.46389157
0.12515615 -0.031888627 0.46389133
0.12636583 -0.03188869 0.46389109
0.1275755 -0.031888753 0.46389085
0.12850761 -0.031820085 0.46289068
0.12971467 -0.031820148 0.46289045
0.13092175 -0.031820212 0.46289021
0.1318434 -0.03175154 0.46189001
0.13304788 -0.031751603 0.46188977
0.13425232 -0.031751666 0.46188954
0.13516358 -0.031682994 0.4608894
0.13636544 -0.031683054 0.46088913
0.13726884 -0.031614382 0.45988896
0.13846809 -0.031614445 0.45988873
0.13966733 -0.031614508 0.45988849
0.14056034 -0.031545833 0.45888832
0.14175697 -0.031545896 0.45888808
0.14295362 -0.031545959 0.45888785
0.14383619 -0.031477287 0.45788771
0.14503022 -0.031477351 0.45788747
0.14622425 -0.031477414 0.45788723
0.14741829 -0.031477477 0.45788699
0.1482878 -0.031408802 0.45688683
0.14947924 -0.031408865 0.45688659
0.15067068 -0.031408925 0.45688635
0.15152976 -0.031340249 0.45588619
0.15271859 -0.031340312 0.45588595
0.15356985 -0.031271636 0.45488578
-0.32455611 -0.038522869 0.5829798
-0.32303622 -0.038522948 0.5829795
-0.32096478 -0.038456939 0.5819791
-0.31944746 -0.038457017 0.5819788
-0.31738392 -0.038391016 0.58097839
-0.31586924 -0.038391098 0.5809781
-0.31381354 -0.038325086 0.57997775
-0.3123014 -0.038325168 0.57997745
-0.31078932 -0.038325246 0.57997715
-0.30874404 -0.038259245 0.57897675
-0.3067039 -0.038193233 0.57797629
-0.305197 -0.038193312 0.57797599
-0.30369011 -0.038193393 0.57797569
-0.30166048 -0.038127385 0.57697535
-0.30015621 -0.038127463 0.57697505
-0.29813436 -0.038061459 0.57597464
-0.29663271 -0.038061537 0.57597435
-0.2946187 -0.037995528 0.574974
-0.29311961 -0.037995607 0.5749737
-0.29111338 -0.037929595 0.57397324
-0.28961694 -0.037929673 0.57397294
-0.28761855 -0.037863664 0.5729726
-0.2856254 -0.03779766 0.57197219
-0.28413415 -0.037797738 0.57197189
-0.28214881 -0.037731729 0.57097155
-0.28016865 -0.037665721 0.56997114
-0.27868265 -0.037665799 0.56997085
-0.2767103 -0.037599787 0.56897044
-0.27522689 -0.037599865 0.56897014
-0.27326241 -0.037533853 0.5679698
-0.27130315 -0.037467845 0.56696945
-0.26982495 -0.037467919 0.56696916
-0.2678735 -0.037401915 0.56596875
-0.26639789 -0.037401993 0.56596845
-0.26445425 -0.037335973 0.56496805
-0.26298127 -0.037336051 0.56496775
-0.26104543 -0.037270043 0.56396741
-0.25957504 -0.037270118 0.56396711
-0.25764707 -0.037204102 0.56296676
-0.2561793 -0.03720418 0.56296647
-0.25425911 -0.037138171 0.56196612
-0.25279394 -0.03713825 0.56196582
-0.25088161 -0.037072241 0.56096548
-0.24897446 -0.037006218 0.55996501
-0.24751452 -0.037006296 0.55996478
-0.24561518 -0.036940284 0.55896437
-0.24415785 -0.036940362 0.55896413
-0.24226636 -0.036874346 0.55796379
-0.24081162 -0.036874421 0.55796349
-0.23935688 -0.036874495 0.55796319
-0.23747581 -0.036808487 0.55696285
-0.23602366 -0.036808562 0.55696255
-0.23457155 -0.03680864 0.55696225
-0.23270091 -0.036742624 0.55596191
-0.23125139 -0.036742698 0.55596161
-0.22980186 -0.036742777 0.55596131
-0.22794163 -0.036676757 0.55496091
-0.22649471 -0.036676832 0.55496061
-0.22504778 -0.036676906 0.55496031
-0.22360088 -0.036676984 0.55496007
-0.2217537 -0.036610968 0.55395973
-0.22030939 -0.036611043 0.55395943
-0.21886507 -0.036611117 0.55395913
-0.21742077 -0.036611196 0.55395883
-0.21597645 -0.03661127 0.55395854
-0.21453214 -0.036611345 0.55395824
-0.21270321 -0.036545329 0.55295789
-0.2112615 -0.036545403 0.55295765
-0.20981979 -0.036545478 0.55295736
-0.20800132 -0.036479466 0.55195701
-0.20656222 -0.03647954 0.55195671
-0.20475152 -0.036413521 0.55095631
-0.20331503 -0.036413595 0.55095601
-0.20151219 -0.036347575 0.54995573
-0.20007831 -0.03634765 0.54995543
-0.19828326 -0.03628163 0.54895508
-0.19649345 -0.036215615 0.54795474
-0.19506477 -0.036215689 0.5479545
-0.1932828 -0.036149669 0.54695415
-0.19185673 -0.036149744 0.54695386
-0.19043066 -0.036149818 0.54695356
-0.18865909 -0.036083799 0.54595321
-0.18723559 -0.036083873 0.54595292
-0.18547186 -0.036017846 0.54495257
-0.18405101 -0.036017921 0.54495227
-0.18229508 -0.035951905 0.54395199
-0.18087684 -0.035951979 0.54395169
-0.17912877 -0.035885952 0.54295135
-0.17738587 -0.035819937 0.54195106
-0.17597283 -0.035820011 0.54195076
-0.17423774 -0.035753988 0.54095042
-0.17282733 -0.035754062 0.54095012
-0.17110008 -0.035688035 0.53994977
-0.16937806 -0.035622016 0.53894949
-0.16797285 -0.03562209 0.53894919
-0.16625863 -0.035556063 0.53794891
-0.16485605 -0.035556138 0.53794861
-0.16314964 -0.035490114 0.5369482
-0.16174966 -0.035490189 0.53694797
0.0057480289 -0.032656096 0.49391511
0.0070216479 -0.032590047 0.49291489
0.0083069308 -0.032590117 0.49291462
0.0095727276 -0.032524068 0.49191439
0.010855404 -0.032524135 0.49191412
0.01213808 -0.032524202 0.49191386
0.013393449 -0.032458153 0.49091363
0.014673517 -0.03245822 0.49091339
0.015953586 -0.032458287 0.49091312
0.017233653 -0.032458354 0.49091288
0.018513722 -0.032458421 0.49091262
0.019753449 -0.032392371 0.48991236
0.02103091 -0.032392439 0.48991212
0.022308372 -0.032392506 0.48991185
0.023585835 -0.032392573 0.48991159
0.024812527 -0.032326527 0.48891139
0.026087383 -0.032326594 0.48891112
0.027362237 -0.032326661 0.48891088
0.028637089 -0.032326728 0.48891062
0.029911945 -0.032326795 0.48891035
0.031186797 -0.032326862 0.48891011
0.03239524 -0.032260813 0.48790988
0.033667486 -0.03226088 0.48790964
0.034939732 -0.032260947 0.48790938
0.036211979 -0.032261014 0.48790911
0.037407387 -0.032194961 0.48690888
0.038677029 -0.032195028 0.48690861
0.039864618 -0.032128975 0.48590842
0.041131649 -0.032129042 0.48590818
0.042398684 -0.032129105 0.48590791
0.043575838 -0.032063056 0.48490769
0.044840265 -0.032063123 0.48490742
0.0460096 -0.031997073 0.48390722
0.047271423 -0.03199714 0.48390695
0.048533246 -0.031997208 0.48390672
0.049795065 -0.031997271 0.48390645
0.051056881 -0.031997338 0.48390621
0.052210573 -0.031931281 0.48290598
0.053469785 -0.031931348 0.48290572
0.054728996 -0.031931415 0.48290548
0.055988211 -0.031931479 0.48290521
0.057247423 -0.031931546 0.48290497
0.058385476 -0.031865492 0.48190477
0.05964208 -0.03186556 0.48190451
0.060772311 -0.031799506 0.48090431
0.062026307 -0.03179957 0.48090407
0.063148707 -0.031733517 0.47990385
0.064400099 -0.03173358 0.47990358
0.065514691 -0.031667531 0.47890341
0.066763476 -0.031667598 0.47890314
0.067870244 -0.031601537 0.47790292
0.069116414 -0.031601604 0.47790268
0.07036259 -0.031601667 0.47790244
0.071608767 -0.031601734 0.47790217
0.072702505 -0.031535678 0.47690198
0.073946074 -0.031535745 0.47690174
0.075031981 -0.031469684 0.47590151
0.076272942 -0.031469747 0.47590128
0.077351041 -0.031403694 0.47490108
0.078589395 -0.031403761 0.47490084
0.079827748 -0.031403825 0.4749006
0.080895409 -0.031337768 0.47390041
0.082131155 -0.031337835 0.47390017
0.083366916 -0.031337898 0.4738999
0.084602661 -0.031337962 0.47389966
0.085838407 -0.031338029 0.47389942
0.086890429 -0.031271968 0.4728992
0.088123567 -0.031272035 0.47289896
0.089356706 -0.031272098 0.47289872
0.090589851 -0.031272162 0.47289845
0.091628827 -0.031206103 0.47189829
0.092662603 -0.031140044 0.47089809
0.093890533 -0.03114011 0.47089782
0.095118463 -0.031140173 0.47089759
0.096346386 -0.031140238 0.47089735
0.097367123 -0.031074177 0.46989715
0.098592445 -0.031074243 0.46989691
0.099817768 -0.031074306 0.46989667
0.10104308 -0.031074369 0.46989644
0.10226841 -0.031074435 0.46989617
0.10349372 -0.031074498 0.46989593
0.10449621 -0.031008435 0.46889573
0.10571892 -0.031008501 0.46889549
0.10694163 -0.031008564 0.46889526
0.10816435 -0.031008629 0.46889499
0.10938706 -0.031008692 0.46889475
0.11060977 -0.031008756 0.46889451
0.11183248 -0.031008821 0.46889427
0.11281411 -0.030942759 0.46789411
0.11403422 -0.030942822 0.46789384
0.11525433 -0.030942887 0.4678936
0.11647443 -0.03094295 0.46789336
0.11744301 -0.030876886 0.46689317
0.11866052 -0.030876949 0.46689293
0.11962128 -0.030810889 0.46589276
0.12083618 -0.030810954 0.46589252
0.12205108 -0.030811017 0.46589229
0.12300142 -0.030744953 0.46489212
0.12421371 -0.030745016 0.46489188
0.12515621 -0.030678952 0.46389169
0.12636589 -0.030679015 0.46389145
0.12757556 -0.030679079 0.46389121
0.12850769 -0.030613016 0.46289104
0.12971474 -0.03061308 0.4628908
0.13092183 -0.030613143 0.46289057
0.13212888 -0.030613206 0.4628903
0.13304794 -0.03054714 0.46189013
0.13425238 -0.030547203 0.46188989
0.13545686 -0.030547265 0.46188965
0.1363655 -0.030481201 0.46088949
0.13756736 -0.030481264 0.46088925
0.13846815 -0.030415198 0.45988908
0.13966739 -0.030415261 0.45988885
0.14056042 -0.030349195 0.45888868
0.14175704 -0.030349256 0.45888844
0.14295369 -0.03034932 0.4588882
0.14415033 -0.030349383 0.45888796
0.14503027 -0.030283315 0.45788783
0.14622431 -0.030283378 0.45788759
0.14709644 -0.030217309 0.45688739
0.14828786 -0.030217372 0.45688716
0.1494793 -0.030217433 0.45688692
0.150341 -0.030151367 0.45588678
0.15152982 -0.030151429 0.45588654
0.1523837 -0.030085361 0.45488638
0.15356991 -0.030085422 0.45488614
0.15441598 -0.030019354 0.453886
0.15559958 -0.030019416 0.45388576
-0.32511273 -0.037066426 0.58398038
-0.32359022 -0.037066504 0.58398008
-0.32151622 -0.037003107 0.58297962
-0.31999627 -0.037003189 0.58297932
-0.3179301 -0.036939789 0.58197892
-0.31586918 -0.036876395 0.58097857
-0.31435448 -0.036876474 0.58097827
-0.31283975 -0.036876552 0.58097798
-0.31078926 -0.036813151 0.57997757
-0.30927718 -0.036813229 0.57997727
-0.30723447 -0.036749832 0.57897687
-0.30572495 -0.036749911 0.57897657
-0.30369002 -0.036686514 0.57797617
-0.30218315 -0.036686592 0.57797587
-0.30015612 -0.036623187 0.57697546
-0.29865181 -0.036623266 0.57697517
-0.29663262 -0.036559869 0.57597476
-0.29513094 -0.036559947 0.57597446
-0.29311952 -0.036496546 0.57497412
-0.29162046 -0.036496624 0.57497382
-0.28961685 -0.03643322 0.57397336
-0.28761849 -0.036369819 0.57297301
-0.28562534 -0.036306418 0.57197267
-0.28413409 -0.036306497 0.57197237
-0.28214875 -0.036243096 0.57097197
-0.28066012 -0.036243174 0.57097167
-0.27868256 -0.036179774 0.56997132
-0.27671021 -0.036116369 0.56897086
-0.2752268 -0.036116447 0.56897056
-0.27326232 -0.036053039 0.56797022
-0.2717815 -0.036053117 0.56796992
-0.26982486 -0.035989717 0.56696957
-0.26834667 -0.035989795 0.56696928
-0.2663978 -0.035926394 0.56596893
-0.26445416 -0.035862986 0.56496847
-0.26298118 -0.035863064 0.56496817
-0.26150817 -0.035863139 0.56496787
-0.25957498 -0.035799734 0.56396753
-0.25810459 -0.035799813 0.56396723
-0.25617924 -0.035736404 0.56296688
-0.25471145 -0.035736483 0.56296659
-0.25279388 -0.035673082 0.56196624
-0.25088152 -0.035609677 0.5609659
-0.24897438 -0.035546262 0.55996549
-0.24751444 -0.03554634 0.55996519
-0.24605447 -0.035546415 0.5599649
-0.24415776 -0.035483014 0.55896455
-0.2427004 -0.035483088 0.55896425
-0.24081154 -0.03541968 0.55796391
-0.2393568 -0.035419755 0.55796361
-0.23790206 -0.035419833 0.55796331
-0.23602359 -0.035356428 0.55696297
-0.23457147 -0.035356507 0.55696267
-0.23270084 -0.035293099 0.55596232
-0.23125131 -0.035293173 0.55596203
-0.22980179 -0.035293251 0.55596173
-0.22835225 -0.035293326 0.55596143
-0.22649464 -0.03522991 0.55496103
-0.22504771 -0.035229985 0.55496073
-0.2236008 -0.035230063 0.55496049
-0.22215387 -0.035230137 0.55496019
-0.22070695 -0.035230212 0.55495989
-0.21926004 -0.03523029 0.5549596
-0.2174207 -0.035166886 0.55395925
-0.21597637 -0.03516696 0.55395895
-0.21453206 -0.035167035 0.55395865
-0.21308774 -0.035167109 0.55395836
-0.21164343 -0.035167187 0.55395812
-0.20981972 -0.035103772 0.55295777
-0.20837802 -0.03510385 0.55295748
-0.20656215 -0.035040438 0.55195713
-0.20512304 -0.035040513 0.55195683
-0.20331496 -0.034977105 0.55095643
-0.2015121 -0.034913689 0.54995614
-0.20007822 -0.034913763 0.54995584
-0.19828318 -0.034850355 0.5489555
-0.19649337 -0.034786943 0.54795516
-0.19506469 -0.034787018 0.54795492
-0.19328272 -0.034723606 0.54695457
-0.19185665 -0.03472368 0.54695427
-0.19043058 -0.034723755 0.54695398
-0.18865901 -0.034660343 0.54595363
-0.18723552 -0.034660418 0.54595333
-0.18581207 -0.034660492 0.54595304
-0.18405093 -0.034597073 0.54495269
-0.18263009 -0.034597147 0.54495239
-0.18087676 -0.034533735 0.54395211
-0.17912869 -0.03447032 0.54295176
-0.17771304 -0.034470394 0.54295152
-0.17597276 -0.034406982 0.54195118
-0.17423767 -0.034343567 0.54095078
-0.17282726 -0.034343641 0.54095054
-0.17110001 -0.034280222 0.53995019
-0.16969217 -0.034280296 0.53994989
-0.16797277 -0.034216881 0.53894961
0.0031852159 -0.031495083 0.49591598
0.0044692638 -0.031431645 0.49491575
0.0057480964 -0.031368207 0.4939155
0.0070359861 -0.031368274 0.49391523
0.0083069978 -0.031304833 0.492915
0.0095922798 -0.0313049 0.49291474
0.010877563 -0.031304967 0.4929145
0.012138147 -0.031241529 0.49191424
0.013420822 -0.031241596 0.49191397
0.014673585 -0.031178156 0.49091375
0.015953653 -0.031178223 0.49091351
0.01723372 -0.03117829 0.49091324
0.018513789 -0.031178357 0.49091297
0.019793859 -0.031178424 0.49091274
0.021073926 -0.031178491 0.49091247
0.022308439 -0.031115048 0.48991221
0.023585903 -0.031115115 0.48991197
0.024863362 -0.031115182 0.48991171
0.026140826 -0.031115249 0.48991147
0.027362304 -0.031051805 0.48891124
0.028637156 -0.031051872 0.48891097
0.029912012 -0.031051939 0.48891073
0.031186864 -0.031052006 0.48891047
0.032461718 -0.031052073 0.48891023
0.033667553 -0.030988632 0.48791
0.034939799 -0.030988697 0.48790976
0.036212046 -0.030988764 0.4879095
0.037484292 -0.030988831 0.48790923
0.038677096 -0.030925386 0.486909
0.039864685 -0.030861946 0.48590881
0.041131716 -0.030862011 0.48590854
0.042398751 -0.030862078 0.48590827
0.043575905 -0.030798631 0.48490804
0.044840332 -0.030798696 0.48490781
0.046104755 -0.030798763 0.48490754
0.04727149 -0.030735319 0.48390734
0.048533313 -0.030735385 0.48390707
0.049795132 -0.030735452 0.48390684
0.051056948 -0.030735517 0.48390657
0.052318767 -0.030735584 0.48390633
0.053469852 -0.030672137 0.4829061
0.054729063 -0.030672202 0.48290583
0.055988278 -0.030672269 0.4829056
0.05724749 -0.030672334 0.48290533
0.058506701 -0.030672399 0.48290509
0.059642147 -0.030608954 0.48190489
0.060898751 -0.030609021 0.48190463
0.062026374 -0.030545574 0.48090443
0.063280366 -0.030545641 0.48090419
0.064400166 -0.030482192 0.47990397
0.065651551 -0.030482257 0.4799037
0.066763543 -0.03041881 0.4789035
0.068012334 -0.030418875 0.47890326
0.069116481 -0.030355426 0.47790304
0.070362657 -0.030355491 0.4779028
0.071608834 -0.030355558 0.47790253
0.072702572 -0.030292107 0.47690237
0.073946141 -0.030292172 0.4769021
0.07518971 -0.030292237 0.47690186
0.076273009 -0.03022879 0.47590163
0.07751397 -0.030228853 0.4759014
0.078589454 -0.030165406 0.4749012
0.079827808 -0.030165469 0.47490096
0.081066169 -0.030165534 0.47490069
0.082304522 -0.0301656 0.47490045
0.083366983 -0.030102151 0.47390026
0.084602728 -0.030102216 0.47390002
0.085838474 -0.030102279 0.47389978
0.08707422 -0.030102344 0.47389951
0.088123627 -0.030038891 0.47289932
0.089356765 -0.030038955 0.47289908
0.090589911 -0.03003902 0.47289881
0.091823049 -0.030039083 0.47289857
0.092859432 -0.029975634 0.47189841
0.09408997 -0.029975697 0.47189814
0.095118523 -0.029912246 0.47089794
0.096346445 -0.029912312 0.4708977
0.097574376 -0.029912375 0.47089744
0.098802306 -0.02991244 0.4708972
0.099817835 -0.029848987 0.46989703
0.10104315 -0.029849051 0.46989679
0.10226847 -0.029849116 0.46989653
0.10349379 -0.029849179 0.46989629
0.10471911 -0.029849244 0.46989605
0.10571898 -0.029785788 0.46889585
0.10694169 -0.029785851 0.46889561
0.10816441 -0.029785916 0.46889535
0.10938711 -0.02978598 0.46889511
0.11060983 -0.029786043 0.46889487
0.11183254 -0.029786108 0.46889463
0.11305525 -0.029786171 0.46889436
0.11427797 -0.029786235 0.46889412
0.11525439 -0.029722782 0.46789396
0.11647449 -0.029722845 0.46789372
0.11744308 -0.029659389 0.46689352
0.11866058 -0.029659452 0.46689329
0.11987807 -0.029659517 0.46689302
0.12083624 -0.029596064 0.46589288
0.12205114 -0.029596128 0.46589261
0.12300149 -0.029532669 0.46489248
0.12421378 -0.029532732 0.46489221
0.12542604 -0.029532798 0.46489197
0.12636596 -0.029469339 0.4638918
0.12757564 -0.029469403 0.46389154
0.12878531 -0.029469466 0.4638913
0.1297148 -0.029406009 0.46289116
0.13092189 -0.029406073 0.46289089
0.13212894 -0.029406136 0.46289065
0.133048 -0.029342677 0.46189049
0.13425244 -0.029342741 0.46189025
0.13545692 -0.029342802 0.46188998
0.13636556 -0.029279344 0.46088985
0.13726898 -0.029215885 0.45988968
0.13846822 -0.029215949 0.45988941
0.13966747 -0.029216012 0.45988917
0.14056048 -0.029152554 0.45888904
0.1417571 -0.029152615 0.4588888
0.14295375 -0.029152678 0.45888856
0.1438363 -0.02908922 0.45788839
0.14503033 -0.029089281 0.45788816
0.14622436 -0.029089345 0.45788792
0.1470965 -0.029025881 0.45688775
0.14828792 -0.029025944 0.45688751
0.14915223 -0.028962484 0.45588738
0.15034106 -0.028962547 0.45588714
0.15152988 -0.028962608 0.4558869
0.15238377 -0.028899148 0.45488673
0.15356998 -0.02889921 0.4548865
0.15441604 -0.028835749 0.45388636
0.15525688 -0.028772285 0.45288616
-0.32511264 -0.0355439 0.5839808
-0.32359013 -0.035543978 0.5839805
-0.32206759 -0.035544056 0.5839802
-0.31999618 -0.035483267 0.5829798
-0.31847626 -0.035483345 0.58297944
-0.31641272 -0.035422556 0.5819791
-0.31435439 -0.035361767 0.58097869
-0.31283966 -0.035361845 0.58097839
-0.31132495 -0.035361923 0.5809781
-0.30927709 -0.03530113 0.57997769
-0.30776498 -0.035301208 0.57997739
-0.30625287 -0.03530129 0.5799771
-0.3042154 -0.035240497 0.57897669
-0.30218309 -0.035179708 0.57797629
-0.30067623 -0.035179786 0.57797599
-0.29865175 -0.03511899 0.57697558
-0.29714748 -0.035119072 0.57697529
-0.29513085 -0.035058279 0.57597494
-0.29362917 -0.035058357 0.57597464
-0.29162037 -0.03499756 0.57497424
-0.28961676 -0.034936763 0.57397383
-0.2881203 -0.034936842 0.57397354
-0.28612453 -0.034876049 0.57297313
-0.284134 -0.034815256 0.57197279
-0.28264275 -0.034815334 0.57197249
-0.28066003 -0.034754541 0.57097208
-0.2786825 -0.034693744 0.56997174
-0.27719647 -0.034693822 0.56997144
-0.27522674 -0.034633026 0.56897104
-0.27374333 -0.0346331 0.56897074
-0.27178144 -0.034572307 0.56797034
-0.27030066 -0.034572385 0.56797004
-0.26834661 -0.034511589 0.56696969
-0.26686841 -0.034511667 0.56696939
-0.26492211 -0.03445087 0.56596905
-0.26298109 -0.03439007 0.56496865
-0.26150808 -0.034390144 0.56496835
-0.2600351 -0.034390222 0.56496805
-0.2581045 -0.034329426 0.56396765
-0.25663415 -0.034329504 0.56396735
-0.25471136 -0.034268707 0.562967
-0.25279379 -0.03420791 0.56196666
-0.25132862 -0.034207985 0.56196636
-0.24941888 -0.034147188 0.56096601
-0.24751437 -0.034086384 0.55996561
-0.2460544 -0.034086458 0.55996531
-0.24459445 -0.034086537 0.55996501
-0.24270032 -0.034025736 0.55896467
-0.24124299 -0.034025814 0.55896437
-0.23935673 -0.033965014 0.55796403
-0.23790199 -0.033965092 0.55796373
-0.23602352 -0.033904292 0.55696338
-0.2345714 -0.03390437 0.55696309
-0.23311925 -0.033904444 0.55696279
-0.23125124 -0.033843644 0.55596244
-0.22980171 -0.033843722 0.55596215
-0.22835217 -0.033843797 0.55596185
-0.22690266 -0.033843871 0.55596161
-0.22545312 -0.033843949 0.55596131
-0.22360072 -0.033783142 0.55496091
-0.22215378 -0.033783216 0.55496061
-0.22070687 -0.033783291 0.55496031
-0.21925995 -0.033783369 0.55496001
-0.21781303 -0.033783443 0.55495971
-0.2163661 -0.033783518 0.55495942
-0.21491919 -0.033783596 0.55495912
-0.21308766 -0.033722792 0.55395883
-0.21164335 -0.03372287 0.55395854
-0.21019904 -0.033722945 0.55395824
-0.20837794 -0.033662144 0.55295789
-0.20693624 -0.033662219 0.55295759
-0.20512296 -0.033601414 0.55195725
-0.20368387 -0.033601493 0.55195695
-0.20187838 -0.033540685 0.55095661
-0.20007813 -0.033479877 0.54995626
-0.19828311 -0.033419073 0.54895592
-0.1964933 -0.033358272 0.54795557
-0.19506462 -0.033358347 0.54795533
-0.19328265 -0.033297542 0.54695499
-0.19185658 -0.033297617 0.54695469
-0.19043051 -0.033297691 0.54695439
-0.18865894 -0.033236884 0.54595405
-0.18723544 -0.033236958 0.54595375
-0.185812 -0.033237033 0.54595345
-0.18405086 -0.033176221 0.54495311
-0.18263002 -0.033176295 0.54495281
-0.18087669 -0.033115491 0.54395252
-0.17945845 -0.033115566 0.54395223
-0.17771296 -0.033054758 0.54295188
-0.17597269 -0.032993954 0.5419516
-0.17455965 -0.032994028 0.5419513
0.0018960224 -0.030262809 0.49691659
0.0031852839 -0.030201979 0.49591634
0.0044693314 -0.030141147 0.49491611
0.0057598278 -0.030141214 0.49491587
0.0070360536 -0.03008038 0.49391562
0.0083239432 -0.030080447 0.49391535
0.0095923478 -0.030019617 0.49291512
0.010877631 -0.030019684 0.49291486
0.012162914 -0.030019751 0.49291462
0.013420889 -0.029958919 0.49191436
0.014703564 -0.029958986 0.49191409
0.015986241 -0.029959053 0.49191383
0.017233787 -0.029898221 0.49091363
0.018513856 -0.029898288 0.49091336
0.019793926 -0.029898355 0.49091309
0.021073993 -0.029898422 0.49091285
0.022354063 -0.029898489 0.49091259
0.023634132 -0.029898556 0.49091232
0.024863429 -0.029837718 0.48991209
0.026140893 -0.029837785 0.48991182
0.027418353 -0.029837852 0.48991159
0.028695812 -0.029837919 0.48991132
0.029973276 -0.029837986 0.48991105
0.031186931 -0.029777151 0.48891085
0.032461785 -0.029777218 0.48891059
0.033736639 -0.029777283 0.48891035
0.035011493 -0.02977735 0.48891008
0.036212113 -0.029716516 0.48790985
0.037484359 -0.029716583 0.48790962
0.038677163 -0.029655743 0.48690936
0.039946806 -0.02965581 0.48690912
0.041131783 -0.029594976 0.4859089
0.042398818 -0.029595044 0.48590866
0.043575972 -0.029534204 0.4849084
0.044840399 -0.029534269 0.48490816
0.046104822 -0.029534336 0.4849079
0.047271557 -0.0294735 0.4839077
0.04853338 -0.029473566 0.48390746
0.049795199 -0.029473633 0.48390719
0.051057015 -0.029473698 0.48390695
0.052318834 -0.029473765 0.48390669
0.053580653 -0.02947383 0.48390645
0.05472913 -0.029412989 0.48290619
0.055988345 -0.029413056 0.48290595
0.057247557 -0.029413121 0.48290569
0.058506768 -0.029413186 0.48290545
0.059642211 -0.029352346 0.48190525
0.060898814 -0.029352413 0.48190498
0.062026437 -0.029291576 0.48090479
0.063280433 -0.029291643 0.48090455
0.064400233 -0.0292308 0.47990432
0.065651618 -0.029230865 0.47990409
0.06690301 -0.02923093 0.47990382
0.068012394 -0.02917009 0.47890362
0.069116548 -0.029109247 0.4779034
0.070362724 -0.029109312 0.47790316
0.071608901 -0.029109379 0.47790292
0.072855078 -0.029109444 0.47790265
0.0739462 -0.029048601 0.47690246
0.075189769 -0.029048666 0.47690222
0.076433338 -0.029048732 0.47690198
0.077514037 -0.02898789 0.47590175
0.078589521 -0.028927049 0.47490156
0.079827875 -0.028927112 0.47490132
0.081066236 -0.028927177 0.47490108
0.082304589 -0.028927242 0.47490081
0.08336705 -0.028866401 0.47390065
0.084602796 -0.028866466 0.47390038
0.085838541 -0.028866529 0.47390014
0.087074287 -0.028866595 0.4738999
0.088310041 -0.02886666 0.47389963
0.089356832 -0.028805813 0.47289944
0.090589978 -0.028805878 0.47289917
0.091823116 -0.028805941 0.47289893
0.092859492 -0.028745098 0.47189876
0.09409003 -0.028745161 0.4718985
0.095320567 -0.028745227 0.47189826
0.096346512 -0.028684383 0.47089806
0.097574443 -0.028684447 0.47089782
0.098802373 -0.028684512 0.47089756
0.1000303 -0.028684575 0.47089732
0.10125823 -0.02868464 0.47089708
0.10226853 -0.028623793 0.46989688
0.10349385 -0.028623857 0.46989664
0.10471917 -0.028623922 0.46989641
0.10594449 -0.028623985 0.46989617
0.10694176 -0.028563138 0.46889597
0.10816447 -0.028563203 0.4688957
0.10938718 -0.028563267 0.46889547
0.1106099 -0.02856333 0.46889523
0.11183261 -0.028563395 0.46889499
0.11305532 -0.028563458 0.46889472
0.11427804 -0.028563522 0.46889448
0.11525445 -0.028502675 0.46789432
0.11647455 -0.028502738 0.46789408
0.11769465 -0.028502801 0.46789384
0.11866065 -0.028441953 0.46689364
0.11987814 -0.028442018 0.46689337
0.12109564 -0.028442081 0.46689314
0.12205121 -0.028381234 0.46589297
0.12326609 -0.028381297 0.46589273
0.12421384 -0.028320447 0.46489257
0.12542611 -0.028320512 0.46489233
0.12663841 -0.028320575 0.46489209
0.1275757 -0.028259724 0.46389189
0.12878537 -0.028259788 0.46389166
0.12971486 -0.028198937 0.46289149
0.13092194 -0.028199 0.46289125
0.132129 -0.028199064 0.46289101
0.13304806 -0.028138213 0.46189085
0.1342525 -0.028138276 0.46189058
0.13545698 -0.028138338 0.46189034
0.13636564 -0.028077487 0.4608902
0.13756749 -0.02807755 0.46088997
0.13846828 -0.028016698 0.45988977
0.13966753 -0.028016761 0.45988953
0.14056054 -0.02795591 0.45888939
0.14175716 -0.027955972 0.45888916
0.14264233 -0.027895119 0.45788899
0.14383636 -0.027895182 0.45788875
0.14503039 -0.027895244 0.45788851
0.14590514 -0.027834391 0.45688835
0.14709656 -0.027834453 0.45688811
0.14828798 -0.027834516 0.45688787
0.15323249 -0.027652079 0.45388693
-0.32566923 -0.034079637 0.58498138
-0.3241441 -0.034079716 0.58498102
-0.32206753 -0.034021534 0.58398068
-0.31999612 -0.033963352 0.58298022
-0.3184762 -0.033963431 0.58297992
-0.31695631 -0.033963509 0.58297962
-0.31489533 -0.033905324 0.58197922
-0.31337798 -0.033905406 0.58197892
-0.31132486 -0.03384722 0.58097851
-0.30981019 -0.033847302 0.58097821
-0.30829549 -0.03384738 0.58097792
-0.30625278 -0.033789195 0.57997751
-0.3047407 -0.033789273 0.57997721
-0.30270582 -0.033731088 0.57897687
-0.30119637 -0.03373117 0.57897657
-0.29916921 -0.033672981 0.57797611
-0.29714739 -0.033614796 0.57697576
-0.29564315 -0.033614874 0.57697546
-0.29362911 -0.033556689 0.57597506
-0.29162031 -0.0334985 0.57497472
-0.29012126 -0.033498578 0.57497436
-0.28812024 -0.033440389 0.57397395
-0.28662378 -0.033440467 0.57397366
-0.28413391 -0.033324014 0.5719732
-0.28264266 -0.033324093 0.57197291
-0.28065994 -0.033265907 0.57097256
-0.27917132 -0.033265986 0.57097226
-0.27719638 -0.033207797 0.56997186
-0.27571034 -0.033207875 0.56997156
-0.27374324 -0.033149682 0.56897116
-0.2722598 -0.03314976 0.56897086
-0.27030057 -0.033091571 0.56797051
-0.26881975 -0.033091649 0.56797022
-0.26686832 -0.03303346 0.56696981
-0.2653901 -0.033033539 0.56696951
-0.26344645 -0.03297535 0.56596917
-0.26197085 -0.032975428 0.56596887
-0.26003504 -0.032917231 0.56496847
-0.25856203 -0.03291731 0.56496817
-0.25663409 -0.032859121 0.56396782
-0.2547113 -0.032800928 0.56296742
-0.25324354 -0.032801002 0.56296712
-0.25132853 -0.032742813 0.56196678
-0.24986339 -0.032742891 0.56196648
-0.24795626 -0.032684702 0.56096613
-0.24605431 -0.032626506 0.55996573
-0.24459437 -0.032626584 0.55996543
-0.24270025 -0.032568391 0.55896509
-0.24124292 -0.03256847 0.55896479
-0.23978555 -0.032568544 0.55896449
-0.23790191 -0.032510351 0.55796415
-0.23644716 -0.032510426 0.55796385
-0.23457132 -0.032452237 0.5569635
-0.23311917 -0.032452311 0.55696321
-0.23166704 -0.032452386 0.55696291
-0.22980164 -0.032394197 0.55596256
-0.2283521 -0.032394271 0.55596232
-0.22690259 -0.032394346 0.55596203
-0.22545305 -0.032394424 0.55596173
-0.22400354 -0.032394499 0.55596143
-0.222554 -0.032394573 0.55596113
-0.22070679 -0.032336373 0.55496073
-0.21925987 -0.032336451 0.55496043
-0.21781296 -0.032336526 0.55496013
-0.21636602 -0.0323366 0.55495983
-0.21491912 -0.032336678 0.5549596
-0.21347219 -0.032336753 0.5549593
-0.21202525 -0.032336827 0.554959
-0.21019897 -0.032278635 0.55395865
-0.20875464 -0.032278709 0.55395836
-0.20693617 -0.032220513 0.55295801
-0.20549445 -0.032220587 0.55295771
-0.20368379 -0.032162394 0.55195737
-0.20187831 -0.032104194 0.55095702
-0.20007807 -0.032045994 0.54995668
-0.19828303 -0.031987797 0.54895633
-0.19685178 -0.031987872 0.54895604
-0.19506454 -0.031929675 0.54795575
-0.1936359 -0.03192975 0.54795545
-0.1918565 -0.031871554 0.54695511
-0.19043043 -0.031871628 0.54695481
-0.18900438 -0.031871703 0.54695451
-0.18723537 -0.031813502 0.54595417
-0.18581192 -0.031813577 0.54595387
-0.18438846 -0.031813651 0.54595357
-0.18262994 -0.031755447 0.54495323
0.00060037954 -0.02896703 0.49691722
0.0018960903 -0.028967099 0.49691695
0.0031853516 -0.028908875 0.49591672
0.0044784551 -0.028908942 0.49591646
0.0057598958 -0.028850717 0.49491623
0.0070503927 -0.028850786 0.49491599
0.0083408896 -0.028850853 0.49491572
0.0096119 -0.028792627 0.49391547
0.010877698 -0.028734401 0.49291524
0.012162982 -0.028734468 0.49291497
0.013448263 -0.028734535 0.49291474
0.014703632 -0.028676311 0.49191448
0.015986308 -0.028676378 0.49191421
0.017268984 -0.028676445 0.49191394
0.018551659 -0.028676512 0.49191371
0.019793993 -0.028618287 0.49091348
0.02107406 -0.028618354 0.49091321
0.02235413 -0.028618421 0.49091297
0.023634199 -0.028618488 0.49091271
0.024914267 -0.028618556 0.49091244
0.026194336 -0.028618623 0.4909122
0.027474403 -0.02861869 0.49091193
0.028754473 -0.028618755 0.49091166
0.029973343 -0.028560527 0.48991144
0.031250801 -0.028560594 0.48991117
0.032528266 -0.028560661 0.48991093
0.033736706 -0.028502431 0.4889107
0.03501156 -0.028502498 0.48891044
0.036286414 -0.028502565 0.4889102
0.037484426 -0.028444337 0.48790997
0.038756672 -0.028444402 0.48790973
0.039946873 -0.028386172 0.48690948
0.04113185 -0.028327944 0.48590928
0.042398885 -0.028328011 0.48590901
0.043665916 -0.028328076 0.48590878
0.044840466 -0.028269844 0.48490852
0.046104889 -0.028269911 0.48490828
0.04736932 -0.028269976 0.48490801
0.048533443 -0.028211746 0.48390782
0.049795263 -0.028211813 0.48390758
0.051057078 -0.028211879 0.48390731
0.052318897 -0.028211946 0.48390704
0.053580716 -0.028212011 0.48390681
0.054729193 -0.028153777 0.48290658
0.055988409 -0.028153844 0.48290631
