# .PCD v0.7 - Point Cloud Data file format
VERSION 0.7
FIELDS x y z
SIZE 4 4 4
TYPE F F F
COUNT 1 1 1
WIDTH 1325
HEIGHT 1
VIEWPOINT 0 0 0 1 0 0 0
POINTS 1325
DATA ascii
-0.10292846 -0.028736666 0.46419311
-0.1023553 -0.027593911 0.46425748
-0.10178211 -0.026451156 0.46432188
-0.10120896 -0.025308385 0.46438625
-0.10063577 -0.02416563 0.46445066
-0.10006261 -0.023022875 0.46451503
-0.099489421 -0.021880105 0.4645794
-0.098916233 -0.02073735 0.46464378
-0.098343074 -0.019594595 0.46470818
-0.097769886 -0.018451825 0.46477255
-0.097196728 -0.01730907 0.46483696
-0.09662354 -0.016166314 0.46490133
-0.096050382 -0.015023559 0.4649657
-0.091075629 -0.0074665099 0.46469769
-0.090502471 -0.0063237548 0.46476206
-0.089929283 -0.0051809996 0.46482643
-0.089356124 -0.0040382296 0.46489084
-0.087820411 -0.0033377409 0.4642365
-0.088782936 -0.0028954744 0.46495521
-0.087247252 -0.0021949857 0.46430087
-0.086674064 -0.0010522157 0.46436527
-0.086100906 9.0539455e-05 0.46442965
-0.085527718 0.0012332946 0.46449402
-0.08495456 0.0023760647 0.46455842
-0.084381372 0.0035188198 0.4646228
-0.083808184 0.004661575 0.46468717
-0.083235025 0.005804345 0.46475157
-0.082661837 0.0069471002 0.46481594
-0.082088679 0.0080898553 0.46488032
-0.082104504 0.0095594078 0.46419349
-0.12430431 -0.067224786 0.46565947
-0.12276238 -0.066521451 0.46500248
-0.12218687 -0.065374032 0.46506712
-0.12161136 -0.064226612 0.46513176
-0.12103584 -0.063079193 0.46519643
-0.12046033 -0.061931789 0.46526107
-0.11988482 -0.060784385 0.46532571
-0.11930931 -0.059636965 0.46539035
-0.11873379 -0.058489546 0.465455
-0.11815828 -0.057342127 0.46551964
-0.1175828 -0.056194708 0.46558428
-0.11700729 -0.055047289 0.46564895
-0.11643177 -0.053899869 0.46571359
-0.11488983 -0.053196535 0.4650566
-0.11585626 -0.052752465 0.46577823
-0.11431432 -0.05204913 0.46512124
-0.11528075 -0.051605061 0.46584287
-0.11470523 -0.050457641 0.46590751
-0.11373881 -0.050901726 0.46518588
-0.11412972 -0.049310222 0.46597216
-0.11316329 -0.049754307 0.46525052
-0.10855922 -0.040574983 0.46576768
-0.10798371 -0.039427564 0.46583235
-0.1074082 -0.038280144 0.46589699
-0.10683268 -0.03713274 0.46596164
-0.10449624 -0.030987784 0.46553397
-0.10392189 -0.02984269 0.46559846
-0.10334757 -0.02869761 0.46566299
-0.10277322 -0.02755253 0.46572751
-0.10219887 -0.026407436 0.465792
-0.10162452 -0.025262341 0.46585652
-0.1010502 -0.024117261 0.46592104
-0.10047585 -0.022972181 0.46598557
-0.095477194 -0.013880804 0.46503007
-0.094904006 -0.012738034 0.46509448
-0.094330847 -0.011595279 0.46515885
-0.093757659 -0.010452524 0.46522325
-0.093184501 -0.0093097538 0.46528763
-0.092611313 -0.0081669986 0.465352
-0.092038155 -0.0070242435 0.4654164
-0.087634414 -0.0021018684 0.46577096
-0.087060064 -0.00095677376 0.46583548
-0.086485714 0.00018830597 0.4659
-0.085911363 0.0013334006 0.46596453
-0.084770709 0.0051038414 0.46540588
-0.084197521 0.0062466115 0.46547028
-0.083624363 0.0073893666 0.46553466
-0.083051175 0.0085321218 0.46559903
-0.082478017 0.0096748918 0.46566343
-0.12322782 -0.066555589 0.46647388
-0.12265114 -0.065405846 0.46653867
-0.12207447 -0.064256117 0.46660346
-0.12149779 -0.063106373 0.46666822
-0.12092112 -0.061956629 0.46673298
-0.12034443 -0.060806885 0.46679777
-0.11976776 -0.059657142 0.46686256
-0.11355421 -0.048162803 0.4660368
-0.1129787 -0.047015384 0.46610147
-0.11240318 -0.04586798 0.46616611
-0.11182767 -0.044720575 0.46623075
-0.11125219 -0.043573156 0.46629539
-0.11067668 -0.042425737 0.46636003
-0.11010116 -0.041278318 0.46642467
-0.10952565 -0.040130898 0.46648932
-0.10895014 -0.038983494 0.46655399
-0.10837463 -0.037836075 0.46661863
-0.10779911 -0.036688671 0.46668327
-0.1072236 -0.035541251 0.46674791
-0.10625717 -0.035985321 0.46602628
-0.10664809 -0.034393832 0.46681255
-0.10568166 -0.034837902 0.46609092
-0.10607257 -0.033246413 0.46687719
-0.10510617 -0.033690497 0.46615556
-0.10549706 -0.032098994 0.46694183
-0.10453066 -0.032543078 0.4662202
-0.099901497 -0.021827087 0.46605009
-0.099327147 -0.020681992 0.46611458
-0.098752826 -0.019536912 0.4661791
-0.098178476 -0.018391833 0.46624362
-0.097604126 -0.017246738 0.46630812
-0.097029805 -0.016101643 0.46637264
-0.096455455 -0.014956564 0.46643716
-0.095881104 -0.013811469 0.46650168
-0.095306754 -0.012666389 0.46656618
-0.094732434 -0.011521295 0.4666307
-0.094158083 -0.010376215 0.46669522
-0.094146997 -0.0088674873 0.46600634
-0.093009382 -0.0080860406 0.46682423
-0.092435062 -0.006940946 0.46688876
-0.090896249 -0.0062390417 0.4662331
-0.091860712 -0.0057958663 0.46695328
-0.090321898 -0.0050939471 0.46629763
-0.089747548 -0.0039488524 0.46636212
-0.085337043 0.0024784803 0.46602902
-0.084762692 0.003623575 0.46609354
-0.085152805 0.0052118301 0.46687824
-0.084578484 0.0063569248 0.46694276
-0.084586859 0.007831648 0.46625337
-0.12477289 -0.06726037 0.46713221
-0.12419622 -0.066110626 0.467197
-0.11868194 -0.058969334 0.46767801
-0.1181041 -0.057817265 0.46774292
-0.11752623 -0.056665197 0.46780783
-0.1169484 -0.055513129 0.46787274
-0.11637056 -0.05436106 0.46793765
-0.11630771 -0.052758694 0.46725121
-0.11457765 -0.049309462 0.46744555
-0.11400098 -0.048159719 0.46751031
-0.1134243 -0.047009975 0.4675751
-0.11284763 -0.045860231 0.46763986
-0.11227095 -0.044710502 0.46770465
-0.11169428 -0.043560758 0.46776941
-0.1111176 -0.042411014 0.4678342
-0.11054093 -0.041261271 0.46789896
-0.10996425 -0.040111527 0.46796376
-0.10492158 -0.030951589 0.4670065
-0.10434607 -0.02980417 0.46707115
-0.10377055 -0.028656766 0.46713579
-0.10319504 -0.027509347 0.46720043
-0.10261953 -0.026361927 0.46726507
-0.10204402 -0.025214508 0.46732971
-0.1014685 -0.024067089 0.46739435
-0.10089299 -0.022919685 0.46745902
-0.10031748 -0.02177228 0.46752366
-0.099741995 -0.020624861 0.46758831
-0.099166453 -0.019477442 0.46765295
-0.09859097 -0.018330023 0.46771759
-0.098015457 -0.017182603 0.46778223
-0.097439945 -0.016035199 0.46784687
-0.096864432 -0.01488778 0.46791154
-0.096288919 -0.013740376 0.46797618
-0.090718418 -0.0050051212 0.46777171
-0.090142906 -0.0038577169 0.46783635
-0.088600963 -0.0031543672 0.46717936
-0.089567393 -0.0027102977 0.46790099
-0.088025451 -0.0020069629 0.467244
-0.087449938 -0.00085954368 0.46730864
-0.086874425 0.00028787553 0.46737328
-0.086298943 0.0014352947 0.46743792
-0.0857234 0.0025826991 0.46750259
-0.085147917 0.0037301183 0.46756724
-0.084968597 0.0079451799 0.46772745
-0.083429784 0.0086470991 0.46707177
-0.084394246 0.0090902746 0.46779197
-0.12582323 -0.068446204 0.46854296
-0.12524539 -0.067294136 0.46860787
-0.12466754 -0.066142067 0.46867278
-0.12311935 -0.065435886 0.46801314
-0.1240897 -0.064989999 0.46873769
-0.12254152 -0.064283818 0.46807805
-0.12351185 -0.063837931 0.4688026
-0.12196366 -0.063131735 0.46814293
-0.12138581 -0.061979681 0.46820784
-0.12080798 -0.060827598 0.46827275
-0.12023014 -0.05967553 0.46833766
-0.11965227 -0.058523461 0.46840256
-0.11907443 -0.057371393 0.46846747
-0.1184966 -0.056219324 0.46853238
-0.11791876 -0.055067256 0.46859729
-0.11734092 -0.053915188 0.4686622
-0.11676306 -0.052763119 0.46872711
-0.11521488 -0.052056924 0.46806747
-0.11618522 -0.051611051 0.46879202
-0.11560738 -0.050458983 0.46885693
-0.11463702 -0.050904855 0.46813235
-0.11502951 -0.049306914 0.46892184
-0.11445168 -0.048154831 0.46898675
-0.11323935 -0.044265524 0.46842775
-0.11266267 -0.04311578 0.46849251
-0.112086 -0.041966036 0.4685573
-0.10938758 -0.038961783 0.46802852
-0.1088109 -0.037812039 0.46809331
-0.10823423 -0.036662295 0.46815807
-0.10765755 -0.035512552 0.46822286
-0.10708085 -0.034362808 0.46828765
-0.10650417 -0.033213079 0.46835241
-0.1059275 -0.032063335 0.4684172
-0.10535082 -0.030913591 0.46848196
-0.10477415 -0.029763848 0.46854675
-0.10419747 -0.028614104 0.46861151
-0.1036208 -0.02746436 0.4686763
-0.10304412 -0.026314616 0.46874106
-0.10246745 -0.025164872 0.46880585
-0.095713407 -0.012592956 0.46804082
-0.095137894 -0.011445537 0.46810547
-0.094562382 -0.010298118 0.46817011
-0.093986869 -0.0091506988 0.46823475
-0.093411386 -0.0080032945 0.46829939
-0.092835873 -0.0068558753 0.46836406
-0.092260361 -0.0057084709 0.4684287
-0.091684848 -0.0045610517 0.46849334
-0.088420451 -0.0019102544 0.46871996
-0.087843776 -0.00076051056 0.46878472
-0.087267101 0.00038923323 0.46884951
-0.087265372 0.0018793643 0.46815959
-0.08668983 0.0030267835 0.46822423
-0.086114347 0.0041741878 0.46828887
-0.085538834 0.005321607 0.46835351
-0.084963322 0.0064690262 0.46841815
-0.12679358 -0.068000332 0.46926755
-0.12243345 -0.063155293 0.46962059
-0.12185444 -0.062000901 0.46968564
-0.12127542 -0.060846493 0.46975067
-0.12069643 -0.0596921 0.4698157
-0.1201174 -0.058537707 0.46988076
-0.1195384 -0.057383314 0.46994579
-0.11657771 -0.050013095 0.46958148
-0.11599988 -0.048861042 0.46964639
-0.11542204 -0.047708958 0.4697113
-0.11387384 -0.047002763 0.46905166
-0.11484417 -0.04655689 0.46977621
-0.11426634 -0.045404822 0.46984112
-0.113296 -0.045850694 0.46911657
-0.1136885 -0.044252753 0.46990603
-0.11311066 -0.043100685 0.46997094
-0.11098462 -0.041242421 0.46937618
-0.11040676 -0.040090352 0.46944109
-0.10982892 -0.038938284 0.469506
-0.10925108 -0.037786216 0.4695709
-0.10867324 -0.036634147 0.46963581
-0.10809541 -0.035482064 0.46970072
-0.10751754 -0.034329996 0.46976563
-0.1069397 -0.033177927 0.46983054
-0.10636187 -0.032025859 0.46989545
-0.105784 -0.03087379 0.46996036
-0.10134661 -0.024407253 0.46962523
-0.10076874 -0.023255184 0.46969014
-0.10019091 -0.022103116 0.46975505
-0.09961307 -0.020951048 0.46981996
-0.099035203 -0.019798979 0.46988487
-0.098457366 -0.018646911 0.46994978
-0.097277343 -0.014817193 0.46938884
-0.096700668 -0.013667449 0.4694536
-0.096123993 -0.01251772 0.46951839
-0.095547318 -0.011367977 0.46958315
-0.094970644 -0.010218233 0.46964794
-0.094393969 -0.0090684891 0.4697127
-0.093817294 -0.0079187453 0.46977749
-0.093240619 -0.0067690015 0.46984226
-0.092663944 -0.0056192726 0.46990705
-0.090542197 -0.0037647486 0.4693135
-0.089965522 -0.0026150197 0.46937826
-0.089388847 -0.0014652759 0.46944305
-0.088812172 -0.00031553209 0.46950781
-0.088235497 0.00083421171 0.4695726
-0.087658793 0.0019839555 0.46963739
-0.087082118 0.0031336993 0.46970215
-0.086505443 0.0042834431 0.46976694
-0.085928768 0.0054331869 0.46983171
-0.085352093 0.0065829307 0.4698965
-0.085354239 0.0080605149 0.46920443
-0.084778726 0.0092079192 0.4692691
-0.12572181 -0.067326114 0.47008649
-0.1251428 -0.066171691 0.47015151
-0.12456378 -0.065017298 0.47021654
-0.1255361 -0.064570531 0.47094259
-0.12398477 -0.063862905 0.4702816
-0.12340575 -0.062708512 0.47034663
-0.11895937 -0.056228921 0.47001082
-0.11838037 -0.055074513 0.47007588
-0.11877367 -0.053473338 0.47086695
-0.11780137 -0.053920105 0.4701409
-0.11819464 -0.052318946 0.47093198
-0.11722234 -0.052765712 0.47020593
-0.11761564 -0.051164553 0.47099701
-0.11664334 -0.051611319 0.47027099
-0.11581454 -0.046111003 0.4705008
-0.1152367 -0.044958934 0.47056571
-0.11465883 -0.043806866 0.47063062
-0.114081 -0.042654797 0.4706955
-0.11350316 -0.041502729 0.47076041
-0.11253279 -0.041948617 0.47003585
-0.11292532 -0.040350661 0.47082531
-0.11195496 -0.040796533 0.47010076
-0.11234748 -0.039198592 0.47089022
-0.11137712 -0.039644465 0.47016567
-0.11176962 -0.038046524 0.47095513
-0.11079928 -0.038492396 0.47023058
-0.11022145 -0.037340328 0.47029549
-0.10964358 -0.03618826 0.4703604
-0.10906574 -0.035036191 0.47042531
-0.1084879 -0.033884123 0.47049022
-0.10791004 -0.032732055 0.47055513
-0.1073322 -0.031579986 0.47062004
-0.10675436 -0.030427918 0.47068492
-0.10617653 -0.029275849 0.47074983
-0.10520616 -0.029721722 0.47002527
-0.10462832 -0.028569654 0.47009018
-0.10405049 -0.027417585 0.47015509
-0.10347265 -0.026265517 0.47022
-0.10289478 -0.025113449 0.47028491
-0.10231695 -0.02396138 0.47034979
-0.10173911 -0.022809312 0.4704147
-0.10116124 -0.021657243 0.47047961
-0.097879529 -0.017494842 0.47001469
-0.097301692 -0.016342774 0.4700796
-0.097694188 -0.014744818 0.47086906
-0.097116351 -0.01359275 0.47093397
-0.096538484 -0.012440681 0.47099888
-0.09152323 -0.0048220605 0.47072867
-0.090945393 -0.0036699921 0.47079358
-0.090367556 -0.0025179237 0.47085848
-0.089789718 -0.0013658553 0.47092339
-0.12678233 -0.068512991 0.47150278
-0.12620215 -0.067356259 0.47156796
-0.12562197 -0.066199541 0.47163314
-0.12495708 -0.063416138 0.47100762
-0.12592939 -0.062969357 0.47173366
-0.12437807 -0.062261745 0.47107267
-0.12232699 -0.062020317 0.47116631
-0.12535039 -0.061814964 0.47179869
-0.12330125 -0.061572641 0.47189382
-0.12272108 -0.060415924 0.47195899
-0.12174681 -0.060863599 0.47123149
-0.12116662 -0.059706852 0.47129667
-0.12058645 -0.058550134 0.47136182
-0.12000626 -0.057393417 0.47142699
-0.11942607 -0.056236699 0.47149217
-0.11884591 -0.055079967 0.47155735
-0.11974597 -0.053026557 0.47159296
-0.11916697 -0.051872164 0.47165802
-0.11858794 -0.050717771 0.47172305
-0.11703664 -0.050010145 0.47106206
-0.11800894 -0.049563363 0.47178808
-0.11742994 -0.04840897 0.47185314
-0.11645761 -0.048855752 0.47112709
-0.11685091 -0.047254577 0.47191817
-0.11587861 -0.047701344 0.47119212
-0.11627191 -0.046100184 0.47198319
-0.11447352 -0.041056857 0.47148499
-0.11389565 -0.039904788 0.4715499
-0.11331782 -0.03875272 0.47161481
-0.11273998 -0.037600651 0.47167972
-0.11216211 -0.036448583 0.47174463
-0.11119178 -0.036894456 0.47102004
-0.11158428 -0.035296515 0.47180954
-0.11061394 -0.035742387 0.47108495
-0.11100644 -0.034144446 0.47187445
-0.11003608 -0.034590319 0.47114986
-0.10893047 -0.033848584 0.47197258
-0.1104286 -0.032992378 0.47193933
-0.10506308 -0.028523386 0.47157174
-0.10448408 -0.027368993 0.4716368
-0.10390508 -0.026214585 0.47170183
-0.10332605 -0.025060192 0.47176689
-0.10274705 -0.023905799 0.47183192
-0.10216802 -0.022751406 0.47189695
-0.10158902 -0.021597013 0.471962
-0.10003769 -0.020889387 0.47130099
-0.099458694 -0.019734994 0.47136605
-0.098879665 -0.018580586 0.47143108
-0.098300666 -0.017426193 0.47149611
-0.097721636 -0.016271785 0.47156116
-0.095960647 -0.011288613 0.47106379
-0.09538281 -0.010136545 0.4711287
-0.094804972 -0.0089844614 0.47119361
-0.094227135 -0.007832408 0.47125852
-0.093649268 -0.0066803247 0.47132343
-0.093071431 -0.0055282563 0.47138834
-0.088643193 -0.00055702031 0.47174567
-0.088064164 0.00059738755 0.4718107
-0.087485164 0.0017517805 0.47187573
-0.08747834 0.0032424182 0.47118303
-0.086900473 0.0043944865 0.47124791
-0.086322635 0.0055465549 0.47131282
-0.085744798 0.0066986233 0.47137773
-0.085166961 0.0078506917 0.47144264
-0.084589094 0.0090027601 0.47150755
-0.1277566 -0.068065301 0.47223029
-0.12717642 -0.066908583 0.47229546
-0.12659624 -0.065751866 0.47236061
-0.12601607 -0.064595133 0.47242579
-0.1269017 -0.062522575 0.47245967
-0.12836359 -0.061608553 0.47242546
-0.12632269 -0.061368182 0.47252473
-0.12427552 -0.061124966 0.47262132
-0.12574367 -0.060213789 0.47258976
-0.12516466 -0.059059396 0.47265479
-0.12369534 -0.059968248 0.47268647
-0.12214088 -0.059259176 0.47202414
-0.12311515 -0.058811501 0.47275165
-0.12156072 -0.058102459 0.47208932
-0.12458566 -0.057904989 0.47271985
-0.12253499 -0.057654783 0.47281682
-0.12400664 -0.056750596 0.47278488
-0.1219548 -0.056498066 0.47288197
-0.12098053 -0.056945741 0.4721545
-0.12342763 -0.055596188 0.47284991
-0.12137462 -0.055341333 0.47294715
-0.12040037 -0.055789009 0.47221965
-0.12284862 -0.054441795 0.47291496
-0.11982018 -0.054632291 0.47228482
-0.1222696 -0.053287402 0.47297999
-0.1212973 -0.053734183 0.47225398
-0.12071829 -0.052579775 0.47231901
-0.12013927 -0.051425382 0.47238404
-0.11956027 -0.05027099 0.47244906
-0.11898124 -0.049116597 0.47251412
-0.11840224 -0.047962204 0.47257915
-0.11782321 -0.046807796 0.47264421
-0.11724421 -0.045653403 0.47270924
-0.11666521 -0.04449901 0.47277427
-0.11569288 -0.044945791 0.47204825
-0.11814773 -0.043621317 0.4727394
-0.11608618 -0.043344602 0.47283933
-0.11511388 -0.043791384 0.47211328
-0.11756989 -0.042469248 0.47280431
-0.11453485 -0.042636991 0.47217831
-0.11650687 -0.041540116 0.47250694
-0.11641419 -0.040165111 0.47293413
-0.11544386 -0.040610984 0.47220954
-0.11583635 -0.039013043 0.47299904
-0.11486602 -0.039458916 0.47227445
-0.11428815 -0.038306847 0.47233936
-0.11371031 -0.037154779 0.47240427
-0.11313248 -0.03600271 0.47246918
-0.11255464 -0.034850642 0.47253409
-0.1119768 -0.033698574 0.472599
-0.11139894 -0.03254649 0.47266391
-0.10932377 -0.032247409 0.47276366
-0.10835144 -0.032694191 0.47203764
-0.1108211 -0.031394422 0.47272882
-0.10874474 -0.031093016 0.47282872
-0.10777244 -0.031539798 0.47210267
-0.11024326 -0.030242354 0.47279373
-0.10719344 -0.03038539 0.47216773
-0.10816574 -0.029938623 0.47289374
-0.10661441 -0.029230997 0.47223276
-0.10758671 -0.02878423 0.4729588
-0.10603541 -0.028076604 0.47229779
-0.10545638 -0.026922211 0.47236282
-0.10487738 -0.025767818 0.47242787
-0.10429835 -0.02461341 0.4724929
-0.10371935 -0.023459017 0.47255796
-0.10314035 -0.022304624 0.47262299
-0.10101002 -0.020442605 0.47202703
-0.100431 -0.019288212 0.47209206
-0.099851996 -0.018133804 0.47215712
-0.099272966 -0.016979411 0.47222215
-0.098693967 -0.015825018 0.47228718
-0.098114967 -0.014670625 0.47235224
-0.097535938 -0.013516232 0.47241727
-0.096956939 -0.012361825 0.47248229
-0.096377909 -0.011207432 0.47254735
-0.09579891 -0.010053024 0.47261238
-0.09521988 -0.0088986307 0.47267741
-0.094640881 -0.0077442378 0.47274247
-0.094061852 -0.0065898448 0.4728075
-0.093482852 -0.0054354519 0.47287253
-0.091931522 -0.0047278255 0.47221154
-0.091352522 -0.0035734326 0.47227657
-0.087299436 0.0045073479 0.47273186
-0.086720437 0.0056617409 0.47279689
-0.086141407 0.0068161488 0.47286195
-0.086137295 0.0082965642 0.47216722
-0.085559458 0.0094486475 0.47223213
-0.12815069 -0.066460893 0.47302294
-0.12708127 -0.065777004 0.4738467
-0.12699033 -0.064147457 0.47315329
-0.1279646 -0.063699782 0.4738808
-0.12933394 -0.06116268 0.47315001
-0.13030431 -0.060716808 0.47387457
-0.12875611 -0.060010597 0.47321492
-0.12729499 -0.060921401 0.47325075
-0.12972645 -0.059564725 0.47393948
-0.12671599 -0.059767008 0.47331581
-0.12613697 -0.058612615 0.47338083
-0.12555796 -0.057458207 0.47344586
-0.12497894 -0.056303814 0.47351092
-0.12439993 -0.055149421 0.47357595
-0.12382093 -0.053995028 0.47364098
-0.12324192 -0.052840635 0.47370604
-0.12169059 -0.052133009 0.47304505
-0.1226629 -0.051686227 0.47377107
-0.12208389 -0.050531834 0.47383609
-0.12111157 -0.050978616 0.47311008
-0.12150487 -0.049377441 0.47390115
-0.12053257 -0.049824223 0.47317511
-0.12092586 -0.048223034 0.47396618
-0.11995354 -0.048669815 0.47324014
-0.11937454 -0.047515422 0.4733052
-0.11879554 -0.046361014 0.47337022
-0.11821651 -0.045206621 0.47343528
-0.11911809 -0.043175444 0.47346395
-0.11854023 -0.042023376 0.47352886
-0.11796239 -0.040871307 0.47359377
-0.11738455 -0.039719239 0.47365868
-0.11680672 -0.038567156 0.47372359
-0.11622885 -0.037415087 0.4737885
-0.11525851 -0.037860975 0.47306395
-0.11468068 -0.036708906 0.47312886
-0.11616629 -0.035846964 0.47309026
-0.11410284 -0.035556838 0.47319376
-0.11558962 -0.03469722 0.47315502
-0.11352497 -0.03440477 0.47325867
-0.11501294 -0.033547476 0.47321981
-0.11294714 -0.033252686 0.47332358
-0.11443627 -0.032397732 0.4732846
-0.1123693 -0.032100618 0.47338849
-0.11385956 -0.031247988 0.47334936
-0.11179143 -0.03094855 0.4734534
-0.11121359 -0.029796481 0.47351828
-0.10913804 -0.029491842 0.47361979
-0.11063576 -0.028644413 0.47358319
-0.10855904 -0.028337449 0.47368482
-0.11005792 -0.027492344 0.4736481
-0.10749386 -0.027406447 0.47338682
-0.10948008 -0.026340276 0.47371301
-0.10740101 -0.026028663 0.4738149
-0.10642871 -0.026475444 0.47308886
-0.10890222 -0.025188208 0.47377792
-0.10584968 -0.025321037 0.47315389
-0.10832438 -0.024036124 0.47384283
-0.10682198 -0.024874255 0.47387993
-0.10527068 -0.024166629 0.47321895
-0.10624298 -0.023719862 0.47394496
-0.10469165 -0.023012236 0.47328398
-0.10774654 -0.022884056 0.47390774
-0.10716867 -0.021731988 0.47397265
-0.10411265 -0.021857843 0.47334903
-0.10202071 -0.021534964 0.47344726
-0.10144052 -0.020378247 0.47351244
-0.10086036 -0.019221514 0.47357762
-0.10028017 -0.018064782 0.47364277
-0.099700004 -0.016908064 0.47370794
-0.099119812 -0.015751347 0.47377312
-0.098539621 -0.014594615 0.47383827
-0.097959459 -0.013437882 0.47390345
-0.097929239 -0.011915043 0.47320834
-0.098322541 -0.010313883 0.47399941
-0.09735024 -0.01076065 0.47327337
-0.09677121 -0.0096062571 0.47333843
-0.096192211 -0.0084518641 0.47340345
-0.095613182 -0.0072974563 0.47346848
-0.095034182 -0.0061430633 0.47353354
-0.094455183 -0.0049886703 0.47359857
-0.092343748 -0.0046317726 0.4736973
-0.091763556 -0.0034750551 0.47376248
-0.091183394 -0.0023183376 0.47382766
-0.090209126 -0.0027659982 0.47310016
-0.090603203 -0.0011616051 0.47389284
-0.089628935 -0.0016092807 0.47316533
-0.090023041 -4.8726797e-06 0.47395799
-0.089048773 -0.00045256317 0.47323051
-0.088468581 0.00070416927 0.47329566
-0.08788842 0.0018608868 0.47336084
-0.087308228 0.0030176193 0.47342601
-0.086534709 0.0084173232 0.47365302
-0.085955709 0.0095717162 0.47371805
-0.12863886 -0.066487476 0.47451034
-0.12805751 -0.065328434 0.47457564
-0.12893887 -0.063252106 0.4746083
-0.13127464 -0.06027092 0.47459915
-0.1306968 -0.059118852 0.47466406
-0.12768829 -0.059320226 0.47404182
-0.1286606 -0.05887346 0.47476786
-0.12710927 -0.058165833 0.47410688
-0.13011897 -0.057966784 0.47472897
-0.12857077 -0.057260588 0.4740693
-0.12653026 -0.05701144 0.47417191
-0.12954111 -0.056814715 0.47479388
-0.12750258 -0.056564659 0.47489795
-0.12692356 -0.055410266 0.47496298
-0.12595126 -0.055857047 0.47423694
-0.12537225 -0.05470264 0.47430199
-0.12479323 -0.053548247 0.47436702
-0.12421422 -0.052393854 0.47443205
-0.1236352 -0.051239446 0.47449711
-0.1230562 -0.050085053 0.47456214
-0.12247719 -0.04893066 0.47462717
-0.12189817 -0.047776267 0.47469223
-0.12034684 -0.047068641 0.47403121
-0.12131916 -0.046621874 0.47475725
-0.12074015 -0.045467466 0.47482228
-0.11976784 -0.045914248 0.47409627
-0.12016115 -0.044313058 0.47488734
-0.11918882 -0.04475984 0.4741613
-0.12105878 -0.042283684 0.47491312
-0.12008843 -0.042729571 0.47418854
-0.12048092 -0.041131616 0.47497803
-0.11951059 -0.041577503 0.47425345
-0.11893275 -0.04042542 0.47431836
-0.11835489 -0.039273351 0.47438326
-0.11777705 -0.038121283 0.47444817
-0.11719921 -0.036969215 0.47451308
-0.11662138 -0.035817146 0.47457799
-0.11810306 -0.034957007 0.47453648
-0.11604351 -0.034665078 0.4746429
-0.11546567 -0.03351301 0.47470781
-0.11488783 -0.032360941 0.47477269
-0.11431 -0.031208858 0.4748376
-0.11373213 -0.03005679 0.47490251
-0.1127618 -0.030502677 0.47417796
-0.11218396 -0.029350609 0.47424287
-0.11315429 -0.028904721 0.47496742
-0.11160609 -0.028198525 0.47430778
-0.11102825 -0.027046472 0.47437268
-0.11045042 -0.025894403 0.47443759
-0.10987258 -0.02474232 0.4745025
-0.10929471 -0.023590252 0.47456741
-0.10871688 -0.022438183 0.47463229
-0.10566399 -0.022565469 0.47401002
-0.10813904 -0.021286115 0.4746972
-0.10508496 -0.021411076 0.47407505
-0.10299498 -0.021087289 0.47417477
-0.1075612 -0.020134047 0.47476211
-0.10659084 -0.020579919 0.47403756
-0.10450596 -0.020256668 0.47414008
-0.106013 -0.019427851 0.47410247
-0.10392693 -0.019102275 0.47420514
-0.10241479 -0.019930556 0.47423995
-0.10698333 -0.018981978 0.47482702
-0.10489926 -0.018655494 0.47493115
-0.10183463 -0.018773839 0.47430509
-0.1064055 -0.01782991 0.47489193
-0.10432023 -0.017501101 0.47499621
-0.10334793 -0.017947868 0.47427016
-0.10125443 -0.017617121 0.47437027
-0.10582766 -0.016677842 0.47495684
-0.1027689 -0.016793475 0.47433519
-0.10067427 -0.016460389 0.47443545
-0.10009408 -0.015303656 0.4745006
-0.099513888 -0.014146939 0.47456577
-0.10103187 -0.013330296 0.47453031
-0.10045287 -0.012175888 0.47459537
-0.098933727 -0.012990221 0.47463095
-0.099873841 -0.011021495 0.4746604
-0.098353535 -0.011833489 0.47469613
-0.099294841 -0.0098671019 0.47472543
-0.097743511 -0.0091594756 0.47406444
-0.098715842 -0.008712694 0.47479048
-0.097164512 -0.0080050826 0.4741295
-0.098136812 -0.0075583011 0.47485551
-0.097557813 -0.0064039081 0.47492057
-0.096585512 -0.0068506747 0.47419453
-0.096492633 -0.0054728985 0.47462258
-0.095427483 -0.0045418888 0.47432461
-0.093318015 -0.0041840971 0.47442481
-0.092737854 -0.0030273795 0.47448999
-0.092157662 -0.0018706471 0.47455516
-0.09157747 -0.00071392953 0.47462031
-0.089442849 0.0011518449 0.47402316
-0.088862687 0.0023085624 0.47408834
-0.089256763 0.0039129704 0.47488099
-0.088282496 0.0034652948 0.47415352
-0.087702304 0.0046220124 0.47421867
-0.088676572 0.005069688 0.47494617
-0.087122142 0.0057787448 0.47428384
-0.086541951 0.0069354624 0.47434902
-0.08750701 0.0088640898 0.47437903
-0.08692801 0.010018498 0.47444406
-0.08634901 0.011172891 0.47450912
-0.12961508 -0.066038907 0.47523931
-0.13059132 -0.065590322 0.47596827
-0.12903373 -0.06487985 0.4753046
-0.12991314 -0.062804416 0.47533578
-0.132245 -0.059825048 0.47532371
-0.13166715 -0.058672979 0.47538862
-0.1310893 -0.057520911 0.47545353
-0.12847489 -0.056117877 0.47562397
-0.12789588 -0.054963484 0.47568899
-0.12634456 -0.054255858 0.47502801
-0.12731686 -0.053809091 0.47575405
-0.12576555 -0.053101465 0.47509307
-0.12673785 -0.052654698 0.47581908
-0.12615883 -0.051500306 0.47588414
-0.12518653 -0.051947072 0.4751581
-0.12557983 -0.050345898 0.47594917
-0.12460752 -0.050792679 0.47522312
-0.1240285 -0.049638286 0.47528818
-0.1234495 -0.048483893 0.47535321
-0.12287049 -0.047329485 0.47541824
-0.12229148 -0.046175092 0.4754833
-0.12171246 -0.045020685 0.47554833
-0.12113345 -0.043866292 0.47561336
-0.12202913 -0.041837811 0.47563767
-0.12145129 -0.040685743 0.47570258
-0.12087344 -0.039533675 0.47576749
-0.11990309 -0.039979547 0.47504291
-0.12029558 -0.038381606 0.4758324
-0.11932525 -0.038827479 0.47510782
-0.11971775 -0.037229523 0.47589731
-0.11874741 -0.037675411 0.47517273
-0.11913991 -0.036077455 0.47596222
-0.11816955 -0.036523342 0.47523764
-0.11701387 -0.034219205 0.47536746
-0.11643603 -0.033067137 0.47543237
-0.1158582 -0.031915054 0.47549728
-0.11528033 -0.030762985 0.47556219
-0.11470249 -0.029610917 0.47562709
-0.11412466 -0.028458849 0.475692
-0.11354679 -0.02730678 0.47575691
-0.11257645 -0.027752653 0.47503233
-0.11296895 -0.026154712 0.47582182
-0.11199862 -0.026600584 0.47509724
-0.11239111 -0.025002643 0.47588673
-0.11142075 -0.025448516 0.47516215
-0.11084291 -0.024296448 0.47522706
-0.11181328 -0.023850575 0.47595164
-0.11026508 -0.023144379 0.47529197
-0.10968724 -0.021992311 0.47535688
-0.10910937 -0.020840243 0.47542179
-0.10853153 -0.019688174 0.4754867
-0.1079537 -0.018536106 0.47555161
-0.10737586 -0.017384037 0.47561651
-0.10679799 -0.016231969 0.47568142
-0.10374123 -0.016346708 0.47506124
-0.10164854 -0.016012713 0.47516292
-0.10471353 -0.015899926 0.47578728
-0.1031622 -0.0151923 0.47512627
-0.10413453 -0.014745519 0.47585231
-0.1025832 -0.014037907 0.47519132
-0.10106835 -0.014855996 0.4752281
-0.1035555 -0.013591126 0.47591734
-0.10249035 -0.012660123 0.47561938
-0.10142517 -0.011729106 0.47532138
-0.10084617 -0.010574713 0.47538644
-0.10026714 -0.0094203204 0.47545147
-0.099688143 -0.0082659274 0.4755165
-0.099109113 -0.0071115345 0.47558156
-0.098530114 -0.0059571266 0.47564659
-0.097951114 -0.0048027337 0.47571161
-0.096399784 -0.0040951222 0.47505063
-0.097372085 -0.0036483407 0.47577667
-0.095266551 -0.0032887459 0.47587979
-0.094292283 -0.0037364215 0.47515231
-0.096793085 -0.0024939328 0.4758417
-0.094686389 -0.0021320134 0.47594497
-0.093712121 -0.0025797039 0.47521749
-0.096214056 -0.0013395399 0.47590673
-0.09313193 -0.0014229715 0.47528264
-0.092551768 -0.00026625395 0.47534782
-0.090434492 0.00010226667 0.47544727
-0.089853138 0.0012613088 0.47551256
-0.089271784 0.0024203658 0.47557789
-0.090811223 0.0032039285 0.47554332
-0.090231031 0.004360646 0.4756085
-0.089650869 0.0055173784 0.47567368
-0.089070678 0.006674096 0.47573882
-0.08809641 0.0062264204 0.47501135
-0.09060967 0.0074488521 0.47570103
-0.088490486 0.0078308284 0.475804
-0.087516218 0.0073831528 0.4750765
-0.089451641 0.0097576529 0.47583109
-0.08847934 0.0093108714 0.47510508
-0.088872612 0.010912046 0.47589615
-0.087900311 0.010465264 0.47517011
-0.087321311 0.011619672 0.47523513
-0.088293612 0.012066439 0.47596118
-0.13000996 -0.064431265 0.47603357
-0.1309862 -0.06398268 0.47676253
-0.13040484 -0.062823638 0.47682783
-0.13186167 -0.061909065 0.47679079
-0.13321534 -0.059379175 0.47604829
-0.13418569 -0.058933303 0.47677284
-0.1326375 -0.058227107 0.4761132
-0.13360783 -0.057781234 0.47683775
-0.13205966 -0.057075039 0.47617811
-0.13303 -0.056629166 0.47690266
-0.13002621 -0.056825504 0.47628495
-0.13148181 -0.05592297 0.47624302
-0.12944719 -0.055671111 0.47635001
-0.12886819 -0.054516718 0.47641504
-0.12828916 -0.05336231 0.47648007
-0.12771016 -0.052207917 0.47654513
-0.12713115 -0.051053524 0.47661015
-0.12655213 -0.049899116 0.47667518
-0.12450543 -0.049632773 0.47678015
-0.12597312 -0.048744723 0.47674024
-0.12442181 -0.048037097 0.47607926
-0.12539411 -0.04759033 0.47680527
-0.12481511 -0.046435937 0.4768703
-0.12384279 -0.046882704 0.47614428
-0.12423609 -0.045281544 0.47693536
-0.12326378 -0.045728311 0.47620931
-0.12268476 -0.044573918 0.47627437
-0.12210575 -0.04341951 0.4763394
-0.12242164 -0.040239871 0.47642714
-0.12184379 -0.039087787 0.47649205
-0.12126595 -0.037935719 0.47655696
-0.12068811 -0.036783651 0.47662187
-0.12011027 -0.035631582 0.47668678
-0.11953241 -0.034479514 0.47675169
-0.11856207 -0.034925386 0.47602713
-0.11895457 -0.033327445 0.47681659
-0.11798424 -0.033773318 0.47609204
-0.11837673 -0.032175377 0.4768815
-0.11740637 -0.03262125 0.47615695
-0.11779886 -0.031023309 0.47694641
-0.11682853 -0.031469181 0.47622186
-0.11625069 -0.030317113 0.47628677
-0.11567283 -0.029165044 0.47635165
-0.11509499 -0.028012976 0.47641656
-0.11451715 -0.026860908 0.47648147
-0.11123544 -0.022698507 0.47601655
-0.11065757 -0.021546438 0.47608143
-0.11007974 -0.02039437 0.47614634
-0.10897419 -0.01962395 0.4769792
-0.10568583 -0.015453145 0.4765133
-0.10510683 -0.014298752 0.47657835
-0.1045278 -0.013144359 0.47664338
-0.1039488 -0.011989966 0.47670841
-0.10239747 -0.01128234 0.47604743
-0.1033698 -0.010835558 0.47677347
-0.10181847 -0.010127947 0.47611246
-0.10123944 -0.0089735389 0.47617751
-0.10163274 -0.0073723644 0.47696859
-0.10066044 -0.0078191459 0.47624254
-0.10008144 -0.006664753 0.47630757
-0.099502414 -0.0055103451 0.47637263
-0.098923415 -0.0043559521 0.47643766
-0.098344386 -0.0032015592 0.47650269
-0.097765386 -0.0020471662 0.47656775
-0.097186387 -0.00089275837 0.47663277
-0.095080465 -0.00052762032 0.47673765
-0.094106197 -0.0009752959 0.47601014
-0.096607357 0.00026163459 0.4766978
-0.094500303 0.00062911212 0.47680283
-0.093526006 0.00018142164 0.47607532
-0.091410697 0.00055083632 0.47617623
-0.096028358 0.0014160275 0.47676286
-0.093920112 0.0017858297 0.47686797
-0.092945844 0.0013381541 0.4761405
-0.090829372 0.0017098933 0.47624153
-0.095449328 0.0025704205 0.47682789
-0.09333992 0.0029425472 0.47693315
-0.092365652 0.0024948865 0.47620565
-0.094870329 0.0037248284 0.47689292
-0.091785491 0.0036516041 0.47627082
-0.094291329 0.0048792213 0.47695798
-0.092759758 0.0040992796 0.47699833
-0.091205299 0.0048083216 0.476336
-0.092739999 0.0055868477 0.47629696
-0.090625107 0.005965054 0.47640115
-0.095241129 0.0068094283 0.47697955
-0.092161 0.0067412406 0.47636202
-0.09158197 0.0078956336 0.47642705
-0.089464754 0.008278504 0.47653151
-0.091002971 0.0090500265 0.47649211
-0.090423942 0.010204419 0.47655714
-0.089844942 0.011358827 0.47662216
-0.09138155 0.012123898 0.47657955
-0.089265913 0.01251322 0.47668719
-0.13196242 -0.063534111 0.4774915
-0.13515604 -0.05848743 0.47749743
-0.1345782 -0.057335347 0.47756234
-0.13400035 -0.056183293 0.47762725
-0.13342251 -0.05503121 0.47769216
-0.13197082 -0.055931941 0.47773704
-0.13041951 -0.055224329 0.47707602
-0.13139181 -0.054777548 0.47780207
-0.12984049 -0.054069936 0.47714108
-0.13081279 -0.053623155 0.4778671
-0.13023379 -0.052468762 0.47793216
-0.12926148 -0.052915528 0.47720611
-0.12965478 -0.051314369 0.47799718
-0.12868246 -0.051761135 0.47727114
-0.12810346 -0.050606743 0.4773362
-0.12752444 -0.04945235 0.47740123
-0.12694544 -0.048297957 0.47746626
-0.12636642 -0.047143564 0.47753131
-0.12365708 -0.044127136 0.47700039
-0.12462938 -0.043680355 0.47772643
-0.12405038 -0.042525962 0.47779146
-0.12307806 -0.042972729 0.47706544
-0.12347136 -0.041371569 0.47785649
-0.12249905 -0.041818336 0.47713047
-0.12289235 -0.040217176 0.47792155
-0.12231334 -0.039062783 0.47798657
-0.12050277 -0.034033641 0.47747627
-0.11934707 -0.031729504 0.47760609
-0.11876923 -0.030577436 0.47767097
-0.11722103 -0.02987124 0.47701132
-0.11761352 -0.028273299 0.47780079
-0.11664319 -0.028719172 0.47707623
-0.11703569 -0.027121231 0.4778657
-0.11606535 -0.027567104 0.47714114
-0.11548752 -0.026415035 0.47720605
-0.11342058 -0.026103571 0.47731498
-0.11645785 -0.025969148 0.47793061
-0.11490965 -0.025262967 0.47727096
-0.11588001 -0.024817094 0.47799551
-0.11433181 -0.024110898 0.47733587
-0.11284158 -0.024949163 0.47738001
-0.11226255 -0.02379477 0.47744507
-0.11168355 -0.022640362 0.47751009
-0.11110452 -0.021485969 0.47757512
-0.11052552 -0.020331576 0.47764018
-0.10994652 -0.019177184 0.47770521
-0.10936749 -0.018022791 0.47777024
-0.10839519 -0.018469557 0.47704422
-0.10781616 -0.017315164 0.47710925
-0.10878849 -0.016868383 0.4778353
-0.10723716 -0.016160771 0.47717428
-0.10820946 -0.01571399 0.47790033
-0.10665816 -0.015006378 0.47723934
-0.10225064 -0.010042772 0.47760612
-0.10167044 -0.0088860542 0.47767127
-0.10051009 -0.0065726042 0.47780162
-0.099929899 -0.0054158866 0.47786677
-0.099349737 -0.0042591542 0.47793195
-0.099316716 -0.0027547777 0.47722873
-0.098737687 -0.0016003847 0.47729376
-0.098158687 -0.00044599175 0.47735882
-0.097579658 0.0007084161 0.47742385
-0.097000659 0.0018628091 0.47748888
-0.096421659 0.003017202 0.47755393
-0.09584263 0.004171595 0.47761896
-0.09526363 0.0053260028 0.47768399
-0.0967893 0.0061032325 0.47763923
-0.0937123 0.0060336143 0.47702301
-0.096211463 0.0072553009 0.47770414
-0.094663262 0.0079614967 0.47704446
-0.093133301 0.0071880072 0.47708803
-0.092554271 0.0083424151 0.47715309
-0.095055789 0.0095594376 0.47783396
-0.094085425 0.0091135651 0.47710937
-0.091975272 0.0094968081 0.47721812
-0.093507588 0.010265633 0.47717428
-0.091396272 0.010651201 0.47728315
-0.092929721 0.011417702 0.47723919
-0.092351884 0.01256977 0.4773041
-0.090238243 0.012960002 0.47741324
-0.13246119 -0.063552946 0.47898775
-0.13381022 -0.061013713 0.47824576
-0.1323573 -0.061926484 0.47828576
-0.13478449 -0.060566038 0.47897327
-0.13565248 -0.058501586 0.47899398
-0.13554853 -0.056889474 0.47828689
-0.13236412 -0.054330781 0.47852811
-0.13178511 -0.053176388 0.47859314
-0.1312061 -0.05202198 0.47865817
-0.12907577 -0.050159976 0.47806221
-0.12800843 -0.049446464 0.47889745
-0.12742823 -0.048289746 0.47896263
-0.12529361 -0.046423972 0.47836548
-0.12471344 -0.045267239 0.47843066
-0.12502268 -0.04207918 0.4785175
-0.12444367 -0.040924788 0.47858253
-0.12386465 -0.039770395 0.47864756
-0.12328565 -0.038615987 0.47871262
-0.12270664 -0.037461594 0.47877765
-0.12173432 -0.037908375 0.4780516
-0.12212762 -0.036307201 0.47884268
-0.12115531 -0.036753967 0.47811666
-0.12154861 -0.035152808 0.47890773
-0.12057629 -0.035599574 0.47818169
-0.12096959 -0.033998415 0.47897276
-0.11941826 -0.033290789 0.47831178
-0.11768124 -0.029827595 0.47850689
-0.11800605 -0.026675344 0.47859028
-0.11742818 -0.025523275 0.47865519
-0.11685035 -0.024371207 0.4787201
-0.11530218 -0.023665026 0.47806042
-0.11323488 -0.023347989 0.47817108
-0.11420718 -0.022901222 0.47889712
-0.11265585 -0.022193596 0.47823614
-0.11362815 -0.021746814 0.47896215
-0.11091882 -0.018730402 0.47843125
-0.10710007 -0.014931038 0.47873524
-0.10554561 -0.014221996 0.47807291
-0.10651988 -0.01377432 0.47880042
-0.10496542 -0.013065279 0.47813809
-0.10593969 -0.012617603 0.47886559
-0.10535952 -0.011460871 0.47893077
-0.10438526 -0.011908546 0.47820327
-0.10477933 -0.010304138 0.47899592
-0.10380507 -0.010751829 0.47826844
-0.1032249 -0.009595111 0.47833359
-0.10264471 -0.0084383786 0.47839877
-0.10206452 -0.0072816461 0.47846395
-0.10148436 -0.0061249286 0.4785291
-0.10090417 -0.0049682111 0.47859427
-0.100324 -0.0038114786 0.47865945
-0.099743813 -0.0026547611 0.47872463
-0.099163651 -0.0014980286 0.47878978
-0.099130988 7.8976154e-07 0.47808483
-0.098551989 0.0011551827 0.47814989
-0.09894529 0.0027563572 0.47894096
-0.097972959 0.0023095757 0.47821492
-0.09739396 0.0034639835 0.47827995
-0.09681496 0.0046183765 0.47834501
-0.097181827 0.0077011734 0.47842872
-0.09660396 0.0088532418 0.47849363
-0.095077902 0.0080815703 0.47854012
-0.093919873 0.010390356 0.47867018
-0.093340874 0.011544764 0.47873524
-0.092761874 0.012699157 0.47880027
-0.090647042 0.013091713 0.47890949
-0.131109 -0.066105112 0.47972339
-0.13575876 -0.060118362 0.47970074
-0.13604578 -0.056900412 0.47978505
-0.13449445 -0.0561928 0.47912404
-0.13391544 -0.055038393 0.4791891
-0.13333642 -0.053884 0.47925413
-0.13275743 -0.052729607 0.47931916
-0.13014305 -0.051312238 0.47949463
-0.12956287 -0.050155506 0.47955978
-0.12898269 -0.048998788 0.47962496
-0.1284025 -0.04784207 0.47969013
-0.12684806 -0.047133014 0.47902781
-0.12782232 -0.046685353 0.47975531
-0.12724215 -0.045528606 0.47982046
-0.12626788 -0.045976296 0.47909299
-0.12666197 -0.044371888 0.47988564
-0.1256877 -0.044819579 0.47915813
-0.12608179 -0.043215171 0.47995082
-0.12510753 -0.043662846 0.47922331
-0.12541598 -0.040478006 0.47930858
-0.12483697 -0.039323613 0.4793736
-0.12425795 -0.03816922 0.47943863
-0.12252092 -0.034706026 0.47963375
-0.12194191 -0.033551633 0.47969881
-0.12136289 -0.032397225 0.47976384
-0.12039059 -0.032844007 0.47903779
-0.12078388 -0.031242833 0.47982886
-0.11981156 -0.031689614 0.47910285
-0.12020487 -0.03008844 0.47989392
-0.11923257 -0.030535206 0.47916788
-0.11865354 -0.029380813 0.47923291
-0.11962587 -0.028934047 0.47995895
-0.11807454 -0.02822642 0.47929797
-0.11517948 -0.022454441 0.47962314
-0.11460048 -0.021300033 0.4796882
-0.1115554 -0.021423712 0.47907174
-0.11252967 -0.020976037 0.47979921
-0.11097521 -0.020266995 0.47913688
-0.1119495 -0.019819304 0.47986439
-0.11136931 -0.018662587 0.47992957
-0.10981485 -0.017953545 0.47926724
-0.10923469 -0.016796812 0.47933239
-0.1086545 -0.015640095 0.47939757
-0.10807431 -0.014483377 0.47946274
-0.10749415 -0.013326645 0.47952792
-0.10366291 -0.0095072538 0.4798317
-0.10308155 -0.0083482116 0.47989699
-0.10071808 -0.0022070855 0.4794521
-0.10013789 -0.0010503531 0.47951728
-0.099557728 0.00010636449 0.47958246
-0.098977536 0.0012630969 0.47964764
-0.098366261 0.0039107651 0.47900599
-0.099338591 0.0043575317 0.47973201
-0.098759562 0.0055119246 0.47979707
-0.097787261 0.005065158 0.47907102
-0.098180562 0.0066663325 0.47986209
-0.097208232 0.006219551 0.47913608
-0.097601533 0.0078207254 0.47992712
-0.097022533 0.0089751184 0.47999218
-0.095471203 0.0096827447 0.4793312
-0.094892204 0.010837138 0.47939622
-0.1329639 -0.063569978 0.48048696
-0.13615283 -0.058513954 0.48049343
-0.13499248 -0.056200504 0.48062375
-0.1344123 -0.055043787 0.48068893
-0.13383213 -0.053887054 0.48075411
-0.13325195 -0.052730337 0.48081928
-0.13169749 -0.05202128 0.48015696
-0.13111731 -0.050864562 0.48022211
-0.13053714 -0.04970783 0.48028728
-0.12995696 -0.048551112 0.48035246
-0.1255016 -0.042058453 0.48001599
-0.11904684 -0.027779654 0.48002398
-0.11846784 -0.026625246 0.48008904
-0.11788884 -0.025470853 0.48015407
-0.11730981 -0.024316445 0.4802191
-0.11673081 -0.023162052 0.48028415
-0.11350393 -0.020528361 0.48052672
-0.11292377 -0.019371644 0.48059189
-0.11234358 -0.018214911 0.48065704
-0.11026615 -0.017882511 0.48076719
-0.1096848 -0.016723469 0.48083249
-0.10910344 -0.015564412 0.48089778
-0.10852209 -0.014405355 0.48096311
-0.10638317 -0.012535825 0.48036474
-0.10580182 -0.011376783 0.48043004
-0.10196164 -0.0075443238 0.4807331
-0.10191888 -0.0060300976 0.48002759
-0.10133752 -0.0048710555 0.48009288
-0.10075617 -0.0037119985 0.48015818
-0.100532 0.00055404007 0.48030996
-0.099951804 0.0017107725 0.48037511
-0.099371642 0.0028674901 0.48044029
-0.099731863 0.0059587061 0.48052308
-0.099152863 0.0071130991 0.48058814
-0.098573864 0.008267507 0.48065317
-0.097994834 0.0094218999 0.4807182
-0.097415835 0.010576293 0.48078325
-0.096443504 0.010129526 0.48005721
-0.096836805 0.011730686 0.48084828
-0.095864505 0.011283919 0.48012227
-0.093755931 0.011673614 0.48023415
-0.13073969 -0.068217054 0.48118889
-0.13161483 -0.06612356 0.48122394
-0.13347049 -0.063585237 0.48198915
-0.13579145 -0.06059365 0.48197487
-0.13665712 -0.058524534 0.48199585
-0.13219281 -0.052018806 0.4816587
-0.12889118 -0.047831163 0.48119095
-0.11563855 -0.022394136 0.48112386
-0.11505839 -0.021237403 0.48118904
-0.11124235 -0.017433941 0.48149616
-0.11066103 -0.016274884 0.48156145
-0.11007968 -0.015115842 0.48162675
-0.10949832 -0.01395677 0.48169205
-0.10741311 -0.013613641 0.48180133
-0.1068306 -0.01245226 0.48186678
-0.10624808 -0.011290893 0.48193219
-0.10566556 -0.010129511 0.48199764
-0.10468736 -0.01057899 0.48126721
-0.10410485 -0.0094176084 0.48133263
-0.10352233 -0.0082562268 0.48139808
-0.10293981 -0.0070948452 0.48146349
-0.1023573 -0.0059334785 0.48152894
-0.10177478 -0.004772082 0.48159438
-0.1011923 -0.0036107153 0.4816598
-0.10060978 -0.0024493337 0.48172525
-0.1005697 -0.00094531476 0.48101777
-0.10096458 0.00066231191 0.481812
-0.10092607 0.0021584481 0.48110262
-0.10034591 0.0033151805 0.48116779
-0.10073999 0.0049195737 0.48196045
-0.099765718 0.0044718981 0.48123297
-0.094174892 0.011804253 0.48173606
-0.092617333 0.012514725 0.4810724
-0.13607576 -0.057365492 0.48206115
-0.13502209 -0.056660041 0.4829016
-0.13491307 -0.055047378 0.48219177
-0.13113134 -0.051302612 0.48249835
-0.12782308 -0.047106579 0.48202965
-0.12558529 -0.044049904 0.48299974
-0.11396262 -0.020462513 0.4820292
-0.11338127 -0.019303456 0.48209453
-0.11228204 -0.018521592 0.48293501
-0.10839128 -0.013164163 0.48253176
-0.10780877 -0.012002781 0.4825972
-0.10722625 -0.010841414 0.48266262
-0.10664374 -0.0096800327 0.48272806
-0.10508305 -0.0089681298 0.48206306
-0.10396704 -0.0081624389 0.48290211
-0.10338336 -0.0069987327 0.48296767
-0.10158795 -0.001999855 0.48245567
-0.10100543 -0.00083847344 0.48252109
-0.10135946 0.0022699386 0.48260626
-0.10077813 0.0034289956 0.48267159
-0.10015982 0.0060762912 0.48202562
-0.099579632 0.0072330236 0.4820908
-0.098999441 0.0083897561 0.48215595
-0.098419279 0.0095464736 0.48222113
-0.097839087 0.010703191 0.4822863
-0.097258925 0.011859924 0.48235148
-0.13165024 -0.06660904 0.48349604
-0.13398102 -0.063598648 0.48349422
-0.13630082 -0.060604736 0.4834801
-0.13716531 -0.058533326 0.48350117
-0.13658279 -0.057371929 0.48356658
-0.13385707 -0.054337278 0.48303246
-0.11169952 -0.017360196 0.48300046
-0.11111701 -0.016198829 0.4830659
-0.11053452 -0.015037447 0.48313132
-0.10942942 -0.014243916 0.48397252
-0.10553089 -0.0088757575 0.48356843
-0.10494721 -0.0077120513 0.483634
-0.10279968 -0.0058350265 0.48303324
-0.10221601 -0.0046713203 0.4830988
-0.10163233 -0.0035076141 0.48316437
-0.10202879 -0.0018935204 0.48396182
-0.10198364 -0.00038899481 0.48325151
-0.10140112 0.00077238679 0.48331696
-0.10059166 0.0061956793 0.48353115
-0.10001031 0.0073547214 0.48359644
-0.13263825 -0.066155061 0.4842338
-0.13552992 -0.056663245 0.48440865
-0.13232288 -0.054069147 0.48464906
-0.12958622 -0.051022336 0.4841128
-0.12900138 -0.04985629 0.48417848
-0.12275562 -0.039813265 0.48403639
-0.10884574 -0.013080209 0.48403808
-0.10773715 -0.012279734 0.4848797
-0.10715228 -0.011113688 0.48494539
-0.10383078 -0.0069008321 0.48447481
-0.10324594 -0.0057348013 0.48454052
-0.10266107 -0.0045687705 0.48460621
-0.10207623 -0.0034027398 0.48467189
-0.10242525 -0.00027944148 0.48475927
-0.10184157 0.00088426471 0.48482484
-0.10179681 0.002383247 0.4841128
-0.10121429 0.0035446137 0.48417825
-0.10063177 0.0047059953 0.48424366
-0.098884225 0.0081901401 0.48443997
-0.098301709 0.0093515217 0.48450539
-0.097719193 0.010512903 0.48457083
-0.097136676 0.01167427 0.48463625
-0.093491077 0.011304423 0.48479259
-0.091367662 0.01170449 0.48489943
-0.12935011 -0.070124313 0.48576048
-0.13449548 -0.063610271 0.48500222
-0.13634722 -0.061073735 0.48576447
-0.13447468 -0.055949941 0.48525101
-0.11991665 -0.03555797 0.48507401
-0.11882985 -0.034796134 0.48591486
-0.10988894 -0.014160514 0.48548165
-0.1093041 -0.012994483 0.48554736
-0.10871926 -0.011828452 0.48561305
-0.10656744 -0.0099476576 0.48501107
-0.1059826 -0.0087816268 0.48507679
-0.10539776 -0.0076155961 0.48514247
-0.10428217 -0.0068011135 0.48598483
-0.1024735 -0.0017854273 0.48547095
-0.099903315 0.0071531832 0.48588455
-0.099862427 0.0086396188 0.48517039
-0.09927991 0.0098010004 0.48523581
-0.13268541 -0.066635147 0.48651475
-0.13294443 -0.055679962 0.4868705
-0.13078405 -0.053791672 0.48626614
-0.12696566 -0.049997881 0.48656842
-0.11774075 -0.034029648 0.48675591
-0.11715239 -0.032856628 0.48682198
-0.11060929 -0.018406481 0.48683825
-0.1100221 -0.017235801 0.4869042
-0.10995436 -0.015695825 0.48619306
-0.10761029 -0.011022374 0.48645636
-0.10369614 -0.0056327581 0.48605067
-0.10311013 -0.0044644028 0.4861165
-0.1025241 -0.0032960325 0.48618233
-0.099946529 0.0056620687 0.48659846
-0.09815228 0.010644302 0.48608124
-0.097568601 0.011808008 0.48614681
-0.13454621 -0.064082995 0.48728776
-0.11068055 -0.019953445 0.48754895
-0.10649902 -0.010211661 0.48729992
-0.10062718 0.0014952272 0.4879595
-0.099992096 0.00416632 0.48731208
-0.092819095 0.010810032 0.48785785
-0.086005777 0.010397598 0.48735425
-0.090688258 0.01121527 0.48796216
-0.1293996 -0.070609078 0.48804116
-0.13087058 -0.069679394 0.48801765
-0.13140953 -0.055400684 0.48849049
-0.12876236 -0.053946868 0.48865956
-0.11083004 -0.02306132 0.48896968
-0.11075413 -0.021505043 0.48825943
-0.10538539 -0.0093962997 0.48814374
-0.10426944 -0.008576259 0.48898783
-0.10067859 -1.2174249e-05 0.48867244
-0.10003999 0.002665922 0.48802546
-0.099264473 0.0066310614 0.48895961
-0.1313991 -0.069690302 0.4895342
-0.13227198 -0.067577764 0.48957452
-0.13429031 -0.06010133 0.48974282
-0.10367993 -0.007400915 0.48905405
-0.10256043 -0.0065739304 0.48989859
-0.09931317 0.0051338822 0.48967454
-0.098677278 0.0078017563 0.48902556
-0.098090112 0.0089724511 0.48909152
-0.097502917 0.010143131 0.48915747
-0.13413908 -0.065014139 0.49035528
-0.13323122 -0.059375465 0.49058726
-0.12217079 -0.047438651 0.49070916
-0.10716733 -0.014725581 0.49095362
-0.10709646 -0.013184175 0.49024117
-0.10025495 -0.0033822805 0.49087632
-0.1001977 -0.0018632412 0.49016398
-0.096371412 0.010998964 0.49000499
-0.092158824 0.010321021 0.49093196
-0.11930105 -0.043117329 0.49175197
-0.10724056 -0.016271621 0.49166581
-0.10598364 -0.01236558 0.4910866
-0.10486847 -0.01154232 0.49193227
-0.10090753 -0.0060882717 0.49152172
-0.10031453 -0.004905954 0.49158832
-0.098881394 0.0017944127 0.49188435
-0.098826855 0.0033032298 0.49117005
-0.084201664 0.0092878938 0.49196225
-0.11761504 -0.041155949 0.49266177
-0.10731611 -0.017822325 0.49237776
-0.10375097 -0.010714397 0.49277821
-0.10315678 -0.0095297545 0.49284497
-0.098099709 0.005791083 0.49282596
-0.09804672 0.0072920322 0.49210978
-0.09691602 0.0081510842 0.4929589
-0.092605263 0.010464281 0.49245429
-0.13052975 -0.071104735 0.49337238
-0.1314038 -0.068980232 0.49341765
-0.11652207 -0.040376946 0.49350497
-0.11592436 -0.0391853 0.49357212
-0.10687762 -0.019748405 0.4938679
-0.10203576 -0.0086948872 0.49369133
-0.096324146 0.0093310773 0.49302539
-0.088362932 0.0097927302 0.49336606
-0.11825103 -0.080784962 0.49489677
-0.10695902 -0.021310762 0.49457917
-0.097929806 -0.001908794 0.49487299
-0.09761852 0.003959924 0.49432421
-0.094647586 0.0098831952 0.4946579
-0.11927822 -0.080312952 0.49566376
