# .PCD v0.7 - Point Cloud Data file format
VERSION 0.7
FIELDS x y z
SIZE 4 4 4
TYPE F F F
COUNT 1 1 1
WIDTH 1378
HEIGHT 1
VIEWPOINT 0 0 0 1 0 0 0
POINTS 1378
DATA ascii
0.18767273 -0.12682766 0.42201099
0.18877292 -0.12682752 0.42201066
0.18987307 -0.12682739 0.4220103
0.19097328 -0.12682724 0.42200997
0.19207343 -0.12682711 0.42200962
0.19317362 -0.12682697 0.42200929
0.1942738 -0.12682684 0.42200893
0.19537398 -0.1268267 0.4220086
0.19647416 -0.12682657 0.42200825
-0.30690688 -0.16363654 0.54915899
-0.30547556 -0.16363636 0.54915851
-0.3034904 -0.16333811 0.54815799
-0.30206174 -0.16333793 0.54815751
-0.30063304 -0.16333775 0.5481571
-0.29865831 -0.16303951 0.54715651
-0.29723224 -0.16303933 0.5471561
-0.2958062 -0.16303915 0.54715562
-0.29384178 -0.16274089 0.54615504
-0.29241833 -0.16274071 0.54615456
-0.29046184 -0.16244245 0.54515404
-0.28904101 -0.16244227 0.54515362
-0.28762013 -0.16244209 0.54515314
-0.28567407 -0.16214384 0.54415262
-0.28425583 -0.16214368 0.54415214
-0.28231758 -0.16184543 0.54315162
-0.28090194 -0.16184525 0.5431512
-0.2794863 -0.16184507 0.54315072
-0.27755845 -0.16154681 0.5421502
-0.2761454 -0.16154665 0.54214978
-0.27422538 -0.16124837 0.54114914
-0.27281496 -0.16124819 0.54114872
-0.27140453 -0.16124803 0.5411483
-0.26949492 -0.16094978 0.54014778
-0.26759058 -0.16065153 0.5391472
-0.2661854 -0.16065136 0.53914678
-0.26428881 -0.16035311 0.53814626
-0.26239747 -0.16005485 0.53714567
-0.26051131 -0.15975662 0.53614515
-0.25911394 -0.15975644 0.53614473
-0.25723565 -0.15945821 0.53514421
-0.25584087 -0.15945803 0.53514373
-0.25397038 -0.15915978 0.53414321
-0.25257823 -0.1591596 0.53414279
-0.25071555 -0.15886135 0.53314227
-0.24932599 -0.15886118 0.53314185
-0.24793643 -0.15886101 0.53314143
-0.24654686 -0.15886083 0.53314096
-0.2451573 -0.15886067 0.53314054
-0.24331027 -0.15856242 0.53213996
-0.24192333 -0.15856224 0.53213954
-0.24053636 -0.15856208 0.53213912
-0.23914939 -0.1585619 0.53213871
-0.23776245 -0.15856174 0.53213823
-0.23593104 -0.1582635 0.53113776
-0.23454672 -0.15826333 0.53113729
-0.23272312 -0.15796508 0.53013682
-0.23134139 -0.15796492 0.53013635
-0.22952566 -0.15766668 0.52913588
-0.22814652 -0.1576665 0.52913547
-0.2263386 -0.15736826 0.52813488
-0.22453591 -0.15707003 0.52713436
-0.22316197 -0.15706986 0.52713394
-0.22178808 -0.1570697 0.52713352
-0.2199958 -0.15677144 0.526133
-0.21820873 -0.1564732 0.52513254
-0.21684003 -0.15647304 0.52513212
-0.21547133 -0.15647288 0.5251317
-0.21410263 -0.1564727 0.52513123
-0.21273389 -0.15647253 0.52513081
-0.21136519 -0.15647237 0.52513039
-0.2095964 -0.15617414 0.52412993
-0.20823029 -0.15617397 0.52412951
-0.20686418 -0.1561738 0.52412903
-0.20510581 -0.15587556 0.52312851
-0.2037423 -0.1558754 0.52312809
-0.20199174 -0.15557715 0.52212763
-0.20063084 -0.15557699 0.52212721
-0.19926995 -0.15557683 0.52212673
-0.19790909 -0.15557666 0.52212632
-0.19617155 -0.15527843 0.52112585
-0.19481328 -0.15527827 0.52112544
-0.19345501 -0.1552781 0.52112502
-0.19209671 -0.15527792 0.5211246
-0.19073844 -0.15527776 0.52112418
-0.18901655 -0.15497954 0.52012366
-0.18766087 -0.15497938 0.52012324
-0.18594682 -0.15468115 0.51912278
-0.18459377 -0.15468098 0.51912236
-0.18324068 -0.1546808 0.51912194
-0.18153703 -0.15438256 0.51812142
-0.18018657 -0.15438239 0.518121
-0.17883611 -0.15438223 0.51812059
-0.17714289 -0.15408401 0.51712012
-0.17579505 -0.15408385 0.51711971
-0.17444721 -0.15408368 0.51711929
-0.17276445 -0.15378547 0.51611882
-0.1714192 -0.1537853 0.51611841
-0.16974425 -0.15348707 0.51511794
-0.1684016 -0.15348691 0.51511753
-0.16673446 -0.15318868 0.514117
-0.16539443 -0.15318851 0.51411659
-0.16373512 -0.15289029 0.51311612
-0.16239768 -0.15289013 0.5131157
-0.16074622 -0.15259193 0.51211524
-0.1594114 -0.15259176 0.51211482
-0.15776771 -0.15229353 0.51111442
-0.15643552 -0.15229337 0.511114
-0.15479967 -0.15199514 0.51011354
-0.15316904 -0.15169692 0.50911301
-0.15184203 -0.15169676 0.5091126
-0.15051502 -0.15169659 0.50911218
-0.14889482 -0.15139839 0.50811177
-0.14757046 -0.15139823 0.50811136
-0.14595807 -0.15109999 0.50711089
-0.14463627 -0.15109983 0.50711048
-0.14303169 -0.15080163 0.50611007
-0.14171252 -0.15080146 0.50610965
-0.14011577 -0.15050325 0.50510913
-0.13852423 -0.15020505 0.50410873
-0.13721028 -0.15020488 0.50410831
-0.13589633 -0.15020472 0.50410789
-0.13431522 -0.14990649 0.50310749
-0.13300386 -0.14990632 0.50310707
-0.1314306 -0.14960812 0.50210661
-0.13038117 -0.14990601 0.50310624
-0.12881312 -0.14960781 0.50210583
-0.12750435 -0.14960764 0.50210541
-0.12619561 -0.14960748 0.502105
-0.12488686 -0.14960732 0.50210458
-0.12357813 -0.14960717 0.50210416
-0.12202571 -0.14930896 0.50110376
-0.12071957 -0.1493088 0.50110334
-0.11941343 -0.14930864 0.50110292
-0.11810729 -0.14930847 0.50110257
-0.11680115 -0.14930832 0.50110215
-0.11549501 -0.14930816 0.50110173
-0.11418887 -0.149308 0.50110132
-0.11288273 -0.14930783 0.5011009
-0.11135376 -0.14900962 0.50010049
-0.11005023 -0.14900947 0.50010008
-0.1087467 -0.14900929 0.50009966
-0.10722817 -0.1487111 0.49909925
-0.10592725 -0.14871094 0.49909884
-0.10462633 -0.14871077 0.49909845
-0.1033254 -0.14871061 0.49909803
-0.10202447 -0.14871046 0.49909762
-0.10052159 -0.14841226 0.49809721
-0.099223271 -0.14841209 0.49809682
-0.097924948 -0.14841194 0.49809641
-0.096432485 -0.14811373 0.49709597
-0.095136777 -0.14811358 0.49709558
-0.093841068 -0.14811341 0.49709517
-0.09254536 -0.14811325 0.49709478
-0.091249645 -0.1481131 0.49709436
-0.089772828 -0.14781488 0.49609396
-0.088301226 -0.1475167 0.49509355
-0.087010726 -0.14751655 0.49509317
-0.085546941 -0.14721833 0.49409273
-0.084088378 -0.14692014 0.49309236
-0.0828031 -0.14692 0.49309194
-0.081352346 -0.14662179 0.49209154
-0.079906814 -0.14632359 0.49109113
-0.078626744 -0.14632343 0.49109074
-0.077189021 -0.14602524 0.49009034
-0.075911559 -0.14602509 0.49008992
-0.074481666 -0.1457269 0.48908955
-0.073206812 -0.14572674 0.48908916
-0.071931958 -0.14572659 0.48908874
-0.070512496 -0.14542839 0.48808837
-0.06924025 -0.14542824 0.48808798
-0.067968003 -0.14542808 0.48808759
-0.066695757 -0.14542793 0.48808718
-0.065289333 -0.14512973 0.48708677
-0.064019695 -0.14512958 0.48708639
-0.062750041 -0.14512941 0.487086
-0.061480414 -0.14512926 0.48708558
-0.060210776 -0.1451291 0.48708519
-0.058819987 -0.14483093 0.48608482
-0.057552952 -0.14483076 0.48608443
-0.056285918 -0.14483061 0.48608404
-0.055018887 -0.14483045 0.48608363
-0.053751856 -0.1448303 0.48608324
-0.052484822 -0.14483014 0.48608285
-0.051217791 -0.14482999 0.48608246
-0.049847856 -0.1445318 0.48508206
-0.048583433 -0.14453164 0.48508167
-0.047221325 -0.14423345 0.4840813
-0.04595951 -0.14423329 0.48408091
-0.044697691 -0.14423314 0.48408052
-0.043435872 -0.14423299 0.48408014
-0.042086795 -0.14393479 0.48307973
-0.04082758 -0.14393464 0.48307934
-0.039568368 -0.14393449 0.48307896
-0.03822973 -0.14363632 0.48207861
-0.036973126 -0.14363615 0.48207819
-0.035642304 -0.14333798 0.48107785
-0.034388307 -0.14333783 0.48107746
-0.033134308 -0.14333768 0.48107708
-0.031880308 -0.14333752 0.48107669
-0.030626312 -0.14333737 0.4810763
-0.029372314 -0.14333721 0.48107591
-0.028118318 -0.14333706 0.48107553
-0.026808348 -0.14303885 0.48007515
-0.025556957 -0.1430387 0.48007473
-0.024254812 -0.14274053 0.47907439
-0.023006028 -0.14274038 0.479074
-0.021711703 -0.14244221 0.47807366
-0.020465529 -0.14244206 0.47807327
-0.019179024 -0.14214388 0.47707292
-0.017935455 -0.14214373 0.47707254
-0.016691886 -0.14214358 0.47707215
-0.01541581 -0.14184539 0.47607177
-0.014174848 -0.14184524 0.47607139
-0.012906593 -0.14154707 0.47507104
-0.011668238 -0.14154692 0.47507069
-0.010429883 -0.14154677 0.4750703
-0.0091720568 -0.14124861 0.47406995
-0.0079363091 -0.14124845 0.47406957
-0.0067005614 -0.1412483 0.47406918
-0.0054648132 -0.14124815 0.47406879
-0.0042200224 -0.14094996 0.47306845
-0.0029868816 -0.14094982 0.47306806
-0.0017537402 -0.14094965 0.47306767
-0.00051937811 -0.14065149 0.47206736
0.00071115588 -0.14065135 0.47206697
0.0019416899 -0.1406512 0.47206658
0.0031656239 -0.14035302 0.47106624
0.0043935506 -0.14035287 0.47106585
0.0056214775 -0.14035271 0.47106546
0.0068494044 -0.14035256 0.4710651
0.0080603026 -0.1400544 0.47006479
0.0092856223 -0.14005426 0.4700644
0.010510942 -0.14005411 0.47006401
0.011736263 -0.14005396 0.47006363
0.012961582 -0.14005381 0.47006324
0.014186902 -0.14005366 0.47006288
0.015412222 -0.14005351 0.47006249
0.016602263 -0.13975534 0.46906215
0.017824976 -0.13975519 0.46906176
0.019047689 -0.13975504 0.46906137
0.020227302 -0.13945687 0.46806109
0.021401705 -0.13915871 0.46706074
0.022619203 -0.13915856 0.46706036
0.023785779 -0.1388604 0.46606007
0.025000673 -0.13886026 0.46605968
0.02615943 -0.1385621 0.4650594
0.027371714 -0.13856195 0.46505901
0.028584 -0.1385618 0.46505862
0.029732328 -0.13826363 0.46405831
0.030942008 -0.13826348 0.46405792
0.03215168 -0.13826333 0.46405756
0.03336136 -0.13826318 0.46405718
0.034571037 -0.13826303 0.46405679
0.035703726 -0.13796489 0.4630565
0.036910795 -0.13796474 0.46305615
0.038117867 -0.13796459 0.46305576
0.039324939 -0.13796444 0.46305537
0.040532008 -0.13796429 0.46305501
0.041649047 -0.13766614 0.4620547
0.042853512 -0.13766599 0.46205431
0.044057976 -0.13766584 0.46205395
0.045262437 -0.13766569 0.46205357
0.046366453 -0.13736753 0.46105328
0.04756831 -0.13736738 0.46105289
0.048664492 -0.13706923 0.46005261
0.049863741 -0.13706908 0.46005222
0.05106299 -0.13706893 0.46005186
0.052148748 -0.13677078 0.45905158
0.053345393 -0.13677064 0.45905119
0.054542035 -0.13677049 0.45905083
0.055738676 -0.13677034 0.45905045
0.056811403 -0.13647221 0.45805019
0.058005441 -0.13647206 0.4580498
0.059199475 -0.13647191 0.45804945
0.060261771 -0.13617374 0.45704913
0.061453197 -0.13617359 0.45704877
0.062644623 -0.13617344 0.45704842
0.063836046 -0.13617331 0.45704803
0.064885311 -0.13587517 0.45604777
0.066074133 -0.13587502 0.45604739
0.067262955 -0.13587487 0.45604703
0.068301782 -0.13557674 0.45504674
0.069487996 -0.13557659 0.45504636
0.070674211 -0.13557644 0.455046
0.071702629 -0.1352783 0.45404574
0.072886236 -0.13527815 0.45404536
0.073906809 -0.13497999 0.45304507
0.075087808 -0.13497986 0.45304471
0.076268807 -0.13497971 0.45304435
0.077278964 -0.13468158 0.4520441
0.078457355 -0.13468143 0.45204374
0.079459697 -0.13438331 0.45104349
0.080635481 -0.13438316 0.4510431
0.081811264 -0.13438301 0.45104274
0.082803167 -0.13408485 0.45004246
0.083976343 -0.1340847 0.4500421
0.085149527 -0.13408457 0.45004174
0.086130999 -0.13378642 0.44904149
0.087301575 -0.13378629 0.44904113
0.088472143 -0.13378614 0.44904077
0.089642711 -0.13378599 0.44904041
0.090813287 -0.13378586 0.44904003
0.09177912 -0.13348772 0.44803977
0.092947088 -0.13348757 0.44803941
0.094115056 -0.13348742 0.44803903
0.095070466 -0.13318931 0.4470388
0.096235819 -0.13318916 0.44703844
0.097401179 -0.13318901 0.44703808
0.098346151 -0.13289088 0.44603783
0.099508896 -0.13289073 0.44603744
0.10044606 -0.13259259 0.44503722
0.1016062 -0.13259245 0.44503686
0.10253554 -0.13229433 0.44403663
0.10369308 -0.13229418 0.44403628
0.10485061 -0.13229404 0.44403592
0.10600814 -0.13229389 0.44403556
0.10716568 -0.13229376 0.4440352
0.10832322 -0.13229361 0.44403484
0.1092343 -0.1319955 0.44303459
0.11038923 -0.13199535 0.44303423
0.11154415 -0.13199522 0.44303387
0.11269909 -0.13199507 0.44303349
0.11385401 -0.13199492 0.44303313
0.11474948 -0.13169679 0.44203293
0.11590181 -0.13169666 0.44203258
0.11705412 -0.13169651 0.44203222
0.11820645 -0.13169636 0.44203186
0.11935876 -0.13169622 0.4420315
0.12051109 -0.13169608 0.44203112
0.12138827 -0.13139795 0.44103089
0.12253799 -0.13139781 0.44103053
0.1236877 -0.13139766 0.44103017
0.12455448 -0.13109955 0.44002998
0.12570158 -0.13109942 0.44002962
0.12684867 -0.13109927 0.44002926
0.12799579 -0.13109913 0.44002891
0.12884951 -0.13080101 0.43902865
0.12999403 -0.13080086 0.43902829
0.1311385 -0.13080072 0.43902794
0.13198182 -0.1305026 0.43802774
0.1331237 -0.13050245 0.43802738
0.1342656 -0.13050231 0.43802702
0.13540751 -0.13050216 0.43802667
0.13654938 -0.13050203 0.43802631
0.13737705 -0.1302039 0.43702608
0.13851634 -0.13020377 0.43702576
0.13965562 -0.13020362 0.4370254
0.1407949 -0.13020349 0.43702504
0.14193419 -0.13020334 0.43702468
0.1430735 -0.1302032 0.43702433
0.1438829 -0.12990509 0.43602413
0.14501959 -0.12990496 0.43602377
0.14615628 -0.12990482 0.43602341
0.14729294 -0.12990467 0.43602306
0.14842963 -0.12990454 0.43602273
0.14922339 -0.12960643 0.43502253
0.15035746 -0.12960629 0.43502218
0.15149152 -0.12960616 0.43502182
0.15227488 -0.12930802 0.43402162
0.15340632 -0.12930788 0.43402126
0.1545378 -0.12930773 0.43402091
0.15531072 -0.12900963 0.43302074
0.15643957 -0.1290095 0.43302038
0.15756842 -0.12900935 0.43302003
0.15833092 -0.12871125 0.43201983
0.15945718 -0.12871112 0.43201947
0.16058344 -0.12871097 0.43201911
0.1613355 -0.12841286 0.43101895
0.16245914 -0.12841272 0.43101859
0.16358277 -0.12841259 0.43101823
0.1643244 -0.12811448 0.43001804
0.16544545 -0.12811433 0.43001771
0.16656646 -0.12811419 0.43001735
0.16768751 -0.12811406 0.43001699
0.16880855 -0.12811393 0.43001664
0.16953453 -0.12781583 0.4290165
0.17065296 -0.12781568 0.42901614
0.17177138 -0.12781554 0.42901579
0.17288983 -0.12781541 0.42901543
0.17360279 -0.12751731 0.42801529
0.17471862 -0.12751718 0.42801493
0.17583442 -0.12751703 0.42801458
0.17653695 -0.12721892 0.42701441
0.17765015 -0.12721877 0.42701405
0.17834485 -0.12692069 0.42601389
0.17945546 -0.12692055 0.42601356
0.18014234 -0.12662244 0.42501336
0.18125033 -0.1266223 0.42501304
0.18235832 -0.12662217 0.42501268
0.18303481 -0.12632407 0.42401254
0.18414018 -0.12632394 0.42401218
0.1852456 -0.1263238 0.42401186
0.1859116 -0.12602569 0.42301166
0.1870144 -0.12602556 0.42301133
0.18811718 -0.12602542 0.42301098
0.18921998 -0.12602529 0.42301065
0.19032276 -0.12602516 0.42301029
0.19097313 -0.12572704 0.42201015
0.19207332 -0.12572691 0.42200983
0.1931735 -0.12572677 0.42200947
0.19427368 -0.12572664 0.42200914
0.19537386 -0.12572651 0.42200878
0.19647405 -0.12572637 0.42200845
-0.30746621 -0.16250075 0.55015934
-0.30547574 -0.1622051 0.54915875
-0.30404449 -0.16220492 0.54915833
-0.30206192 -0.16190927 0.54815775
-0.30063322 -0.16190909 0.54815733
-0.29920456 -0.16190891 0.54815686
-0.29723242 -0.16161327 0.54715633
-0.29580638 -0.16161309 0.54715586
-0.29384196 -0.16131744 0.54615527
-0.29241851 -0.16131726 0.5461548
-0.29046202 -0.16102161 0.54515427
-0.28904119 -0.16102143 0.54515386
-0.28762031 -0.16102125 0.54515338
-0.28567421 -0.16072561 0.54415286
-0.28425598 -0.16072544 0.54415238
-0.28231776 -0.16042981 0.54315186
-0.28090212 -0.16042963 0.54315144
-0.27948648 -0.16042945 0.54315096
-0.27755862 -0.16013378 0.54215044
-0.27614558 -0.16013362 0.54215002
-0.27422556 -0.15983796 0.54114938
-0.27281514 -0.15983778 0.54114896
-0.27140471 -0.15983762 0.54114854
-0.26999429 -0.15983744 0.54114807
-0.2680873 -0.1595418 0.54014754
-0.26618555 -0.15924616 0.53914702
-0.26428899 -0.15895052 0.5381465
-0.2628864 -0.15895034 0.53814608
-0.26099765 -0.15865469 0.5371455
-0.25911412 -0.15835905 0.53614497
-0.25771672 -0.15835887 0.5361445
-0.25584102 -0.15806325 0.53514397
-0.25444624 -0.15806307 0.53514355
-0.25305146 -0.15806291 0.53514314
-0.25118622 -0.15776727 0.53414261
-0.24979407 -0.15776709 0.53414214
-0.24840188 -0.15776692 0.53414172
-0.24654704 -0.15747128 0.5331412
-0.24515748 -0.15747112 0.53314078
-0.24376792 -0.15747094 0.53314036
-0.24237835 -0.15747078 0.53313994
-0.24098879 -0.1574706 0.53313947
-0.23959923 -0.15747043 0.53313905
-0.2377626 -0.1571748 0.53213847
-0.23637563 -0.15717462 0.53213805
-0.23454687 -0.15687898 0.53113753
-0.23316252 -0.15687881 0.53113711
-0.23134157 -0.15658318 0.53013659
-0.22995982 -0.156583 0.53013617
-0.2281467 -0.15628737 0.52913564
-0.22633877 -0.15599173 0.52813512
-0.22496223 -0.15599157 0.5281347
-0.22316214 -0.15569595 0.52713418
-0.22178823 -0.15569578 0.52713376
-0.21999598 -0.15540014 0.52613324
-0.21862465 -0.15539998 0.52613282
-0.21725333 -0.1553998 0.5261324
-0.21547148 -0.15510418 0.52513188
-0.21410277 -0.155104 0.52513146
-0.21273407 -0.15510383 0.52513105
-0.21136537 -0.15510367 0.52513063
-0.20999664 -0.15510349 0.52513021
-0.20862794 -0.15510333 0.5251298
-0.20686436 -0.1548077 0.52412927
-0.20549825 -0.15480754 0.52412885
-0.20374244 -0.15451191 0.52312833
-0.20237896 -0.15451173 0.52312791
-0.20101547 -0.15451157 0.5231275
-0.19927013 -0.15421595 0.52212697
-0.19790924 -0.15421578 0.52212656
-0.19654834 -0.1542156 0.52212614
-0.19481346 -0.15391999 0.52112567
-0.19345516 -0.15391983 0.52112526
-0.19209689 -0.15391965 0.52112484
-0.19073859 -0.15391949 0.52112436
-0.18938032 -0.15391932 0.52112395
-0.18766105 -0.15362372 0.52012348
-0.18630537 -0.15362355 0.52012306
-0.18459395 -0.15332791 0.5191226
-0.18324086 -0.15332773 0.51912218
-0.18188781 -0.15332757 0.51912177
-0.18018672 -0.15303195 0.51812124
-0.17883629 -0.15303178 0.51812083
-0.17748582 -0.15303162 0.51812041
-0.17579523 -0.15273601 0.51711994
-0.17444739 -0.15273584 0.51711953
-0.17309955 -0.15273568 0.51711911
-0.17141935 -0.15244007 0.51611865
-0.17007411 -0.15243991 0.51611823
-0.16840175 -0.15214428 0.51511776
-0.16673464 -0.15184864 0.51411724
-0.1653946 -0.15184848 0.51411682
-0.16405457 -0.15184832 0.51411641
-0.16239786 -0.15155271 0.51311594
-0.16074637 -0.15125711 0.51211548
-0.15941155 -0.15125695 0.51211506
-0.15776789 -0.15096132 0.5111146
-0.15643567 -0.15096116 0.51111418
-0.15510347 -0.150961 0.51111376
-0.15347025 -0.15066539 0.51011336
-0.15184218 -0.15036978 0.50911283
-0.1505152 -0.15036961 0.50911242
-0.14918819 -0.15036945 0.509112
-0.14757061 -0.15007384 0.5081116
-0.14624619 -0.15007368 0.50811118
-0.14463645 -0.14977805 0.50711071
-0.14303187 -0.14948246 0.50611025
-0.14171267 -0.14948229 0.50610989
-0.14011595 -0.14918669 0.50510937
-0.13879937 -0.14918652 0.50510895
-0.13721046 -0.14889093 0.50410855
-0.13589647 -0.14889076 0.50410813
-0.13458252 -0.1488906 0.50410771
-0.13300404 -0.14859499 0.50310725
-0.13169268 -0.14859484 0.50310689
-0.13038135 -0.14859468 0.50310647
-0.12906998 -0.14859451 0.50310606
-0.12775862 -0.14859435 0.50310564
-0.12619579 -0.14829874 0.50210524
-0.12488703 -0.14829858 0.50210482
-0.12357829 -0.14829843 0.5021044
-0.12226954 -0.14829826 0.50210398
-0.1209608 -0.1482981 0.50210357
-0.11965206 -0.14829794 0.50210321
-0.11834331 -0.14829777 0.50210279
-0.11680131 -0.14800219 0.50110233
-0.11549518 -0.14800203 0.50110197
-0.11418904 -0.14800186 0.50110155
-0.1128829 -0.1480017 0.50110114
-0.11157676 -0.14800154 0.50110072
-0.1100504 -0.14770594 0.50010026
-0.10874686 -0.14770576 0.5000999
-0.10744333 -0.14770561 0.50009948
-0.10592742 -0.14741002 0.49909905
-0.10462649 -0.14740986 0.49909866
-0.10332556 -0.14740969 0.49909824
-0.10202464 -0.14740954 0.49909785
-0.10072371 -0.14740938 0.49909744
-0.099223435 -0.14711379 0.49809703
-0.097925112 -0.14711364 0.49809662
-0.096626796 -0.14711347 0.49809623
-0.095136933 -0.14681788 0.49709579
-0.093841225 -0.14681771 0.49709538
-0.092545517 -0.14681755 0.49709499
-0.091249801 -0.1468174 0.49709457
-0.089954093 -0.14681724 0.49709418
-0.088479877 -0.14652164 0.49609378
-0.087010883 -0.14622606 0.49509338
-0.08572039 -0.1462259 0.49509299
-0.084259212 -0.14593031 0.49409255
-0.082803257 -0.14563473 0.49309218
-0.081352502 -0.14533912 0.49209175
-0.07990697 -0.14504354 0.49109137
-0.078626901 -0.14504337 0.49109095
-0.077346832 -0.14504322 0.49109057
-0.075911716 -0.14474763 0.49009013
-0.074634254 -0.14474747 0.49008974
-0.073206969 -0.14445189 0.48908937
-0.071932115 -0.14445174 0.48908898
-0.070657261 -0.14445157 0.48908857
-0.069382407 -0.14445142 0.48908818
-0.06796816 -0.14415583 0.4880878
-0.066695914 -0.14415568 0.48808739
-0.065423667 -0.14415552 0.488087
-0.064019851 -0.14385994 0.48708659
-0.062750198 -0.14385977 0.48708621
-0.061480567 -0.14385962 0.48708582
-0.060210928 -0.14385946 0.4870854
-0.05894129 -0.14385931 0.48708501
-0.057553109 -0.14356373 0.48608464
-0.056286074 -0.14356358 0.48608425
-0.055019043 -0.14356342 0.48608387
-0.053752013 -0.14356327 0.48608345
-0.052484978 -0.14356311 0.48608306
-0.051217947 -0.14356296 0.48608267
-0.049950909 -0.14356279 0.48608229
-0.048583589 -0.14326721 0.48508188
-0.047319163 -0.14326707 0.48508149
-0.045959666 -0.14297147 0.48408112
-0.044697847 -0.14297132 0.48408073
-0.043436028 -0.14297117 0.48408034
-0.042174209 -0.14297101 0.48407996
-0.040827733 -0.14267544 0.48307955
-0.039568521 -0.1426753 0.48307917
-0.03830931 -0.14267513 0.48307878
-0.036973279 -0.14237955 0.48207843
-0.035716671 -0.1423794 0.48207802
-0.034460068 -0.14237924 0.48207763
-0.03313446 -0.14208369 0.48107728
-0.031880461 -0.14208353 0.4810769
-0.030626466 -0.14208338 0.48107651
-0.029372469 -0.14208321 0.48107612
-0.028118473 -0.14208306 0.48107573
-0.0268085 -0.14178748 0.48007536
-0.02555711 -0.14178734 0.48007494
-0.024305722 -0.14178719 0.48007455
-0.023006182 -0.14149161 0.47907421
-0.021711856 -0.14119604 0.47807387
-0.020465681 -0.14119589 0.47807348
-0.019179177 -0.14090031 0.47707313
-0.017935608 -0.14090016 0.47707275
-0.016692039 -0.14090002 0.47707236
-0.015415963 -0.14060444 0.47607198
-0.014175001 -0.14060429 0.4760716
-0.012906745 -0.14030872 0.47507125
-0.01166839 -0.14030857 0.47507089
-0.010430035 -0.14030842 0.47507051
-0.0091916798 -0.14030828 0.47507012
-0.0079364609 -0.14001271 0.47406977
-0.0067007132 -0.14001256 0.47406939
-0.005464965 -0.14001241 0.474069
-0.0042201742 -0.13971683 0.47306865
-0.0029870332 -0.13971668 0.47306827
-0.0017538918 -0.13971652 0.47306788
-0.00051952945 -0.13942097 0.47206756
0.00071100454 -0.13942082 0.47206718
0.0019415386 -0.13942067 0.47206679
0.0031654728 -0.13912511 0.47106645
0.0043933997 -0.13912496 0.47106606
0.0056213266 -0.1391248 0.47106567
0.0068492536 -0.13912465 0.47106528
0.0080771809 -0.1391245 0.47106493
0.0092854723 -0.13882895 0.47006461
0.010510792 -0.1388288 0.47006422
0.011736113 -0.13882865 0.47006384
0.012961432 -0.1388285 0.47006345
0.014186752 -0.13882835 0.47006306
0.015412072 -0.1388282 0.4700627
0.016602112 -0.13853262 0.46906236
0.017824825 -0.13853247 0.46906197
0.019047538 -0.13853233 0.46906158
0.020227153 -0.13823678 0.4680613
0.02144726 -0.13823663 0.46806091
0.022619052 -0.13794106 0.46706057
0.023836549 -0.13794091 0.46706018
0.025000524 -0.13764536 0.46605989
0.026215415 -0.13764521 0.46605951
0.027371565 -0.13734967 0.46505922
0.028583851 -0.13734952 0.46505883
0.029796133 -0.13734937 0.46505845
0.030941859 -0.1370538 0.46405813
0.032151531 -0.13705365 0.46405777
0.033361211 -0.1370535 0.46405739
0.034570888 -0.13705336 0.464057
0.035780564 -0.13705321 0.46405664
0.036910646 -0.13675767 0.46305633
0.038117718 -0.13675752 0.46305597
0.03932479 -0.13675737 0.46305558
0.040531859 -0.13675722 0.46305522
0.041738931 -0.13675708 0.46305484
0.042853363 -0.13646153 0.46205452
0.044057827 -0.13646138 0.46205413
0.045262288 -0.13646123 0.46205378
0.046366304 -0.13616568 0.46105349
0.047568161 -0.13616553 0.4610531
0.048664343 -0.13586999 0.46005279
0.049863592 -0.13586985 0.46005243
0.051062841 -0.1358697 0.46005204
0.05226209 -0.13586955 0.46005169
0.053345248 -0.135574 0.4590514
0.05454189 -0.13557385 0.45905104
0.055738531 -0.1355737 0.45905066
0.056811258 -0.13527818 0.4580504
0.058005296 -0.13527803 0.45805001
0.059199329 -0.13527788 0.45804965
0.060393363 -0.13527773 0.45804927
0.061453048 -0.13498218 0.45704898
0.062644474 -0.13498203 0.45704859
0.063835904 -0.1349819 0.45704824
0.065027334 -0.13498175 0.45704785
0.066073991 -0.1346862 0.45604759
0.067262813 -0.13468605 0.45604724
0.068451628 -0.1346859 0.45604685
0.069487855 -0.13439038 0.45504656
0.070674069 -0.13439023 0.45504621
0.071860276 -0.13439009 0.45504582
0.072886087 -0.13409455 0.45404556
0.074069694 -0.1340944 0.45404521
0.075087659 -0.13379887 0.45304492
0.076268658 -0.13379872 0.45304453
0.077278815 -0.1335032 0.45204428
0.078457206 -0.13350305 0.45204392
0.079635605 -0.1335029 0.45204356
0.080635332 -0.13320738 0.45104331
0.081811115 -0.13320723 0.45104295
0.082803026 -0.13291168 0.45004267
0.083976202 -0.13291153 0.45004231
0.085149385 -0.1329114 0.45004192
0.086130857 -0.13261586 0.44904169
0.087301433 -0.13261573 0.44904134
0.088472001 -0.13261558 0.44904095
0.089642569 -0.13261543 0.44904059
0.090813145 -0.1326153 0.44904023
0.091778979 -0.13231976 0.44803995
0.092946947 -0.13231961 0.44803959
0.094114915 -0.13231947 0.44803923
0.095282875 -0.13231933 0.44803888
0.096235678 -0.13202381 0.44703865
0.097401038 -0.13202366 0.44703826
0.098566391 -0.13202353 0.44703791
0.099508755 -0.13172798 0.44603765
0.10067151 -0.13172783 0.44603729
0.10160606 -0.13143232 0.44503707
0.1027662 -0.13143218 0.44503671
0.10392635 -0.13143203 0.44503632
0.10508648 -0.13143189 0.44503596
0.10624663 -0.13143174 0.44503561
0.10716554 -0.13113624 0.44403538
0.10832308 -0.13113609 0.44403502
0.10948062 -0.13113596 0.44403467
0.11063815 -0.13113581 0.44403431
0.11179568 -0.13113566 0.44403395
0.11269895 -0.13084014 0.4430337
0.11385387 -0.13083999 0.44303334
0.1150088 -0.13083985 0.44303298
0.11616374 -0.13083971 0.44303262
0.11705398 -0.13054419 0.4420324
0.11820631 -0.13054404 0.44203204
0.11935862 -0.1305439 0.44203168
0.12051095 -0.13054375 0.44203132
0.12166326 -0.13054362 0.44203097
0.12253785 -0.1302481 0.44103071
0.12368756 -0.13024795 0.44103035
0.12483728 -0.13024782 0.44103
0.12598696 -0.13024767 0.44102964
0.12684855 -0.12995216 0.44002944
0.12799564 -0.12995203 0.44002908
0.12884936 -0.12965651 0.43902886
0.12999389 -0.12965636 0.4390285
0.13113835 -0.12965623 0.43902814
0.13198167 -0.12936071 0.43802795
0.13312358 -0.12936056 0.43802759
0.13426548 -0.12936042 0.43802723
0.13540736 -0.12936027 0.43802688
0.13654926 -0.12936014 0.43802652
0.13769114 -0.12936001 0.43802616
0.13851622 -0.1290645 0.43702593
0.13965547 -0.12906435 0.43702558
0.14079478 -0.12906422 0.43702522
0.14193407 -0.12906407 0.43702486
0.14307335 -0.12906393 0.4370245
0.14421263 -0.1290638 0.43702415
0.14535192 -0.12906365 0.43702379
0.14649123 -0.12906352 0.43702346
0.14729279 -0.128768 0.43602327
0.14842948 -0.12876786 0.43602291
0.14956614 -0.12876771 0.43602255
0.15035734 -0.12847222 0.43502235
0.1514914 -0.12847209 0.43502203
0.15262547 -0.12847194 0.43502167
0.15340617 -0.12817644 0.43402144
0.15453765 -0.12817629 0.43402109
0.15566912 -0.12817615 0.43402076
0.15643942 -0.12788065 0.43302056
0.15756831 -0.1278805 0.4330202
0.15833077 -0.12758501 0.43202001
0.15945703 -0.12758487 0.43201965
0.16058329 -0.12758473 0.43201929
0.16133535 -0.12728922 0.43101913
0.16245899 -0.12728909 0.43101877
0.16358265 -0.12728895 0.43101844
0.16432425 -0.12699345 0.43001825
0.1654453 -0.1269933 0.43001789
0.16656634 -0.12699316 0.43001753
0.16768739 -0.12699303 0.43001717
0.1688084 -0.1269929 0.43001685
0.16953439 -0.12669741 0.42901668
0.17065284 -0.12669726 0.42901632
0.17177126 -0.12669712 0.42901596
0.17288968 -0.12669699 0.42901564
0.1740081 -0.12669685 0.42901528
0.17471847 -0.12640136 0.42801511
0.1758343 -0.12640122 0.42801479
0.1765368 -0.12610571 0.42701459
0.17765 -0.12610556 0.42701423
0.17876324 -0.12610543 0.4270139
0.17945534 -0.12580995 0.42601374
0.18056595 -0.1258098 0.42601338
0.18125018 -0.12551431 0.42501321
0.18235821 -0.12551418 0.42501286
0.1834662 -0.12551403 0.42501253
0.18457422 -0.1255139 0.42501217
0.18524545 -0.12521842 0.42401204
0.18635085 -0.12521829 0.42401168
0.18745625 -0.12521814 0.42401135
0.18811703 -0.12492265 0.42301115
0.18921983 -0.12492251 0.42301083
0.19032261 -0.12492238 0.42301047
0.19142541 -0.12492224 0.42301014
0.19252819 -0.1249221 0.42300978
0.19363096 -0.12492197 0.42300946
0.19473377 -0.12492184 0.4230091
0.19537371 -0.12462635 0.42200896
0.1964739 -0.12462621 0.42200863
-0.30746639 -0.16106686 0.55015957
-0.30547592 -0.16077381 0.54915899
-0.30404466 -0.16077363 0.54915857
-0.30206206 -0.16048059 0.54815799
-0.30063337 -0.16048041 0.54815757
-0.29920471 -0.16048023 0.5481571
-0.2972326 -0.1601872 0.54715657
-0.29580656 -0.16018702 0.5471561
-0.29384214 -0.15989397 0.54615551
-0.29241869 -0.1598938 0.54615504
-0.29099524 -0.15989362 0.54615462
-0.28904137 -0.15960057 0.54515409
-0.28762048 -0.15960039 0.54515362
-0.28567439 -0.15930736 0.54415309
-0.28425616 -0.1593072 0.54415262
-0.28283793 -0.15930702 0.5441522
-0.28090227 -0.15901397 0.54315168
-0.27948663 -0.15901379 0.5431512
-0.27807099 -0.15901363 0.54315078
-0.27614576 -0.15872058 0.54215026
-0.27473274 -0.1587204 0.54214978
-0.27331972 -0.15872023 0.54214936
-0.27140489 -0.15842719 0.54114878
-0.26999447 -0.15842701 0.5411483
-0.26808748 -0.15813398 0.54014778
-0.26667967 -0.15813382 0.54014736
-0.26478052 -0.15784079 0.53914684
-0.26288655 -0.15754773 0.53814632
-0.26148394 -0.15754756 0.53814584
-0.25959784 -0.15725452 0.53714526
-0.25771689 -0.15696149 0.53614473
-0.25631952 -0.15696132 0.53614432
-0.25492215 -0.15696114 0.5361439
-0.25305164 -0.15666813 0.53514338
-0.25165686 -0.15666795 0.5351429
-0.25026208 -0.15666778 0.53514248
-0.24886733 -0.15666761 0.53514206
-0.24700987 -0.15637456 0.53414154
-0.24561772 -0.15637439 0.53414112
-0.24422553 -0.15637422 0.53414065
-0.24283338 -0.15637405 0.53414023
-0.24098894 -0.15608102 0.53313971
-0.23959938 -0.15608086 0.53313929
-0.23820981 -0.15608068 0.53313887
-0.23637581 -0.15578765 0.53213829
-0.23498887 -0.15578748 0.53213787
-0.2331627 -0.15549447 0.53113735
-0.23134175 -0.15520144 0.53013682
-0.22995999 -0.15520126 0.53013641
-0.22814688 -0.15490822 0.52913588
-0.22676775 -0.15490806 0.52913547
-0.22496241 -0.15461503 0.52813488
-0.22358587 -0.15461487 0.52813447
-0.22178841 -0.15432185 0.527134
-0.22041449 -0.15432167 0.52713358
-0.2186248 -0.15402865 0.52613306
-0.21725351 -0.15402848 0.52613264
-0.21588218 -0.15402831 0.52613223
-0.21451086 -0.15402815 0.52613175
-0.21313953 -0.15402797 0.52613133
-0.21136552 -0.15373497 0.52513087
-0.20999682 -0.15373479 0.52513045
-0.20862812 -0.15373462 0.52513003
-0.20725939 -0.15373446 0.52512956
-0.20549843 -0.15344143 0.52412909
-0.20413232 -0.15344127 0.52412868
-0.20237914 -0.15314823 0.52312815
-0.20101562 -0.15314807 0.52312768
-0.19965214 -0.15314791 0.52312726
-0.19790941 -0.15285489 0.52212679
-0.19654852 -0.15285471 0.52212638
-0.19518766 -0.15285455 0.52212596
-0.19345534 -0.15256155 0.52112544
-0.19209704 -0.15256137 0.52112502
-0.19073877 -0.1525612 0.5211246
-0.1893805 -0.15256104 0.52112418
-0.1876612 -0.15226802 0.52012372
-0.18630555 -0.15226786 0.5201233
-0.18459409 -0.15197484 0.51912284
-0.18324104 -0.15197466 0.51912242
-0.18153736 -0.15168165 0.5181219
-0.1801869 -0.15168148 0.51812148
-0.17883644 -0.15168132 0.51812106
-0.17748597 -0.15168115 0.51812059
-0.17579541 -0.15138815 0.51712012
-0.17444754 -0.15138799 0.51711971
-0.17276478 -0.15109499 0.51611924
-0.17141953 -0.15109482 0.51611882
-0.16974458 -0.15080179 0.51511836
-0.16840193 -0.15080163 0.51511794
-0.1670593 -0.15080146 0.51511753
-0.16539475 -0.15050845 0.51411706
-0.16405472 -0.15050828 0.51411664
-0.16239801 -0.15021528 0.51311618
-0.1610606 -0.15021512 0.51311576
-0.15941173 -0.14992213 0.5121153
-0.15807691 -0.14992195 0.51211488
-0.15643585 -0.14962894 0.51111442
-0.15510362 -0.14962877 0.511114
-0.1534704 -0.14933577 0.51011354
-0.1521408 -0.14933561 0.51011312
-0.15051535 -0.14904261 0.50911266
-0.14918837 -0.14904244 0.50911224
-0.14757076 -0.14874946 0.50811177
-0.14624637 -0.14874929 0.50811136
-0.1446366 -0.14845628 0.50711095
-0.14303201 -0.14816327 0.50611049
-0.14171284 -0.14816311 0.50611007
-0.14039367 -0.14816295 0.50610965
-0.13879952 -0.14786994 0.50510919
-0.13721061 -0.14757696 0.50410873
-0.13589665 -0.14757679 0.50410831
-0.1345827 -0.14757663 0.50410795
-0.13326871 -0.14757648 0.50410753
-0.13195476 -0.14757632 0.50410712
-0.13038149 -0.14728332 0.50310665
-0.12907013 -0.14728315 0.5031063
-0.12775877 -0.14728299 0.50310588
-0.12644744 -0.14728282 0.50310546
-0.12513608 -0.14728266 0.50310504
-0.12382473 -0.14728251 0.50310463
-0.1222697 -0.14698952 0.50210422
-0.12096097 -0.14698936 0.50210381
-0.11965222 -0.1469892 0.50210339
-0.11834347 -0.14698903 0.50210297
-0.11703473 -0.14698888 0.50210261
-0.11572597 -0.14698872 0.5021022
-0.1141892 -0.14669572 0.50110173
-0.11288306 -0.14669555 0.50110137
-0.11157692 -0.14669539 0.50110096
-0.11027078 -0.14669524 0.50110054
-0.10874702 -0.14640224 0.50010008
-0.10744349 -0.14640206 0.50009966
-0.10613996 -0.14640191 0.5000993
-0.10462665 -0.14610893 0.49909887
-0.10332572 -0.14610876 0.49909848
-0.10202479 -0.14610861 0.49909806
-0.10072387 -0.14610845 0.49909765
-0.099422947 -0.14610828 0.49909726
-0.097925268 -0.14581531 0.49809685
-0.096626952 -0.14581515 0.49809644
-0.095328636 -0.14581499 0.49809605
-0.094030321 -0.14581482 0.49809563
-0.092545681 -0.14552183 0.4970952
-0.091249965 -0.14552169 0.49709481
-0.089954257 -0.14552152 0.49709439
-0.08848004 -0.14522853 0.49609399
-0.08718694 -0.14522837 0.4960936
-0.085720554 -0.1449354 0.4950932
-0.084259368 -0.14464241 0.49409276
-0.082803413 -0.14434944 0.49309239
-0.081518129 -0.14434928 0.49309197
-0.080069982 -0.14405628 0.49209157
-0.078627057 -0.1437633 0.49109116
-0.077346988 -0.14376315 0.49109077
-0.076066919 -0.14376299 0.49109039
-0.07463441 -0.14347 0.49008995
-0.073356956 -0.14346986 0.49008957
-0.071932279 -0.14317688 0.48908919
-0.070657425 -0.14317672 0.48908877
-0.069382571 -0.14317657 0.48908839
-0.068107717 -0.14317641 0.489088
-0.06669607 -0.14288343 0.48808762
-0.065423824 -0.14288327 0.48808721
-0.064151578 -0.14288312 0.48808682
-0.062879324 -0.14288296 0.48808643
-0.061480723 -0.14258999 0.48708603
-0.060211085 -0.14258982 0.48708561
-0.058941446 -0.14258967 0.48708522
-0.057671804 -0.14258951 0.48708484
-0.056286231 -0.14229655 0.48608446
-0.0550192 -0.14229639 0.48608407
-0.053752169 -0.14229624 0.48608369
-0.052485134 -0.14229608 0.48608327
-0.051218104 -0.14229593 0.48608288
-0.049951065 -0.14229576 0.48608249
-0.048583746 -0.14200279 0.48508209
-0.047319319 -0.14200264 0.4850817
-0.046054892 -0.14200248 0.48508132
-0.044698 -0.14170951 0.48408094
-0.043436181 -0.14170936 0.48408055
-0.042174362 -0.14170919 0.48408017
-0.040827889 -0.14141622 0.48307976
-0.039568678 -0.14141607 0.48307937
-0.038309466 -0.14141591 0.48307899
-0.037050258 -0.14141576 0.4830786
-0.035716828 -0.1411228 0.48207822
-0.034460224 -0.14112264 0.48207784
-0.033203617 -0.14112249 0.48207745
-0.031880613 -0.14082952 0.4810771
-0.030626621 -0.14082937 0.48107672
-0.029372623 -0.14082921 0.48107633
-0.028118627 -0.14082906 0.48107594
-0.026864627 -0.14082891 0.48107556
-0.025557265 -0.14053594 0.48007518
-0.024305876 -0.14053579 0.48007476
-0.023006335 -0.14024283 0.47907442
-0.021757551 -0.14024268 0.47907403
-0.020465836 -0.13994971 0.47807369
-0.019219657 -0.13994956 0.4780733
-0.01793576 -0.13965659 0.47707295
-0.016692191 -0.13965644 0.47707257
-0.015448622 -0.13965628 0.47707218
-0.014175152 -0.13936332 0.4760718
-0.01293419 -0.13936317 0.47607142
-0.011668542 -0.13907021 0.47507107
-0.010430188 -0.13907006 0.47507071
-0.0091918325 -0.13906991 0.47507033
-0.0079366136 -0.13877694 0.47406998
-0.006700865 -0.13877679 0.4740696
-0.0054651168 -0.13877665 0.47406921
-0.0042293686 -0.1387765 0.47406882
-0.0029871848 -0.13848354 0.47306848
-0.0017540434 -0.13848338 0.47306809
-0.00052090251 -0.13848323 0.4730677
0.00071085326 -0.13819028 0.47206739
0.0019413873 -0.13819014 0.472067
0.0031719212 -0.13818999 0.47206661
0.0043932488 -0.13789703 0.47106627
0.0056211757 -0.13789687 0.47106588
0.0068491027 -0.13789672 0.47106549
0.0080770291 -0.13789657 0.47106513
0.0093049556 -0.13789642 0.47106475
0.010510641 -0.13760348 0.47006443
0.011735962 -0.13760333 0.47006404
0.012961281 -0.13760318 0.47006366
0.014186601 -0.13760303 0.47006327
0.015411921 -0.13760288 0.47006291
0.01663724 -0.13760272 0.47006252
0.017824676 -0.13730976 0.46906218
0.019047389 -0.13730961 0.46906179
0.020227002 -0.13701667 0.46806148
0.021447109 -0.13701652 0.46806112
0.022618903 -0.13672356 0.46706077
0.0238364 -0.13672341 0.46706039
0.025053902 -0.13672327 0.46706003
0.026215266 -0.13643032 0.46605971
0.027430156 -0.13643017 0.46605933
0.028583702 -0.13613723 0.46505904
0.029795984 -0.13613708 0.46505865
0.031008272 -0.13613693 0.4650583
0.032151386 -0.13584398 0.46405795
0.033361066 -0.13584383 0.46405759
0.034570742 -0.13584368 0.46405721
0.035780419 -0.13584353 0.46405682
0.036990095 -0.13584338 0.46405646
0.038117569 -0.13555045 0.46305618
0.039324641 -0.13555031 0.46305579
0.04053171 -0.13555016 0.4630554
0.041738782 -0.13555001 0.46305504
0.042853214 -0.13525707 0.46205473
0.044057678 -0.13525692 0.46205434
0.045262139 -0.13525677 0.46205395
0.046466608 -0.13525662 0.4620536
0.047568016 -0.13496368 0.46105331
0.048769869 -0.13496353 0.46105292
0.049863447 -0.13467059 0.46005264
0.051062696 -0.13467044 0.46005225
0.052261945 -0.13467029 0.46005189
0.053345099 -0.13437736 0.45905161
0.054541741 -0.13437721 0.45905122
0.055738382 -0.13437706 0.45905086
0.056935024 -0.13437693 0.45905048
0.05800515 -0.134084 0.45805022
0.059199184 -0.13408385 0.45804983
0.060393218 -0.1340837 0.45804948
0.061587252 -0.13408355 0.45804909
0.062644333 -0.1337906 0.4570488
0.063835755 -0.13379046 0.45704842
0.065027185 -0.13379031 0.45704806
0.066218615 -0.13379017 0.4570477
0.067262664 -0.13349724 0.45604742
0.068451479 -0.13349709 0.45604706
0.069640301 -0.13349696 0.45604667
0.07067392 -0.13320401 0.45504639
0.071860127 -0.13320386 0.45504603
0.072885938 -0.13291094 0.45404577
0.074069545 -0.13291079 0.45404539
0.075087517 -0.13261786 0.4530451
0.076268516 -0.13261771 0.45304474
0.077278674 -0.1323248 0.45204449
0.078457065 -0.13232465 0.45204413
0.079635464 -0.1323245 0.45204374
0.08063519 -0.13203159 0.45104352
0.081810974 -0.13203144 0.45104313
0.082802877 -0.1317385 0.45004287
0.083976053 -0.13173835 0.45004249
0.085149236 -0.13173822 0.45004213
0.086322412 -0.13173807 0.45004177
0.087301284 -0.13144515 0.44904152
0.088471852 -0.13144501 0.44904116
0.08964242 -0.13144486 0.4490408
0.090812996 -0.13144472 0.44904041
0.091983564 -0.13144457 0.44904006
0.092946798 -0.13115165 0.4480398
0.094114766 -0.1311515 0.44803944
0.095282726 -0.13115136 0.44803905
0.096235536 -0.13085845 0.44703883
0.097400896 -0.1308583 0.44703847
0.098566249 -0.13085817 0.44703811
0.099731609 -0.13085802 0.44703776
0.10067137 -0.13056508 0.44603747
0.10183412 -0.13056494 0.44603711
0.10299686 -0.13056479 0.44603676
0.10415962 -0.13056464 0.4460364
0.10508634 -0.13027175 0.44503617
0.10624649 -0.1302716 0.44503582
0.10740663 -0.13027146 0.44503546
0.10856678 -0.13027132 0.44503507
0.10948048 -0.12997842 0.44403484
0.11063801 -0.12997827 0.44403449
0.11179554 -0.12997812 0.44403413
0.11295308 -0.12997799 0.44403377
0.11411061 -0.12997784 0.44403341
0.11500866 -0.12968493 0.44303316
0.1161636 -0.12968478 0.4430328
0.11731852 -0.12968464 0.44303244
0.11847346 -0.12968449 0.44303209
0.11962838 -0.12968436 0.44303173
0.12051081 -0.12939143 0.4420315
0.12166312 -0.1293913 0.44203115
0.12281545 -0.12939115 0.44203079
0.12396777 -0.12939101 0.44203043
0.12483714 -0.1290981 0.4410302
0.12598684 -0.12909795 0.44102985
0.12713656 -0.12909782 0.44102949
0.12799549 -0.12880492 0.44002926
0.12914261 -0.12880477 0.44002891
0.12999374 -0.12851186 0.43902868
0.13113824 -0.12851173 0.43902832
0.13228273 -0.12851158 0.43902797
0.13312343 -0.12821867 0.43802777
0.13426533 -0.12821853 0.43802741
0.13540724 -0.12821838 0.43802705
0.13654912 -0.12821825 0.4380267
0.13769102 -0.12821811 0.43802634
0.1388329 -0.12821797 0.43802598
0.1399748 -0.12821783 0.43802562
0.14079463 -0.12792492 0.43702543
0.14193392 -0.12792477 0.43702507
0.1430732 -0.12792464 0.43702471
0.14421248 -0.1279245 0.43702435
0.14535177 -0.12792435 0.437024
0.14649108 -0.12792422 0.43702364
0.14763033 -0.12792407 0.43702328
0.14842933 -0.12763119 0.43602309
0.14956602 -0.12763104 0.43602273
0.15070271 -0.1276309 0.4360224
0.15149125 -0.12733802 0.43502221
0.15262532 -0.12733787 0.43502185
0.15340605 -0.12704496 0.43402165
0.15453753 -0.12704481 0.43402129
0.15566897 -0.12704468 0.43402094
0.1564393 -0.1267518 0.43302074
0.15756816 -0.12675165 0.43302041
0.15833065 -0.12645875 0.43202019
0.15945691 -0.12645862 0.43201986
0.16058314 -0.12645847 0.4320195
0.16133523 -0.12616557 0.43101934
0.16245887 -0.12616543 0.43101898
0.1635825 -0.1261653 0.43101862
0.1643241 -0.1258724 0.43001842
0.16544515 -0.12587225 0.43001807
0.16656619 -0.12587212 0.43001774
0.16768724 -0.12587199 0.43001738
0.16880825 -0.12587185 0.43001702
0.16953427 -0.12557897 0.42901686
0.17065269 -0.12557882 0.4290165
0.17177111 -0.12557869 0.42901617
0.17288956 -0.12557855 0.42901582
0.17400798 -0.12557842 0.42901546
0.17471832 -0.12528554 0.42801532
0.17583415 -0.12528539 0.42801496
0.17694998 -0.12528525 0.42801461
0.17764989 -0.12499236 0.42701444
0.17876309 -0.12499222 0.42701408
0.1798763 -0.12499209 0.42701373
0.1805658 -0.1246992 0.42601359
0.18167642 -0.12469906 0.42601323
0.18235806 -0.12440617 0.42501307
0.18346608 -0.12440604 0.42501271
0.18457407 -0.12440591 0.42501235
0.18568209 -0.12440576 0.42501202
0.18679008 -0.12440563 0.42501166
0.1874561 -0.12411274 0.42401153
0.1885615 -0.12411261 0.42401117
0.1896669 -0.12411246 0.42401084
0.19077229 -0.12411233 0.42401049
0.19142526 -0.12381945 0.42301032
0.19252804 -0.12381931 0.42300999
0.19363084 -0.12381918 0.42300963
0.19473362 -0.12381905 0.42300928
0.19583642 -0.12381891 0.42300895
0.1969392 -0.12381877 0.42300859
-0.30746657 -0.15963298 0.55015981
-0.30603266 -0.15963282 0.55015934
-0.30404484 -0.15934236 0.54915881
-0.30206224 -0.15905194 0.54815823
-0.30063355 -0.15905176 0.54815781
-0.29920489 -0.15905158 0.54815733
-0.29723275 -0.15876114 0.54715681
-0.29580671 -0.15876096 0.54715633
-0.29384232 -0.15847053 0.54615575
-0.29241887 -0.15847035 0.54615527
-0.29099542 -0.15847017 0.54615486
-0.28904155 -0.15817973 0.54515433
-0.28762066 -0.15817955 0.54515386
-0.28619984 -0.15817939 0.54515344
-0.28425634 -0.15788896 0.54415286
-0.28283811 -0.15788879 0.54415244
-0.28090245 -0.15759835 0.54315192
-0.27948681 -0.15759817 0.54315144
-0.27807117 -0.157598 0.54315102
-0.27614591 -0.15730757 0.5421505
-0.27473289 -0.15730739 0.54215002
-0.27331987 -0.15730721 0.5421496
-0.27140507 -0.15701678 0.54114902
-0.26999465 -0.15701661 0.54114854
-0.26858422 -0.15701643 0.54114813
-0.26667985 -0.156726 0.5401476
-0.26527202 -0.15672582 0.54014713
-0.26337549 -0.1564354 0.5391466
-0.26148412 -0.15614498 0.53814608
-0.26008153 -0.1561448 0.53814566
-0.25819799 -0.15585436 0.53714508
-0.2563197 -0.15556394 0.53614455
-0.25492233 -0.15556376 0.53614408
-0.25352493 -0.15556359 0.53614366
-0.25212756 -0.15556341 0.53614324
-0.25073016 -0.15556325 0.53614283
-0.24886751 -0.15527283 0.5351423
-0.2474727 -0.15527266 0.53514183
-0.24607795 -0.15527248 0.53514141
-0.24468315 -0.15527232 0.53514099
-0.24283352 -0.1549819 0.53414047
-0.24144137 -0.15498172 0.53414005
-0.24004918 -0.15498155 0.53413957
-0.23820999 -0.15469113 0.53313911
-0.23682043 -0.15469097 0.53313863
-0.23498905 -0.15440053 0.53213811
-0.23360208 -0.15440035 0.53213763
-0.2317785 -0.15410994 0.53113717
-0.22996017 -0.15381952 0.53013664
-0.22857842 -0.15381935 0.53013623
-0.2267679 -0.15352894 0.5291357
-0.22538877 -0.15352876 0.52913529
-0.22358602 -0.15323834 0.5281347
-0.22220951 -0.15323816 0.52813429
-0.22041464 -0.15294775 0.52713376
-0.21904072 -0.15294759 0.52713335
-0.21725366 -0.15265717 0.52613288
-0.21588233 -0.152657 0.52613246
-0.21451104 -0.15265684 0.52613199
-0.21313971 -0.15265666 0.52613157
-0.21176839 -0.1526565 0.52613115
-0.209997 -0.15236609 0.52513069
-0.2086283 -0.15236592 0.52513021
-0.20725957 -0.15236576 0.5251298
-0.20589086 -0.15236558 0.52512938
-0.2041325 -0.15207517 0.52412891
-0.20276639 -0.15207501 0.5241285
-0.2010158 -0.15178458 0.52312791
-0.19965228 -0.15178442 0.5231275
-0.1982888 -0.15178426 0.52312708
-0.1965487 -0.15149383 0.52212662
-0.19518781 -0.15149367 0.5221262
-0.19382691 -0.1514935 0.52212572
-0.19209722 -0.1512031 0.52112526
-0.19073892 -0.15120293 0.52112484
-0.18938065 -0.15120277 0.52112442
-0.18766138 -0.15091236 0.52012396
-0.18630573 -0.1509122 0.52012354
-0.18459427 -0.15062179 0.51912308
-0.18324119 -0.15062161 0.51912266
-0.18153754 -0.1503312 0.51812208
-0.18018705 -0.15033104 0.51812166
-0.17883661 -0.15033087 0.51812124
-0.17748615 -0.15033071 0.51812083
-0.17613569 -0.15033054 0.51812041
-0.17444772 -0.15004013 0.51711994
-0.17309988 -0.15003997 0.51711953
-0.17141968 -0.14974958 0.51611906
-0.17007443 -0.14974941 0.51611865
-0.16840211 -0.149459 0.51511818
-0.16705948 -0.14945884 0.51511776
-0.16539493 -0.14916843 0.51411724
-0.1640549 -0.14916827 0.51411682
-0.16239819 -0.14887786 0.51311636
-0.16106075 -0.1488777 0.51311594
-0.15941188 -0.14858732 0.51211554
-0.15807706 -0.14858714 0.51211512
-0.156436 -0.14829674 0.51111466
-0.1551038 -0.14829658 0.51111424
-0.15377158 -0.14829642 0.51111382
-0.15214095 -0.14800602 0.51011336
-0.15051553 -0.14771561 0.50911289
-0.14918852 -0.14771545 0.50911248
-0.14786154 -0.14771529 0.50911206
-0.14624652 -0.14742491 0.5081116
-0.14463678 -0.1471345 0.50711113
-0.14303219 -0.14684412 0.50611073
-0.14171299 -0.14684395 0.50611031
-0.14039382 -0.14684379 0.50610989
-0.13879967 -0.14655338 0.50510943
-0.13748312 -0.14655322 0.50510901
-0.1358968 -0.14626284 0.50410855
-0.13458285 -0.14626268 0.50410813
-0.13326889 -0.14626253 0.50410771
-0.13195494 -0.14626236 0.50410736
-0.13064095 -0.1462622 0.50410694
-0.12932703 -0.14626203 0.50410652
-0.12801304 -0.14626187 0.5041061
-0.12669909 -0.14626171 0.50410569
-0.12513623 -0.14597131 0.50310528
-0.12382489 -0.14597116 0.50310487
-0.12251355 -0.145971 0.50310445
-0.12120219 -0.14597084 0.50310403
-0.11989084 -0.14597067 0.50310361
-0.11857948 -0.14597051 0.5031032
-0.11726814 -0.14597034 0.50310284
-0.11572613 -0.14567998 0.50210238
-0.11441738 -0.14567982 0.50210202
-0.11288322 -0.14538942 0.50110155
-0.11157708 -0.14538926 0.50110114
-0.11027094 -0.14538911 0.50110078
-0.1089648 -0.14538895 0.50110036
-0.10744365 -0.14509854 0.5000999
-0.10614012 -0.14509839 0.50009948
-0.10483659 -0.14509824 0.50009912
-0.10332588 -0.14480785 0.49909869
-0.10202496 -0.1448077 0.49909827
-0.10072403 -0.14480753 0.49909788
-0.09942311 -0.14480737 0.49909747
-0.09812218 -0.1448072 0.49909705
-0.096627109 -0.14451684 0.49809664
-0.095328793 -0.14451668 0.49809626
-0.094030477 -0.14451651 0.49809584
-0.092732161 -0.14451636 0.49809545
-0.091250122 -0.14422598 0.49709502
-0.089954413 -0.14422582 0.4970946
-0.088658705 -0.14422566 0.49709421
-0.087187096 -0.14393528 0.49609381
-0.08572071 -0.1436449 0.49509341
-0.084259532 -0.14335452 0.494093
-0.08280357 -0.14306416 0.4930926
-0.081518285 -0.14306399 0.49309221
-0.080070138 -0.1427736 0.49209177
-0.078787461 -0.14277345 0.49209139
-0.077347144 -0.14248309 0.49109098
-0.076067075 -0.14248292 0.4910906
-0.074787006 -0.14248277 0.49109018
-0.073357113 -0.14219239 0.49008977
-0.072079651 -0.14219223 0.49008939
-0.070657581 -0.14190187 0.48908901
-0.069382727 -0.14190172 0.48908859
-0.068107873 -0.14190155 0.48908821
-0.066696227 -0.14161119 0.48808783
-0.06542398 -0.14161102 0.48808742
-0.064151734 -0.14161088 0.48808703
-0.06287948 -0.14161071 0.48808664
-0.061607242 -0.14161056 0.48808625
-0.060211241 -0.14132018 0.48708585
-0.058941603 -0.14132003 0.48708543
-0.05767196 -0.14131987 0.48708504
-0.056402322 -0.14131972 0.48708466
-0.055019356 -0.14102936 0.48608428
-0.053752325 -0.14102921 0.48608389
-0.052485291 -0.14102904 0.48608348
-0.05121826 -0.1410289 0.48608309
-0.049951222 -0.14102873 0.4860827
-0.048583899 -0.14073837 0.4850823
-0.047319472 -0.14073822 0.48508191
-0.046055045 -0.14073806 0.48508152
-0.044790622 -0.14073791 0.48508114
-0.043436337 -0.14044754 0.48408076
-0.042174518 -0.14044738 0.48408037
-0.040912699 -0.14044723 0.48407999
-0.039568834 -0.14015687 0.48307958
-0.038309623 -0.1401567 0.4830792
-0.037050415 -0.14015655 0.48307881
-0.035791203 -0.14015639 0.48307842
