# .PCD v0.7 - Point Cloud Data file format
VERSION 0.7
FIELDS x y z
SIZE 4 4 4
TYPE F F F
COUNT 1 1 1
WIDTH 1317
HEIGHT 1
VIEWPOINT 0 0 0 1 0 0 0
POINTS 1317
DATA ascii
-0.053647667 -0.091426387 0.48509216
-0.052599493 -0.091803297 0.48709178
-0.051540885 -0.092180207 0.4890914
-0.12899607 -0.07901641 0.42511773
-0.12788808 -0.079016276 0.42511737
-0.12678006 -0.079016134 0.42511702
-0.12567207 -0.079016 0.42511669
-0.12427084 -0.078829914 0.42411628
-0.12316545 -0.07882978 0.42411596
-0.12206005 -0.078829639 0.4241156
-0.12066925 -0.078643553 0.42311519
-0.11956646 -0.078643419 0.42311484
-0.11846366 -0.078643285 0.42311448
-0.1170833 -0.078457199 0.4221141
-0.11598311 -0.078457065 0.42211378
-0.11488294 -0.078456931 0.42211342
-0.11378275 -0.078456797 0.42211309
-0.11268258 -0.078456663 0.42211273
-0.11131785 -0.078270584 0.42111236
-0.11022028 -0.07827045 0.421112
-0.10912271 -0.078270316 0.42111167
-0.10802514 -0.078270182 0.42111132
-0.10667343 -0.078084096 0.42011091
-0.10557847 -0.078083962 0.42011058
-0.10448351 -0.078083828 0.42011023
-0.10314225 -0.07789775 0.41910985
-0.10204989 -0.077897616 0.41910952
-0.10071643 -0.077711537 0.41810912
-0.099626683 -0.077711403 0.41810879
-0.098536931 -0.077711269 0.41810843
-0.097213909 -0.077525198 0.41710806
-0.096126758 -0.077525064 0.41710773
-0.094811566 -0.077338979 0.41610733
-0.093727022 -0.077338845 0.416107
-0.092642486 -0.077338718 0.41610667
-0.09155795 -0.077338584 0.41610631
-0.090473413 -0.07733845 0.41610599
-0.089388877 -0.077338316 0.41610566
-0.088304333 -0.077338181 0.4161053
-0.087219797 -0.077338047 0.41610497
-0.086135261 -0.077337913 0.41610464
-0.085050724 -0.077337779 0.41610429
-0.083966181 -0.077337645 0.41610396
-0.082881644 -0.077337511 0.41610363
-0.08199387 -0.077523328 0.41710332
-0.081100889 -0.077709123 0.41810301
-0.080011137 -0.077708989 0.41810268
-0.079110324 -0.077894792 0.41910237
-0.078204304 -0.078080595 0.42010206
-0.077109337 -0.07808046 0.4201017
-0.076195493 -0.078266263 0.42110142
-0.075097919 -0.078266129 0.42110106
-0.074176244 -0.078451924 0.42210072
-0.073076062 -0.078451782 0.42210039
-0.072146572 -0.078637585 0.42310005
-0.071379967 -0.079009317 0.42509976
-0.070602924 -0.079381056 0.42709947
-0.070141204 -0.080124654 0.43109921
-0.069658622 -0.080868252 0.43509895
-0.068785943 -0.082541369 0.44409838
-0.06839063 -0.083470881 0.44909811
-0.067969233 -0.084400401 0.45409781
-0.067374557 -0.085143983 0.45809752
-0.066614397 -0.085701637 0.46109718
-0.065696575 -0.086073346 0.46309683
-0.064768322 -0.086445056 0.46509647
-0.063692838 -0.086630836 0.4660961
-0.062612146 -0.086816616 0.4670957
-0.061657824 -0.087188326 0.46909535
-0.060564086 -0.087374106 0.47009501
-0.05946514 -0.087559886 0.47109461
-0.058484748 -0.087931596 0.47309425
-0.057493929 -0.088303298 0.4750939
-0.056611232 -0.088860936 0.4780935
-0.05559694 -0.089232638 0.48009315
-0.05468557 -0.089790262 0.48309276
-0.053647824 -0.090161964 0.48509237
-0.052707773 -0.090719588 0.48809201
-0.1278882 -0.07790827 0.42511755
-0.12678021 -0.077908128 0.42511722
-0.12567219 -0.077907994 0.42511687
-0.1245642 -0.07790786 0.42511651
-0.12316559 -0.077724382 0.42411613
-0.12206019 -0.077724241 0.42411578
-0.1209548 -0.077724107 0.42411545
-0.1195666 -0.077540629 0.42311502
-0.1184638 -0.077540495 0.42311469
-0.11736102 -0.07754036 0.42311433
-0.11598326 -0.077356882 0.42211396
-0.11488308 -0.077356748 0.4221136
-0.11378289 -0.077356614 0.42211327
-0.11268272 -0.07735648 0.42211291
-0.11158253 -0.077356339 0.42211258
-0.11022042 -0.077172875 0.42111221
-0.10912284 -0.077172741 0.42111185
-0.10802528 -0.077172607 0.42111152
-0.10692769 -0.077172466 0.42111117
-0.10583013 -0.077172332 0.42111084
-0.10448364 -0.076988854 0.42011043
-0.10338867 -0.076988719 0.42011008
-0.10205002 -0.076805256 0.4191097
-0.10095766 -0.076805122 0.41910937
-0.099626817 -0.076621644 0.41810897
-0.098537065 -0.07662151 0.41810861
-0.097447313 -0.076621376 0.41810828
-0.096126892 -0.076437913 0.41710791
-0.095039748 -0.076437779 0.41710758
-0.093727157 -0.076254301 0.41610718
-0.09264262 -0.076254174 0.41610685
-0.091558084 -0.07625404 0.41610649
-0.090473548 -0.076253906 0.41610616
-0.089389011 -0.076253772 0.41610584
-0.088304467 -0.076253638 0.41610548
-0.087219931 -0.076253504 0.41610515
-0.086135395 -0.076253369 0.41610482
-0.085050859 -0.076253235 0.41610447
-0.083966315 -0.076253101 0.41610414
-0.083081156 -0.076436311 0.41710386
-0.081994005 -0.076436177 0.4171035
-0.081101023 -0.076619364 0.41810319
-0.080011271 -0.07661923 0.41810286
-0.079110458 -0.076802433 0.41910255
-0.078204438 -0.07698562 0.42010224
-0.077109471 -0.076985486 0.42010188
-0.076195627 -0.077168688 0.4211016
-0.075098053 -0.077168554 0.42110124
-0.074176386 -0.077351741 0.42210093
-0.073076203 -0.0773516 0.42210057
-0.072317421 -0.077718124 0.42410028
-0.071548201 -0.07808464 0.42609999
-0.07093402 -0.078634486 0.42909968
-0.070467077 -0.079367653 0.43309942
-0.069979288 -0.080100819 0.43709913
-0.069628291 -0.081017323 0.44209889
-0.069096178 -0.081750475 0.4460986
-0.068695664 -0.082666956 0.45109832
-0.068119228 -0.083400115 0.455098
-0.067374706 -0.083949938 0.4580977
-0.066614546 -0.084499769 0.46109736
-0.065696724 -0.08486627 0.46309704
-0.064768471 -0.085232764 0.46509668
-0.063692987 -0.085415944 0.46609631
-0.062612295 -0.085599117 0.46709591
-0.061657973 -0.085965611 0.46909556
-0.060564235 -0.086148784 0.47009522
-0.059465289 -0.086331956 0.47109482
-0.058484901 -0.08669845 0.47309446
-0.057615239 -0.087248251 0.4760941
-0.056611385 -0.087614752 0.47809371
-0.05571305 -0.08816456 0.48109338
-0.054799065 -0.088714369 0.48409298
-0.053758711 -0.089080855 0.4860926
-0.052816052 -0.089630648 0.4890922
-0.1293 -0.076981142 0.42611817
-0.12818938 -0.076981008 0.42611784
-0.12678033 -0.07680013 0.4251174
-0.12567234 -0.076799996 0.42511705
-0.12456433 -0.076799862 0.42511672
-0.12345634 -0.076799728 0.42511636
-0.12206033 -0.076618843 0.42411596
-0.12095494 -0.076618709 0.42411563
-0.11956673 -0.076437838 0.42311519
-0.11846393 -0.076437704 0.42311487
-0.11736115 -0.07643757 0.42311451
-0.11625836 -0.076437436 0.42311418
-0.11488321 -0.076256566 0.42211378
-0.11378302 -0.076256432 0.42211345
-0.11268286 -0.076256298 0.42211309
-0.11158267 -0.076256156 0.42211276
-0.11048249 -0.076256022 0.42211241
-0.10938231 -0.076255888 0.42211208
-0.10828213 -0.076255754 0.42211172
-0.10692783 -0.076074891 0.42111135
-0.10583026 -0.076074757 0.42111102
-0.10448378 -0.075893886 0.42011061
-0.10338881 -0.075893752 0.42011026
-0.10229384 -0.075893618 0.42010993
-0.1009578 -0.075712763 0.41910955
-0.099865437 -0.075712629 0.4191092
-0.098537199 -0.075531758 0.41810882
-0.097447447 -0.075531624 0.41810846
-0.096127026 -0.075350761 0.41710809
-0.095039882 -0.075350627 0.41710776
-0.093952738 -0.075350493 0.41710743
-0.092642754 -0.075169638 0.41610703
-0.091558218 -0.075169504 0.4161067
-0.090473682 -0.07516937 0.41610634
-0.089389145 -0.075169235 0.41610602
-0.088304602 -0.075169101 0.41610569
-0.087220065 -0.075168967 0.41610533
-0.086135529 -0.075168833 0.416105
-0.085050993 -0.075168699 0.41610467
-0.083966449 -0.075168565 0.41610432
-0.08308129 -0.07534916 0.41710404
-0.081994139 -0.075349025 0.41710371
-0.081101157 -0.075529613 0.41810337
-0.080011405 -0.075529478 0.41810304
-0.079110593 -0.075710073 0.41910273
-0.078204572 -0.075890653 0.42010242
-0.077109605 -0.075890519 0.42010206
-0.076195762 -0.076071113 0.42110178
-0.075098187 -0.076070979 0.42110142
-0.07417652 -0.076251559 0.42210111
-0.073249638 -0.076432139 0.42310077
-0.072488248 -0.076793455 0.42510048
-0.07171642 -0.077154756 0.42710018
-0.071265124 -0.077877492 0.43109992
-0.070792966 -0.078600243 0.43509966
-0.070299961 -0.079322971 0.43909937
-0.069943763 -0.080226436 0.44409913
-0.069406427 -0.080949157 0.44809884
-0.069000684 -0.0818526 0.45309854
-0.068269208 -0.082394615 0.45609826
-0.067522086 -0.08293663 0.45909792
-0.066759318 -0.083478622 0.46209759
-0.065696873 -0.083659202 0.46309724
-0.06476862 -0.084020481 0.46509689
-0.063693136 -0.084201053 0.46609652
-0.062612444 -0.084381618 0.46709612
-0.061526537 -0.084562182 0.46809578
-0.060564388 -0.084923461 0.47009543
-0.059465442 -0.085104026 0.47109503
-0.058608823 -0.085646018 0.47409469
-0.057615392 -0.08600729 0.47609431
-0.056730092 -0.08654929 0.47909397
-0.055829145 -0.087091282 0.48209357
-0.05491256 -0.08763326 0.48509318
-0.053869598 -0.087994523 0.48709282
-0.052924335 -0.088536516 0.49009243
-0.13152134 -0.075870804 0.42611906
-0.13041076 -0.075870663 0.4261187
-0.12930015 -0.075870529 0.42611834
-0.12818953 -0.075870395 0.42611802
-0.12707892 -0.075870253 0.42611766
-0.12567246 -0.075691991 0.42511722
-0.12456447 -0.075691856 0.4251169
-0.12345648 -0.075691722 0.42511654
-0.12234847 -0.075691581 0.42511621
-0.12095507 -0.075513318 0.42411581
-0.11984967 -0.075513184 0.42411548
-0.11846407 -0.075334921 0.42311504
-0.11736128 -0.075334787 0.42311472
-0.11625849 -0.075334653 0.42311436
-0.11515571 -0.075334512 0.423114
-0.11378316 -0.075156249 0.42211363
-0.11268299 -0.075156115 0.4221133
-0.1115828 -0.075155973 0.42211294
-0.11048263 -0.075155839 0.42211261
-0.10938244 -0.075155705 0.42211226
-0.10828227 -0.075155571 0.42211193
-0.10718208 -0.075155437 0.42211157
-0.1060819 -0.075155303 0.42211124
-0.10473282 -0.074977048 0.42111084
-0.10338894 -0.074798785 0.42011043
-0.10229398 -0.074798651 0.42011011
-0.10119901 -0.074798517 0.42010978
-0.099865571 -0.074620269 0.4191094
-0.098773211 -0.074620135 0.41910905
-0.097447582 -0.074441873 0.41810864
-0.09612716 -0.074263617 0.41710827
-0.095040016 -0.074263483 0.41710794
-0.093952872 -0.074263349 0.41710761
-0.092865728 -0.074263215 0.41710725
-0.091558352 -0.07408496 0.41610688
-0.09069144 -0.074262947 0.4171066
-0.089389279 -0.074084692 0.41610619
-0.088304736 -0.074084558 0.41610587
-0.087220199 -0.074084423 0.41610551
-0.086135663 -0.074084289 0.41610518
-0.085051127 -0.074084155 0.41610485
-0.084168568 -0.07426215 0.41710454
-0.083081424 -0.074262016 0.41710421
-0.082191043 -0.074439995 0.4181039
-0.081101291 -0.074439861 0.41810355
-0.080011539 -0.074439727 0.41810322
-0.079110727 -0.074617714 0.41910294
-0.078204706 -0.074795686 0.4201026
-0.077109739 -0.074795552 0.42010227
-0.076014772 -0.074795417 0.42010191
-0.075098321 -0.074973404 0.42110163
-0.074176654 -0.075151376 0.42210129
-0.07342308 -0.075507469 0.424101
-0.072488382 -0.075685449 0.42510065
-0.072052725 -0.076397762 0.42910042
-0.071596228 -0.077110082 0.43310016
-0.071118854 -0.077822387 0.43709987
-0.070259213 -0.079425119 0.44609934
-0.069716685 -0.080137417 0.45009905
-0.069153279 -0.080849722 0.45409876
-0.068419196 -0.081383914 0.45709845
-0.067669451 -0.081918091 0.46009812
-0.06675946 -0.082274161 0.46209776
-0.065697022 -0.082452133 0.46309742
-0.064768769 -0.082808197 0.4650971
-0.063693285 -0.082986161 0.4660967
-0.062612593 -0.083164118 0.46709633
-0.061658274 -0.083520181 0.46909598
-0.060564537 -0.083698139 0.47009563
-0.059591968 -0.084054209 0.47209525
-0.058608972 -0.084410273 0.4740949
-0.057736706 -0.084944442 0.47709453
-0.056848794 -0.085478619 0.48009416
-0.055945244 -0.086012773 0.48309377
-0.055026054 -0.08654695 0.48609343
-0.053980488 -0.086902998 0.48809305
-0.13041088 -0.074760057 0.42611888
-0.12960392 -0.074935444 0.4271186
-0.12818968 -0.074759789 0.4261182
-0.12707904 -0.074759647 0.42611784
-0.12596846 -0.074759513 0.42611751
-0.1245646 -0.074583858 0.42511708
-0.12345661 -0.074583724 0.42511675
-0.12234861 -0.074583583 0.42511639
-0.12095521 -0.07440792 0.42411599
-0.11984981 -0.074407786 0.42411566
-0.1184642 -0.074232131 0.42311522
-0.11736142 -0.074231997 0.4231149
-0.11625863 -0.074231863 0.42311454
-0.11515585 -0.074231721 0.42311421
-0.11405306 -0.074231587 0.42311385
-0.11268312 -0.07405594 0.42211348
-0.11158293 -0.074055798 0.42211312
-0.11048276 -0.074055664 0.42211279
-0.10938258 -0.07405553 0.42211244
-0.1082824 -0.074055396 0.42211211
-0.10718221 -0.074055262 0.42211175
-0.10608204 -0.074055128 0.42211142
-0.10473295 -0.073879473 0.42111105
-0.10363538 -0.073879339 0.42111069
-0.10229411 -0.073703684 0.42011029
-0.10119914 -0.07370355 0.42010996
-0.099865705 -0.07352791 0.41910958
-0.098773345 -0.073527776 0.41910923
-0.097447716 -0.073352121 0.41810882
-0.096357957 -0.073351987 0.41810849
-0.09504015 -0.073176339 0.41710812
-0.093953006 -0.073176205 0.41710779
-0.092865862 -0.073176071 0.41710743
-0.091778718 -0.073175937 0.41710711
-0.090691574 -0.073175803 0.41710678
-0.08960443 -0.073175669 0.41710642
-0.088304862 -0.073000021 0.41610605
-0.087220326 -0.072999887 0.41610569
-0.08613579 -0.072999753 0.41610536
-0.085255846 -0.073175132 0.41710508
-0.084168702 -0.073175006 0.41710475
-0.083081558 -0.073174872 0.41710439
-0.082191177 -0.073350243 0.41810408
-0.081101425 -0.073350109 0.41810372
-0.080011673 -0.073349975 0.4181034
-0.079110861 -0.073525354 0.41910312
-0.07820484 -0.073700719 0.42010278
-0.077109873 -0.073700584 0.42010245
-0.076014906 -0.07370045 0.42010209
-0.075098455 -0.07387583 0.42110181
-0.074176788 -0.074051201 0.42210147
-0.073423214 -0.074402072 0.42410117
-0.07282991 -0.074928455 0.4271009
-0.072389044 -0.075630344 0.43110067
-0.071927324 -0.076332226 0.43510041
-0.07160762 -0.077209622 0.44010016
-0.071101576 -0.077911504 0.44409987
-0.070574678 -0.078613371 0.44809958
-0.070026927 -0.079315253 0.45209929
-0.069458328 -0.080017127 0.456099
-0.068569183 -0.080367982 0.45809868
-0.067816839 -0.080894351 0.46109834
-0.066759609 -0.0810697 0.46209797
-0.065839186 -0.081420556 0.46409765
-0.064768918 -0.081595913 0.46509728
-0.063693434 -0.081771269 0.46609691
-0.062612742 -0.081946619 0.46709654
-0.061658423 -0.082297474 0.46909618
-0.060564686 -0.082472824 0.47009584
-0.059718493 -0.082999177 0.47309548
-0.058732893 -0.083350025 0.47509509
-0.05785802 -0.083876371 0.47809473
-0.056967508 -0.084402725 0.48109439
-0.05606135 -0.084929071 0.48409402
-0.055139549 -0.085455403 0.48709363
-0.054091375 -0.085806251 0.48909324
-0.13071728 -0.073822364 0.42711914
-0.12960404 -0.07382223 0.42711878
-0.12849084 -0.073822096 0.42711842
-0.12707919 -0.073649034 0.42611805
-0.12596858 -0.0736489 0.42611769
-0.12485797 -0.073648766 0.42611733
-0.12345675 -0.073475718 0.42511693
-0.12234875 -0.073475577 0.42511657
-0.12124075 -0.073475443 0.42511624
-0.11984995 -0.073302396 0.42411584
-0.11874454 -0.073302262 0.42411548
-0.11763916 -0.07330212 0.42411515
-0.11625876 -0.07312908 0.42311472
-0.11515598 -0.073128939 0.42311439
-0.11405319 -0.073128805 0.42311403
-0.11295041 -0.07312867 0.4231137
-0.11184762 -0.073128536 0.42311335
-0.11074483 -0.073128402 0.42311302
-0.10938271 -0.072955348 0.42211264
-0.10828254 -0.072955213 0.42211229
-0.10718235 -0.072955079 0.42211193
-0.10608217 -0.072954945 0.4221116
-0.10498199 -0.072954804 0.42211124
-0.10363551 -0.072781764 0.42111087
-0.10229424 -0.072608717 0.42011046
-0.10119928 -0.072608583 0.42011014
-0.10010431 -0.072608449 0.42010978
-0.098773479 -0.072435416 0.4191094
-0.09744785 -0.072262369 0.41810903
-0.096358091 -0.072262235 0.41810867
-0.095040277 -0.072089195 0.4171083
-0.093953133 -0.072089061 0.41710797
-0.092865989 -0.072088927 0.41710764
-0.091778845 -0.072088793 0.41710728
-0.090691701 -0.072088659 0.41710696
-0.08938954 -0.071915619 0.41610655
-0.088304996 -0.071915485 0.41610622
-0.08722046 -0.071915351 0.4161059
-0.086135924 -0.071915217 0.41610554
-0.085051388 -0.071915083 0.41610521
-0.084168829 -0.072087862 0.41710493
-0.083081685 -0.072087727 0.41710457
-0.082191311 -0.072260492 0.41810426
-0.081101559 -0.072260357 0.41810393
-0.080011807 -0.072260223 0.41810358
-0.079110995 -0.072432995 0.41910329
-0.078204975 -0.072605751 0.42010295
-0.077110007 -0.072605617 0.42010263
-0.07601504 -0.072605483 0.42010227
-0.075098589 -0.072778255 0.42110199
-0.074352831 -0.073123917 0.42310166
-0.073596656 -0.073469579 0.42510137
-0.073171429 -0.074161045 0.42910114
-0.072725363 -0.074852504 0.43310088
-0.072423913 -0.075716861 0.43810064
-0.0719335 -0.076408319 0.44210038
-0.071422257 -0.077099755 0.44610009
-0.070890144 -0.077791207 0.45009983
-0.070337176 -0.07848265 0.45409954
-0.069610909 -0.079001196 0.45709923
-0.068719164 -0.079346851 0.45909888
-0.067816988 -0.079692498 0.46109855
-0.066904381 -0.080038145 0.46309823
-0.065839335 -0.080210879 0.46409783
-0.064769067 -0.080383629 0.46509749
-0.063693583 -0.080556378 0.46609712
-0.062747091 -0.080902018 0.46809676
-0.061658576 -0.081074759 0.46909639
-0.060693819 -0.081420399 0.47109604
-0.059718646 -0.081766032 0.47309569
-0.05898058 -0.08245746 0.47709534
-0.057979338 -0.082803093 0.47909498
-0.057204764 -0.083494507 0.4830946
-0.056293398 -0.08401303 0.48609424
-0.055253047 -0.084358662 0.48809385
-0.054313 -0.084877178 0.49109349
-0.13071743 -0.072709151 0.42711931
-0.12960419 -0.072709017 0.42711896
-0.12849098 -0.072708882 0.42711863
-0.12737778 -0.072708741 0.42711827
-0.12596872 -0.072538294 0.42611787
-0.1248581 -0.07253816 0.42611754
-0.12374751 -0.072538018 0.42611718
-0.12234888 -0.072367579 0.42511675
-0.12124088 -0.072367445 0.42511642
-0.12013288 -0.072367311 0.42511606
-0.11874468 -0.072196864 0.42411569
-0.1176393 -0.072196722 0.42411533
-0.11653389 -0.072196588 0.424115
-0.11515612 -0.072026148 0.42311457
-0.11405333 -0.072026014 0.42311424
-0.11295055 -0.07202588 0.42311388
-0.11184776 -0.072025746 0.42311355
-0.11074498 -0.072025612 0.4231132
-0.10938285 -0.071855165 0.42211282
-0.10828267 -0.071855031 0.42211246
-0.10718248 -0.071854897 0.42211214
-0.10608231 -0.071854763 0.42211178
-0.10498212 -0.071854621 0.42211145
-0.10363565 -0.071684197 0.42111108
-0.10253807 -0.071684062 0.42111072
-0.10119941 -0.071513616 0.42011032
-0.10010444 -0.071513481 0.42010999
-0.098773614 -0.071343057 0.41910961
-0.097447984 -0.07117261 0.41810921
-0.096358225 -0.071172476 0.41810885
-0.095268473 -0.071172342 0.41810852
-0.093953267 -0.071001917 0.41710815
-0.092866123 -0.071001783 0.41710782
-0.091778979 -0.071001649 0.41710746
-0.090691835 -0.071001515 0.41710714
-0.089389674 -0.070831083 0.41610673
-0.088305131 -0.070830949 0.4161064
-0.087220594 -0.070830815 0.41610608
-0.086136058 -0.07083068 0.41610572
-0.085256107 -0.071000844 0.41710544
-0.084168963 -0.071000718 0.41710511
-0.083281204 -0.071170866 0.4181048
-0.082191445 -0.071170732 0.41810444
-0.081101693 -0.071170598 0.41810411
-0.080203488 -0.07134077 0.4191038
-0.079111129 -0.071340635 0.41910347
-0.078205109 -0.071510784 0.42010316
-0.077110142 -0.07151065 0.4201028
-0.076196298 -0.071680821 0.42110252
-0.075277239 -0.07185097 0.42210218
-0.074704789 -0.072361715 0.42510191
-0.073943391 -0.072702169 0.42710161
-0.073512964 -0.073383197 0.43110138
-0.073229767 -0.074234523 0.43610114
-0.072920494 -0.075085834 0.4411009
-0.072422273 -0.075766861 0.44510064
-0.071903206 -0.076447882 0.44910038
-0.071205609 -0.076958612 0.45210007
-0.070492387 -0.077469341 0.45509973
-0.069763504 -0.077980064 0.45809945
-0.068869151 -0.078320488 0.4600991
-0.067964368 -0.07866092 0.46209875
-0.06690453 -0.078831069 0.46309841
-0.065839477 -0.079001203 0.46409804
-0.064769216 -0.079171345 0.4650977
-0.063693732 -0.079341486 0.46609733
-0.06274724 -0.079681911 0.46809697
-0.061790314 -0.080022335 0.47009662
-0.060822956 -0.08036276 0.47209626
-0.059845172 -0.080703177 0.47409591
-0.058980733 -0.081213892 0.47709554
-0.058221817 -0.081894882 0.48109519
-0.057323482 -0.082405582 0.48409483
-0.056409504 -0.082916282 0.48709446
-0.055366542 -0.083256699 0.48909408
-0.13071755 -0.07159593 0.42711949
-0.129908 -0.071763501 0.42811924
-0.12849113 -0.071595661 0.42711881
-0.1273779 -0.07159552 0.42711845
-0.12626469 -0.071595386 0.42711812
-0.12485824 -0.071427554 0.42611772
-0.12374765 -0.071427412 0.42611736
-0.12263703 -0.071427278 0.42611703
-0.12124102 -0.071259439 0.4251166
-0.12013301 -0.071259305 0.42511627
-0.119025 -0.071259163 0.42511591
-0.11763943 -0.071091332 0.42411551
-0.11653402 -0.071091197 0.42411518
-0.11542864 -0.071091063 0.42411482
-0.11405347 -0.070923224 0.42311442
-0.11295068 -0.07092309 0.42311406
-0.11184789 -0.070922956 0.42311373
-0.11074511 -0.070922822 0.42311338
-0.10964231 -0.07092268 0.42311305
-0.10828281 -0.070754856 0.42211264
-0.10718262 -0.070754722 0.42211232
-0.10608245 -0.070754588 0.42211196
-0.10498226 -0.070754446 0.42211163
-0.10388208 -0.070754312 0.42211127
-0.10253821 -0.070586488 0.4211109
-0.10144063 -0.070586354 0.42111057
-0.10010458 -0.070418514 0.42011017
-0.099009611 -0.07041838 0.42010981
-0.097681388 -0.070250563 0.41910943
-0.096358359 -0.070082724 0.41810903
-0.095268607 -0.07008259 0.4181087
-0.094178855 -0.070082456 0.41810837
-0.092866257 -0.069914639 0.417108
-0.091779113 -0.069914505 0.41710764
-0.090691969 -0.069914371 0.41710731
-0.089604825 -0.069914237 0.41710699
-0.088305265 -0.069746405 0.41610658
-0.087430529 -0.069913968 0.4171063
-0.086343385 -0.069913834 0.41710597
-0.085256241 -0.0699137 0.41710562
-0.08437109 -0.070081249 0.4181053
-0.083281338 -0.070081115 0.41810498
-0.082191579 -0.070080981 0.41810462
-0.081295982 -0.070248544 0.41910434
-0.080203623 -0.07024841 0.41910401
-0.07930021 -0.070415951 0.42010367
-0.078205243 -0.070415817 0.42010334
-0.077294007 -0.070583381 0.42110303
-0.076377556 -0.070750929 0.42210272
-0.075634412 -0.071086168 0.42410243
-0.074880838 -0.0714214 0.42610213
-0.074463442 -0.072091997 0.43010187
-0.074025184 -0.072762609 0.43410164
-0.073251598 -0.074271485 0.44310114
-0.072748162 -0.074942082 0.44710088
-0.072223879 -0.075612672 0.45110062
-0.071521074 -0.076115586 0.45410031
-0.070802636 -0.076618493 0.4571
-0.069916099 -0.076953709 0.45909965
-0.0688693 -0.077121243 0.46009928
-0.067964517 -0.077456459 0.46209896
-0.066904679 -0.077624001 0.46309862
-0.065839626 -0.077791527 0.46409824
-0.064769365 -0.077959061 0.4650979
-0.063693881 -0.078126594 0.46609753
-0.062881589 -0.078629486 0.46909717
-0.061790466 -0.078797013 0.47009683
-0.060952086 -0.079299904 0.47309646
-0.059971701 -0.079635113 0.47509611
-0.059104659 -0.080138005 0.47809574
-0.058343127 -0.080808565 0.48209542
-0.057442188 -0.081311442 0.48509502
-0.056525607 -0.081814326 0.48809469
-0.055593383 -0.082317203 0.49109432
-0.13102397 -0.070647821 0.42811978
-0.12990814 -0.070647679 0.42811942
-0.12879232 -0.070647545 0.42811909
-0.12737805 -0.070482306 0.42711866
-0.12626481 -0.070482172 0.4271183
-0.1251516 -0.070482038 0.42711794
-0.12374779 -0.070316799 0.42611757
-0.12263717 -0.070316665 0.42611721
-0.12124116 -0.070151441 0.42511678
-0.12013315 -0.070151307 0.42511645
-0.11902514 -0.070151165 0.42511609
-0.11791715 -0.070151031 0.42511576
-0.11653416 -0.069985799 0.42411536
-0.11542878 -0.069985665 0.424115
-0.11432337 -0.069985531 0.42411467
-0.11295082 -0.069820307 0.42311424
-0.11184803 -0.069820173 0.42311391
-0.11074524 -0.069820039 0.42311355
-0.10964245 -0.069819897 0.42311323
-0.10853966 -0.069819763 0.42311287
-0.10743687 -0.069819629 0.42311254
-0.10608258 -0.069654405 0.42211217
-0.1049824 -0.069654264 0.42211181
-0.10388222 -0.069654129 0.42211148
-0.10253834 -0.069488913 0.42111108
-0.10144076 -0.069488779 0.42111075
-0.10010471 -0.069323555 0.42011034
-0.099009745 -0.069323421 0.42010999
-0.097681522 -0.069158204 0.41910961
-0.096589155 -0.06915807 0.41910928
-0.095268741 -0.068992838 0.41810888
-0.09417899 -0.068992704 0.41810855
-0.092866391 -0.068827495 0.41710818
-0.091779247 -0.068827361 0.41710785
-0.090692103 -0.068827227 0.41710749
-0.089604959 -0.068827093 0.41710716
-0.088517807 -0.068826959 0.41710684
-0.087430663 -0.068826824 0.41710648
-0.086343519 -0.06882669 0.41710615
-0.085460976 -0.068991631 0.41810584
-0.084371224 -0.068991497 0.41810548
-0.083281472 -0.068991363 0.41810516
-0.082388476 -0.069156319 0.41910487
-0.081296116 -0.069156185 0.41910452
-0.080395304 -0.069321126 0.42010421
-0.079300344 -0.069320992 0.42010385
-0.078391716 -0.06948594 0.42110357
-0.077477872 -0.069650881 0.42210323
-0.076558813 -0.069815829 0.42310292
-0.07581307 -0.070145853 0.42510262
-0.075232796 -0.070640951 0.42810237
-0.074810185 -0.071301125 0.43210211
-0.074238576 -0.072951637 0.44210169
-0.073748186 -0.073611796 0.4461014
-0.073236942 -0.074271962 0.45010114
-0.07254456 -0.074767046 0.45310083
-0.071678892 -0.075097054 0.45510051
-0.070802778 -0.075427063 0.45710018
-0.069916248 -0.075757071 0.45909986
-0.069019295 -0.07608708 0.46109954
-0.067964666 -0.076251999 0.46209916
-0.066904828 -0.076416932 0.46309882
-0.065981798 -0.076746926 0.46509847
-0.064908922 -0.076911852 0.4660981
-0.063830838 -0.077076778 0.46709773
-0.062881738 -0.077406771 0.46909738
-0.061922204 -0.077736765 0.47109702
-0.061081223 -0.078231834 0.47409672
-0.060098231 -0.078561828 0.47609633
-0.059352349 -0.079221971 0.48009598
-0.058464441 -0.079717025 0.48309562
-0.057560898 -0.080212094 0.48609528
-0.056641709 -0.080707148 0.48909491
-0.055593539 -0.081037134 0.49109453
-0.13102409 -0.069531992 0.42811996
-0.12990826 -0.069531851 0.4281196
-0.12879243 -0.069531716 0.42811927
-0.12767661 -0.069531575 0.42811891
-0.12626496 -0.069368958 0.42711848
-0.12515172 -0.069368824 0.42711815
-0.12403853 -0.069368683 0.42711779
-0.1226373 -0.069206059 0.42611739
-0.1215267 -0.069205925 0.42611706
-0.12013329 -0.069043301 0.42511663
-0.11902528 -0.069043159 0.42511627
-0.11791728 -0.069043025 0.42511594
-0.11680927 -0.069042891 0.42511559
-0.11542892 -0.068880275 0.42411521
-0.11432351 -0.068880141 0.42411485
-0.11321812 -0.068879999 0.42411453
-0.11211272 -0.068879865 0.42411417
-0.11100733 -0.068879731 0.42411381
-0.10964258 -0.068717107 0.42311341
-0.1085398 -0.068716973 0.42311308
-0.10743701 -0.068716839 0.42311272
-0.10633422 -0.068716705 0.42311236
-0.10498253 -0.068554081 0.42211199
-0.10388235 -0.068553947 0.42211166
-0.10278217 -0.068553813 0.4221113
-0.10144091 -0.068391204 0.42111093
-0.10034333 -0.06839107 0.4211106
-0.099009879 -0.068228453 0.4201102
-0.097914912 -0.068228319 0.42010984
-0.09658929 -0.06806571 0.41910946
-0.09549693 -0.068065576 0.41910914
-0.094179124 -0.067902952 0.41810873
-0.093089372 -0.067902818 0.4181084
-0.09199962 -0.067902684 0.41810805
-0.090692237 -0.067740075 0.41710767
-0.089605093 -0.067739941 0.41710734
-0.088517942 -0.067739807 0.41710702
-0.087430798 -0.067739673 0.41710666
-0.086550862 -0.067902014 0.41810635
-0.08546111 -0.06790188 0.41810602
-0.084371358 -0.067901745 0.41810566
-0.083480977 -0.068064094 0.41910538
-0.08238861 -0.068063959 0.41910505
-0.081490405 -0.068226293 0.42010471
-0.080395438 -0.068226159 0.42010438
-0.079489425 -0.068388499 0.4211041
-0.078578189 -0.068550833 0.42210376
-0.07766173 -0.068713173 0.42310345
-0.076921202 -0.069037981 0.42510316
-0.076170236 -0.069362789 0.42710286
-0.07576067 -0.070012547 0.43110263
-0.07457491 -0.07212425 0.44410193
-0.07407929 -0.072773986 0.44810164
-0.073562838 -0.073423728 0.45210138
-0.072704971 -0.073748514 0.45410109
-0.071836695 -0.074073315 0.45610076
-0.070957981 -0.074398108 0.45810044
-0.069916397 -0.074560426 0.45910007
-0.069019437 -0.074885219 0.46109974
-0.068112046 -0.075210012 0.46309939
-0.0670496 -0.075372323 0.46409902
-0.065981947 -0.075534642 0.46509868
-0.064909071 -0.07569696 0.46609831
-0.063967794 -0.076021738 0.46809795
-0.063016079 -0.076346524 0.47009763
-0.062185541 -0.076833777 0.47309726
-0.06121036 -0.077158563 0.47509691
-0.060351137 -0.077645801 0.47809657
-0.05960004 -0.078295514 0.48209623
-0.058706924 -0.078782745 0.48509586
-0.057798166 -0.07926999 0.48809552
-0.056873765 -0.079757221 0.49109513
-0.055820379 -0.080081999 0.49309474
-0.13133049 -0.068576053 0.42912021
-0.13021207 -0.068575911 0.42911986
-0.12879258 -0.068415895 0.42811945
-0.1279752 -0.068575636 0.42911917
-0.12656093 -0.068415619 0.42811877
-0.12515187 -0.068255611 0.42711833
-0.12403867 -0.068255469 0.42711797
-0.12292545 -0.068255335 0.42711765
-0.12181225 -0.068255194 0.42711729
-0.12041622 -0.068095177 0.42611688
-0.1193056 -0.068095043 0.42611656
-0.11791742 -0.067935027 0.42511612
-0.11680941 -0.067934893 0.42511576
-0.11570141 -0.067934752 0.42511544
-0.11459341 -0.067934617 0.42511508
-0.11321826 -0.067774601 0.4241147
-0.11211286 -0.067774467 0.42411435
-0.11100747 -0.067774333 0.42411402
-0.10990207 -0.067774199 0.42411366
-0.10879668 -0.067774057 0.42411333
-0.10743714 -0.067614049 0.4231129
-0.10633436 -0.067613915 0.42311257
-0.10523157 -0.067613773 0.42311221
-0.10388248 -0.067453764 0.42211184
-0.1027823 -0.06745363 0.42211148
-0.10168213 -0.067453496 0.42211115
-0.10034347 -0.067293495 0.42111078
-0.099010013 -0.067133486 0.42011037
-0.097915046 -0.067133352 0.42011002
-0.096589424 -0.066973351 0.41910964
-0.095497064 -0.066973217 0.41910931
-0.094179258 -0.066813201 0.41810891
-0.093089506 -0.066813067 0.41810858
-0.091999754 -0.066812932 0.41810822
-0.090910003 -0.066812798 0.4181079
-0.089820251 -0.066812664 0.41810754
-0.088730499 -0.06681253 0.41810721
-0.087640747 -0.066812396 0.41810688
-0.086550996 -0.066812262 0.41810653
-0.085461244 -0.066812128 0.4181062
-0.08457347 -0.066971868 0.41910592
-0.083680481 -0.067131594 0.42010558
-0.082585506 -0.06713146 0.42010525
-0.081490539 -0.067131326 0.42010492
-0.080587134 -0.067291059 0.42110461
-0.079678506 -0.067450784 0.4221043
-0.078764655 -0.067610517 0.42310396
-0.077845618 -0.06777025 0.42410368
-0.077283591 -0.068249717 0.4271034
-0.076705933 -0.068729162 0.43010315
-0.076288536 -0.069368489 0.43410292
-0.075850293 -0.070007809 0.43810266
-0.075391181 -0.070647135 0.44210243
-0.074911222 -0.07128644 0.44610214
-0.074410409 -0.071925752 0.45010191
-0.073725849 -0.072405189 0.45310161
-0.072865389 -0.072724774 0.45510128
-0.071994506 -0.07304436 0.45710096
-0.07095813 -0.07320407 0.45810062
-0.070068985 -0.073523641 0.46010026
-0.069019586 -0.073683366 0.46109992
-0.068112195 -0.074002944 0.4630996
-0.067049749 -0.074162647 0.46409923
-0.065982096 -0.074322358 0.46509889
-0.065048635 -0.074641928 0.46709853
-0.064104743 -0.074961498 0.46909818
-0.063284628 -0.075440928 0.47209787
-0.062317278 -0.075760491 0.47409752
-0.061468478 -0.076239921 0.47709715
-0.06060404 -0.076719351 0.48009679
-0.059847739 -0.077358626 0.48409647
-0.058828246 -0.077678181 0.48609608
-0.057916876 -0.078157596 0.48909572
-0.056989867 -0.078637011 0.49209535
-0.13244906 -0.067457758 0.42912075
-0.13133064 -0.067457624 0.42912039
-0.13021219 -0.067457482 0.42912003
-0.12909377 -0.067457348 0.42911971
-0.12797534 -0.067457207 0.42911935
-0.12656108 -0.067299798 0.42811894
-0.12544525 -0.067299657 0.42811859
-0.12403881 -0.067142248 0.42711818
-0.12292559 -0.067142114 0.42711782
-0.12181238 -0.067141972 0.42711747
-0.12069916 -0.067141838 0.42711714
-0.11930574 -0.06698443 0.42611673
-0.11819515 -0.066984296 0.42611638
-0.11680954 -0.066826895 0.42511597
-0.11570155 -0.066826753 0.42511562
-0.11459354 -0.066826619 0.42511529
-0.11348554 -0.066826485 0.42511493
-0.11211299 -0.066669069 0.42411453
-0.1110076 -0.066668935 0.4241142
-0.1099022 -0.066668801 0.42411384
-0.10879681 -0.066668659 0.42411351
-0.10743728 -0.066511266 0.42311308
-0.1063345 -0.066511132 0.42311275
-0.10523171 -0.06651099 0.42311239
-0.10388262 -0.066353589 0.42211202
-0.10278244 -0.066353455 0.42211169
-0.10168226 -0.066353321 0.42211133
-0.1003436 -0.066195928 0.42111096
-0.099246033 -0.066195793 0.42111063
-0.09791518 -0.066038385 0.42011023
-0.096820213 -0.066038251 0.42010987
-0.095497198 -0.065880857 0.41910949
-0.094404839 -0.065880723 0.41910917
-0.09308964 -0.065723315 0.41810876
-0.091999888 -0.065723181 0.4181084
-0.090910137 -0.065723047 0.41810808
-0.089820385 -0.065722913 0.41810775
-0.088730633 -0.065722778 0.41810739
-0.087640882 -0.065722644 0.41810706
-0.086758323 -0.065879777 0.41910678
-0.085665964 -0.065879643 0.41910642
-0.084775582 -0.066036768 0.42010611
-0.083680615 -0.066036627 0.42010579
-0.082782418 -0.066193767 0.42110547
-0.081684843 -0.066193633 0.42110515
-0.080778815 -0.066350751 0.42210484
-0.079867586 -0.066507876 0.42310449
-0.078951143 -0.066664986 0.42410421
-0.078213215 -0.066979371 0.42610392
-0.07764598 -0.067451015 0.42910367
-0.077063106 -0.067922652 0.4321034
-0.076640509 -0.06855154 0.43610317
-0.076023735 -0.06902317 0.43910289
-0.07573273 -0.069809318 0.44410267
-0.075247549 -0.070438199 0.44810241
-0.07474152 -0.071067087 0.45210215
-0.073888868 -0.07138145 0.45410183
-0.073025808 -0.071695819 0.45610151
-0.071994647 -0.07185293 0.45710117
-0.071113326 -0.072167292 0.45910084
-0.070069134 -0.072324395 0.46010047
-0.069169566 -0.072638758 0.46210015
-0.068112344 -0.072795868 0.46309981
-0.067049898 -0.072952963 0.46409944
-0.06612426 -0.073267326 0.46609911
-0.065188199 -0.073581681 0.46809876
-0.064241707 -0.073896043 0.47009841
-0.063418984 -0.07436765 0.47309807
-0.062580608 -0.074839242 0.47609773
-0.061726604 -0.075310856 0.4790974
-0.060856953 -0.075782463 0.48209703
-0.059971664 -0.076254047 0.48509666
-0.059070729 -0.076725654 0.48809633
-0.058154151 -0.077197246 0.49109596
-0.057105981 -0.077511586 0.49309558
-0.13275805 -0.066493988 0.43012097
-0.13133076 -0.066339195 0.42912057
-0.13021234 -0.066339053 0.42912024
-0.12909392 -0.066338919 0.42911988
-0.12797546 -0.066338778 0.42911953
-0.12685704 -0.066338643 0.4291192
-0.1254454 -0.066183835 0.4281188
-0.12432957 -0.066183701 0.42811844
-0.12321375 -0.066183567 0.42811808
-0.12181252 -0.066028759 0.42711768
-0.1206993 -0.066028625 0.42711732
-0.11958607 -0.066028491 0.42711696
-0.11819528 -0.06587369 0.42611659
-0.11708467 -0.065873548 0.42611623
-0.11597406 -0.065873414 0.42611587
-0.11459368 -0.065718614 0.42511547
-0.11348569 -0.065718479 0.42511511
-0.11237768 -0.065718345 0.42511478
-0.11126968 -0.065718204 0.42511442
-0.10990234 -0.065563411 0.42411405
-0.10879695 -0.065563269 0.42411369
-0.10769155 -0.065563135 0.42411333
-0.10633463 -0.065408342 0.42311293
-0.10523184 -0.0654082 0.4231126
-0.10412905 -0.065408066 0.42311224
-0.10278257 -0.065253273 0.42211187
-0.10168239 -0.065253139 0.42211151
-0.10034373 -0.065098353 0.42111114
-0.099246167 -0.065098219 0.42111081
-0.097915314 -0.064943418 0.4201104
-0.096820347 -0.064943284 0.42011005
-0.09572538 -0.064943142 0.42010972
-0.094404973 -0.064788364 0.41910934
-0.093312614 -0.06478823 0.41910899
-0.092220254 -0.064788096 0.41910866
-0.091127895 -0.064787954 0.41910833
-0.090035535 -0.06478782 0.41910797
-0.088943176 -0.064787686 0.41910765
-0.087850817 -0.064787552 0.41910729
-0.086758457 -0.064787418 0.41910696
-0.085870683 -0.064941935 0.42010665
-0.084775716 -0.064941801 0.42010629
-0.083880126 -0.065096326 0.42110601
-0.082979314 -0.065250836 0.4221057
-0.081879131 -0.065250702 0.42210534
-0.080970503 -0.06540522 0.42310503
-0.080056675 -0.065559737 0.42410472
-0.079137616 -0.065714248 0.42510441
-0.07839708 -0.066023417 0.42710412
-0.077827245 -0.06648723 0.43010387
-0.076992474 -0.067724168 0.43810341
-0.076370485 -0.068187974 0.44110313
-0.075903565 -0.068806432 0.4451029
-0.07541579 -0.069424883 0.44910264
-0.074907146 -0.07004334 0.45310235
-0.074051894 -0.070352502 0.45510206
-0.073025957 -0.070506997 0.45610172
-0.071994796 -0.0706615 0.45710137
-0.071113475 -0.070970647 0.45910105
-0.070069276 -0.07112515 0.46010068
-0.069169715 -0.071434289 0.46210036
-0.068112493 -0.071588799 0.46310002
-0.067050047 -0.071743287 0.46409965
-0.066124409 -0.072052434 0.46609929
-0.065327764 -0.072516225 0.46909896
-0.064378656 -0.072825365 0.47109863
-0.063553333 -0.073289149 0.47409832
-0.062843949 -0.073907584 0.47809798
-0.061984729 -0.07437136 0.48109764
-0.061109867 -0.074835144 0.48409727
-0.060219359 -0.075298913 0.48709691
-0.059313212 -0.075762689 0.49009654
-0.058272861 -0.076071821 0.49209619
-0.1327582 -0.065372951 0.43012118
-0.13163716 -0.065372817 0.43012083
-0.13051611 -0.065372676 0.43012047
-0.12909403 -0.06522049 0.42912006
-0.12797561 -0.065220349 0.42911974
-0.12685716 -0.065220214 0.42911938
-0.12573874 -0.065220073 0.42911902
-0.12432971 -0.06506788 0.42811862
-0.12321388 -0.065067746 0.42811829
-0.12209807 -0.065067604 0.42811793
-0.12069944 -0.064915411 0.4271175
-0.11958621 -0.064915277 0.42711717
-0.118473 -0.064915136 0.42711681
-0.11735978 -0.064915001 0.42711645
-0.1159742 -0.064762801 0.42611608
-0.11486358 -0.064762667 0.42611572
-0.11375298 -0.064762525 0.42611536
-0.11237781 -0.064610347 0.42511496
-0.11126982 -0.064610206 0.4251146
-0.11016181 -0.064610071 0.42511427
-0.10879708 -0.064457871 0.42411387
-0.10769168 -0.064457737 0.42411354
-0.10633477 -0.064305559 0.42311311
-0.10523198 -0.064305417 0.42311278
-0.10412919 -0.064305283 0.42311242
-0.1027827 -0.06415309 0.42211205
-0.10168253 -0.064152956 0.42211172
-0.10058235 -0.064152822 0.42211136
-0.099246301 -0.064000644 0.42111099
-0.098148726 -0.064000502 0.42111063
-0.097051144 -0.064000368 0.4211103
-0.095725514 -0.063848175 0.4201099
-0.094630547 -0.063848041 0.42010954
-0.09353558 -0.063847907 0.42010921
-0.092220388 -0.063695736 0.41910884
-0.091128029 -0.063695595 0.41910851
-0.09003567 -0.063695461 0.41910815
-0.08894331 -0.063695326 0.41910782
-0.087850951 -0.063695192 0.41910747
-0.086965784 -0.063847102 0.42010716
-0.085870817 -0.063846968 0.42010683
-0.084977835 -0.063998885 0.42110655
-0.083880261 -0.063998751 0.42110619
-0.082979448 -0.064150654 0.42210588
-0.082073428 -0.064302571 0.42310557
-0.081162199 -0.064454474 0.42410526
-0.080245756 -0.064606391 0.42510495
-0.079510435 -0.064910345 0.42710465
-0.078764684 -0.065214291 0.42910439
-0.078189626 -0.065670289 0.43210411
-0.07777746 -0.066278324 0.43610391
-0.077168517 -0.066734314 0.43910363
-0.076717243 -0.067342348 0.4431034
-0.076074399 -0.067798331 0.4461031
-0.075584017 -0.068406358 0.45010287
-0.074907295 -0.068862341 0.45310256
-0.074052043 -0.069166288 0.45510224
-0.073186368 -0.069470219 0.45710194
-0.072152607 -0.069622114 0.4581016
-0.071113624 -0.069774009 0.45910123
-0.070069425 -0.069925897 0.46010089
-0.069169864 -0.070229828 0.46210054
-0.068112642 -0.070381731 0.46310022
-0.067194827 -0.070685655 0.46509987
-0.066266581 -0.070989586 0.46709952
-0.06546732 -0.071445554 0.47009921
-0.064652428 -0.071901515 0.47309887
-0.063687682 -0.072205447 0.47509852
-0.063107289 -0.07296548 0.48009822
-0.062242847 -0.073421441 0.48309785
-0.061362773 -0.073877402 0.48609751
-0.060467057 -0.074333347 0.48909715
-0.059434533 -0.074637264 0.49109679
-0.058510132 -0.075093217 0.49409643
-0.13419086 -0.064401507 0.4311218
-0.13275832 -0.064251907 0.43012136
-0.13163731 -0.064251773 0.430121
-0.13051626 -0.064251631 0.43012068
-0.12939522 -0.064251497 0.43012032
-0.12827417 -0.064251356 0.43011996
-0.12685731 -0.064101778 0.42911956
-0.12573889 -0.064101636 0.4291192
-0.12462047 -0.064101502 0.42911887
-0.12321402 -0.06395191 0.42811847
-0.12209821 -0.063951768 0.42811811
-0.12098238 -0.063951634 0.42811778
-0.11958634 -0.063802056 0.42711735
-0.11847313 -0.063801914 0.42711699
-0.11735991 -0.06380178 0.42711666
-0.1162467 -0.063801639 0.4271163
-0.11513348 -0.063801505 0.42711595
-0.11375312 -0.063651912 0.42611557
-0.1126425 -0.063651778 0.42611521
-0.11126995 -0.063502192 0.42511478
-0.11016195 -0.063502058 0.42511445
-0.10905395 -0.063501924 0.4251141
-0.10769182 -0.063352339 0.42411372
-0.10658643 -0.063352205 0.42411336
-0.10523211 -0.06320262 0.42311296
-0.10412932 -0.063202485 0.4231126
-0.10278285 -0.063052908 0.42211223
-0.10168267 -0.063052773 0.4221119
-0.10058249 -0.063052639 0.42211154
-0.099482305 -0.063052498 0.42211121
-0.09814886 -0.06290292 0.42111084
-0.097051278 -0.062902786 0.42111048
-0.095953703 -0.062902652 0.42111015
-0.094630688 -0.062753066 0.42010975
-0.093535721 -0.062752932 0.42010939
-0.092440754 -0.062752798 0.42010906
-0.091345787 -0.062752664 0.42010871
-0.09025082 -0.06275253 0.42010838
-0.089155853 -0.062752396 0.42010802
-0.088060886 -0.062752262 0.42010769
-0.086965926 -0.062752128 0.42010736
-0.086075544 -0.062901437 0.42110705
-0.08497797 -0.062901303 0.42110673
-0.084079772 -0.063050605 0.42210642
-0.083176352 -0.063199908 0.42310607
-0.082267739 -0.06334921 0.42410579
-0.081353888 -0.063498512 0.42510548
-0.080434844 -0.063647814 0.42610517
-0.079696916 -0.063946553 0.42810491
-0.079132289 -0.064394727 0.43110463
-0.078552023 -0.06484291 0.43410438
-0.077956125 -0.065291069 0.43710411
-0.077520482 -0.065888681 0.44110388
-0.076890685 -0.066336848 0.44410363
-0.076245248 -0.066785008 0.44710335
-0.075752258 -0.067382611 0.45110309
-0.074907437 -0.067681335 0.45310277
-0.074052185 -0.067980066 0.45510244
-0.073186509 -0.068278782 0.45710212
-0.072152756 -0.068428069 0.45810181
-0.071113773 -0.068577357 0.45910144
-0.070069574 -0.068726644 0.46010107
-0.069170013 -0.06902536 0.46210074
-0.068112791 -0.069174655 0.4631004
-0.067194976 -0.069473363 0.46510008
-0.066408753 -0.069921508 0.46809974
-0.065606885 -0.070369653 0.47109941
-0.064789392 -0.070817798 0.4740991
-0.063956231 -0.071265943 0.47709876
-0.063239038 -0.071863517 0.48109844
-0.062371988 -0.072311655 0.48409811
-0.061615687 -0.072909221 0.48809776
-0.060714759 -0.073357351 0.49109742
-0.059677023 -0.073656052 0.49309704
-0.05862885 -0.073954754 0.49509665
-0.13419101 -0.063277863 0.43112198
-0.13306734 -0.063277721 0.43112165
-0.13163745 -0.063130736 0.43012121
-0.13051641 -0.063130595 0.43012086
-0.12939537 -0.063130461 0.4301205
-0.12827432 -0.063130319 0.43012014
-0.12715331 -0.063130185 0.43011981
-0.12573901 -0.062983207 0.42911941
-0.12462061 -0.062983073 0.42911905
-0.12321416 -0.062836088 0.42811865
-0.12209834 -0.062835947 0.42811832
-0.12098251 -0.062835813 0.42811796
-0.11986668 -0.062835671 0.4281176
-0.11875086 -0.062835537 0.42811725
-0.11736006 -0.062688559 0.42711684
-0.11624684 -0.062688418 0.42711648
-0.11513362 -0.062688284 0.42711613
-0.11402041 -0.06268815 0.4271158
-0.11264264 -0.062541179 0.42611539
-0.11153204 -0.062541038 0.42611507
-0.11016209 -0.062394064 0.42511463
-0.10905409 -0.062393926 0.4251143
-0.10794608 -0.062393792 0.42511395
-0.10658657 -0.062246818 0.42411357
-0.10548117 -0.06224668 0.42411321
-0.10412946 -0.062099706 0.42311281
-0.10278298 -0.061952733 0.42211241
-0.1016828 -0.061952598 0.42211208
-0.10058262 -0.061952461 0.42211172
-0.099482439 -0.061952326 0.42211139
-0.098382257 -0.061952192 0.42211103
-0.097051412 -0.061805222 0.42111066
-0.095953837 -0.061805084 0.42111033
-0.09485627 -0.06180495 0.42110997
-0.093758695 -0.061804816 0.42110965
-0.092440888 -0.061657839 0.42010924
-0.091345921 -0.061657704 0.42010888
-0.090250954 -0.06165757 0.42010856
-0.089155987 -0.061657436 0.42010823
-0.088270828 -0.061804142 0.42110792
-0.087173253 -0.061804004 0.42110759
-0.086280271 -0.061950702 0.42210728
-0.085180089 -0.061950564 0.42210692
-0.084279276 -0.062097263 0.42310661
-0.083176486 -0.062097125 0.42310628
-0.082462035 -0.062390655 0.42510599
-0.081354029 -0.062390517 0.42510566
-0.080623925 -0.062684037 0.4271054
-0.079883389 -0.062977567 0.4291051
-0.079316162 -0.063417919 0.43210486
-0.078733288 -0.063858271 0.43510461
-0.078134783 -0.064298622 0.43810436
-0.077696532 -0.064885803 0.44210413
-0.077064134 -0.065326132 0.44510385
-0.076416083 -0.065766484 0.44810355
-0.075752407 -0.066206828 0.4511033
-0.075073063 -0.066647165 0.45410299
-0.074215218 -0.066940673 0.4561027
-0.073186658 -0.067087352 0.45710233
-0.072152905 -0.067234032 0.45810199
-0.071113914 -0.067380719 0.45910165
-0.070222177 -0.06767422 0.46110132
-0.069170162 -0.067820899 0.46210095
-0.068260171 -0.0681144 0.46410063
-0.067339748 -0.068407908 0.46610031
-0.066692948 -0.068995051 0.47010002
-0.065885872 -0.06943538 0.47309968
-0.065063149 -0.069875695 0.47609934
-0.064224795 -0.070316024 0.47909901
-0.063502371 -0.070903167 0.48309866
-0.062630117 -0.071343482 0.48609835
-0.06174222 -0.071783789 0.48909798
-0.060838688 -0.07222411 0.49209762
-0.059919506 -0.07266441 0.49509728
-0.13450262 -0.062298458 0.43212223
-0.13306749 -0.062154084 0.43112183
-0.13194385 -0.062153943 0.43112147
-0.13051653 -0.062009566 0.43012103
-0.12939551 -0.062009428 0.43012068
-0.12827447 -0.06200929 0.43012035
-0.12715343 -0.062009152 0.43011999
-0.12573916 -0.061864778 0.42911959
-0.12462074 -0.061864644 0.42911923
-0.12350231 -0.061864506 0.4291189
-0.12238388 -0.061864369 0.42911854
-0.12126544 -0.061864231 0.42911819
-0.11986683 -0.061719857 0.42811778
-0.118751 -0.061719723 0.42811745
-0.11763518 -0.061719585 0.4281171
-0.11651936 -0.061719447 0.42811674
-0.11513375 -0.061575074 0.42711633
-0.11402055 -0.061574936 0.42711598
-0.11290733 -0.061574802 0.42711562
-0.11153217 -0.061430432 0.42611524
-0.11042155 -0.061430294 0.42611489
-0.10905422 -0.061285924 0.42511448
-0.10794622 -0.06128579 0.42511413
-0.1065867 -0.061141424 0.42411375
-0.1054813 -0.061141286 0.42411339
-0.1041296 -0.06099692 0.42311299
-0.10302681 -0.060996782 0.42311263
-0.10168294 -0.06085242 0.42211226
-0.10058276 -0.060852282 0.42211193
-0.099482574 -0.060852148 0.42211157
-0.098382391 -0.060852014 0.42211124
-0.097282209 -0.060851876 0.42211089
-0.096182026 -0.060851742 0.42211056
-0.094856404 -0.060707379 0.42111018
-0.093758829 -0.060707245 0.42110983
-0.092661254 -0.060707111 0.4211095
-0.091563679 -0.060706973 0.42110914
-0.090466104 -0.060706839 0.42110881
-0.089368537 -0.060706705 0.42110845
-0.088270962 -0.060706571 0.42110813
-0.087380581 -0.060850658 0.42210782
-0.086280406 -0.060850523 0.42210746
-0.085382208 -0.06099461 0.42310715
-0.084279418 -0.060994476 0.42310679
-0.083373398 -0.061138567 0.42410651
-0.082462169 -0.061282653 0.4251062
-0.081545718 -0.06142674 0.42610589
-0.080624059 -0.061570827 0.42710558
-0.08006987 -0.062003359 0.43010533
-0.079500034 -0.062435895 0.43310508
-0.078914568 -0.062868424 0.43610483
-0.078491963 -0.063445173 0.4401046
-0.077872597 -0.063877694 0.44310433
-0.077237584 -0.064310215 0.44610405
-0.076586939 -0.064742737 0.4491038
-0.075920641 -0.065175258 0.4521035
-0.075073212 -0.065463558 0.4541032
-0.07421536 -0.065751851 0.45610288
-0.073186807 -0.06589593 0.45710254
-0.072153047 -0.066040002 0.4581022
-0.071269125 -0.066328295 0.46010184
-0.070222326 -0.066472366 0.46110153
-0.06932015 -0.066760659 0.46310121
-0.068407558 -0.067048945 0.46510085
-0.067629166 -0.067481451 0.46810055
-0.066835113 -0.067913949 0.47110021
-0.066025436 -0.068346456 0.4740999
-0.065336913 -0.068923183 0.47809958
-0.064493343 -0.069355674 0.48109928
-0.06376572 -0.069932386 0.48509893
-0.063017227 -0.070509098 0.48909861
-0.061995137 -0.070797376 0.49109823
-0.06108639 -0.071229868 0.49409786
-0.060040832 -0.071518131 0.49609751
-0.13450274 -0.06117221 0.43212244
-0.13306761 -0.06103044 0.431122
-0.13194397 -0.061030298 0.43112168
-0.13082033 -0.061030161 0.43112132
-0.12939563 -0.060888391 0.43012089
-0.12827459 -0.060888253 0.43012053
-0.12715358 -0.060888115 0.43012017
-0.12603253 -0.060887977 0.43011984
-0.12462088 -0.060746215 0.42911944
-0.12350245 -0.060746077 0.42911908
-0.12238402 -0.06074594 0.42911872
-0.12126558 -0.060745802 0.42911839
-0.12014715 -0.060745664 0.42911804
-0.11875114 -0.060603902 0.42811763
-0.11763531 -0.060603764 0.42811728
-0.1165195 -0.060603626 0.42811695
-0.11540367 -0.060603488 0.42811659
-0.11402068 -0.060461719 0.42711616
-0.11290746 -0.060461584 0.42711583
-0.11179425 -0.060461447 0.42711547
-0.11042169 -0.060319684 0.4261151
-0.1093111 -0.06031955 0.42611474
-0.10794635 -0.060177788 0.4251143
-0.10683835 -0.06017765 0.42511398
-0.10548144 -0.060035892 0.42411357
-0.10412973 -0.05989413 0.42311317
-0.10302695 -0.059893992 0.42311284
-0.10192416 -0.059893858 0.42311248
-0.10058289 -0.059752099 0.42211211
-0.099482708 -0.059751965 0.42211175
-0.098382525 -0.059751831 0.42211142
-0.097282343 -0.059751693 0.42211106
-0.09618216 -0.059751559 0.42211074
-0.095081978 -0.059751425 0.42211038
-0.093981802 -0.059751287 0.42211005
-0.092661388 -0.059609536 0.42110968
-0.091563813 -0.059609398 0.42110932
-0.090681262 -0.059750881 0.42210901
-0.08958108 -0.059750747 0.42210868
-0.088480897 -0.059750613 0.42210832
-0.087380715 -0.059750475 0.42210799
-0.08628054 -0.059750341 0.42210764
-0.085382342 -0.05989182 0.42310733
-0.084478937 -0.060033306 0.42410704
-0.083570302 -0.060174786 0.42510673
