# .PCD v0.7 - Point Cloud Data file format
VERSION 0.7
FIELDS x y z
SIZE 4 4 4
TYPE F F F
COUNT 1 1 1
WIDTH 1
HEIGHT 572
VIEWPOINT 0 0 0 1 0 0 0
POINTS 572
DATA ascii
-0.20010397 -0.14461192 0.4394787
-0.20330967 -0.14180626 0.44227499
-0.19975202 -0.14117798 0.44127712
-0.21121183 -0.13575961 0.44906461
-0.20497249 -0.13498743 0.4458732
-0.19930825 -0.13480118 0.4431912
-0.21029484 -0.12830465 0.44991845
-0.20363136 -0.12554346 0.4483442
-0.19853388 -0.12475848 0.44694665
-0.20303595 -0.11922804 0.44974494
-0.1978872 -0.11650412 0.44967914
-0.22246432 -0.13134384 0.45496964
-0.21553132 -0.13291676 0.45174551
-0.23309658 -0.12312609 0.45923883
-0.22480255 -0.12493375 0.45659247
-0.21490487 -0.12490659 0.45288453
-0.2079372 -0.12389766 0.45034504
-0.23187251 -0.11688863 0.45951888
-0.22476889 -0.11506771 0.45792457
-0.21496226 -0.11473598 0.45405814
-0.20518781 -0.11467662 0.4509618
-0.19839033 -0.11280123 0.45059493
-0.22234604 -0.1063328 0.45905086
-0.21501784 -0.10490197 0.45587695
-0.20516999 -0.10482332 0.45290062
-0.19719718 -0.1051627 0.45212585
-0.22029407 -0.098404899 0.45954216
-0.21424194 -0.095983565 0.45819262
-0.20516463 -0.095042557 0.45644861
-0.19761316 -0.094880119 0.45498669
-0.21089031 -0.086416438 0.45970696
-0.20483129 -0.084938124 0.4580161
-0.197405 -0.084638752 0.45617738
-0.21030012 -0.078888021 0.45989752
-0.20375277 -0.076219521 0.45876858
-0.19673987 -0.074949756 0.45784998
-0.19556674 -0.067033775 0.45948231
-0.19472232 -0.055445783 0.4594442
-0.24051797 -0.12066287 0.46179575
-0.23792191 -0.12094983 0.4605802
-0.2435756 -0.11410079 0.46386439
-0.23591693 -0.11424852 0.46102756
-0.22863814 -0.11072786 0.46012568
-0.24295591 -0.10512603 0.46645373
-0.23510112 -0.10509532 0.46325988
-0.22676502 -0.1041306 0.4613308
-0.24214546 -0.096309826 0.46878144
-0.23515615 -0.094957747 0.4660514
-0.22495705 -0.094941147 0.4625344
-0.21719855 -0.092074774 0.46073496
-0.24086165 -0.086414672 0.4699088
-0.23458421 -0.085225634 0.46778029
-0.22502284 -0.085056648 0.46442991
-0.21572299 -0.084716514 0.46158168
-0.2093206 -0.08037211 0.46001679
-0.2329407 -0.076515123 0.46884435
-0.22486061 -0.07507541 0.46645284
-0.21511179 -0.074954011 0.46295539
-0.20676687 -0.073177516 0.46065399
-0.19958816 -0.070022672 0.46035251
-0.22412434 -0.06566298 0.4684523
-0.21509171 -0.065058194 0.46538353
-0.20519873 -0.065168463 0.46300235
-0.19745205 -0.06419903 0.46096119
-0.2215853 -0.055943809 0.46934408
-0.21494345 -0.055064917 0.46773478
-0.20500909 -0.054828614 0.46477965
-0.19768089 -0.054802697 0.46120009
-0.22048579 -0.049939334 0.46990359
-0.21327505 -0.046504349 0.46930298
-0.20494139 -0.044838451 0.46653226
-0.19672672 -0.044863548 0.46222568
-0.2036701 -0.035683867 0.46812743
-0.19624284 -0.034988813 0.46495524
-0.20163736 -0.02743277 0.46914634
-0.19530146 -0.02510355 0.46755224
-0.19417921 -0.018899955 0.46896908
-0.24383667 -0.0933071 0.47099304
-0.24275374 -0.08463259 0.47182336
-0.23931681 -0.084072083 0.47022533
-0.24288639 -0.075280584 0.4733822
-0.23665397 -0.073784262 0.47136679
-0.2419598 -0.065192439 0.47617859
-0.235026 -0.065220758 0.47336739
-0.22813115 -0.062761396 0.47111419
-0.24167909 -0.055044621 0.47862035
-0.23505908 -0.055140711 0.47503772
-0.2261856 -0.05463111 0.47157982
-0.2195321 -0.0513542 0.47006208
-0.240793 -0.046858434 0.47907743
-0.23504671 -0.04494464 0.476345
-0.22494584 -0.04501573 0.4729259
-0.21662135 -0.043443285 0.47079378
-0.23416883 -0.035164561 0.47775251
-0.22486274 -0.035030525 0.47522929
-0.21490717 -0.034916963 0.47257996
-0.20778678 -0.033569913 0.47080505
-0.23274283 -0.028059836 0.47910163
-0.22447106 -0.026373839 0.47793007
-0.21520276 -0.024901086 0.47537085
-0.20569164 -0.024443386 0.47201914
-0.19860911 -0.021026339 0.47021416
-0.2135637 -0.015797388 0.47717851
-0.20529494 -0.015775524 0.47371957
-0.19776195 -0.016778629 0.47190174
-0.24279636 -0.050466843 0.4803521
-0.24195451 -0.044069681 0.48159587
-0.23982587 -0.041323312 0.48059344
-0.24130769 -0.035141695 0.48240641
-0.2388103 -0.033638977 0.48063773
-0.24058805 -0.026302896 0.48399279
-0.23541172 -0.024410687 0.48375055
-0.22573872 -0.021872219 0.48370439
-0.22157006 -0.017829727 0.48588544
-0.21826826 -0.015235469 0.48229834
-0.23346932 -0.021741454 0.49429122
-0.22643559 -0.021199726 0.49514446
-0.22176735 -0.01849634 0.49320072
-0.21954308 -0.016816936 0.49421364
-0.23182754 -0.022457467 0.50442404
-0.22489531 -0.022205437 0.50433815
-0.21843222 -0.021343939 0.50468898
-0.22454108 -0.024502428 0.51458573
-0.21563795 -0.025436431 0.51796079
-0.22368477 -0.026739515 0.52302057
-0.21633534 -0.027581787 0.52593875
-0.20997578 -0.02804929 0.52704608
-0.22703841 -0.036561042 0.53466445
-0.21409769 -0.030613303 0.53794014
-0.2058512 -0.031366173 0.53726923
-0.2149002 -0.029466694 0.53346574
-0.20980394 -0.02938696 0.53252858
-0.2236542 -0.04238601 0.54880178
-0.18143106 -0.040262446 0.54903901
-0.2226152 -0.038813431 0.54762506
-0.21402073 -0.032724675 0.54630291
-0.20397314 -0.032153144 0.54542756
-0.19526619 -0.034230378 0.54691768
-0.18552586 -0.037918247 0.54894823
-0.1774008 -0.039545387 0.54935116
-0.22785059 -0.064318813 0.55836809
-0.22666745 -0.059878647 0.55837762
-0.22173555 -0.044030819 0.5598098
-0.22008207 -0.039253071 0.55566913
-0.21468434 -0.034675464 0.55592281
-0.20506422 -0.032112632 0.55509758
-0.19489101 -0.031599596 0.5549587
-0.21963358 -0.040817991 0.56091058
-0.19715528 -0.1515137 0.43962821
-0.2137672 -0.15185468 0.44269055
-0.20495601 -0.15267403 0.44136712
-0.19767629 -0.15155163 0.4403829
-0.23074272 -0.14310656 0.44952688
-0.22438747 -0.14434865 0.44732717
-0.21491167 -0.14480077 0.44389111
-0.20497376 -0.14482524 0.4425188
-0.19512446 -0.1453651 0.44454259
-0.18937077 -0.14531149 0.44946429
-0.22321559 -0.13631792 0.44845188
-0.21489273 -0.13513543 0.44676799
-0.20494758 -0.13504426 0.445952
-0.19598661 -0.13510665 0.4466415
-0.22128263 -0.12769769 0.44954696
-0.21503247 -0.12623326 0.44866592
-0.20493054 -0.12523907 0.44866571
-0.19611403 -0.12539849 0.4486585
-0.20287251 -0.1159977 0.44946146
-0.19770429 -0.11525866 0.44910926
-0.2010186 -0.10588982 0.44981709
-0.19720417 -0.10505891 0.44935495
-0.20062992 -0.097836599 0.44990703
-0.19637889 -0.098641701 0.449801
-0.24083808 -0.14041498 0.45332071
-0.23485611 -0.14175539 0.45116454
-0.2288419 -0.14043206 0.45051634
-0.18873343 -0.14713149 0.45014352
-0.24318351 -0.13491759 0.45589924
-0.23514019 -0.13500944 0.45283332
-0.22676297 -0.13365254 0.45117357
-0.24374983 -0.12455986 0.45820686
-0.23495409 -0.12488443 0.45501432
-0.22544262 -0.12448949 0.45173725
-0.21534674 -0.12171703 0.45059311
-0.20858446 -0.12123003 0.45016202
-0.19188769 -0.12295149 0.45063487
-0.18863253 -0.12271748 0.45373106
-0.2428457 -0.11915134 0.45927775
-0.23447575 -0.11549848 0.45768365
-0.22505836 -0.11510267 0.454299
-0.21503475 -0.11494587 0.45174125
-0.20705238 -0.11381005 0.45081443
-0.19278318 -0.11479843 0.45167193
-0.1886349 -0.11665767 0.45487154
-0.23296286 -0.10532469 0.45884603
-0.22495545 -0.10501362 0.45682362
-0.21509482 -0.10508597 0.45481086
-0.20553856 -0.10484221 0.45182827
-0.19319378 -0.10486294 0.45058542
-0.18952119 -0.10636561 0.45157415
-0.23076914 -0.097924821 0.45961365
-0.22455773 -0.095666207 0.45888385
-0.21503307 -0.094673485 0.45564681
-0.20513701 -0.094620824 0.45158517
-0.19523574 -0.094713084 0.45125338
-0.18877359 -0.093418241 0.4537006
-0.221103 -0.087955743 0.45955214
-0.21460186 -0.08523386 0.45787585
-0.20488988 -0.085232086 0.45506179
-0.19520511 -0.084934279 0.45480761
-0.18901873 -0.08514668 0.45685816
-0.21346478 -0.075328104 0.45882604
-0.20493455 -0.074911021 0.45749441
-0.19495067 -0.074897714 0.45763937
-0.18905066 -0.075076401 0.45899794
-0.21043333 -0.069145828 0.45986018
-0.20471375 -0.065127276 0.45924383
-0.19565909 -0.065129474 0.45913321
-0.18931149 -0.067772254 0.45973629
-0.20433162 -0.055722188 0.45913649
-0.19694474 -0.056809403 0.45947203
-0.24285269 -0.11480958 0.461979
-0.23865533 -0.11218067 0.46048233
-0.24219337 -0.10481824 0.46227199
-0.23784906 -0.10434334 0.46076265
-0.24188194 -0.094789557 0.46388721
-0.23526335 -0.094696775 0.46170735
-0.22730817 -0.091551296 0.46076611
-0.24139047 -0.085027702 0.46573544
-0.23502611 -0.084981978 0.46359205
-0.22557282 -0.084598862 0.46157238
-0.21884377 -0.081091121 0.46019197
-0.24121968 -0.075311378 0.46800575
-0.23511915 -0.075053871 0.46679634
-0.22508493 -0.075008646 0.46345332
-0.21782699 -0.07413619 0.46068019
-0.18651086 -0.070428163 0.46418548
-0.24061203 -0.069277875 0.46957079
-0.23342071 -0.065895304 0.46862423
-0.22511321 -0.065020852 0.46526626
-0.21521458 -0.065048084 0.46203542
-0.20907851 -0.06389869 0.46033558
-0.19101147 -0.063923754 0.46051741
-0.18804653 -0.064306937 0.46276927
-0.2307618 -0.0565961 0.46927774
-0.2249327 -0.055067375 0.46732235
-0.21505143 -0.054975178 0.4635314
-0.20688373 -0.052630212 0.46056822
-0.19406122 -0.053610452 0.46090585
-0.18864059 -0.055385415 0.46352416
-0.22367848 -0.045745857 0.46879935
-0.2148937 -0.044978809 0.46597531
-0.20506136 -0.045056608 0.46305266
-0.19500662 -0.044974685 0.46293509
-0.18787241 -0.044388663 0.46674564
-0.22109875 -0.037923228 0.46952674
-0.21468177 -0.035379194 0.46855178
-0.20514154 -0.035066169 0.46662503
-0.19517688 -0.035072267 0.46621871
-0.18607159 -0.03380378 0.46878383
-0.1796743 -0.03298736 0.46944499
-0.21139657 -0.026125656 0.46953678
-0.20505531 -0.024974722 0.46728447
-0.19505462 -0.024883006 0.46601388
-0.18575084 -0.025248835 0.46535841
-0.21162 -0.017890669 0.46939325
-0.20434776 -0.017384693 0.46686879
-0.19541769 -0.017510829 0.46564001
-0.18819703 -0.019020084 0.46436095
-0.24105938 -0.064285703 0.47142348
-0.23753476 -0.063656487 0.47076824
-0.18449333 -0.060519386 0.47246206
-0.24063517 -0.055484682 0.47339794
-0.23545671 -0.054823674 0.47185898
-0.18361318 -0.058138885 0.47746554
-0.24046525 -0.045081902 0.47541735
-0.23496401 -0.044976875 0.47362646
-0.2280508 -0.043345604 0.47092625
-0.18277656 -0.042159982 0.47151992
-0.24002923 -0.037746191 0.47620454
-0.23500557 -0.034922678 0.47546756
-0.22538804 -0.034623459 0.47175115
-0.21739405 -0.03124135 0.47046587
-0.18345471 -0.036846928 0.470826
-0.17905754 -0.0347399 0.4705008
-0.24001469 -0.029472001 0.47838438
-0.23466772 -0.024973858 0.47627541
-0.22501899 -0.024888556 0.4725669
-0.21606584 -0.024780447 0.4711712
-0.23368575 -0.01837552 0.47654963
-0.22504674 -0.017934512 0.47343338
-0.21672422 -0.017394515 0.47155303
-0.18014523 -0.070018776 0.48948583
-0.18171421 -0.066515535 0.48373872
-0.17704457 -0.067150049 0.4952071
-0.17357668 -0.073797539 0.50265574
-0.17420129 -0.067683063 0.50639373
-0.17122677 -0.074308142 0.51382774
-0.17392832 -0.064578079 0.51530248
-0.17113765 -0.064012468 0.52322382
-0.16896577 -0.065612935 0.52775526
-0.16407967 -0.066157214 0.53651947
-0.21336782 -0.15174851 0.43953651
-0.20472549 -0.15204398 0.43873656
-0.19798377 -0.1517853 0.43952501
-0.21181731 -0.147754 0.43981025
-0.20457157 -0.14548169 0.43960023
-0.19812457 -0.14610256 0.4398329
-0.20071548 -0.13925977 0.43998703
-0.24222296 -0.15151861 0.44825935
-0.23553653 -0.15200791 0.44607356
-0.22542596 -0.15187708 0.44292
-0.21833201 -0.15121385 0.44098663
-0.19383086 -0.15235163 0.44552225
-0.24281426 -0.1476362 0.44942158
-0.23454174 -0.14516914 0.44774455
-0.22484064 -0.14506167 0.4449012
-0.215957 -0.1442692 0.44240981
-0.20677385 -0.14057225 0.44098702
-0.19481479 -0.1447152 0.44446212
-0.23278509 -0.13507944 0.44950157
-0.2248669 -0.13505614 0.44710839
-0.21496403 -0.1350731 0.44423717
-0.2049206 -0.13458845 0.4421106
-0.19632064 -0.13512158 0.4446795
-0.23094408 -0.12754174 0.44998756
-0.22471173 -0.12517141 0.44897228
-0.21496975 -0.12505376 0.44655916
-0.20483308 -0.12484682 0.44391796
-0.19640279 -0.12491087 0.4459593
-0.22276738 -0.11892053 0.44998789
-0.21430881 -0.11606454 0.44916445
-0.2048118 -0.11448029 0.4469496
-0.19643119 -0.11533166 0.44751728
-0.20469825 -0.10892584 0.44998819
-0.19999677 -0.10892481 0.44998822
-0.19142906 -0.15405583 0.4564009
-0.24371347 -0.14249849 0.4514671
-0.23891497 -0.14137357 0.4509871
-0.19201125 -0.14501867 0.45555818
-0.24293837 -0.1348777 0.45252791
-0.2376969 -0.13457102 0.45135397
-0.19221024 -0.13506138 0.4552224
-0.2425738 -0.1248306 0.45495918
-0.23550045 -0.12466821 0.45258763
-0.2295936 -0.1218366 0.45098782
-0.19200136 -0.12496346 0.45508763
-0.24322937 -0.11460064 0.4569658
-0.234896 -0.11488722 0.45497194
-0.22525507 -0.11473497 0.45195368
-0.21702938 -0.1119289 0.45118818
-0.19188245 -0.11454513 0.45500615
-0.24235052 -0.10575175 0.45763549
-0.23515378 -0.10463788 0.4570795
-0.22469939 -0.10519492 0.45440269
-0.21488415 -0.10493897 0.45331231
-0.20523322 -0.10459311 0.45226711
-0.19462581 -0.10516432 0.45413113
-0.24145107 -0.098857388 0.45998874
-0.23406994 -0.095986716 0.45889363
-0.22474422 -0.095003627 0.456186
-0.21477176 -0.09486533 0.45485836
-0.2046978 -0.094966725 0.45297194
-0.19481583 -0.095196582 0.45435703
-0.23150571 -0.088323779 0.45973909
-0.22471596 -0.085059136 0.45843759
-0.21501753 -0.085208923 0.45683539
-0.20477206 -0.085164115 0.45430338
-0.19508231 -0.08512608 0.45565569
-0.22252625 -0.077558391 0.45976228
-0.21428108 -0.076085791 0.45933503
-0.2050252 -0.075137287 0.4579449
-0.19615747 -0.075028643 0.45813873
-0.21110076 -0.065849669 0.45998994
-0.20513853 -0.064924225 0.45882931
-0.19564946 -0.064721614 0.45841664
-0.21046132 -0.05968187 0.45999017
-0.20440869 -0.055938926 0.45946074
-0.19634199 -0.056342971 0.4593443
-0.18716764 -0.15459405 0.46493468
-0.19031575 -0.14355604 0.4615868
-0.18809266 -0.14520344 0.46613571
-0.1902298 -0.13505334 0.46204594
-0.18794985 -0.13514049 0.46721968
-0.19031952 -0.12655938 0.46158752
-0.18822174 -0.12473567 0.46642238
-0.19027352 -0.11213477 0.46184519
-0.1886832 -0.1153004 0.46654892
-0.19024774 -0.10518835 0.4619883
-0.18907954 -0.10485159 0.467417
-0.24181169 -0.093400665 0.46210662
-0.23793821 -0.092681058 0.46134195
-0.19023868 -0.095226668 0.46204755
-0.18882413 -0.094982572 0.46747357
-0.2419364 -0.085140228 0.46448931
-0.23527808 -0.084514916 0.46252918
-0.22897571 -0.081489429 0.46098939
-0.1907431 -0.084524252 0.46227482
-0.18885113 -0.084912159 0.46744365
-0.24225144 -0.076574273 0.46535328
-0.23504864 -0.07526999 0.46345386
-0.22560185 -0.073703893 0.46108058
-0.21725789 -0.071934268 0.46098983
-0.19117332 -0.074845135 0.46310717
-0.18900156 -0.075416297 0.4678531
-0.24062473 -0.063661762 0.46724012
-0.2349894 -0.065100633 0.46440271
-0.22500624 -0.064905308 0.46226141
-0.21630737 -0.065003291 0.46121442
-0.19068983 -0.06560871 0.46227559
-0.18881495 -0.064529248 0.46692088
-0.2408856 -0.058854599 0.46932364
-0.23445228 -0.055205841 0.46764439
-0.22480704 -0.054757599 0.46514565
-0.21489221 -0.054996416 0.46235099
-0.20639712 -0.051521644 0.46104601
-0.19255216 -0.0534379 0.46239039
-0.18884242 -0.055881996 0.46727028
-0.23355304 -0.045241836 0.46803245
-0.22493389 -0.045326389 0.4669432
-0.21499059 -0.045084156 0.46524936
-0.20482326 -0.04496507 0.46319368
-0.19447047 -0.045007601 0.46567249
-0.18934411 -0.048408862 0.46959057
-0.23307598 -0.035569664 0.46981889
-0.22502503 -0.035137787 0.46919093
-0.21487987 -0.034989409 0.46816012
-0.20487377 -0.034988295 0.4662255
-0.19519927 -0.034690589 0.46732458
-0.18926439 -0.03212405 0.46999121
-0.22342189 -0.027618375 0.46999156
-0.21510425 -0.025100028 0.46956071
-0.20510016 -0.024599859 0.46690229
-0.19450532 -0.024601495 0.46621951
-0.18885982 -0.023711851 0.46949151
-0.2139373 -0.018002473 0.46974179
-0.20505893 -0.017888173 0.46680138
-0.19451661 -0.017853659 0.46595728
-0.18840134 -0.017829031 0.46936676
-0.18457417 -0.16029842 0.47698614
-0.18397138 -0.15441528 0.47576141
-0.18378215 -0.14493401 0.47489753
-0.18369079 -0.13499948 0.47489277
-0.18434756 -0.12502681 0.47466752
-0.18521857 -0.11492607 0.47554937
-0.18564786 -0.10507067 0.47568834
-0.18526427 -0.095058084 0.47560692
-0.18517914 -0.085065477 0.47526985
-0.1863133 -0.07510715 0.47566804
-0.18657242 -0.065262161 0.47583437
-0.18703885 -0.054798361 0.47570771
-0.18681806 -0.044655748 0.4751074
-0.23407838 -0.031464078 0.47099143
-0.19089606 -0.038343713 0.47099096
-0.18611361 -0.03511269 0.47527051
-0.23300748 -0.025177089 0.47182938
-0.22571768 -0.023455355 0.47127739
-0.21878499 -0.020921767 0.47099173
-0.18525052 -0.025024977 0.47508529
-0.2317638 -0.018388726 0.47329193
-0.2244364 -0.018077696 0.47165856
-0.2187036 -0.018051229 0.47099185
-0.18484803 -0.018640213 0.47359174
-0.1840024 -0.16191384 0.4862588
-0.18142121 -0.15561314 0.48420855
-0.17908286 -0.15314184 0.48820072
-0.18066555 -0.14435571 0.48283678
-0.17913887 -0.14583473 0.48768231
-0.18120424 -0.13472101 0.48578715
-0.17965016 -0.13942701 0.48898697
-0.18148243 -0.12480915 0.48519266
-0.1817704 -0.11515465 0.48537672
-0.18152723 -0.10482305 0.48547548
-0.18138921 -0.094846085 0.48501441
-0.18138866 -0.085188389 0.48490807
-0.17952755 -0.081397042 0.48948923
-0.182136 -0.074571393 0.48423955
-0.17961909 -0.07601551 0.48915613
-0.18252754 -0.06495335 0.48409629
-0.17937046 -0.064400107 0.48905236
-0.18281719 -0.05486811 0.48392645
-0.17903751 -0.055310104 0.48885983
-0.18222962 -0.045065217 0.48375985
-0.17916253 -0.044442426 0.48884782
-0.18145066 -0.035097156 0.48347497
-0.1789577 -0.034680299 0.48878273
-0.18131299 -0.026019551 0.4829514
-0.17839542 -0.025023883 0.48711139
-0.18416294 -0.16536532 0.49504149
-0.17873438 -0.1620812 0.49731934
-0.17738299 -0.15535036 0.49527201
-0.17718035 -0.14458758 0.49552521
-0.17739676 -0.13485117 0.49534559
-0.17760263 -0.12499816 0.49537641
-0.18051422 -0.11413479 0.49190462
-0.17778635 -0.11496859 0.49644935
-0.18011844 -0.10879907 0.49198815
-0.17742971 -0.10488535 0.49569991
-0.17824082 -0.095274694 0.4953365
-0.177994 -0.085189827 0.49566349
-0.17716447 -0.074689567 0.49552429
-0.17553131 -0.064905174 0.4953787
-0.17526561 -0.055174276 0.49539405
-0.17632177 -0.045325413 0.4948954
-0.17651391 -0.034858882 0.4952482
-0.17552985 -0.027468331 0.49432474
-0.19202459 -0.17538774 0.50998563
-0.18599412 -0.17160314 0.50698566
-0.18251561 -0.16849448 0.50398582
-0.17640822 -0.16412668 0.50635266
-0.17458771 -0.15478358 0.50580204
-0.17422275 -0.1451025 0.50519884
-0.17375605 -0.13514613 0.50515378
-0.1736083 -0.1246857 0.50507575
-0.17345509 -0.11516416 0.50445294
-0.17311314 -0.10514116 0.50532162
-0.17386062 -0.094824642 0.50469702
-0.17336328 -0.084855296 0.50450027
-0.17310123 -0.075165614 0.50411451
-0.17124993 -0.065400265 0.50485647
-0.16956832 -0.060644448 0.50849003
-0.17156629 -0.054738529 0.50461525
-0.16956875 -0.058652192 0.50849009
-0.17343953 -0.045238297 0.50513351
-0.17488843 -0.035294391 0.50541413
-0.17506093 -0.027700787 0.50515801
-0.20083632 -0.17983907 0.51898545
-0.19375376 -0.17842425 0.51576322
-0.17238881 -0.16529813 0.51458049
-0.17166594 -0.15504763 0.51491737
-0.17156714 -0.14504339 0.51468664
-0.17169164 -0.13503151 0.51478714
-0.17147218 -0.12545253 0.51471823
-0.16983397 -0.12233834 0.51948762
-0.1707031 -0.11498923 0.51394427
-0.16967213 -0.11476355 0.51898795
-0.17070538 -0.10500388 0.51612163
-0.17077321 -0.095380552 0.51465535
-0.16967696 -0.093074009 0.51898873
-0.17050695 -0.08491794 0.51351088
-0.16967878 -0.084940434 0.51898909
-0.17060302 -0.07451383 0.51472026
-0.16968043 -0.077484652 0.51898932
-0.17023915 -0.067373194 0.51476753
-0.16923767 -0.063140355 0.51637453
-0.17051607 -0.051923301 0.51199037
-0.16892399 -0.055169582 0.51582366
-0.17151907 -0.044581354 0.51534778
-0.16891876 -0.047897965 0.51841915
-0.17416988 -0.035538826 0.5156728
-0.17611198 -0.028635332 0.5139913
-0.17032178 -0.13493757 0.52098709
-0.17032345 -0.12745304 0.52098733
-0.16867225 -0.10508469 0.52688831
-0.16877607 -0.094900966 0.52595013
-0.16889344 -0.085004643 0.52498907
-0.16921693 -0.075089 0.52598947
-0.16874497 -0.065009244 0.52594221
-0.16686817 -0.054459959 0.52530056
-0.17099468 -0.041332416 0.52299082
-0.16733716 -0.04549228 0.52556634
-0.17294461 -0.035996184 0.52599102
-0.18194368 -0.027062269 0.52699137
-0.17799035 -0.029729709 0.52549124
-0.16602503 -0.065621138 0.53635824
-0.16394255 -0.055139508 0.53581876
-0.1642741 -0.044820108 0.53549057
-0.17374736 -0.033338882 0.53504115
-0.1682054 -0.037920166 0.53640258
-0.18191172 -0.027471993 0.53499138
-0.17283276 -0.031605214 0.54329884
-0.18351246 -0.027321035 0.54599136
-0.17600299 -0.029005533 0.5470627
