# .PCD v0.7 - Point Cloud Data file format
VERSION 0.7
FIELDS x y z
SIZE 4 4 4
TYPE F F F
COUNT 1 1 1
WIDTH 1
HEIGHT 587
VIEWPOINT 0 0 0 1 0 0 0
POINTS 587
DATA ascii
-0.18266174 -0.17175992 0.43773383
-0.18440084 -0.16485445 0.43782851
-0.19140148 -0.15415347 0.43856764
-0.18751121 -0.15607893 0.43910822
-0.19259678 -0.14474213 0.43806696
-0.18923357 -0.1450759 0.43956041
-0.19427337 -0.13486455 0.43811888
-0.18933286 -0.13788711 0.43964031
-0.20136477 -0.1223565 0.4388724
-0.19691838 -0.1250239 0.4390417
-0.20209624 -0.11387955 0.43895909
-0.19785418 -0.11639324 0.43903929
-0.20448276 -0.10468175 0.43924546
-0.20517597 -0.094810523 0.43772066
-0.21114534 -0.082746483 0.43800446
-0.2074628 -0.08572264 0.43831667
-0.21260364 -0.074761763 0.43895295
-0.20905359 -0.077230394 0.43964162
-0.21448711 -0.066862464 0.43922296
-0.17934377 -0.17352752 0.44519657
-0.18065633 -0.16163795 0.44473824
-0.17923489 -0.16648284 0.4442184
-0.18431053 -0.15498142 0.44436514
-0.18699567 -0.14507166 0.44417295
-0.19101734 -0.13177849 0.44316643
-0.18818496 -0.13599797 0.44499531
-0.20391272 -0.12713109 0.44442627
-0.19325727 -0.12519009 0.44483376
-0.20069924 -0.1103391 0.4407669
-0.19485499 -0.11442079 0.44449511
-0.20092383 -0.10373808 0.44280338
-0.19830398 -0.10693304 0.4455519
-0.20269212 -0.095131427 0.44509965
-0.20471278 -0.084641345 0.44460353
-0.2102997 -0.070344672 0.44278803
-0.20772049 -0.075497665 0.44474727
-0.21265012 -0.064872988 0.44516319
-0.20986259 -0.069811955 0.44678819
-0.17833555 -0.18117481 0.45792842
-0.17847301 -0.17533562 0.45570186
-0.18116426 -0.16285847 0.45580444
-0.17909789 -0.16789365 0.45458111
-0.1840011 -0.1550044 0.45470768
-0.18644747 -0.14505287 0.45464739
-0.19056617 -0.13133264 0.45511845
-0.18846223 -0.13583289 0.45520216
-0.21062596 -0.12929443 0.45475993
-0.19234125 -0.12545508 0.45504826
-0.19329727 -0.11468089 0.45480034
-0.20059283 -0.10066921 0.45434293
-0.19749704 -0.10554624 0.45503682
-0.20285594 -0.095223926 0.45568633
-0.20368111 -0.08472757 0.45546401
-0.21023878 -0.070333272 0.45778802
-0.20733565 -0.075241908 0.45544222
-0.21271673 -0.064693235 0.45555437
-0.22017246 -0.059830334 0.45979509
-0.2173512 -0.059766319 0.45704454
-0.17743601 -0.18308987 0.46606067
-0.18033957 -0.17001151 0.46873417
-0.17819929 -0.17523926 0.46561587
-0.18202782 -0.16446972 0.46548721
-0.17938657 -0.16920452 0.46206769
-0.18537939 -0.15497874 0.4649924
-0.18794717 -0.14515038 0.46553716
-0.21646647 -0.13213763 0.46475983
-0.19059169 -0.13168818 0.46535459
-0.18922745 -0.13665675 0.46538353
-0.19296986 -0.12566513 0.46521956
-0.19518696 -0.11390237 0.46518075
-0.19782536 -0.10447621 0.46501911
-0.20223454 -0.095263027 0.46503755
-0.19980158 -0.099500209 0.46743858
-0.20412326 -0.084929988 0.46568874
-0.20741688 -0.074663796 0.4651801
-0.22281677 -0.060221288 0.46279547
-0.21191065 -0.064167731 0.46517232
-0.2095809 -0.068761535 0.46745527
-0.22177044 -0.057976853 0.46619636
-0.21487081 -0.05677193 0.46706811
-0.20777197 -0.052942086 0.46979582
-0.13578306 -0.032361094 0.4695906
-0.17668073 -0.18481015 0.47540492
-0.18039896 -0.17088099 0.47733378
-0.17840867 -0.1756019 0.47489774
-0.18292463 -0.16520642 0.47535768
-0.18693823 -0.15508227 0.47483799
-0.18905737 -0.14509039 0.47540009
-0.19086042 -0.13283764 0.4754208
-0.18938063 -0.1377884 0.47559765
-0.19433294 -0.12540507 0.47539842
-0.19659224 -0.11499588 0.47488889
-0.19825187 -0.10485578 0.4751921
-0.20225975 -0.094908558 0.47563177
-0.19958609 -0.099390224 0.47077191
-0.20460922 -0.084878467 0.47541329
-0.20686741 -0.074938595 0.47496161
-0.21067111 -0.061872281 0.47079214
-0.20853047 -0.064541943 0.47570348
-0.23099391 -0.058673155 0.47979793
-0.22448501 -0.055228699 0.47609821
-0.21424802 -0.052954707 0.47417808
-0.20486423 -0.05520897 0.47383514
-0.19573802 -0.053501751 0.47708476
-0.18868303 -0.051449515 0.47979254
-0.20442738 -0.049828459 0.47922516
-0.19409253 -0.049379963 0.47896135
-0.18494667 -0.047299519 0.47904378
-0.17845164 -0.045948893 0.47966802
-0.16230687 -0.041609943 0.47950602
-0.15484694 -0.041641109 0.47885263
-0.14419089 -0.042201221 0.47878769
-0.13909139 -0.042007927 0.47953671
-0.16152646 -0.039275724 0.4789927
-0.15446845 -0.03783882 0.47767654
-0.14489168 -0.036035914 0.47538647
-0.13644807 -0.034435112 0.47444087
-0.14073536 -0.029806033 0.47979286
-0.13587308 -0.029700844 0.47812521
-0.17429079 -0.19190997 0.48672247
-0.17636049 -0.18539554 0.48533896
-0.18054797 -0.17091656 0.48523378
-0.17881618 -0.17593017 0.48588482
-0.18358985 -0.16516203 0.48579434
-0.18809493 -0.15487434 0.4853982
-0.18817566 -0.14493528 0.48567092
-0.19138968 -0.13271905 0.48560429
-0.18929532 -0.13790655 0.48544371
-0.19518989 -0.12523839 0.48560247
-0.19756022 -0.11495851 0.48579744
-0.20002948 -0.10044497 0.48377153
-0.19853804 -0.10552057 0.48587593
-0.2025118 -0.094702862 0.48553938
-0.20442609 -0.085079946 0.48601308
-0.20634848 -0.074548878 0.48550737
-0.2341487 -0.061351579 0.48113063
-0.20416051 -0.06552197 0.48463523
-0.19645853 -0.062455643 0.48700318
-0.23339902 -0.058018085 0.48479873
-0.22410364 -0.051919173 0.48469973
-0.21681157 -0.050533075 0.48251313
-0.19333114 -0.057750728 0.48308215
-0.18531653 -0.054587368 0.48515779
-0.17533068 -0.052670985 0.48708647
-0.1656823 -0.052014526 0.48861355
-0.15450476 -0.051800534 0.48878521
-0.14454873 -0.053677779 0.48747459
-0.13844247 -0.054043211 0.48743081
-0.21272478 -0.048999667 0.48570785
-0.20360534 -0.048189286 0.48510492
-0.19464836 -0.046249527 0.48475775
-0.18441267 -0.043310545 0.48458126
-0.17470858 -0.044798594 0.48250714
-0.16577761 -0.045310553 0.48296386
-0.15513316 -0.04648912 0.48366299
-0.14528929 -0.046757784 0.48230183
-0.13770314 -0.044801213 0.4841077
-0.17375873 -0.038937155 0.48804539
-0.16491011 -0.037426781 0.4853206
-0.15484259 -0.033887245 0.48537278
-0.1472005 -0.031300768 0.48354352
-0.13371153 -0.03495954 0.48547313
-0.1422459 -0.028600108 0.48604375
-0.13521239 -0.028742095 0.48304221
-0.17183872 -0.19275926 0.49409655
-0.18018356 -0.17063794 0.49173385
-0.18250515 -0.16364716 0.49448183
-0.18380307 -0.14455263 0.49550116
-0.1908153 -0.13228416 0.49293622
-0.1930047 -0.12466048 0.49521315
-0.12518345 -0.12608095 0.49797228
-0.19391674 -0.11483627 0.49565396
-0.13453136 -0.11488131 0.49836501
-0.12629198 -0.11305995 0.49747005
-0.11523285 -0.11277445 0.49899793
-0.1099985 -0.11070149 0.49974781
-0.19573022 -0.10493942 0.49633771
-0.13462865 -0.10482958 0.49851054
-0.12571366 -0.10578761 0.49746397
-0.11466642 -0.10483815 0.49763495
-0.10967337 -0.10678348 0.4997496
-0.20124142 -0.093974434 0.49384633
-0.13448279 -0.095205471 0.49906796
-0.12526548 -0.095662065 0.4982197
-0.115545 -0.096696272 0.49788886
-0.20224012 -0.084749453 0.49473301
-0.14048068 -0.083069071 0.49976733
-0.13453071 -0.085061491 0.49867585
-0.12638818 -0.083434038 0.49870175
-0.20297228 -0.07516811 0.49382588
-0.19601619 -0.074511774 0.49818727
-0.14336878 -0.074037954 0.4990316
-0.1351863 -0.075561523 0.49733505
-0.12562463 -0.076265685 0.49835724
-0.20093572 -0.06860324 0.49112025
-0.19415642 -0.066742249 0.49404216
-0.1857394 -0.063732781 0.49654123
-0.17490393 -0.062796608 0.49769047
-0.16491045 -0.063477643 0.4979485
-0.15488458 -0.063880257 0.49738926
-0.1450004 -0.064840376 0.4951852
-0.13701516 -0.065834887 0.4952265
-0.23605907 -0.053476896 0.49663481
-0.22835064 -0.050626911 0.49305123
-0.18295595 -0.058335979 0.49188805
-0.17479254 -0.057786368 0.49278662
-0.16475645 -0.056796618 0.49278507
-0.15553878 -0.056494061 0.49248913
-0.14566511 -0.058562696 0.49124175
-0.13717334 -0.058440924 0.49466732
-0.2239522 -0.04844027 0.49615851
-0.21477887 -0.046853721 0.49532962
-0.20482516 -0.045227662 0.49566251
-0.19576153 -0.041965853 0.49554855
-0.18781354 -0.040820524 0.49146411
-0.13596381 -0.043235023 0.49615389
-0.19106978 -0.03943377 0.49829876
-0.18458216 -0.038693257 0.49617276
-0.1752394 -0.03663167 0.49536824
-0.16556205 -0.033794969 0.49652341
-0.15713042 -0.031556807 0.49492046
-0.13264233 -0.03594885 0.4953652
-0.15339397 -0.02915428 0.49712911
-0.14491284 -0.026959792 0.49500939
-0.13561924 -0.026730323 0.49586469
-0.1311696 -0.070364289 0.50077152
-0.13067688 -0.034689657 0.50220507
-0.11083537 -0.18196401 0.42727995
-0.1047468 -0.18389438 0.42805302
-0.095423847 -0.18318479 0.42909846
-0.087112412 -0.1820087 0.42923582
-0.10355964 -0.17855427 0.42887062
-0.093819521 -0.17908195 0.42955488
-0.087200299 -0.17892972 0.42950189
-0.08244206 -0.1814477 0.43046769
-0.10008796 -0.17721328 0.43005359
-0.094495483 -0.1752692 0.43135491
-0.084690586 -0.17460936 0.43329683
-0.079363227 -0.17875999 0.43204591
-0.091914184 -0.16698611 0.43628338
-0.088490792 -0.169549 0.43622959
-0.095213562 -0.15185319 0.43934751
-0.096791625 -0.1440305 0.4387351
-0.10062723 -0.13145427 0.43655837
-0.097779475 -0.13539252 0.43848088
-0.10186198 -0.12693723 0.43790287
-0.099646226 -0.12982126 0.43993193
-0.10948825 -0.10089078 0.43889272
-0.1107168 -0.095865108 0.43928179
-0.10894009 -0.098292135 0.43880844
-0.086868279 -0.17277843 0.44545731
-0.092711791 -0.1645982 0.44563407
-0.089342728 -0.16931112 0.44378576
-0.092516214 -0.15514222 0.44464609
-0.089755848 -0.15361628 0.44950104
-0.10897191 -0.14893846 0.44794145
-0.093201421 -0.14541444 0.44398189
-0.096348554 -0.1349761 0.44478098
-0.10344341 -0.12438796 0.44513223
-0.099435307 -0.12947163 0.44467524
-0.11030525 -0.11278787 0.44694304
-0.10809428 -0.11557347 0.44811791
-0.11040314 -0.10543823 0.44195345
-0.10779049 -0.10450058 0.44544351
-0.11196113 -0.092123561 0.44369677
-0.1076808 -0.096330941 0.44505456
-0.12131389 -0.083631344 0.44771242
-0.11473828 -0.085251734 0.44642514
-0.12210854 -0.07409288 0.44877213
-0.11759915 -0.077358954 0.44860995
-0.21134566 -0.061940998 0.44909951
-0.20944355 -0.064945854 0.44923317
-0.1217661 -0.065044589 0.44582301
-0.11936331 -0.063689217 0.44805044
-0.21352327 -0.05829991 0.44883442
-0.12204165 -0.054281149 0.44511598
-0.11953287 -0.056969602 0.44792476
-0.13230453 -0.043887421 0.44770324
-0.1244859 -0.045185406 0.44660363
-0.13223736 -0.037703075 0.4483965
-0.12589782 -0.037347011 0.44760546
-0.091903448 -0.1815653 0.45749569
-0.090303257 -0.17854451 0.45732605
-0.088138603 -0.17319509 0.4549804
-0.090684868 -0.16493604 0.45131677
-0.088175692 -0.16518764 0.45561936
-0.11471236 -0.15441886 0.45457208
-0.090146147 -0.15102504 0.45262849
-0.088721797 -0.15561385 0.45476657
-0.092298456 -0.14500178 0.45459795
-0.09633109 -0.13471718 0.45483121
-0.10228117 -0.12453109 0.45483637
-0.09924268 -0.12935056 0.45549467
-0.11694898 -0.1160201 0.45099708
-0.10567996 -0.1153269 0.45504358
-0.19741465 -0.10284507 0.45888183
-0.10568629 -0.10511009 0.45474434
-0.2005583 -0.091406718 0.45678207
-0.19892198 -0.096033774 0.4575049
-0.13066326 -0.090528905 0.45542154
-0.1272518 -0.095675543 0.45265162
-0.11071373 -0.0913096 0.45459318
-0.10736869 -0.096185558 0.45501125
-0.20255017 -0.084644631 0.4562583
-0.13315186 -0.083849654 0.45686844
-0.12918265 -0.087032214 0.45368889
-0.11230477 -0.084920235 0.45488736
-0.20589323 -0.075238734 0.45519483
-0.11552456 -0.074912652 0.45441091
-0.21121161 -0.062433384 0.45578426
-0.20905618 -0.066865377 0.4534485
-0.1181319 -0.065272264 0.45437539
-0.21420817 -0.058369748 0.45526892
-0.12027152 -0.051936157 0.45627469
-0.11936387 -0.056064758 0.45414546
-0.12196308 -0.045126397 0.45448133
-0.14311166 -0.036914133 0.45717978
-0.13426162 -0.033290468 0.45454094
-0.12496689 -0.035322316 0.45485336
-0.094570547 -0.18407471 0.46570212
-0.090945125 -0.17904124 0.46432474
-0.088216692 -0.17340936 0.46507055
-0.086984679 -0.16479477 0.46432874
-0.090976186 -0.15288623 0.46531937
-0.088783421 -0.15683468 0.46345177
-0.18596567 -0.14154001 0.46941602
-0.093237057 -0.14504343 0.46469247
-0.19026802 -0.13055721 0.46678486
-0.18800929 -0.13453373 0.46797258
-0.096312627 -0.13502885 0.46464786
-0.19342497 -0.12500519 0.4686459
-0.10126077 -0.12349918 0.46464622
-0.099120028 -0.12842801 0.46489313
-0.19554134 -0.11450358 0.46619555
-0.10354752 -0.11539631 0.46510941
-0.19759563 -0.10524831 0.46493354
-0.10532168 -0.10517141 0.46491921
-0.2007318 -0.093528166 0.46567005
-0.19949123 -0.098094322 0.46382946
-0.13724746 -0.094137467 0.46200967
-0.11072544 -0.092101559 0.46556747
-0.10811137 -0.096684642 0.46413529
-0.20253228 -0.085027583 0.46492109
-0.14032783 -0.085510746 0.46332762
-0.13700892 -0.085723996 0.46030921
-0.11194848 -0.085078523 0.46515527
-0.20705846 -0.075061761 0.46524841
-0.14592569 -0.075586073 0.46756235
-0.11479134 -0.075069755 0.46469969
-0.21132767 -0.064070709 0.46550554
-0.20959276 -0.068667077 0.46163723
-0.12020564 -0.062066983 0.4681817
-0.11883042 -0.065410502 0.46445072
-0.22687161 -0.058281105 0.46769008
-0.21415642 -0.057480782 0.46634558
-0.14665732 -0.051718339 0.46161866
-0.12094808 -0.054696944 0.46530125
-0.11969653 -0.05757536 0.46053219
-0.15376331 -0.040507294 0.46540782
-0.14833291 -0.041305587 0.46053645
-0.12315628 -0.044856742 0.46501625
-0.15359981 -0.038602915 0.46699116
-0.14859626 -0.034953568 0.46657908
-0.13472693 -0.030466575 0.46565118
-0.12577918 -0.034286939 0.46501562
-0.13216279 -0.029716104 0.46826527
-0.10413141 -0.19446869 0.47652939
-0.099904135 -0.19092309 0.47349596
-0.095241465 -0.18476385 0.47528288
-0.17666177 -0.17218611 0.47927481
-0.090912849 -0.17848723 0.47598818
-0.089177795 -0.17344496 0.47504207
-0.18172714 -0.16270521 0.4786137
-0.17866822 -0.1674172 0.47876698
-0.091061018 -0.16259651 0.47688404
-0.088801533 -0.16610339 0.47379631
-0.18393764 -0.15478913 0.47669226
-0.092947021 -0.15517806 0.47480655
-0.18578142 -0.14493495 0.47496372
-0.095626973 -0.14485981 0.47505337
-0.1901571 -0.13014929 0.47286943
-0.18803269 -0.13499989 0.4745754
-0.097553849 -0.13495687 0.47537401
-0.19379342 -0.12470829 0.4752385
-0.18984248 -0.12978314 0.47653705
-0.10075073 -0.12309841 0.47446424
-0.099388473 -0.1278066 0.47466436
-0.19658086 -0.11506303 0.47549999
-0.10351054 -0.11558015 0.47495526
-0.20013076 -0.10079421 0.47407949
-0.19865714 -0.10548049 0.47502539
-0.15079071 -0.10459001 0.47732398
-0.1066474 -0.10545759 0.47493532
-0.20067103 -0.094515279 0.47421253
-0.19954993 -0.095905811 0.47824112
-0.15258713 -0.094663925 0.47675213
-0.14832476 -0.096794531 0.47310272
-0.11081479 -0.092321098 0.47500825
-0.10913112 -0.097452261 0.47429022
-0.20244531 -0.084677644 0.47500503
-0.19991432 -0.088877045 0.47899234
-0.15258984 -0.086998507 0.47588438
-0.11220945 -0.085236169 0.47440514
-0.21017833 -0.070575155 0.47165933
-0.2073022 -0.075210132 0.4756048
-0.15224122 -0.079235055 0.47461003
-0.12049204 -0.070637964 0.47835556
-0.11663317 -0.075635038 0.47482082
-0.23841794 -0.060236022 0.47554573
-0.21068312 -0.065485597 0.47231826
-0.20845059 -0.064455323 0.47661814
-0.15445676 -0.065736294 0.47319078
-0.12115682 -0.064048208 0.47536889
-0.11941811 -0.068770573 0.47208411
-0.23350577 -0.058065187 0.47580498
-0.22408138 -0.055087585 0.47582194
-0.21293473 -0.055003904 0.47339264
-0.20634378 -0.055760186 0.47638372
-0.16809644 -0.05148695 0.47848666
-0.15597916 -0.054453291 0.47052443
-0.12234846 -0.054805525 0.47548887
-0.17284624 -0.047445949 0.47916031
-0.16552438 -0.046188466 0.47530472
-0.15995188 -0.044663884 0.47020808
-0.12474146 -0.044903867 0.47529611
-0.16366197 -0.03874113 0.47710979
-0.15495256 -0.034144595 0.4760111
-0.14483105 -0.03157251 0.47159433
-0.12642725 -0.034684557 0.47494966
-0.14234638 -0.029457795 0.476895
-0.13405119 -0.029226098 0.47526586
-0.12996621 -0.029914454 0.47017083
-0.16080089 -0.21078353 0.48670769
-0.15942921 -0.21025871 0.48880595
-0.16308811 -0.20492397 0.48735377
-0.15884358 -0.20923349 0.48951691
-0.11468612 -0.20545909 0.48730835
-0.10919462 -0.20153907 0.48649803
-0.1706946 -0.19214986 0.48615977
-0.16795069 -0.19690643 0.4871777
-0.1040097 -0.19639142 0.48635674
-0.098554976 -0.19027489 0.48556221
-0.17271125 -0.18489963 0.4860605
-0.16978498 -0.18917951 0.48987398
-0.093704112 -0.18415472 0.48544291
-0.17503729 -0.17476001 0.48571894
-0.090341479 -0.1749344 0.48536298
-0.089488804 -0.17442165 0.48592305
-0.18134914 -0.16183741 0.48451152
-0.17789865 -0.16626368 0.48615387
-0.092390433 -0.1649417 0.48556203
-0.18442571 -0.15542038 0.48570383
-0.095166087 -0.15518014 0.48552626
-0.18643335 -0.14515449 0.48573574
-0.096771248 -0.1448601 0.48536241
-0.18793082 -0.13501863 0.48511958
-0.097759746 -0.13493958 0.48549578
-0.19186939 -0.1235543 0.48372179
-0.18918419 -0.12717275 0.48690847
-0.10153797 -0.12409922 0.48495933
-0.099516548 -0.12869702 0.48498416
-0.19476731 -0.11511412 0.48525625
-0.10539927 -0.11474582 0.48536822
-0.19788195 -0.10506009 0.48500407
-0.16475688 -0.10254272 0.4890857
-0.10872203 -0.10486578 0.48562893
-0.19865569 -0.094869129 0.48496646
-0.16495353 -0.096844874 0.48840842
-0.15768783 -0.095071197 0.48179987
-0.11093615 -0.093969405 0.48509261
-0.10987268 -0.098635383 0.48539567
-0.20072265 -0.083652429 0.48434374
-0.19968325 -0.087366506 0.48613012
-0.1137804 -0.085086234 0.48504415
-0.20491904 -0.074813269 0.48516077
-0.12067993 -0.071749456 0.48435774
-0.11831141 -0.076661423 0.48574075
-0.25446105 -0.062383674 0.48991513
-0.20491119 -0.065169916 0.48504293
-0.19559355 -0.062090222 0.48833674
-0.18432729 -0.062324382 0.48844492
-0.17552783 -0.062323894 0.48824474
-0.12179948 -0.065302186 0.48523042
-0.24953081 -0.058665209 0.48947248
-0.23448946 -0.053845134 0.48637435
-0.22434409 -0.051884007 0.48551264
-0.21628636 -0.05135889 0.48340973
-0.20337863 -0.054140557 0.48178616
-0.19521561 -0.054851435 0.48336324
-0.18549843 -0.05471392 0.48397753
-0.17565143 -0.055029552 0.4828842
-0.12323685 -0.055249758 0.48499462
-0.2131377 -0.049462296 0.48861349
-0.20417243 -0.048889942 0.48755449
-0.19463025 -0.048479628 0.48554343
-0.18447837 -0.046712477 0.48529866
-0.17642339 -0.044381443 0.48297396
-0.16904695 -0.040439174 0.4805021
-0.12571816 -0.045553803 0.48478577
-0.17095025 -0.036559068 0.48817289
-0.16321658 -0.034710545 0.48373383
-0.15935858 -0.031958908 0.48592365
-0.14894332 -0.030144639 0.48014346
-0.1267575 -0.035051659 0.48475048
-0.15419167 -0.02923739 0.48828709
-0.14482632 -0.028238557 0.48433417
-0.13451192 -0.028416816 0.48477006
-0.12997319 -0.029878065 0.48727846
-0.15687771 -0.21071002 0.49139094
-0.16195607 -0.20230474 0.49115551
-0.112257 -0.20765467 0.49184784
-0.16468328 -0.19464956 0.49258807
-0.10203849 -0.19745864 0.49288383
-0.17080715 -0.18404517 0.49033603
-0.16518348 -0.18499817 0.4933126
-0.092063263 -0.18679243 0.49278852
-0.17137307 -0.17447196 0.49089655
-0.165053 -0.17502716 0.49313897
-0.090369493 -0.17071283 0.49118546
-0.17406225 -0.16417728 0.4928838
-0.091496512 -0.16442212 0.49231055
-0.18181328 -0.15397723 0.49207446
-0.092870176 -0.15438062 0.49443954
-0.18280825 -0.14474557 0.49353462
-0.09374398 -0.14525774 0.49552581
-0.18416777 -0.13480087 0.49440968
-0.095075808 -0.13485172 0.49511245
-0.19022276 -0.12094761 0.49205336
-0.18551093 -0.12503983 0.49532071
-0.10175515 -0.12297377 0.49401838
-0.098376818 -0.12699072 0.4964909
-0.19189575 -0.11444775 0.49258131
-0.1854123 -0.11525174 0.49653772
-0.16767834 -0.11105895 0.49370131
-0.10411722 -0.11499581 0.49551615
-0.19396311 -0.1049315 0.49329567
-0.18539529 -0.10521606 0.49628952
-0.17569329 -0.10488348 0.49552414
-0.16828637 -0.10618886 0.49261966
-0.10689867 -0.10527152 0.49568471
-0.19500242 -0.095016934 0.49395287
-0.1854251 -0.095158726 0.49720451
-0.17572662 -0.095204301 0.49575794
-0.16824892 -0.096025243 0.49112409
-0.11065269 -0.092847072 0.49426422
-0.1088291 -0.096142471 0.49669918
-0.20020191 -0.083883367 0.49061033
-0.19570585 -0.084960058 0.49473551
-0.18518195 -0.085134581 0.49782345
-0.17650421 -0.086457096 0.49679735
-0.11303505 -0.084583595 0.49530834
-0.10941228 -0.088150397 0.49925905
-0.20141755 -0.074747905 0.49096876
-0.19536768 -0.075332128 0.49457839
-0.18519235 -0.075106241 0.49774939
-0.17835142 -0.070906214 0.49649751
-0.12050057 -0.071370259 0.49218553
-0.11702216 -0.075604461 0.4960984
-0.25781894 -0.061240859 0.49394804
-0.20172173 -0.068419047 0.49061576
-0.19501421 -0.067261122 0.49153924
-0.18526095 -0.067125835 0.4923642
-0.17686985 -0.067163378 0.49248192
-0.12124319 -0.064409159 0.49441555
-0.1190467 -0.06771189 0.49779722
-0.25526595 -0.057121892 0.49639511
-0.24550508 -0.053630911 0.49466011
-0.23561884 -0.051404264 0.49317676
-0.22711332 -0.050253056 0.49167129
-0.12371205 -0.055250846 0.49528816
-0.23355615 -0.049323548 0.49753055
-0.22356747 -0.048502896 0.49596152
-0.21419206 -0.047980286 0.49430165
-0.20534424 -0.046178434 0.49552473
-0.1948041 -0.044201329 0.49454969
-0.18706086 -0.041587502 0.49576631
-0.12616234 -0.0450649 0.49480593
-0.18189208 -0.038600858 0.49768603
-0.17460258 -0.03494852 0.49763593
-0.16622178 -0.031334013 0.49587744
-0.13066965 -0.03018542 0.49612001
-0.12782757 -0.035011616 0.49537534
-0.16120334 -0.029382519 0.49474242
-0.15379426 -0.026957422 0.49536607
-0.14378218 -0.026205784 0.49484015
-0.13495111 -0.027917124 0.49464649
-0.12078513 -0.060807206 0.50063509
