# .PCD v0.7 - Point Cloud Data file format
VERSION 0.7
FIELDS x y z
SIZE 4 4 4
TYPE F F F
COUNT 1 1 1
WIDTH 1391
HEIGHT 1
VIEWPOINT 0 0 0 1 0 0 0
POINTS 1391
DATA ascii
0.089700192 0.015119702 0.55989724
0.090698212 0.015714189 0.56053871
0.091696203 0.016308675 0.56118023
0.093281209 0.016889177 0.56101084
0.094277263 0.017482497 0.56165111
0.095273286 0.018075814 0.56229132
0.096269339 0.018669134 0.56293154
0.097844571 0.019243797 0.56275594
0.098838657 0.019835949 0.5633949
0.099832743 0.020428099 0.56403381
0.10140014 0.020998091 0.56385314
0.10239226 0.021589071 0.56449091
0.10338438 0.022180054 0.56512856
0.13682315 0.038098387 0.57355231
0.13779372 0.038676523 0.57417619
0.13876426 0.039254658 0.57480001
0.14024341 0.039772086 0.57456255
0.14121202 0.040349055 0.57518518
0.14218061 0.040926024 0.57580769
0.14365193 0.041438784 0.57556534
0.14461856 0.042014584 0.57618666
0.14558518 0.042590383 0.57680798
0.14655182 0.043166183 0.57742923
0.14751844 0.043741982 0.57805055
0.14897801 0.044247735 0.57780057
0.14994267 0.044822365 0.57842064
0.15139635 0.045324616 0.57816684
0.15235907 0.04589808 0.57878566
0.15332177 0.04647154 0.57940447
0.15428448 0.047045004 0.58002329
0.15524718 0.047618467 0.58064204
0.15668909 0.048113711 0.58038068
0.15764984 0.048686005 0.58099824
0.15861058 0.049258299 0.58161581
0.16004466 0.049748871 0.58134943
0.16100344 0.050319999 0.58196568
0.16196223 0.050891127 0.582582
0.16292101 0.051462255 0.58319825
0.16387981 0.052033383 0.5838145
0.16530208 0.052516948 0.58354056
0.1662589 0.053086907 0.58415562
0.16721573 0.053656865 0.58477062
0.16863023 0.054135755 0.58449161
0.17004074 0.054612309 0.58421016
0.17099364 0.055179931 0.58482265
0.17194656 0.055747554 0.58543515
0.17334928 0.056219436 0.58514857
0.17474803 0.056688987 0.58485949
0.17569701 0.057254277 0.58546948
0.17664599 0.05781956 0.58607948
0.17759499 0.058384851 0.58668947
0.17898396 0.058848552 0.58639407
0.17993097 0.059412673 0.58700281
0.180878 0.05997679 0.58761156
0.18225913 0.060435828 0.58731115
0.18363634 0.06089253 0.58700824
0.18457945 0.061454318 0.58761442
0.18552254 0.0620161 0.5882206
0.18689191 0.062468123 0.58791262
0.18783304 0.063028738 0.58851755
0.18919654 0.063477263 0.58820581
0.19055611 0.063923448 0.58789158
0.19149332 0.064481728 0.58849394
0.19243054 0.065040015 0.58909643
0.19378227 0.065481529 0.58877707
0.19471753 0.066038638 0.58937824
0.19565278 0.066595756 0.58997941
0.19658804 0.067152865 0.59058058
0.1975233 0.067709975 0.5911817
0.19886324 0.068144485 0.59085476
0.19979654 0.068700433 0.59145468
0.20072985 0.069256365 0.59205461
0.20166314 0.069812313 0.59265447
0.20259644 0.07036826 0.59325433
0.20352975 0.070924208 0.59385425
0.20446303 0.071480155 0.59445417
0.2057873 0.071905315 0.59411722
0.20671865 0.0724601 0.59471583
0.20764998 0.07301487 0.5953145
0.20858131 0.073569641 0.59591317
0.20951265 0.074124426 0.59651172
0.21082513 0.074542575 0.59616727
0.2117545 0.075096183 0.59676462
0.21268389 0.07564979 0.59736198
0.21361326 0.076203406 0.5979594
0.21491599 0.076615721 0.59760857
0.21584341 0.077168159 0.59820461
0.2171402 0.07757698 0.59785008
0.2184331 0.077983454 0.59749293
0.21935658 0.078533553 0.59808654
0.22064361 0.078936532 0.59772563
0.22156513 0.079485461 0.59831798
0.22284627 0.079884931 0.59795332
0.22376585 0.080432706 0.59854436
0.22468542 0.080980472 0.5991354
0.22595872 0.081375271 0.59876573
0.22687632 0.081921868 0.59935552
0.22814375 0.082313165 0.59898204
0.22905938 0.082858592 0.59957057
0.22997504 0.083404034 0.60015917
0.23089069 0.083949462 0.6007477
0.23180634 0.084494889 0.60133624
0.23306198 0.084879175 0.60095519
0.23397568 0.085423455 0.60154247
0.23488936 0.085967705 0.60212976
0.23580305 0.08651197 0.60271704
0.23704891 0.086890429 0.60232973
0.23796064 0.087433517 0.6029157
0.23887236 0.08797662 0.60350174
0.23978409 0.088519707 0.60408777
0.24102013 0.088892318 0.60369408
0.24192989 0.089434244 0.60427892
0.24283966 0.089976184 0.60486364
0.24406785 0.090344116 0.60446495
0.24497566 0.090884879 0.60504848
0.24588346 0.091425635 0.60563195
0.24679129 0.091966406 0.60621548
0.24769908 0.092507154 0.60679901
0.24891552 0.092868082 0.60639268
0.24982138 0.093407683 0.60697496
0.25072724 0.093947269 0.60755718
0.25163308 0.094486862 0.60813946
0.25283968 0.09484195 0.60772693
0.25374356 0.095380381 0.6083079
0.25464743 0.095918797 0.60888886
0.25555134 0.096457228 0.60946989
0.25674817 0.096806467 0.60905099
0.25765011 0.097343728 0.6096307
0.25855201 0.097880989 0.61021042
0.25945395 0.098418251 0.61079013
0.26064095 0.098761648 0.61036503
0.26154092 0.099297747 0.61094344
0.26272207 0.099637657 0.61051452
0.26362008 0.10017257 0.61109173
0.26451808 0.1007075 0.61166894
0.26569134 0.10104272 0.6112349
0.26658741 0.10157647 0.61181092
0.26748344 0.10211022 0.61238682
0.26864892 0.10244079 0.61194783
0.26954299 0.10297337 0.61252248
0.27043706 0.10350597 0.61309719
0.27133113 0.10403855 0.6136719
0.27248681 0.10436326 0.61322653
0.27337891 0.10489468 0.61379993
0.27427107 0.1054261 0.61437339
0.27516317 0.10595752 0.61494684
0.27605531 0.10648893 0.61552024
0.27694744 0.10702034 0.61609364
0.27808934 0.10733689 0.61563951
0.27897951 0.10786714 0.61621165
0.27986968 0.10839739 0.61678386
0.28075981 0.10892764 0.617356
0.28189194 0.10923834 0.61689556
0.28278017 0.10976743 0.61746645
0.28366834 0.11029651 0.61803734
0.28479263 0.11060254 0.61757189
0.28567886 0.11113045 0.61814153
0.28656512 0.11165837 0.61871117
0.28768158 0.11195974 0.61824065
0.28856581 0.11248648 0.61880898
0.28945011 0.11301323 0.61937737
0.2903344 0.11353998 0.61994576
0.29144102 0.1138355 0.61946893
0.29232335 0.11436106 0.62003607
0.29320568 0.11488664 0.6206032
0.29408798 0.11541222 0.62117028
0.29518479 0.11570191 0.62068719
0.29606512 0.11622632 0.62125301
0.2971561 0.11651249 0.6207661
0.29803449 0.11703574 0.62133074
0.29911953 0.11731841 0.62084001
0.29999596 0.11784048 0.62140334
0.30107519 0.11811966 0.62090886
-0.18309689 -0.11586544 0.48187739
-0.18096787 -0.11496373 0.48205793
-0.179811 -0.11427464 0.4828015
-0.17768782 -0.11337644 0.48297825
-0.17556858 -0.1124806 0.48315242
-0.17441565 -0.11179385 0.48389345
-0.17230225 -0.11090147 0.48406392
-0.17115134 -0.11021589 0.48480368
-0.17000043 -0.10953031 0.48554346
-0.16884947 -0.10884473 0.48628324
-0.1667459 -0.10795821 0.48644739
-0.16559696 -0.1072738 0.48718593
-0.16444796 -0.10658936 0.48792446
-0.16329902 -0.10590495 0.48866296
-0.16309476 -0.10541678 0.48998216
-0.16194385 -0.10473121 0.49072194
-0.16079295 -0.10404562 0.49146169
-0.15964198 -0.10336002 0.49220151
-0.15755409 -0.10248284 0.49235559
-0.15640515 -0.10179843 0.49309412
-0.15525615 -0.10111402 0.49383262
-0.15317613 -0.10024153 0.49398163
-0.15110004 -0.099371359 0.49412814
-0.14995497 -0.098689288 0.49486414
-0.14788473 -0.097822621 0.49500683
-0.14674163 -0.097141713 0.49574155
-0.14467722 -0.096278533 0.49588048
-0.14261681 -0.095417738 0.49601692
-0.14147764 -0.094739154 0.49674913
-0.13942313 -0.093881853 0.49688178
-0.13828588 -0.093204431 0.49761274
-0.13532573 -0.092174195 0.49713945
-0.13419247 -0.091499142 0.49786791
-0.1321516 -0.090649992 0.49799171
-0.13011473 -0.089803196 0.49811298
-0.12898535 -0.089130454 0.4988389
-0.12695432 -0.088287175 0.49895641
-0.12492716 -0.087446183 0.49907139
-0.12380177 -0.086775795 0.49979478
-0.12178057 -0.085938342 0.49990597
-0.11976326 -0.085103199 0.50001472
-0.11864173 -0.08443515 0.50073558
-0.11663032 -0.083603516 0.50084049
-0.1155107 -0.082936622 0.50156009
-0.11350524 -0.082108513 0.50166118
-0.11238766 -0.081442781 0.50237954
-0.11038792 -0.080618158 0.50247693
-0.1092723 -0.079953596 0.50319397
-0.10727853 -0.079132497 0.50328755
-0.10616484 -0.078469105 0.50400341
-0.10505116 -0.077805705 0.50471926
-0.10306525 -0.076989271 0.50480771
-0.10195351 -0.076327041 0.50552231
-0.10084179 -0.075664811 0.50623691
-0.098863721 -0.074853048 0.50632042
-0.097753972 -0.07419198 0.50703371
-0.096644223 -0.073530927 0.50774705
-0.094673932 -0.072723828 0.50782543
-0.09356612 -0.072063938 0.50853747
-0.092458308 -0.07140404 0.50924957
-0.090495944 -0.070601627 0.509323
-0.089390069 -0.069942899 0.51003379
-0.088284254 -0.069284178 0.51074457
-0.086329699 -0.068486422 0.51081294
-0.085225821 -0.067828879 0.51152241
-0.084121943 -0.06717132 0.51223201
-0.082175255 -0.066378236 0.51229531
-0.080232441 -0.065587506 0.5123561
-0.079132497 -0.064932272 0.51306313
-0.077195525 -0.064145036 0.51312011
-0.076097548 -0.063490987 0.51382589
-0.074166536 -0.062707253 0.51387906
-0.073070496 -0.062054358 0.51458359
-0.071974456 -0.061401486 0.51528811
-0.070051253 -0.060622416 0.51533628
-0.06895721 -0.059970707 0.51603949
-0.067039907 -0.059195146 0.51608396
-0.065947771 -0.058544599 0.51678592
-0.064036399 -0.057772554 0.51682651
-0.06294623 -0.057123169 0.51752728
-0.06104064 -0.056354612 0.51756406
-0.059952438 -0.055706397 0.51826358
-0.058864266 -0.055058196 0.51896298
-0.056966543 -0.054294311 0.51899481
-0.055072784 -0.053532772 0.51902407
-0.053988516 -0.052886888 0.51972103
-0.052100658 -0.052128859 0.51974654
-0.051018357 -0.051484145 0.52044225
-0.049936056 -0.050839439 0.52113789
-0.048055947 -0.050086066 0.52115834
-0.046975613 -0.04944253 0.52185273
-0.045895219 -0.048798978 0.52254713
-0.044814885 -0.048155442 0.52324152
-0.04294464 -0.047407914 0.52325571
-0.041866243 -0.04676554 0.52394891
-0.040787876 -0.046123173 0.52464199
-0.039709479 -0.045480799 0.52533519
-0.038631082 -0.044838432 0.52602834
0.078499913 0.0091727842 0.55023348
0.07949397 0.0097649358 0.55087245
0.080488056 0.010357086 0.55151141
0.081482142 0.010949237 0.55215037
0.082476228 0.011541387 0.55278933
0.083470285 0.012133541 0.55342829
0.083858788 0.012731491 0.55486596
0.084854811 0.013324808 0.55550623
0.085850865 0.013918128 0.55614638
0.086247206 0.014520748 0.55758917
0.087245226 0.015115237 0.55823064
0.088243216 0.015709722 0.5588721
0.089241236 0.016304208 0.55951357
0.090239227 0.016898697 0.56015503
0.091237217 0.017493183 0.5607965
0.092235237 0.018087668 0.56143802
0.093819171 0.018664679 0.56126821
0.094815224 0.019257996 0.56190836
0.095811248 0.019851314 0.56254864
0.097387403 0.020423651 0.56237376
0.09838149 0.021015801 0.56301272
0.099375576 0.021607952 0.56365168
0.10094386 0.022175618 0.56347179
0.1324226 0.03762795 0.57301348
0.13339707 0.038208421 0.57363987
0.13488889 0.038730536 0.57341075
0.1358614 0.039309837 0.57403588
0.13734734 0.039828449 0.57380307
0.13831788 0.040406585 0.57442689
0.13928846 0.04098472 0.57505071
0.14076656 0.041498654 0.57481277
0.14173515 0.042075623 0.5754354
0.14270374 0.042652592 0.57605791
0.14417401 0.043161858 0.57581502
0.14514063 0.043737657 0.57643634
0.14610726 0.044313457 0.57705766
0.14707389 0.044889256 0.57767898
0.14853436 0.045392685 0.57742977
0.14949903 0.045967311 0.57804978
0.1504637 0.046541944 0.57866985
0.15191631 0.047040701 0.57841557
0.15287901 0.047614161 0.57903433
0.15384172 0.048187625 0.57965314
0.15528649 0.048681706 0.5793938
0.15624724 0.049254 0.58001137
0.157208 0.049826298 0.58062887
0.15816873 0.050398596 0.58124644
0.15912949 0.05097089 0.581864
0.1605625 0.051457964 0.58159709
0.16152129 0.052029092 0.5822134
0.16248007 0.05260022 0.58282965
0.16343886 0.053171348 0.58344591
0.16486204 0.053652585 0.5831728
0.16581887 0.054222543 0.5837878
0.16677569 0.054792505 0.5844028
0.16819109 0.055269063 0.58412457
0.16914596 0.055837855 0.58473825
0.17055541 0.056310914 0.58445632
0.17150831 0.056878537 0.58506882
0.17246121 0.057446163 0.58568132
0.17386289 0.057914551 0.58539426
0.17481384 0.058481008 0.58600545
0.17620955 0.058945894 0.5857147
0.17715855 0.059511185 0.58632463
0.17810753 0.060076468 0.58693457
0.17949544 0.060536675 0.58663875
0.18044245 0.061100792 0.58724749
0.18138948 0.061664917 0.58785617
0.18276957 0.06212046 0.58755529
0.18414572 0.062573664 0.58725184
0.18508881 0.063135445 0.58785802
0.18645908 0.063585147 0.58755082
0.18740022 0.064145766 0.58815575
0.18834136 0.064706378 0.58876073
0.18970379 0.065151408 0.58844846
0.19064298 0.065710858 0.58905208
0.19199952 0.066152379 0.58873606
0.19293673 0.066710658 0.58933854
0.19387394 0.067268938 0.58994091
0.19522265 0.067705795 0.58961987
0.1961579 0.068262905 0.59022099
0.19709317 0.068820015 0.59082216
0.19802843 0.069377132 0.59142327
0.19896369 0.069934241 0.59202445
0.19989894 0.070491351 0.59262562
0.20123392 0.070920028 0.59229565
0.20216721 0.071475975 0.59289557
0.20310052 0.072031915 0.59349549
0.20403382 0.072587863 0.59409535
0.20496711 0.07314381 0.59469527
0.2059004 0.073699757 0.59529513
0.20722166 0.074120253 0.59495646
0.20815298 0.074675031 0.59555507
0.20908433 0.075229809 0.59615374
0.21001565 0.075784579 0.59675235
0.21132708 0.076199248 0.59640735
0.21225646 0.076752856 0.59700471
0.21318583 0.077306464 0.59760213
0.21448946 0.077716447 0.59725201
0.21541688 0.078268886 0.59784812
0.21671459 0.078675382 0.5974943
0.21800838 0.079079531 0.59713793
0.21893187 0.07962963 0.59773147
0.22021979 0.080030285 0.59737134
0.22114132 0.080579214 0.59796369
0.22242337 0.080976352 0.5975998
0.22334294 0.081524126 0.59819084
0.22426251 0.082071893 0.59878194
0.2255367 0.082464367 0.59841299
0.22645432 0.083010964 0.59900278
0.22737193 0.083557568 0.59959257
0.22863828 0.083945364 0.59921861
0.22955394 0.084490798 0.59980714
0.23046958 0.085036226 0.60039568
0.23138523 0.08558166 0.60098422
0.23230088 0.086127087 0.60157275
0.23321652 0.08667253 0.60216129
0.23446916 0.087052152 0.60177851
0.23538285 0.087596416 0.60236579
0.23629655 0.088140689 0.60295308
0.23754133 0.088515639 0.60256523
0.23845306 0.089058727 0.60315126
0.23936479 0.08960183 0.60373729
0.24027652 0.090144932 0.60432333
0.24151149 0.090514034 0.60392916
0.24242127 0.091055974 0.60451388
0.24333103 0.091597892 0.60509866
0.24455817 0.091962337 0.60469949
0.24546598 0.092503093 0.60528302
0.2463738 0.093043864 0.60586649
0.24728158 0.093584612 0.60644996
0.24818942 0.094125383 0.60703349
0.24940479 0.094482809 0.60662675
0.25031063 0.095022395 0.60720897
0.25121647 0.095561996 0.60779119
0.25212231 0.096101582 0.60837346
0.25332785 0.09645319 0.6079604
0.25423175 0.096991599 0.60854137
0.25513563 0.097530037 0.6091224
0.25633338 0.097876944 0.60870421
0.25723532 0.098414205 0.60928398
0.25813723 0.098951466 0.6098637
0.25903916 0.099488728 0.61044347
0.26022705 0.0998298 0.61001903
0.26112702 0.1003659 0.61059749
0.262027 0.10090198 0.61117595
0.26320708 0.10123839 0.6107465
0.26410508 0.10177332 0.61132371
0.26500309 0.10230823 0.61190093
0.26617533 0.10263997 0.61146641
0.26707137 0.10317372 0.61204237
0.26823771 0.10350196 0.61160409
0.26913181 0.10403454 0.6121788
0.27002591 0.10456714 0.61275351
0.27091998 0.10509972 0.61332816
0.27181405 0.10563231 0.61390281
0.27270812 0.10616489 0.61447752
0.27360222 0.10669747 0.61505222
0.27449632 0.10723007 0.61562693
0.27564502 0.10754777 0.61517727
0.27653712 0.10807919 0.61575067
0.27742922 0.1086106 0.61632413
0.27832139 0.10914203 0.61689758
0.27946028 0.10945391 0.61644161
0.28035045 0.10998416 0.61701381
0.28124061 0.11051441 0.61758596
0.28237167 0.11082161 0.61712497
0.28325987 0.11135069 0.61769593
0.28414807 0.11187977 0.61826682
0.28527129 0.11218232 0.61780083
0.28615755 0.11271024 0.61837047
0.28704378 0.11323815 0.61894011
0.28815913 0.11353602 0.61846906
0.28904343 0.11406276 0.61903745
0.28992772 0.11458951 0.61960584
0.29103523 0.11488271 0.61912972
0.29191756 0.11540827 0.61969686
0.29279989 0.11593385 0.62026399
0.29368222 0.11645943 0.62083113
0.2947799 0.1167468 0.62034875
0.29566026 0.1172712 0.62091458
0.29654062 0.1177956 0.62148046
0.29763055 0.11807829 0.62099302
0.29850894 0.11860153 0.62155759
0.29959291 0.11888071 0.62106645
0.30046934 0.11940279 0.62162977
-0.18362981 -0.11449011 0.4814319
-0.18149984 -0.11359072 0.48161319
-0.18034303 -0.11290164 0.48235676
-0.17725164 -0.11179899 0.48196816
-0.17609876 -0.11111224 0.4827092
-0.17494589 -0.11042549 0.48345023
-0.17283154 -0.10953545 0.48362145
-0.17168069 -0.10884988 0.48436123
-0.17052972 -0.10816429 0.48510098
-0.1684233 -0.10727894 0.48526716
-0.16727436 -0.1065945 0.48600572
-0.16612536 -0.10591009 0.48674423
-0.16497636 -0.10522567 0.48748276
-0.16382742 -0.10454126 0.48822129
-0.16362411 -0.10405076 0.48953968
-0.1624732 -0.10336519 0.49027947
-0.16132224 -0.1026796 0.49101925
-0.16017127 -0.101994 0.49175906
-0.15902036 -0.10130843 0.49249882
-0.15693355 -0.10043474 0.49265242
-0.15578461 -0.099750325 0.49339092
-0.15370369 -0.098880164 0.49354067
-0.1525566 -0.098196901 0.49427795
-0.15048158 -0.097330242 0.49442393
-0.14933652 -0.096648157 0.49515992
-0.14726734 -0.095784992 0.49530211
-0.14520204 -0.094924152 0.49544179
-0.14406091 -0.094244421 0.49617529
-0.14200157 -0.093387097 0.49631119
-0.14086235 -0.092708528 0.4970434
-0.13880891 -0.091854699 0.49717557
-0.13675934 -0.091003209 0.49730518
-0.13471365 -0.090154059 0.49743223
-0.13267189 -0.089307249 0.49755681
-0.13063413 -0.088462777 0.49767882
-0.12950474 -0.087790035 0.49840474
-0.12747288 -0.086949065 0.498523
-0.1263454 -0.086277485 0.49924767
-0.12431931 -0.085440025 0.49936211
-0.12319386 -0.084769621 0.50008553
-0.12117374 -0.083935648 0.50019622
-0.11915749 -0.083104029 0.50030446
-0.11803597 -0.082435958 0.50102532
-0.11602563 -0.081607834 0.50112969
-0.11490607 -0.080940932 0.50184929
-0.11290163 -0.080116317 0.50194991
-0.11178398 -0.079450585 0.50266826
-0.11066639 -0.078784853 0.50338662
-0.10866976 -0.077964887 0.50348222
-0.10755408 -0.077300325 0.50419927
-0.10556334 -0.076483898 0.50429112
-0.10444969 -0.075820506 0.50500691
-0.1024648 -0.075007565 0.50509495
-0.10135305 -0.074345335 0.50580955
-0.10024133 -0.073683105 0.50652409
-0.098264337 -0.072874829 0.50660712
-0.097154588 -0.072213776 0.5073204
-0.095183372 -0.071409002 0.50739956
-0.09407562 -0.070749111 0.5081116
-0.092967778 -0.070089214 0.50882369
-0.091859996 -0.069429323 0.50953573
-0.089898646 -0.068630397 0.50960863
-0.088792801 -0.067971677 0.51031947
-0.086837381 -0.067176253 0.51038855
-0.085733503 -0.066518709 0.51109809
-0.084629625 -0.065861151 0.51180762
-0.082682014 -0.065070391 0.5118717
-0.081580102 -0.064414009 0.51257998
-0.079638362 -0.063626751 0.51264024
-0.078538418 -0.062971547 0.51334727
-0.076602519 -0.062187791 0.51340377
-0.075504512 -0.061533742 0.51410949
-0.073574543 -0.060753495 0.51416224
-0.072478533 -0.060100622 0.51486671
-0.071382493 -0.059447728 0.51557124
-0.069460392 -0.058672175 0.51561892
-0.068366289 -0.058020458 0.5163222
-0.066450059 -0.057248391 0.51636606
-0.065357924 -0.056597844 0.51706803
-0.063447595 -0.055829287 0.5171082
-0.062357426 -0.055179901 0.51780891
-0.060452908 -0.054414846 0.51784521
-0.059364736 -0.053766638 0.51854467
-0.05746612 -0.053005084 0.51857722
-0.056379914 -0.052358039 0.51927543
-0.054487169 -0.051599987 0.51930422
-0.053402901 -0.050954118 0.52000111
-0.051516116 -0.050199568 0.52002615
-0.050433815 -0.049554862 0.52072185
-0.049351454 -0.048910148 0.5214175
-0.047472447 -0.048160277 0.52143741
-0.046392083 -0.047516733 0.5221318
-0.045311749 -0.04687319 0.52282625
-0.044231385 -0.046229653 0.52352065
-0.043151021 -0.045586109 0.5242151
-0.041283816 -0.044843253 0.52422744
-0.040205419 -0.044200879 0.52492058
-0.039127052 -0.043558512 0.52561378
-0.038048655 -0.04291613 0.52630693
-0.036970258 -0.042273764 0.52700007
0.079036802 0.010944789 0.55049032
0.080030888 0.011536939 0.55112928
0.081024975 0.012129091 0.55176824
0.08140862 0.01272703 0.55320263
0.082404673 0.013320351 0.55384284
0.083400697 0.013913671 0.55448306
0.083792239 0.014516285 0.55592251
0.08479023 0.01511077 0.55656397
0.08578825 0.015705256 0.55720544
0.08678624 0.016299745 0.55784696
0.087784231 0.016894231 0.55848843
0.088782251 0.017488716 0.55912995
0.089780241 0.018083205 0.55977142
0.090778232 0.018677691 0.56041288
0.091776252 0.019272177 0.56105435
0.092774242 0.019866664 0.56169581
0.094357133 0.020440176 0.56152546
0.095353186 0.021033494 0.56216574
0.09634921 0.021626813 0.56280589
0.097924322 0.022195654 0.56263053
0.12949938 0.037679605 0.57223582
0.13047582 0.038261242 0.57286346
0.13197446 0.038784534 0.57263887
0.13294894 0.039365001 0.57326519
0.13392338 0.039945476 0.57389158
0.13541412 0.040464096 0.57366198
0.13638666 0.041043397 0.57428706
0.13787153 0.041558512 0.57405376
0.13884211 0.042136647 0.57467759
0.13981265 0.042714782 0.57530141
0.14128968 0.043225225 0.57506299
0.14225829 0.043802191 0.57568562
0.14322688 0.04437916 0.57630813
0.14469609 0.044884931 0.57606471
0.14566271 0.045460731 0.57668602
0.14662933 0.04603653 0.57730734
0.14809071 0.04653763 0.57705891
0.14905536 0.047112256 0.57767892
0.15051085 0.047609854 0.57742667
0.15147357 0.048183318 0.57804549
0.15243627 0.048756778 0.5786643
0.15339898 0.049330242 0.57928306
0.15484466 0.049821995 0.57902443
0.15580541 0.050394293 0.579642
0.15676615 0.050966591 0.58025956
0.1577269 0.051538885 0.58087707
0.15916277 0.0520248 0.58061224
0.16012156 0.052595928 0.58122849
0.16108035 0.053167056 0.58184481
0.16203913 0.053738184 0.58246106
0.16299792 0.054309312 0.58307731
0.1639567 0.05488044 0.58369362
0.16537882 0.055358183 0.58341992
0.16633564 0.055928141 0.58403492
0.16729248 0.056498099 0.58464998
0.1687068 0.056971166 0.58437121
0.17011717 0.057441898 0.58408999
0.17107007 0.05800952 0.58470249
0.17202297 0.058577146 0.58531499
0.17342556 0.059043206 0.58502865
0.17437649 0.059609666 0.58563989
0.17532744 0.060176119 0.58625114
0.17672211 0.060637511 0.58595979
0.17767109 0.061202794 0.58656979
0.17862007 0.061768081 0.58717978
0.18000692 0.062224798 0.58688343
0.18095395 0.062788919 0.58749211
0.18190096 0.063353039 0.58810079
0.18327999 0.063805088 0.58779943
0.18465507 0.064254791 0.58749545
0.18559818 0.064816579 0.58810169
0.18696739 0.065262787 0.58779395
0.18790853 0.065823399 0.58839887
0.18884967 0.066384017 0.5890038
0.19021104 0.066825554 0.58869106
0.19115022 0.067385003 0.58929473
0.1925057 0.067823023 0.58897817
0.19344291 0.068381302 0.58958066
0.19438013 0.068939582 0.59018302
0.19531736 0.069497861 0.59078544
0.19666305 0.069930054 0.59046263
0.19759831 0.070487171 0.59106374
0.19853356 0.071044281 0.59166491
0.19946882 0.071601391 0.59226608
0.20040408 0.072158508 0.59286726
0.20133933 0.072715618 0.59346837
0.20227459 0.073272735 0.59406954
0.20320985 0.073829845 0.59467065
0.20453788 0.074251518 0.59433645
0.20547117 0.074807465 0.59493637
0.20640448 0.075363412 0.59553623
0.20772466 0.075780421 0.59519708
0.20865601 0.076335192 0.59579569
0.20958734 0.076889969 0.5963943
0.21089967 0.077302299 0.59605002
0.21182904 0.077855907 0.59664744
0.21275842 0.078409523 0.5972448
0.21406296 0.078817174 0.59689546
0.21499038 0.079369619 0.59749162
0.21628897 0.079773784 0.59713852
0.21721442 0.080325052 0.59773338
0.21850716 0.080725707 0.59737647
0.21943066 0.081275813 0.59797007
0.22071752 0.081672966 0.5976094
0.22200045 0.08206778 0.59724629
0.22292003 0.082615554 0.59783733
0.2238396 0.083163321 0.59842837
0.2251147 0.083553463 0.59806025
0.22603232 0.08410006 0.59864998
0.22694993 0.084646665 0.59923983
0.22786754 0.085193262 0.59982967
0.22913283 0.085577562 0.59945512
0.23004848 0.08612299 0.60004365
0.23096412 0.086668432 0.60063219
0.23187977 0.087213859 0.60122079
0.23279542 0.087759294 0.60180932
0.23371108 0.088304728 0.60239786
0.23462673 0.088850155 0.60298645
0.23587635 0.089225128 0.60260183
0.23679003 0.089769386 0.60318911
0.23770373 0.090313658 0.60377645
0.23894548 0.090683937 0.60338676
0.23985721 0.09122704 0.60397279
0.24076894 0.091770142 0.60455883
0.24200287 0.092135757 0.60416418
0.24291262 0.092677675 0.60474896
0.2438224 0.093219608 0.60533369
0.24504848 0.093580551 0.60493398
0.2459563 0.094121322 0.60551751
0.24686408 0.09466207 0.60610104
0.24777192 0.095202841 0.60668451
0.24898818 0.095557943 0.60627848
0.24989402 0.096097529 0.60686076
0.25079989 0.09663713 0.60744298
0.25170571 0.097176716 0.60802519
0.25261158 0.097716317 0.60860747
0.25381604 0.098064408 0.60819393
0.25471994 0.098602839 0.6087749
0.25562382 0.099141262 0.60935593
0.2568205 0.099484682 0.60893726
0.25772244 0.10002194 0.60951698
0.25862437 0.1005592 0.61009669
0.25952628 0.10109645 0.61067641
0.26071313 0.10143405 0.61025155
0.2616131 0.10197014 0.61082995
0.26279408 0.10230422 0.61040133
0.26369208 0.10283915 0.61097848
0.26459008 0.10337406 0.6115557
0.26576322 0.10370347 0.61112195
0.26665926 0.10423722 0.61169791
0.26782656 0.10456313 0.61126041
0.26872063 0.10509571 0.61183506
0.2696147 0.1056283 0.61240977
0.27050877 0.10616088 0.61298442
0.27140287 0.10669346 0.61355913
0.27229697 0.10722604 0.61413383
0.27319103 0.10775864 0.61470848
0.2740851 0.10829122 0.61528319
0.2749792 0.10882381 0.61585784
0.2758733 0.10935639 0.61643255
0.27701896 0.10966944 0.61598116
0.27791107 0.11020087 0.61655462
0.2788032 0.11073228 0.61712801
0.27994108 0.11104067 0.61667162
0.28083122 0.11157092 0.61724377
0.28172141 0.11210117 0.61781597
0.2828514 0.11240488 0.61735445
0.28373957 0.11293396 0.61792535
0.2846278 0.11346305 0.61849624
0.28574997 0.1137621 0.61802977
0.2866362 0.11429001 0.61859941
0.28752244 0.11481792 0.61916906
0.28863674 0.1151123 0.61869752
0.28952104 0.11563905 0.61926591
0.29040533 0.11616579 0.6198343
0.29151177 0.11645548 0.61935771
0.2923941 0.11698106 0.61992478
0.29327643 0.11750664 0.62049192
0.29415873 0.11803222 0.62105906
0.29525536 0.11831608 0.62057614
0.29613575 0.11884049 0.62114203
0.29722655 0.11912084 0.62065536
0.29810494 0.11964408 0.62121993
0.29898334 0.12016733 0.62178457
0.30006629 0.12044302 0.62129283
-0.18416274 -0.11311477 0.48098645
-0.18203187 -0.11221772 0.48116848
-0.17990494 -0.11132301 0.48134804
-0.17778188 -0.11043064 0.48152494
-0.17662895 -0.10974389 0.48226601
-0.17451185 -0.10885503 0.48243919
-0.17336088 -0.10816943 0.48317897
-0.17220998 -0.10748386 0.48391876
-0.17010069 -0.10659966 0.48408693
-0.16895175 -0.10591525 0.48482546
-0.16780275 -0.10523081 0.48556399
-0.16665375 -0.1045464 0.4863025
-0.16550481 -0.10386197 0.48704106
-0.16530436 -0.10337035 0.48835742
-0.1641534 -0.10268474 0.48909724
-0.16300249 -0.10199917 0.48983699
-0.16185153 -0.10131358 0.4905768
-0.16070056 -0.10062798 0.49131659
-0.15954965 -0.099942409 0.49205637
-0.15839875 -0.099256821 0.49279612
-0.156313 -0.09838663 0.49294919
-0.155164 -0.09770222 0.49368772
-0.1530841 -0.096835531 0.493837
-0.15100819 -0.095971212 0.49398375
-0.14986312 -0.095289111 0.49471974
-0.14779299 -0.094428271 0.49486268
-0.14664996 -0.093747362 0.49559742
-0.14458573 -0.092890024 0.4957366
-0.14252543 -0.09203504 0.49587327
-0.14138627 -0.091356456 0.49660546
-0.13933194 -0.090504967 0.49673837
-0.13819468 -0.08982756 0.49746934
-0.13523483 -0.088808976 0.49699658
-0.13410151 -0.088133894 0.49772501
-0.13206089 -0.087290585 0.49784905
-0.13002414 -0.086449601 0.49797058
-0.12799132 -0.085610971 0.49808958
-0.1268639 -0.08493939 0.49881425
-0.12483692 -0.084104255 0.49892947
-0.12371147 -0.083433852 0.49965286
-0.12169045 -0.082602203 0.49976432
-0.11967331 -0.081772916 0.49987328
-0.11855173 -0.081104845 0.50059414
-0.11743027 -0.080436781 0.501315
-0.11542094 -0.079612143 0.50141895
-0.11430138 -0.078945249 0.50213856
-0.11318183 -0.07827834 0.50285816
-0.11118042 -0.077458397 0.50295699
-0.11006278 -0.076792665 0.50367534
-0.10894519 -0.076126933 0.5043937
-0.10695153 -0.075311631 0.50448751
-0.10583588 -0.074647069 0.50520462
-0.10384816 -0.073835291 0.50529462
-0.10273445 -0.073171891 0.50601047
-0.10075259 -0.072363622 0.50609672
-0.099640906 -0.071701385 0.50681132
-0.097664952 -0.070896618 0.50689375
-0.096555173 -0.070235558 0.5076071
-0.095445454 -0.069574505 0.50832045
-0.094335675 -0.06891343 0.50903374
-0.092369467 -0.068114497 0.50910985
-0.090407193 -0.067317896 0.50918353
-0.089301378 -0.066659175 0.50989431
-0.088195533 -0.066000447 0.5106051
-0.087089717 -0.065341726 0.51131594
-0.085137308 -0.064550981 0.5113833
-0.0840334 -0.063893408 0.51209283
-0.082086861 -0.063106164 0.51215637
-0.08098495 -0.062449768 0.51286465
-0.079883039 -0.061793387 0.51357293
-0.077944309 -0.061010808 0.51363146
-0.076009482 -0.060230553 0.51368737
-0.074911475 -0.059576496 0.51439315
-0.073813498 -0.058922447 0.51509893
-0.071886569 -0.058146864 0.51514989
-0.070790529 -0.057493985 0.51585436
-0.068869472 -0.056721918 0.51590157
-0.067775398 -0.056070209 0.51660478
-0.065860212 -0.055301629 0.51664817
-0.064768076 -0.054651074 0.5173502
-0.06285882 -0.053886019 0.51738977
-0.061768651 -0.053236641 0.51809049
-0.059865177 -0.05247508 0.51812637
-0.058777004 -0.051826864 0.51882577
-0.056879461 -0.051068813 0.51885784
-0.055793226 -0.050421767 0.51955605
-0.053901553 -0.049667217 0.5195843
-0.052817285 -0.049021341 0.5202812
-0.050931573 -0.048270293 0.52030575
-0.049849212 -0.047625579 0.52100146
-0.048766941 -0.04698088 0.5216971
-0.046888947 -0.046234488 0.52171648
-0.045808613 -0.045590945 0.52241093
-0.044728249 -0.044947408 0.52310532
-0.043647885 -0.044303864 0.52379978
-0.041779757 -0.043563332 0.52381289
-0.04070136 -0.042920958 0.52450603
-0.039622992 -0.042278592 0.52519917
-0.038544595 -0.04163621 0.52589238
-0.037466198 -0.040993843 0.52658546
-0.036387801 -0.040351462 0.52727866
-0.035309434 -0.039709095 0.5279718
0.079573721 0.012716793 0.55074716
0.080567777 0.013308944 0.55138606
0.080950558 0.013909211 0.55281973
0.081946582 0.014502531 0.55345994
0.082335263 0.015106305 0.55489737
0.083333254 0.015700791 0.55553883
0.084331274 0.016295278 0.55618036
0.085329264 0.016889764 0.55682182
0.085727692 0.017499378 0.55826557
0.086727649 0.018095033 0.55890834
0.088323265 0.018673224 0.55874622
0.089321256 0.019267712 0.55938774
0.090319276 0.019862197 0.56002921
0.091317266 0.020456685 0.56067073
0.092315257 0.021051172 0.5613122
0.093899071 0.021622356 0.56114256
0.094895095 0.022215676 0.56178284
0.1260356 0.037787244 0.57229787
0.12754494 0.038314044 0.57208037
0.12852332 0.038896851 0.57270926
0.13002676 0.03942015 0.57248807
0.13100317 0.040001791 0.57311571
0.13250077 0.040521584 0.57289058
0.13347524 0.041102055 0.57351696
0.13444972 0.041682526 0.57414329
0.13593939 0.042197652 0.57391322
0.1369119 0.042776953 0.57453835
0.13839573 0.043288574 0.57430446
0.1393663 0.043866709 0.57492834
0.14033684 0.044444844 0.57555217
0.14181283 0.044951793 0.57531321
0.14278142 0.045528762 0.57593584
0.14425153 0.046032205 0.57569313
0.14521816 0.046608001 0.57631445
0.14618479 0.047183804 0.57693577
0.14764705 0.047682576 0.57668805
0.14861172 0.048257202 0.57730806
0.1500681 0.048752472 0.57705659
0.15103081 0.049325936 0.57767534
0.15199351 0.049899399 0.57829416
0.15295623 0.050472863 0.57891297
0.15440281 0.050962292 0.57865512
0.15536356 0.051534586 0.57927263
0.1563243 0.05210688 0.57989019
0.15728505 0.052679177 0.58050776
0.15872183 0.053162765 0.58024365
0.15920654 0.053823769 0.58174282
0.16063941 0.054305021 0.58147621
0.16159819 0.054876149 0.58209252
0.16255698 0.055447277 0.58270878
0.16351576 0.056018405 0.58332503
0.16447455 0.056589533 0.58394134
0.16589561 0.057063781 0.58366716
0.16685243 0.057633735 0.58428216
0.16780926 0.058203697 0.58489716
0.16922253 0.05867327 0.58461785
0.17063183 0.059140503 0.58433616
0.17158473 0.05970813 0.58494866
0.17253765 0.060275756 0.58556116
0.17349055 0.060843378 0.58617365
0.17444345 0.061411001 0.58678615
0.17584103 0.061871231 0.58649683
0.17679198 0.062437683 0.58710802
0.17818363 0.062894411 0.58681494
0.17913261 0.063459702 0.58742487
0.18008161 0.064024985 0.58803487
0.18146543 0.064477041 0.58773673
0.18241246 0.065041155 0.58834547
0.18379042 0.065489709 0.58804357
0.18516445 0.065935925 0.58773911
0.18610755 0.066497713 0.58834529
0.18747571 0.066940419 0.58803707
0.18841684 0.067501038 0.588642
0.18935798 0.068061657 0.58924699
0.19071829 0.068499699 0.58893371
0.19165747 0.069059134 0.58953738
0.19301189 0.069493674 0.58922029
0.19394912 0.070051953 0.58982277
0.19488633 0.070610233 0.59042513
0.19582355 0.071168512 0.59102756
0.19676077 0.071726792 0.59162998
0.19769798 0.072285071 0.59223235
0.19903868 0.07271143 0.59190655
0.19997394 0.073268548 0.59250766
0.20090921 0.073825657 0.59310883
0.20184447 0.074382775 0.59370995
0.20277973 0.074939884 0.59431112
0.20371498 0.075496994 0.59491229
0.20504194 0.075915173 0.59457755
0.20597525 0.07647112 0.59517747
0.20729634 0.076885805 0.59483904
0.20822769 0.077440575 0.59543765
0.20915902 0.077995352 0.59603631
0.21009035 0.07855013 0.59663492
0.21102169 0.0791049 0.59723353
0.212331 0.079512581 0.59688753
0.21326038 0.080066182 0.59748489
0.21456385 0.080470353 0.59713507
0.21549127 0.081022799 0.59773117
0.2167888 0.081423461 0.5973776
0.21808244 0.081821784 0.59702146
0.21900594 0.082371891 0.59761506
0.2202937 0.082766712 0.59725517
0.22121525 0.083315656 0.59784746
0.22249712 0.083706975 0.59748387
0.22341669 0.084254742 0.59807491
0.22433627 0.084802508 0.59866595
0.2256103 0.085189156 0.59829724
0.22652791 0.085735761 0.59888709
0.22744553 0.086282358 0.59947687
0.22836314 0.086828962 0.60006666
0.22928074 0.087375551 0.60065651
0.23019835 0.087922163 0.6012463
0.23111597 0.08846876 0.60183609
0.23237431 0.088846058 0.60145736
0.23328997 0.089391492 0.60204589
0.23420562 0.089936927 0.60263443
0.23512128 0.090482362 0.60322297
0.23636982 0.090853825 0.60283786
0.23728353 0.09139809 0.60342515
0.23819721 0.091942355 0.60401243
0.23943791 0.092309155 0.60362232
0.24034964 0.09285225 0.60420835
0.24126136 0.093395345 0.60479438
0.24249423 0.093757465 0.6043992
0.243404 0.094299398 0.60498399
0.24463098 0.09465801 0.60458499
0.2455388 0.09519878 0.60516852
0.24644658 0.095739529 0.60575199
0.24735442 0.096280299 0.60633552
0.24857159 0.096633077 0.60593021
0.24947743 0.097172663 0.60651249
0.25038329 0.097712263 0.60709476
0.25128913 0.098251849 0.60767698
0.25219497 0.09879145 0.6082592
0.25310081 0.099331036 0.60884148
0.25430423 0.09967564 0.60842741
0.25520813 0.10021406 0.60900843
0.25611201 0.10075249 0.6095894
0.25730765 0.10109242 0.60917026
0.25820959 0.10162968 0.60974997
0.25911149 0.10216693 0.61032969
0.2600134 0.10270419 0.61090946
0.26119921 0.10303829 0.610484
0.26209915 0.10357437 0.61106247
0.26327908 0.10390497 0.61063331
0.26417708 0.10443988 0.61121053
0.26535112 0.10476696 0.6107775
0.26624715 0.10530072 0.6113534
0.26714322 0.10583448 0.61192942
0.26830941 0.10615689 0.61149132
0.26920351 0.10668947 0.61206603
0.27009758 0.10722205 0.61264074
0.27099168 0.10775463 0.61321545
0.27188575 0.10828722 0.61379009
0.27277982 0.10881981 0.61436474
0.27367392 0.10935239 0.61493945
0.27456802 0.10988498 0.61551416
0.27546209 0.11041756 0.61608887
0.27635616 0.11095014 0.61666352
0.27750081 0.11125971 0.61621165
0.27839291 0.11179113 0.61678505
0.27928504 0.11232255 0.61735851
0.28042185 0.11262744 0.61690158
0.28131199 0.11315769 0.61747372
0.28220215 0.11368793 0.61804593
0.2833311 0.11398815 0.61758387
0.28421929 0.11451724 0.61815476
0.28534237 0.11481396 0.61768907
0.2862286 0.11534187 0.61825871
0.28711486 0.11586978 0.61882836
0.28823006 0.11616183 0.61835754
0.28911436 0.11668858 0.61892593
0.28999865 0.11721533 0.61949432
0.29088292 0.11774207 0.62006271
0.29198831 0.11802827 0.61958563
0.29287064 0.11855385 0.62015271
0.29375297 0.11907943 0.62071985
0.2946353 0.119605 0.62128699
0.29573089 0.11988537 0.62080359
0.29661122 0.12040977 0.62136948
0.297701 0.12068664 0.62088227
0.29857939 0.12120988 0.62144685
0.29966319 0.12148324 0.62095594
-0.18469566 -0.11173944 0.48054099
-0.1825639 -0.11084472 0.48072374
-0.18043602 -0.10995235 0.48090404
-0.17831206 -0.10906228 0.48108172
-0.17715919 -0.10837553 0.48182279
-0.17504114 -0.107489 0.48199674
-0.17389017 -0.10680339 0.48273653
-0.17273927 -0.10611782 0.48347631
-0.17062908 -0.10523596 0.48364526
-0.16948014 -0.10455155 0.48438376
-0.16833115 -0.10386711 0.48512229
-0.16813552 -0.10337547 0.48643544
-0.16603321 -0.10249828 0.48659933
-0.16583371 -0.10200431 0.48791498
-0.16468275 -0.10131871 0.48865479
-0.16353178 -0.10063314 0.48939455
-0.16238087 -0.099947549 0.49013436
-0.16122991 -0.099261947 0.49087414
-0.160079 -0.098576374 0.49161392
-0.15892804 -0.097890787 0.49235368
-0.1568414 -0.097022936 0.49250752
-0.15569246 -0.096338525 0.49324602
-0.15454346 -0.0956541 0.49398455
-0.15246463 -0.094790928 0.49413329
-0.15038973 -0.093930066 0.49427956
-0.14924467 -0.093247995 0.49501556
-0.14717567 -0.092390656 0.49515799
-0.14603257 -0.091709733 0.49589273
-0.14396942 -0.090855882 0.4960314
-0.1419102 -0.090004399 0.49616754
-0.14077103 -0.089325815 0.49689975
-0.13871771 -0.088477828 0.49703217
-0.13666832 -0.087632164 0.49716201
-0.13462269 -0.086788811 0.49728933
-0.13258117 -0.085947834 0.49741411
-0.13054353 -0.085109182 0.49753642
-0.1294142 -0.084436439 0.49826235
-0.1273824 -0.083601296 0.49838084
-0.12625504 -0.08292973 0.49910551
-0.12422907 -0.082098082 0.49922022
-0.12310362 -0.081427671 0.49994361
-0.12108362 -0.080599524 0.5000546
-0.11906755 -0.079773724 0.50016302
-0.11794603 -0.07910566 0.50088388
-0.11682451 -0.078437589 0.5016048
-0.11481631 -0.077616461 0.50170815
-0.11369669 -0.076949552 0.50242776
-0.11257714 -0.076282665 0.50314736
-0.11145759 -0.075615756 0.50386703
-0.10945916 -0.074800469 0.50396407
-0.10834157 -0.074134737 0.50468242
-0.10634899 -0.073322937 0.5047757
-0.10523331 -0.072658375 0.50549281
-0.10324663 -0.071850084 0.50558233
-0.10213298 -0.071186692 0.50629818
-0.10015219 -0.070381902 0.5063839
-0.099040449 -0.06971968 0.5070985
-0.097065568 -0.068918407 0.50718045
-0.095955819 -0.068257354 0.5078938
-0.09484604 -0.067596279 0.50860715
-0.092878938 -0.06679967 0.50868398
-0.091771126 -0.06613978 0.50939608
-0.089809954 -0.065346681 0.50946921
-0.088704109 -0.064687952 0.51018
-0.087598264 -0.064029232 0.51089078
-0.086492419 -0.063370503 0.51160157
-0.084541082 -0.062583238 0.51166844
-0.083437204 -0.061925679 0.51237798
-0.081491709 -0.061141923 0.51244104
-0.080389798 -0.060485542 0.51314926
-0.079287887 -0.059829146 0.5138576
-0.078185976 -0.059172764 0.51456583
-0.076250255 -0.058394849 0.51462257
-0.074318469 -0.057619259 0.51467681
-0.073220432 -0.056965202 0.51538253
-0.071294606 -0.056193121 0.51543301
-0.070198536 -0.055540234 0.51613748
-0.068278551 -0.054771669 0.51618421
-0.067184448 -0.054119945 0.51688743
-0.065270334 -0.053354867 0.51693034
-0.064178228 -0.052704327 0.51763231
-0.062269986 -0.051942758 0.51767141
-0.061179876 -0.051293381 0.51837212
-0.059277475 -0.050535314 0.51840746
-0.058189273 -0.049887106 0.51910686
-0.056292772 -0.049132533 0.51913846
-0.055206537 -0.048485495 0.51983666
-0.053315938 -0.047734439 0.51986444
-0.052231669 -0.047088563 0.52056134
-0.050346971 -0.046341002 0.52058536
-0.049264669 -0.045696303 0.521281
-0.048182368 -0.04505159 0.52197671
-0.046305448 -0.0443087 0.5219956
-0.045225084 -0.043665163 0.52269
-0.04414475 -0.043021619 0.52338445
-0.042275727 -0.042283412 0.52339828
-0.041984051 -0.041734539 0.52477324
-0.040118933 -0.040998671 0.52478462
-0.039040565 -0.04035629 0.52547777
-0.037962168 -0.039713923 0.52617091
-0.036883771 -0.039071541 0.52686405
-0.035028487 -0.038341518 0.52686918
-0.033952057 -0.037700307 0.52756107
-0.032875627 -0.03705911 0.52825296
0.079116523 0.013896646 0.55036497
0.08011061 0.014488798 0.55100393
0.080492467 0.015091391 0.55243683
0.080878288 0.015696324 0.55387223
0.081876278 0.016290814 0.55451369
0.082874268 0.016885299 0.55515516
0.083872288 0.017479787 0.55579662
0.084267825 0.018090559 0.5572384
0.085267782 0.018686213 0.55788112
0.086267769 0.019281868 0.55852389
0.08786428 0.019857731 0.5583626
0.0888623 0.02045222 0.55900407
0.08986029 0.021046706 0.55964553
0.090858281 0.021641191 0.560287
0.091856301 0.02223568 0.56092852
0.12308827 0.037838854 0.57150382
0.1246044 0.038366832 0.57129085
0.12558475 0.038950805 0.57192099
0.1265651 0.039534781 0.57255113
0.12807336 0.040058091 0.57233316
0.12905174 0.040640898 0.57296205
0.13055411 0.041160699 0.57274032
0.13153055 0.04174234 0.57336789
0.13302708 0.042258639 0.57314229
0.13400155 0.04283911 0.57376868
0.13497603 0.043419581 0.57439506
0.13646466 0.043931209 0.57416445
0.13743716 0.044510514 0.57478952
0.13891995 0.045018636 0.57455522
0.13989049 0.045596771 0.57517904
0.14136738 0.046101391 0.57494092
0.14233597 0.046678361 0.57556343
0.14330456 0.047255326 0.57618606
0.1447736 0.047755279 0.57594287
0.14574024 0.048331074 0.57656419
0.14670686 0.048906878 0.57718551
0.14816807 0.049402151 0.5769372
0.14913274 0.049976785 0.57755733
0.15058807 0.050468557 0.57730532
0.15155077 0.05104202 0.57792407
0.15251347 0.051615484 0.57854289
0.15396096 0.052102581 0.57828581
0.15492171 0.052674878 0.57890332
0.15588245 0.053247176 0.57952082
0.1568432 0.05381947 0.58013839
0.15780395 0.054391764 0.58075595
0.15876469 0.054964058 0.58137345
0.15972544 0.055536356 0.58199102
0.16068619 0.056108654 0.58260858
0.16211602 0.056585241 0.58234018
0.16307482 0.057156369 0.58295643
0.16403359 0.057727497 0.58357275
0.16499239 0.058298625 0.584189
0.16641238 0.058769375 0.58391428
0.16736922 0.059339337 0.58452928
0.16832604 0.059909295 0.58514434
0.16973826 0.06037537 0.58486456
0.17069311 0.060944162 0.58547831
0.171648 0.061512955 0.58609211
0.17305231 0.061974362 0.58580732
0.17400521 0.062541984 0.58641982
0.17495811 0.063109607 0.58703232
0.17591102 0.063677236 0.58764482
0.17730558 0.064132795 0.58735371
0.17825654 0.064699255 0.58796489
0.17964517 0.065151319 0.58767009
0.18059415 0.065716609 0.58828008
0.18197691 0.066165164 0.5879814
0.18292394 0.066729277 0.58859015
0.18430084 0.067174338 0.58828771
0.18567383 0.067617059 0.58798277
0.18661693 0.068178847 0.58858895
0.18756002 0.068740629 0.58919513
0.18892515 0.069178678 0.58888519
0.18986629 0.06973929 0.58949006
0.19122554 0.07017383 0.5891763
0.19216472 0.070733279 0.58977997
0.19310391 0.071292728 0.59038365
0.1944553 0.071722597 0.59006488
0.19539252 0.072280876 0.59066725
0.19632974 0.072839156 0.59126967
0.19726697 0.073397443 0.5918721
0.19820419 0.073955722 0.59247446
0.1991414 0.074514002 0.59307694
0.20047909 0.074935697 0.5927493
0.20141435 0.075492814 0.59335041
0.2023496 0.076049924 0.59395158
0.20328486 0.076607034 0.59455276
0.20422012 0.077164151 0.59515393
0.20554602 0.077578828 0.59481871
0.20647933 0.078134775 0.59541857
0.20779938 0.078545958 0.59507966
0.2087307 0.079100743 0.59567821
0.20966204 0.079655513 0.59627688
0.21059337 0.080210291 0.59687555
0.21190357 0.08061564 0.59653026
0.21283296 0.08116924 0.59712762
0.21413735 0.081571087 0.59677851
0.21506476 0.082123533 0.59737468
0.21636319 0.082521863 0.59702182
0.21765773 0.082917862 0.59666646
0.21858123 0.083467968 0.59726006
0.21986988 0.083860464 0.59690094
0.22079143 0.084409401 0.59749323
0.22207421 0.084798396 0.5971303
0.22299378 0.085346162 0.5977214
0.22391334 0.085893929 0.5983125
0.22518829 0.086278252 0.5979445
0.2261059 0.086824857 0.59853435
0.22702351 0.087371454 0.59912413
0.22794113 0.087918058 0.59971392
0.22885874 0.088464648 0.60030377
0.22977635 0.089011259 0.60089356
0.23069397 0.089557856 0.60148335
0.23161158 0.090104453 0.60207319
0.23252918 0.090651058 0.60266298
0.23378451 0.091023698 0.6022824
0.23470017 0.091569126 0.60287094
0.23561582 0.09211456 0.60345948
0.23686332 0.092482537 0.60307395
0.23777699 0.093026794 0.60366118
0.2386907 0.093571067 0.60424852
0.23993033 0.093934365 0.60385787
0.24084207 0.09447746 0.60444391
0.24207583 0.094837248 0.60404944
0.24298561 0.095379181 0.60463423
0.24389535 0.095921107 0.60521901
0.2451213 0.096276246 0.60481954
0.24602908 0.096816994 0.60540307
0.24693692 0.097357765 0.60598654
0.24784471 0.097898528 0.60657001
0.24875252 0.098439284 0.60715353
0.24996668 0.098787397 0.60674649
0.25087252 0.099326983 0.60732877
0.25177836 0.099866584 0.60791099
0.25268421 0.10040617 0.60849321
0.25359008 0.10094577 0.60907549
0.25479242 0.10128687 0.60866094
0.2556963 0.1018253 0.6092419
0.2566002 0.10236372 0.60982287
0.2577948 0.10270016 0.60940325
0.25869668 0.10323741 0.60998297
0.25959861 0.10377467 0.61056268
0.26078531 0.10410643 0.61013806
0.26168525 0.10464252 0.61071646
0.26286611 0.1049708 0.61028808
0.26376408 0.1055057 0.61086529
0.26466212 0.10604063 0.61144251
0.26583508 0.10636421 0.611009
0.26673114 0.10689797 0.6115849
0.26789826 0.10721806 0.61114764
0.26879233 0.10775064 0.61172235
0.2696864 0.10828322 0.61229706
0.27058047 0.1088158 0.61287171
0.27147457 0.10934839 0.61344635
0.27236867 0.10988098 0.61402106
0.27326274 0.11041357 0.61459577
0.27415681 0.11094615 0.61517048
0.27505091 0.11147873 0.61574513
0.27594501 0.11201131 0.61631984
0.27683908 0.11254391 0.61689448
0.27798262 0.11284997 0.61644208
0.27887475 0.11338139 0.61701554
0.27976686 0.1139128 0.61758894
0.28090262 0.11421421 0.61713153
0.28179276 0.11474445 0.61770368
0.28292263 0.11504234 0.61724246
0.28381079 0.11557143 0.61781335
0.28469902 0.11610051 0.61838424
0.28582102 0.11639373 0.61791801
0.28670728 0.11692164 0.61848766
0.28759351 0.11744956 0.6190573
0.28870767 0.11773811 0.618586
0.28959197 0.11826486 0.61915439
0.29047623 0.1187916 0.61972278
0.2913605 0.11931835 0.62029117
0.29246485 0.11960104 0.61981356
0.29334718 0.12012662 0.62038064
0.29422951 0.1206522 0.62094778
0.29511184 0.12117779 0.62151492
0.29620636 0.12145466 0.62103105
0.29708672 0.12197907 0.62159693
0.29817539 0.12225243 0.62110919
0.29905379 0.12277567 0.62167382
0.29993218 0.12329891 0.6222384
-0.18425274 -0.11016081 0.47953546
-0.18309593 -0.10947172 0.48027903
-0.18096715 -0.10858166 0.48046011
-0.17884231 -0.10769394 0.48063853
-0.17768943 -0.10700719 0.48137957
-0.17557049 -0.10612298 0.48155427
-0.17441952 -0.10543738 0.48229408
-0.17326862 -0.1047518 0.48303384
-0.17115754 -0.10387227 0.48320353
-0.17096674 -0.10338064 0.4845134
-0.16981578 -0.10269504 0.48525321
-0.16866481 -0.10200945 0.48599297
-0.16751397 -0.10132388 0.48673275
-0.166363 -0.10063829 0.48747253
-0.16521204 -0.09995269 0.48821235
-0.16406113 -0.099267118 0.4889521
-0.16291016 -0.09858153 0.48969188
-0.16175926 -0.097895928 0.49043167
-0.16060829 -0.097210355 0.49117145
-0.15945739 -0.096524768 0.49191123
-0.15830648 -0.09583918 0.49265102
-0.15622085 -0.094974831 0.49280432
-0.15507185 -0.094290406 0.49354285
-0.15392292 -0.09360598 0.49428135
-0.15184516 -0.092746295 0.49442965
-0.14977133 -0.091888949 0.49457535
-0.14862621 -0.091206864 0.49531138
-0.14655828 -0.090353012 0.4954533
-0.14449418 -0.089501485 0.49559271
-0.14243406 -0.088652343 0.49572963
-0.1412949 -0.087973759 0.49646181
-0.13924074 -0.087128095 0.49659497
-0.1371904 -0.086284757 0.49672559
-0.13514394 -0.085443735 0.49685365
-0.13310146 -0.084605083 0.49697921
-0.13197017 -0.08393117 0.49770641
-0.1299336 -0.083096012 0.49782819
-0.1279009 -0.082263201 0.49794745
-0.12677348 -0.081591636 0.4986721
-0.12474668 -0.080762312 0.49878755
-0.12362123 -0.080091901 0.49951094
-0.12249577 -0.079421505 0.50023437
-0.12047684 -0.078596853 0.50034475
-0.11935335 -0.077927619 0.50106692
-0.11734033 -0.077106476 0.50117362
-0.11621881 -0.076438405 0.50189447
-0.11509722 -0.075770333 0.50261539
-0.1139757 -0.07510227 0.50333625
-0.11197245 -0.074286968 0.50343657
-0.1108529 -0.073620073 0.50415623
-0.10885555 -0.072808273 0.50425279
-0.10773796 -0.072142541 0.50497115
-0.10574639 -0.071334243 0.50506395
-0.10463077 -0.070669666 0.50578105
-0.10264516 -0.069864884 0.50587004
-0.10153145 -0.069201484 0.5065859
-0.099551737 -0.068400204 0.50667113
-0.097575963 -0.067601256 0.50675386
-0.096466184 -0.066940203 0.50746715
-0.095356405 -0.066279128 0.5081805
-0.093388438 -0.065484844 0.5082581
-0.092280626 -0.064824954 0.50897014
-0.091172814 -0.064165063 0.50968218
-0.089212686 -0.063375451 0.5097549
-0.088106871 -0.06271673 0.51046568
-0.087001026 -0.062058002 0.51117647
-0.085895181 -0.061399274 0.51188731
-0.083944887 -0.06061551 0.51195359
-0.082841009 -0.059957951 0.51266313
-0.080896556 -0.059177697 0.51272571
-0.079794645 -0.058521301 0.51343393
-0.078692734 -0.057864919 0.51414222
-0.077590823 -0.057208538 0.5148505
-0.075656176 -0.05643411 0.51490676
