# .PCD v0.7 - Point Cloud Data file format
VERSION 0.7
FIELDS x y z
SIZE 4 4 4
TYPE F F F
COUNT 1 1 1
WIDTH 1334
HEIGHT 1
VIEWPOINT 0 0 0 1 0 0 0
POINTS 1334
DATA ascii
-0.005459561 -0.1251584 0.45596024
-0.0042613493 -0.12488392 0.45496026
-0.0030683526 -0.12460946 0.4539603
-0.0018805688 -0.12433498 0.45296031
-0.00069799961 -0.1240605 0.45196033
0.00047831747 -0.12351154 0.44996038
0.0016478514 -0.12323707 0.44896042
0.0028059189 -0.12268811 0.44696048
0.0039624176 -0.12241363 0.44596046
0.0051022358 -0.12186468 0.44396055
0.0062597725 -0.1218647 0.44396055
0.0074339891 -0.1221392 0.4449605
0.0086134188 -0.12241371 0.44596046
0.0098418528 -0.12323721 0.44896036
0.013680441 -0.1262567 0.45996001
0.015008981 -0.1273547 0.4639599
-0.09684433 -0.11798649 0.43396148
-0.095712863 -0.11798651 0.43396148
-0.094581395 -0.11798653 0.43396148
-0.093449928 -0.11798654 0.43396148
-0.09231846 -0.11798657 0.43396145
-0.091186993 -0.11798659 0.43396145
-0.090263061 -0.1182585 0.43496144
-0.089333907 -0.11853039 0.4359614
-0.088601857 -0.11907419 0.43796134
-0.087659657 -0.11934608 0.4389613
-0.086712264 -0.11961798 0.43996128
-0.08575964 -0.11988989 0.44096121
-0.084993698 -0.12043367 0.44296116
-0.084028043 -0.12070558 0.44396114
-0.08305718 -0.12097748 0.4449611
-0.082265161 -0.12152126 0.44696105
-0.081462719 -0.12206505 0.44896099
-0.080828689 -0.12288071 0.45196089
-0.080355279 -0.12396827 0.45596078
-0.079861 -0.12505582 0.45996064
-0.07934586 -0.12614335 0.46396053
-0.078809865 -0.12723093 0.46796042
-0.078087203 -0.12804659 0.47096032
-0.077348895 -0.12886226 0.47396025
-0.076434344 -0.12940605 0.47596017
-0.075509362 -0.12994984 0.47796011
-0.074418582 -0.13022174 0.47896007
-0.073322572 -0.13049364 0.47996002
-0.072221354 -0.13076556 0.48096001
-0.071114928 -0.13103744 0.48195997
-0.070003271 -0.13130935 0.48295993
-0.068744063 -0.13130938 0.48295993
-0.067624599 -0.13158129 0.48395988
-0.066362776 -0.13158131 0.48395988
-0.06510096 -0.13158134 0.48395988
-0.035557155 -0.12967864 0.47695991
-0.033000659 -0.12940679 0.47595993
-0.031692952 -0.12913494 0.47495997
-0.030390458 -0.12886307 0.47395998
-0.02909318 -0.12859121 0.47296
-0.027801115 -0.12831935 0.47196004
-0.026514264 -0.12804748 0.47096005
-0.025286337 -0.1280475 0.47096002
-0.024007307 -0.12777564 0.46996006
-0.022733485 -0.12750377 0.46896008
-0.021464886 -0.12723193 0.46796012
-0.020201497 -0.12696005 0.4669601
-0.018943323 -0.1266882 0.46596014
-0.017690362 -0.12641633 0.46496019
-0.016478078 -0.12641636 0.46496019
-0.01523294 -0.12614447 0.4639602
-0.014023262 -0.1261445 0.46396017
-0.012785946 -0.12587264 0.46296021
-0.011553842 -0.12560077 0.46196023
-0.010326953 -0.12532891 0.46096027
-0.0091052782 -0.12505704 0.45996025
-0.0078888163 -0.12478518 0.45896029
-0.0066775703 -0.12451332 0.45796034
-0.0054715374 -0.12424146 0.45696035
-0.0042707194 -0.12396959 0.45596036
-0.0030751147 -0.12369773 0.45496038
-0.0018847242 -0.12342587 0.45396042
-0.00069797895 -0.12288211 0.45196047
0.00047937603 -0.12261025 0.45096049
0.0016478719 -0.1220665 0.44896054
0.0028059394 -0.12152275 0.4469606
0.0039624381 -0.12125088 0.44596061
0.0051137223 -0.12097901 0.44496062
0.0062597925 -0.12070715 0.44396067
0.0074173291 -0.12070717 0.44396067
0.0085941525 -0.12097907 0.44496062
0.0097980853 -0.12152287 0.44696057
0.011036947 -0.12233854 0.44996044
0.014976679 -0.12587312 0.46296006
-0.096844308 -0.11685503 0.4339616
-0.095712841 -0.11685504 0.4339616
-0.094581373 -0.11685506 0.4339616
-0.093449906 -0.11685508 0.4339616
-0.092531182 -0.11712439 0.43496159
-0.091397114 -0.1171244 0.43496156
-0.090470575 -0.11739369 0.43596151
-0.089538805 -0.11766298 0.43696147
-0.088601835 -0.11793228 0.43796146
-0.087659635 -0.11820158 0.43896142
-0.086712241 -0.11847087 0.4399614
-0.085759625 -0.11874016 0.44096136
-0.084993675 -0.11927873 0.44296128
-0.084028028 -0.11954805 0.44396126
-0.083243832 -0.1200866 0.44596118
-0.082449205 -0.12062517 0.44796112
-0.081825614 -0.12143303 0.45096105
-0.081186377 -0.12224087 0.45396096
-0.080707744 -0.12331799 0.45796084
-0.080381885 -0.12466439 0.46296069
-0.079146691 -0.12654935 0.46996048
-0.078418814 -0.1273572 0.47296038
-0.077512071 -0.12789577 0.47496033
-0.076594926 -0.12843435 0.47696027
-0.075667344 -0.12897293 0.47896022
-0.074573942 -0.12924223 0.47996017
-0.073475331 -0.12951152 0.48096016
-0.072371513 -0.12978081 0.48196012
-0.071262464 -0.13005011 0.48296008
-0.070003249 -0.13005012 0.48296005
-0.068886392 -0.13031943 0.48396003
-0.067624576 -0.13031946 0.48396003
-0.066362754 -0.13031948 0.48396003
-0.065235466 -0.13058878 0.48495999
-0.031759676 -0.12816586 0.47596005
-0.030454576 -0.12789659 0.47496009
-0.02915469 -0.12762734 0.47396013
-0.027918942 -0.12762736 0.4739601
-0.026626876 -0.12735811 0.47296011
-0.025286315 -0.12681957 0.47096017
-0.024007285 -0.12655032 0.46996021
-0.022781963 -0.12655033 0.46996018
-0.021510752 -0.12628108 0.4689602
-0.020244757 -0.12601182 0.46796024
-0.018983977 -0.12574257 0.46696025
-0.017728411 -0.12547332 0.46596026
-0.016478058 -0.12520407 0.46496031
-0.015265775 -0.12520409 0.46496031
-0.014023242 -0.12493482 0.46396032
-0.012785925 -0.12466557 0.46296033
-0.011578852 -0.12466559 0.46296033
-0.010349358 -0.12439632 0.46196035
-0.0091250753 -0.12412708 0.46096039
-0.0079060066 -0.12385781 0.45996037
-0.0066921534 -0.12358855 0.45896041
-0.0054835137 -0.12331931 0.45796046
-0.0042800885 -0.12305004 0.45696047
-0.0030818773 -0.12278078 0.45596048
-0.0018888795 -0.12251153 0.4549605
-0.00069952721 -0.12197298 0.45296055
0.00048043468 -0.12170373 0.45196059
0.0016551826 -0.12143448 0.45096061
0.0028184641 -0.12089594 0.44896066
0.0039713173 -0.12035739 0.44696072
0.0051137428 -0.11981887 0.44496077
0.0062738867 -0.11981889 0.44496074
0.0074340301 -0.1198189 0.44496074
0.008594173 -0.11981893 0.44496074
0.0097762104 -0.12008822 0.4459607
0.011012467 -0.12089609 0.44896063
-0.098201528 -0.11599021 0.43496174
-0.096844293 -0.11572357 0.43396172
-0.095933385 -0.11599026 0.43496171
-0.09479931 -0.11599027 0.43496171
-0.093665235 -0.1159903 0.43496171
-0.09253116 -0.11599032 0.43496171
-0.091607228 -0.116257 0.43596163
-0.090678073 -0.11652368 0.43696159
-0.089743704 -0.11679038 0.43796158
-0.088601813 -0.1167904 0.43796158
-0.08765962 -0.11705708 0.43896154
-0.086712219 -0.11732377 0.43996152
-0.085759602 -0.11759046 0.44096148
-0.084801771 -0.11785715 0.44196147
-0.084028006 -0.11839052 0.44396138
-0.08324381 -0.11892385 0.4459613
-0.082633249 -0.11972389 0.44896123
-0.082007043 -0.12052391 0.45196113
-0.081544057 -0.1215906 0.45596105
-0.081236444 -0.12292397 0.46096089
-0.080200963 -0.12505734 0.46896064
-0.079483502 -0.12585738 0.47196057
-0.078750409 -0.12665741 0.47496048
-0.077675261 -0.1269241 0.47596043
-0.076755494 -0.12745745 0.47796038
-0.075825311 -0.12799081 0.47996032
-0.074729308 -0.12825751 0.48096031
-0.07362809 -0.1285242 0.48196024
-0.072521649 -0.12879089 0.48296019
-0.071262442 -0.12879092 0.48296019
-0.070148192 -0.12905762 0.48396018
-0.068886369 -0.12905763 0.48396018
-0.067764297 -0.12932432 0.48496011
-0.066499867 -0.12932433 0.48496011
-0.030518692 -0.12692492 0.47596017
-0.029216202 -0.12665828 0.47496021
-0.02791892 -0.12639162 0.47396025
-0.026626853 -0.12612498 0.47296026
-0.025340004 -0.12585832 0.47196028
-0.024058366 -0.12559167 0.47096029
-0.022781942 -0.12532502 0.46996033
-0.02151073 -0.12505837 0.46896034
-0.020244736 -0.12479173 0.46796036
-0.018983955 -0.12452508 0.46696037
-0.01772839 -0.12425843 0.46596041
-0.016513498 -0.12425844 0.46596038
-0.015265753 -0.1239918 0.46496043
-0.01402322 -0.12372515 0.46396044
-0.012813543 -0.12372518 0.46396044
-0.011578832 -0.12345852 0.46296045
-0.010371762 -0.12345854 0.46296045
-0.0091448734 -0.12319189 0.46196046
-0.0079231979 -0.12292524 0.46096051
-0.0067067365 -0.12265859 0.45996049
-0.00549549 -0.12239194 0.45896053
-0.0042894576 -0.1221253 0.45796058
-0.0030886394 -0.12185864 0.45696059
-0.0018930348 -0.12159199 0.4559606
-0.00070264452 -0.12132534 0.45496061
0.00048253153 -0.1210587 0.45396066
0.0016624933 -0.12079203 0.45296067
0.002830989 -0.12025873 0.45096073
0.0074507305 -0.11892543 0.44596082
0.0086134803 -0.11892545 0.44596082
0.0097981263 -0.11919215 0.44696081
-0.098201513 -0.11485614 0.43496186
-0.096844271 -0.11459209 0.43396184
-0.09593337 -0.11485618 0.43496183
-0.094799295 -0.1148562 0.43496183
-0.093880571 -0.11512027 0.43596178
-0.092743888 -0.11512029 0.43596178
-0.091607206 -0.11512031 0.43596178
-0.090678051 -0.11538438 0.43696171
-0.089743681 -0.11564848 0.4379617
-0.08860179 -0.1156485 0.4379617
-0.087659597 -0.11591257 0.43896165
-0.086712204 -0.11617665 0.43996164
-0.08595407 -0.1167048 0.44196159
-0.084993638 -0.11696888 0.44296154
-0.084217265 -0.11749702 0.44496149
-0.083430462 -0.11802516 0.44696143
-0.082817294 -0.11881736 0.44996133
-0.082369938 -0.11987364 0.45396122
-0.081901729 -0.1209299 0.45796111
-0.081588909 -0.12225022 0.46296096
-0.080902748 -0.12304243 0.46596086
-0.080371961 -0.1240987 0.46996075
-0.079651907 -0.12489091 0.47296065
-0.078750387 -0.12541905 0.4749606
-0.077838451 -0.12594719 0.47696054
-0.076916084 -0.12647535 0.47896048
-0.075825289 -0.12673941 0.47996044
-0.074729286 -0.12700351 0.48096043
-0.073780842 -0.12753165 0.48296034
-0.072521627 -0.12753166 0.48296034
-0.071409985 -0.12779577 0.48396033
-0.070293121 -0.12805985 0.48496026
-0.069171049 -0.12832393 0.48596025
-0.067904018 -0.12832396 0.48596025
-0.027977824 -0.12541993 0.47496033
-0.026683148 -0.1251559 0.47396037
-0.025393691 -0.12489185 0.47296038
-0.024109447 -0.12462781 0.47196043
-0.022830416 -0.12436377 0.47096041
-0.021556599 -0.12409973 0.46996045
-0.020287996 -0.12383568 0.46896046
-0.019024607 -0.12357163 0.46796048
-0.017766435 -0.12330759 0.46696049
-0.016513476 -0.12304354 0.46596053
-0.015265732 -0.12277951 0.46496058
-0.014053446 -0.12277953 0.46496055
-0.012813522 -0.12251548 0.46396056
-0.011603842 -0.12251551 0.46396056
-0.010371741 -0.12225147 0.4629606
-0.0091448519 -0.12198742 0.46196058
-0.0079403883 -0.12198744 0.46196058
-0.0067213201 -0.1217234 0.46096063
-0.0055074659 -0.12145936 0.45996064
-0.0042988267 -0.12119532 0.45896065
-0.0030954015 -0.12093128 0.4579607
-0.0018971899 -0.12066723 0.45696071
-0.00070419273 -0.12040319 0.45596072
0.00048359041 -0.12013914 0.45496073
0.0098638311 -0.11881898 0.44996083
-0.099335566 -0.11372206 0.43496197
-0.098201491 -0.11372207 0.43496197
-0.097067423 -0.11372209 0.43496197
-0.095933348 -0.11372212 0.43496194
-0.094799273 -0.11372213 0.43496194
-0.093880557 -0.11398359 0.4359619
-0.092743874 -0.11398362 0.4359619
-0.091817319 -0.11424509 0.43696186
-0.090885557 -0.11450657 0.43796185
-0.089743666 -0.11450659 0.43796182
-0.088804074 -0.11476806 0.43896177
-0.087859295 -0.11502954 0.43996176
-0.086909279 -0.11529101 0.44096172
-0.085954048 -0.11555248 0.44196171
-0.085185498 -0.11607542 0.44396165
-0.084406525 -0.11659834 0.44596156
-0.08380378 -0.11738272 0.4489615
-0.083185397 -0.1181671 0.4519614
-0.082732841 -0.11921295 0.45596129
-0.082259402 -0.12025878 0.45996115
-0.08176513 -0.12130462 0.46396106
-0.081076361 -0.122089 0.46696097
-0.080542967 -0.12313484 0.47096086
-0.079820313 -0.12391923 0.47396079
-0.078916185 -0.12444215 0.4759607
-0.078001626 -0.12496509 0.47796065
-0.077076659 -0.12548801 0.47996059
-0.075983256 -0.1257495 0.48096058
-0.074884653 -0.12601095 0.48196054
-0.07378082 -0.12627244 0.48296046
-0.072671779 -0.12653393 0.48396045
-0.071557529 -0.1267954 0.48496041
-0.070438065 -0.12705688 0.48596039
-0.069171026 -0.1270569 0.48596039
-0.026795762 -0.12444306 0.47596043
-0.025501091 -0.12418162 0.47496045
-0.024160529 -0.12365874 0.4729605
-0.022927385 -0.12365876 0.4729605
-0.021602467 -0.12313586 0.47096053
-0.02033126 -0.12287443 0.46996057
-0.019065261 -0.12261299 0.46896058
-0.017804481 -0.12235156 0.46796063
-0.016548915 -0.12209012 0.46696061
-0.015298564 -0.12182868 0.46596065
-0.014053425 -0.12156726 0.46496069
-0.0128135 -0.12130582 0.46396068
-0.011603821 -0.12130584 0.46396068
-0.010371719 -0.1210444 0.46296072
-0.0091646481 -0.12104443 0.46296072
-0.0079403669 -0.12078298 0.4619607
-0.0067359032 -0.120783 0.4619607
-0.0055194423 -0.12052158 0.46096075
-0.0043081958 -0.12026013 0.45996076
-0.0031021636 -0.1199987 0.45896077
-0.001901345 -0.11973727 0.45796081
-0.00070730963 -0.11973729 0.45796081
0.00048568752 -0.11947585 0.45696083
0.0016771159 -0.11947587 0.4569608
0.0028560394 -0.11895297 0.45496085
0.0040333946 -0.11869154 0.4539609
0.0075675352 -0.11843014 0.45296088
0.0087485341 -0.11843015 0.45296088
-0.099335544 -0.11258797 0.43496209
-0.098201469 -0.11258799 0.43496209
-0.097067401 -0.11258801 0.43496209
-0.095933326 -0.11258803 0.43496206
-0.095017217 -0.1128469 0.43596202
-0.093880534 -0.11284691 0.43596202
-0.09295658 -0.11310577 0.43696198
-0.092027433 -0.11336465 0.43796197
-0.090885535 -0.11336467 0.43796197
-0.089948565 -0.11362354 0.43896192
-0.089006379 -0.1138824 0.43996188
-0.088058978 -0.11414127 0.44096184
-0.087106355 -0.11440013 0.44196182
-0.08634302 -0.11491785 0.44396177
-0.085377358 -0.11517671 0.44496173
-0.084785052 -0.11595328 0.44796163
-0.083990425 -0.11647099 0.44996157
-0.083553508 -0.11750641 0.45396149
-0.083095722 -0.11854181 0.45796138
-0.082617082 -0.11957721 0.46196124
-0.081941351 -0.12035378 0.46496117
-0.08142361 -0.12138919 0.46896103
-0.08071398 -0.12216575 0.47196096
-0.07982029 -0.12268347 0.47396091
-0.079081982 -0.12346003 0.47696081
-0.078164823 -0.12397775 0.47896075
-0.077076636 -0.12423662 0.47996071
-0.075983234 -0.12449549 0.4809607
-0.075040005 -0.1250132 0.48296061
-0.073933579 -0.1252721 0.4839606
-0.07282193 -0.12553094 0.48496056
-0.071705073 -0.12578982 0.48596054
-0.070582993 -0.12604867 0.4869605
-0.024262713 -0.12294328 0.4749606
-0.02297586 -0.12268446 0.47396061
-0.021694222 -0.12242563 0.47296062
-0.02037452 -0.12190795 0.47096068
-0.019105917 -0.12164913 0.46996069
-0.017842527 -0.12139029 0.4689607
-0.016548894 -0.12087262 0.46696076
-0.015298543 -0.12061378 0.46596077
-0.014053403 -0.12035497 0.46496081
-0.012841119 -0.12035499 0.46496081
-0.0116038 -0.12009615 0.46396083
-0.010394122 -0.12009618 0.4639608
-0.0091646267 -0.11983735 0.46296084
-0.0079575563 -0.11983737 0.46296084
-0.0067358818 -0.11957853 0.46196082
-0.0055314181 -0.11957856 0.46196082
-0.0043175644 -0.11931974 0.46096087
-0.0031157087 -0.11931976 0.46096087
-0.0019096758 -0.11906093 0.45996085
-0.00071042642 -0.11906094 0.45996085
0.00048882305 -0.11906096 0.45996085
0.0016880726 -0.11906099 0.45996085
0.0028810694 -0.11880216 0.45896089
0.0040688529 -0.11854333 0.4579609
0.00644285 -0.11828452 0.45696092
0.0076342784 -0.11828454 0.45696092
0.012508427 -0.11932003 0.46096078
-0.099335529 -0.11145391 0.43496221
-0.098201454 -0.11145393 0.43496221
-0.097067386 -0.11145395 0.43496221
-0.09615387 -0.1117102 0.43596217
-0.095017195 -0.11171022 0.43596214
-0.094095856 -0.11196648 0.4369621
-0.092956565 -0.1119665 0.4369621
-0.092027411 -0.11222277 0.43796209
-0.090885513 -0.11222278 0.43796209
-0.090153471 -0.11273528 0.43996203
-0.08920867 -0.11299153 0.44096199
-0.088258661 -0.1132478 0.44196197
-0.087500535 -0.1137603 0.44396192
-0.086537488 -0.11401656 0.44496188
-0.085761115 -0.11452905 0.44696182
-0.085163593 -0.11529779 0.44996172
-0.084550418 -0.11606653 0.45296162
-0.083921611 -0.11683528 0.45596156
-0.083458617 -0.11786027 0.45996141
-0.082795911 -0.11862899 0.46296135
-0.082117572 -0.11939774 0.46596128
-0.081597224 -0.12042273 0.46996117
-0.080884978 -0.12119147 0.47296107
-0.079988681 -0.12170397 0.47496101
-0.07908196 -0.12221647 0.47696096
-0.078164801 -0.12272897 0.4789609
-0.077076614 -0.12298524 0.47996086
-0.076141208 -0.12349774 0.4819608
-0.075195372 -0.12401024 0.48396075
-0.074086331 -0.1242665 0.48496071
-0.072972082 -0.12452277 0.48596069
-0.072000183 -0.12503527 0.48796064
-0.023024336 -0.12170496 0.47496071
-0.02174009 -0.12144874 0.47396073
-0.02041778 -0.12093627 0.47196078
-0.019146569 -0.12068006 0.4709608
-0.017880576 -0.12042384 0.46996081
-0.016584333 -0.11991137 0.46796086
-0.015331374 -0.11965515 0.46696088
-0.014083628 -0.11939892 0.46596089
-0.012841098 -0.11914271 0.46496093
-0.011603779 -0.11888649 0.46396095
-0.010394102 -0.11888651 0.46396095
-0.0091646062 -0.11863028 0.46296096
-0.0079575358 -0.1186303 0.46296096
-0.0067504649 -0.11863032 0.46296096
-0.0055313972 -0.1183741 0.46196097
-0.0043269335 -0.11837412 0.46196094
-0.0031224701 -0.11837415 0.46196094
-0.0019180066 -0.11837416 0.46196094
-0.00071354292 -0.11837418 0.46196094
0.00049092062 -0.11837421 0.46196094
0.0016990296 -0.11863047 0.4629609
0.0028998477 -0.11837425 0.46196091
0.0041043111 -0.11837427 0.46196091
0.0053087748 -0.11837429 0.46196091
0.0065132384 -0.11837431 0.46196088
0.0077177021 -0.11837433 0.46196088
0.008941453 -0.1186306 0.46296087
0.010148523 -0.11863062 0.46296087
0.011380096 -0.11888689 0.46396083
0.012589774 -0.1188869 0.46396083
0.013858885 -0.11939941 0.46596074
-0.099335507 -0.11031983 0.43496233
-0.098201431 -0.11031985 0.43496233
-0.097067364 -0.11031987 0.43496233
-0.096153848 -0.11057352 0.43596229
-0.095017172 -0.11057354 0.43596226
-0.094095834 -0.11082719 0.43696222
-0.093169287 -0.11108084 0.4379622
-0.092237517 -0.11133449 0.43896216
-0.091300555 -0.11158815 0.43996215
-0.090358362 -0.11184181 0.44096211
-0.089613281 -0.11234908 0.44296205
-0.088658057 -0.11260275 0.44396204
-0.087894708 -0.11311001 0.44596195
-0.087120943 -0.11361731 0.4479619
-0.086336747 -0.11412459 0.44996184
-0.08554212 -0.11463188 0.45196179
-0.084923737 -0.1153928 0.45496169
-0.084473781 -0.11640734 0.45896161
-0.083821498 -0.11716827 0.46196151
-0.083153591 -0.1179292 0.46496144
-0.082293786 -0.11843648 0.46696135
-0.081597202 -0.1191974 0.46996129
-0.080884963 -0.11995833 0.47296119
-0.079988658 -0.12046561 0.47496113
-0.079081938 -0.12097289 0.47696108
-0.078164779 -0.12148018 0.47896102
-0.077237189 -0.12198747 0.48096097
-0.076141186 -0.12224112 0.48196092
-0.07519535 -0.12274841 0.48396087
-0.07423909 -0.12325571 0.48596081
-0.073122226 -0.12350936 0.48696077
-0.021785958 -0.12046662 0.47496083
-0.020461038 -0.11995938 0.47296089
-0.019187223 -0.11970576 0.4719609
-0.017880553 -0.11919851 0.46996096
-0.016619772 -0.11894489 0.46896097
-0.015364207 -0.11869128 0.46796098
-0.014113854 -0.11843766 0.466961
-0.012868715 -0.11818405 0.46596104
-0.011628791 -0.11793044 0.46496105
-0.010394081 -0.11767682 0.46396106
-0.0091645848 -0.11742321 0.46296111
-0.0079575144 -0.11742322 0.46296108
-0.006750444 -0.11742324 0.46296108
-0.0055433731 -0.11742327 0.46296108
-0.0043363026 -0.11742329 0.46296108
-0.0031224492 -0.11716968 0.46196106
-0.0019221612 -0.11742333 0.46296105
-0.0007150906 -0.11742335 0.46296105
0.00049301831 -0.11767701 0.46396101
0.0017063415 -0.11793067 0.46496099
0.0029186259 -0.1179307 0.46496099
0.0041309111 -0.11793072 0.46496096
0.0053431955 -0.11793073 0.46496096
0.0065695536 -0.11818439 0.46596092
0.0077677658 -0.11793078 0.46496096
0.0089993384 -0.11818443 0.46596092
0.01021423 -0.11818445 0.46596089
0.011429122 -0.11818448 0.46596089
-0.099335484 -0.10918576 0.43496245
-0.098427191 -0.1094368 0.43596241
-0.097290516 -0.10943682 0.43596241
-0.096153833 -0.10943684 0.43596241
-0.095235102 -0.10968788 0.43696237
-0.094311163 -0.10993893 0.43796235
-0.093382001 -0.11018998 0.43896228
-0.092447639 -0.11044103 0.43996227
-0.091508061 -0.11069207 0.44096223
-0.090768188 -0.11119414 0.44296217
-0.089815572 -0.1114452 0.44396216
-0.089257151 -0.11219828 0.44696209
-0.088485979 -0.11270036 0.44896203
-0.0875099 -0.1129514 0.44996199
-0.086912379 -0.1137045 0.45296189
-0.086109929 -0.11420657 0.45496184
-0.08548373 -0.11495967 0.45796177
-0.084841885 -0.11571277 0.46096167
-0.084184393 -0.11646587 0.46396157
-0.083332427 -0.11696794 0.46596152
-0.082646251 -0.11772104 0.46896145
-0.081770815 -0.11822312 0.47096139
-0.081055969 -0.11897621 0.47396132
-0.079988636 -0.11922726 0.47496128
-0.079247728 -0.11998036 0.47796118
-0.078164756 -0.1202314 0.47896117
-0.077237166 -0.12073348 0.48096111
-0.076299161 -0.12123556 0.48296103
-0.075350709 -0.12173763 0.48496097
-0.074391849 -0.1222397 0.48696092
-0.073272385 -0.12249076 0.4879609
-0.02054758 -0.1192283 0.47496095
-0.019227875 -0.11872626 0.47296101
-0.017956667 -0.11847525 0.47196102
-0.016655214 -0.11797322 0.46996108
-0.015397039 -0.11772221 0.46896109
-0.014113832 -0.11722017 0.46696112
-0.012868694 -0.11696917 0.46596116
-0.01162877 -0.11671817 0.4649612
-0.010394059 -0.11646716 0.46396118
-0.0091645634 -0.11621615 0.46296123
-0.007957493 -0.11621616 0.46296123
-0.0067504225 -0.11621618 0.46296123
-0.0055313548 -0.11596517 0.46196121
-0.0043362812 -0.11621623 0.4629612
-0.003129211 -0.11621625 0.4629612
-0.00192214 -0.11621626 0.4629612
-0.00071663805 -0.11646732 0.46396115
0.00049407792 -0.11671837 0.46496111
0.0017100081 -0.11696942 0.46596107
0.0029249 -0.11696944 0.46596107
0.0041486514 -0.11722049 0.46696103
0.0053661503 -0.11722051 0.46696103
0.0065836492 -0.11722053 0.46696103
0.0078011486 -0.11722055 0.466961
0.0090186466 -0.11722057 0.466961
0.010236145 -0.1172206 0.466961
0.011453644 -0.11722062 0.466961
-0.10046954 -0.10805166 0.43496257
-0.099335469 -0.10805168 0.43496257
-0.098427169 -0.10830011 0.43596253
-0.097290494 -0.10830013 0.43596253
-0.096153811 -0.10830015 0.43596253
-0.095235087 -0.10854858 0.43696249
-0.09431114 -0.10879703 0.43796247
-0.09359473 -0.10929388 0.43996242
-0.092657752 -0.10954233 0.44096237
-0.091923095 -0.11003918 0.44296232
-0.091178 -0.11053605 0.44496226
-0.090422489 -0.1110329 0.44696221
-0.089656539 -0.11152976 0.44896215
-0.088880159 -0.11202662 0.4509621
-0.088093355 -0.11252347 0.45296201
-0.087296121 -0.11302033 0.45496196
-0.086488463 -0.11351719 0.4569619
-0.085857049 -0.11426246 0.45996183
-0.085209996 -0.11500774 0.46296176
-0.08436583 -0.11550461 0.46496171
-0.083511241 -0.11600146 0.46696162
-0.082646228 -0.11649831 0.46896157
-0.081770793 -0.11699518 0.47096151
-0.081055947 -0.11774046 0.47396144
-0.080157042 -0.11823732 0.47596136
-0.079247706 -0.11873417 0.4779613
-0.078327939 -0.11923104 0.47996125
-0.077237144 -0.11947948 0.48096123
-0.076299138 -0.11997634 0.48296115
-0.075506076 -0.12072162 0.48596111
-0.074544609 -0.12121848 0.48796105
-0.073422529 -0.12146692 0.48896101
-0.019268528 -0.11774154 0.47396111
-0.017994711 -0.11749314 0.47296113
-0.016690651 -0.11699631 0.47096118
-0.015429871 -0.11674792 0.4699612
-0.014174304 -0.11649951 0.46896121
-0.012896312 -0.11600269 0.46696123
-0.011628749 -0.11550587 0.46496132
-0.010394038 -0.11525747 0.46396133
-0.009164542 -0.11500907 0.46296135
-0.0079574715 -0.11500908 0.46296135
-0.0067504016 -0.11500911 0.46296135
-0.0055433307 -0.11500913 0.46296135
-0.0043456499 -0.11525758 0.4639613
-0.0031359724 -0.1152576 0.46396127
-0.0019304703 -0.11550604 0.46496126
-0.0007197542 -0.11575448 0.46596122
0.00049617596 -0.11600292 0.46696118
0.0017136749 -0.11600295 0.46696118
0.0029374263 -0.11625139 0.46796116
0.0041575325 -0.11625141 0.46796113
0.0053891046 -0.11649985 0.46896109
0.0065977443 -0.11625145 0.46796113
0.0078178504 -0.11625147 0.46796113
0.0090379557 -0.11625149 0.46796113
-0.1018372 -0.10716337 0.43596268
-0.10070051 -0.10716339 0.43596268
-0.09956383 -0.10716341 0.43596265
-0.098427147 -0.10716343 0.43596265
-0.097513638 -0.10740925 0.4369626
-0.096374348 -0.10740928 0.4369626
-0.095453024 -0.10765512 0.43796259
-0.094741829 -0.10814675 0.43996254
-0.093807451 -0.10839259 0.44096249
-0.09307801 -0.10888422 0.44296244
-0.09233813 -0.10937587 0.44496238
-0.091587827 -0.10986752 0.44696233
-0.091029406 -0.11060497 0.44996226
-0.090255633 -0.11109662 0.4519622
-0.089471437 -0.11158827 0.45396215
-0.08867681 -0.11207991 0.45596209
-0.08787176 -0.11257156 0.45796204
-0.087056272 -0.11306319 0.45996195
-0.086230367 -0.11355484 0.4619619
-0.085578091 -0.1142923 0.46496183
-0.084547274 -0.11453813 0.46596178
-0.08369007 -0.11502977 0.46796173
-0.082822457 -0.11552142 0.4699617
-0.081944399 -0.11601306 0.47196165
-0.081055924 -0.11650471 0.47396159
-0.080157019 -0.11699636 0.47596151
-0.079247683 -0.117488 0.47796145
-0.078327917 -0.11797965 0.4799614
-0.077397726 -0.11847129 0.48196134
-0.076457106 -0.11896294 0.48396128
-0.075506054 -0.11945459 0.48596123
-0.074544586 -0.11994623 0.48796117
-0.073422506 -0.12019207 0.48896113
-0.019309182 -0.1167516 0.47496122
-0.018032759 -0.11650582 0.47396123
-0.016761549 -0.11626002 0.47296125
-0.015462702 -0.11576841 0.4709613
-0.014204528 -0.11552262 0.46996132
-0.01295157 -0.11527682 0.46896133
-0.011678791 -0.11478522 0.46696138
-0.010416443 -0.11429361 0.46496144
-0.0091843391 -0.11404781 0.46396145
-0.007957451 -0.11380202 0.46296147
-0.0067503802 -0.11380204 0.46296147
-0.0055553066 -0.11404788 0.46396142
-0.0043456289 -0.1140479 0.46396142
-0.0031427343 -0.11429374 0.46496141
-0.0019388003 -0.11478538 0.46696132
-0.00072287023 -0.11503122 0.46796131
0.0004972358 -0.11503124 0.46796128
0.0017209871 -0.11527707 0.46896124
0.0029437004 -0.1152771 0.46896124
0.0041664136 -0.11527712 0.46896124
0.005389126 -0.11527714 0.46896124
0.0066118394 -0.11527716 0.46896124
0.0090379771 -0.11503139 0.46796125
-0.10183718 -0.10602669 0.4359628
-0.10070049 -0.10602672 0.4359628
-0.099792182 -0.10626993 0.43696275
-0.098652899 -0.10626995 0.43696272
-0.097513616 -0.10626997 0.43696272
-0.096594892 -0.1065132 0.43796271
-0.095670946 -0.10675642 0.43896267
-0.094957151 -0.10724285 0.44096261
-0.094232924 -0.10772928 0.44296256
-0.093498245 -0.1082157 0.44496253
-0.092753157 -0.10870214 0.44696248
-0.092202559 -0.10943177 0.44996238
-0.091434002 -0.10991821 0.45196232
-0.090655029 -0.11040464 0.45396227
-0.090062708 -0.11113427 0.4569622
-0.089065768 -0.1113775 0.45796216
-0.08825551 -0.11186393 0.4599621
-0.087434806 -0.11235036 0.46196204
-0.086603686 -0.11283679 0.46396199
-0.085762143 -0.11332321 0.46596193
-0.084728703 -0.11356644 0.46696189
-0.083868906 -0.11405287 0.46896183
-0.082822435 -0.1142961 0.46996182
-0.082118019 -0.11502574 0.47296172
-0.081055909 -0.11526896 0.47396171
-0.080325417 -0.1159986 0.47696161
-0.079247661 -0.11624183 0.47796157
-0.078491099 -0.11697146 0.48096153
-0.077558301 -0.1174579 0.48296145
-0.076615073 -0.11794432 0.48496139
-0.075661421 -0.11843076 0.48696133
-0.074697338 -0.11891719 0.48896128
-0.018070804 -0.11551327 0.47496134
-0.016796989 -0.11527009 0.47396138
-0.015528388 -0.1150269 0.47296137
-0.014234753 -0.1145405 0.47096142
-0.012979188 -0.11429732 0.46996143
-0.011703802 -0.11381093 0.46796149
-0.010438846 -0.11332453 0.46596155
-0.0092041362 -0.11308134 0.46496156
-0.0079746395 -0.11283816 0.46396157
-0.0067795669 -0.11308139 0.46496156
-0.005567282 -0.11308141 0.46496156
-0.0043643871 -0.11332463 0.46596149
-0.0019429547 -0.11381109 0.46796143
-0.00072441739 -0.11405431 0.46896139
0.00049829565 -0.11405434 0.46896139
0.0017246543 -0.11429758 0.46996137
0.0029499745 -0.1142976 0.46996137
0.0078345742 -0.11405446 0.46896136
-0.10207075 -0.10513061 0.43696287
-0.10093146 -0.10513063 0.43696287
-0.099792168 -0.10513065 0.43696287
-0.098878659 -0.10537127 0.43796286
-0.097736768 -0.10537129 0.43796286
-0.09681543 -0.10561191 0.43896279
-0.09588889 -0.10585252 0.43996277
-0.095387824 -0.10657433 0.44296271
-0.094658375 -0.10705555 0.44496265
-0.093918502 -0.10753676 0.44696259
-0.093168184 -0.10801797 0.44896254
-0.092612378 -0.10873979 0.45196247
-0.091838613 -0.109221 0.45396242
-0.091254123 -0.10994283 0.45696232
-0.090456888 -0.11042403 0.45896226
-0.089649223 -0.11090525 0.46096221
-0.088639252 -0.11114587 0.46196216
-0.08781334 -0.11162709 0.46396211
-0.086790338 -0.11186771 0.4649621
-0.08594618 -0.11234892 0.46696201
-0.084910132 -0.11258954 0.467962
-0.084047727 -0.11307076 0.46996197
-0.082998648 -0.11331138 0.4709619
-0.082117997 -0.1137926 0.47296187
-0.081226908 -0.11427381 0.47496182
-0.080325395 -0.11475503 0.47696176
-0.079413459 -0.11523625 0.47896171
-0.078491077 -0.11571746 0.48096165
-0.077718876 -0.11643928 0.48396155
-0.076773047 -0.1169205 0.4859615
-0.075816788 -0.11740172 0.48796147
-0.074697316 -0.11764234 0.48896143
-0.01683243 -0.11427493 0.47496146
-0.01556122 -0.11403436 0.4739615
-0.014295223 -0.11379378 0.47296152
-0.013006805 -0.1133126 0.47096154
-0.011728813 -0.11283141 0.4689616
-0.010461249 -0.11235024 0.46696162
-0.0092239333 -0.11210965 0.46596166
-0.0079918299 -0.11186908 0.46496168
-0.0067795455 -0.1118691 0.46496168
-0.0055792574 -0.11210972 0.46596164
-0.0031562566 -0.11235037 0.46696159
-0.0019471087 -0.11283158 0.46896154
-0.00072596449 -0.11307221 0.46996152
0.00050039421 -0.11331283 0.47096148
-0.10321002 -0.1039913 0.43696299
-0.10207073 -0.10399131 0.43696299
-0.10093144 -0.10399134 0.43696299
-0.10002054 -0.10422935 0.43796298
-0.098878644 -0.10422938 0.43796298
-0.097959906 -0.10446738 0.43896294
-0.097035982 -0.10470539 0.43996292
-0.096324779 -0.1051814 0.44196287
-0.095603161 -0.1056574 0.44396281
-0.095083848 -0.10637138 0.44696271
-0.094338752 -0.10684738 0.44896269
-0.093790755 -0.10756138 0.45196259
-0.093022205 -0.10803737 0.45396253
-0.092445523 -0.10875137 0.45696244
-0.091653511 -0.10922737 0.45896241
-0.090851054 -0.10970338 0.46096236
-0.090038195 -0.11017937 0.4629623
-0.089022994 -0.11041739 0.46396226
-0.0880026 -0.1106554 0.46496224
-0.086976983 -0.11089341 0.4659622
-0.086130217 -0.11136942 0.46796215
-0.085091576 -0.11160742 0.4689621
-0.084226556 -0.11208343 0.47096205
-0.083351113 -0.11255944 0.47296199
-0.082291611 -0.11279745 0.47396198
-0.081397913 -0.11327345 0.47596189
-0.080493793 -0.11374945 0.47796184
-0.079745062 -0.11446345 0.4809618
-0.078817472 -0.11493945 0.48296171
-0.077718854 -0.11517746 0.4839617
-0.076931015 -0.11589146 0.4869616
-0.075972147 -0.11636746 0.48896155
-0.015594051 -0.1130366 0.47496158
-0.014325449 -0.11279863 0.47396162
-0.011753825 -0.1118467 0.4699617
-0.0080090193 -0.11089478 0.46596178
-0.0067941286 -0.11089481 0.46596178
-0.0031698004 -0.11160886 0.46896166
-0.0019512631 -0.11184687 0.46996164
-0.00072751148 -0.11208488 0.4709616
-0.10320999 -0.10285202 0.43696311
-0.1020707 -0.10285203 0.43696311
-0.10116241 -0.10308744 0.4379631
-0.10002051 -0.10308746 0.4379631
-0.09910439 -0.10332286 0.43896306
-0.098183066 -0.10355826 0.43996304
-0.097256519 -0.10379367 0.440963
-0.096542716 -0.10426445 0.44296294
-0.095818482 -0.10473524 0.44496289
-0.095296554 -0.10544141 0.44796282
-0.094758995 -0.10614758 0.45096275
-0.093998261 -0.10661836 0.45296267
-0.093432024 -0.10732454 0.45596263
-0.092647821 -0.10779532 0.45796257
-0.091853194 -0.10826611 0.45996249
-0.091048129 -0.1087369 0.46196243
-0.090038173 -0.1089723 0.46296242
-0.089214861 -0.1094431 0.46496236
-0.088191852 -0.1096785 0.46596232
-0.087163635 -0.1099139 0.46696228
-0.086314261 -0.11038469 0.46896225
-0.085454457 -0.11085548 0.4709622
-0.084405385 -0.11109089 0.47196218
-0.083527334 -0.11156169 0.47396213
-0.082638852 -0.11203247 0.47596204
-0.081739947 -0.11250325 0.47796199
-0.080830611 -0.11297405 0.47996193
-0.079910852 -0.11344483 0.48196188
-0.078980647 -0.11391562 0.48396185
-0.078040034 -0.11438642 0.48596179
-0.077088989 -0.1148572 0.48796174
-0.075972125 -0.11509261 0.4889617
-0.075002819 -0.1155634 0.49096164
-0.014355673 -0.11179826 0.47496173
-0.013089679 -0.11156291 0.47396174
-0.0092635266 -0.11015065 0.46796188
-0.0080262087 -0.10991528 0.46696186
-0.0068233144 -0.11015069 0.46796185
-0.0044018817 -0.11062151 0.46996179
-0.0031833444 -0.11085692 0.47096175
-0.0019595926 -0.11109232 0.47196174
-0.10344618 -0.10194551 0.43796325
-0.10230429 -0.10194553 0.43796325
-0.10116239 -0.10194555 0.43796322
-0.10002049 -0.10194557 0.43796322
-0.099330157 -0.10241114 0.43996316
-0.098406211 -0.10264394 0.44096312
-0.097697623 -0.10310951 0.44296309
-0.096760646 -0.10334231 0.44396308
-0.096249156 -0.10404065 0.44696298
-0.09572202 -0.104739 0.44996288
-0.094969109 -0.10520457 0.45196286
-0.094413288 -0.10590292 0.45496276
-0.093636915 -0.10636849 0.4569627
-0.092850119 -0.10683406 0.45896265
-0.092052884 -0.10729964 0.46096262
-0.091245219 -0.10776521 0.46296257
-0.090232633 -0.10799801 0.46396253
-0.089406729 -0.10846358 0.46596247
-0.088381112 -0.10869638 0.46696243
-0.087536953 -0.10916194 0.46896237
-0.086498305 -0.10939476 0.46996236
-0.085635893 -0.10986034 0.4719623
-0.084763065 -0.11032591 0.47396225
-0.083703548 -0.1105587 0.4749622
-0.082812473 -0.11102428 0.47696218
-0.082081981 -0.11172263 0.47996208
-0.080999017 -0.11195543 0.48096207
-0.080076642 -0.11242101 0.48296198
-0.07914383 -0.11288658 0.48496193
-0.078200608 -0.11335216 0.48696187
-0.077246957 -0.11381773 0.48896185
-0.076282866 -0.11428331 0.49096179
-0.013117297 -0.11055993 0.47496185
-0.011828877 -0.1100944 0.47296187
-0.010550885 -0.10962886 0.47096193
-0.0093031414 -0.1093961 0.46996194
-0.008060609 -0.10916333 0.46896195
-0.0068525001 -0.10939614 0.46996194
-0.0056391768 -0.10962895 0.4709619
-0.0044206395 -0.10986175 0.47196189
-0.10458805 -0.10080359 0.43796337
-0.10344616 -0.10080361 0.43796337
-0.10230426 -0.10080364 0.43796337
-0.10139335 -0.10103382 0.43896332
-0.10047725 -0.10126401 0.43996331
-0.099555902 -0.1014942 0.44096327
-0.098629363 -0.10172439 0.44196326
-0.097918168 -0.10218475 0.4439632
-0.097196542 -0.1026451 0.44596311
-0.096464477 -0.10310546 0.44796306
-0.095934749 -0.103796 0.45096302
-0.095179223 -0.10425634 0.45296293
-0.094620802 -0.10494687 0.45596287
-0.093841821 -0.10540724 0.45796284
-0.093052395 -0.10586759 0.45996276
-0.092252553 -0.10632794 0.4619627
-0.091245197 -0.10655814 0.46296269
-0.090427101 -0.10701851 0.46496263
-0.089598581 -0.10747886 0.46696258
-0.088570364 -0.10770905 0.46796256
-0.087723605 -0.10816941 0.46996251
-0.086866409 -0.10862977 0.47196245
-0.085998788 -0.10909013 0.4739624
-0.084941886 -0.10932032 0.47496235
-0.08405602 -0.10978069 0.4769623
-0.083159722 -0.11024106 0.47896227
-0.082252987 -0.11070142 0.48096222
-0.081335828 -0.11116178 0.48296213
-0.080408245 -0.11162213 0.48496208
-0.079470225 -0.1120825 0.48696202
-0.078521788 -0.11254286 0.48896196
-0.077404924 -0.11277305 0.48996192
-0.076282844 -0.11300324 0.49096191
-0.00689629 -0.10886134 0.47296199
-0.10482684 -0.099889264 0.43896344
-0.10368234 -0.099889286 0.43896344
-0.10253783 -0.099889301 0.43896344
-0.10139333 -0.099889323 0.43896344
-0.10047723 -0.1001169 0.43996343
-0.099781662 -0.10057205 0.44196337
-0.098852508 -0.10079963 0.44296333
-0.098138705 -0.10125478 0.44496328
-0.097414479 -0.10170991 0.44696325
-0.096679807 -0.10216506 0.4489632
-0.096147455 -0.10284776 0.4519631
-0.095389329 -0.10330291 0.45396304
-0.094828308 -0.10398562 0.45696297
-0.094046719 -0.10444076 0.45896292
-0.09305238 -0.10466834 0.45996287
-0.092252538 -0.10512348 0.46196282
-0.091442272 -0.10557863 0.46396279
-0.090621576 -0.10603377 0.46596274
-0.089598559 -0.10626136 0.4669627
-0.088948905 -0.10694408 0.46996263
-0.087910242 -0.10717165 0.47096258
-0.087050453 -0.1076268 0.47296256
-0.086180218 -0.10808194 0.4749625
-0.085299566 -0.1085371 0.47696245
-0.084408484 -0.10899224 0.47896239
-0.083506964 -0.1094474 0.48096234
-0.082595021 -0.10990254 0.48296228
-0.081672646 -0.11035768 0.48496222
-0.080739848 -0.11081283 0.48696217
-0.079633415 -0.11104042 0.48796216
-0.078682363 -0.11149556 0.48996207
-0.077562891 -0.11172315 0.49096206
-0.10482682 -0.098744757 0.43896356
-0.10368232 -0.09874478 0.43896356
-0.10253782 -0.098744795 0.43896356
-0.10162431 -0.098969772 0.43996355
-0.10070558 -0.099194758 0.44096351
-0.10000742 -0.099644676 0.44296345
-0.09907566 -0.099869661 0.44396344
-0.098359242 -0.10031958 0.44596338
-0.097632401 -0.10076951 0.44796333
-0.097110488 -0.1014444 0.45096326
-0.096360177 -0.10189433 0.4529632
-0.095809586 -0.10256921 0.45596313
-0.095035814 -0.10301915 0.45796308
-0.094251618 -0.10346907 0.45996302
-0.093254671 -0.10369405 0.46096301
-0.092452228 -0.10414398 0.46296296
-0.09163934 -0.10459392 0.4649629
-0.090816036 -0.10504384 0.46696281
-0.089982316 -0.10549377 0.46896279
-0.089138158 -0.10594371 0.47096273
-0.088283569 -0.10639364 0.47296268
-0.087418549 -0.10684357 0.47496262
-0.086543113 -0.10729351 0.4769626
-0.085657246 -0.10774343 0.47896254
-0.084760942 -0.10819337 0.48096249
-0.083854206 -0.1086433 0.4829624
-0.082937047 -0.10909323 0.48496237
-0.081841052 -0.10931822 0.48596236
-0.080905646 -0.10976815 0.48796231
-0.079796597 -0.10999313 0.48896226
-0.078842938 -0.11044306 0.49096221
-0.077720866 -0.11066804 0.49196216
-0.10506561 -0.097822607 0.4399637
-0.10391851 -0.097822629 0.4399637
-0.1027714 -0.097822651 0.43996367
-0.10162429 -0.097822666 0.43996367
-0.10093394 -0.098267384 0.44196361
-0.10023318 -0.098712109 0.44396359
-0.099298805 -0.098934472 0.44496354
-0.098579787 -0.099379174 0.44696349
-0.097850338 -0.0998239 0.44896343
-0.097325809 -0.10049096 0.45196337
-0.096572898 -0.10093568 0.45396331
-0.095809564 -0.10138039 0.45596325
-0.09524332 -0.10204745 0.45896319
-0.094251595 -0.10226983 0.45996314
-0.093456961 -0.10271453 0.46196309
-0.092651911 -0.10315926 0.46396306
-0.091836423 -0.10360397 0.46596301
-0.091010511 -0.10404869 0.46796295
-0.090174176 -0.10449341 0.46996289
-0.089516692 -0.10516048 0.47296283
-0.088656887 -0.10560519 0.47496277
-0.08778666 -0.10604992 0.47696272
-0.086906001 -0.10649463 0.47896269
-0.086014912 -0.10693935 0.48096263
-0.085113399 -0.10738406 0.48296255
-0.084201448 -0.10782878 0.48496249
-0.083279081 -0.1082735 0.48696247
-0.08217787 -0.10849588 0.48796245
-0.081237249 -0.10894059 0.48996237
-0.080122985 -0.10916296 0.49096236
-0.07900352 -0.10938533 0.49196231
-0.077878833 -0.10960772 0.4929623
-0.10621271 -0.096675485 0.43996382
-0.1050656 -0.0966755 0.43996382
-0.10391849 -0.096675523 0.43996382
-0.10300498 -0.096895278 0.44096377
-0.10208625 -0.09711504 0.44196376
-0.10116231 -0.097334795 0.44296372
-0.10023316 -0.097554572 0.44396371
-0.099521957 -0.097994059 0.44596362
-0.098800324 -0.098433562 0.4479636
-0.098068275 -0.098873064 0.44996354
-0.097541131 -0.099532306 0.45296344
-0.096785612 -0.099971808 0.45496342
-0.096019678 -0.10041131 0.45696336
-0.095243305 -0.10085081 0.4589633
-0.094456494 -0.10129032 0.46096328
-0.093456939 -0.10151007 0.46196324
-0.092651889 -0.10194958 0.46396318
-0.0918364 -0.10238907 0.46596313
-0.091204986 -0.10304832 0.46896306
-0.090366036 -0.10348783 0.470963
-0.089705944 -0.10414708 0.47396293
-0.089030206 -0.10480633 0.47696286
-0.088154763 -0.10524582 0.47896281
-0.087268889 -0.10568533 0.48096278
-0.086551443 -0.10634457 0.48396268
-0.085465856 -0.10656433 0.48496264
-0.084548704 -0.10700384 0.48696259
-0.083621122 -0.10744335 0.48896256
-0.082514688 -0.10766311 0.48996252
-0.081403032 -0.10788287 0.49096251
-0.080286175 -0.10810263 0.49196246
-0.079164095 -0.1083224 0.49296245
-0.10621268 -0.095528372 0.43996394
-0.10506558 -0.095528387 0.43996394
-0.10415468 -0.095745541 0.44096389
-0.10323855 -0.095962696 0.44196388
-0.10231722 -0.096179843 0.44296384
-0.10139067 -0.096397005 0.44396383
-0.10045891 -0.096614152 0.44496378
-0.099968269 -0.097265571 0.44796371
-0.099241428 -0.097699858 0.44996366
-0.098504156 -0.098134153 0.45196363
-0.09775646 -0.098568432 0.45396358
-0.096998341 -0.099002719 0.45596352
-0.096229784 -0.099437013 0.45796347
-0.095450796 -0.0998713 0.45996341
-0.094661385 -0.10030559 0.46196336
-0.093659237 -0.10052274 0.46296334
-0.092851572 -0.10095704 0.46496329
-0.092033476 -0.10139132 0.46696323
-0.091399454 -0.10204274 0.46996316
-0.090749785 -0.10269417 0.47296309
-0.089895196 -0.10312846 0.47496304
-0.089216843 -0.10377987 0.47796297
-0.088522866 -0.1044313 0.4809629
-0.087631777 -0.10486559 0.48296285
-0.086909115 -0.10551702 0.48596278
-0.085818321 -0.10573417 0.48696274
-0.084895954 -0.10616846 0.48896268
-0.08379212 -0.10638562 0.48996264
-0.082683079 -0.10660278 0.49096262
-0.08156883 -0.10681994 0.49196258
-0.08044935 -0.10703709 0.49296257
-0.07932467 -0.10725424 0.49396256
-0.10645408 -0.094595782 0.44096404
-0.10530437 -0.094595805 0.44096401
-0.10439085 -0.094810352 0.441964
-0.10323853 -0.094810374 0.441964
-0.1023172 -0.095024914 0.44296396
-0.10161903 -0.095453985 0.44496393
-0.10091044 -0.095883057 0.44696388
-0.10019142 -0.096312135 0.44896382
-0.099461973 -0.096741207 0.4509638
-0.098722093 -0.097170278 0.45296371
-0.09797179 -0.097599357 0.45496365
-0.097211055 -0.098028436 0.45696363
-0.096439898 -0.0984575 0.45896357
-0.095450774 -0.098672055 0.45996353
-0.094661362 -0.099101126 0.46196347
-0.093659215 -0.099315673 0.46296346
-0.093051255 -0.099959269 0.46596339
-0.092230551 -0.10038835 0.46796334
-0.091593921 -0.10103195 0.47096327
-0.090941653 -0.10167556 0.47396323
-0.09027373 -0.10231916 0.47696313
-0.089590169 -0.10296276 0.47996306
-0.088890962 -0.10360636 0.48296297
-0.087994657 -0.10403543 0.48496294
-0.087266788 -0.10467904 0.48796287
-0.086170785 -0.10489359 0.48896283
-0.08506956 -0.10510813 0.48996279
-0.083963126 -0.10532269 0.49096277
-0.083019905 -0.10575177 0.49296275
-0.08173462 -0.10575179 0.49296272
-0.080612533 -0.10596633 0.49396268
-0.10760377 -0.093446046 0.44096416
-0.10645406 -0.093446068 0.44096416
-0.10554316 -0.093658008 0.44196415
-0.10439084 -0.09365803 0.44196415
-0.10347211 -0.093869969 0.44296411
-0.10254817 -0.094081916 0.44396409
-0.1018474 -0.094505765 0.44596401
-0.10113619 -0.094929628 0.44796395
-0.10041457 -0.095353477 0.44996393
-0.09968251 -0.09577734 0.45196387
-0.09894003 -0.096201211 0.45396385
-0.098187126 -0.09662506 0.45596379
-0.097423777 -0.097048923 0.45796373
-0.096439876 -0.097260855 0.45896369
-0.095658287 -0.097684719 0.46096367
-0.094866268 -0.098108575 0.46296361
-0.093861513 -0.098320529 0.46396357
-0.093250938 -0.098956302 0.4669635
-0.092427634 -0.099380158 0.46896344
-0.091982879 -0.10022786 0.47296336
-0.091133505 -0.10065173 0.47496331
-0.090652265 -0.10149942 0.47896323
-0.089963488 -0.1021352 0.48196316
-0.089259066 -0.10277098 0.48496306
-0.088357553 -0.10319485 0.48696303
-0.087445617 -0.10361872 0.48896298
-0.086346999 -0.10383065 0.48996294
-0.085243173 -0.1040426 0.49096292
-0.08430516 -0.10446646 0.49296287
-0.083019882 -0.10446648 0.49296287
-0.08190041 -0.10467841 0.49396282
-0.10784778 -0.092505649 0.44196427
-0.10669546 -0.092505671 0.44196427
-0.10578194 -0.092715003 0.44296423
-0.10462702 -0.092715017 0.44296423
-0.10370569 -0.092924364 0.44396421
-0.10277913 -0.093133688 0.44496417
-0.10207576 -0.093552321 0.44696414
-0.10136195 -0.093970977 0.44896409
-0.10063772 -0.094389625 0.45096403
-0.099903047 -0.094808251 0.45296398
-0.099157959 -0.095226906 0.45496392
-0.098402441 -0.095645554 0.45696387
-0.097423755 -0.095854886 0.45796388
-0.096649989 -0.096273534 0.4599638
-0.095658265 -0.096482866 0.46096379
-0.094866246 -0.096901506 0.46296373
-0.094063796 -0.097320162 0.4649637
-0.093450621 -0.097948112 0.46796361
-0.092821799 -0.098576076 0.47096354
-0.092177354 -0.099204034 0.4739635
-0.091517255 -0.099831998 0.4769634
-0.091030791 -0.10066926 0.48096332
-0.090336807 -0.10129723 0.48396325
-0.089627169 -0.10192519 0.48696315
-0.088720441 -0.10234384 0.48896313
-0.087624438 -0.10255317 0.48996308
-0.086699463 -0.10297181 0.49196303
-0.085590422 -0.10318116 0.49296302
-0.084305137 -0.10318118 0.49296302
-0.083188273 -0.10339051 0.49396297
-0.082066201 -0.10359985 0.49496296
-0.080775693 -0.10359987 0.49496296
-0.0084734652 -0.1031825 0.4929626
-0.10924672 -0.091560014 0.44296438
-0.10784776 -0.091353327 0.44196439
-0.10693686 -0.091560051 0.44296438
-0.10578193 -0.091560073 0.44296435
-0.1048632 -0.091766804 0.44396433
-0.10370567 -0.091766827 0.44396433
-0.1030101 -0.092180245 0.44596428
-0.10230412 -0.092593677 0.44796422
-0.10158771 -0.093007103 0.44996417
-0.10086086 -0.093420535 0.45196414
-0.10012359 -0.093833975 0.45396408
-0.099375904 -0.094247401 0.45596406
-0.098402418 -0.094454125 0.45696402
-0.097636476 -0.094867557 0.45896396
-0.096649967 -0.095074281 0.45996392
-0.095865764 -0.095487714 0.46196389
-0.095071144 -0.095901147 0.46396384
-0.094266094 -0.096314579 0.46596378
-0.093650304 -0.096934713 0.46896371
-0.093018882 -0.097554848 0.47196367
-0.092371814 -0.098174989 0.47496358
-0.091901004 -0.099001832 0.47896349
-0.091409318 -0.099828675 0.48296338
-0.090710126 -0.10044882 0.48596334
-0.089811213 -0.10086226 0.48796329
-0.088901877 -0.10127568 0.48996323
-0.087982118 -0.10168912 0.49196318
-0.086875677 -0.10189585 0.49296317
-0.085764028 -0.10210257 0.49396312
-0.084476143 -0.10210259 0.49396312
-0.083356671 -0.10230932 0.49496311
-0.082066178 -0.10230935 0.49496311
-0.0085078636 -0.10231063 0.49496272
-0.0045988169 -0.10148386 0.49096277
-0.10924669 -0.090405084 0.44296449
-0.10809176 -0.090405099 0.44296449
-0.10693683 -0.090405121 0.44296449
-0.10602072 -0.090609245 0.44396448
-0.10486318 -0.090609267 0.44396448
-0.10393924 -0.090813383 0.44496444
-0.10324108 -0.091221593 0.44696438
-0.10253248 -0.091629811 0.44896436
-0.10181347 -0.092038035 0.4509643
-0.10108401 -0.092446238 0.45296422
-0.10034413 -0.092854455 0.45496419
-0.099593833 -0.09326268 0.45696414
-0.098617747 -0.093466796 0.45796412
-0.097636461 -0.093670912 0.45896408
-0.096649945 -0.093875036 0.45996404
-0.095865741 -0.094283253 0.46196401
-0.095071122 -0.09469147 0.46396396
-0.094468378 -0.095303781 0.46696389
-0.093850002 -0.095916107 0.46996385
-0.093215957 -0.096528418 0.47296375
-0.092760779 -0.097344838 0.47696367
-0.092284746 -0.09816125 0.48096359
-0.091598578 -0.098773569 0.48396352
-0.091083437 -0.099589989 0.48796344
-0.090179317 -0.099998198 0.48996335
-0.089083306 -0.10020233 0.49096334
-0.08816094 -0.10061055 0.49296331
-0.087051891 -0.10081466 0.49396327
-0.085937642 -0.10101879 0.49496326
-0.084647141 -0.10101881 0.49496326
-0.083525069 -0.10122293 0.49596322
-0.082231961 -0.10122295 0.49596322
-0.0085078413 -0.10102013 0.49496284
-0.0072027412 -0.10081606 0.49396285
-0.0059028557 -0.10061198 0.49296287
-0.004598794 -0.1002038 0.49096289
-0.0033119442 -0.099999711 0.48996291
-0.11065084 -0.089451626 0.44396463
-0.10949331 -0.089451648 0.44396463
-0.10809174 -0.08925017 0.44296461
-0.10717824 -0.089451686 0.4439646
-0.1060207 -0.089451708 0.4439646
-0.10509937 -0.089653216 0.44496456
-0.10417282 -0.089854717 0.44596452
-0.10347204 -0.090257727 0.44796449
-0.10276084 -0.090660729 0.44996443
-0.10203922 -0.09106373 0.45196438
-0.10130715 -0.09146674 0.45396435
-0.10034411 -0.091668241 0.45496431
-0.099593811 -0.09207125 0.45696425
-0.098833077 -0.092474252 0.45896423
-0.097849168 -0.09267576 0.45996419
-0.096649922 -0.092675783 0.45996419
-0.096073255 -0.093280278 0.46296412
-0.09527602 -0.09368328 0.46496409
-0.094468363 -0.094086282 0.46696401
-0.094049685 -0.094892271 0.47096393
-0.093413033 -0.095496774 0.47396389
-0.092955247 -0.096302755 0.47796378
-0.092668489 -0.09731023 0.48296365
-0.091977112 -0.09791474 0.48596361
-0.091270082 -0.098519236 0.48896354
-0.090363353 -0.098922238 0.49096349
-0.089446202 -0.099325247 0.49296346
-0.088160917 -0.099325269 0.49296343
-0.087228112 -0.099728271 0.49496341
-0.085937619 -0.099728294 0.49496341
-0.084818147 -0.09992981 0.49596336
-0.083525047 -0.099929832 0.49596334
-0.082231939 -0.099929854 0.49596334
-0.0085422387 -0.10013263 0.4969629
-0.007217322 -0.099729665 0.49496299
-0.0059028328 -0.0993267 0.49296302
-0.0046081608 -0.099125221 0.491963
-0.11065082 -0.088294089 0.44396475
-0.10949329 -0.088294111 0.44396475
-0.10833576 -0.088294134 0.44396472
-0.10717822 -0.088294148 0.44396472
-0.10625948 -0.088493057 0.44496468
-0.10533555 -0.088691957 0.44596466
-0.10440639 -0.088890858 0.44696465
-0.10370301 -0.089288652 0.4489646
-0.1029892 -0.089686438 0.45096457
-0.10226496 -0.090084217 0.45296448
-0.10130714 -0.090283133 0.45396447
-0.10056466 -0.09068092 0.45596445
-0.099811748 -0.091078714 0.45796439
-0.098833054 -0.091277607 0.45896435
-0.097849146 -0.091476515 0.45996431
-0.096860036 -0.091675423 0.46096429
-0.096073233 -0.092073202 0.46296427
-0.095275998 -0.092470996 0.46496421
-0.094872966 -0.093266554 0.4689641
-0.09424936 -0.093863234 0.47196406
-0.093807213 -0.094658792 0.47596395
-0.093344204 -0.09545435 0.47996387
