# .PCD v0.7 - Point Cloud Data file format
VERSION 0.7
FIELDS x y z
SIZE 4 4 4
TYPE F F F
COUNT 1 1 1
WIDTH 1342
HEIGHT 1
VIEWPOINT 0 0 0 1 0 0 0
POINTS 1342
DATA ascii
-0.31702799 -0.083923317 0.57196629
-0.31553674 -0.08392334 0.57196629
-0.31349647 -0.08377663 0.5709663
-0.31200784 -0.083776653 0.5709663
-0.31051922 -0.083776683 0.5709663
-0.30848938 -0.083629981 0.56996632
-0.30700332 -0.083630003 0.56996632
-0.30498129 -0.083483286 0.56896627
-0.30349785 -0.083483309 0.56896627
-0.30148363 -0.083336599 0.56796628
-0.30000281 -0.083336629 0.56796628
-0.29799646 -0.08318992 0.5669663
-0.2959953 -0.08304321 0.56596631
-0.29451972 -0.083043233 0.56596631
-0.2925263 -0.082896516 0.56496626
-0.29053813 -0.082749806 0.56396627
-0.28906775 -0.082749829 0.56396627
-0.28708744 -0.082603127 0.56296629
-0.28561968 -0.082603149 0.56296629
-0.28364718 -0.082456432 0.5619663
-0.28218198 -0.082456455 0.5619663
-0.28021729 -0.082309753 0.56096631
-0.27875471 -0.082309775 0.56096631
-0.27679789 -0.082163058 0.55996627
-0.27533787 -0.082163081 0.55996627
-0.27338886 -0.082016371 0.55896628
-0.27193153 -0.082016394 0.55896628
-0.26999027 -0.081869692 0.55796629
-0.26853555 -0.081869714 0.55796629
-0.26708078 -0.081869744 0.55796623
-0.26515001 -0.081723027 0.55696625
-0.26369786 -0.081723049 0.55696625
-0.26224577 -0.081723079 0.55696625
-0.26032537 -0.081576362 0.55596626
-0.25887585 -0.081576392 0.55596626
-0.25742632 -0.081576414 0.55596626
-0.2559768 -0.081576437 0.55596626
-0.25406945 -0.08142972 0.55496621
-0.25262254 -0.081429742 0.55496621
-0.25117558 -0.081429772 0.55496621
-0.24927872 -0.081283063 0.55396622
-0.24783441 -0.081283092 0.55396622
-0.24639009 -0.081283115 0.55396622
-0.24450365 -0.081136398 0.55296624
-0.24306193 -0.081136428 0.55296624
-0.24118328 -0.080989711 0.55196625
-0.23974417 -0.080989733 0.55196625
-0.23830508 -0.080989763 0.55196619
-0.23643683 -0.080843039 0.55096614
-0.23500034 -0.080843069 0.55096614
-0.23313995 -0.080696359 0.54996616
-0.23170607 -0.080696382 0.54996616
-0.22985348 -0.080549665 0.54896617
-0.22842219 -0.080549687 0.54896617
-0.22699092 -0.080549709 0.54896617
-0.22555964 -0.080549739 0.54896617
-0.2237201 -0.08040303 0.54796618
-0.22229142 -0.080403052 0.54796618
-0.22086276 -0.080403082 0.54796618
-0.21943408 -0.080403104 0.54796618
-0.18109143 -0.078642808 0.53596616
-0.17969404 -0.07864283 0.5359661
-0.17829666 -0.078642853 0.5359661
-0.17656922 -0.078496143 0.53496611
-0.17484699 -0.078349434 0.53396612
-0.17345482 -0.078349456 0.53396612
-0.17174043 -0.078202732 0.53296614
-0.17035086 -0.078202762 0.53296614
-0.16864425 -0.078056037 0.53196609
-0.16694288 -0.077909321 0.53096616
-0.16555853 -0.077909343 0.5309661
-0.163865 -0.077762626 0.52996618
-0.16248326 -0.077762648 0.52996612
-0.16110151 -0.077762671 0.52996612
-0.15941837 -0.077615954 0.52896613
-0.15803923 -0.077615976 0.52896613
-0.15666011 -0.077616006 0.52896613
-0.15498739 -0.077469289 0.52796608
-0.15361087 -0.077469312 0.52796608
-0.15223433 -0.077469334 0.52796608
-0.095762163 -0.074241899 0.50596619
-0.094442986 -0.074241921 0.50596619
-0.093123809 -0.074241944 0.50596619
-0.091986082 -0.074388705 0.50696611
-0.090664297 -0.074388728 0.50696611
-0.08934252 -0.07438875 0.50696611
-0.088020742 -0.074388772 0.50696611
-0.086698957 -0.074388795 0.50696611
-0.085377179 -0.074388817 0.50696611
-0.083889589 -0.074242108 0.50596613
-0.082570411 -0.07424213 0.50596613
-0.081251234 -0.074242152 0.50596607
-0.079774067 -0.074095421 0.50496608
-0.078457505 -0.07409545 0.50496608
-0.076988153 -0.073948726 0.50396609
-0.075524032 -0.073802002 0.50296611
-0.074212678 -0.073802024 0.50296611
-0.072756372 -0.073655315 0.50196612
-0.071305275 -0.07350859 0.50096613
-0.069999136 -0.073508613 0.50096613
-0.068692997 -0.073508635 0.50096613
-0.06725233 -0.073361911 0.49996608
-0.065948799 -0.073361933 0.49996606
-0.064645261 -0.073361956 0.49996606
-0.063215025 -0.073215239 0.49896607
-0.061914101 -0.073215261 0.49896607
-0.060613178 -0.073215283 0.49896607
-0.05931225 -0.073215306 0.49896607
-0.057895049 -0.073068582 0.49796608
-0.056596734 -0.073068604 0.49796608
-0.055187348 -0.07292188 0.49696606
-0.053891636 -0.072921902 0.49696606
-0.052595928 -0.072921924 0.49696606
-0.051300213 -0.072921947 0.49696603
-0.050004505 -0.072921969 0.49696603
-0.048708793 -0.072921991 0.49696603
-0.047317669 -0.072775275 0.49596605
-0.046024561 -0.072775297 0.49596605
-0.044731461 -0.072775319 0.49596605
-0.043350756 -0.072628595 0.49496606
-0.042060256 -0.072628617 0.49496606
-0.04076976 -0.07262864 0.49496606
-0.039399479 -0.072481915 0.49396604
-0.038034424 -0.072335199 0.49296606
-0.036823701 -0.07248196 0.49396601
-0.035463862 -0.072335243 0.49296606
-0.034178577 -0.072335266 0.49296603
-0.032893293 -0.072335288 0.49296603
-0.031543873 -0.072188564 0.49196601
-0.030261198 -0.072188586 0.49196601
-0.028978523 -0.072188608 0.49196601
-0.0083524594 -0.071308486 0.485966
-0.0070854258 -0.071308509 0.485966
-0.0058183926 -0.071308531 0.485966
-0.0045513599 -0.071308553 0.485966
-0.0032843268 -0.071308576 0.485966
-0.0020172934 -0.071308598 0.48596597
-0.00075026025 -0.07130862 0.48596597
0.00051677291 -0.071308643 0.48596597
0.001783806 -0.071308665 0.48596597
0.0030508393 -0.071308687 0.48596594
0.0043178722 -0.07130871 0.48596594
0.0055849054 -0.071308732 0.48596594
0.0068519386 -0.071308754 0.48596594
0.0081189713 -0.071308777 0.48596594
0.0093667135 -0.071162045 0.48496592
0.01063114 -0.071162067 0.48496592
0.011895567 -0.07116209 0.48496589
0.013159992 -0.071162112 0.48496589
0.014394702 -0.071015395 0.4839659
0.01565652 -0.071015418 0.4839659
0.016918337 -0.07101544 0.4839659
0.018180158 -0.071015455 0.4839659
0.019441975 -0.071015477 0.4839659
0.020661041 -0.070868753 0.48296589
0.021920254 -0.070868775 0.48296589
0.023131499 -0.070722044 0.4819659
0.024388105 -0.070722066 0.4819659
0.02559153 -0.070575349 0.48096591
0.026845526 -0.070575371 0.48096591
0.028099524 -0.070575394 0.48096591
0.02929252 -0.070428662 0.4799659
0.030543908 -0.070428684 0.4799659
0.031795301 -0.070428707 0.47996587
0.033046689 -0.070428729 0.47996587
0.034226652 -0.070282005 0.47896591
0.035475437 -0.070282027 0.47896588
0.036647569 -0.070135303 0.47796589
0.037893746 -0.070135325 0.47796586
0.039139926 -0.07013534 0.47796586
0.040386103 -0.070135362 0.47796586
0.041545205 -0.069988638 0.47696587
0.042788774 -0.069988661 0.47696587
0.044032343 -0.069988683 0.47696587
0.045181017 -0.069841959 0.47596586
0.046519481 -0.069988728 0.47696584
0.047662947 -0.069841996 0.47596586
0.048903912 -0.069842018 0.47596586
0.050039548 -0.069695294 0.47496587
0.051277906 -0.069695316 0.47496587
0.052516259 -0.069695339 0.47496584
0.053754613 -0.069695361 0.47496584
0.054877222 -0.069548629 0.47396588
0.056112971 -0.069548652 0.47396585
0.057348717 -0.069548674 0.47396585
0.058584467 -0.069548696 0.47396585
0.059820212 -0.069548719 0.47396585
0.060927171 -0.069401987 0.47296584
0.062160313 -0.069402009 0.47296584
0.063393459 -0.069402032 0.47296584
0.064626597 -0.069402054 0.47296581
0.065720528 -0.06925533 0.47196585
0.066951066 -0.069255352 0.47196582
0.068037167 -0.06910862 0.47096583
0.06926509 -0.069108643 0.47096583
0.070343383 -0.068961911 0.46996585
0.071568698 -0.068961933 0.46996585
0.072639152 -0.068815202 0.46896583
0.073704407 -0.068668477 0.46796584
0.074924514 -0.0686685 0.46796584
0.075981937 -0.068521775 0.46696582
0.077199437 -0.06852179 0.46696582
0.078249037 -0.068375066 0.46596587
0.079463929 -0.068375088 0.46596584
0.080678821 -0.068375111 0.46596584
0.081718013 -0.068228379 0.46496585
0.082930297 -0.068228401 0.46496585
0.084142581 -0.068228424 0.46496585
0.085171327 -0.068081692 0.46396583
0.086381011 -0.068081714 0.46396583
0.087590687 -0.068081737 0.46396583
0.088800363 -0.068081759 0.46396583
0.09001004 -0.068081774 0.46396583
0.091219716 -0.068081796 0.4639658
0.092230216 -0.067935072 0.46296585
0.093437284 -0.067935087 0.46296582
0.09464436 -0.067935109 0.46296582
0.095851429 -0.067935131 0.46296582
0.097058505 -0.067935154 0.46296582
0.098053366 -0.067788422 0.4619658
0.099257827 -0.067788444 0.4619658
0.10046229 -0.067788467 0.4619658
0.10144673 -0.067641735 0.46096581
0.10264858 -0.067641757 0.46096581
0.10362518 -0.067495026 0.4599658
0.10482443 -0.067495048 0.4599658
0.10602368 -0.06749507 0.4599658
0.10722293 -0.067495093 0.4599658
0.1081865 -0.067348361 0.45896581
0.10938314 -0.067348383 0.45896581
0.11057978 -0.067348406 0.45896578
0.11153295 -0.067201674 0.45796582
0.11272698 -0.067201696 0.45796582
0.11392102 -0.067201711 0.45796579
0.11511504 -0.067201734 0.45796579
0.11605515 -0.067055002 0.4569658
0.11724657 -0.067055024 0.45696577
0.11843801 -0.067055047 0.45696577
0.11962944 -0.067055069 0.45696577
0.12082086 -0.067055084 0.45696577
0.12201229 -0.067055106 0.45696577
0.12293415 -0.066908374 0.45596579
0.12412297 -0.066908397 0.45596579
0.12531179 -0.066908419 0.45596576
0.12650062 -0.066908441 0.45596576
0.12740943 -0.06676171 0.45496577
0.12859565 -0.066761732 0.45496574
0.12949666 -0.066615008 0.45396578
0.13068028 -0.06661503 0.45396578
0.13186388 -0.066615045 0.45396575
0.13275446 -0.066468306 0.45296577
0.13393547 -0.066468328 0.45296574
0.13511646 -0.066468351 0.45296574
0.1359966 -0.066321619 0.45196578
0.13717498 -0.066321641 0.45196575
0.13835338 -0.066321656 0.45196575
0.13953176 -0.066321678 0.45196575
0.14039889 -0.066174954 0.45096576
0.14157467 -0.066174977 0.45096576
0.14275046 -0.066174999 0.45096576
0.14392625 -0.066175014 0.45096576
0.14510204 -0.066175036 0.45096576
0.14595349 -0.066028297 0.44996575
0.14712667 -0.066028319 0.44996575
0.14829986 -0.066028342 0.44996572
0.14947303 -0.066028357 0.44996572
0.15031147 -0.065881625 0.44896576
0.15148203 -0.065881647 0.44896573
0.15231267 -0.065734915 0.44796574
0.15348062 -0.065734938 0.44796574
0.15464859 -0.06573496 0.44796571
0.15546878 -0.065588221 0.44696575
0.15663414 -0.065588243 0.44696575
0.15779948 -0.065588266 0.44696572
0.15860923 -0.065441534 0.44596574
0.15977198 -0.065441556 0.44596574
0.16093473 -0.065441571 0.44596571
0.16209748 -0.065441594 0.44596571
0.16326024 -0.065441616 0.44596571
0.16442299 -0.065441631 0.44596571
0.16521449 -0.065294899 0.44496572
0.16637465 -0.065294921 0.44496572
0.16753478 -0.065294944 0.44496572
0.16831587 -0.065148212 0.44396573
0.16947341 -0.065148234 0.44396573
0.17063095 -0.065148257 0.44396573
0.17140158 -0.065001518 0.44296572
0.1725565 -0.065001532 0.44296572
0.17371143 -0.065001555 0.44296572
0.17447168 -0.064854831 0.44196573
0.17562401 -0.064854853 0.44196573
0.17677632 -0.064854868 0.44196573
0.1775261 -0.064708136 0.44096571
0.17867582 -0.064708158 0.44096571
0.17982553 -0.064708173 0.44096571
0.18097524 -0.064708196 0.44096568
0.18212496 -0.064708218 0.44096568
0.18285912 -0.064561471 0.43996572
0.18400623 -0.064561494 0.4399657
0.18515334 -0.064561516 0.4399657
0.18587705 -0.064414784 0.43896571
0.18702155 -0.064414799 0.43896568
0.18816607 -0.064414822 0.43896568
0.18931058 -0.064414844 0.43896568
0.19002125 -0.064268112 0.43796569
0.19116315 -0.064268135 0.43796569
0.19230504 -0.064268157 0.43796569
0.19344693 -0.064268172 0.43796569
0.19458883 -0.064268194 0.43796569
0.19573073 -0.064268216 0.43796566
0.19687261 -0.064268231 0.43796566
0.19801451 -0.064268254 0.43796566
0.1991564 -0.064268276 0.43796566
0.20029829 -0.064268291 0.43796566
0.20098031 -0.064121552 0.43696564
0.20211959 -0.064121574 0.43696564
0.20325889 -0.064121589 0.43696564
0.20393048 -0.063974857 0.43596566
-0.31963295 -0.082720309 0.57396644
-0.31758225 -0.082576208 0.57296646
-0.31608844 -0.082576238 0.5729664
-0.31404549 -0.082432128 0.57196647
-0.31255424 -0.082432151 0.57196641
-0.31051922 -0.082288057 0.57096648
-0.30903059 -0.082288079 0.57096642
-0.30700332 -0.082143977 0.56996644
-0.30551726 -0.082144007 0.56996644
-0.30349785 -0.081999891 0.56896639
-0.30201441 -0.08199992 0.56896639
-0.30000281 -0.081855819 0.5679664
-0.2979964 -0.081711709 0.56696641
-0.29651821 -0.081711739 0.56696641
-0.29451966 -0.081567638 0.56596643
-0.29252625 -0.081423521 0.56496638
-0.2910533 -0.081423543 0.56496638
-0.28906775 -0.081279449 0.56396639
-0.28708738 -0.081135347 0.56296641
-0.28561962 -0.08113537 0.56296641
-0.28364712 -0.080991268 0.56196642
-0.28218198 -0.080991291 0.56196642
-0.28071678 -0.08099132 0.56196642
-0.27875471 -0.080847211 0.56096643
-0.27679789 -0.08070311 0.55996639
-0.27533787 -0.080703132 0.55996639
-0.27387798 -0.080703162 0.55996639
-0.27193147 -0.080559045 0.5589664
-0.27047414 -0.080559075 0.5589664
-0.26853549 -0.080414973 0.55796641
-0.26708078 -0.080415003 0.55796641
-0.26562601 -0.080415025 0.55796641
-0.26369786 -0.080270916 0.55696642
-0.26224571 -0.080270946 0.55696642
-0.26079357 -0.080270968 0.55696642
-0.25887585 -0.080126859 0.55596644
-0.25742632 -0.080126882 0.55596644
-0.2559768 -0.080126904 0.55596644
-0.25452727 -0.080126934 0.55596638
-0.25262249 -0.079982825 0.55496633
-0.25117558 -0.079982854 0.55496633
-0.24972866 -0.079982877 0.55496633
-0.24828176 -0.079982899 0.55496633
-0.24639006 -0.079838797 0.55396634
-0.24494576 -0.07983882 0.55396634
-0.2430619 -0.079694726 0.55296636
-0.2416202 -0.079694748 0.55296636
-0.23974416 -0.079550631 0.55196637
-0.23830506 -0.079550661 0.55196637
-0.23643681 -0.079406552 0.55096632
-0.23500033 -0.079406582 0.55096632
-0.23313992 -0.079262473 0.54996634
-0.23170604 -0.079262495 0.54996634
-0.22985345 -0.079118393 0.54896635
-0.22842216 -0.079118416 0.54896635
-0.22699089 -0.079118438 0.54896635
-0.22514874 -0.078974336 0.54796636
-0.22372007 -0.078974359 0.54796636
-0.2222914 -0.078974381 0.54796636
-0.2204597 -0.078830287 0.54696637
-0.21903363 -0.078830309 0.54696637
-0.21760757 -0.078830332 0.54696631
-0.2161815 -0.078830361 0.54696631
-0.21475545 -0.078830384 0.54696631
-0.17829663 -0.077245466 0.53596628
-0.17656921 -0.077101357 0.53496629
-0.17517442 -0.07710138 0.53496629
-0.17345481 -0.076957278 0.5339663
-0.1717404 -0.076813161 0.53296632
-0.17035083 -0.076813191 0.53296632
-0.16864422 -0.076669075 0.53196627
-0.16725726 -0.076669097 0.53196627
-0.1655585 -0.076524995 0.53096628
-0.16386497 -0.076380879 0.52996629
-0.16248323 -0.076380901 0.52996629
-0.16110148 -0.076380923 0.52996629
-0.15941836 -0.076236822 0.52896631
-0.15803921 -0.076236844 0.52896631
-0.15666009 -0.076236874 0.52896631
-0.15498738 -0.076092757 0.52796626
-0.15361086 -0.07609278 0.52796626
-0.15223432 -0.076092802 0.5279662
-0.09462963 -0.073066883 0.50696629
-0.093307838 -0.073066905 0.50696629
-0.09198606 -0.073066927 0.50696629
-0.090843119 -0.073211081 0.50796622
-0.089518733 -0.073211104 0.50796622
-0.08819434 -0.073211126 0.50796622
-0.086869955 -0.073211148 0.50796622
-0.085377157 -0.073067039 0.50696623
-0.084055372 -0.073067062 0.50696623
-0.082570389 -0.072922952 0.50596625
-0.081251211 -0.072922975 0.50596625
-0.079932041 -0.072922997 0.50596625
-0.078457475 -0.072778888 0.5049662
-0.076988131 -0.072634764 0.50396621
-0.075674169 -0.072634786 0.50396621
-0.074212655 -0.072490677 0.50296623
-0.072901301 -0.072490707 0.50296623
-0.071447603 -0.07234659 0.50196624
-0.069999114 -0.072202474 0.50096625
-0.068692975 -0.072202496 0.50096625
-0.067386836 -0.072202519 0.50096625
-0.066080697 -0.072202541 0.50096625
-0.064645238 -0.072058424 0.4999662
-0.063341707 -0.072058447 0.4999662
-0.061914079 -0.07191433 0.49896622
-0.060613155 -0.071914352 0.49896622
-0.059312228 -0.071914375 0.49896619
-0.058011305 -0.071914397 0.49896619
-0.056596711 -0.071770288 0.4979662
-0.055298395 -0.07177031 0.4979662
-0.054000076 -0.071770333 0.4979662
-0.052595906 -0.071626216 0.49696618
-0.05130019 -0.071626239 0.49696618
-0.050004482 -0.071626261 0.49696618
-0.04870877 -0.071626283 0.49696618
-0.047413062 -0.071626306 0.49696615
-0.046024539 -0.071482189 0.4959662
-0.044731438 -0.071482211 0.49596617
-0.043350734 -0.071338102 0.49496621
-0.042060234 -0.071338125 0.49496618
-0.040769737 -0.071338147 0.49496618
-0.039399456 -0.07119403 0.49396616
-0.038111567 -0.071194053 0.49396616
-0.036749121 -0.071049936 0.49296618
-0.03546384 -0.071049958 0.49296618
-0.034178555 -0.071049981 0.49296618
-0.03289327 -0.071050003 0.49296618
-0.031543851 -0.070905887 0.49196616
-0.030261176 -0.070905909 0.49196616
-0.028978501 -0.070905931 0.49196616
-0.010886503 -0.070041418 0.48596615
-0.0096194707 -0.070041433 0.48596615
-0.0083524371 -0.070041455 0.48596615
-0.0070854034 -0.070041478 0.48596615
-0.0058183703 -0.0700415 0.48596615
-0.0045513376 -0.070041522 0.48596612
-0.0032910854 -0.070185684 0.4869661
-0.0020172712 -0.070041567 0.48596612
-0.00075023802 -0.070041589 0.48596612
0.00051679515 -0.070041612 0.48596609
0.0017838283 -0.070041634 0.48596609
0.0030508614 -0.070041656 0.48596609
0.0043178946 -0.070041679 0.48596609
0.0055849277 -0.070041701 0.48596609
0.0068519609 -0.070041724 0.48596606
0.0081189936 -0.070041746 0.48596606
0.0093860263 -0.070041768 0.48596606
0.01065306 -0.070041791 0.48596606
0.01189559 -0.069897667 0.48496604
0.013160015 -0.069897689 0.48496604
0.014424441 -0.069897711 0.48496601
0.015656542 -0.069753595 0.48396605
0.016918359 -0.069753617 0.48396605
0.01818018 -0.069753632 0.48396602
0.019441998 -0.069753654 0.48396602
0.020661063 -0.069609538 0.48296601
0.021920277 -0.06960956 0.48296601
0.023131521 -0.069465443 0.48196602
0.024388127 -0.069465466 0.48196602
0.025591552 -0.069321349 0.48096606
0.026845548 -0.069321372 0.48096603
0.028099546 -0.069321394 0.48096603
0.029292541 -0.06917727 0.47996601
0.030543929 -0.069177292 0.47996601
0.031795323 -0.069177315 0.47996601
0.033046711 -0.069177337 0.47996601
0.034226675 -0.06903322 0.47896603
0.035475459 -0.069033243 0.47896603
0.03672424 -0.069033265 0.47896603
0.037893768 -0.068889149 0.47796601
0.039139949 -0.068889163 0.47796601
0.040386125 -0.068889186 0.47796598
0.041632302 -0.068889208 0.47796598
0.042788796 -0.068745092 0.47696602
0.044032365 -0.068745114 0.47696599
0.045275934 -0.068745136 0.47696599
0.046519503 -0.068745159 0.47696599
0.047763079 -0.068745181 0.47696599
0.048903935 -0.068601057 0.47596598
0.050144896 -0.068601079 0.47596598
0.051277928 -0.068456963 0.47496599
0.052516282 -0.068456985 0.47496599
0.053754635 -0.068457007 0.47496599
0.054992996 -0.06845703 0.47496596
0.056112994 -0.068312906 0.473966
0.057348739 -0.068312928 0.473966
0.058584489 -0.06831295 0.47396597
0.059820235 -0.068312973 0.47396597
0.060927194 -0.068168849 0.47296596
0.062160335 -0.068168871 0.47296596
0.063393474 -0.068168893 0.47296596
0.064626612 -0.068168916 0.47296596
0.065720551 -0.068024792 0.47196597
0.066951089 -0.068024814 0.47196597
0.06803719 -0.06788069 0.47096595
0.069265112 -0.067880712 0.47096595
0.070343398 -0.067736596 0.46996596
0.071568713 -0.067736618 0.46996596
0.072639175 -0.067592494 0.46896595
0.07386189 -0.067592517 0.46896595
0.074924536 -0.067448393 0.46796596
0.075981952 -0.067304276 0.46696597
0.077199452 -0.067304291 0.46696597
0.078416951 -0.067304313 0.46696594
0.079463951 -0.067160197 0.46596599
0.080678843 -0.067160219 0.46596596
0.081893742 -0.067160234 0.46596596
0.082930319 -0.067016117 0.464966
0.084142603 -0.06701614 0.46496597
0.085354887 -0.067016162 0.46496597
0.086567171 -0.067016177 0.46496597
0.087590709 -0.06687206 0.46396595
0.088800386 -0.066872083 0.46396595
0.090010062 -0.066872098 0.46396595
0.091219738 -0.06687212 0.46396595
0.092429414 -0.066872142 0.46396592
0.093639091 -0.066872165 0.46396592
0.094644383 -0.066728041 0.46296597
0.095851451 -0.066728063 0.46296594
0.097058527 -0.066728085 0.46296594
0.098265603 -0.066728108 0.46296594
0.099257849 -0.066583976 0.46196592
0.10046231 -0.066583999 0.46196592
0.10166678 -0.066584021 0.46196592
0.10287124 -0.066584036 0.46196592
0.10385046 -0.066439927 0.46096593
0.10505231 -0.066439949 0.46096593
0.1060237 -0.066295825 0.45996591
0.10722295 -0.066295847 0.45996591
0.1084222 -0.066295862 0.45996591
0.10938316 -0.066151738 0.45896593
0.1105798 -0.066151761 0.45896593
0.11177645 -0.066151775 0.45896593
0.112727 -0.066007666 0.45796594
0.11392104 -0.066007681 0.45796594
0.11511506 -0.066007704 0.45796591
0.11630911 -0.066007726 0.45796591
0.11750314 -0.066007748 0.45796591
0.11843803 -0.065863624 0.45696589
0.11962947 -0.065863647 0.45696589
0.12082088 -0.065863661 0.45696589
0.12201232 -0.065863684 0.45696589
0.12293417 -0.065719552 0.45596591
0.12412299 -0.065719575 0.45596591
0.12531182 -0.065719597 0.45596591
0.12650065 -0.065719619 0.45596588
0.12740946 -0.065575495 0.45496589
0.12859568 -0.065575518 0.45496589
0.12978189 -0.065575533 0.45496586
0.13068029 -0.065431423 0.4539659
0.13186389 -0.065431438 0.4539659
0.13275447 -0.065287307 0.45296589
0.13393548 -0.065287329 0.45296589
0.13511647 -0.065287352 0.45296586
0.13629748 -0.065287374 0.45296586
0.13717499 -0.06514325 0.4519659
0.13835339 -0.065143265 0.45196587
0.13953178 -0.065143287 0.45196587
0.14071018 -0.06514331 0.45196587
0.14157468 -0.064999193 0.45096588
0.14275047 -0.064999215 0.45096588
0.14392626 -0.06499923 0.45096588
0.14510205 -0.064999253 0.45096588
0.14627783 -0.064999275 0.45096588
0.1471267 -0.064855136 0.44996586
0.14829989 -0.064855158 0.44996586
0.14947306 -0.064855173 0.44996583
0.1503115 -0.064711057 0.44896588
0.15148206 -0.064711079 0.44896588
0.15265264 -0.064711101 0.44896585
0.15348063 -0.064566977 0.44796586
0.1546486 -0.064567 0.44796586
0.15546879 -0.064422861 0.44696587
0.15663415 -0.064422883 0.44696587
0.1577995 -0.064422905 0.44696587
0.15896487 -0.064422928 0.44696584
0.15977199 -0.064278804 0.44596586
0.16093475 -0.064278819 0.44596586
0.1620975 -0.064278841 0.44596583
0.16326025 -0.064278863 0.44596583
0.164423 -0.064278878 0.44596583
0.16521451 -0.064134762 0.44496584
0.16637467 -0.064134784 0.44496584
0.1675348 -0.064134806 0.44496584
0.16869494 -0.064134821 0.44496584
0.16947344 -0.063990697 0.44396585
0.17063098 -0.06399072 0.44396585
0.1717885 -0.063990742 0.44396585
0.17255653 -0.063846603 0.44296584
0.17371146 -0.063846625 0.44296584
0.17486639 -0.063846648 0.44296584
0.17562403 -0.063702531 0.44196585
0.17677633 -0.063702546 0.44196585
0.17792867 -0.063702568 0.44196585
0.17867583 -0.063558444 0.44096583
0.17982554 -0.063558459 0.44096583
0.18097526 -0.063558482 0.44096583
0.18212497 -0.063558504 0.4409658
0.18327469 -0.063558519 0.4409658
0.18400624 -0.063414387 0.43996581
0.18515335 -0.06341441 0.43996581
0.18630046 -0.063414432 0.43996581
0.18702157 -0.063270301 0.4389658
0.18816608 -0.063270323 0.4389658
0.1893106 -0.063270345 0.4389658
0.19045509 -0.06327036 0.4389658
0.19159959 -0.063270383 0.4389658
0.19274409 -0.063270405 0.43896577
0.19344696 -0.063126273 0.43796581
0.19458885 -0.063126296 0.43796581
0.19573076 -0.063126318 0.43796578
0.19687264 -0.063126333 0.43796578
0.19801454 -0.063126355 0.43796578
0.19915643 -0.063126378 0.43796578
0.20029832 -0.063126393 0.43796578
0.20144022 -0.063126415 0.43796575
0.20258212 -0.063126437 0.43796575
0.20325892 -0.062982298 0.43696576
0.2043982 -0.062982321 0.43696573
-0.32018983 -0.081365377 0.57496661
-0.31813645 -0.081223875 0.57396656
-0.31664002 -0.081223905 0.57396656
-0.31459451 -0.081082411 0.57296658
-0.31255424 -0.08094091 0.57196659
-0.31106299 -0.080940939 0.57196659
-0.30903059 -0.080799446 0.5709666
-0.30754191 -0.080799475 0.5709666
-0.30551726 -0.080657981 0.56996661
-0.30403125 -0.080658004 0.56996661
-0.30201441 -0.080516502 0.56896657
-0.30000275 -0.080375008 0.56796658
-0.29852194 -0.080375031 0.56796658
-0.29651815 -0.080233537 0.56696659
-0.29503995 -0.080233559 0.56696659
-0.29304403 -0.080092072 0.56596661
-0.29105324 -0.079950556 0.56496656
-0.28958029 -0.079950586 0.56496656
-0.2875973 -0.079809092 0.56396657
-0.28561962 -0.079667598 0.56296659
-0.28415185 -0.079667628 0.56296659
-0.28268409 -0.07966765 0.56296659
-0.28071678 -0.079526149 0.5619666
-0.27925158 -0.079526171 0.5619666
-0.27729213 -0.079384677 0.56096661
-0.27533787 -0.079243176 0.55996656
-0.27387792 -0.079243205 0.55996656
-0.27241796 -0.079243228 0.55996656
-0.27047414 -0.079101726 0.55896658
-0.2690168 -0.079101749 0.55896658
-0.26708072 -0.078960255 0.55796659
-0.26562601 -0.078960277 0.55796653
-0.2636978 -0.078818783 0.5569666
-0.26224571 -0.078818813 0.55696654
-0.26079357 -0.078818835 0.55696654
-0.25934142 -0.078818865 0.55696654
-0.25742626 -0.078677356 0.55596656
-0.25597674 -0.078677379 0.55596656
-0.25452721 -0.078677408 0.55596656
-0.25307769 -0.078677431 0.55596656
-0.25117552 -0.078535937 0.55496651
-0.24972863 -0.078535959 0.55496651
-0.24828173 -0.078535981 0.55496651
-0.24639003 -0.078394488 0.55396652
-0.24494573 -0.07839451 0.55396652
-0.24350141 -0.07839454 0.55396652
-0.24162017 -0.078253038 0.55296654
-0.24017847 -0.078253061 0.55296648
-0.23830503 -0.078111559 0.55196655
-0.23643678 -0.07797005 0.5509665
-0.2350003 -0.07797008 0.5509665
-0.2331399 -0.077828579 0.54996651
-0.23170602 -0.077828601 0.54996645
-0.22985342 -0.077687107 0.54896653
-0.22842214 -0.077687129 0.54896647
-0.22657739 -0.077545628 0.54796654
-0.22514871 -0.077545658 0.54796648
-0.22372004 -0.07754568 0.54796648
-0.22188573 -0.077404186 0.54696649
-0.22045967 -0.077404216 0.54696649
-0.2190336 -0.077404238 0.54696649
-0.21760754 -0.077404261 0.54696649
-0.21618147 -0.07740429 0.54696649
-0.21436277 -0.077262774 0.54596645
-0.21254928 -0.077121273 0.54496646
-0.21112844 -0.077121295 0.54496646
-0.17517439 -0.075706601 0.53496641
-0.17345478 -0.0755651 0.53396642
-0.17206259 -0.07556513 0.53396642
-0.17035082 -0.075423628 0.53296643
-0.16896126 -0.07542365 0.53296643
-0.16725725 -0.075282142 0.53196639
-0.16555847 -0.075140648 0.5309664
-0.16417411 -0.07514067 0.5309664
-0.1624832 -0.074999161 0.52996641
-0.16110145 -0.074999183 0.52996641
-0.15971971 -0.074999213 0.52996641
-0.15803918 -0.074857704 0.52896643
-0.15666007 -0.074857734 0.52896643
-0.15498735 -0.074716233 0.52796638
-0.15361083 -0.074716255 0.52796638
-0.095951386 -0.071745075 0.50696641
-0.094629608 -0.071745098 0.50696641
-0.093491875 -0.071886644 0.5079664
-0.092167482 -0.071886666 0.5079664
-0.090843096 -0.071886696 0.5079664
-0.089518711 -0.071886718 0.50796634
-0.088194318 -0.071886741 0.50796634
-0.086869933 -0.071886763 0.50796634
-0.085545547 -0.071886785 0.50796634
-0.084055349 -0.071745276 0.50696635
-0.082733564 -0.071745306 0.50696635
-0.081251189 -0.071603805 0.50596637
-0.079932019 -0.071603827 0.50596637
-0.078457452 -0.071462318 0.50496632
-0.077140883 -0.071462341 0.50496632
-0.075674146 -0.071320832 0.50396633
-0.074360192 -0.071320854 0.50396633
-0.072901279 -0.071179353 0.50296634
-0.071589924 -0.071179375 0.50296634
-0.070138834 -0.071037866 0.50196636
-0.068692952 -0.070896357 0.50096637
-0.067386813 -0.07089638 0.50096637
-0.066080675 -0.070896402 0.50096637
-0.064774528 -0.070896432 0.50096637
-0.063468389 -0.070896454 0.50096637
-0.062038153 -0.070754938 0.49996632
-0.060734622 -0.07075496 0.49996632
-0.059312206 -0.070613451 0.49896634
-0.058011282 -0.070613474 0.49896634
-0.056710355 -0.070613496 0.49896634
-0.055409431 -0.070613518 0.49896631
-0.054108508 -0.070613541 0.49896631
-0.052701738 -0.070472039 0.49796632
-0.051403414 -0.070472062 0.49796632
-0.05000446 -0.070330553 0.4969663
-0.048708748 -0.070330575 0.4969663
-0.04741304 -0.070330597 0.4969663
-0.046117324 -0.07033062 0.4969663
-0.044731416 -0.070189111 0.49596632
-0.043438312 -0.070189133 0.49596632
-0.042060211 -0.070047624 0.49496633
-0.040769715 -0.070047647 0.49496633
-0.039479218 -0.070047669 0.49496633
-0.038111545 -0.06990616 0.49396631
-0.036749098 -0.069764659 0.49296632
-0.035463817 -0.069764681 0.49296632
-0.034178533 -0.069764704 0.49296632
-0.032893248 -0.069764726 0.49296629
-0.031607967 -0.069764748 0.49296629
-0.030261153 -0.069623239 0.49196628
-0.028978478 -0.069623262 0.49196628
-0.010886481 -0.068774387 0.4859663
-0.0096392632 -0.068915926 0.48696625
-0.0083696228 -0.068915948 0.48696625
-0.0070853815 -0.068774447 0.48596627
-0.0058303433 -0.068915993 0.48696625
-0.0045607034 -0.068916015 0.48696622
-0.0032910632 -0.068916038 0.48696622
-0.0020214228 -0.06891606 0.48696622
-0.00075178262 -0.068916082 0.48696622
0.00051785761 -0.068916105 0.48696619
0.0017874979 -0.068916127 0.48696619
0.0030571378 -0.068916149 0.48696619
0.004326778 -0.068916172 0.48696619
0.0055849496 -0.06877467 0.48596621
0.0068519828 -0.068774693 0.48596621
0.008119016 -0.068774715 0.48596621
0.0093860487 -0.068774737 0.48596618
0.010653082 -0.06877476 0.48596618
0.011920116 -0.068774782 0.48596618
0.013160037 -0.068633266 0.48496616
0.014424464 -0.068633288 0.48496616
0.015688889 -0.06863331 0.48496616
0.016918382 -0.068491802 0.48396617
0.018180203 -0.068491817 0.48396617
0.01944202 -0.068491839 0.48396617
0.020661086 -0.06835033 0.48296615
0.021920299 -0.068350352 0.48296615
0.023131542 -0.068208836 0.48196617
0.024388148 -0.068208858 0.48196617
0.025644755 -0.068208881 0.48196617
0.026845571 -0.068067379 0.48096618
0.028099569 -0.068067402 0.48096618
0.029353568 -0.068067424 0.48096615
0.030543951 -0.0679259 0.47996616
0.031795345 -0.067925923 0.47996613
0.033046734 -0.067925945 0.47996613
0.034298126 -0.067925967 0.47996613
0.035475481 -0.067784458 0.47896615
0.036724262 -0.067784481 0.47896615
0.037973046 -0.067784503 0.47896615
0.039139967 -0.067642987 0.47796613
0.040386144 -0.067643009 0.47796613
0.041632321 -0.067643031 0.47796613
0.042878494 -0.067643054 0.4779661
0.044032387 -0.067501545 0.47696614
0.045275956 -0.067501567 0.47696614
0.046519525 -0.06750159 0.47696611
0.047763102 -0.067501612 0.47696611
0.049006671 -0.067501634 0.47696611
0.050144918 -0.067360118 0.4759661
0.05138588 -0.06736014 0.4759661
0.0525163 -0.067218624 0.47496611
0.053754654 -0.067218646 0.47496611
0.054993015 -0.067218669 0.47496611
0.056231368 -0.067218684 0.47496611
0.057348762 -0.067077182 0.47396612
0.058584511 -0.067077205 0.47396612
0.059820257 -0.067077227 0.47396612
0.060927216 -0.066935711 0.4729661
0.062160358 -0.066935733 0.4729661
0.063393496 -0.066935755 0.47296607
0.064626634 -0.066935778 0.47296607
0.065720573 -0.066794261 0.47196609
0.066951111 -0.066794284 0.47196609
0.068037212 -0.066652767 0.4709661
0.069265135 -0.06665279 0.47096607
0.07034342 -0.066511273 0.46996611
0.071568735 -0.066511296 0.46996608
0.072794057 -0.066511318 0.46996608
0.073861912 -0.066369802 0.4689661
0.074924558 -0.066228285 0.46796611
0.076144665 -0.066228308 0.46796611
0.077199474 -0.066086791 0.46696609
0.078416973 -0.066086814 0.46696609
0.079634473 -0.066086836 0.46696609
0.080678865 -0.065945327 0.46596611
0.081893764 -0.065945342 0.46596611
0.083108656 -0.065945365 0.46596608
0.084323548 -0.065945387 0.46596608
0.085354909 -0.065803878 0.46496612
0.086567193 -0.065803893 0.46496609
0.087779477 -0.065803915 0.46496609
0.088991761 -0.065803938 0.46496609
0.090204045 -0.06580396 0.46496609
0.091219753 -0.065662444 0.46396607
0.092429429 -0.065662466 0.46396607
0.093639106 -0.065662488 0.46396607
0.094848789 -0.065662511 0.46396604
0.096058466 -0.065662533 0.46396604
0.097268149 -0.065662548 0.46396604
0.098265626 -0.065521032 0.46296605
0.099472694 -0.065521054 0.46296605
0.10067976 -0.065521069 0.46296605
0.1016668 -0.06537956 0.46196604
0.10287126 -0.065379575 0.46196604
0.10407572 -0.065379597 0.46196604
0.10505233 -0.065238096 0.46096605
0.10625418 -0.065238111 0.46096605
0.10722297 -0.065096594 0.45996603
0.10842222 -0.065096609 0.45996603
0.10962147 -0.065096632 0.45996603
0.11057983 -0.064955123 0.45896605
0.11177647 -0.064955138 0.45896605
0.11297312 -0.06495516 0.45896605
0.11392105 -0.064813644 0.45796606
0.11511508 -0.064813666 0.45796606
0.11630912 -0.064813688 0.45796606
0.11750315 -0.064813711 0.45796603
0.11843805 -0.064672194 0.45696604
0.11962949 -0.064672217 0.45696601
0.1208209 -0.064672232 0.45696601
0.12201234 -0.064672254 0.45696601
0.12320376 -0.064672276 0.45696601
0.12412301 -0.064530753 0.45596603
0.12531184 -0.064530775 0.45596603
0.12650067 -0.064530797 0.45596603
0.12740947 -0.064389281 0.45496601
0.12859569 -0.064389303 0.45496601
0.1297819 -0.064389318 0.45496601
0.13068031 -0.064247817 0.45396602
0.13186391 -0.064247832 0.45396602
0.1327545 -0.064106308 0.452966
0.13393551 -0.06410633 0.452966
0.1351165 -0.064106353 0.452966
0.13599664 -0.063964836 0.45196602
0.13717502 -0.063964859 0.45196602
0.13835342 -0.063964874 0.45196602
0.13953181 -0.063964896 0.45196599
0.1407102 -0.063964918 0.45196599
0.1418886 -0.063964941 0.45196599
0.1427505 -0.063823424 0.450966
0.14392629 -0.063823439 0.450966
0.14510208 -0.063823462 0.450966
0.14627786 -0.063823484 0.450966
0.14745365 -0.063823506 0.450966
0.1482999 -0.063681982 0.44996598
0.14947307 -0.063681997 0.44996598
0.15064627 -0.06368202 0.44996595
0.15148208 -0.063540511 0.448966
0.15265265 -0.063540533 0.448966
0.15348065 -0.063399009 0.44796598
0.15464862 -0.063399032 0.44796598
0.15581657 -0.063399047 0.44796598
0.15663418 -0.06325753 0.44696599
0.15779953 -0.063257553 0.44696599
0.1589649 -0.063257575 0.44696599
0.16013025 -0.06325759 0.44696596
0.16129561 -0.063257612 0.44696596
0.16209753 -0.063116096 0.44596595
0.16326028 -0.063116118 0.44596595
0.16442303 -0.063116133 0.44596595
0.16558577 -0.063116156 0.44596595
0.1663747 -0.062974639 0.44496596
0.16753483 -0.062974662 0.44496596
0.16869497 -0.062974676 0.44496596
0.16985512 -0.062974699 0.44496596
0.17063099 -0.062833183 0.44396597
0.17178851 -0.062833205 0.44396597
0.17294607 -0.06283322 0.44396597
0.17371148 -0.062691696 0.44296595
0.17486641 -0.062691718 0.44296595
0.17602134 -0.062691741 0.44296595
0.17677635 -0.062550224 0.44196597
0.17792869 -0.062550247 0.44196597
0.17908099 -0.062550269 0.44196594
0.18023333 -0.062550284 0.44196594
0.18097529 -0.06240876 0.44096595
0.182125 -0.062408783 0.44096592
0.18327472 -0.062408801 0.44096592
0.18400627 -0.062267285 0.43996596
0.18515338 -0.062267307 0.43996593
0.18630049 -0.062267326 0.43996593
0.18744759 -0.062267344 0.43996593
0.18859471 -0.062267367 0.43996593
0.18974183 -0.062267385 0.43996593
0.19045512 -0.062125862 0.43896592
0.19159962 -0.06212588 0.43896592
0.19274412 -0.062125899 0.43896592
0.19388862 -0.062125921 0.43896589
0.19503312 -0.06212594 0.43896589
0.19617763 -0.062125959 0.43896589
0.19687265 -0.061984442 0.4379659
0.19801456 -0.061984461 0.4379659
0.19915645 -0.061984479 0.4379659
0.20029834 -0.061984502 0.4379659
0.20144023 -0.06198452 0.4379659
0.20258214 -0.061984539 0.43796587
0.20325893 -0.061843019 0.43696588
0.20439821 -0.061843041 0.43696585
-0.32018977 -0.07986632 0.57496679
-0.31869072 -0.07986635 0.57496679
-0.31664002 -0.079727456 0.57396674
-0.31514353 -0.079727478 0.57396668
-0.31364709 -0.079727508 0.57396668
-0.31106299 -0.079449698 0.57196677
-0.30957174 -0.079449721 0.57196671
-0.30754191 -0.079310842 0.57096678
-0.30605328 -0.079310864 0.57096672
-0.30403125 -0.079171978 0.56996679
-0.30254519 -0.079172008 0.56996673
-0.30053097 -0.079033107 0.56896669
-0.29852194 -0.07889422 0.56796676
-0.29704112 -0.078894243 0.5679667
-0.29503995 -0.078755356 0.56696671
-0.29304397 -0.07861647 0.56596678
-0.2915684 -0.078616492 0.56596673
-0.28958023 -0.078477591 0.56496668
-0.28810722 -0.078477614 0.56496668
-0.28612691 -0.078338735 0.56396669
-0.28465652 -0.078338757 0.56396669
-0.28268403 -0.078199871 0.5629667
-0.28121626 -0.078199893 0.5629667
-0.27925158 -0.078060992 0.56196672
-0.27778637 -0.078061022 0.56196672
-0.27632123 -0.078061044 0.56196672
-0.27436697 -0.077922165 0.56096673
-0.2724179 -0.077783264 0.55996668
-0.27095795 -0.077783287 0.55996668
-0.26901674 -0.077644393 0.5589667
-0.26755941 -0.077644415 0.5589667
-0.26562601 -0.077505529 0.55796671
-0.26417124 -0.077505551 0.55796671
-0.26224571 -0.077366672 0.55696672
-0.26079357 -0.077366695 0.55696672
-0.25934142 -0.077366725 0.55696672
-0.25788927 -0.077366747 0.55696672
-0.25597674 -0.077227846 0.55596673
-0.25452721 -0.077227876 0.55596673
-0.25307769 -0.077227898 0.55596668
-0.25162816 -0.077227928 0.55596668
-0.24972862 -0.077089027 0.55496663
-0.24828172 -0.077089049 0.55496663
-0.24683478 -0.077089079 0.55496663
-0.24494572 -0.076950192 0.55396664
-0.24350139 -0.076950222 0.55396664
-0.24162014 -0.076811329 0.55296665
-0.24017844 -0.076811351 0.55296665
-0.238305 -0.076672457 0.55196667
-0.23686589 -0.07667248 0.55196667
-0.23500027 -0.076533586 0.55096662
-0.23313987 -0.0763947 0.54996663
-0.23170599 -0.076394722 0.54996663
-0.22985341 -0.076255828 0.54896665
-0.22842212 -0.07625585 0.54896665
-0.22657737 -0.076116957 0.54796666
-0.22514869 -0.076116987 0.54796666
-0.22331177 -0.0759781 0.54696667
-0.2218857 -0.075978123 0.54696667
-0.22045964 -0.075978152 0.54696667
-0.21903357 -0.075978175 0.54696667
-0.21760751 -0.075978197 0.54696667
-0.21578619 -0.075839289 0.54596663
-0.21436274 -0.075839318 0.54596657
-0.21254925 -0.075700425 0.54496664
-0.21112841 -0.075700447 0.54496658
-0.20932278 -0.075561561 0.54396665
-0.20790452 -0.075561583 0.54396659
-0.17206256 -0.074172959 0.5339666
-0.17067041 -0.074172981 0.5339666
-0.16896123 -0.074034087 0.53296661
-0.16757165 -0.07403411 0.53296661
-0.16587026 -0.073895209 0.53196657
-0.16417409 -0.073756315 0.53096658
-0.16278976 -0.073756337 0.53096658
-0.16110143 -0.073617436 0.52996659
-0.15971969 -0.073617466 0.52996659
-0.15803917 -0.073478572 0.52896661
-0.15666005 -0.073478602 0.52896661
-0.1552809 -0.073478624 0.52896655
-0.1536108 -0.073339723 0.52796656
-0.095951363 -0.070423298 0.50696659
-0.094816245 -0.070562236 0.50796652
-0.093491852 -0.070562258 0.50796652
-0.092167459 -0.070562281 0.50796652
-0.090843074 -0.070562311 0.50796652
-0.089518689 -0.070562333 0.50796652
-0.088194296 -0.070562355 0.50796652
-0.08686991 -0.070562378 0.50796652
-0.085545525 -0.0705624 0.50796646
-0.084055327 -0.070423499 0.50696653
-0.082733542 -0.070423529 0.50696647
-0.081411764 -0.070423551 0.50696647
-0.079931997 -0.07028465 0.50596648
-0.078612819 -0.070284672 0.50596648
-0.077293649 -0.070284694 0.50596648
-0.075824298 -0.070145801 0.50496644
-0.074360169 -0.070006892 0.50396645
-0.073046207 -0.070006914 0.50396645
-0.071732245 -0.070006937 0.50396645
-0.070138812 -0.06972912 0.50196654
-0.068830065 -0.069729142 0.50196648
-0.067386791 -0.069590241 0.50096655
-0.066212572 -0.069729187 0.50196648
-0.064774506 -0.069590293 0.50096649
-0.063468367 -0.069590315 0.50096649
-0.062162239 -0.069590338 0.50096649
-0.0608561 -0.06959036 0.50096649
-0.059549958 -0.069590382 0.50096649
-0.058127534 -0.069451474 0.49996644
-0.056824002 -0.069451496 0.49996644
-0.055409405 -0.069312595 0.49896646
-0.054108482 -0.069312617 0.49896646
-0.052807558 -0.069312647 0.49896646
-0.051506631 -0.069312669 0.49896643
-0.050105076 -0.069173768 0.49796647
-0.04880676 -0.069173791 0.49796644
-0.047508441 -0.069173813 0.49796644
-0.046117302 -0.069034904 0.49696642
-0.044821594 -0.069034927 0.49696642
-0.043438289 -0.068896033 0.49596643
-0.042145181 -0.068896055 0.49596643
-0.040769693 -0.068757154 0.49496645
-0.039479196 -0.068757176 0.49496645
-0.038111523 -0.068618275 0.49396643
-0.036823634 -0.068618298 0.49396643
-0.035463795 -0.068479396 0.49296644
-0.03417851 -0.068479419 0.49296644
-0.032893226 -0.068479441 0.49296644
-0.031607945 -0.068479463 0.49296644
-0.03032266 -0.068479486 0.49296644
-0.029037377 -0.068479508 0.49296641
-0.010886459 -0.067507356 0.48596644
-0.009619426 -0.067507371 0.48596641
-0.0083696004 -0.06764631 0.4869664
-0.0070999614 -0.067646332 0.48696637
-0.005830321 -0.067646354 0.48696637
-0.0045700688 -0.0677853 0.48796636
-0.0032978216 -0.067785323 0.48796636
-0.0020255742 -0.067785345 0.48796636
-0.0007533271 -0.067785367 0.48796636
0.00051892019 -0.06778539 0.48796636
0.0017911674 -0.067785412 0.48796633
0.0030571602 -0.067646511 0.48696634
0.0043268004 -0.067646533 0.48696631
0.0055964403 -0.067646556 0.48696631
0.0068520051 -0.067507662 0.48596632
0.0081190383 -0.067507684 0.48596632
0.009386071 -0.067507707 0.48596632
0.010653105 -0.067507729 0.48596632
0.011920138 -0.067507751 0.4859663
0.013187171 -0.067507774 0.4859663
0.014424486 -0.067368858 0.48496631
0.015688911 -0.06736888 0.48496628
0.016953336 -0.067368902 0.48496628
0.018180225 -0.067230001 0.48396629
0.019442042 -0.067230023 0.48396629
0.020703861 -0.067230046 0.48396629
0.021920322 -0.067091137 0.48296627
0.023179533 -0.06709116 0.48296627
0.024438746 -0.067091182 0.48296627
0.025644777 -0.066952281 0.48196629
0.026901381 -0.066952303 0.48196629
0.028099591 -0.066813402 0.4809663
0.029353591 -0.066813424 0.4809663
0.030607585 -0.066813447 0.4809663
0.031795368 -0.066674538 0.47996628
0.033046756 -0.06667456 0.47996628
0.034298148 -0.066674583 0.47996625
0.035549536 -0.066674605 0.47996625
0.036800928 -0.066674627 0.47996625
0.037973069 -0.066535719 0.47896627
0.039221857 -0.066535741 0.47896627
0.040470637 -0.066535763 0.47896627
0.041632343 -0.066396855 0.47796625
0.042878516 -0.066396877 0.47796625
0.04403241 -0.066257976 0.47696626
0.045275979 -0.066257998 0.47696626
0.046519548 -0.066258021 0.47696626
0.047763124 -0.066258043 0.47696626
0.049006693 -0.066258065 0.47696623
0.050144941 -0.066119157 0.47596624
0.051385902 -0.066119179 0.47596622
0.052626863 -0.066119201 0.47596622
0.053754676 -0.065980293 0.47496626
0.054993037 -0.065980315 0.47496623
0.056231391 -0.06598033 0.47496623
0.057348784 -0.065841436 0.47396624
0.058584534 -0.065841459 0.47396624
0.059820279 -0.065841481 0.47396624
0.060927238 -0.065702565 0.47296622
0.06216038 -0.065702587 0.47296622
0.063393518 -0.06570261 0.47296622
0.064626656 -0.065702632 0.47296622
0.065720595 -0.065563731 0.47196624
0.066951133 -0.065563753 0.47196624
0.068037234 -0.065424837 0.47096622
0.069265157 -0.06542486 0.47096622
0.070343442 -0.065285958 0.46996623
0.071568757 -0.065285981 0.46996623
0.07279408 -0.065286003 0.46996623
0.073861934 -0.065147087 0.46896622
0.075084649 -0.065147109 0.46896622
0.076144688 -0.065008208 0.46796623
0.077364787 -0.065008231 0.46796623
0.078416996 -0.064869314 0.46696621
0.079634495 -0.064869337 0.46696621
0.080851994 -0.064869359 0.46696621
0.082069494 -0.064869381 0.46696618
0.083108678 -0.064730473 0.46596622
0.08432357 -0.064730495 0.46596622
0.085538462 -0.064730518 0.46596619
0.086753353 -0.06473054 0.46596619
0.0877795 -0.064591631 0.46496621
0.088991784 -0.064591654 0.46496621
0.090204068 -0.064591676 0.46496621
0.091416351 -0.064591698 0.46496621
0.092628635 -0.064591721 0.46496621
0.093840927 -0.064591736 0.46496618
0.094848812 -0.064452834 0.46396619
0.096058488 -0.064452857 0.46396616
0.097268172 -0.064452872 0.46396616
0.098477848 -0.064452894 0.46396616
0.099472716 -0.064313985 0.46296617
0.10067979 -0.064314 0.46296617
0.10188685 -0.064314023 0.46296617
0.10287128 -0.064175114 0.46196616
0.10407574 -0.064175136 0.46196616
0.10528021 -0.064175159 0.46196616
0.10625421 -0.06403625 0.46096617
0.107223 -0.063897349 0.45996615
0.10842224 -0.063897364 0.45996615
0.10962149 -0.063897386 0.45996615
0.11082074 -0.063897409 0.45996615
0.11177649 -0.063758492 0.45896617
0.11297314 -0.063758515 0.45896617
0.11416978 -0.063758537 0.45896617
0.1151151 -0.063619636 0.45796618
0.11630914 -0.063619658 0.45796618
0.11750317 -0.063619681 0.45796618
0.11869721 -0.063619696 0.45796615
0.11989126 -0.063619718 0.45796615
0.12082092 -0.063480802 0.45696616
0.12201236 -0.063480824 0.45696613
0.12320378 -0.063480847 0.45696613
0.12439521 -0.063480869 0.45696613
0.12531185 -0.06334196 0.45596614
0.12650068 -0.063341983 0.45596614
0.1276895 -0.063342005 0.45596614
0.12859572 -0.063203089 0.45496613
0.12978193 -0.063203104 0.45496613
0.13068034 -0.06306421 0.45396614
0.13186394 -0.063064225 0.45396614
0.13304755 -0.063064247 0.45396614
0.13393553 -0.062925324 0.45296612
0.13511652 -0.062925346 0.45296612
0.13629752 -0.062925369 0.45296612
0.13747852 -0.062925383 0.45296612
0.13835344 -0.062786482 0.45196614
0.13953182 -0.062786505 0.45196614
0.14071022 -0.062786527 0.45196611
0.14188862 -0.062786549 0.45196611
0.14306702 -0.062786564 0.45196611
0.14392631 -0.062647656 0.45096612
0.1451021 -0.062647678 0.45096612
0.14627787 -0.0626477 0.45096612
0.14745367 -0.062647723 0.45096612
0.14829992 -0.062508807 0.4499661
0.14947309 -0.062508829 0.4499661
0.15064628 -0.062508844 0.4499661
0.15181945 -0.062508866 0.44996607
0.15265268 -0.062369958 0.44896612
0.15382324 -0.062369976 0.44896612
0.15464865 -0.062231068 0.4479661
0.1558166 -0.06223109 0.4479661
0.15698458 -0.062231109 0.4479661
0.15779954 -0.062092196 0.44696611
0.15896492 -0.062092215 0.44696611
0.16013026 -0.062092237 0.44696608
0.16129562 -0.062092256 0.44696608
0.16246098 -0.062092278 0.44696608
0.1632603 -0.061953362 0.44596606
0.16442305 -0.061953384 0.44596606
0.16558579 -0.061953403 0.44596606
0.16674855 -0.061953425 0.44596606
0.16753484 -0.061814517 0.44496608
0.16869499 -0.061814539 0.44496608
0.16985513 -0.061814558 0.44496608
0.17063101 -0.061675645 0.44396609
0.17178853 -0.061675664 0.44396609
0.17294608 -0.061675686 0.44396609
0.1741036 -0.061675705 0.44396606
0.17486644 -0.061536793 0.44296607
0.17602137 -0.061536811 0.44296607
0.1771763 -0.06153683 0.44296604
0.17792872 -0.061397921 0.44196609
0.17908102 -0.06139794 0.44196609
0.18023336 -0.061397962 0.44196606
0.18138567 -0.061397981 0.44196606
0.182538 -0.061398 0.44196606
0.18327473 -0.061259087 0.44096604
0.18442445 -0.061259106 0.44096604
0.18557416 -0.061259128 0.44096604
0.1863005 -0.061120216 0.43996605
0.18744761 -0.061120234 0.43996605
0.18859473 -0.061120257 0.43996605
0.18974185 -0.061120275 0.43996605
0.19088896 -0.061120298 0.43996602
0.19159964 -0.060981382 0.43896604
0.19274414 -0.0609814 0.43896604
0.19388863 -0.060981423 0.43896601
0.19503313 -0.060981441 0.43896601
0.19617765 -0.06098146 0.43896601
0.19732213 -0.060981482 0.43896601
0.19846664 -0.060981501 0.43896601
0.19961114 -0.06098152 0.43896598
0.20029835 -0.060842611 0.43796602
0.20144024 -0.06084263 0.43796602
0.20258215 -0.060842648 0.43796599
0.20372404 -0.060842671 0.43796599
0.20486593 -0.060842689 0.43796599
-0.32074666 -0.078503571 0.57596689
-0.31869072 -0.078367285 0.57496691
-0.31719166 -0.078367308 0.57496691
-0.31514353 -0.078231022 0.57396686
-0.31364703 -0.078231052 0.57396686
-0.3121506 -0.078231074 0.57396686
-0.31011295 -0.078094788 0.57296687
-0.30808043 -0.077958509 0.57196689
-0.30605322 -0.077822223 0.5709669
-0.3045646 -0.077822253 0.5709669
-0.30254519 -0.077685975 0.56996691
-0.30105913 -0.077685997 0.56996691
-0.29904753 -0.077549711 0.56896687
-0.29704112 -0.077413417 0.56796688
-0.2955603 -0.077413447 0.56796688
-0.2935617 -0.077277176 0.56696689
-0.2915684 -0.07714089 0.5659669
-0.29009277 -0.07714092 0.5659669
-0.28810722 -0.077004619 0.56496686
-0.28663421 -0.077004649 0.56496686
-0.28465652 -0.076868363 0.56396687
-0.28318614 -0.076868393 0.56396687
-0.2812162 -0.076732107 0.56296688
-0.27974844 -0.076732136 0.56296688
-0.27778637 -0.076595858 0.5619669
-0.27632117 -0.07659588 0.5619669
-0.27485603 -0.076595902 0.5619669
-0.2729044 -0.076459624 0.56096691
-0.27095795 -0.07632333 0.55996686
-0.26901674 -0.076187044 0.55896688
-0.26755935 -0.076187067 0.55896688
-0.26610202 -0.076187097 0.55896682
-0.26417124 -0.076050811 0.55796689
-0.26271647 -0.07605084 0.55796683
-0.26079351 -0.075914562 0.55696684
-0.25934142 -0.075914592 0.55696684
-0.25788927 -0.075914614 0.55696684
-0.25643712 -0.075914636 0.55696684
-0.25498497 -0.075914666 0.55696684
-0.25307769 -0.075778373 0.55596685
-0.25162816 -0.075778402 0.55596685
-0.25017858 -0.075778425 0.55596685
-0.24828169 -0.075642131 0.55496681
-0.24683475 -0.075642161 0.55496681
-0.24538784 -0.075642183 0.55496681
-0.24350137 -0.075505905 0.55396682
-0.24205706 -0.075505927 0.55396682
-0.24017842 -0.075369641 0.55296683
-0.23873672 -0.075369671 0.55296677
-0.23686588 -0.075233385 0.55196685
-0.23500024 -0.075097099 0.5509668
-0.23356374 -0.075097121 0.5509668
-0.23170596 -0.074960835 0.54996681
-0.22985338 -0.074824549 0.54896683
-0.22842209 -0.074824572 0.54896683
-0.22657734 -0.074688286 0.54796684
-0.22473781 -0.074552014 0.54696685
-0.22331175 -0.074552037 0.54696685
-0.22188568 -0.074552059 0.54696679
-0.22045963 -0.074552089 0.54696679
-0.21903355 -0.074552111 0.54696679
