# .PCD v0.7 - Point Cloud Data file format
VERSION 0.7
FIELDS x y z
SIZE 4 4 4
TYPE F F F
COUNT 1 1 1
WIDTH 1
HEIGHT 952
VIEWPOINT 0 0 0 1 0 0 0
POINTS 952
DATA ascii
-0.042450648 -0.10250549 0.45384926
-0.038057607 -0.10759299 0.45558122
-0.045423955 -0.09869197 0.45031425
-0.036925927 -0.11260301 0.46446791
-0.041117102 -0.10689633 0.46198004
-0.039075986 -0.10903877 0.4619655
-0.11549629 -0.16877103 0.47903383
-0.033720817 -0.12299211 0.47823909
-0.040804029 -0.11242162 0.47876391
-0.037184883 -0.11651004 0.47503847
-0.1111401 -0.17100814 0.48334932
-0.10448886 -0.17215486 0.48644704
-0.094774112 -0.17237207 0.48566484
-0.085135683 -0.17282078 0.48353654
-0.076578796 -0.17349854 0.48739439
-0.11259831 -0.16850747 0.48546621
-0.10604981 -0.16931219 0.48880011
-0.093304418 -0.16768007 0.48899749
-0.084901981 -0.16501625 0.4856663
-0.075627692 -0.16428655 0.48353767
-0.066606842 -0.16286738 0.48727897
-0.08264073 -0.15758088 0.48846069
-0.074891895 -0.15513204 0.4859679
-0.065778702 -0.15445872 0.48402289
-0.056258108 -0.1532253 0.48685133
-0.073033556 -0.14743631 0.48905155
-0.064979181 -0.14526357 0.48632205
-0.055635791 -0.14436348 0.48393348
-0.046429988 -0.14347447 0.48648247
-0.039315596 -0.14064388 0.48916978
-0.063114926 -0.13791244 0.48891285
-0.054839496 -0.13539651 0.48658326
-0.045472298 -0.13438098 0.48401758
-0.036186501 -0.13347742 0.48466408
-0.028238937 -0.13309647 0.4887307
-0.052110318 -0.12982832 0.48934814
-0.043794923 -0.12584333 0.4871794
-0.036813848 -0.12556589 0.48178634
-0.029586181 -0.12768263 0.48298806
-0.042962812 -0.11492427 0.48648348
-0.039288893 -0.11787604 0.48199788
-0.028017431 -0.11186971 0.48292181
-0.04685954 -0.10636921 0.48668289
-0.073829286 -0.18187591 0.49660069
-0.13006975 -0.17231251 0.49992195
-0.12576918 -0.17430395 0.49861526
-0.073515572 -0.17712389 0.49284807
-0.066089734 -0.17371634 0.49628419
-0.13013944 -0.16850543 0.49898449
-0.12647705 -0.16877244 0.49869314
-0.11448047 -0.16649221 0.49655178
-0.10497072 -0.16472432 0.49489513
-0.095748454 -0.16377421 0.49220002
-0.089168847 -0.16053469 0.491079
-0.06361872 -0.16640612 0.49248865
-0.055855684 -0.1639038 0.49650151
-0.049603328 -0.16156907 0.49944258
-0.15009022 -0.15172507 0.49961528
-0.14449236 -0.15342709 0.49868888
-0.13952698 -0.15594168 0.498384
-0.1013696 -0.15863712 0.49825394
-0.094363295 -0.15550593 0.49659657
-0.085765049 -0.15401585 0.49221972
-0.079026759 -0.15182611 0.49019995
-0.053281073 -0.15754659 0.49275988
-0.046213116 -0.15385033 0.49533206
-0.039854869 -0.15041162 0.49733418
-0.15184462 -0.14532077 0.49916014
-0.14625232 -0.14558358 0.4986645
-0.091194838 -0.14889459 0.49881542
-0.084648311 -0.1454652 0.49581346
-0.076150939 -0.14388746 0.49215919
-0.069089226 -0.14101626 0.49009621
-0.042976458 -0.14772837 0.49247584
-0.035956066 -0.14478059 0.4954854
-0.028772539 -0.14215885 0.49793574
-0.15193108 -0.13934855 0.49961004
-0.14857602 -0.13973677 0.49983025
-0.081839629 -0.13823278 0.49799085
-0.074489936 -0.13543338 0.49576324
-0.065709457 -0.13385609 0.49231628
-0.05749413 -0.13071656 0.49118656
-0.033513814 -0.13911057 0.4914144
-0.024049863 -0.13455054 0.49438661
-0.018169284 -0.13316414 0.49969429
-0.071741723 -0.12891099 0.49875015
-0.064868256 -0.12642576 0.49700162
-0.054854527 -0.12503983 0.49520433
-0.047912281 -0.12357156 0.49204502
-0.053162213 -0.11494518 0.49716583
-0.047666393 -0.11550643 0.49218813
-0.052779719 -0.10506918 0.49544966
-0.049317148 -0.10452423 0.49157396
-0.037817419 -0.10120165 0.49523601
-0.063423485 -0.091751777 0.49930111
-0.054447584 -0.09514185 0.49900645
-0.048773989 -0.098647892 0.4984138
-0.072592229 -0.084326506 0.49833417
-0.066517621 -0.085840359 0.49627328
-0.058948945 -0.089391761 0.49793684
-0.080336265 -0.070651904 0.49929124
-0.074352793 -0.075149752 0.49908999
-0.068265833 -0.078418113 0.49848819
-0.081583805 -0.067625888 0.49919081
-0.077647597 -0.068570018 0.49851897
-0.11739601 -0.028892964 0.49969184
-0.12751852 -0.016202074 0.49926919
-0.071176872 -0.18471 0.50105393
-0.062089499 -0.17702246 0.50237751
-0.10867691 -0.160886 0.50086743
-0.052239191 -0.16768704 0.50283134
-0.042435858 -0.15699731 0.50124919
-0.088026471 -0.14199446 0.5018785
-0.031661801 -0.14785929 0.50180447
-0.023902897 -0.14513928 0.50446206
-0.077399328 -0.13132595 0.50141895
-0.020712957 -0.13916978 0.50121248
-0.075278804 -0.12459536 0.50355798
-0.065077156 -0.12190589 0.50099343
-0.05841852 -0.12075176 0.50028414
-0.065162115 -0.11566155 0.50451612
-0.058327388 -0.1148745 0.50191933
-0.05762583 -0.10488179 0.50249738
-0.036470335 -0.10129207 0.50536674
-0.065273203 -0.09641806 0.50350738
-0.055485446 -0.096275054 0.50121039
-0.077112399 -0.085756607 0.50237417
-0.084986068 -0.074738935 0.50371653
-0.075309701 -0.075683385 0.50150728
-0.065766878 -0.074413843 0.5056687
-0.086396761 -0.064956911 0.50179923
-0.07434161 -0.065486215 0.50567359
-0.09523873 -0.055813182 0.50466788
-0.088345774 -0.058309387 0.50349903
-0.10552037 -0.045542687 0.50405461
-0.097659692 -0.048183601 0.50303924
-0.12498448 -0.03475621 0.50487155
-0.11589739 -0.03532593 0.50294811
-0.10818636 -0.038257882 0.50394911
-0.12494881 -0.025150122 0.50319123
-0.11894131 -0.026459578 0.50098926
-0.1308111 -0.018888898 0.5041154
-0.12684542 -0.018299937 0.50233954
-0.10307442 -0.17142621 0.43706968
-0.098928601 -0.17187525 0.43894649
-0.11249329 -0.16309261 0.43759698
-0.10552765 -0.16691525 0.4382787
-0.099385366 -0.16900793 0.43969646
-0.1223463 -0.15240003 0.43668678
-0.11552796 -0.15487058 0.43727806
-0.13170542 -0.14207381 0.43691391
-0.12543121 -0.14519151 0.43753183
-0.11665526 -0.14799494 0.43764418
-0.14113134 -0.13196991 0.43758839
-0.13533631 -0.13560933 0.43834174
-0.12854651 -0.13954514 0.43918467
-0.15152615 -0.12180606 0.43867514
-0.14543955 -0.12530313 0.43855283
-0.1396119 -0.12936145 0.43968016
-0.16137986 -0.11110532 0.43792117
-0.1549598 -0.11527846 0.43856522
-0.14958341 -0.11895055 0.43942612
-0.17025606 -0.10040338 0.43866765
-0.16427276 -0.10456797 0.43868867
-0.15900545 -0.10903604 0.43927231
-0.17375261 -0.096333705 0.43948984
-0.16757886 -0.099023551 0.43954396
-0.19018228 -0.081096292 0.43965957
-0.18558504 -0.084843546 0.43966153
-0.20030113 -0.070270926 0.43665549
-0.19445969 -0.074172787 0.43889204
-0.18865007 -0.079563849 0.43966034
-0.20241964 -0.063036948 0.4363001
-0.1979405 -0.06525372 0.43781596
-0.20227416 -0.057428278 0.43912193
-0.19517696 -0.054786108 0.43765858
-0.18845865 -0.051179286 0.43794754
-0.19143303 -0.048360799 0.43466061
-0.18513247 -0.044604968 0.43501854
-0.17756708 -0.041994203 0.43566728
-0.18207848 -0.038367905 0.43516541
-0.17493637 -0.035351001 0.43550551
-0.16828431 -0.031032281 0.43467203
-0.17098288 -0.029044129 0.43467093
-0.16426064 -0.025800787 0.43467411
-0.15733173 -0.023488518 0.43484983
-0.16113652 -0.019575186 0.43467584
-0.15645698 -0.018191921 0.43524948
-0.098164111 -0.171786 0.44460595
-0.11026807 -0.16028678 0.44419193
-0.105469 -0.16401246 0.44471768
-0.099347226 -0.16894907 0.44469649
-0.11156376 -0.15653345 0.44396934
-0.12477235 -0.14326817 0.44509527
-0.11765953 -0.14757995 0.44457811
-0.13457538 -0.1341462 0.4447467
-0.12937556 -0.13911156 0.44268432
-0.14338563 -0.12424444 0.44472876
-0.13922468 -0.12954873 0.44508028
-0.15345508 -0.11354247 0.44411215
-0.14806312 -0.11850236 0.4449546
-0.16126435 -0.10214251 0.44377169
-0.15852037 -0.10648986 0.44513938
-0.18093796 -0.091186129 0.44066325
-0.17386784 -0.092702091 0.44310388
-0.16649069 -0.09714698 0.44466954
-0.18276921 -0.083565891 0.44306281
-0.17717808 -0.087444238 0.44505537
-0.19128668 -0.072681196 0.44357619
-0.18762217 -0.077420674 0.44433835
-0.1950523 -0.065297514 0.44431773
-0.20472936 -0.054729149 0.44252926
-0.19319133 -0.057125818 0.44423836
-0.18847892 -0.052111987 0.44241181
-0.13606405 -0.0024095853 0.44688815
-0.10029422 -0.17008477 0.45969597
-0.098267242 -0.17256816 0.45587862
-0.11109938 -0.1608548 0.4566915
-0.10472592 -0.16544423 0.45508704
-0.099732175 -0.16948685 0.45169628
-0.11359563 -0.15681049 0.4551906
-0.13147265 -0.14112353 0.45668325
-0.12569879 -0.14492615 0.45477659
-0.11862051 -0.14882901 0.45168871
-0.13649277 -0.13401596 0.4555147
-0.14287382 -0.1243324 0.45494363
-0.13967179 -0.12923943 0.45618013
-0.15388794 -0.11363417 0.45511886
-0.14831144 -0.11820554 0.45529211
-0.17920662 -0.10857741 0.4586632
-0.16098039 -0.10160193 0.45517182
-0.15840755 -0.10655949 0.45461717
-0.18800789 -0.099202752 0.45965964
-0.17151643 -0.091722086 0.45466751
-0.16656686 -0.096959174 0.45533621
-0.18163075 -0.081566922 0.45466343
-0.17692357 -0.086098149 0.45516536
-0.1917282 -0.072358787 0.45565927
-0.1868417 -0.077853359 0.45518303
-0.19471498 -0.06498979 0.45517352
-0.19411142 -0.058394093 0.45465896
-0.13775051 -0.0045121801 0.45243728
-0.097143993 -0.18098782 0.46769685
-0.10049164 -0.17065936 0.46619588
-0.096188508 -0.17590564 0.46655867
-0.11218602 -0.16260965 0.46669093
-0.10510325 -0.16697945 0.4653255
-0.12152827 -0.15089676 0.46648732
-0.13255674 -0.14301771 0.4659327
-0.12676531 -0.14698543 0.46504876
-0.13775626 -0.13428406 0.46584743
-0.1432602 -0.12391693 0.46495149
-0.13910949 -0.12874739 0.46443039
-0.1827184 -0.1119301 0.46766144
-0.15363438 -0.11356153 0.46543217
-0.14821973 -0.11840239 0.4650614
-0.16211008 -0.10270923 0.46467125
-0.15831679 -0.10773292 0.46508455
-0.17235534 -0.092708454 0.46559018
-0.16767794 -0.097972102 0.46589115
-0.18129681 -0.080734745 0.46403861
-0.17735761 -0.085406862 0.46513394
-0.19186026 -0.073222421 0.46524745
-0.18601032 -0.077746823 0.46502164
-0.19498093 -0.065486334 0.46519983
-0.19606546 -0.058215328 0.46625805
-0.14360917 -0.0068021854 0.46768448
-0.13935275 -0.006743256 0.46368641
-0.092655666 -0.18166839 0.47427031
-0.089418888 -0.18149203 0.47870037
-0.10119227 -0.17076223 0.47458446
-0.094590269 -0.17379539 0.47506377
-0.088351816 -0.17548327 0.47674119
-0.11255382 -0.16395877 0.4759984
-0.10570679 -0.16758437 0.47577694
-0.12236152 -0.15198392 0.47575352
-0.11959642 -0.15621512 0.47828788
-0.13370597 -0.14394425 0.47558683
-0.12739338 -0.14833547 0.47530016
-0.13794276 -0.13532589 0.4753806
-0.144034 -0.12432724 0.47517845
-0.13957192 -0.12918441 0.47268015
-0.036952589 -0.12482146 0.47972703
-0.15193743 -0.11200733 0.47272083
-0.14872953 -0.11639322 0.47596833
-0.16294916 -0.10270327 0.4756709
-0.15629014 -0.10743459 0.4753125
-0.17273885 -0.093830079 0.47562337
-0.16834088 -0.098712698 0.47646862
-0.18080929 -0.080634296 0.47486386
-0.17669871 -0.08559379 0.47514933
-0.19261651 -0.07282456 0.47524711
-0.18580259 -0.077717401 0.47524065
-0.19622299 -0.065391406 0.47497344
-0.19813423 -0.057736289 0.47432384
-0.14247306 -0.0080993399 0.47201824
-0.10001898 -0.19191313 0.48769504
-0.099148616 -0.19269985 0.48969537
-0.087691419 -0.18269899 0.48498684
-0.094811626 -0.17096058 0.48115996
-0.085161403 -0.17306007 0.48364386
-0.079789408 -0.17059208 0.48870528
-0.11355501 -0.16216242 0.48432669
-0.10489424 -0.16530244 0.48582107
-0.094677784 -0.16594423 0.48596349
-0.085120238 -0.16480842 0.48413387
-0.076088101 -0.16403367 0.48676983
-0.069714271 -0.1607016 0.48971036
-0.12209903 -0.15134561 0.48456931
-0.11614734 -0.15624046 0.48535621
-0.10938969 -0.15942445 0.48969239
-0.090191945 -0.15942316 0.48970112
-0.083708964 -0.15685835 0.48732919
-0.075182818 -0.15502487 0.4859224
-0.066291548 -0.15375118 0.48714092
-0.058836207 -0.15110198 0.48971578
-0.13394879 -0.14328416 0.48531535
-0.12730907 -0.14788459 0.48525006
-0.072544798 -0.1476883 0.48834133
-0.06498234 -0.1446936 0.48579532
-0.055825777 -0.14394408 0.48478895
-0.047891319 -0.14088315 0.48905465
-0.14046186 -0.13086192 0.48501301
-0.13796435 -0.13573673 0.48508057
-0.062021468 -0.13794802 0.48814362
-0.054998942 -0.13527474 0.48532495
-0.046026595 -0.13420108 0.48470023
-0.037935819 -0.13097131 0.48705962
-0.14415666 -0.12481759 0.48519561
-0.052365426 -0.12687036 0.4880116
-0.044880357 -0.12467116 0.48404655
-0.035799738 -0.12433034 0.4845511
-0.15065533 -0.11088746 0.48450938
-0.14807414 -0.115987 0.48517698
-0.055360865 -0.11195709 0.4895193
-0.045092791 -0.1188416 0.48897368
-0.16242769 -0.10144539 0.48478228
-0.15573579 -0.1060634 0.48501882
-0.06075881 -0.109507 0.48971701
-0.055374615 -0.10823993 0.48856163
-0.17214599 -0.093192764 0.48493642
-0.16721226 -0.098023079 0.48597354
-0.18130046 -0.08060693 0.4851636
-0.17618868 -0.085704133 0.48555857
-0.19306707 -0.073135391 0.48604754
-0.18641214 -0.077889115 0.48559481
-0.19741981 -0.064839505 0.48527783
-0.20181926 -0.057802022 0.48679832
-0.19930878 -0.059195623 0.48115653
-0.1513257 -0.0090251192 0.48868084
-0.14592972 -0.0095612817 0.48348325
-0.10121255 -0.19675183 0.49669424
-0.094845347 -0.19390473 0.49554342
-0.087842248 -0.19126739 0.49820057
-0.09055765 -0.18963079 0.49169943
-0.085033536 -0.18500474 0.495226
-0.081261709 -0.17663497 0.49380437
-0.076799974 -0.173274 0.49639073
-0.10391188 -0.16135989 0.49193013
-0.097297855 -0.16118559 0.49177474
-0.072801508 -0.16733013 0.49390858
-0.067125171 -0.16367874 0.49643862
-0.1208815 -0.15058976 0.49218762
-0.11405978 -0.15306488 0.4946506
-0.10509696 -0.15529962 0.49626985
-0.095021836 -0.15492119 0.49461976
-0.086238123 -0.15248449 0.49223447
-0.062709279 -0.15733503 0.49435657
-0.056277204 -0.1533303 0.49615437
-0.1321663 -0.14198701 0.49299872
-0.1245232 -0.14482492 0.49574101
-0.11605176 -0.14647457 0.49902335
-0.10402367 -0.14665863 0.49907044
-0.09488377 -0.14473313 0.49751222
-0.084851794 -0.14477536 0.4962346
-0.076081626 -0.14408298 0.4934583
-0.06947758 -0.14103322 0.49104479
-0.052186757 -0.14790726 0.493469
-0.046178039 -0.14423408 0.49631283
-0.14046103 -0.13091567 0.49317968
-0.13587607 -0.13578393 0.49651477
-0.12538648 -0.13784122 0.49927238
-0.094260775 -0.13859457 0.4992885
-0.08447165 -0.1385245 0.49955088
-0.074311629 -0.13558233 0.49733216
-0.06566269 -0.1341902 0.49344429
-0.059308358 -0.13127811 0.49096656
-0.04256127 -0.13885573 0.49397382
-0.037821908 -0.13638477 0.49672607
-0.027981734 -0.13063234 0.49873081
-0.14283517 -0.12480421 0.49540386
-0.13929601 -0.12855266 0.49901366
-0.073452182 -0.1246399 0.49890485
-0.065020934 -0.12515959 0.4964107
-0.056262206 -0.12440006 0.49256447
-0.032889716 -0.12148363 0.49411005
-0.027869364 -0.12477948 0.49673119
-0.15097412 -0.11091425 0.49596164
-0.14774132 -0.11617583 0.49532932
-0.080279909 -0.11696836 0.49970773
-0.074555993 -0.11525571 0.49796045
-0.065166086 -0.11502811 0.49342632
-0.054799907 -0.11670952 0.49153513
-0.045597449 -0.11497355 0.49381259
-0.038202558 -0.11927091 0.4960601
-0.16105792 -0.10072263 0.49427184
-0.15614019 -0.10529661 0.49564263
-0.072519295 -0.10494882 0.49871191
-0.065593727 -0.10543109 0.49451891
-0.059600361 -0.10652439 0.49071768
-0.048476059 -0.10983336 0.49505591
-0.17114022 -0.091473728 0.4931677
-0.16571742 -0.095467247 0.49628815
-0.1599452 -0.09934321 0.49967241
-0.074532926 -0.095301546 0.49811146
-0.068697587 -0.097182423 0.496214
-0.1809058 -0.080648392 0.49449715
-0.17467107 -0.085701413 0.49622446
-0.16821706 -0.08867836 0.49966916
-0.076363921 -0.08888977 0.49971092
-0.19244571 -0.072695047 0.49548507
-0.18651003 -0.077395864 0.4960781
-0.19518527 -0.064794078 0.49607915
-0.2019515 -0.055193938 0.49572697
-0.19718076 -0.057937961 0.49781138
-0.19238481 -0.044519093 0.49910483
-0.18498766 -0.043829586 0.4987407
-0.17790614 -0.042643622 0.49966705
-0.12440124 -0.042163044 0.49919143
-0.21218807 -0.03861922 0.49965167
-0.18399052 -0.03836396 0.49870998
-0.17801517 -0.039487541 0.49966717
-0.13319106 -0.033505119 0.49904788
-0.12662059 -0.036593042 0.4974786
-0.17153195 -0.02651128 0.49917075
-0.16469109 -0.024610676 0.49771038
-0.1556198 -0.023600446 0.49880585
-0.14453533 -0.022675969 0.49954039
-0.13660474 -0.026089847 0.49915341
-0.17005809 -0.015078585 0.49867204
-0.16280691 -0.015520989 0.49742535
-0.15501182 -0.015267995 0.49648282
-0.14539838 -0.015257164 0.49725729
-0.13861987 -0.018589359 0.49968612
-0.16158518 -0.0094425138 0.49934283
-0.1570494 -0.0087902937 0.49707827
-0.078352273 -0.13182564 0.50095791
-0.078146249 -0.12608008 0.50120825
-0.031430729 -0.12005555 0.50172985
-0.078338139 -0.11164272 0.50120896
-0.077390917 -0.10573966 0.50198549
-0.079164736 -0.095257692 0.50090933
-0.19482835 -0.048161834 0.50097495
-0.18459024 -0.048539586 0.50097632
-0.17410524 -0.045544818 0.50170869
-0.12537301 -0.046920002 0.50229079
-0.11792894 -0.047933578 0.50278497
-0.10174927 -0.043553963 0.50192893
-0.18155333 -0.034023214 0.50126588
-0.17510149 -0.034827173 0.50154883
-0.16523531 -0.034851465 0.5018518
-0.13703148 -0.036015283 0.50142515
-0.17479973 -0.028862666 0.50139648
-0.1648497 -0.029533282 0.50067371
-0.15343633 -0.028398151 0.50131053
-0.14532825 -0.02759988 0.50122112
-0.17846984 -0.011247821 0.50216842
-0.16723594 -0.011777347 0.50081635
-0.14141271 -0.012380037 0.5016852
-0.16499572 -0.007198534 0.50167477
-0.17393619 -0.028901421 0.42971164
-0.10336967 -0.17169066 0.43614665
-0.099986538 -0.17402269 0.43932301
-0.11341436 -0.16286963 0.43499029
-0.10614032 -0.16576466 0.43624753
-0.12314183 -0.15321605 0.43603623
-0.11657742 -0.15694466 0.43759418
-0.13268405 -0.14276968 0.4358303
-0.12665033 -0.14601263 0.43779743
-0.1415375 -0.13194843 0.43433759
-0.13564582 -0.1354731 0.43672821
-0.12972389 -0.13903446 0.43905616
-0.15204041 -0.12161063 0.43617168
-0.14489278 -0.1251737 0.43612012
-0.13898323 -0.12886935 0.43782854
-0.16148946 -0.11219039 0.43607396
-0.15577227 -0.11548853 0.43771991
-0.1497667 -0.11962207 0.43795496
-0.17193986 -0.10184833 0.43695205
-0.16484657 -0.10540159 0.43739039
-0.15911716 -0.10921306 0.4384298
-0.040820166 -0.10076748 0.43924558
-0.038444437 -0.10286142 0.43943131
-0.18022732 -0.090478882 0.43748969
-0.17517364 -0.095282562 0.43804112
-0.16934089 -0.098743349 0.43917838
-0.050413534 -0.090982437 0.43947729
-0.046403766 -0.095627874 0.43976668
-0.18415289 -0.085101701 0.43870199
-0.17922176 -0.088766277 0.43859783
-0.054421078 -0.083986819 0.43842471
-0.049319711 -0.0886406 0.43978915
-0.19368245 -0.074624918 0.43951514
-0.18943654 -0.079655744 0.43889147
-0.064200468 -0.07418827 0.43752965
-0.059405003 -0.079366654 0.43771747
-0.19666313 -0.063833766 0.43782008
-0.080520801 -0.062158745 0.43969426
-0.073068194 -0.066761635 0.43890494
-0.068533711 -0.068902366 0.43794256
-0.19452648 -0.054629743 0.43582803
-0.084690899 -0.05448167 0.43873307
-0.19356152 -0.046240214 0.43720105
-0.18657744 -0.042184066 0.43879518
-0.091169462 -0.048093785 0.43934205
-0.088840522 -0.049011808 0.43919179
-0.18352687 -0.038015589 0.43548772
-0.17481053 -0.034097843 0.43492812
-0.16899757 -0.030839 0.43636853
-0.17172506 -0.028649818 0.43053603
-0.16442205 -0.025882909 0.43391207
-0.15826572 -0.021927048 0.43618539
-0.16081761 -0.019157995 0.4321059
-0.1564559 -0.015717858 0.43693867
-0.15340221 -0.0072602858 0.43947396
-0.14494719 -0.0035263237 0.43914393
-0.13881718 -0.0026366946 0.43939608
-0.14144133 0.0011218175 0.43833375
-0.13877997 0.0013721809 0.43954226
-0.10054445 -0.1714953 0.44484586
-0.099050678 -0.17456734 0.44518894
-0.11028384 -0.16027929 0.44018734
-0.10451023 -0.16462581 0.44421378
-0.12032943 -0.15069236 0.44386756
-0.11506353 -0.15543097 0.44504946
-0.10909407 -0.15927473 0.4460614
-0.12338387 -0.14473237 0.44422922
-0.13389999 -0.13358933 0.44500107
-0.12841481 -0.13854526 0.44501248
-0.14451763 -0.12370723 0.44486222
-0.1388521 -0.12883607 0.44490477
-0.15396391 -0.11469801 0.44470415
-0.14950114 -0.11925145 0.44328156
-0.036290087 -0.11126046 0.44718829
-0.1633615 -0.10347145 0.44447568
-0.1588278 -0.10838994 0.4444471
-0.040360257 -0.10056102 0.4404802
-0.035882484 -0.10458618 0.4451023
-0.17331572 -0.093589112 0.44506258
-0.16835074 -0.098515272 0.4446891
-0.04460388 -0.094696358 0.44370124
-0.038391285 -0.098651797 0.44586134
-0.18340683 -0.083501883 0.44449767
-0.1782304 -0.08862111 0.44420514
-0.052913319 -0.082764551 0.44409713
-0.048250902 -0.087617412 0.44402051
-0.19225574 -0.073318586 0.44375724
-0.18808147 -0.077724613 0.44544375
-0.063503318 -0.073710367 0.4447507
-0.058077674 -0.078667447 0.44439378
-0.19437046 -0.065302238 0.44462189
-0.080333889 -0.061277978 0.44079661
-0.0751817 -0.063531995 0.44426697
-0.068749391 -0.068545245 0.44486335
-0.19165331 -0.055252712 0.44428423
-0.18848826 -0.051819753 0.4473168
-0.083290793 -0.054075286 0.44434384
-0.079238221 -0.058909096 0.44570833
-0.19104749 -0.04864173 0.44157633
-0.18515742 -0.045667063 0.44513017
-0.17902821 -0.04079273 0.44470719
-0.10102616 -0.040752895 0.44599932
-0.094557337 -0.044143587 0.44582382
-0.088176116 -0.048557933 0.44557476
-0.17464255 -0.03689013 0.44464964
-0.16829562 -0.031783197 0.44488767
-0.11079077 -0.030267954 0.44506618
-0.1050928 -0.035068873 0.44765592
-0.16297239 -0.027556814 0.44477898
-0.1572096 -0.022292007 0.44481254
-0.12187395 -0.022460323 0.44931418
-0.11431467 -0.024434332 0.44683275
-0.10845166 -0.027621333 0.44791201
-0.15277053 -0.015846873 0.44398367
-0.14610805 -0.012227672 0.44588181
-0.13729011 -0.010948218 0.44848397
-0.15196741 -0.0086484421 0.44034353
-0.14428237 -0.0081553459 0.44173941
-0.13409406 -0.0048268582 0.44469726
-0.1349256 0.0021132228 0.44237643
-0.10096947 -0.18069047 0.45671454
-0.10225091 -0.17174511 0.45537397
-0.098159567 -0.17554565 0.45520976
-0.10724887 -0.16484125 0.4546876
-0.12020816 -0.15065497 0.45313925
-0.11492325 -0.15310901 0.45446217
-0.10927462 -0.157901 0.45470801
-0.12353417 -0.14521578 0.45487916
-0.11882141 -0.14944251 0.45895988
-0.13288677 -0.1328484 0.45481309
-0.12847888 -0.13778935 0.45505035
-0.1445245 -0.12338657 0.45482382
-0.13758384 -0.12801352 0.45570338
-0.15467195 -0.11489891 0.45535901
-0.14894572 -0.11918731 0.45846653
-0.033879098 -0.11329423 0.45587221
-0.16272292 -0.10248144 0.45380995
-0.15868674 -0.10643348 0.45594633
-0.034275718 -0.10507967 0.45485252
-0.17268087 -0.093129233 0.4544822
-0.16763686 -0.097866856 0.45629546
-0.043906797 -0.09370891 0.45458597
-0.03824465 -0.098670669 0.4542141
-0.18262102 -0.083406284 0.45491245
-0.17718767 -0.087948814 0.45564604
-0.054352533 -0.084065467 0.45523539
-0.048823647 -0.089037895 0.45413956
-0.19092597 -0.071553364 0.45220703
-0.18721724 -0.075371593 0.45565629
-0.064322554 -0.074166395 0.45528936
-0.058949906 -0.07902088 0.4535656
-0.19236982 -0.065102212 0.45502609
-0.18879639 -0.068867378 0.45863688
-0.073903598 -0.064494506 0.45503148
-0.069218531 -0.069221921 0.45211521
-0.19120504 -0.057949394 0.4541339
-0.18767469 -0.053204618 0.45506448
-0.08284048 -0.053666569 0.45491558
-0.078525662 -0.058454003 0.45620945
-0.18243565 -0.047091126 0.45407912
-0.17770378 -0.042182364 0.45550764
-0.093930535 -0.042874392 0.45503792
-0.087542616 -0.047505226 0.45588598
-0.17262597 -0.036678668 0.454927
-0.16777971 -0.031852655 0.45627788
-0.10289153 -0.034762044 0.45507735
-0.098883249 -0.039467067 0.45620355
-0.16288103 -0.027710635 0.45454109
-0.15552998 -0.022759821 0.45548519
-0.14342217 -0.020808682 0.45880848
-0.13496043 -0.022813 0.45626932
-0.1265289 -0.021592593 0.45176187
-0.11301263 -0.02169067 0.45439363
-0.10634884 -0.026381345 0.45477819
-0.15133283 -0.01882791 0.45332721
-0.14513277 -0.016846834 0.45481947
-0.13437159 -0.014819218 0.45260701
-0.12440628 -0.014473828 0.45358858
-0.11798064 -0.018459681 0.45531911
-0.13145173 -0.0050868206 0.45368993
-0.1275295 -0.0083431387 0.455268
-0.10372707 -0.1846687 0.46551827
-0.098263688 -0.1820413 0.4655962
-0.10390924 -0.17177603 0.46500659
-0.095792063 -0.17583896 0.46496865
-0.11037637 -0.16074082 0.46691865
-0.10870624 -0.16575186 0.46555388
-0.11310324 -0.15430017 0.46507472
-0.10961615 -0.15926737 0.46179277
-0.12480786 -0.1442675 0.46509615
-0.11827871 -0.14876044 0.46530274
-0.13211598 -0.13239375 0.46526754
-0.12885533 -0.13737606 0.46463236
-0.14265823 -0.12224301 0.46443319
-0.13713501 -0.12737802 0.46499458
-0.043209523 -0.12320013 0.46713018
-0.034896906 -0.12192911 0.46789739
-0.15329684 -0.11352958 0.46437767
-0.14748724 -0.11799653 0.46517104
-0.032234296 -0.115436 0.46328658
-0.029214602 -0.11458208 0.46506175
-0.16127956 -0.10123194 0.46712139
-0.15779869 -0.10602073 0.46450809
-0.040701002 -0.10069316 0.46710351
-0.035392482 -0.10571983 0.46466741
-0.1721413 -0.092330694 0.46472159
-0.16575243 -0.097456791 0.46431178
-0.045182932 -0.094341904 0.46479759
-0.039852396 -0.099419802 0.46094981
-0.18154754 -0.081467055 0.46306184
-0.1772317 -0.085762203 0.46491891
-0.061147839 -0.08107546 0.4661974
-0.055570986 -0.086237475 0.4651041
-0.18434653 -0.075242989 0.46521041
-0.070530489 -0.070723034 0.4684456
-0.065898374 -0.074871905 0.46458307
-0.19150244 -0.063082688 0.46486938
-0.18833931 -0.068010397 0.46522722
-0.073724106 -0.06527067 0.46462268
-0.19087797 -0.058329821 0.46481195
-0.18715648 -0.053424973 0.46495605
-0.081702799 -0.052585859 0.4639467
-0.078162141 -0.057167824 0.46410978
-0.18200643 -0.048292778 0.46505418
-0.17698662 -0.043318208 0.46428466
-0.093229383 -0.041487817 0.46400785
-0.086237013 -0.046524182 0.46380249
-0.17200041 -0.037793666 0.46445176
-0.16600011 -0.032829653 0.46478918
-0.15654202 -0.030875022 0.46873102
-0.14315335 -0.030002147 0.46706441
-0.10275033 -0.034331582 0.46472359
-0.098395437 -0.038856495 0.46461222
-0.16182758 -0.028974257 0.46174857
-0.15442161 -0.026560651 0.46359888
-0.14600977 -0.025200259 0.46304935
-0.13769905 -0.028205866 0.46155819
-0.11242545 -0.021756874 0.464991
-0.10662879 -0.026379755 0.46385524
-0.12240203 -0.012975142 0.46499634
-0.1174769 -0.018038431 0.46427727
-0.13413596 -0.0050087087 0.46380198
-0.1264154 -0.0081151268 0.46456891
-0.11807691 -0.19567282 0.4794299
-0.10232691 -0.18796201 0.47506061
-0.096254848 -0.18358438 0.47556019
-0.10196197 -0.17153175 0.47391987
-0.09416756 -0.17405394 0.47520614
-0.089130692 -0.17302516 0.47825789
-0.11013059 -0.16090597 0.47129804
-0.10596903 -0.16522424 0.47521254
-0.095681809 -0.16959685 0.47962883
-0.089008629 -0.16943145 0.47964627
-0.11281433 -0.15476957 0.47498429
-0.10921782 -0.15863231 0.47796354
-0.12403988 -0.14364582 0.47477576
-0.11778703 -0.14841905 0.47514009
-0.13219987 -0.1320937 0.4745931
-0.12841521 -0.13688129 0.47544
-0.053308558 -0.13149853 0.47865224
-0.046122532 -0.1310937 0.47813982
-0.14266957 -0.12270457 0.47527221
-0.1374314 -0.12764332 0.47579831
-0.052808322 -0.12816581 0.47484547
-0.044486973 -0.12743948 0.47357941
-0.033563275 -0.12344586 0.47386855
-0.15298226 -0.11260952 0.47468385
-0.14762238 -0.1172348 0.47528356
-0.031824209 -0.11254837 0.47483343
-0.02923738 -0.11643685 0.47384378
-0.16259901 -0.10274465 0.47570574
-0.15767986 -0.10783787 0.4751353
-0.042264134 -0.10251165 0.47615355
-0.036866039 -0.10764452 0.47479671
-0.17434649 -0.09333691 0.47548249
-0.16737202 -0.098023079 0.47476813
-0.051488597 -0.090939634 0.4759028
-0.045954406 -0.095557176 0.47444889
-0.18063132 -0.082299292 0.47624654
-0.17908104 -0.086231083 0.47472519
-0.062710665 -0.081936307 0.47509462
-0.056668408 -0.086805716 0.47445488
-0.18346088 -0.074871294 0.47433409
-0.17997895 -0.079818279 0.47135726
-0.07085219 -0.072229654 0.47587827
-0.06760446 -0.076837748 0.47522438
-0.19206035 -0.063850075 0.47525993
-0.18868674 -0.068359733 0.47457439
-0.074987188 -0.065571867 0.47489077
-0.19140767 -0.058212642 0.47495517
-0.18689789 -0.053115107 0.47494277
-0.083131969 -0.053905874 0.47533014
-0.078867435 -0.058804866 0.47333905
-0.18189949 -0.048115924 0.4743709
-0.1764755 -0.042928606 0.47485647
-0.094541423 -0.042222943 0.4745903
-0.087922841 -0.048611589 0.47482622
-0.17186967 -0.038899284 0.47452152
-0.16577777 -0.035697654 0.47389501
-0.15581374 -0.03262075 0.47278795
-0.14901976 -0.031058699 0.47077826
-0.1041692 -0.034478251 0.47493199
-0.099059448 -0.038882554 0.47362155
-0.11400463 -0.02326549 0.47532359
-0.10809002 -0.028507069 0.47371942
-0.12384962 -0.014111088 0.47556546
-0.11913997 -0.018783277 0.47393847
-0.1419947 -0.0046777558 0.47817421
-0.13477947 -0.0058647012 0.4746145
-0.12804176 -0.0082982108 0.47370583
-0.12451312 -0.2017951 0.48822951
-0.11639278 -0.20057946 0.48990718
-0.12316374 -0.19902807 0.4840726
-0.11473066 -0.19749273 0.48474649
-0.10531398 -0.19387862 0.4866699
-0.094992794 -0.18491024 0.4858593
-0.092328407 -0.17786124 0.48346442
-0.086190365 -0.1739393 0.48478809
-0.10266288 -0.16296087 0.48383671
-0.095377244 -0.16479689 0.48470414
-0.084892608 -0.1650961 0.48260823
-0.076261021 -0.16350031 0.48587283
-0.11240235 -0.15247673 0.48483151
-0.10751077 -0.15750562 0.48491392
-0.091193929 -0.15957627 0.48909262
-0.083875172 -0.15624478 0.48754439
-0.074967623 -0.15540357 0.4851349
-0.06615939 -0.15416335 0.48677239
-0.059722885 -0.15006207 0.48880106
-0.12315863 -0.14346531 0.48500466
-0.11743385 -0.14823815 0.48537579
-0.074613623 -0.14576663 0.48820952
-0.064699553 -0.14521798 0.48496705
-0.056063469 -0.14365806 0.48629558
-0.049419358 -0.14013872 0.48905429
-0.13098048 -0.13097973 0.48298821
-0.12758113 -0.13585785 0.48499173
-0.07229197 -0.13721326 0.48860824
-0.064979821 -0.13585722 0.48493233
-0.054960907 -0.13652419 0.4822576
-0.045862958 -0.13478778 0.48420557
-0.038744979 -0.13145106 0.48843125
-0.14196968 -0.1216735 0.4820002
-0.13559334 -0.12539862 0.4847666
-0.033752535 -0.12534875 0.48430958
-0.15205154 -0.11164249 0.48370096
-0.14559446 -0.11645091 0.48506308
-0.13909595 -0.11991692 0.48853734
-0.03202296 -0.11425077 0.48543975
-0.029949442 -0.11688804 0.48095989
-0.16275866 -0.10220422 0.48475137
-0.15662548 -0.10688315 0.48548961
-0.043008015 -0.10413375 0.48581651
-0.037920784 -0.10865989 0.48469919
-0.1751752 -0.093825281 0.48546219
-0.16762076 -0.098516107 0.48570868
-0.05330997 -0.09202753 0.48557317
-0.047385767 -0.096960388 0.48455498
-0.18193996 -0.08516065 0.48586255
-0.17984076 -0.088964798 0.48624837
-0.062592454 -0.081827328 0.48480979
-0.058052298 -0.086546145 0.48535597
-0.19043685 -0.071692698 0.4884519
-0.18661059 -0.075655051 0.48494095
-0.071312129 -0.072505914 0.48517618
-0.067262053 -0.076864488 0.48697928
-0.19272259 -0.065140493 0.48523414
-0.080456905 -0.060892124 0.48638043
-0.075647756 -0.065720819 0.48542884
-0.19140086 -0.058207795 0.48468348
-0.18681002 -0.053017695 0.484853
-0.090116009 -0.050137214 0.48797181
-0.084780544 -0.054937325 0.48501849
-0.079989925 -0.0596883 0.48044223
-0.1819513 -0.048194338 0.48451284
-0.17529573 -0.043534864 0.48515815
-0.16816033 -0.040211961 0.48694557
-0.10026559 -0.040510904 0.48639554
-0.094539478 -0.045393836 0.48512286
-0.16428967 -0.038187541 0.48404074
-0.15828054 -0.035948601 0.48246944
-0.10506137 -0.034853999 0.4857145
-0.12048541 -0.020464942 0.48912284
-0.11466464 -0.025195187 0.4854525
-0.10910928 -0.029126981 0.4887135
-0.12494759 -0.015252611 0.48547304
-0.15179683 -0.0037256442 0.48619843
-0.14364095 -0.0045112274 0.48653188
-0.13384078 -0.0071491422 0.48517287
-0.12949704 -0.0099537112 0.48312387
-0.11111449 -0.19943655 0.49185169
-0.093032472 -0.18633337 0.49490559
-0.083430231 -0.17627728 0.4945761
-0.097606316 -0.1601332 0.49097377
-0.073762774 -0.16756099 0.49418911
-0.067087375 -0.16312027 0.49612001
-0.11183632 -0.15153387 0.49286768
-0.10514499 -0.15475054 0.49513113
-0.095452584 -0.15534534 0.49401835
-0.086925015 -0.15254094 0.49154705
-0.062849961 -0.15691936 0.49382898
-0.058158413 -0.15306039 0.49586967
-0.12176886 -0.14253919 0.49259791
-0.11491724 -0.14521351 0.4958846
-0.085092366 -0.14506246 0.49341246
-0.078339398 -0.14234743 0.4905282
-0.053534042 -0.14684802 0.49450901
-0.048399366 -0.14211793 0.49688053
-0.12502621 -0.13439253 0.49519742
-0.084952831 -0.13624641 0.49716514
-0.076944053 -0.1357054 0.49217194
-0.04404895 -0.13723169 0.49479607
-0.037002094 -0.13178535 0.49680704
-0.13352759 -0.12431221 0.49497181
-0.10506414 -0.1250418 0.49699798
-0.09502171 -0.12490676 0.49544334
-0.089355588 -0.1256679 0.4964501
-0.032003995 -0.12429489 0.49480778
-0.029636711 -0.12076653 0.49836349
-0.15081951 -0.11098035 0.49174559
-0.14503764 -0.11488941 0.49548984
-0.1390432 -0.11967591 0.49532259
-0.0958004 -0.11899213 0.4961158
-0.031631183 -0.11370821 0.49513504
-0.029628191 -0.11768384 0.49855429
-0.1610043 -0.10066079 0.4930681
-0.15493022 -0.10508568 0.49539745
-0.043527648 -0.10394131 0.49515951
-0.036853436 -0.1083023 0.4954187
-0.17335452 -0.092524126 0.49363151
-0.16550165 -0.096310675 0.49568221
-0.053461831 -0.093330175 0.49553534
-0.048567902 -0.098580576 0.49535769
-0.18257035 -0.082719855 0.49455571
-0.17652775 -0.086297311 0.49686334
-0.060378842 -0.081200182 0.4919914
-0.057696551 -0.085124575 0.4953692
-0.19130947 -0.071932204 0.49547896
-0.18655139 -0.076779954 0.49679676
-0.063751295 -0.074433327 0.49412036
-0.059307925 -0.078598194 0.49793831
-0.19262794 -0.065039091 0.49537304
-0.18918711 -0.060454961 0.49860111
-0.161366 -0.06578438 0.49971303
-0.15483792 -0.064217798 0.49909273
-0.14947036 -0.066046335 0.49940383
-0.080340922 -0.060392294 0.49157351
-0.074631274 -0.064430699 0.49466956
-0.067652747 -0.068606362 0.49672228
-0.1909802 -0.058643609 0.493031
-0.18539341 -0.054434694 0.49583209
-0.17812662 -0.051065501 0.49898505
-0.15519623 -0.059220407 0.49944162
-0.08480566 -0.055058572 0.49473774
-0.079955831 -0.059695348 0.49757302
-0.18112269 -0.048851006 0.49285391
-0.17454894 -0.046240274 0.49606231
-0.16825286 -0.042098545 0.49608606
-0.094716065 -0.044743579 0.49428666
-0.08903674 -0.049127609 0.49796447
-0.16482569 -0.039315157 0.49244592
-0.10279523 -0.034081381 0.49428096
-0.098971091 -0.038505301 0.49719912
-0.12055068 -0.020097263 0.49122199
-0.11471327 -0.02316724 0.49449271
-0.10736062 -0.02786459 0.49541759
-0.12478642 -0.01466786 0.49502781
-0.11869355 -0.019005386 0.4982954
-0.16208993 -0.0034419969 0.49513605
-0.15535505 -0.0030667495 0.49509636
-0.1446716 -0.0036923743 0.49538425
-0.13402809 -0.0066469805 0.49565664
-0.12864126 -0.0093771461 0.49893498
-0.15509658 -0.069073774 0.50046623
-0.15882669 -0.057985764 0.50060213
-0.17124651 -0.048807114 0.50070179
-0.16636208 -0.047085602 0.50145292
-0.1010164 -0.031756796 0.50267226
-0.12289058 -0.012985173 0.50416744
-0.15494335 -0.0014371249 0.50387633
-0.14472444 -0.0014257854 0.50367218
-0.13370407 -0.0030403123 0.50442582
