# .PCD v0.7 - Point Cloud Data file format
VERSION 0.7
FIELDS x y z
SIZE 4 4 4
TYPE F F F
COUNT 1 1 1
WIDTH 1
HEIGHT 623
VIEWPOINT 0 0 0 1 0 0 0
POINTS 623
DATA ascii
0.076707013 -0.15137753 0.4773846
0.080587029 -0.15297896 0.47999996
0.066626742 -0.14337878 0.47241661
0.073011659 -0.14588572 0.477
0.057722516 -0.13412969 0.47211525
0.063938737 -0.13707529 0.47180638
0.07137838 -0.13958715 0.47699997
0.048573658 -0.12152109 0.47399998
0.053358611 -0.12535383 0.47357133
0.047371805 -0.11452287 0.47507313
0.051800486 -0.11475535 0.47323531
0.046669256 -0.10469687 0.47282922
0.051591281 -0.10435145 0.47231254
0.046939388 -0.098392501 0.47161108
0.051460605 -0.098545037 0.47299996
0.058072884 -0.083771236 0.47935718
0.060312428 -0.080686405 0.47799996
0.058779325 -0.076952338 0.47857139
0.06375102 -0.073940642 0.47683713
0.070428878 -0.070240542 0.47899997
0.066467129 -0.068905301 0.47744444
0.079666212 -0.15047356 0.48199996
0.085589275 -0.1525494 0.48637497
0.091115087 -0.15409112 0.48949996
0.077091902 -0.14571957 0.48368415
0.082526639 -0.14880948 0.48849997
0.042818468 -0.11307807 0.48599997
0.055266555 -0.08309456 0.48384205
0.055997714 -0.078724869 0.48383331
0.1084668 -0.064806126 0.48862493
0.1139394 -0.067258328 0.48907682
0.09808711 -0.16033529 0.49899995
0.088194132 -0.15008439 0.49099997
0.095742524 -0.15336591 0.49311909
0.10501886 -0.15421733 0.49612257
0.11444002 -0.15443248 0.49791297
0.12123158 -0.15490521 0.4996666
0.079070337 -0.14584637 0.49399996
0.085728914 -0.14808783 0.49447367
0.094957553 -0.14852343 0.49675995
0.10540804 -0.14796586 0.49803567
0.11559045 -0.14538048 0.49749991
0.12255265 -0.14359358 0.49596149
0.1189019 -0.13952051 0.49899995
0.12579466 -0.13669847 0.49809989
0.13112876 -0.13293648 0.49827263
0.13335799 -0.1244716 0.49809086
0.041725025 -0.11236471 0.49399996
0.13599585 -0.11574563 0.49887493
0.13749497 -0.10511629 0.49933332
0.13436857 -0.093972325 0.49890903
0.053300187 -0.082488321 0.49537498
0.12863883 -0.082327664 0.4992857
0.13162734 -0.086594425 0.49762496
0.054935519 -0.079358608 0.49699995
0.10899594 -0.070769422 0.49733329
0.11583655 -0.073305637 0.49451515
0.12386132 -0.07597857 0.49574989
0.10752957 -0.067463905 0.49339995
0.11059532 -0.069440082 0.49099997
0.12083587 -0.069440082 0.49099997
0.11605899 -0.17174429 0.50506246
0.12140727 -0.17157757 0.50399995
0.099786386 -0.16097793 0.50099999
0.10599122 -0.16360113 0.50504988
0.11532212 -0.16526335 0.50322646
0.12238523 -0.16543247 0.50261909
0.10501095 -0.1596718 0.50099999
0.11833356 -0.15914935 0.50099999
0.12137827 -0.15841876 0.50116664
0.085820675 -0.14822827 0.50466663
0.095599949 -0.14713456 0.50455552
0.10549333 -0.14454296 0.50497365
0.11277697 -0.1415482 0.50274992
0.11607736 -0.13731477 0.50599992
0.12396374 -0.13331154 0.50415778
0.12862407 -0.1262413 0.50576925
0.13072777 -0.12374555 0.50218177
0.040755913 -0.11443073 0.50599992
0.12894808 -0.11468332 0.50823069
0.13236716 -0.11439384 0.50347614
0.12924668 -0.10847811 0.50899994
0.13302384 -0.10509384 0.50418741
0.12883765 -0.092310272 0.50674993
0.13212246 -0.096583761 0.50365376
0.052256722 -0.084277757 0.50449991
0.11864314 -0.081865765 0.50716662
0.1258072 -0.085048929 0.50442499
0.10934175 -0.073312737 0.50899994
0.11541462 -0.077666774 0.5036999
0.12264383 -0.079997316 0.50099999
0.10619062 -0.06792561 0.50349998
0.10728874 -0.17123432 0.51616663
0.11203162 -0.17327976 0.51374996
0.10588671 -0.16818395 0.51157135
0.085711814 -0.14921965 0.51449996
0.09574762 -0.14706039 0.51399994
0.10375645 -0.14233603 0.51353568
0.1081754 -0.13830121 0.51499999
0.11444462 -0.13355537 0.51420444
0.12172564 -0.1310195 0.51211107
0.11828505 -0.12908344 0.51828569
0.12442988 -0.12513593 0.5144726
0.039662451 -0.11568692 0.51749992
0.040813483 -0.11781658 0.51499999
0.11960832 -0.11602159 0.51899999
0.12446833 -0.11511569 0.51429623
0.12712252 -0.10552461 0.51453322
0.13083021 -0.10270803 0.50999999
0.050504442 -0.092165001 0.51799995
0.12643927 -0.09451706 0.51505703
0.13000846 -0.099106357 0.51199996
0.051180743 -0.086096309 0.51399994
0.11758048 -0.084217355 0.51478571
0.12282773 -0.087923028 0.51350003
0.10819098 -0.072551444 0.51300001
0.11287326 -0.077898532 0.51299995
0.10639574 -0.068672776 0.51399994
0.106645 -0.17444551 0.52516663
0.11140403 -0.17781676 0.52499998
0.088140756 -0.15055078 0.52499998
0.091137834 -0.15029496 0.52649993
0.096396618 -0.14727621 0.5243125
0.10231473 -0.1421039 0.52539998
0.10726833 -0.13581629 0.52529997
0.11161927 -0.13145159 0.52279997
0.039201722 -0.12113038 0.52950001
0.040313914 -0.12170167 0.52599996
0.10967316 -0.12673013 0.52983332
0.11473501 -0.125237 0.52413553
0.12063186 -0.12314179 0.52049994
0.039854061 -0.11827864 0.51999998
0.11719103 -0.11510589 0.52350003
0.12074772 -0.11103491 0.52099997
0.038665056 -0.10330768 0.52924997
0.04201182 -0.1028402 0.52746147
0.11920105 -0.10908347 0.528
0.12287015 -0.10458115 0.52459991
0.038874794 -0.098743677 0.52974999
0.045316827 -0.095267549 0.52733332
0.11884392 -0.09313345 0.52763629
0.12257767 -0.096541546 0.5236786
0.048997175 -0.088560246 0.52599996
0.11584344 -0.085374817 0.5252105
0.12006924 -0.089982219 0.52099997
0.1083214 -0.073895298 0.52499998
0.11142503 -0.077902362 0.52379996
0.1068952 -0.069875218 0.52299994
0.1035748 -0.17436561 0.53399998
0.087369725 -0.15201905 0.53585714
0.092473641 -0.15063038 0.53625
0.09730114 -0.14762959 0.53549999
0.10136954 -0.14319897 0.53524995
0.10528622 -0.13446686 0.53589994
0.037324287 -0.12432013 0.5364117
0.10621445 -0.12542373 0.53584605
0.035865415 -0.11561942 0.53816664
0.11484989 -0.11244862 0.53607142
0.035107825 -0.10518309 0.53617239
0.11741244 -0.10508624 0.53549999
0.12098947 -0.10416848 0.53099996
0.037331685 -0.095705241 0.53648144
0.04276064 -0.091913447 0.53335714
0.11684281 -0.095712878 0.53512001
0.045707993 -0.088013187 0.53729403
0.052973568 -0.083153956 0.53612494
0.1133721 -0.085059747 0.53647625
0.10820541 -0.07533396 0.53627264
0.11085997 -0.079136081 0.53333324
0.051441327 -0.15377015 0.54711115
0.07805495 -0.15192331 0.54912496
0.085040718 -0.15202345 0.54707694
0.092316434 -0.15079077 0.54611111
0.044492386 -0.14528871 0.54479545
0.050110649 -0.14828382 0.54299998
0.068345398 -0.14274304 0.54922223
0.072411954 -0.14654437 0.54974997
0.097895764 -0.14678144 0.54699999
0.10090423 -0.14213622 0.54439992
0.041942857 -0.13635936 0.5453999
0.067444973 -0.13887878 0.54966664
0.098405994 -0.13444716 0.54842848
0.10163798 -0.13501883 0.54373908
0.063661605 -0.1215177 0.54999995
0.099014565 -0.12815285 0.54924995
0.1027621 -0.12437125 0.54551721
0.032291926 -0.11544672 0.54373074
0.065694667 -0.11383452 0.54876
0.070831031 -0.1114805 0.54999995
0.1083913 -0.11683688 0.5482499
0.11171 -0.11389019 0.54531813
0.031143108 -0.10483637 0.54306668
0.066992506 -0.10673689 0.54855549
0.071390368 -0.10740204 0.54957139
0.10954592 -0.10574497 0.54999995
0.1125635 -0.10476075 0.54512501
0.11321827 -0.095316626 0.54571867
0.044205729 -0.083874486 0.545591
0.053522732 -0.081434339 0.54566658
0.10708812 -0.083181612 0.54734784
0.11177608 -0.087430544 0.54458332
0.054177966 -0.078552641 0.54899997
0.10512484 -0.077066451 0.54615998
0.087878086 -0.15002201 0.55199999
0.092038184 -0.1501579 0.55250001
0.076038986 -0.14473444 0.5526216
0.084861331 -0.14497663 0.5560351
0.09425237 -0.14517388 0.55489141
0.067823924 -0.13393025 0.55259997
0.074950926 -0.13515319 0.5548864
0.084804609 -0.13496317 0.55767441
0.093838818 -0.13513502 0.5544762
0.067387834 -0.12480355 0.55266654
0.075207576 -0.12497913 0.55583328
0.085122421 -0.12512416 0.55798066
0.095268697 -0.12517397 0.55709249
0.10149459 -0.12149714 0.55399996
0.068301946 -0.11760426 0.55144435
0.075157717 -0.1153307 0.55388236
0.083507754 -0.11519331 0.55774277
0.098817959 -0.11641057 0.55942857
0.10428499 -0.11477851 0.5549556
0.069321267 -0.10257623 0.55224997
0.07561671 -0.10458601 0.55353487
0.084501706 -0.10477284 0.55778044
0.099858031 -0.10547768 0.55999994
0.10521339 -0.1049211 0.55617309
0.098372795 -0.09346199 0.55985707
0.10531218 -0.095057353 0.5569399
0.11058836 -0.094333358 0.5521428
0.087795876 -0.085237414 0.55861109
0.095045112 -0.085185729 0.55669773
0.1035164 -0.086105712 0.55310714
0.095909916 -0.078542449 0.5532105
0.10112615 -0.076489128 0.55099994
0.092723526 -0.12029164 0.56099999
0.094353057 -0.11422972 0.56223679
0.095094219 -0.10513295 0.56205559
0.094602965 -0.096266471 0.56174296
0.11258333 -0.072238751 0.56650001
0.069485694 -0.14117545 0.46971747
0.070555627 -0.14115964 0.46997318
0.066503577 -0.13429001 0.46765587
0.070521466 -0.13785984 0.46991208
0.059374634 -0.12300582 0.46532461
0.062733926 -0.12487163 0.46765208
0.058170654 -0.11565551 0.46496546
0.062047552 -0.11695134 0.46600723
0.086672276 -0.15123841 0.4768469
0.090480171 -0.15254873 0.47903576
0.076102689 -0.14357401 0.47382545
0.084791481 -0.14543638 0.47736651
0.069018885 -0.13171495 0.47349408
0.073915519 -0.13694082 0.47665507
0.083820827 -0.13754234 0.47855365
0.066398457 -0.12563664 0.47436675
0.095336124 -0.15172154 0.4823316
0.10426986 -0.15283528 0.48602417
0.08954265 -0.14282319 0.48232821
0.094488502 -0.14601585 0.48422372
0.10093602 -0.14834635 0.48821115
0.069548637 -0.13090453 0.48139387
0.075243302 -0.13269764 0.48284212
0.085611723 -0.1368999 0.48228201
0.068872616 -0.12691556 0.48250499
0.072657071 -0.1288576 0.48536113
0.12657091 -0.1707194 0.49430263
0.11880954 -0.16283941 0.49235383
0.12522414 -0.16494974 0.49344936
0.13131881 -0.16503704 0.49676135
0.10779458 -0.15135142 0.49129987
0.11546354 -0.15407135 0.49232262
0.12454773 -0.15568373 0.4946647
0.13026057 -0.15832721 0.4966149
0.089701101 -0.14170335 0.49307236
0.095661767 -0.14453013 0.49476403
0.10563422 -0.14593641 0.49398491
0.11506171 -0.14500386 0.49183378
0.12398816 -0.14448871 0.49281982
0.13055031 -0.14104895 0.49255097
0.10911827 -0.13890943 0.49150276
0.11566358 -0.13585113 0.49408922
0.12503903 -0.13510728 0.4965539
0.13342081 -0.13428368 0.49443811
0.11928221 -0.1290206 0.49891755
0.12540229 -0.1256059 0.49947006
0.13490368 -0.12513934 0.49666819
0.14049706 -0.12245909 0.49448568
0.12919879 -0.11860991 0.49803805
0.13535288 -0.11501163 0.49721777
0.14190778 -0.11462676 0.49526355
0.13906562 -0.10527125 0.49907732
0.14250308 -0.10533497 0.49712324
0.13886493 -0.099006876 0.499008
0.14229664 -0.097842686 0.49614689
0.088436835 -0.14282914 0.5043568
0.096632376 -0.14539412 0.50507313
0.10166768 -0.14429584 0.50214678
0.12604088 -0.13053447 0.50004458
0.12717785 -0.12760751 0.50032681
0.050401062 -0.11104388 0.50888759
0.13376835 -0.11107025 0.50029588
0.12992795 -0.10569964 0.50314724
0.13429233 -0.10572663 0.50268477
0.13689448 -0.099442273 0.50162864
0.079985924 -0.14294881 0.51750505
0.086916842 -0.14419687 0.51424706
0.094428249 -0.14552486 0.51546419
0.086112946 -0.14534999 0.52443153
0.093922786 -0.14597525 0.52551526
0.047043473 -0.11286277 0.52456701
0.075827792 -0.14644459 0.53867567
0.085610293 -0.14571801 0.53507417
0.092273578 -0.1461214 0.53432107
0.044842586 -0.12237912 0.53868324
0.044650953 -0.11771848 0.53744084
0.061995849 -0.075867653 0.53989124
0.067114897 -0.14234062 0.54684323
0.075055674 -0.14339942 0.54636997
0.084702298 -0.14415164 0.54524767
0.092608735 -0.14500719 0.54616362
0.048974603 -0.13075699 0.54176927
0.055611774 -0.13319866 0.54398823
0.10553137 -0.13873701 0.54103065
0.048311438 -0.12450712 0.54194552
0.064598039 -0.1247449 0.54569983
0.074613929 -0.12464963 0.54843181
0.06549976 -0.11505217 0.54684788
0.073541693 -0.11556146 0.54926682
0.047149353 -0.10485745 0.54143167
0.055063792 -0.10488104 0.54258943
0.065006875 -0.10508782 0.54581332
0.072608367 -0.10630165 0.54908794
0.048533905 -0.095790997 0.54119283
0.055363335 -0.094853252 0.5425368
0.0653366 -0.095043905 0.54524928
0.071671121 -0.09453927 0.54901797
0.11691189 -0.093229435 0.54891354
0.1215514 -0.093221545 0.54858994
0.049805492 -0.089284971 0.54130328
0.056226823 -0.085918292 0.54273885
0.06514065 -0.085200466 0.5443331
0.074353591 -0.08456862 0.54779303
0.081447341 -0.081557147 0.54977769
0.11624669 -0.086172879 0.54892164
0.1209733 -0.08865203 0.54921085
0.065593332 -0.077133738 0.54221737
0.075431906 -0.076096192 0.54711795
0.083119757 -0.075215623 0.54908586
0.10818607 -0.077641673 0.54942751
0.079114936 -0.14087719 0.55017042
0.085838065 -0.14173137 0.55108887
0.094659582 -0.14241871 0.55281216
0.084566265 -0.13511628 0.55226594
0.094888754 -0.13504642 0.55596691
0.084673688 -0.12455836 0.55190867
0.095107488 -0.12490734 0.55609095
0.078020148 -0.11411918 0.55063647
0.085475609 -0.11490468 0.55265272
0.11296059 -0.10144746 0.55778241
0.10477152 -0.094770655 0.55783594
0.11289133 -0.095944397 0.55298233
0.12390153 -0.091243833 0.5508343
0.07872615 -0.087026224 0.55085963
0.085280314 -0.085358247 0.5530256
0.094996795 -0.085117303 0.55649191
0.10538933 -0.084948249 0.55424041
0.11178778 -0.084750473 0.55078876
0.12263533 -0.088713013 0.5504908
0.087655559 -0.076249965 0.55145198
0.094529472 -0.076531425 0.55353683
0.10365704 -0.078049004 0.55188543
0.066893056 -0.13328312 0.45856327
0.059711128 -0.12057164 0.45925382
0.062897526 -0.12661669 0.45887843
0.058858763 -0.11468384 0.45940775
0.058346156 -0.1067139 0.45950505
0.088411689 -0.15077223 0.46362296
0.094438761 -0.15292101 0.46673107
0.10515986 -0.15447806 0.46846741
0.076593772 -0.14267056 0.46434766
0.084064633 -0.14698197 0.46605322
0.067926474 -0.13281809 0.46420065
0.071813039 -0.13727362 0.4656221
0.059807748 -0.12036043 0.46051675
0.06360998 -0.12509781 0.46495786
0.059402611 -0.11463437 0.46080264
0.061910845 -0.11508224 0.4653264
0.059349753 -0.10559423 0.46060827
0.061695401 -0.1051167 0.46514851
0.059448153 -0.098471552 0.46015739
0.062738247 -0.095068 0.46457133
0.066441342 -0.085117772 0.46435896
0.071512736 -0.081833079 0.46817732
0.068250939 -0.077977732 0.464892
0.071335994 -0.076762177 0.46801746
0.096461706 -0.064391226 0.46842855
0.10545367 -0.063301332 0.46754175
0.11306373 -0.065573871 0.46919236
0.10668084 -0.058943979 0.46777481
0.09519922 -0.15132485 0.47438449
0.10571706 -0.15179136 0.4734619
0.11451838 -0.15262227 0.47389874
0.1215639 -0.15229876 0.47818089
0.078131542 -0.14102574 0.47475129
0.084816635 -0.14624672 0.47487855
0.094260916 -0.14980495 0.47842631
0.10612792 -0.14913794 0.47827294
0.11494872 -0.14911912 0.47837979
0.12104719 -0.14911643 0.47932306
0.068874642 -0.13157852 0.4749302
0.072804041 -0.13663819 0.47443911
0.06523186 -0.12539364 0.47456285
0.06243296 -0.11550518 0.47463763
0.059919596 -0.10875322 0.47925222
0.061709188 -0.10496868 0.47458038
0.064020403 -0.094944723 0.47440436
0.068256319 -0.087850943 0.47438803
0.072491318 -0.082661279 0.47473401
0.075144887 -0.075212605 0.47534215
0.084311783 -0.071772203 0.47775248
0.091859639 -0.071937367 0.47571164
0.12850752 -0.071625724 0.47902942
0.13099802 -0.07334777 0.4796747
0.078784421 -0.069072068 0.4763436
0.08728759 -0.06896434 0.47484833
0.093644395 -0.067511477 0.47151205
0.10519923 -0.06536898 0.47045237
0.11634982 -0.063092873 0.47178644
0.12366828 -0.065071747 0.47686744
0.10989127 -0.05952017 0.47025788
0.11395771 -0.05937992 0.47260642
0.12049234 -0.059669495 0.47504285
0.12471611 -0.16191743 0.48521847
0.13043697 -0.16025005 0.48667371
0.12607473 -0.15492949 0.48542127
0.13134331 -0.15756783 0.48844668
0.077517822 -0.14184731 0.48561865
0.084766857 -0.14635654 0.4848423
0.094889835 -0.14789245 0.4847016
0.10522396 -0.146612 0.48429188
0.11525693 -0.1455137 0.48392412
0.12565157 -0.14525004 0.48328361
0.13117409 -0.14351048 0.48662594
0.067682266 -0.13313821 0.48563522
0.07280387 -0.13785306 0.48456842
0.12809712 -0.13706633 0.48844647
0.13441496 -0.13517286 0.48772109
0.14025164 -0.13178417 0.48798198
0.059109341 -0.1215727 0.48915964
0.06317319 -0.12561013 0.48464859
0.13634188 -0.12697902 0.48685229
0.14115046 -0.12624273 0.48704642
0.058280952 -0.11452479 0.48545811
0.060377087 -0.11716629 0.48148406
0.14479776 -0.11089658 0.48617268
0.058371264 -0.10494167 0.48510161
0.060341969 -0.10173254 0.48092908
0.14576688 -0.10486598 0.48598486
0.059401888 -0.098054439 0.4875308
0.062777191 -0.09395159 0.48464134
0.14361542 -0.095166519 0.48473909
0.067689665 -0.087530635 0.48485515
0.071913414 -0.08282958 0.48366314
0.13784321 -0.08247526 0.48434258
0.1415077 -0.087578394 0.48550957
0.077033713 -0.077901721 0.48369545
0.081712216 -0.075110234 0.48111701
0.12981778 -0.071018793 0.48932126
0.13308051 -0.075254068 0.48429397
0.12767823 -0.065860815 0.48029572
0.13073829 -0.06950251 0.48017311
0.13063198 -0.1603806 0.49528503
0.1285301 -0.15415846 0.49448994
0.13095233 -0.15632118 0.49122286
0.078195907 -0.14117138 0.49385202
0.084341511 -0.14451979 0.49468526
0.095250435 -0.14578375 0.49494961
0.10519501 -0.14423846 0.49532241
0.11361808 -0.14217409 0.49373502
0.12653531 -0.14539666 0.49159685
0.0673308 -0.13318159 0.49446386
0.073531255 -0.138163 0.49504817
0.10923314 -0.13964899 0.49886614
0.1163623 -0.13785106 0.49567017
0.12390795 -0.13573873 0.49218124
0.058089022 -0.12205034 0.49585781
0.06234521 -0.12722489 0.49460292
0.055063777 -0.1149763 0.49512038
0.055272769 -0.10472195 0.49483797
0.1451779 -0.10278523 0.49414173
0.057939801 -0.096734911 0.49514663
0.061188698 -0.092317089 0.49415892
0.14291529 -0.094979323 0.49441898
0.066552125 -0.085745148 0.49349469
0.13765594 -0.083822265 0.49530375
0.14121731 -0.088171601 0.49281749
0.12842101 -0.072248012 0.49570847
0.13306436 -0.076979615 0.49391907
0.12253876 -0.16383964 0.5081529
0.12237963 -0.15636182 0.50577688
0.078051224 -0.14132209 0.50543231
0.08486177 -0.1443328 0.5049783
0.09491878 -0.14482939 0.50468528
0.10316514 -0.14229369 0.50249809
0.066271342 -0.13359506 0.50467271
0.073027171 -0.13839385 0.5041784
0.10633734 -0.13975115 0.50658774
0.056757051 -0.12353487 0.50543064
0.061633218 -0.12828733 0.50355387
0.053499296 -0.11501864 0.50523132
0.052588377 -0.10510059 0.50536329
0.13958582 -0.10293072 0.50894862
0.1412005 -0.10241091 0.50354755
0.055059131 -0.095257849 0.50517589
0.13913448 -0.093116671 0.50619435
0.14060938 -0.09647195 0.503793
0.058260515 -0.089177102 0.50598431
0.060360879 -0.088969178 0.50134665
0.13492623 -0.084913842 0.50510848
0.12577376 -0.074333683 0.50599957
0.13066818 -0.078269474 0.5029577
0.11886977 -0.16723144 0.51821119
0.1206698 -0.1649915 0.51231325
0.11299985 -0.15599635 0.51753974
0.076511741 -0.14162394 0.51499438
0.084280878 -0.14463477 0.51414764
0.094844989 -0.14399412 0.51211309
0.0591975 -0.13105288 0.51702189
0.064570248 -0.13583088 0.5150032
0.07152836 -0.13959834 0.51441342
0.056352444 -0.12470013 0.51539755
0.054548435 -0.11491085 0.51494157
0.049523078 -0.10098141 0.51795202
0.051577091 -0.10605893 0.51489812
0.13764581 -0.10452417 0.51495856
0.049338367 -0.097068548 0.51810402
0.051517729 -0.09480112 0.51394999
0.13701594 -0.094438404 0.51420498
0.053979494 -0.088803425 0.51515698
0.12783435 -0.081215084 0.51672822
0.13275862 -0.086100034 0.51392037
0.11746503 -0.072083011 0.5173049
0.12414177 -0.07637734 0.51445132
0.10940794 -0.16147912 0.52571976
0.11574846 -0.16336797 0.52624381
0.12068731 -0.16659586 0.52541691
0.10919935 -0.1567612 0.52725899
0.11088268 -0.15784924 0.52843732
0.075239614 -0.14284231 0.52507079
0.08192353 -0.14633867 0.52417725
0.059474826 -0.13163134 0.52280092
0.064057678 -0.13578168 0.52563643
0.0710373 -0.13960274 0.52456832
0.058153301 -0.12510592 0.52498072
0.055393513 -0.11487879 0.52481604
0.13200912 -0.11088141 0.52791357
0.049511302 -0.10183628 0.52347445
0.051521659 -0.10603315 0.52557462
0.13385879 -0.1062584 0.52467197
0.049043134 -0.09561789 0.52512705
0.050882082 -0.094589815 0.52861816
0.12939535 -0.09232302 0.52965444
0.13161486 -0.092697322 0.52472955
0.049378529 -0.089269273 0.5259788
0.05101195 -0.089239165 0.52164006
0.12704633 -0.084580451 0.52557415
0.1309621 -0.087778464 0.52136672
0.11620004 -0.074531257 0.52549267
0.1220971 -0.078827642 0.52421921
0.11776957 -0.16388091 0.53471267
0.12022913 -0.16783375 0.53224003
0.10961054 -0.15133075 0.53189862
0.11281168 -0.15540257 0.53412968
0.075111903 -0.14431942 0.53558087
0.084389046 -0.14670484 0.5376662
0.090216383 -0.14566284 0.53896284
0.1096586 -0.14842367 0.53760427
0.11026971 -0.14986596 0.5377031
0.066439323 -0.13398445 0.53426474
0.071439944 -0.13576986 0.53787076
0.058548473 -0.12317841 0.53321606
0.064369649 -0.12533489 0.53580147
0.07355386 -0.12477086 0.53840202
0.056461599 -0.11481731 0.53440022
0.074603848 -0.1148645 0.5383997
0.080634125 -0.11138961 0.53945899
0.1269332 -0.11534199 0.53724295
0.13055828 -0.11185846 0.53223181
0.055056117 -0.10475751 0.53397465
0.064216323 -0.10548857 0.53701895
0.074623376 -0.10631129 0.53712189
0.082158059 -0.10724071 0.53800815
0.12808734 -0.10530125 0.53681326
0.13070467 -0.10653692 0.53200901
0.055370077 -0.095376074 0.53342021
0.12709819 -0.092889659 0.53559196
0.053226877 -0.089564644 0.53163439
0.11891796 -0.081560999 0.53762245
0.12376742 -0.08541844 0.53443164
0.10744586 -0.073177055 0.53658819
0.11512663 -0.076862499 0.5346576
0.1156823 -0.1706983 0.54657173
0.11482196 -0.16459905 0.54509968
0.10979824 -0.15005647 0.5440504
0.11207825 -0.15500733 0.54514152
0.085369684 -0.14242108 0.54132563
0.090734363 -0.14178 0.54149961
0.10827669 -0.14486842 0.54538679
0.11035056 -0.14564864 0.54879737
0.10690106 -0.13686422 0.54788816
0.11628456 -0.12359468 0.54718727
0.12107182 -0.12051484 0.54325843
0.079001643 -0.11735731 0.5403257
0.082197897 -0.11512081 0.54143041
0.12502187 -0.11525561 0.5456214
0.1245262 -0.10512537 0.5455792
0.12381931 -0.094882779 0.54557085
0.11697713 -0.083441041 0.54643613
0.12186006 -0.087715082 0.54352182
0.09573397 -0.071473166 0.54789716
0.10500284 -0.073768459 0.54572546
0.11269478 -0.078054316 0.54402202
