# .PCD v0.7 - Point Cloud Data file format
VERSION 0.7
FIELDS x y z
SIZE 4 4 4
TYPE F F F
COUNT 1 1 1
WIDTH 411
HEIGHT 1
VIEWPOINT 0 0 0 1 0 0 0
POINTS 411
DATA ascii
-0.078064844 -0.08103963 0.42683333
-0.074540846 -0.077685371 0.42603353
-0.065254018 -0.070229225 0.42603409
-0.062155098 -0.065895058 0.4248237
-0.057911184 -0.062789775 0.42297572
-0.055625133 -0.054934114 0.42199692
-0.05044141 -0.040730163 0.42528465
-0.053572398 -0.025841637 0.42660558
-0.087419651 -0.084861226 0.43213794
-0.081435591 -0.086639792 0.42990479
-0.082370266 -0.083067626 0.42749453
-0.074361607 -0.08164379 0.43016365
-0.065676257 -0.075075313 0.42860246
-0.05874652 -0.066890091 0.42859963
-0.054641269 -0.054976139 0.42876559
-0.053706076 -0.046673477 0.42882261
-0.049929332 -0.039320305 0.42803469
-0.047602233 -0.03599846 0.43326205
-0.050662264 -0.032157216 0.42824399
-0.10256448 -0.091165423 0.43857214
-0.10128734 -0.089025453 0.43887493
-0.095364124 -0.088312514 0.43559805
-0.084688984 -0.086374648 0.43502796
-0.11456816 -0.080179036 0.43569863
-0.10778074 -0.07912568 0.43675831
-0.10496258 -0.083259776 0.43443865
-0.072243109 -0.078865767 0.43474725
-0.1245596 -0.074985638 0.43728614
-0.065529421 -0.074245729 0.43478659
-0.13108236 -0.06835898 0.43837908
-0.059711523 -0.065913767 0.43429267
-0.057015464 -0.054764673 0.4341591
-0.05499069 -0.044685453 0.43430111
-0.055455312 -0.035179783 0.43491873
-0.057812147 -0.025630724 0.435718
-0.059406951 -0.016922411 0.43804401
-0.072593428 -0.0024909617 0.43632388
-0.068300232 -0.0054714098 0.43423262
-0.08115036 0.0039222785 0.43803146
-0.07693395 0.0023922469 0.43675402
-0.11405966 -0.084548585 0.44557679
-0.10645287 -0.088076249 0.44322091
-0.095499538 -0.085466385 0.44475937
-0.08481852 -0.085218273 0.44498342
-0.12150314 -0.080488712 0.44491577
-0.107535 -0.078277737 0.44364643
-0.10221485 -0.081646562 0.44458708
-0.09482602 -0.083929561 0.44269881
-0.077826716 -0.081392601 0.44469339
-0.07270854 -0.078944333 0.44519714
-0.13321452 -0.072227582 0.44346228
-0.12418227 -0.073614866 0.44437262
-0.11556457 -0.07517764 0.44399703
-0.064680383 -0.074626639 0.44523942
-0.13541134 -0.065116316 0.44634682
-0.12791258 -0.067433611 0.44498199
-0.059305303 -0.067151546 0.44465378
-0.13220333 -0.062865801 0.44184709
-0.14023882 -0.050773837 0.44552803
-0.13472393 -0.055099722 0.44570598
-0.055918265 -0.055000525 0.44471529
-0.054669503 -0.04485748 0.44451526
-0.055990167 -0.035086431 0.44490421
-0.05694171 -0.02514613 0.44419613
-0.059157796 -0.016460584 0.44458133
-0.080275141 -0.0015218828 0.44510669
-0.084776163 0.0026571453 0.44418913
-0.096934058 -0.084293611 0.45488909
-0.084116913 -0.084065191 0.45487371
-0.11592276 -0.078034155 0.45011443
-0.10885366 -0.079544485 0.45303854
-0.10373291 -0.081455946 0.45347223
-0.09447173 -0.08347401 0.45423061
-0.078561395 -0.081160657 0.45480555
-0.073821269 -0.077836506 0.45473239
-0.12130892 -0.070969217 0.45291874
-0.11557391 -0.07398206 0.45485792
-0.064707354 -0.073761918 0.45491451
-0.12477188 -0.065200917 0.45491838
-0.14024988 -0.062174521 0.45008421
-0.13853908 -0.059315011 0.45078802
-0.12963648 -0.059955936 0.44902903
-0.13890386 -0.055649035 0.45429951
-0.13139756 -0.053476352 0.45286882
-0.052485589 -0.054894745 0.45493704
-0.14379102 -0.044609509 0.45056492
-0.13742799 -0.045280494 0.44809949
-0.1325836 -0.04465165 0.45254695
-0.14482485 -0.036925204 0.45290974
-0.1384097 -0.038883127 0.44902796
-0.13468195 -0.034943726 0.45122254
-0.13388959 -0.025575485 0.45094872
-0.13210657 -0.017151373 0.45277801
-0.12286542 -0.0068414244 0.45396966
-0.11507327 -0.0051160268 0.45486477
-0.097402357 -0.0013698131 0.45482466
-0.086960882 -0.0013278588 0.45380893
-0.07783433 -0.005486398 0.45423192
-0.11280826 0.0013077129 0.45202911
-0.10475165 0.0019993305 0.45286977
-0.093275204 0.0032494445 0.45061392
-0.088520713 0.0012957104 0.45036432
-0.059381574 -0.070559852 0.45710695
-0.1193604 -0.069671229 0.45902997
-0.056103263 -0.06556759 0.45547614
-0.12897687 -0.056061767 0.45666897
-0.14045957 -0.054309845 0.45596036
-0.15689613 -0.043833409 0.46098959
-0.15202503 -0.04446191 0.45831269
-0.14132082 -0.044712842 0.45797226
-0.1393829 -0.045931436 0.45546329
-0.12924159 -0.045038838 0.45802873
-0.051145837 -0.044314861 0.45797771
-0.15692133 -0.038898312 0.46002653
-0.15281239 -0.037755754 0.45833451
-0.13894035 -0.038368933 0.4584282
-0.13462591 -0.028601581 0.45943117
-0.12819429 -0.034444146 0.45593774
-0.052085638 -0.034933303 0.45590597
-0.12722009 -0.024692439 0.45577401
-0.054529894 -0.025163777 0.45594114
-0.12279507 -0.017124424 0.4580887
-0.059910584 -0.016648361 0.45564669
-0.12007262 -0.0085825175 0.46073216
-0.11818398 -0.012577095 0.45810589
-0.11108817 -0.0095792664 0.46077943
-0.063686073 -0.013863117 0.46098119
-0.11473516 -0.0062689581 0.45791829
-0.10582253 -0.0030372262 0.4556216
-0.10423792 -0.0029377053 0.45777684
-0.095583014 -0.0010875309 0.45655677
-0.09936671 0.0016437556 0.46057162
-0.095754355 0.0019905197 0.45687205
-0.095557183 -0.084788896 0.46398157
-0.084241182 -0.084494159 0.46437886
-0.10841581 -0.078547411 0.4651421
-0.10365269 -0.082276061 0.46344629
-0.077538252 -0.081401378 0.46606362
-0.073148161 -0.078029364 0.46366385
-0.11429819 -0.07337486 0.46438524
-0.065711334 -0.073283128 0.46361545
-0.13629539 -0.063966304 0.46539792
-0.1180045 -0.066167139 0.46411824
-0.059077483 -0.066230729 0.46430373
-0.13911782 -0.056909293 0.46406969
-0.12215187 -0.062123951 0.46294266
-0.051530011 -0.057414982 0.46452889
-0.15503256 -0.051414467 0.46751356
-0.14386863 -0.0529854 0.46615395
-0.12646011 -0.055576194 0.46486241
-0.04931327 -0.053030994 0.46663761
-0.15502316 -0.044772815 0.4679378
-0.14505018 -0.044196639 0.46477437
-0.12769255 -0.04480892 0.46472886
-0.048758 -0.045339938 0.46608695
-0.14049658 -0.039299298 0.46513
-0.048936147 -0.035606705 0.46579519
-0.13724193 -0.034736868 0.46434432
-0.1254973 -0.034911919 0.46422881
-0.050435014 -0.034848467 0.46313858
-0.13469377 -0.02740846 0.46343777
-0.12093887 -0.023563966 0.4655869
-0.055020489 -0.025060952 0.46470395
-0.1152832 -0.015216583 0.46397045
-0.058832109 -0.019425264 0.46224785
-0.10799373 -0.011514148 0.46747419
-0.10452592 -0.0075717522 0.46376324
-0.11396983 -0.0058837696 0.46328998
-0.10641543 -0.0020554517 0.46400961
-0.096081242 -0.0043204981 0.46466014
-0.087894686 -0.0034943011 0.46253112
-0.10199733 0.00080530986 0.46406588
-0.097867906 -0.085503012 0.47378191
-0.082561061 -0.087354474 0.47327697
-0.10865521 -0.077673122 0.47503099
-0.10436475 -0.082464553 0.47453135
-0.072913334 -0.081484154 0.472635
-0.066260569 -0.077562876 0.47385725
-0.11245798 -0.073077641 0.47376743
-0.1167229 -0.065030053 0.47403008
-0.14491278 -0.056842633 0.47111538
-0.1375699 -0.062370319 0.47517315
-0.053220011 -0.060058836 0.47436529
-0.16169235 -0.050544322 0.47042966
-0.16029809 -0.051185012 0.46938971
-0.1236866 -0.055014513 0.47426009
-0.048247982 -0.053663667 0.4752925
-0.1641697 -0.045089092 0.47374469
-0.16047186 -0.048472639 0.46922892
-0.12536451 -0.044633061 0.47464669
-0.047133949 -0.044991527 0.47519946
-0.1560967 -0.041337349 0.47434813
-0.15394087 -0.03985684 0.47083738
-0.14291961 -0.040146124 0.47241756
-0.1224957 -0.035338089 0.47472143
-0.048658468 -0.035699438 0.47481146
-0.13568041 -0.034633487 0.47383508
-0.12116008 -0.028269475 0.47248361
-0.050845731 -0.030641168 0.47422838
-0.11600975 -0.02376993 0.47541037
-0.054311421 -0.025447849 0.47490624
-0.11232119 -0.017720597 0.47230732
-0.058981329 -0.018512502 0.47112575
-0.10850672 -0.010386717 0.47261035
-0.10086347 -0.0088648349 0.47053021
-0.095047027 -0.0072519849 0.47407609
-0.10604164 -0.0049286978 0.47399822
-0.081591457 -0.09035641 0.47982958
-0.068486407 -0.080692738 0.47735137
-0.13059762 -0.071506962 0.48242259
-0.13545153 -0.067018874 0.48299935
-0.11930432 -0.059469346 0.47636315
-0.12166364 -0.053124271 0.48268166
-0.12202549 -0.045875449 0.48280716
-0.13544299 -0.038944431 0.47985464
-0.12030029 -0.038192537 0.48077935
-0.11954904 -0.030873628 0.47902924
-0.11278104 -0.026541637 0.48297086
-0.099075563 -0.010224443 0.47669706
-0.092170149 -0.0086141387 0.48203087
-0.086567461 -0.0064935512 0.47623128
-0.079598047 -0.092167281 0.48522669
-0.097905554 -0.086306356 0.48411524
-0.073327929 -0.087198988 0.48506624
-0.10761976 -0.077647611 0.48503104
-0.10307493 -0.082477801 0.48433146
-0.066720583 -0.082573943 0.48594752
-0.059658475 -0.078190573 0.48672432
-0.12890172 -0.074375287 0.48678148
-0.11203085 -0.072567567 0.48467344
-0.046624962 -0.071484946 0.48903558
-0.11625648 -0.064524315 0.48493922
-0.051061299 -0.063937955 0.4873876
-0.045671027 -0.064501554 0.488702
-0.11896273 -0.05628873 0.48602977
-0.050658409 -0.05894772 0.48903498
-0.048960775 -0.061474431 0.48776633
-0.045670398 -0.054995362 0.48647833
-0.1648978 -0.043778516 0.48368606
-0.15644506 -0.043999106 0.48638692
-0.14614815 -0.043532293 0.48411375
-0.11887584 -0.043384295 0.4872438
-0.045408081 -0.046953835 0.48632103
-0.13313749 -0.041428 0.48594767
-0.048907381 -0.035289403 0.48547381
-0.12819283 -0.034506153 0.48595628
-0.11677441 -0.034355335 0.48440453
-0.10887072 -0.022324866 0.48527989
-0.052448951 -0.02646789 0.48461241
-0.10418729 -0.016238609 0.48407018
-0.10560362 -0.013072487 0.48685038
-0.10300571 -0.0083177919 0.48333889
-0.096035957 -0.011556996 0.48558062
-0.08630608 -0.0095161581 0.48623133
-0.09929128 -0.0069187731 0.48485216
-0.085234247 -0.095846124 0.49671781
-0.077088341 -0.09309271 0.49529049
-0.095321529 -0.084484912 0.49608478
-0.072449684 -0.08781682 0.49557665
-0.064589441 -0.085098982 0.49496788
-0.12654413 -0.078049555 0.4944047
-0.12175857 -0.083492517 0.4960556
-0.10185232 -0.081546202 0.49411488
-0.066998713 -0.083237089 0.4948343
-0.062101047 -0.078247271 0.49530175
-0.10899183 -0.073798537 0.49469751
-0.062063392 -0.076006249 0.49507788
-0.054761 -0.07465516 0.4939484
-0.044764813 -0.075523078 0.49239948
-0.11422268 -0.065603442 0.49571604
-0.052302107 -0.066774048 0.49318734
-0.048579682 -0.063052841 0.49562114
-0.040824182 -0.065627776 0.49033585
-0.11687352 -0.054708734 0.49475208
-0.046880696 -0.054741092 0.49508363
-0.038443819 -0.055004403 0.4927935
-0.1619889 -0.045486566 0.49329013
-0.15430014 -0.045584422 0.49492666
-0.14597136 -0.046629742 0.49572617
-0.13523147 -0.046640892 0.49527565
-0.11632037 -0.045138255 0.4946965
-0.048432831 -0.045412216 0.49477297
-0.041474018 -0.04852422 0.49103546
-0.12554349 -0.037502375 0.4942854
-0.11296314 -0.035308156 0.494178
-0.049243748 -0.037851244 0.49231356
-0.11060181 -0.029790657 0.49202991
-0.051207699 -0.03120172 0.4959287
-0.10781522 -0.024146331 0.4946411
-0.10287085 -0.01635094 0.49498564
-0.094710104 -0.014679798 0.49495935
-0.085290872 -0.014275606 0.49580067
-0.095690772 -0.010132091 0.4939059
-0.092425644 -0.094652958 0.49971485
-0.085148923 -0.092325181 0.5014106
-0.080321819 -0.093318313 0.49903339
-0.074319303 -0.09402699 0.49778393
-0.11941395 -0.088033505 0.50197166
-0.11796403 -0.088342875 0.49940127
-0.077343412 -0.090731762 0.50124383
-0.074896798 -0.084913038 0.50335413
-0.095520258 -0.081168719 0.50143206
-0.088446148 -0.081958979 0.49942142
-0.067996457 -0.081732526 0.50163198
-0.10344089 -0.07412754 0.50298685
-0.086617038 -0.074579366 0.50384653
-0.065332793 -0.074691549 0.50284088
-0.057038333 -0.071962342 0.50145036
-0.11193843 -0.063357413 0.50263911
-0.054866683 -0.064969242 0.5031662
-0.049057662 -0.061432291 0.50115025
-0.0489108 -0.055741716 0.50118232
-0.15388758 -0.047123332 0.50263774
-0.12774642 -0.043639001 0.49775279
-0.11221685 -0.045121636 0.50317717
-0.052264802 -0.046832226 0.50225425
-0.037620142 -0.048423793 0.49758121
-0.12175609 -0.03851971 0.50208658
-0.11126018 -0.036447335 0.50373584
-0.050580341 -0.041621353 0.49855575
-0.053906642 -0.029315764 0.50359219
-0.078883708 -0.023168297 0.50303215
-0.10230601 -0.020053159 0.50016195
-0.094369583 -0.018139703 0.50256932
-0.085343622 -0.018151736 0.50167871
-0.078655288 -0.019163383 0.49890709
-0.11615196 -0.093541607 0.50665987
-0.12137631 -0.086625956 0.50562906
-0.094787195 -0.085806713 0.5065552
-0.084985234 -0.085201077 0.50580496
-0.096327022 -0.081251405 0.51088941
-0.09505894 -0.074892908 0.50521934
-0.083673142 -0.076355331 0.50848079
-0.075018331 -0.074933313 0.50631177
-0.10570459 -0.065950707 0.50650358
-0.094549552 -0.065441795 0.50812072
-0.085993707 -0.064743258 0.50718457
-0.072141998 -0.065713331 0.50790358
-0.065239325 -0.065233909 0.50504237
-0.10379967 -0.061364844 0.51059353
-0.094417706 -0.059118159 0.50966805
-0.15293895 -0.049623862 0.51040649
-0.13001283 -0.05036993 0.50891036
-0.11261452 -0.054964628 0.5042097
-0.10929991 -0.053870082 0.50863039
-0.084939048 -0.055385988 0.50862235
-0.073777899 -0.054133076 0.50769317
-0.065037802 -0.055138893 0.50522363
-0.054485459 -0.054900758 0.50407362
-0.14540759 -0.047447328 0.50499409
-0.13621511 -0.048859477 0.50512111
-0.1244723 -0.045334782 0.50549054
-0.10854685 -0.045700032 0.50808591
-0.087474011 -0.043889213 0.51085013
-0.079573475 -0.044921964 0.5089696
-0.074447118 -0.045301791 0.50855941
-0.065123402 -0.045002796 0.50602067
-0.11545203 -0.038601853 0.50623471
-0.081534952 -0.037927389 0.5097065
-0.074442916 -0.038058814 0.50873429
-0.067306496 -0.035839699 0.50924194
-0.10960889 -0.032291632 0.50703001
-0.10072479 -0.030996278 0.50934923
-0.079411969 -0.030225378 0.5100323
-0.05542272 -0.034954768 0.50439608
-0.10553145 -0.02458616 0.50527012
-0.10301401 -0.023866802 0.50555575
-0.084613234 -0.022759406 0.50657022
-0.10257141 -0.016733367 0.50401735
-0.095201828 -0.020759152 0.50729758
-0.095107347 -0.012781535 0.50471079
-0.088153251 -0.012718003 0.50656259
-0.11782702 -0.096156858 0.51527369
-0.12161982 -0.088181354 0.51430488
-0.094880916 -0.07502377 0.51274103
-0.086707115 -0.073315233 0.51121789
-0.093375012 -0.06542363 0.51400918
-0.078135461 -0.056465268 0.51151389
-0.15020566 -0.050568581 0.5145278
-0.1273044 -0.050494887 0.51179969
-0.10476833 -0.055173147 0.51174825
-0.094378509 -0.05508934 0.51283383
-0.085401602 -0.05429747 0.51303804
-0.1443173 -0.048233841 0.51440412
-0.13503493 -0.048578985 0.5151611
-0.12457212 -0.048705723 0.51569808
-0.11713832 -0.042933259 0.51588517
-0.10386772 -0.044638611 0.51274765
-0.09482228 -0.045248382 0.51373309
-0.084237419 -0.045432799 0.51283938
-0.11220369 -0.03936046 0.51520252
-0.10657771 -0.037933588 0.51495665
-0.095166303 -0.035291635 0.51613319
-0.10549255 -0.03493581 0.51597869
-0.085968994 -0.034460008 0.51216334
-0.1035061 -0.026730385 0.51397431
-0.094961822 -0.026264342 0.51311982
-0.085961156 -0.027714407 0.51174009
-0.10157257 -0.019732654 0.51136065
-0.095417991 -0.015303726 0.51396072
-0.078145579 -0.014844026 0.5172081
-0.086191297 -0.013798374 0.51708406
-0.14423472 -0.049686998 0.52147675
-0.10795113 -0.03335686 0.52485621
-0.10112079 -0.023916332 0.52193832
-0.15291384 -0.066534877 0.52899003
-0.15106924 -0.058112815 0.5263148
-0.14647318 -0.053384524 0.52641994
-0.13479063 -0.048235018 0.52593666
-0.12462734 -0.04851051 0.52524287
-0.1162347 -0.043885931 0.52506346
