# .PCD v0.7 - Point Cloud Data file format
VERSION 0.7
FIELDS x y z
SIZE 4 4 4
TYPE F F F
COUNT 1 1 1
WIDTH 1357
HEIGHT 1
VIEWPOINT 0 0 0 1 0 0 0
POINTS 1357
DATA ascii
-0.054867376 -0.15502375 0.48650879
-0.044787534 -0.15494928 0.48418483
-0.03561205 -0.15491845 0.48159361
-0.027104052 -0.15273523 0.4803462
-0.063149452 -0.14889216 0.48903576
-0.054279938 -0.14683898 0.48856416
-0.044875182 -0.14515918 0.48670378
-0.034902379 -0.14507745 0.48407173
-0.02558016 -0.14494461 0.48149452
-0.018581353 -0.14205641 0.480039
-0.044507872 -0.13497438 0.48814636
-0.034686305 -0.13515334 0.48615071
-0.024981672 -0.13496031 0.48297271
-0.016023349 -0.13435432 0.48039767
-0.0087035578 -0.13095599 0.48003951
-0.042930968 -0.12724093 0.48863688
-0.034578964 -0.12526858 0.48708367
-0.024869848 -0.12473562 0.4841961
-0.015514903 -0.12517028 0.48205397
-0.0057831504 -0.1246114 0.48070619
-0.031831045 -0.11664802 0.48841259
-0.025045244 -0.11505163 0.48637733
-0.015350646 -0.1149744 0.48398176
-0.0054856925 -0.11493594 0.48228598
0.0019495786 -0.11198714 0.4805015
-0.023199711 -0.10671375 0.48847917
-0.015093577 -0.1051888 0.48705584
-0.0052339491 -0.10488992 0.48508397
0.0044176723 -0.10487674 0.48207173
0.010325623 -0.10293031 0.48004046
-0.013924585 -0.096263133 0.48869646
-0.005396897 -0.094969735 0.48739854
0.0047623785 -0.094972916 0.48454717
0.013798958 -0.093511172 0.48089418
0.020757347 -0.090836525 0.480041
-0.01157153 -0.089130461 0.4890385
-0.0047213086 -0.085614584 0.4886426
0.0048308889 -0.084770121 0.48667055
0.014689405 -0.085182011 0.48328286
0.024242416 -0.084169567 0.48062602
0.030890185 -0.082020104 0.48004159
-0.0013697705 -0.078934565 0.48903909
0.0058618137 -0.077025734 0.48863336
0.014945756 -0.075090408 0.48568207
0.024804065 -0.07502877 0.48166588
0.032177515 -0.074174888 0.48017946
0.017080233 -0.065975882 0.48784032
0.024856312 -0.065239817 0.48487422
0.034661066 -0.064798579 0.48173004
0.042468432 -0.062495988 0.48018497
0.019459311 -0.05641811 0.48904023
0.02506138 -0.055160392 0.48713303
0.034975462 -0.055131715 0.48333842
0.044769734 -0.054798163 0.48099464
0.052053247 -0.052052394 0.48004261
0.026384113 -0.046084721 0.48821849
0.035126884 -0.045241639 0.48538488
0.045014367 -0.04500911 0.48285443
0.053948823 -0.044269577 0.48053297
0.062432572 -0.040844988 0.4800432
0.029344458 -0.038891699 0.48904067
0.035339676 -0.035330933 0.48731095
0.045202628 -0.035081714 0.48482308
0.055136975 -0.034970954 0.48327699
0.064956956 -0.034802739 0.48188454
0.072129577 -0.033184942 0.48049834
0.036883838 -0.02592103 0.48856473
0.045362044 -0.02505816 0.48651049
0.055267904 -0.024954267 0.48440188
0.0651353 -0.024869246 0.48266837
0.073949397 -0.024245685 0.48074371
0.080427185 -0.020358624 0.48004419
0.038847845 -0.018942956 0.48904103
0.045840021 -0.017676737 0.48852435
0.055251505 -0.015182608 0.48730019
0.065210469 -0.014729974 0.48508772
0.075189747 -0.01480107 0.48259059
0.083969645 -0.013612216 0.48042208
0.091442153 -0.010851214 0.48004484
0.056848768 -0.0054666144 0.48841712
0.064427681 -0.0047755032 0.4867771
0.074871488 -0.004755544 0.48458508
0.08518476 -0.0047334349 0.48216924
0.092475541 -0.0042529586 0.48045111
0.058996253 0.00093899423 0.48904216
0.065829128 0.0042115385 0.48839974
0.074519046 0.0053694877 0.48637161
0.084883779 0.0053395606 0.48402998
0.094895519 0.0055044759 0.48140535
0.10319989 0.0080648251 0.48033106
0.06919802 0.011134904 0.48904273
0.075298332 0.014562811 0.48796147
0.085025959 0.015204984 0.48580146
0.095133521 0.015507049 0.48365653
0.10511605 0.015424993 0.48172227
0.11345059 0.017192163 0.48052987
0.07742355 0.021580873 0.48890981
0.085567445 0.024050003 0.48836187
0.094861746 0.02503006 0.48663363
0.10504738 0.025185809 0.48415112
0.11506657 0.02555613 0.48201615
0.12168334 0.027548594 0.48018917
0.089601167 0.03025187 0.48904392
0.096371278 0.033357169 0.48853227
0.10481514 0.034906041 0.48646882
0.11521579 0.035172183 0.48348498
0.12243468 0.035455581 0.48056245
0.099378206 0.041297797 0.48904443
0.1055654 0.04239453 0.48807609
0.11552794 0.042818096 0.48460662
0.12269817 0.043403104 0.48147473
-0.12718293 -0.19022377 0.49903169
-0.12314592 -0.18597454 0.49878189
-0.11505554 -0.1849917 0.49721101
-0.10526706 -0.1841027 0.49508405
-0.095207691 -0.18389057 0.49189389
-0.087511763 -0.18247144 0.49040952
-0.12132496 -0.17689097 0.4990319
-0.11473247 -0.17512923 0.49864176
-0.10459663 -0.17466851 0.49680084
-0.094979435 -0.17512679 0.4941566
-0.086491726 -0.17483275 0.49112755
-0.11423092 -0.16603477 0.49894723
-0.10467441 -0.16481771 0.49808758
-0.095114186 -0.16499007 0.49544743
-0.085082084 -0.16507782 0.49212983
-0.076287232 -0.1623369 0.49067497
-0.10219608 -0.15848835 0.49903297
-0.094362833 -0.15630554 0.49805355
-0.08493904 -0.15528819 0.49547854
-0.074861296 -0.15490775 0.49228895
-0.068503477 -0.15521342 0.4900355
-0.091475986 -0.145596 0.49903348
-0.085336722 -0.14499924 0.49781957
-0.075007096 -0.14513505 0.4938629
-0.065155096 -0.144155 0.49119908
-0.056487683 -0.14267313 0.49087495
-0.090742089 -0.13819721 0.49903345
-0.084238268 -0.13530821 0.49832472
-0.07484366 -0.13511005 0.49566802
-0.064680196 -0.13479841 0.49372295
-0.054778825 -0.13491884 0.49146461
-0.049505189 -0.13188387 0.49003646
-0.080982551 -0.12909353 0.49903402
-0.074057415 -0.12609082 0.49860954
-0.065070465 -0.12525491 0.49670705
-0.054901797 -0.12489574 0.49375251
-0.046140958 -0.12384851 0.49139211
-0.038883142 -0.12089749 0.49037039
-0.073777579 -0.11720145 0.49903426
-0.065200739 -0.11533492 0.49828905
-0.05477253 -0.11460365 0.49597108
-0.0450207 -0.11521652 0.49376222
-0.036234811 -0.11413102 0.49121892
-0.063694291 -0.10452157 0.49903482
-0.054818716 -0.10475918 0.49773866
-0.044829439 -0.10495573 0.49514753
-0.034974102 -0.10490835 0.49233383
-0.026427105 -0.10325042 0.49071407
-0.065101586 -0.094902933 0.49705246
-0.054740585 -0.094962195 0.4976173
-0.044849414 -0.095269196 0.49648067
-0.035110012 -0.095021129 0.49430263
-0.024672482 -0.094845414 0.49170944
-0.017209096 -0.093316816 0.49020481
-0.054715481 -0.085118957 0.49625731
-0.045082662 -0.085062355 0.49679023
-0.035227139 -0.085006051 0.49602094
-0.024663979 -0.084824532 0.49394658
-0.015333721 -0.084802821 0.49146926
-0.0087335696 -0.082468182 0.49031135
-0.035008099 -0.074954443 0.49539238
-0.024886744 -0.07469359 0.49620906
-0.015089952 -0.074713275 0.49445894
-0.0056387875 -0.075120911 0.49184206
0.0037312252 -0.072975613 0.49085179
0.010553083 -0.070582964 0.49003983
-0.035217218 -0.065127239 0.49472985
-0.024964947 -0.064695507 0.49779525
-0.015077914 -0.064971708 0.49523774
-0.0054541132 -0.065299794 0.49360076
0.0048283576 -0.065157652 0.49250793
0.01287954 -0.063664824 0.49071732
-0.022150639 -0.055555228 0.49857551
-0.01509648 -0.055253066 0.49637094
-0.0053949645 -0.055229384 0.49516547
0.0048388657 -0.054981153 0.49336728
0.014676519 -0.054564059 0.49103966
-0.021023836 -0.048081703 0.49903703
-0.014439425 -0.045238785 0.49806961
-0.0048384606 -0.045040719 0.49723443
0.0048508826 -0.044797305 0.49452338
0.015084693 -0.04455667 0.49185193
0.022473197 -0.042604685 0.49074021
-0.012573909 -0.038038563 0.49891248
-0.0042427634 -0.035742745 0.49852628
0.0048781084 -0.034640841 0.49680436
0.015046843 -0.034633774 0.49455556
0.025224697 -0.035010654 0.49180821
0.031003824 -0.030987533 0.49004063
-0.001271884 -0.027969489 0.49903816
0.0048911371 -0.024983177 0.49782425
0.015319216 -0.025019769 0.49497023
0.025380317 -0.025361916 0.49252453
0.032600496 -0.023806257 0.49044979
0.0063438886 -0.016295448 0.49838001
0.015244597 -0.015215865 0.49675804
0.025419749 -0.015225478 0.49459538
0.034884337 -0.014822761 0.49198696
0.044228431 -0.012722385 0.49124712
0.050835814 -0.011197938 0.49029177
0.016446833 -0.0061450028 0.49849144
0.024953349 -0.0048586191 0.49662909
0.034545623 -0.0048451591 0.49493125
0.044771619 -0.004837425 0.4939006
0.052360579 -0.0041347174 0.49110433
0.026346471 0.003567348 0.49839678
0.034715123 0.0048554293 0.49730796
0.044967923 0.0048397477 0.49602309
0.055007491 0.0053765639 0.49284497
0.062700979 0.0076892376 0.49081498
0.036364872 0.013353442 0.49882969
0.045113426 0.014581085 0.49758798
0.055104606 0.014978888 0.49535197
0.065057032 0.015127054 0.49211508
0.071369663 0.017549921 0.49018559
0.039395917 0.020478303 0.49904028
0.04679662 0.023182403 0.49863452
0.055354133 0.024897791 0.49636963
0.065333903 0.024752978 0.49355769
0.074485995 0.025528131 0.49112457
0.083091386 0.027872818 0.49040058
0.055893589 0.034870852 0.49870777
0.064806625 0.035283301 0.49688563
0.07469292 0.035148587 0.49431252
0.085014619 0.035058774 0.49202931
0.093564987 0.037167929 0.49034843
0.057378683 0.042588867 0.4990412
0.064714283 0.044975519 0.49826378
0.074642666 0.044868935 0.49552467
0.084448181 0.042840943 0.49313703
0.094565228 0.04264864 0.4910785
0.10064682 0.04340462 0.49004447
0.065975197 0.051355012 0.49891675
0.072091356 0.050802264 0.49761361
-0.17204152 -0.19217926 0.50893742
-0.1652845 -0.19180843 0.50728971
-0.15532103 -0.19152863 0.5059343
-0.14539799 -0.19127779 0.50353032
-0.13592038 -0.19067723 0.50065607
-0.1637871 -0.18640187 0.50871462
-0.15476638 -0.18493558 0.5070464
-0.14454231 -0.18509246 0.50456583
-0.13466176 -0.18516321 0.50184768
-0.12736928 -0.18333088 0.50028145
-0.16024603 -0.17942992 0.50902897
-0.15383044 -0.17682645 0.50819069
-0.14486341 -0.17498612 0.50719392
-0.13506091 -0.17517047 0.50466871
-0.12591462 -0.17446086 0.5010094
-0.14117953 -0.16552128 0.50897133
-0.13512215 -0.16507119 0.50671136
-0.12538208 -0.16497941 0.5022456
-0.11665937 -0.16191037 0.50020838
-0.10852775 -0.16062912 0.50003248
-0.14077759 -0.15908821 0.50903004
-0.13405748 -0.15677159 0.50765216
-0.12457773 -0.1553448 0.5060482
-0.11506579 -0.15516698 0.50323498
-0.10524634 -0.15450053 0.50092548
-0.097037025 -0.15198246 0.50016659
-0.12134523 -0.1447444 0.50886458
-0.11465195 -0.14502233 0.50640208
-0.10454027 -0.14513281 0.50280052
-0.096321002 -0.14464244 0.50061202
-0.12150429 -0.13566242 0.50883114
-0.11461187 -0.1347647 0.50678146
-0.10478115 -0.13496077 0.50397879
-0.095291987 -0.13462491 0.50143313
-0.088354215 -0.13187045 0.50025576
-0.11429388 -0.12547097 0.50859964
-0.10534019 -0.12512104 0.50669295
-0.095658213 -0.1249861 0.504251
-0.08533714 -0.12486579 0.50093699
-0.077884078 -0.12344381 0.50003415
-0.11269796 -0.11840174 0.50903136
-0.10476534 -0.11521018 0.50851506
-0.094579004 -0.11470455 0.50565332
-0.084902197 -0.11498633 0.50245464
-0.076313704 -0.11287276 0.50088251
-0.10330985 -0.10655539 0.50899345
-0.094514534 -0.10552352 0.50747424
-0.085457616 -0.10525931 0.50558877
-0.074854784 -0.10523998 0.50194621
-0.066994563 -0.10595789 0.50003451
-0.082190208 -0.097024687 0.50187951
-0.077070311 -0.098390691 0.50064915
-0.030938804 -0.060279425 0.50003648
-0.029635273 -0.060279798 0.5000366
-0.079262942 -0.052725054 0.50903267
-0.031624347 -0.054007176 0.50060767
-0.027346512 -0.054736268 0.50048834
-0.040298313 -0.043590803 0.50303549
-0.034475174 -0.044830404 0.50330871
-0.025645081 -0.045072362 0.50159812
-0.019201593 -0.041381575 0.50003701
-0.044005625 -0.033380985 0.50511831
-0.034795269 -0.035197433 0.50674558
-0.024820924 -0.035308782 0.50455379
-0.015357465 -0.033860739 0.50130796
-0.0068691652 -0.031622808 0.50026852
-0.051637195 -0.026974943 0.5077486
-0.044671912 -0.026001133 0.50782204
-0.034960292 -0.024654353 0.50800282
-0.024983052 -0.024901723 0.50623983
-0.014760945 -0.024637662 0.50424021
-0.0052709412 -0.024777994 0.50118995
-0.032808304 -0.01856824 0.50903559
-0.024271389 -0.015681291 0.50836939
-0.014836319 -0.014858102 0.50696546
-0.0048208395 -0.015323618 0.5032559
0.002344856 -0.013489494 0.50064689
-0.012161161 -0.0088776229 0.5089258
-0.0044002873 -0.0054740012 0.50697494
0.0049424772 -0.0049079228 0.50255388
0.013177874 -0.0024641512 0.50072062
-0.002625623 0.004338786 0.5084722
0.004983007 0.0049490621 0.50600237
0.015358803 0.0048470632 0.503075
0.023264237 0.0067284554 0.50067568
-0.0014826262 0.011346527 0.50903738
0.0056656203 0.014354757 0.50783396
0.014854928 0.014813788 0.50518149
0.024597149 0.014733163 0.50247687
0.032687053 0.016527981 0.5005399
0.0082639046 0.023692543 0.50887126
0.01490936 0.024776341 0.50693637
0.024762131 0.025225295 0.50424558
0.034981977 0.025264261 0.50210333
0.043802124 0.026945166 0.50060302
0.0096699214 0.031513661 0.50903779
0.015399159 0.034278486 0.50785446
0.02467566 0.035157915 0.50554764
0.035210628 0.035157301 0.50427181
0.045388907 0.034888078 0.50149512
0.051512379 0.036891103 0.50015199
0.018203652 0.042127181 0.50903827
0.024996934 0.045045048 0.50713706
0.035239957 0.045045353 0.50464886
0.045028049 0.044799257 0.5027771
0.053709708 0.045719933 0.50057292
0.060339842 0.049191087 0.50004131
0.024902819 0.052086316 0.50718856
0.034640681 0.051905651 0.50353926
0.044881422 0.051958736 0.50288218
0.054078948 0.052638981 0.50117868
0.060774978 0.051363513 0.50004131
-0.20337734 -0.19526149 0.51793516
-0.19509794 -0.19325796 0.51474535
-0.18555257 -0.19282475 0.51224607
-0.17723456 -0.19255744 0.51073378
-0.2012798 -0.18970928 0.5190261
-0.19423985 -0.18582748 0.51739019
-0.18501142 -0.1851102 0.51419377
-0.17504485 -0.18488041 0.51130873
-0.16674197 -0.18272686 0.51038861
-0.19045216 -0.17888786 0.5190267
-0.18369588 -0.17649288 0.51766354
-0.1749593 -0.17488714 0.51523745
-0.1651455 -0.17479408 0.5132826
-0.15632762 -0.17270042 0.51156485
-0.14947806 -0.17092156 0.51002961
-0.17445727 -0.16544273 0.51841229
-0.16532537 -0.16521996 0.51700997
-0.1551642 -0.16515692 0.51417452
-0.14638028 -0.16466622 0.51084065
-0.17235023 -0.15798211 0.51886106
-0.16487215 -0.15485099 0.51751882
-0.15500186 -0.15497316 0.51450962
-0.14523765 -0.15451217 0.51184785
-0.13585714 -0.15222163 0.51063901
-0.12801917 -0.15125448 0.51019758
-0.16274063 -0.14792913 0.5187782
-0.15414827 -0.1463208 0.51776707
-0.144758 -0.14487199 0.51524371
-0.1346581 -0.14528522 0.51232833
-0.12650186 -0.14533593 0.51070732
-0.15303317 -0.13462943 0.51895463
-0.14517917 -0.13521326 0.51712912
-0.13493417 -0.13489297 0.51374447
-0.12636203 -0.13478667 0.5109424
-0.15214069 -0.12809645 0.51877862
-0.1446372 -0.12598707 0.51796383
-0.13520478 -0.12490525 0.51518667
-0.12500766 -0.12496948 0.51149482
-0.11902347 -0.12298321 0.51015604
-0.14120445 -0.11435156 0.51877922
-0.13484193 -0.11479461 0.5160296
-0.12530005 -0.11524218 0.51270413
-0.11561343 -0.11435243 0.51062679
-0.1086863 -0.11065795 0.51003158
-0.14302497 -0.10623224 0.51802891
-0.13543931 -0.1066452 0.51470685
-0.12484904 -0.107306 0.51291603
-0.11474215 -0.10750312 0.5115158
-0.10811543 -0.10704919 0.51003158
-0.061013043 -0.020556618 0.51753342
-0.054130327 -0.02252146 0.51296264
-0.046112653 -0.021062115 0.51061797
-0.061143968 -0.017219916 0.5186584
-0.05473135 -0.015290268 0.51714021
-0.045086492 -0.015021487 0.51281005
-0.035254747 -0.014358862 0.51084799
-0.027025998 -0.011894027 0.51013595
-0.053956605 -0.0055929353 0.51796234
-0.045306921 -0.0050189206 0.51537359
-0.035101227 -0.0050020684 0.51348817
-0.024992507 -0.004991509 0.51210743
-0.015405953 -0.0043475125 0.51130944
-0.0081081884 -0.0018260438 0.51028717
-0.052049398 0.0013685405 0.51903379
-0.043974474 0.0041261329 0.51827812
-0.03467723 0.0050705713 0.51721859
-0.025147606 0.0050482368 0.51530099
-0.015001534 0.0050194361 0.51280445
-0.0069984552 0.0055573159 0.51061404
-0.040207446 0.010498343 0.5190345
-0.033416856 0.013193646 0.51864201
-0.025238093 0.015179478 0.51721418
-0.015035721 0.015085009 0.51409864
-0.0052966913 0.01535478 0.51139009
0.0014417842 0.017886905 0.51013744
-0.024204429 0.024785975 0.51845217
-0.015088451 0.025225328 0.5159291
-0.0049677375 0.025062254 0.51266956
0.0034967677 0.025520032 0.51064283
-0.02239665 0.033173788 0.51888156
-0.015125149 0.034734461 0.51733959
-0.0048513659 0.034992643 0.51383281
0.0048157321 0.035148785 0.51123434
0.011783555 0.038234103 0.51018077
-0.01340099 0.043351702 0.51841825
-0.0051299236 0.045240544 0.5165267
0.0050705592 0.045197017 0.5136801
0.014495096 0.045390442 0.51089507
-0.0046732617 0.052808333 0.51828641
0.0058259321 0.053160083 0.51452285
0.014703624 0.053387918 0.51151145
0.020331884 0.052181393 0.51003826
-0.25342751 -0.20024616 0.52902234
-0.25135228 -0.19614136 0.52864736
-0.24506292 -0.1950098 0.52704519
-0.23499438 -0.19473989 0.5257408
-0.22473195 -0.19463623 0.5250448
-0.21493223 -0.19424389 0.52349186
-0.20687106 -0.19286969 0.52117574
-0.24350238 -0.18749464 0.52806449
-0.23444434 -0.18521768 0.52671444
-0.22448058 -0.18509787 0.52523261
-0.21500956 -0.18457913 0.52393413
-0.20534323 -0.18488324 0.52169931
-0.19708937 -0.18204914 0.52033395
-0.23254655 -0.17863186 0.52859491
-0.22458194 -0.17574935 0.52710402
-0.21473521 -0.17465959 0.52509874
-0.20492786 -0.17525393 0.52292746
-0.19530483 -0.17486118 0.52140814
-0.18722296 -0.17296547 0.52058685
-0.22419037 -0.16484602 0.52863365
-0.21527511 -0.16507886 0.52680022
-0.20502163 -0.1652229 0.52535266
-0.19492199 -0.16483998 0.52357161
-0.18497147 -0.16489984 0.52138221
-0.17917828 -0.16387156 0.52002722
-0.22169548 -0.15888116 0.52902395
-0.21390578 -0.15715984 0.52830577
-0.20511328 -0.15488824 0.52716517
-0.19531113 -0.15506347 0.52504605
-0.18506044 -0.15508032 0.52256358
-0.17544693 -0.15432079 0.5206427
-0.16911994 -0.15076959 0.52002776
-0.20238096 -0.14638007 0.52841401
-0.19503252 -0.14490634 0.52644563
-0.18521689 -0.14508897 0.52373803
-0.17489024 -0.1449533 0.52106273
-0.16569082 -0.14378279 0.52039158
-0.15764652 -0.14263883 0.52002847
-0.19393814 -0.13600457 0.52844989
-0.18496755 -0.13526218 0.5267055
-0.17487365 -0.13486928 0.52435422
-0.16522221 -0.13499066 0.52180558
-0.15787828 -0.13565472 0.52017111
-0.19226533 -0.12900828 0.52902561
-0.18514921 -0.12524273 0.52808505
-0.17512247 -0.12487 0.52560663
-0.16485253 -0.12472326 0.5229491
-0.15557273 -0.12423428 0.52102834
-0.14691332 -0.12178213 0.5203622
-0.18257935 -0.11715474 0.52894276
-0.17463423 -0.11538947 0.52762675
-0.1650846 -0.11488381 0.52546978
-0.15496829 -0.11504885 0.52306724
-0.14620428 -0.11565881 0.52077234
-0.17151858 -0.10829275 0.52886009
-0.16437663 -0.10508306 0.52760863
-0.15528803 -0.10547976 0.52431691
-0.14764756 -0.10594909 0.520841
-0.16235925 -0.098418847 0.52847171
-0.15845655 -0.098698974 0.52669424
-0.070519559 -0.011227953 0.52303255
-0.064469494 -0.013244824 0.52083308
-0.059270538 -0.01184457 0.52003348
-0.080367193 -0.0023714905 0.52503169
-0.074217141 -0.004357995 0.52444524
-0.065002091 -0.0050852825 0.52249718
-0.058332089 -0.0034210358 0.52031904
-0.081640132 0.0062644267 0.52836472
-0.075079627 0.0051713125 0.52633792
-0.065221474 0.0051467782 0.52429789
-0.055652771 0.0054525379 0.52172238
-0.047546547 0.0077246535 0.52036726
-0.074340038 0.012146018 0.52829504
-0.065204516 0.014440297 0.52638793
-0.05519218 0.01485538 0.52386326
-0.044891555 0.014556266 0.5216614
-0.036698621 0.016406657 0.52046323
-0.061452355 0.023788579 0.52853268
-0.054517537 0.025073858 0.52658671
-0.044723101 0.024966642 0.52440894
-0.03496737 0.024829756 0.52160591
-0.028391756 0.026991827 0.52003503
-0.060971044 0.032772794 0.52903253
-0.054238692 0.035030942 0.5282653
-0.044859022 0.035326943 0.52603346
-0.035050035 0.035112172 0.5228712
-0.026442071 0.035548769 0.52045166
-0.051412832 0.042424016 0.52903301
-0.04477264 0.044845462 0.52788121
-0.035214417 0.044871368 0.52540147
-0.02527334 0.044755917 0.52250558
-0.016808596 0.046504714 0.52047557
-0.042002678 0.051040921 0.52903354
-0.034327861 0.053304683 0.52800077
-0.024946094 0.05446573 0.52549917
-0.014606049 0.053527549 0.52167201
-0.0085490262 0.055517845 0.52003604
-0.031311493 0.061036594 0.5290342
-0.027274365 0.060691915 0.52753448
-0.28421345 -0.20250446 0.53822005
-0.2754536 -0.20152551 0.53564566
-0.26629618 -0.20116708 0.53268802
-0.25748301 -0.2007183 0.53027201
-0.28162175 -0.19936495 0.5387702
-0.27398711 -0.19615048 0.53760898
-0.26511303 -0.19525903 0.53459567
-0.25662157 -0.1947262 0.53096133
-0.27138802 -0.18560925 0.53887779
-0.26470858 -0.184907 0.53644973
-0.25498965 -0.1848392 0.53319836
-0.24577709 -0.18324013 0.53105485
-0.23870161 -0.18128462 0.5300231
-0.27113613 -0.17704758 0.53902054
-0.2646926 -0.17512287 0.5379169
-0.25495997 -0.17523026 0.53628707
-0.24506086 -0.17504057 0.53450334
-0.23524654 -0.1747115 0.53104758
-0.22902663 -0.17161518 0.53002357
-0.26101631 -0.16890028 0.53902113
-0.25387231 -0.16833082 0.53832167
-0.24497312 -0.16511008 0.53637111
-0.23469047 -0.16481739 0.5315786
-0.22902466 -0.16470647 0.53002346
-0.24308604 -0.15507159 0.53809923
-0.23517209 -0.15501933 0.53477281
-0.22526862 -0.15466776 0.53208107
-0.21629785 -0.15264666 0.53094423
-0.24289332 -0.14615697 0.5388642
-0.23485903 -0.14500678 0.53741902
-0.22480692 -0.14489011 0.53627813
-0.21495689 -0.14506356 0.53412843
-0.20671608 -0.14410254 0.53099024
-0.23383369 -0.13621429 0.53873688
-0.22495466 -0.13477111 0.53702337
-0.21494785 -0.13448933 0.53515452
-0.20504597 -0.13502216 0.53166306
-0.19821084 -0.13309775 0.53002518
-0.23055871 -0.12909479 0.53902268
-0.22412539 -0.12646078 0.53819555
-0.21491955 -0.12505621 0.53739887
-0.2048804 -0.12502758 0.53464955
-0.19534066 -0.12436698 0.53095376
-0.1889416 -0.12119302 0.53002572
-0.21148601 -0.11670501 0.53889054
-0.20470122 -0.11506756 0.53692907
-0.19468156 -0.11469845 0.53322923
-0.18580447 -0.11401841 0.53054005
-0.1782302 -0.11117844 0.53002632
-0.21092191 -0.1064468 0.53902382
-0.20514394 -0.10510135 0.53797978
-0.195261 -0.10508978 0.53600454
-0.18509588 -0.1051127 0.53418261
-0.17569382 -0.1046921 0.53129309
-0.16903904 -0.10226884 0.53002685
-0.20250826 -0.097564988 0.53869087
-0.19464815 -0.095024861 0.53756487
-0.18503869 -0.095410205 0.53552562
-0.17488559 -0.094703235 0.53289855
-0.16744177 -0.095932402 0.53079605
-0.19187911 -0.085980058 0.53882486
-0.18492672 -0.084826536 0.5372802
-0.17597432 -0.085967891 0.53484172
-0.16884039 -0.08906275 0.53202659
-0.19073014 -0.078987159 0.53902477
-0.18448213 -0.075201035 0.5382632
-0.17802237 -0.076897569 0.53702569
-0.1834534 -0.064034678 0.53881675
-0.17948483 -0.066343516 0.53902537
-0.18686375 -0.058733679 0.53852463
-0.092608131 0.0083039887 0.53158605
-0.086630009 0.0081611164 0.53043097
-0.11100824 0.01353293 0.53902906
-0.10480707 0.015421695 0.53696275
-0.094865285 0.015028481 0.53405142
-0.085141517 0.014917958 0.53226012
-0.075709023 0.016606556 0.53079832
-0.067998759 0.019019313 0.53003222
-0.10355954 0.023532391 0.5381673
-0.094730958 0.024864458 0.53666258
-0.084750123 0.024805941 0.53547966
-0.074769162 0.024734698 0.53397036
-0.066355966 0.024992218 0.53096765
-0.094147593 0.033723343 0.53837287
-0.084993035 0.034677885 0.53703082
-0.07488852 0.034531385 0.53482735
-0.065400593 0.035418887 0.53090173
-0.058090586 0.038821466 0.53003258
-0.090926133 0.040426858 0.53903008
-0.084727891 0.04428418 0.53818959
-0.07492438 0.044831175 0.5362578
-0.065052487 0.045635607 0.53423595
-0.055531759 0.045818277 0.53103268
-0.048876058 0.048951615 0.53003311
-0.083016433 0.052376665 0.53867745
-0.075178817 0.054829884 0.53740042
-0.065247677 0.055552542 0.53588885
-0.055282783 0.055366676 0.53407323
-0.045631584 0.055482097 0.53194422
-0.037212621 0.057225045 0.53034955
-0.073730715 0.061331231 0.53891981
-0.064350463 0.064033099 0.53822517
-0.0551605 0.065394767 0.53766286
-0.045266941 0.065448023 0.53575867
-0.03629753 0.063278601 0.53165448
-0.053995371 0.075401872 0.53828228
-0.045927893 0.074097507 0.53658545
-0.038708594 0.070929445 0.53603339
-0.055784255 0.081167795 0.53903192
-0.302955 -0.20290959 0.54425389
-0.29528123 -0.20263313 0.541673
-0.28793201 -0.20123652 0.54016256
-0.30398899 -0.1950449 0.54741836
-0.29492924 -0.19534443 0.54482335
-0.28525496 -0.19480011 0.54204208
-0.27729905 -0.19252029 0.54040498
-0.30373144 -0.18481037 0.54782891
-0.29528707 -0.18530357 0.54636759
-0.28512427 -0.18497029 0.54356521
-0.27651426 -0.18476829 0.54092032
-0.3022131 -0.17860708 0.5490182
-0.29411653 -0.17654909 0.54778343
-0.28509527 -0.17496453 0.54481435
-0.2759679 -0.1746055 0.54119956
-0.26825833 -0.17090106 0.54002059
-0.28339168 -0.1661332 0.54768604
-0.27479783 -0.16532078 0.54478091
-0.26504233 -0.16491137 0.5427323
-0.25578499 -0.16362523 0.54133391
-0.24882759 -0.16077036 0.5400219
-0.28098264 -0.15546736 0.5490194
-0.27457744 -0.15520033 0.54727477
-0.2648586 -0.15510358 0.54532301
-0.25488731 -0.15501739 0.54246306
-0.2479139 -0.15470125 0.54033434
-0.2734144 -0.14583169 0.54845983
-0.26500329 -0.14488193 0.54649866
-0.2548078 -0.14495249 0.54271871
-0.24707995 -0.14418839 0.54031342
-0.2626923 -0.13653351 0.54824269
-0.25500605 -0.1348647 0.54521143
-0.24467066 -0.13515607 0.54130161
-0.23732965 -0.13275723 0.54025763
-0.26011932 -0.12909693 0.54902047
-0.25402915 -0.12514457 0.54748029
-0.24516073 -0.12487729 0.54460847
-0.23513789 -0.1250008 0.54178315
-0.22666143 -0.1221427 0.5405491
-0.21925217 -0.12136005 0.54002339
-0.25218666 -0.11744296 0.54889584
-0.2445498 -0.11511278 0.54725403
-0.23506647 -0.11504859 0.54411501
-0.22499625 -0.1151728 0.54156452
-0.21657409 -0.11462938 0.54045939
-0.2413967 -0.10794125 0.5487715
-0.23492542 -0.10539435 0.54652184
-0.22521125 -0.10489973 0.54278988
-0.21599875 -0.10435484 0.54056191
-0.20939143 -0.10024565 0.54002374
-0.23347221 -0.095121145 0.5478031
-0.22495472 -0.094954289 0.54489744
-0.2149919 -0.094909564 0.54280585
-0.20587558 -0.093895219 0.54096133
-0.19906475 -0.090863176 0.54002434
-0.23119566 -0.087884411 0.54902184
-0.22416905 -0.085479274 0.54791987
-0.21521217 -0.084898882 0.54612499
-0.20519269 -0.085055828 0.54308909
-0.19645458 -0.084428929 0.54059112
-0.22098304 -0.078059234 0.54902244
-0.21401429 -0.075273328 0.54784638
-0.20496638 -0.075067863 0.54478437
-0.19515708 -0.074983142 0.54131705
-0.18873526 -0.071626008 0.54002476
-0.211152 -0.067852274 0.54902303
-0.20426641 -0.065104872 0.54721272
-0.19487233 -0.065942034 0.54253638
-0.1870231 -0.066100657 0.54007745
-0.20217332 -0.057152484 0.54864848
-0.19548243 -0.058378641 0.54344064
-0.20141307 -0.046099633 0.54902333
-0.1946186 -0.041615974 0.54820561
-0.18784355 -0.040231165 0.54702425
-0.1923497 -0.037324835 0.54857945
-0.185883 -0.034141902 0.54795277
-0.17961183 -0.030306457 0.54802471
-0.18408072 -0.025164755 0.5480814
-0.17725584 -0.023661003 0.54650301
-0.18164235 -0.017828934 0.5487743
-0.1748829 -0.014835642 0.54605103
-0.16761363 -0.012879576 0.5432018
-0.17249441 -0.0074500828 0.54812479
-0.16577661 -0.0051710596 0.54731941
-0.1432853 0.0075486684 0.54846418
-0.13510136 0.0079747848 0.54589689
-0.12491778 0.0081791123 0.54319471
-0.11600298 0.0085271308 0.54093784
-0.14282478 0.014345278 0.54862666
-0.13496159 0.01536059 0.54659879
-0.12500961 0.015273741 0.54359925
-0.11586347 0.015462434 0.54090965
-0.13387367 0.024311876 0.54819375
-0.12490499 0.025387391 0.54586124
-0.11492918 0.025033582 0.5423075
-0.10712676 0.027093282 0.54062909
-0.13179433 0.033495247 0.54902709
-0.12520243 0.035306904 0.54796499
-0.11484342 0.03525817 0.54582429
-0.10498112 0.035049874 0.5426482
-0.097622514 0.037522454 0.54052955
-0.12330362 0.041981086 0.54902762
-0.11473234 0.043671206 0.54849488
-0.10496852 0.045250013 0.54627389
-0.095031999 0.044988465 0.54190773
-0.089403287 0.047258906 0.54003
-0.10513446 0.055303775 0.54715115
-0.094898053 0.055036958 0.54293865
-0.08652027 0.055566158 0.54049677
-0.079826839 0.058800243 0.54003054
-0.10438237 0.064649604 0.54776549
-0.09482795 0.065075457 0.54533535
-0.084855296 0.065029018 0.54342139
-0.075627588 0.065531045 0.5413363
-0.066726357 0.067520164 0.54036468
-0.10118993 0.071236432 0.54902869
-0.094038852 0.07353238 0.54836255
-0.085111931 0.075231023 0.54686654
-0.074804299 0.074900553 0.54447961
-0.064557388 0.074534535 0.54184765
-0.058528647 0.076215833 0.54003179
-0.085511312 0.084052816 0.54805994
-0.075445153 0.080992408 0.54569715
-0.064680181 0.080335908 0.54288846
-0.31016117 -0.17069967 0.55401742
-0.30518556 -0.1742776 0.5514226
-0.29714721 -0.17255878 0.55041844
-0.30477637 -0.16470224 0.55383605
-0.29501107 -0.16504619 0.55201858
-0.28783026 -0.16374065 0.55035228
-0.31062174 -0.15431516 0.55744565
-0.30502778 -0.15537469 0.55615383
-0.29499447 -0.15481332 0.55401826
-0.2858806 -0.15472075 0.55110729
-0.31096366 -0.14384127 0.55839187
-0.30502844 -0.14513129 0.55751759
-0.29512641 -0.14512612 0.55563354
-0.28507289 -0.1448251 0.5525623
-0.27706766 -0.14341925 0.5502972
-0.31076378 -0.13872176 0.55901676
-0.30349994 -0.13803551 0.55866438
-0.2949619 -0.13549982 0.55788141
-0.28491813 -0.13500603 0.55570912
-0.27500522 -0.13513687 0.55322349
-0.26687524 -0.13384193 0.55114502
-0.2937994 -0.12577707 0.55832326
-0.28480583 -0.12509339 0.55670899
-0.27533171 -0.12474839 0.55516213
-0.26520163 -0.12502536 0.5520699
-0.25867903 -0.12240217 0.5500204
-0.2919687 -0.11877432 0.55885118
-0.28446338 -0.11663642 0.55815625
-0.2750679 -0.11492475 0.55650735
-0.26485333 -0.11488722 0.55350918
-0.25582212 -0.11444391 0.55113471
-0.24878953 -0.11124002 0.5503543
-0.27258605 -0.10743451 0.55866194
-0.26473206 -0.10500997 0.55741495
-0.25499785 -0.10518175 0.55502045
-0.24558356 -0.10474965 0.55191594
-0.23907636 -0.10066053 0.55002147
-0.26376411 -0.095147498 0.55850428
-0.25536022 -0.09442804 0.55623078
-0.24524342 -0.095297314 0.55280125
-0.23850159 -0.093782179 0.55020326
-0.2621246 -0.086040154 0.55857497
-0.25473419 -0.084493473 0.55667007
-0.24528551 -0.085403122 0.55419463
-0.23530711 -0.084752657 0.55136347
-0.22814713 -0.081569619 0.5501886
-0.25410518 -0.074927747 0.55774713
-0.24477296 -0.075422727 0.55502075
-0.23519751 -0.075216465 0.55271178
-0.22554161 -0.074499272 0.55085915
-0.21773906 -0.071809709 0.55002254
-0.25266054 -0.065300778 0.55851984
-0.24518611 -0.065383643 0.55653155
-0.23498692 -0.06542132 0.55437684
-0.22492136 -0.065045491 0.55253297
-0.21544792 -0.064645492 0.55124193
-0.20845599 -0.061689653 0.55022305
-0.25026062 -0.057856262 0.5590198
-0.2442822 -0.056032412 0.55831754
-0.2348122 -0.055378739 0.55671644
-0.22469024 -0.055407222 0.55468076
-0.21500921 -0.055048767 0.55268914
-0.20663004 -0.054446075 0.55045629
-0.24114977 -0.049479119 0.5590204
-0.23428847 -0.047114249 0.55865055
-0.22518303 -0.045144901 0.55704427
-0.21510455 -0.045054961 0.55427802
-0.20525119 -0.044804104 0.55116934
-0.19843249 -0.040926963 0.55002338
-0.224856 -0.035158493 0.5581736
-0.21495138 -0.035103399 0.55628419
-0.20538628 -0.034955204 0.55395138
-0.19643201 -0.03404833 0.5512355
-0.22361307 -0.028057791 0.55848795
-0.21440907 -0.026142653 0.5578506
-0.20485419 -0.02504468 0.55611575
-0.19472286 -0.024778057 0.5523805
-0.18824413 -0.021833003 0.55059522
-0.20365155 -0.015717752 0.55857432
-0.19521634 -0.014814086 0.5567376
-0.18572521 -0.014316299 0.55299604
-0.17898995 -0.011069369 0.55052435
-0.20118238 -0.0085633695 0.55902261
-0.194592 -0.0052902135 0.5583564
-0.18535991 -0.0044583948 0.55555707
-0.1757496 -0.0037383987 0.55154055
-0.1652025 -0.00030974569 0.55002517
-0.19308573 0.0057148011 0.55847758
-0.18506108 0.0054012858 0.5561071
-0.17475343 0.0056645637 0.55409086
-0.16514792 0.0054562301 0.55268407
-0.15479672 0.0061546839 0.55126381
-0.14807338 0.0071734106 0.55002636
-0.19219673 0.012922768 0.55868959
-0.18451162 0.014288797 0.55799013
-0.17495276 0.014784458 0.55664915
-0.1650207 0.015380615 0.55472499
-0.15509458 0.015527443 0.55233186
-0.14700526 0.016450187 0.55048084
-0.17304175 0.023602491 0.55877405
-0.16500115 0.024696797 0.55709803
-0.15498671 0.025106313 0.55502546
-0.14475608 0.025226183 0.55211926
-0.13731101 0.027714223 0.55033445
-0.17044516 0.031383462 0.55902416
-0.16476443 0.034615394 0.55828655
-0.15468727 0.03447425 0.5560661
-0.14482492 0.034661196 0.5537439
-0.13583328 0.036155354 0.55082673
-0.16381681 0.043310404 0.55854446
-0.15483133 0.044528536 0.55715281
-0.1450083 0.044546682 0.55509728
-0.13490592 0.045033034 0.55224085
-0.12499406 0.046086792 0.55073702
-0.11595354 0.048541769 0.550228
-0.15222263 0.051052444 0.55902517
-0.14438634 0.054451257 0.55776376
-0.13489209 0.054679643 0.55516946
-0.12524627 0.054623734 0.55371469
-0.11520681 0.055160742 0.55146039
-0.14221203 0.064525947 0.55865729
-0.13463016 0.065017611 0.55671364
-0.1246513 0.064651586 0.55416667
-0.11532955 0.064608514 0.55176592
-0.1083653 0.067604259 0.5500282
-0.14143856 0.072906032 0.55859697
-0.13478491 0.075274058 0.55693722
-0.12496071 0.074665278 0.55458254
-0.11498338 0.074699819 0.55341542
-0.10508498 0.075318635 0.55174619
-0.096253544 0.077067643 0.55036229
-0.13285406 0.082122013 0.55727607
-0.12489425 0.082265563 0.55580449
-0.11497437 0.08237952 0.55489695
-0.10452028 0.083678618 0.55266929
-0.095222518 0.084722601 0.55082381
-0.089898415 0.08713565 0.55002922
-0.095088579 0.090168536 0.55102873
-0.31191549 -0.13386245 0.56188321
-0.30553409 -0.13336894 0.56081021
-0.31296209 -0.12531903 0.56430215
-0.30518299 -0.12484618 0.56215996
-0.29866222 -0.12388732 0.56001741
-0.31339809 -0.11525986 0.56627536
-0.30506542 -0.1148348 0.56391656
-0.29547605 -0.11457248 0.5617674
-0.28651139 -0.11211611 0.56076807
-0.31378219 -0.10525128 0.56712312
-0.30460265 -0.10489169 0.56517988
-0.29477817 -0.10480493 0.56470799
-0.28504786 -0.10476658 0.56306368
-0.27647114 -0.10426871 0.56098425
-0.26969987 -0.10102298 0.5600192
-0.31333813 -0.096908607 0.56806582
-0.30458093 -0.095050529 0.56677842
-0.29507267 -0.094629489 0.56590098
-0.28537852 -0.09452413 0.56442273
-0.27543578 -0.095569387 0.56186485
-0.26908991 -0.095304996 0.56001908
-0.30147183 -0.089287728 0.56901652
-0.29392084 -0.086115249 0.56838745
-0.2849257 -0.0846821 0.56680346
-0.27521113 -0.085375741 0.56372583
-0.26670572 -0.084119432 0.56089413
-0.28413695 -0.075010501 0.5688563
-0.27514583 -0.075552553 0.5669207
-0.26535055 -0.075164899 0.5631904
-0.25928092 -0.073334962 0.56039447
-0.28331265 -0.065833956 0.56870168
-0.27510712 -0.065290198 0.56666106
-0.26477116 -0.064801261 0.5633359
-0.25705317 -0.063841298 0.56040835
-0.28143722 -0.059625082 0.56901747
-0.27450949 -0.05677484 0.56790262
-0.26506662 -0.054921005 0.56524944
-0.25523472 -0.054396927 0.56173736
-0.2484757 -0.052029021 0.56016272
-0.26336747 -0.045927402 0.5678882
-0.25474474 -0.04468035 0.56473714
-0.2451499 -0.044964369 0.5614199
-0.2364687 -0.04256675 0.56042057
-0.25370494 -0.036345046 0.5683049
-0.24483006 -0.035630714 0.56544095
-0.23502293 -0.035611633 0.5614565
-0.24437907 -0.025453169 0.56761962
-0.23471612 -0.025276465 0.56370324
-0.22525467 -0.023497412 0.56142849
-0.21639797 -0.021631524 0.56042171
-0.24335811 -0.015109685 0.56815743
-0.235056 -0.015061042 0.56630599
-0.22515908 -0.014831378 0.5648253
-0.21495537 -0.014951683 0.56199723
-0.20757791 -0.013346124 0.56002229
-0.24247217 -0.0086033735 0.56881946
-0.23457274 -0.0071730469 0.56822002
-0.22483626 -0.0049550361 0.56697071
-0.21477436 -0.0047063963 0.56345016
-0.20533341 -0.004388819 0.56107354
-0.19882217 -0.0024152573 0.5601337
-0.22203091 0.0028240641 0.56846523
-0.2147796 0.0048247552 0.56666821
-0.20460941 0.0050693103 0.56353438
-0.19750251 0.005535882 0.56030834
-0.21354674 0.014500604 0.56802124
-0.20491116 0.014738631 0.56415021
-0.19565393 0.016079174 0.56077248
-0.18649039 0.018308695 0.56014818
-0.21317393 0.02417334 0.56832546
-0.20504643 0.024845481 0.56590545
-0.19488464 0.02452722 0.56385225
-0.18491693 0.024599079 0.56202328
-0.17719094 0.025906188 0.56021416
-0.2102071 0.030843075 0.56902117
-0.20377627 0.033232905 0.5683853
-0.19508512 0.035146978 0.56664115
-0.18505512 0.035065729 0.56377292
-0.17510386 0.034885079 0.5608809
-0.19298737 0.042030111 0.56880009
-0.18466793 0.044638529 0.56696403
-0.17491658 0.045176603 0.56285685
-0.16650589 0.047324345 0.56035751
-0.15870008 0.049320627 0.56002474
-0.18294926 0.052370604 0.56856829
-0.17485587 0.054927371 0.56613761
-0.16508825 0.054618549 0.5634715
-0.1554888 0.055841982 0.56194788
-0.14876994 0.057785522 0.56002533
-0.17310953 0.064551726 0.5686233
-0.16487738 0.064546712 0.56685382
-0.15480842 0.065164641 0.56446922
-0.14687458 0.065709181 0.56107295
-0.17088477 0.071625836 0.56902337
-0.16413817 0.074157782 0.56844318
-0.15521371 0.075089075 0.56639659
-0.14615192 0.07509958 0.56212515
-0.13971186 0.079974256 0.56002557
-0.15365604 0.081544422 0.56839949
-0.14483328 0.083344288 0.56563377
-0.13874015 0.082602881 0.56052566
-0.31516448 -0.092410326 0.57061559
-0.30868906 -0.090928741 0.57001609
-0.32083315 -0.082841761 0.57581502
-0.31514248 -0.085519299 0.57364964
-0.30521473 -0.08497081 0.57144117
-0.29670474 -0.082539812 0.57021689
-0.32144186 -0.075658374 0.57826477
-0.31515342 -0.075404689 0.57661521
-0.30528697 -0.075325064 0.5739392
-0.29503739 -0.074703686 0.57092136
-0.28828478 -0.072967179 0.57001728
-0.31411999 -0.066483103 0.57813054
-0.30514735 -0.064856768 0.57639086
-0.2950553 -0.064515769 0.57301652
-0.28741711 -0.064017415 0.57028389
-0.30304819 -0.055450343 0.57858723
-0.29537836 -0.054569297 0.5766651
-0.28524148 -0.055324178 0.57276714
-0.27633277 -0.052366566 0.57073206
-0.30197582 -0.048089195 0.57901573
-0.29495057 -0.045334857 0.57757193
-0.285458 -0.045309823 0.57563621
-0.27510786 -0.045087881 0.57282722
-0.26685292 -0.042441193 0.57061833
-0.29395032 -0.035086211 0.57774025
-0.28518304 -0.034786489 0.57640821
-0.27509141 -0.034722008 0.57482255
-0.26500258 -0.034600686 0.57220876
-0.25612083 -0.032418761 0.57046896
-0.2922428 -0.028955057 0.57868284
-0.28420097 -0.02663718 0.57825482
-0.27540421 -0.025212042 0.57681721
-0.26551682 -0.02501633 0.57471251
-0.25517869 -0.024886899 0.57168549
-0.24922861 -0.023331579 0.5700193
-0.28033036 -0.015389783 0.57901675
-0.27505553 -0.015350011 0.57744569
-0.26573241 -0.015291878 0.57518452
-0.25546238 -0.015217369 0.57232815
-0.248574 -0.015160073 0.57009614
-0.27372766 -0.0064544277 0.57810408
-0.26501244 -0.0048019742 0.57642239
-0.25504711 -0.0047110114 0.57406729
-0.24551675 -0.0041867346 0.57176906
-0.23599851 -0.0021613601 0.57091981
-0.22916064 -0.00030392082 0.57002038
-0.26416478 0.0047237347 0.57790649
-0.25505355 0.0050170282 0.57622361
-0.24510483 0.0047927122 0.57541388
-0.23519093 0.0049354639 0.57385319
-0.22597122 0.0057656658 0.57105893
-0.2194989 0.0086094681 0.57002091
-0.26105264 0.010763311 0.57868439
-0.25392029 0.012357684 0.57801825
-0.24517009 0.014633158 0.5771938
-0.23484023 0.014592946 0.57506138
-0.22479951 0.01461051 0.57216322
-0.21883667 0.014559953 0.57023513
-0.24284065 0.022516999 0.57809031
-0.23443545 0.024930572 0.57630146
-0.22495563 0.025300605 0.57318228
-0.21776538 0.025719432 0.57046521
-0.2319366 0.034828529 0.57825029
-0.22492202 0.034731392 0.57526249
-0.21483178 0.03509561 0.5716154
-0.20634308 0.037718635 0.57044995
-0.23091732 0.042872965 0.57864445
-0.22473569 0.045038272 0.57675666
-0.2152395 0.044805616 0.57454443
-0.20504351 0.045140978 0.57285917
-0.19579822 0.046046801 0.57091087
-0.18927167 0.048228174 0.57002246
-0.22324657 0.0519966 0.57821977
-0.21456899 0.054408804 0.57737327
-0.20476788 0.055020913 0.57571012
-0.19471647 0.055106588 0.57338774
-0.18602906 0.055941809 0.57109404
-0.17936167 0.05912286 0.570023
-0.21162671 0.060819775 0.5790205
-0.20476462 0.064977281 0.57731491
-0.19524235 0.064914666 0.57521611
-0.18520918 0.065125056 0.57247251
-0.17797285 0.065964021 0.57033879
-0.20373936 0.073841579 0.57806253
-0.1955054 0.074766263 0.57599765
-0.18565406 0.07510598 0.57374728
-0.17549288 0.075075038 0.57141191
-0.16684043 0.078287773 0.57013476
-0.20029947 0.081949376 0.57902098
-0.1941359 0.084880896 0.57718354
-0.18467565 0.085128389 0.57502198
-0.17497304 0.085151315 0.57384485
-0.16487086 0.084979191 0.57182854
-0.15534618 0.086447477 0.5718174
-0.14790782 0.087883465 0.57073915
-0.19287702 0.093431026 0.57827133
-0.18506655 0.095074184 0.57624412
-0.17521837 0.09391851 0.57462871
-0.16529694 0.092529796 0.57396781
-0.15543976 0.091864683 0.57502419
-0.14734833 0.090742655 0.57269144
-0.19123556 0.10624957 0.57902122
-0.18613796 0.10388931 0.57708824
-0.1912341 0.11138184 0.57902116
-0.18972459 0.11138141 0.57902122
-0.32266518 -0.07185597 0.58001465
-0.32214749 -0.065158166 0.58076453
-0.31632724 -0.062046632 0.58018154
-0.3234061 -0.054730557 0.58405423
-0.3150062 -0.054896463 0.5814898
-0.30756572 -0.054166097 0.58001536
-0.32406291 -0.044346318 0.58660769
-0.31518883 -0.044621728 0.58442485
-0.30530381 -0.044537582 0.58115333
-0.3244282 -0.03516487 0.58831
-0.31540728 -0.03485807 0.58687925
-0.30473161 -0.035206977 0.58235812
-0.29882234 -0.033779893 0.58015859
-0.32171988 -0.028236475 0.58901387
-0.31447235 -0.025308713 0.58759016
-0.30509037 -0.024658348 0.58430076
-0.29549262 -0.024199499 0.58165675
-0.28703031 -0.022987243 0.58034974
-0.31221071 -0.017689699 0.5888477
-0.30489412 -0.014830517 0.58707052
-0.295068 -0.014762113 0.58428228
-0.2858288 -0.015310263 0.58116353
-0.30459806 -0.0061293575 0.58817595
-0.29502425 -0.0051111393 0.58629739
-0.28490174 -0.0046419161 0.58269185
-0.27679676 -0.0026604629 0.58051676
-0.29288462 0.0036343446 0.58832794
-0.28504917 0.0051749693 0.5859192
-0.27476391 0.0049049319 0.58184534
-0.26844865 0.0076433499 0.58026719
-0.28401342 0.012606603 0.58780539
-0.27494362 0.014803769 0.58560002
-0.26521206 0.01524782 0.58238578
-0.25564018 0.017140547 0.58058941
-0.27292776 0.02484848 0.58792567
-0.2648938 0.024859233 0.58495045
-0.25534281 0.024745876 0.5822956
-0.24602722 0.026462812 0.58073854
-0.23921886 0.029178601 0.580019
-0.27299923 0.034660622 0.58801639
-0.26491719 0.035015061 0.58555752
-0.25512701 0.034551337 0.58399642
-0.24512661 0.034994472 0.58286446
-0.2368782 0.035802398 0.58076906
-0.27161428 0.042912673 0.58851635
-0.26493335 0.044571944 0.58741081
-0.25511146 0.044917002 0.58591229
-0.24498591 0.044864748 0.58388317
-0.23586649 0.045628093 0.58107781
-0.26211336 0.054583937 0.58840805
-0.25423956 0.054762416 0.58677918
-0.24496889 0.054964721 0.58439308
-0.23535553 0.055268746 0.58238727
-0.22585818 0.056007266 0.58082718
-0.21775739 0.058305584 0.58027011
-0.26094326 0.06159303 0.58868343
-0.25392425 0.063733429 0.58755565
-0.24473977 0.064624533 0.58601803
-0.23483101 0.064824551 0.5851981
-0.22530212 0.064912684 0.58391672
-0.21573654 0.06515865 0.58127654
-0.20972168 0.068484671 0.58002055
-0.24270104 0.072323203 0.58861792
-0.2346922 0.074836157 0.58740884
-0.22506455 0.07511498 0.58451921
-0.21523453 0.075044304 0.58171225
-0.207674 0.076626338 0.58022052
-0.23401703 0.084472418 0.58775169
-0.22481683 0.08529716 0.58562881
-0.21510985 0.08491841 0.5838055
-0.20507549 0.085473105 0.58122641
-0.19913115 0.088894941 0.58002096
-0.23254216 0.09131404 0.58858979
-0.22457966 0.095168255 0.58786732
-0.21518365 0.095276229 0.58668613
-0.20504341 0.094832852 0.58356321
-0.19693342 0.096041553 0.58083916
-0.2227556 0.10296672 0.5888046
-0.21481444 0.10458913 0.58807659
-0.20492458 0.10511228 0.58550793
-0.19552466 0.10490461 0.58140552
-0.21313848 0.11412528 0.58826929
-0.20511793 0.11461683 0.58547455
-0.19625892 0.11200713 0.58160406
-0.21205637 0.12340588 0.58864433
-0.20890276 0.12250191 0.58768624
-0.32718885 -0.031051684 0.5900135
-0.32483891 -0.024177426 0.5905652
-0.31846976 -0.021312455 0.59001398
-0.32471186 -0.014962145 0.59251338
-0.31568211 -0.014211517 0.59055579
-0.33083957 -0.0033995528 0.59661269
-0.32505196 -0.0051444392 0.59409422
-0.3149381 -0.0046764123 0.59101391
-0.30600587 -0.0010635485 0.59011459
-0.33105481 0.0040432643 0.59856808
-0.32459757 0.0052834963 0.59685171
-0.31491145 0.0052265339 0.59398246
-0.30531943 0.0050170729 0.59183806
-0.29724872 0.0061029242 0.59038353
-0.32313678 0.012712251 0.59867966
-0.31493115 0.015136439 0.59695631
-0.30499223 0.015077608 0.59406435
-0.29509071 0.015140072 0.59199005
-0.28610998 0.017644595 0.59081566
-0.27949107 0.019694177 0.59001619
-0.31394291 0.022632211 0.59862888
-0.30496278 0.02491485 0.59714323
-0.2950865 0.025299637 0.59509796
-0.2852948 0.025185296 0.59248233
-0.27855989 0.025312839 0.59037334
-0.30224839 0.034681734 0.59872007
-0.29471281 0.034655314 0.59591484
-0.28532901 0.035229232 0.59255821
-0.27863622 0.035582248 0.59045339
-0.30264989 0.044756427 0.59866613
-0.29501337 0.044798192 0.59652859
-0.28525516 0.045528021 0.5935446
-0.27572003 0.045562867 0.59065884
-0.26871556 0.048916277 0.59001642
-0.30144212 0.051753033 0.59901386
-0.29425335 0.054539919 0.59749717
-0.28493354 0.054607555 0.59466016
-0.27485606 0.05512964 0.59184521
-0.2673853 0.055483844 0.59012163
-0.2924031 0.062330931 0.59876436
-0.28510964 0.06503164 0.59666348
-0.27519301 0.065388188 0.59404349
-0.26538396 0.065311998 0.59128302
-0.25750273 0.067878939 0.59041691
-0.28166872 0.071888611 0.59876502
-0.27434406 0.073573679 0.59801555
-0.264927 0.07497061 0.59533983
-0.25462854 0.074525684 0.59201694
-0.24598177 0.076556258 0.59057325
-0.2633698 0.083221182 0.59820366
-0.25514221 0.084991127 0.59556222
-0.24528341 0.085115232 0.59186602
-0.23922326 0.086336553 0.59001791
-0.25421846 0.095049024 0.5978803
-0.24516824 0.095093891 0.59392893
-0.23518154 0.095687144 0.59056646
-0.22819607 0.099151462 0.59001857
-0.2603032 0.10743942 0.59901595
-0.25504375 0.10503544 0.59791297
-0.24508536 0.10487294 0.59466708
-0.23480943 0.10501435 0.59141278
-0.22591005 0.1062357 0.59001851
-0.21947697 0.10889069 0.59001899
-0.25389168 0.11338725 0.59847468
-0.24518731 0.1154297 0.59710526
-0.23503546 0.11503685 0.59401768
-0.22507136 0.11431987 0.5911656
-0.21816954 0.11584572 0.5901857
-0.24234039 0.12148896 0.59901702
-0.23434563 0.12401097 0.59775674
-0.22483408 0.12475698 0.5941897
-0.21676794 0.12492506 0.59080839
-0.23091933 0.1319721 0.59876776
-0.22504273 0.13431793 0.59678733
-0.2192241 0.13352129 0.59351861
-0.33219948 0.0085708685 0.60001236
-0.33231658 0.015004368 0.60176229
-0.32662627 0.015821522 0.60048324
-0.33298841 0.025298091 0.60405368
-0.3249121 0.024712054 0.60228759
-0.31586125 0.026927849 0.60082275
-0.30846924 0.029420577 0.60001379
-0.33309075 0.035041783 0.60434514
-0.32483175 0.034968816 0.60303938
-0.31502035 0.035200801 0.60207194
-0.30749896 0.035053641 0.60036665
-0.33359548 0.044722486 0.60672003
-0.32494655 0.04461924 0.60448098
-0.31491324 0.044680815 0.60204148
-0.30765098 0.044888437 0.60013133
-0.33214101 0.050507665 0.60901159
-0.32427096 0.053383373 0.60805762
-0.31524929 0.055257924 0.60595727
-0.30545837 0.055725962 0.60229349
-0.29860634 0.057886887 0.60001397
-0.32075956 0.06055985 0.60901219
-0.31382176 0.064990684 0.60838777
-0.30505034 0.065169513 0.60539263
-0.29640231 0.06531316 0.60141402
-0.31109712 0.074317157 0.60901272
-0.30510369 0.074906282 0.60734653
-0.29503804 0.074686937 0.60383213
-0.28537601 0.07594683 0.60181451
-0.27641544 0.077894092 0.60080099
-0.30422059 0.084148444 0.60854638
-0.2947959 0.08475896 0.60628647
-0.2853305 0.08525265 0.60404211
-0.27510738 0.085273214 0.60234857
-0.26689476 0.086900257 0.60094917
-0.30169854 0.090720713 0.60901314
-0.29453453 0.094090186 0.60819227
-0.28478396 0.095343411 0.60598403
-0.27491459 0.094993502 0.60423726
-0.26518196 0.094701424 0.60256135
-0.25868052 0.095934734 0.60031623
-0.29005235 0.10130206 0.6090138
-0.28484187 0.10506381 0.6082899
-0.27531502 0.10461518 0.60537845
-0.26544198 0.10504862 0.60180515
-0.25917506 0.10136141 0.60001612
-0.28443661 0.11469059 0.60860014
-0.27503362 0.11495174 0.60566175
-0.26492929 0.11499024 0.60210633
-0.25706673 0.11704242 0.60021603
-0.28219143 0.12129484 0.60876399
-0.2744858 0.12486474 0.60809147
-0.26490226 0.12486033 0.60498494
-0.25489572 0.1247047 0.60231018
-0.24544869 0.12535991 0.60129255
-0.237427 0.12803325 0.60041732
-0.27138785 0.1326538 0.60901463
-0.26459572 0.13474353 0.60781509
-0.25483972 0.13473046 0.60555863
-0.24485254 0.13458474 0.60404444
-0.23544365 0.13566618 0.60186917
-0.22944401 0.13811247 0.60001767
-0.26146233 0.14098641 0.60901523
-0.25466809 0.14385782 0.60824645
-0.24538487 0.14441372 0.60627341
-0.23623247 0.14345874 0.60372299
-0.22866121 0.14045861 0.60001773
-0.25193301 0.15178005 0.60901576
-0.24834958 0.1506581 0.60801601
-0.33745757 0.049001683 0.61001122
-0.34065247 0.057358999 0.61434412
-0.33534497 0.054996524 0.61201131
