# .PCD v0.7 - Point Cloud Data file format
VERSION 0.7
FIELDS x y z
SIZE 4 4 4
TYPE F F F
COUNT 1 1 1
WIDTH 1388
HEIGHT 1
VIEWPOINT 0 0 0 1 0 0 0
POINTS 1388
DATA ascii
0.048746541 -0.041389637 0.54232788
0.05001168 -0.041370962 0.54263043
0.045928195 -0.04012765 0.54266143
0.047467977 -0.040107682 0.54200137
0.048733115 -0.040089007 0.5423038
0.049998239 -0.040070329 0.54260629
0.048719674 -0.038788375 0.54227972
0.049984798 -0.038769696 0.54258215
0.047168925 -0.037502456 0.5429163
0.048706234 -0.037487742 0.54225564
0.049971357 -0.037469067 0.54255807
0.04715547 -0.03619922 0.5428921
0.048692793 -0.036187109 0.5422315
0.049957931 -0.036168434 0.54253399
0.04994449 -0.034867801 0.54250991
0.084475592 -0.13794363 0.54317403
0.083015926 -0.13688317 0.54383606
0.077782497 -0.13330805 0.54355448
0.075055003 -0.13225065 0.54391313
0.07106486 -0.13120669 0.54396975
0.11017504 -0.13132955 0.54304832
0.10753865 -0.12902734 0.54340875
0.10876828 -0.12900917 0.54370272
0.065791123 -0.12888607 0.54369873
0.067280881 -0.12868696 0.54302371
0.10999793 -0.12899102 0.54399669
0.10365984 -0.12673303 0.54347193
0.10489201 -0.12671484 0.54376656
0.057716012 -0.12547264 0.54376799
0.10241458 -0.12548447 0.54315388
0.10364675 -0.12546629 0.54344845
0.10487892 -0.12544809 0.54374313
0.055182502 -0.12421443 0.54314148
0.052386209 -0.12312417 0.54348308
0.099752598 -0.12315918 0.54350781
0.10098731 -0.12314095 0.54380298
0.098504774 -0.12190805 0.54318905
0.099739484 -0.12188981 0.54348427
0.094592735 -0.11958818 0.54324389
0.095829979 -0.11956991 0.54353976
0.097067222 -0.11955165 0.54383552
0.09066537 -0.1172581 0.54329491
0.091905154 -0.1172398 0.54359138
0.089220524 -0.11615831 0.54395986
0.085480377 -0.11493616 0.54304504
0.086722694 -0.11491781 0.54334211
0.084022768 -0.11382874 0.54370683
0.082764693 -0.11256734 0.54338551
0.081506625 -0.11130594 0.54306412
0.080038771 -0.11018825 0.54372323
0.078778133 -0.10892428 0.54340124
0.077517502 -0.10766031 0.54307926
0.076026112 -0.10524734 0.5437119
0.073512994 -0.10399924 0.54309046
0.074762911 -0.10398079 0.54338932
0.073499717 -0.10271425 0.54306662
0.072011329 -0.1015734 0.54372042
0.069493115 -0.10032278 0.54309767
0.066726185 -0.097902581 0.54342496
0.067981176 -0.097884052 0.54372501
0.065457858 -0.096630901 0.54310101
0.06269148 -0.095490664 0.54344898
0.063949004 -0.095472097 0.54374963
0.061420597 -0.094216421 0.54312432
0.058641456 -0.093068555 0.54346919
0.059901521 -0.093049951 0.54377043
0.05736801 -0.091791742 0.54314387
0.058628075 -0.091773137 0.54344511
0.059888132 -0.091754533 0.54374641
0.057354629 -0.090496324 0.54311991
0.055811897 -0.088021554 0.54373932
0.055798471 -0.086723529 0.54371524
0.05578506 -0.085425496 0.54369116
0.057047665 -0.085406855 0.54399306
0.054509059 -0.084146112 0.54336524
0.055771649 -0.084127471 0.54366714
0.057034254 -0.084108829 0.54396904
0.053233057 -0.082866728 0.54303932
0.054495648 -0.082848087 0.54334116
0.055758238 -0.082829446 0.54364312
0.053219646 -0.081568703 0.54301524
0.052945092 -0.080352575 0.54395843
0.049136251 -0.079107977 0.5430268
0.05040139 -0.079089299 0.54332936
0.051666513 -0.079070628 0.54363179
0.052931651 -0.079051942 0.54393429
0.04912281 -0.077807337 0.54300272
0.050387949 -0.077788666 0.54330522
0.049758121 -0.042677984 0.54361904
0.050971925 -0.037446316 0.54382551
0.05095847 -0.036143076 0.54380137
0.048409671 -0.034877267 0.54317105
0.050944999 -0.034839839 0.54377723
0.049663872 -0.033555314 0.54345
0.090753146 -0.1442378 0.54477751
0.086803369 -0.14194717 0.54482383
0.081551149 -0.13581756 0.54449672
0.078831315 -0.1347653 0.54485726
0.080290519 -0.1345536 0.54417473
0.073583074 -0.13245732 0.5445925
0.068314441 -0.13013922 0.54432273
0.11001098 -0.13025516 0.54402018
0.063025415 -0.12781098 0.54404789
0.10613727 -0.12796339 0.54408467
0.10736944 -0.12794521 0.54437923
0.10860161 -0.12792702 0.54467386
0.10983379 -0.12790883 0.54496849
0.060249515 -0.12673086 0.54439455
0.10612418 -0.12669665 0.54406118
0.10735635 -0.12667847 0.54435575
0.056200817 -0.12566429 0.54443681
0.10223513 -0.12439208 0.54412174
0.10346984 -0.12437385 0.5444169
0.10470454 -0.12435562 0.54471219
0.10222201 -0.12312272 0.54409826
0.10345672 -0.1231045 0.54439342
0.10080524 -0.12204078 0.54477012
0.098317601 -0.12080534 0.54415494
0.099554852 -0.12078708 0.54445076
0.1007921 -0.12076881 0.54474652
0.09439788 -0.11847775 0.54420781
0.095637664 -0.11845946 0.54450428
0.096877441 -0.11844115 0.54480064
0.092960663 -0.11738046 0.54487455
0.087770537 -0.11505339 0.54462349
0.085267618 -0.11381036 0.54400444
0.083807424 -0.11269778 0.54466546
0.082546793 -0.1114338 0.54434347
0.079815701 -0.10904696 0.54467988
0.078552507 -0.10778043 0.54435724
0.077289306 -0.10651389 0.5440346
0.077061065 -0.10536224 0.54498982
0.075795308 -0.10409313 0.54466653
0.074529544 -0.10282402 0.54434323
0.073041134 -0.10168056 0.54499698
0.070517816 -0.10042741 0.54437298
0.071772806 -0.10040888 0.54467309
0.073027797 -0.10039035 0.54497313
0.069249496 -0.099155731 0.54404902
0.070504487 -0.099137209 0.54434907
0.069236167 -0.097865522 0.54402506
0.066477418 -0.096727788 0.54437494
0.067734942 -0.096709222 0.54467559
0.065206535 -0.095453531 0.54405034
0.062435031 -0.094308175 0.544397
0.063695088 -0.094289571 0.54469824
0.064955153 -0.094270974 0.54499948
0.061161578 -0.093031347 0.54407167
0.062421642 -0.09301275 0.54437298
0.063681707 -0.092994146 0.54467428
0.061148196 -0.091735929 0.54404771
0.058363907 -0.090580329 0.54439116
0.059626505 -0.090561688 0.54469299
0.060889103 -0.090543047 0.54499489
0.057087898 -0.089300938 0.54406524
0.058350496 -0.089282304 0.54436707
0.059613094 -0.089263663 0.54466897
0.060875691 -0.089245021 0.54497087
0.057074487 -0.088002913 0.54404116
0.058337085 -0.087984279 0.54434305
0.057061076 -0.086704887 0.54401708
0.058323674 -0.086686254 0.54431897
0.058310263 -0.085388221 0.54429495
0.056767359 -0.082897812 0.54491407
0.054223657 -0.081634529 0.54428494
0.055488795 -0.08161585 0.54458749
0.056753919 -0.081597179 0.54488993
0.054210216 -0.080333903 0.54426086
0.055475354 -0.080315225 0.54456335
0.054680675 -0.028267501 0.5445658
0.055934876 -0.026945548 0.54484469
0.076101288 -0.13370793 0.54521525
0.072106071 -0.13266405 0.54527074
0.069353119 -0.1315966 0.54562306
0.066589974 -0.1305241 0.54597294
0.064056471 -0.12926589 0.54534638
0.06127803 -0.12818579 0.54569244
0.1084349 -0.12683964 0.54564482
0.10966961 -0.12682141 0.54594004
0.10595237 -0.12560675 0.54503089
0.10718708 -0.12558851 0.54532611
0.10593925 -0.1243374 0.54500735
0.10453011 -0.12325794 0.54568112
0.10576735 -0.12323967 0.545977
0.10204248 -0.12202252 0.54506594
0.10327972 -0.12200425 0.54536176
0.10451697 -0.12198599 0.54565758
0.10202934 -0.12075055 0.5450424
0.09813039 -0.11969741 0.54512072
0.099370167 -0.11967911 0.54541713
0.10060994 -0.11966081 0.54571354
0.094202973 -0.11736213 0.54517162
0.090273462 -0.11629641 0.54524243
0.091518313 -0.11627804 0.54554009
0.092763163 -0.11625966 0.5458377
0.088823467 -0.11518889 0.54590595
0.086315446 -0.11394333 0.5452857
0.084855214 -0.11282814 0.54594672
0.083592013 -0.1115616 0.54562408
0.081078902 -0.11031351 0.54500258
0.08085835 -0.10916958 0.54595971
0.079592586 -0.10790046 0.54563642
0.078326829 -0.10663135 0.54531312
0.076832764 -0.10420539 0.54594499
0.075564444 -0.10293372 0.54562104
0.076819435 -0.10291519 0.54592109
0.074296124 -0.10166204 0.54529703
0.071534239 -0.099239156 0.54562551
0.072791763 -0.099220589 0.54592615
0.070263356 -0.097964913 0.54530084
0.068762109 -0.096805997 0.54595137
0.066228598 -0.09554778 0.5453248
0.067488663 -0.095529176 0.54562604
0.06874872 -0.095510572 0.54592735
0.066215217 -0.09425237 0.54530078
0.064703718 -0.093083173 0.54594862
0.062165111 -0.09182243 0.54532087
0.063427709 -0.091803789 0.54562271
0.064690307 -0.091785148 0.54592454
0.0621517 -0.090524405 0.54529679
0.059351385 -0.088062987 0.54561543
0.060616516 -0.088044316 0.54591787
0.059337944 -0.086762354 0.54559135
0.060603075 -0.086743683 0.54589379
0.059324503 -0.085461721 0.54556721
0.060589641 -0.085443042 0.54586971
0.058045939 -0.084179759 0.54524064
0.05931107 -0.084161088 0.54554313
0.0605762 -0.084142409 0.54584563
0.058032498 -0.082879134 0.54521656
0.059297629 -0.082860455 0.54551899
0.06056276 -0.082841784 0.54582155
0.058019057 -0.081578501 0.54519248
0.059284188 -0.081559822 0.54549491
0.055734202 -0.032143854 0.54590857
0.054450497 -0.03085676 0.54558063
0.055720702 -0.030838009 0.54588437
0.054437011 -0.029550916 0.54555643
0.055707216 -0.029532164 0.54586017
0.053153321 -0.028263822 0.54522854
0.053139821 -0.026957976 0.5452044
0.054410025 -0.026939224 0.54550803
0.053126335 -0.025652131 0.5451802
0.05439654 -0.02563338 0.54548383
0.055666745 -0.025614627 0.54578757
0.057189077 -0.025623595 0.54512364
0.058456756 -0.025604881 0.54542673
0.054383039 -0.024327533 0.54545963
0.055639759 -0.023002937 0.54573917
0.055626258 -0.021697091 0.54571497
0.058416359 -0.021695165 0.54535425
0.059684023 -0.021676451 0.5456574
0.056882977 -0.020372495 0.54599446
0.056869477 -0.019066649 0.54597026
0.056855991 -0.017760806 0.54594606
0.094312131 -0.14567623 0.54668081
0.095556989 -0.14565787 0.54697841
0.096977919 -0.14542328 0.54628634
0.089128211 -0.14468378 0.54645252
0.085147299 -0.14109799 0.54647058
0.08241678 -0.13876587 0.546808
0.077152699 -0.13517034 0.5465188
0.074409947 -0.13410798 0.54687369
0.07039693 -0.13305914 0.54692471
0.11093055 -0.1293419 0.54628229
0.11091743 -0.12807254 0.54625881
0.11090432 -0.12680319 0.5462352
0.10826812 -0.12574707 0.54661572
0.10950537 -0.12572882 0.5469116
0.10701774 -0.12449338 0.54629636
0.10825498 -0.12447511 0.54659218
0.10949223 -0.12445685 0.54688799
0.1070046 -0.12322141 0.54627275
0.10824184 -0.12320314 0.54656863
0.1055954 -0.12213674 0.54694647
0.10310268 -0.12089878 0.54632998
0.10434245 -0.12088047 0.54662645
0.10558224 -0.12086217 0.54692286
0.10184973 -0.1196425 0.54600996
0.097943112 -0.11858428 0.54608631
0.09918543 -0.11856594 0.54638338
0.10042774 -0.1185476 0.54668039
0.095266081 -0.11750268 0.54645669
0.096510932 -0.1174843 0.54675436
0.094008014 -0.11624128 0.54613531
0.090070851 -0.11517048 0.54620421
0.087368332 -0.11407623 0.54656827
0.088618249 -0.11405777 0.54686707
0.084642321 -0.11168931 0.54690588
0.082124107 -0.11043869 0.54628307
0.080637731 -0.10802044 0.5469169
0.079369411 -0.10674876 0.54659295
0.080624402 -0.10673023 0.546893
0.078101084 -0.10547708 0.54626894
0.078087755 -0.10418687 0.5462451
0.075333536 -0.10176909 0.54657543
0.07659106 -0.10175052 0.54687607
0.074062645 -0.10049485 0.54625082
0.071295612 -0.098064214 0.54657793
0.072555676 -0.09804561 0.54687917
0.070022166 -0.096787401 0.54625261
0.07128223 -0.096768796 0.54655385
0.067242324 -0.09434393 0.54657644
0.068504922 -0.094325289 0.54687834
0.065966316 -0.093064539 0.54625052
0.067228913 -0.093045898 0.54655242
0.065952905 -0.091766514 0.5462265
0.063173659 -0.090608217 0.54657108
0.06443879 -0.090589538 0.54687357
0.061895087 -0.089326262 0.5462445
0.063160218 -0.089307591 0.54654694
0.064425349 -0.089288905 0.54684949
0.061881647 -0.08802563 0.54622042
0.063146777 -0.088006958 0.54652286
0.064411908 -0.08798828 0.54682535
0.061868206 -0.086724997 0.54619628
0.063133344 -0.086706325 0.54649878
0.061854772 -0.085424364 0.5461722
0.063119903 -0.085405692 0.5464747
0.061841331 -0.084123731 0.54614806
0.063106462 -0.08410506 0.54645061
0.057004407 -0.0321251 0.5462122
0.056990907 -0.030819256 0.546188
0.058261111 -0.030800506 0.54649174
0.056977421 -0.029513411 0.5461638
0.058247626 -0.02949466 0.54646754
0.059517823 -0.029475909 0.54677123
0.05950433 -0.028170064 0.54674703
0.05822064 -0.026882969 0.54641914
0.059490837 -0.026864218 0.54672283
0.059477344 -0.025558373 0.54669863
0.056923449 -0.024290029 0.54606706
0.058193654 -0.02427128 0.54637074
0.059463859 -0.024252526 0.54667443
0.060734056 -0.024233775 0.54697812
0.056909963 -0.022984184 0.54604286
0.058180153 -0.022965433 0.54634655
0.059450366 -0.022946682 0.54665023
0.060720563 -0.022927929 0.54695392
0.056896463 -0.02167834 0.54601866
0.060707077 -0.021622084 0.54692972
0.058153182 -0.020353742 0.54629815
0.05942338 -0.020334993 0.54660189
0.060693584 -0.020316239 0.54690552
0.058139682 -0.019047897 0.54627395
0.059409887 -0.019029144 0.54657769
0.060680091 -0.019010393 0.54688132
0.058126196 -0.017742053 0.54624975
0.059396394 -0.017723301 0.54655349
0.060666598 -0.01770455 0.54685712
0.058112696 -0.016436208 0.54622555
0.059382901 -0.016417455 0.54652929
0.060653105 -0.016398704 0.54683292
0.059369408 -0.01511161 0.54650509
0.060639612 -0.015092861 0.54680872
0.059355915 -0.013805766 0.54648089
0.060626119 -0.013787013 0.54678452
0.060612626 -0.012481168 0.54676032
0.092883617 -0.14591095 0.54737103
0.09804669 -0.14562111 0.54757369
0.08094433 -0.13769518 0.54746675
0.07967601 -0.1364235 0.54714286
0.07293044 -0.13431734 0.54755127
0.067631252 -0.13198668 0.54727399
0.11074261 -0.12571055 0.54720736
0.11197986 -0.12569228 0.54750317
0.10932791 -0.1233564 0.54785931
0.10683518 -0.12211844 0.54724288
0.10807496 -0.12210014 0.54753935
0.10292557 -0.1197881 0.54729813
0.10416788 -0.11976975 0.54759514
0.10150356 -0.11869058 0.54796857
0.097755782 -0.11746593 0.54705197
0.099000633 -0.11744755 0.54734957
0.09507364 -0.1163792 0.54742092
0.096321031 -0.11636079 0.54771918
0.091131374 -0.11530586 0.54748857
0.092381291 -0.1152874 0.54778743
0.085908078 -0.11295842 0.54722917
0.087160535 -0.11293992 0.54752862
0.083174378 -0.1105638 0.54756486
0.084429368 -0.11054527 0.54786491
0.08190605 -0.10929212 0.54724085
0.079146184 -0.10559183 0.54754925
0.080403715 -0.10557326 0.54784995
0.079132825 -0.10429902 0.54752529
0.077861942 -0.10302477 0.54720068
0.075102568 -0.10059924 0.5475297
0.076362632 -0.10058064 0.547831
0.073829122 -0.099322423 0.54720443
0.075089186 -0.099303827 0.54750574
0.072319537 -0.096865416 0.54783207
0.069780931 -0.09560468 0.54720426
0.071043521 -0.095586039 0.54750609
0.06976752 -0.094306655 0.54718018
0.068261065 -0.093134776 0.54782921
0.066982493 -0.091852814 0.54750264
0.068247624 -0.091834143 0.54780513
0.065703921 -0.090570867 0.547176
0.066969052 -0.090552181 0.54747856
0.068234183 -0.09053351 0.54778099
0.06569048 -0.089270234 0.54715192
0.066955619 -0.089251556 0.54745442
0.065677047 -0.087969601 0.54712784
0.060761042 -0.026845466 0.54702652
0.060747549 -0.025539622 0.54700232
0.061950296 -0.018991642 0.54718506
0.061936803 -0.017685797 0.54716086
0.063207008 -0.017667046 0.54746455
0.06192331 -0.016379952 0.54713666
0.063193515 -0.016361199 0.54744035
0.061909817 -0.015074108 0.54711246
0.063180022 -0.015055355 0.54741615
0.061896324 -0.013768259 0.54708827
0.063166529 -0.01374951 0.54739195
0.064436734 -0.013730757 0.54769564
0.061882831 -0.012462415 0.54706407
0.063153036 -0.012443665 0.54736775
0.064423241 -0.012424912 0.54767144
0.061869338 -0.01115657 0.54703987
0.063139543 -0.011137817 0.54734355
0.064409748 -0.011119068 0.54764724
0.061855853 -0.0098507255 0.54701567
0.06312605 -0.0098319724 0.54731935
0.064396255 -0.009813223 0.54762304
0.06566646 -0.0097944699 0.54792678
0.060327284 -0.0085019171 0.54765654
0.061600022 -0.0084831268 0.54796088
0.063112557 -0.0085261278 0.54729515
0.064382762 -0.0085073784 0.54759884
0.065652966 -0.0084886253 0.54790258
0.061586499 -0.0071746744 0.54793656
0.064369269 -0.00720153 0.54757464
0.065639473 -0.0071827807 0.54787838
0.064355776 -0.0058956854 0.54755044
0.06562598 -0.0058769323 0.54785419
0.091450013 -0.1461457 0.54806006
0.099120542 -0.14581886 0.54886222
0.086030953 -0.14407212 0.54878652
0.077997454 -0.13683379 0.5488044
0.075463951 -0.13557556 0.54817784
0.071445867 -0.1345268 0.54822773
0.11058085 -0.12461266 0.54817939
0.11182064 -0.12459436 0.54847586
0.11056769 -0.1233381 0.54815578
0.10916354 -0.12225074 0.54883063
0.10666571 -0.12101024 0.54821289
0.10790803 -0.12099191 0.5485099
0.10525133 -0.11991522 0.54888523
0.10274841 -0.1186722 0.54826617
0.10007643 -0.11758792 0.54863763
0.10132381 -0.11756951 0.54893589
0.093631208 -0.11526895 0.54808629
0.094881132 -0.1152505 0.54838514
0.089678749 -0.11419054 0.54815137
0.090931207 -0.11417205 0.54845083
0.088220999 -0.11307009 0.54881287
0.085697688 -0.11181695 0.54818887
0.086952679 -0.11179842 0.54848891
0.08295884 -0.10941458 0.54852313
0.08168795 -0.10814033 0.54819852
0.081674598 -0.10684751 0.54817456
0.08018297 -0.1044111 0.54880679
0.078909524 -0.10313428 0.54848158
0.080169588 -0.10311568 0.54878283
0.077636078 -0.10185746 0.54815626
0.078896135 -0.10183886 0.5484575
0.076134145 -0.099405549 0.54878581
0.073595539 -0.098144799 0.54815799
0.074858136 -0.098126166 0.54845989
0.073582128 -0.096846774 0.54813397
0.072083339 -0.095680013 0.54878485
0.070804767 -0.094398059 0.54845828
0.072069898 -0.09437938 0.54876077
0.069526196 -0.093116097 0.5481317
0.070791326 -0.093097419 0.5484342
0.072056457 -0.093078747 0.54873669
0.069512755 -0.091815464 0.54810762
0.070777893 -0.091796786 0.54841006
0.067976758 -0.08802934 0.54870754
0.067963295 -0.086726099 0.5486834
0.06668216 -0.085441574 0.54835618
0.065401025 -0.08415705 0.54802895
0.064226612 -0.01629626 0.54871494
0.06421309 -0.014987808 0.54869068
0.065472312 -0.013660569 0.5489707
0.065458789 -0.012352116 0.5489465
0.065445274 -0.011043664 0.54892224
0.066923171 -0.0084698722 0.54820621
0.062859237 -0.0071558841 0.5482409
0.066909678 -0.0071640275 0.54818201
0.062845722 -0.0058474354 0.54821664
0.066896185 -0.0058581792 0.54815781
0.064104937 -0.0045201927 0.54849672
0.065377675 -0.0045014061 0.548801
0.089822583 -0.14659694 0.54973459
0.087299272 -0.14534378 0.54911053
0.083292775 -0.1417349 0.54912204
0.081817791 -0.14066423 0.54978025
0.080544353 -0.13938741 0.54945493
0.079270899 -0.13811061 0.54912966
0.11166136 -0.12349124 0.54944831
0.1089991 -0.12113988 0.54980183
0.10649618 -0.11989685 0.54918283
0.10383184 -0.11881506 0.54955614
0.10507922 -0.11879665 0.5498544
0.09739425 -0.1164986 0.54900664
0.098644167 -0.11648014 0.54930544
0.099894091 -0.11646169 0.5496043
0.095954336 -0.1153857 0.54967248
0.097206786 -0.1153672 0.54997194
0.091999307 -0.11430472 0.54973698
0.089475989 -0.11305157 0.54911292
0.088015661 -0.11192594 0.54977369
0.085487247 -0.11067025 0.54914844
0.084016688 -0.10953697 0.54980665
0.082743242 -0.10826015 0.54948139
0.084003307 -0.10824155 0.54978263
0.082729861 -0.10696474 0.54945737
0.081456415 -0.10568791 0.54913211
0.079948761 -0.10194569 0.54973954
0.077410154 -0.10068494 0.54911172
0.078672752 -0.1006663 0.54941362
0.075905614 -0.098225243 0.54974055
0.074627042 -0.096943289 0.54941392
0.075892173 -0.09692461 0.54971641
0.07334847 -0.095661335 0.54908735
0.074613601 -0.095642664 0.54938984
0.075878732 -0.095623985 0.54969233
0.073335029 -0.094360702 0.54906327
0.071820155 -0.091882914 0.54968929
0.073087826 -0.091864198 0.54999232
0.069271356 -0.090617105 0.54905891
0.07053902 -0.09059839 0.549362
0.071806692 -0.090579674 0.54966509
0.073074356 -0.090560958 0.54996818
0.069257893 -0.089313865 0.54903477
0.070525557 -0.089295149 0.54933786
0.071793228 -0.089276433 0.54964095
0.073060893 -0.089257717 0.54994404
0.069244422 -0.088010624 0.54901063
0.070512094 -0.087991916 0.54931372
0.071779758 -0.0879732 0.54961681
0.073047429 -0.087954484 0.5499199
0.066731535 -0.012333326 0.54925078
0.066718012 -0.011024874 0.54922652
0.066704497 -0.0097164214 0.54920232
0.067963712 -0.0083891824 0.54948235
0.067950197 -0.0070807301 0.54945815
0.067936674 -0.0057722777 0.54943383
0.069209412 -0.0057534911 0.54973817
0.06665042 -0.0044826157 0.54910529
0.067923158 -0.0044638254 0.54940963
0.066636898 -0.0031741634 0.54908109
0.067909636 -0.003155373 0.54938537
0.10019945 -0.14601654 0.550152
0.085651517 -0.1457901 0.55078006
0.077587329 -0.13852617 0.55079019
0.11417238 -0.1260089 0.55008972
0.11415918 -0.12473173 0.55006605
0.1127601 -0.12364431 0.55074215
0.11025718 -0.12240128 0.55012316
0.11150202 -0.1223829 0.55042076
0.11274688 -0.12236453 0.55071843
0.11024395 -0.1211215 0.55009943
0.10758724 -0.12004221 0.55047464
0.10883463 -0.1200238 0.55077291
0.1024072 -0.11770978 0.55022585
0.10365713 -0.11769133 0.55052471
0.10490705 -0.11767288 0.55082357
0.10097747 -0.11659934 0.55089414
0.093254298 -0.1142862 0.55003703
0.094509289 -0.11426767 0.55033708
0.095764279 -0.11424914 0.55063713
0.090544075 -0.11318163 0.55039901
0.091801599 -0.11316306 0.55069971
0.086550198 -0.11079518 0.55043316
0.087810263 -0.11077658 0.55073446
0.085276753 -0.10951836 0.55010796
0.083790198 -0.10708188 0.55074143
0.082514189 -0.10580248 0.55041546
0.083776787 -0.10578384 0.55071735
0.08123818 -0.10452309 0.55008954
0.081224769 -0.10322507 0.55006552
0.079727888 -0.10077047 0.55069619
0.080993019 -0.1007518 0.55099869
0.077184185 -0.099507198 0.55006707
0.078449316 -0.099488519 0.55036962
0.079714447 -0.099469841 0.55067205
0.077170745 -0.098206565 0.55004299
0.078435875 -0.098187886 0.55034548
0.077157304 -0.096905932 0.55001891
0.076931223 -0.095717773 0.55097407
0.074382424 -0.094451964 0.55034375
0.075650088 -0.094433248 0.55064678
0.07691776 -0.094414532 0.55094993
0.07310129 -0.093167439 0.55001652
0.074368954 -0.093148723 0.55031955
0.075636625 -0.093130007 0.5506227
0.076904289 -0.093111292 0.55092573
0.074355491 -0.091845483 0.55029547
0.075623162 -0.091826767 0.5505985
0.074342027 -0.090542242 0.55027127
0.075609699 -0.090523526 0.55057436
0.074328564 -0.089239009 0.55024713
0.075356796 0.015275683 0.55087173
0.075343281 0.016584136 0.55084753
0.07682845 0.016491205 0.55017602
0.075329766 0.017892588 0.55082321
0.076814957 0.017797049 0.55015182
0.076801464 0.019102894 0.55012763
0.078071669 0.019121647 0.55043137
0.088185027 -0.14704832 0.55140662
0.084179126 -0.14472462 0.55143893
0.082903117 -0.14344524 0.55111301
0.081423044 -0.14237204 0.55176991
0.080144472 -0.14109008 0.55144334
0.11400495 -0.12362593 0.55103981
0.10617024 -0.11893941 0.55114615
0.10742016 -0.11892096 0.55144501
0.10222992 -0.11658085 0.55119359
0.09828759 -0.11550229 0.55126119
0.099542581 -0.11548376 0.55156124
0.10079758 -0.11546524 0.55186129
0.096845061 -0.11438162 0.55192626
0.093059123 -0.11314449 0.55100036
0.089083709 -0.1120534 0.55105972
0.090343773 -0.1120348 0.55136102
0.09160383 -0.11201619 0.55166233
0.086342216 -0.10964065 0.55139327
0.087604813 -0.10962201 0.55169511
0.085066207 -0.10836127 0.55106735
0.086328804 -0.10834263 0.55136919
0.085052796 -0.10706324 0.55104327
0.082298465 -0.10463502 0.55137348
0.083563596 -0.10461634 0.55167592
0.084828734 -0.10459767 0.55197841
0.082285024 -0.10333438 0.55134934
0.083550155 -0.1033157 0.55165184
0.081006452 -0.10205243 0.55102277
0.082271591 -0.10203375 0.55132526
0.08077462 -0.099571347 0.55195582
0.079493493 -0.098286822 0.55162853
0.080761157 -0.098268107 0.55193162
0.078212358 -0.097002298 0.5513013
0.079480022 -0.096983582 0.55160439
0.078198895 -0.095699057 0.55127716
0.075182512 0.011451591 0.55191976
0.075168967 0.012762647 0.5518955
0.075155422 0.014073707 0.55187118
0.076629542 0.015294474 0.55117607
0.07790228 0.01531326 0.55148035
0.073853053 0.016677 0.55151772
0.077888757 0.016621713 0.55145609
0.079161495 0.016640503 0.55176044
0.073839508 0.017988056 0.55149341
0.077875242 0.017930165 0.55143189
0.07914798 0.017948955 0.55173612
0.073825963 0.019299116 0.55146909
0.075101241 0.01931794 0.55177402
0.079134457 0.019257408 0.55171192
0.073812418 0.020610172 0.55144477
0.075087689 0.020628996 0.55174971
0.076575466 0.020528279 0.55107903
0.077848203 0.020547066 0.55138338
0.079120941 0.020565856 0.55168766
0.080393679 0.020584647 0.55199194
0.075074144 0.021940056 0.55172539
0.076561943 0.021836732 0.55105484
0.077834681 0.021855518 0.55135912
0.079107419 0.021874309 0.5516634
0.093238659 -0.14826933 0.55263567
0.094498724 -0.14825073 0.55293697
0.083993621 -0.14623657 0.5524472
0.11385067 -0.12251491 0.55201334
0.11119649 -0.12143558 0.5523892
0.1124464 -0.12141713 0.552688
0.10993329 -0.12016904 0.55206656
0.10851881 -0.1190636 0.55273861
0.10600059 -0.11781298 0.5521158
0.10332088 -0.11671839 0.55248535
0.10457587 -0.11669987 0.5527854
0.098102584 -0.11436305 0.55222696
0.099360108 -0.11434449 0.55252761
0.094137341 -0.11327441 0.55228883
0.095397405 -0.11325581 0.55259013
0.096657462 -0.11323721 0.55289137
0.092682026 -0.11214349 0.55295074
0.088880822 -0.11090139 0.55202103
0.09014342 -0.11088275 0.55232292
0.088677883 -0.10974417 0.55298227
0.087399304 -0.10846221 0.5526557
0.088664442 -0.10844354 0.55295813
0.08612074 -0.10718026 0.55232906
0.087385871 -0.10716158 0.55263162
0.088651001 -0.1071429 0.55293405
0.084842168 -0.1058983 0.55200255
0.086107299 -0.10587963 0.55230498
0.084618017 -0.10342491 0.55293751
0.08333689 -0.10214039 0.55261028
0.084604554 -0.10212167 0.55291331
0.082055755 -0.10085587 0.55228305
0.083323419 -0.10083716 0.55258608
0.082042292 -0.099552631 0.55225885
0.076457784 0.011470418 0.55222464
0.077733062 0.011489246 0.55252957
0.076444238 0.012781475 0.55220038
0.077719517 0.012800302 0.55250525
0.076430693 0.014092535 0.55217612
0.077705972 0.014111362 0.552481
0.078981243 0.014130186 0.55278587
0.078967698 0.015441239 0.55276161
0.080434233 0.016659293 0.55206466
0.080420718 0.017967746 0.55204046
0.080407202 0.019276198 0.5520162
0.080175243 0.022015363 0.55294502
0.077611148 0.023288764 0.55231094
0.091794945 -0.14850685 0.55332232
0.095758781 -0.14823213 0.55323827
0.097018845 -0.14821354 0.55353951
0.086537324 -0.14749986 0.55307627
0.11355524 -0.12156484 0.55398417
0.11103702 -0.12031422 0.55336136
0.10709919 -0.11795301 0.5534094
0.10835418 -0.11793449 0.55370951
0.10583086 -0.11668134 0.55308545
0.10188852 -0.11560017 0.55315292
0.10314605 -0.11558161 0.55345356
0.10045104 -0.11447681 0.55381918
0.097917527 -0.11321861 0.55319262
0.093944624 -0.11212486 0.55325264
0.091221586 -0.11100745 0.55361134
0.092486717 -0.11098877 0.55391383
0.089943014 -0.10972549 0.55328476
0.091208145 -0.10970682 0.55358726
0.092473276 -0.10968814 0.55388975
0.089929573 -0.10842486 0.55326068
0.087180287 -0.10599396 0.55359197
0.088447958 -0.10597525 0.55389506
0.085899159 -0.10470943 0.55326474
0.087166823 -0.10469072 0.55356783
0.085885689 -0.1034062 0.5532406
0.080256514 0.014149014 0.55309081
0.080242969 0.015460066 0.55306649
0.081518248 0.015478894 0.55337143
0.081504695 0.016789958 0.55334711
0.08149115 0.018101014 0.55332285
0.081477605 0.019412074 0.55329853
0.08146406 0.020723131 0.55327427
0.082739331 0.020741958 0.55357915
0.081450514 0.022034191 0.55324996
0.078678936 0.023432426 0.55359256
0.07995674 0.023451291 0.5538981
0.078665361 0.02474609 0.55356824
0.079943165 0.024764955 0.55387372
0.090346165 -0.14874446 0.55400777
0.11214581 -0.12045932 0.55465746
0.10962251 -0.11920617 0.5540334
0.1108775 -0.11918764 0.55433351
0.10693198 -0.11681873 0.55437952
0.1042446 -0.11571644 0.55474699
0.10171109 -0.11445822 0.55412048
0.10297116 -0.11443961 0.55442178
0.099008426 -0.11334833 0.55448419
0.10027102 -0.11332969 0.55478609
0.09503042 -0.11225204 0.5545429
0.09629555 -0.11223337 0.55484539
0.093751848 -0.11097009 0.55421633
0.09101022 -0.1085443 0.55454957
0.092277884 -0.10852558 0.5548526
0.089729086 -0.10725978 0.55422235
0.082593799 0.015607025 0.55465519
0.082580224 0.016920689 0.55463082
0.083858036 0.016939554 0.55493629
0.082566649 0.018234354 0.55460644
0.083844461 0.018253218 0.55491197
0.082553074 0.019548021 0.55458212
0.083830893 0.019566886 0.55488765
0.083817318 0.02088055 0.55486333
0.082525931 0.022175346 0.55453348
0.083803743 0.02219421 0.55483896
0.081234552 0.023470148 0.55420357
0.082512356 0.023489013 0.5545091
0.083790168 0.023507878 0.55481458
0.081220977 0.02478382 0.55417925
0.097936958 -0.14863241 0.55582273
0.10188231 -0.14705971 0.5557133
0.11592412 -0.12169394 0.55558157
0.11198881 -0.11933009 0.55563009
0.1094604 -0.11807441 0.55500484
0.10803817 -0.11695605 0.55567485
0.10929824 -0.11693744 0.55597615
0.10550466 -0.11569784 0.55504829
0.10676473 -0.11567923 0.55534959
0.10407223 -0.1145718 0.55571574
0.097560689 -0.11221469 0.55514789
0.098825812 -0.11219601 0.55545032
0.094840154 -0.11109464 0.55550712
0.096107826 -0.11107592 0.55581021
0.093559027 -0.10981011 0.55517983
0.094826691 -0.1097914 0.55548298
0.085108697 0.019585751 0.55519319
0.09680409 0.033913426 0.55570543
0.099516705 0.033804722 0.55532801
0.11512907 0.037483625 0.55592036
0.11385305 0.038763009 0.55559444
0.11451721 -0.12058577 0.55625534
0.11310519 -0.11947247 0.55692792
0.11057168 -0.11821426 0.55630136
0.10136952 -0.1134593 0.55607939
0.10263465 -0.11344062 0.55638194
0.099924296 -0.11232302 0.55674362
0.09737549 -0.11105721 0.5561133
0.096672527 0.030126452 0.55676305
0.096658982 0.031437509 0.55673879
0.098103866 0.031315304 0.55605823
0.099376604 0.031334095 0.55636251
0.10064934 0.031352885 0.55666685
0.092639826 0.03283558 0.55678284
0.09664543 0.032748573 0.55671453
0.098090351 0.03262376 0.55603397
0.099363089 0.032642551 0.55633831
0.10063583 0.032661341 0.55664259
0.10190856 0.032680131 0.55694687
0.098076835 0.033932209 0.55600977
0.1006223 0.03396979 0.55661833
0.10189505 0.03398858 0.55692267
0.092626251 0.034149244 0.55675846
0.095356613 0.034040801 0.55638528
0.09933605 0.035259455 0.55628979
0.10060878 0.035278246 0.55659413
0.10188153 0.035297036 0.55689836
0.11501915 0.035036914 0.55696166
0.11247545 0.036300182 0.55633259
0.11374058 0.036318861 0.55663514
0.11500571 0.03633754 0.55693758
0.1097848 0.037717864 0.55669427
0.11119688 0.037582137 0.55600607
0.11246201 0.037600815 0.55630851
0.11372714 0.037619494 0.556611
0.11765426 0.0375209 0.5565241
0.11891686 0.037539542 0.556826
0.11244857 0.038901448 0.55628443
0.11764085 0.038818926 0.55650008
0.11436525 -0.11945388 0.55722916
0.11168804 -0.11835403 0.55759919
0.11041203 -0.11707465 0.55727327
0.10772206 -0.11596718 0.55764008
0.1089872 -0.1159485 0.55794251
0.10517836 -0.11470389 0.55701101
0.10644349 -0.11468522 0.55731344
0.10374076 -0.11357011 0.55767703
0.10500842 -0.1135514 0.55798018
0.10119197 -0.1123043 0.55704671
0.098473921 -0.11118162 0.55740654
0.099744134 -0.11116286 0.55771029
0.098460436 -0.10987577 0.55738235
0.096527547 0.027637519 0.55779672
0.093958348 0.028913453 0.55716133
0.09523616 0.028932318 0.55746686
0.096513972 0.028951183 0.5577724
0.097961351 0.028834224 0.55709231
0.099236622 0.028853051 0.55739725
0.10051189 0.028871879 0.55770212
0.092487231 0.03034652 0.5578146
0.093944773 0.03022711 0.55713701
0.095222592 0.030245975 0.55744255
0.097947806 0.03014528 0.55706799
0.099223077 0.030164108 0.55737293
0.10049835 0.030182935 0.55767781
0.10177362 0.030201763 0.55798274
0.092473634 0.031662792 0.55779022
0.093931206 0.031540781 0.55711269
0.095209017 0.031559646 0.55741823
0.10176007 0.031512819 0.55795842
0.10446756 0.031409256 0.55757976
0.1057403 0.031428039 0.55788404
0.091179691 0.032960162 0.55745971
0.093917631 0.032854445 0.55708832
0.095195442 0.03287331 0.55739385
0.1031813 0.032698922 0.55725121
0.10445404 0.032717712 0.5575555
0.10572678 0.032736495 0.55785978
0.10969183 0.032648884 0.55778182
0.10840813 0.033935979 0.55745387
0.10967834 0.033954732 0.55775762
0.1136282 0.033864297 0.55767596
0.11489587 0.033883013 0.55797905
0.093904063 0.034168109 0.557064
0.10316779 0.03400737 0.55722696
0.10444052 0.034026161 0.55753124
0.10571326 0.034044944 0.55783558
0.10315426 0.035315827 0.5572027
0.10442699 0.035334617 0.55750704
0.10569975 0.0353534 0.55781126
0.10712443 0.035223082 0.55712605
0.10839464 0.035241827 0.55742967
0.10966484 0.03526058 0.55773342
0.11234707 0.035148822 0.55734873
0.11361474 0.035167538 0.55765182
0.11628428 0.035055585 0.55726421
0.11754942 0.035074264 0.55756664
0.11881454 0.035092942 0.55786914
0.10965135 0.036566421 0.55770922
0.11106594 0.036433339 0.5570215
0.11627085 0.036356211 0.55724007
0.11753598 0.036374889 0.55754256
0.11880111 0.036393568 0.557845
0.11625741 0.037656844 0.55721593
0.12017946 0.037558183 0.55712783
0.10282318 -0.14747304 0.55800188
0.11280946 -0.11849374 0.55889821
0.1115309 -0.11721177 0.55857158
0.11025232 -0.11592982 0.558245
0.10755724 -0.11481721 0.55861044
0.10229804 -0.11243121 0.55834186
0.10356823 -0.11241246 0.55864561
0.10483843 -0.11239371 0.55894923
0.10101433 -0.11114411 0.55801398
0.10228454 -0.11112536 0.55831766
0.096382663 0.025138147 0.5588305
0.09508872 0.026435517 0.55850005
0.096369065 0.026454419 0.55880618
0.097818926 0.026342712 0.55812657
0.09909673 0.026361577 0.5584321
0.10037454 0.026380442 0.55873764
0.095075123 0.027751781 0.55847561
0.097805351 0.027656376 0.55810225
0.099083155 0.027675241 0.55840778
0.10036097 0.027694106 0.55871332
0.1016252 0.029026635 0.55899441
0.10304889 0.030220591 0.55828762
0.10432417 0.030239418 0.55859256
0.10559945 0.030258238 0.5588975
0.10303535 0.031531639 0.5582633
0.10701304 0.031446829 0.55818832
0.10828577 0.03146562 0.55849266
0.10955852 0.03148441 0.55879694
0.10699952 0.032755286 0.55816412
0.10827225 0.032774076 0.5584684
0.11096203 0.032667637 0.55808544
0.11223224 0.03268639 0.55838919
0.11350244 0.032705143 0.55869287
0.11477264 0.032723889 0.55899656
0.11744467 0.032617196 0.55860937
0.11094854 0.033973485 0.55806124
0.11221874 0.033992238 0.55836499
0.11616354 0.033901721 0.55828214
0.11743121 0.033920437 0.55858523
0.11869887 0.033939153 0.55888832
0.106986 0.034063734 0.55813986
0.11093505 0.035279334 0.5580371
0.12007968 0.035111621 0.55817163
0.1213448 0.035130292 0.55847406
0.12006624 0.036412247 0.55814755
0.12133137 0.036430918 0.55844998
0.12259651 0.036449596 0.55875248
0.11804126 -0.12215492 0.55918074
0.11535317 -0.11975701 0.55952728
0.1140746 -0.11847506 0.55920064
0.11265483 -0.11734883 0.55987114
0.10867603 -0.11494914 0.55990875
0.10612213 -0.11368079 0.55927718
0.10739233 -0.11366204 0.55958086
0.098956957 0.023859672 0.5594672
0.1002373 0.023878574 0.55977333
0.097663015 0.025157042 0.55913663
0.098943353 0.025175944 0.55944276
0.10022371 0.025194846 0.55974889
0.10165235 0.026399307 0.55904317
0.10293016 0.026418164 0.55934864
0.10163878 0.027712971 0.55901879
0.10291658 0.027731836 0.55932426
0.1041944 0.027750701 0.5596298
0.10547221 0.027769566 0.55993533
0.10290302 0.0290455 0.55929995
0.10418083 0.029064365 0.55960548
0.10545864 0.02908323 0.55991101
0.10687472 0.030277066 0.55920237
0.10814999 0.030295894 0.55950725
0.10942526 0.030314721 0.55981219
0.11083125 0.031503201 0.55910122
0.11210399 0.031521991 0.55940557
0.11337673 0.031540774 0.55970985
0.11478613 0.031418048 0.55902076
0.11732654 0.031455554 0.55962813
0.11859674 0.0314743 0.55993187
0.11604284 0.032742642 0.5593003
0.11858325 0.032780148 0.55990767
0.11996654 0.033957869 0.55919141
0.12123421 0.033976577 0.5594945
0.12250188 0.033995293 0.55979759
0.12248842 0.035298534 0.55977345
0.11122993 -0.11621748 0.56054032
0.11250013 -0.11619873 0.56084406
0.10994624 -0.11493039 0.56021243
0.10150404 0.025213748 0.56005502
0.1027844 0.02523265 0.56036115
0.10406473 0.025251552 0.56066728
0.10534509 0.025270455 0.56097341
0.10405113 0.026567824 0.56064284
0.10533148 0.026586726 0.56094897
0.10675001 0.02778843 0.56024086
0.10802783 0.027807288 0.5605464
0.10930564 0.027826153 0.56085187
0.10673644 0.029102094 0.56021655
0.10801426 0.029120952 0.56052202
0.10929206 0.029139817 0.56082749
0.11070053 0.030333549 0.56011713
0.11197582 0.030352376 0.560422
0.11325109 0.030371204 0.56072688
0.1184812 0.030307487 0.56095135
0.11592221 0.031578355 0.56031847
0.11986694 0.031493053 0.56023556
0.12113714 0.031511806 0.56053925
0.12240735 0.031530559 0.56084299
0.11985345 0.032798901 0.56021136
0.12112366 0.032817647 0.56051505
0.12239386 0.0328364 0.56081879
0.11506752 -0.11877292 0.56149983
0.11633772 -0.11875417 0.56180346
0.11378383 -0.11748582 0.56117189
0.10662542 0.025289357 0.56127954
0.10790577 0.025308259 0.56158566
0.10661183 0.026605628 0.5612551
0.10789217 0.026624531 0.56156123
0.10917251 0.026643433 0.56186736
0.11058344 0.027845018 0.56115741
0.11186126 0.027863882 0.56146288
0.11313906 0.027882747 0.56176841
0.11056987 0.029158682 0.56113303
0.11184768 0.029177547 0.56143856
0.11312549 0.029196411 0.56174409
0.11709046 0.029116623 0.56166589
0.11836573 0.029135451 0.56197083
0.11452636 0.030390024 0.56103182
0.11580163 0.030408852 0.56133676
0.11707691 0.030427679 0.56164157
0.11975394 0.03032627 0.56125557
0.12229942 0.03036385 0.56186426
0.12496125 0.030262217 0.56147456
0.12367755 0.031549312 0.56114662
0.12494776 0.031568058 0.56145036
0.12621796 0.031586811 0.56175399
0.12366407 0.032855153 0.56112242
0.12493427 0.032873906 0.56142616
0.12620448 0.032892659 0.56172979
0.12365057 0.034161001 0.56109822
0.12492077 0.034179755 0.56140196
0.12619098 0.034198508 0.56170559
0.11770238 -0.12787634 0.5622766
0.11762142 -0.12004126 0.5621314
0.11045285 0.026662335 0.56217349
0.1117332 0.026681229 0.56247962
0.11301354 0.026700132 0.56278574
0.11441687 0.027901612 0.56207395
0.11569469 0.027920477 0.56237948
0.11697249 0.027939342 0.56268501
0.1182503 0.027958199 0.56299043
0.12614468 0.027803317 0.56282556
0.1144033 0.029215276 0.56204963
0.11568111 0.029234141 0.56235516
0.12091628 0.029173099 0.5625807
0.12219155 0.029191926 0.56288552
0.12358568 0.029074185 0.5621928
0.12485842 0.029092975 0.56249702
0.12613115 0.029111765 0.56280136
0.12090273 0.030484162 0.56255639
0.12357216 0.030382641 0.56216848
0.12611763 0.030420221 0.56277716
0.12877186 0.030318476 0.56238568
0.13004206 0.030337222 0.5626893
0.12748817 0.031605564 0.56205773
0.12746118 0.034217261 0.56200933
0.11429389 0.026719034 0.56309187
0.11557424 0.026737936 0.563398
0.11685458 0.026756838 0.56370413
0.1220973 0.02670113 0.56393135
0.12604447 0.026626289 0.56384885
0.11952811 0.027977064 0.56329596
0.12080592 0.027995929 0.56360149
0.12348037 0.027899697 0.56321478
0.12475565 0.027918525 0.56351972
0.12741742 0.027822107 0.5631299
0.12869015 0.027840897 0.56343424
0.12996289 0.027859688 0.56373858
0.12208372 0.028014794 0.56390703
0.11951454 0.029290728 0.56327164
0.12740389 0.029130556 0.5631057
0.12867664 0.029149346 0.56340992
0.12994938 0.029168136 0.56371427
0.12739037 0.030439004 0.56308138
0.13120858 0.030495375 0.56399429
0.12991092 0.022749599 0.5648365
0.13254893 0.023971908 0.56441987
0.13382167 0.023990698 0.56472421
0.11675034 0.024250254 0.56474781
0.12200316 0.024199896 0.56497729
0.12595788 0.024130389 0.56489658
0.1286221 0.024041824 0.56450725
0.12989739 0.024060652 0.56481218
0.11417095 0.025531255 0.56410992
0.11545384 0.025550194 0.56441665
0.11673671 0.025569133 0.56472337
0.12198956 0.025516175 0.56495297
0.1246665 0.025425196 0.56456673
0.1259443 0.025444061 0.56487226
0.12860855 0.025352888 0.56448293
0.12988383 0.025371715 0.56478786
0.13380814 0.025299147 0.56469989
0.11813492 0.02677574 0.56401014
0.11941527 0.026794642 0.56431627
0.12069561 0.026813544 0.5646224
0.12337511 0.026719995 0.56423688
0.12465292 0.026738852 0.56454241
0.12731974 0.026645117 0.56415379
0.12859501 0.026663944 0.56445873
0.12987028 0.026682772 0.56476355
0.13252188 0.026588812 0.56437135
0.13379464 0.026607603 0.56467569
0.13123563 0.027878471 0.56404281
0.1312221 0.029186919 0.56401861
0.12984559 0.01893232 0.56591046
0.13377738 0.018872902 0.56582415
0.13642123 0.018794466 0.56542981
0.13769397 0.018813256 0.56573403
0.12588499 0.020307794 0.56596887
0.12855421 0.020227127 0.56558061
0.12983203 0.020245988 0.56588614
0.13248856 0.020165134 0.56549489
0.13376383 0.020183962 0.56579983
0.13513497 0.020084128 0.56510127
0.1364077 0.020102918 0.56540549
0.13768044 0.020121709 0.56570983
0.12587139 0.021624062 0.56594443
0.12726283 0.021521926 0.56525075
0.12854064 0.021540791 0.56555629
0.12981844 0.021559652 0.56586182
0.13119975 0.021457367 0.56516564
0.13247502 0.021476191 0.56547058
0.13375029 0.021495018 0.56577551
0.13512145 0.021392576 0.56507695
0.13639419 0.021411367 0.56538129
0.13766693 0.021430157 0.56568563
0.13893965 0.021448944 0.56598985
0.12061261 0.022988193 0.56569242
0.1232971 0.022902533 0.56530786
0.12457745 0.022921432 0.56561399
0.12585779 0.022940334 0.56592011
0.12724926 0.022835586 0.56522644
0.12852706 0.022854451 0.56553197
0.13118619 0.022768427 0.56514144
0.13246147 0.022787251 0.56544626
0.13373674 0.022806078 0.56575119
0.13510793 0.022701029 0.56505275
0.13638067 0.022719819 0.56535697
0.13765341 0.022738609 0.56566131
0.13892613 0.022757396 0.56596565
0.12189549 0.023007132 0.56599915
0.11803322 0.024269193 0.56505454
0.1193161 0.024288133 0.56536126
0.12059898 0.024307072 0.56566799
0.12328351 0.024218798 0.56528342
0.12456385 0.0242377 0.56558955
0.12723568 0.024149254 0.56520212
0.13117266 0.024079479 0.56511712
0.1350944 0.024009481 0.56502843
0.13636714 0.024028271 0.56533277
0.13891262 0.024065852 0.56594133
0.1180196 0.025588073 0.5650301
0.11930247 0.025607012 0.56533682
0.12058535 0.025625952 0.56564355
0.1232699 0.025535077 0.5652591
0.12722212 0.025462925 0.5651778
0.1311591 0.025390543 0.5650928
0.13243438 0.025409363 0.56539774
0.13508089 0.025317937 0.56500423
0.13635363 0.025336727 0.56530857
0.13762636 0.025355518 0.56561279
0.13114555 0.026701599 0.56506848
0.13370615 0.016361587 0.5668757
0.1376303 0.016307261 0.56678736
0.12975322 0.017731957 0.56693602
0.13113698 0.017637521 0.56624043
0.13241477 0.017656386 0.56654584
0.13369259 0.017675251 0.56685138
0.13506621 0.017580673 0.56615329
0.13634148 0.017599501 0.56645823
0.13761675 0.017618325 0.56676316
0.14025295 0.017542381 0.56636691
0.14152569 0.017561171 0.56667125
0.13112341 0.018951185 0.56621599
0.1324012 0.01897005 0.56652153
0.13505265 0.018891729 0.56612897
0.13896669 0.018832043 0.56603837
0.14023943 0.018850833 0.56634271
0.14151219 0.018869624 0.56664693
0.14278492 0.01888841 0.56695127
0.12450212 0.01908838 0.56668591
0.12578501 0.019107312 0.56699264
0.12717894 0.019010421 0.56629944
0.12845927 0.019029323 0.56660557
0.12320562 0.02038832 0.56635475
0.1244885 0.020407259 0.56666148
0.12716535 0.020326696 0.566275
0.13110983 0.020264853 0.56619167
0.13895318 0.020140495 0.56601417
0.14022592 0.020159286 0.56631839
0.14149866 0.020178076 0.56662273
0.14277139 0.020196863 0.56692708
0.12190912 0.021688253 0.56602359
0.123192 0.021707192 0.56633031
0.12447488 0.021726131 0.56663704
0.14021239 0.021467734 0.56629419
0.14148514 0.021486524 0.56659853
0.14275788 0.021505311 0.56690276
0.14019887 0.022776186 0.56626987
0.14147162 0.022794977 0.56657422
0.13754903 0.02417361 0.56664169
0.13363504 0.013839845 0.5679276
0.13756675 0.013790846 0.56784093
0.12839165 0.01518856 0.56767941
0.12967452 0.015207499 0.56798613
0.13234112 0.015137214 0.56759703
0.13362145 0.015156116 0.56790316
0.13499755 0.01506678 0.56720555
0.13627535 0.015085645 0.56751108
0.13755317 0.01510451 0.56781662
0.12709515 0.0164885 0.56734824
0.12837803 0.016507439 0.56765497
0.1296609 0.016526379 0.56796169
0.13104716 0.01643458 0.56726658
0.13232751 0.016453482 0.56757271
0.13498399 0.016380448 0.56718123
0.13626179 0.016399313 0.56748676
0.13890558 0.016326088 0.5670923
0.14018084 0.016344916 0.56739724
0.14145613 0.01636374 0.56770217
0.12579864 0.01778844 0.56701708
0.12708151 0.017807379 0.5673238
0.1283644 0.017826319 0.56763053
0.13889202 0.017637152 0.56706798
0.14271784 0.017693631 0.56798279
0.14266366 0.022937864 0.56788552
0.14009957 0.024211265 0.56725144
0.14137486 0.024230093 0.56755638
0.14265013 0.02424892 0.56786132
0.13355041 0.012626559 0.56895518
0.13097104 0.013907559 0.56831729
0.13225392 0.013926499 0.56862402
0.13491541 0.013858747 0.56823373
0.13619575 0.013877649 0.56853986
0.13884455 0.013809711 0.56814647
0.14012235 0.013828572 0.568452
0.14140017 0.013847437 0.56875753
0.13095741 0.015226439 0.56829286
0.13883099 0.015123375 0.56812215
0.14010879 0.015142236 0.56842768
0.1413866 0.015161101 0.56873322
0.1427314 0.016382568 0.56800699
0.14400667 0.016401395 0.56831193
0.14399312 0.017712459 0.56828761
0.14526838 0.017731287 0.56859255
0.14397958 0.019023515 0.56826341
0.14525485 0.019042343 0.56856823
0.14396603 0.020334575 0.56823909
0.14524129 0.020353403 0.56854403
0.14395249 0.021645632 0.56821477
0.14522776 0.021664459 0.56851971
0.14393894 0.022956692 0.56819046
0.13612981 0.011345558 0.56959307
0.1374127 0.011364497 0.5698998
0.13483331 0.012645498 0.56926191
0.13611618 0.012664437 0.56956863
0.13739906 0.012683377 0.56987536
0.13877004 0.012599181 0.56917644
0.14005038 0.012618084 0.56948256
0.14133072 0.012636986 0.56978869
0.14267799 0.013866302 0.56906307
0.1426644 0.015179966 0.56903875
0.14394221 0.015198831 0.56934416
0.14522003 0.015217692 0.5696497
0.14649785 0.015236557 0.56995523
0.14520645 0.016531359 0.56962538
0.14648426 0.016550224 0.56993091
0.1464707 0.017863888 0.56990659
0.14645712 0.019177552 0.56988215
0.14644355 0.02049122 0.56985784
0.14642997 0.021804884 0.56983352
0.14513859 0.023099683 0.56950366
0.1464164 0.023118548 0.5698092
0.1438472 0.02439449 0.56917381
0.14512502 0.024413347 0.56947935
0.13869557 0.011383437 0.57020652
0.13997844 0.011402376 0.57051325
0.14126132 0.011421315 0.57081997
0.14261106 0.012655888 0.57009482
0.14389142 0.01267479 0.57040095
0.14517176 0.012693688 0.57070708
0.14387782 0.013991058 0.57037652
0.14515817 0.014009956 0.57068264
0.14643851 0.014028858 0.57098877
0.14776206 0.016569089 0.57023644
0.14774849 0.017882753 0.57021201
0.1490263 0.017901618 0.57051754
0.14773491 0.019196417 0.57018769
0.14772135 0.020510085 0.57016337
0.14770776 0.021823749 0.57013905
0.13990659 0.010181461 0.57154405
0.14119199 0.010200437 0.57185137
0.14254421 0.011440255 0.5711267
0.14382708 0.011459194 0.57143342
0.14510997 0.011478133 0.57174015
0.1464521 0.01271259 0.57101321
0.14771885 0.014047761 0.5712949
0.14770524 0.015364032 0.57127047
0.14898559 0.015382934 0.5715766
0.15026593 0.015401836 0.57188272
0.14897199 0.016699202 0.57155228
0.15025234 0.016718104 0.57185841
0.15023874 0.01803438 0.57183397
0.1489448 0.019331746 0.5715034
0.15022513 0.019350648 0.57180953
0.14893119 0.020648021 0.57147908
0.15021154 0.020666923 0.57178521
0.15538821 0.02062327 0.57199645
0.14891759 0.021964289 0.57145464
0.15019792 0.021983191 0.57176077
0.15537463 0.021936934 0.57197213
0.15925577 0.021871548 0.57187366
0.14762364 0.023261659 0.5711242
0.148904 0.023280561 0.57143033
0.15536106 0.023250595 0.57194781
0.15924223 0.023182608 0.57184935
0.1553475 0.024564266 0.57192349
0.15922868 0.024493665 0.57182515
0.14247739 0.01021941 0.57215869
0.14376283 0.010238387 0.57246602
0.14504823 0.010257363 0.57277334
0.14639285 0.011497073 0.57204688
0.14767572 0.011516012 0.5723536
0.14895859 0.011534952 0.57266033
0.1476621 0.012834884 0.57232916
0.14894497 0.012853824 0.57263589
0.15022786 0.012872763 0.57294261
0.14893135 0.014172703 0.57261145
0.15021424 0.014191642 0.57291818
0.15282664 0.015439637 0.57249498
0.15410697 0.015458539 0.57280111
0.15153268 0.016737003 0.57216442
0.15281303 0.016755905 0.57247055
0.15409338 0.016774807 0.57277668
0.15926236 0.016738866 0.57298601
0.15151908 0.018053278 0.5721401
0.15279943 0.01807218 0.57244623
0.15407978 0.018091083 0.57275236
0.15669316 0.0180148 0.57235062
0.15797096 0.018033665 0.57265615
0.15924877 0.01805253 0.57296169
0.15150547 0.019369546 0.57211566
0.15278584 0.019388448 0.57242179
0.15406618 0.019407351 0.57272792
0.15540178 0.019309603 0.57202077
0.1566796 0.019328464 0.5723263
0.1579574 0.019347329 0.57263184
0.15923521 0.019366194 0.57293737
0.15149188 0.020685822 0.57209134
0.15277223 0.020704724 0.57239747
0.15405259 0.020723626 0.57270348
0.15666601 0.020642132 0.57230198
0.15794383 0.020660996 0.57260752
0.15922163 0.020679861 0.57291305
0.15665245 0.021955796 0.57227767
0.15793025 0.02197466 0.5725832
0.15147828 0.02200209 0.5720669
0.15275863 0.022020992 0.57237303
0.15403897 0.022039894 0.57267916
0.15011886 0.023423783 0.57274711
0.15274504 0.02333726 0.57234859
0.15402538 0.023356162 0.57265472
0.15663886 0.02326946 0.57225335
0.15791668 0.023288324 0.57255876
0.15273143 0.024653532 0.57232428
0.1566253 0.024583124 0.57222891
0.14634731 0.0089548565 0.57310522
0.14633365 0.01027634 0.57308066
0.14761907 0.010295317 0.57338798
0.14890447 0.010314293 0.57369542
