# .PCD v0.7 - Point Cloud Data file format
VERSION 0.7
FIELDS x y z
SIZE 4 4 4
TYPE F F F
COUNT 1 1 1
WIDTH 1350
HEIGHT 1
VIEWPOINT 0 0 0 1 0 0 0
POINTS 1350
DATA ascii
0.013500333 -0.0071748756 0.39638463
0.014039338 -0.0067643374 0.39761966
0.014582813 -0.0063515604 0.39885616
0.014642507 -0.0060406812 0.40098563
0.015197158 -0.0056223087 0.40222588
0.015272468 -0.0053035989 0.40436059
0.015356749 -0.0049804114 0.40649828
0.014970616 -0.004752405 0.40953341
0.015074983 -0.004419148 0.41167781
0.015188262 -0.0040814169 0.41382521
0.014837861 -0.0038355142 0.41687229
0.015441641 -0.003392525 0.41812897
0.015581727 -0.003041368 0.42028534
0.015264839 -0.0027786866 0.4233436
0.015425026 -0.0024174564 0.42550668
0.015132681 -0.0021424592 0.42857319
0.01531297 -0.0017711632 0.43074298
0.015045196 -0.0014838614 0.43381768
0.014790848 -0.0011898503 0.43689686
0.01500237 -0.00080288947 0.43907714
0.014772594 -0.00049655885 0.44216454
0.015004233 -9.9532306e-05 0.44435152
0.015244827 0.00030197948 0.44654149
0.015937909 0.00078971684 0.44782808
0.016635478 0.0012796931 0.44911611
0.016898394 0.0016923957 0.45131356
0.017607138 0.0021879673 0.45260534
0.086088002 0.033126466 0.45019498
0.087182269 0.033674709 0.45056096
0.087962449 0.034206085 0.45187667
0.089058936 0.034755446 0.45224339
0.089845836 0.035290182 0.45356131
0.090637192 0.035827152 0.45488074
0.010422498 -0.0075293109 0.39428446
0.011451989 -0.0070135146 0.39462876
0.011983246 -0.0066039748 0.39586118
0.013014972 -0.006087061 0.39620626
0.013552934 -0.0056741685 0.39744091
0.014095366 -0.005259037 0.39867702
0.014152959 -0.0049434491 0.40080571
0.014219478 -0.0046233833 0.40293741
0.014294937 -0.0042988472 0.40507209
0.014379323 -0.0039698295 0.40720975
0.014472663 -0.0036363378 0.4093504
0.014574915 -0.0032983683 0.41149405
0.014686093 -0.0029559322 0.41364065
0.014332533 -0.0027029626 0.41668659
0.014463842 -0.0023504533 0.41883993
0.014604062 -0.0019934662 0.42099625
0.014753208 -0.001632005 0.42315558
0.014446571 -0.00135554 0.42621717
0.014153317 -0.0010723658 0.42928326
0.01433371 -0.00069523975 0.43145305
0.014065042 -0.00039975345 0.43452734
0.014265567 -1.2561679e-05 0.43670383
0.014021426 0.00029523298 0.43978634
0.013790712 0.00060973689 0.44287336
0.014022499 0.0010125972 0.44506028
0.014710099 0.0015004613 0.44634494
0.014957488 0.0019111484 0.44853717
0.015656248 0.0024046004 0.44982561
0.016359463 0.002900295 0.45111549
0.017067149 0.0033982173 0.45240688
0.018215001 0.0039733127 0.4527908
0.028651327 0.0087720044 0.45311713
0.032485917 0.010549843 0.45334491
0.035170451 0.011751467 0.453188
0.085892811 0.034296956 0.44905794
0.086350128 0.034812823 0.45132038
0.08744663 0.035362184 0.4516871
0.088230237 0.035898153 0.45300388
0.08932896 0.036448631 0.45337135
0.090119272 0.036987957 0.4546904
0.0099381804 -0.0064438507 0.39410645
0.010466173 -0.0060330704 0.39533773
0.0114979 -0.0055161566 0.39568281
0.012529626 -0.0049992427 0.39602786
0.013066515 -0.0045839995 0.39726213
0.013607889 -0.0041665137 0.39849788
0.013663396 -0.0038462132 0.4006258
0.013727814 -0.0035214424 0.40275672
0.013801187 -0.0031921938 0.40489063
0.013883442 -0.0028584674 0.40702751
0.013974696 -0.0025202669 0.40916741
0.014074862 -0.0021775886 0.41131026
0.014183939 -0.00183044 0.41345611
0.014301956 -0.0014788173 0.41560495
0.013956428 -0.0012131929 0.41865346
0.014094546 -0.00085149333 0.420809
0.013773561 -0.00057356432 0.42386571
0.013931796 -0.00020179525 0.42602801
0.013635397 8.8442117e-05 0.42909291
0.013352379 0.00038539246 0.43216231
0.013082772 0.00068906322 0.43523619
0.013283417 0.0010820851 0.43741271
0.013038397 0.0013980642 0.44049478
0.013259128 0.0018011518 0.442678
0.013488814 0.0022087246 0.44486415
0.013727427 0.0026207641 0.44705334
0.014420658 0.003114339 0.44833988
0.015118361 0.0036101416 0.44962794
0.015820533 0.0041081943 0.45091742
0.016527161 0.0046084747 0.45220843
0.017675012 0.0051835701 0.45259234
0.018822864 0.0057586655 0.45297626
0.025408834 0.0087658614 0.45306963
0.028114483 0.0099751987 0.45291984
0.029255643 0.010546934 0.45330149
0.031950146 0.011750678 0.45314801
0.033089057 0.012321295 0.45352894
0.034635723 0.012949949 0.45299149
0.035772398 0.013519449 0.45337167
0.085058466 0.035433952 0.44981661
0.086152717 0.035982195 0.45018259
0.086930797 0.036518283 0.45149752
0.087713361 0.037056606 0.45281392
0.088500395 0.037597168 0.45413184
0.089601353 0.038148768 0.45450005
0.0094538778 -0.0053583905 0.39392847
0.0099808127 -0.0049452558 0.39515936
0.011012539 -0.004428342 0.39550444
0.01154615 -0.004011862 0.39673758
0.012580112 -0.0034938306 0.39708337
0.013120443 -0.0030739866 0.39831874
0.013173833 -0.0027489811 0.40044588
0.01323615 -0.0024195015 0.40257603
0.013307422 -0.0020855404 0.40470919
0.013387591 -0.0017471053 0.4068453
0.013476729 -0.001404196 0.40898439
0.013094544 -0.0011482909 0.41202053
0.01320377 -0.00079531595 0.41416636
0.013321906 -0.00043785572 0.41631517
0.013448998 -7.5928867e-05 0.41846696
0.013585031 0.00029047951 0.42062175
0.013260901 0.00057547167 0.4236773
0.012950167 0.00086718053 0.42673734
0.013117462 0.00124925 0.4289026
0.012368947 0.0014707409 0.43287084
0.01255855 0.0018640012 0.43504354
0.01229918 0.0021814406 0.43812075
0.012053251 0.0025055967 0.44120243
0.012274116 0.0029145181 0.44338563
0.012503937 0.003327921 0.44557175
0.01319164 0.003821604 0.44685644
0.013883829 0.0043175295 0.44814259
0.014580473 0.0048156865 0.44943026
0.015281588 0.0053160936 0.45071936
0.016427204 0.0058900677 0.45110252
0.017135024 0.00639382 0.45239389
0.018282875 0.0069689155 0.4527778
0.019430727 0.0075440183 0.45316169
0.021009684 0.0081859715 0.45263514
0.0221553 0.0087599456 0.45301831
0.023727566 0.0093985461 0.45248953
0.024870947 0.0099714063 0.45287195
0.026436508 0.01060665 0.45234087
0.027577654 0.011178385 0.45272255
0.028718799 0.011750124 0.4531042
0.030275434 0.012380896 0.4525702
0.03141436 0.012951517 0.4529511
0.03255327 0.013522135 0.45333204
0.03410098 0.014148431 0.45279497
0.03523767 0.014717931 0.45317513
0.03637436 0.015287435 0.45355532
0.085187048 0.036611773 0.44773331
0.085318491 0.037125021 0.45094123
0.086097762 0.037664577 0.4522565
0.087196484 0.03821506 0.45262396
0.087982461 0.038757976 0.45394149
0.088772908 0.039303131 0.45526052
0.009495452 -0.0038574412 0.394981
0.010527179 -0.0033405274 0.39532605
0.011059731 -0.002921693 0.39655882
0.012093693 -0.0024036542 0.39690462
0.012138307 -0.0020773001 0.39902875
0.012684286 -0.0016517453 0.40026596
0.012744486 -0.0013175532 0.40239534
0.012813658 -0.00097889081 0.40452772
0.012891725 -0.00063574687 0.40666306
0.012978762 -0.00028812513 0.40880138
0.012593418 -2.5160611e-05 0.41183636
0.012700543 0.00033252686 0.41398141
0.012816578 0.00069469586 0.41612947
0.012941584 0.0010613315 0.41828048
0.012603134 0.0013477989 0.42133114
0.01227811 0.0016409829 0.42438626
0.012434348 0.0020232797 0.42654777
0.012133881 0.0023287684 0.42961112
0.011846811 0.0026409663 0.43267894
0.011573136 0.0029598773 0.43575123
0.011312857 0.0032855012 0.43882802
0.01152271 0.003694661 0.44100744
0.011741489 0.0041082911 0.44318989
0.011969209 0.0045264028 0.44537523
0.012655854 0.0050224364 0.44665954
0.013346985 0.00552072 0.4479453
0.014042586 0.0060212314 0.44923258
0.014742658 0.0065239929 0.45052132
0.015888274 0.0070979632 0.45090446
0.017033905 0.0076719411 0.45128763
0.018179506 0.0082459189 0.45167077
0.019325137 0.008819893 0.45205393
0.020470753 0.0093938671 0.4524371
0.022046283 0.010031234 0.45190945
0.023189664 0.010604091 0.45229185
0.024758518 0.011238102 0.45176193
0.025899664 0.011809837 0.45214358
0.027040809 0.012381576 0.45252526
0.02818197 0.012953315 0.45290691
0.029739648 0.013581732 0.4523733
0.030878574 0.01415235 0.4527542
0.032429561 0.014777413 0.45221829
0.033566251 0.015346913 0.45259845
0.034702927 0.015916413 0.45297861
0.035839617 0.016485913 0.4533588
0.036976308 0.017055413 0.45373896
0.084028915 0.037741441 0.44943824
0.084802657 0.038281117 0.45075166
0.085580885 0.038823031 0.45206654
0.086679608 0.03937351 0.452434
0.087464541 0.039918784 0.45375115
0.08825393 0.040466294 0.45506978
0.0090101063 -0.002769623 0.39480263
0.010041833 -0.0022527091 0.39514768
0.010573328 -0.0018315241 0.39638004
0.011607289 -0.0013134852 0.39672586
0.011649787 -0.00098241866 0.39884922
0.012194723 -0.00055451319 0.40008605
0.012252837 -0.00021561235 0.40221465
0.012319893 0.00012776256 0.40434626
0.012395859 0.00047561526 0.40648082
0.012480795 0.00082794577 0.40861839
0.012092307 0.0010979772 0.41165221
0.012197331 0.0014603734 0.41379648
0.012311265 0.0018272474 0.41594374
0.011958525 0.0021151826 0.41898951
0.012092561 0.0024921261 0.4211435
0.011764377 0.0027923696 0.42419747
0.01144959 0.0030993223 0.42725593
0.011148185 0.0034129918 0.43031886
0.011324674 0.0038111918 0.43248704
0.010585606 0.0040604658 0.4364582
0.010784417 0.0044698566 0.43863383
0.010534391 0.0048092566 0.44171399
0.010753319 0.0052287206 0.44389632
0.011434466 0.0057248846 0.44517872
0.012120068 0.0062232763 0.44646263
0.012810141 0.0067239106 0.44774801
0.013951302 0.0072956458 0.44812965
0.01464808 0.0077996366 0.44941729
0.015791476 0.0083724931 0.44979972
0.016934857 0.0089453496 0.45018211
0.018078238 0.0095182061 0.45056453
0.019221634 0.010091063 0.45094693
0.020365015 0.010663923 0.45132935
0.021939367 0.011297811 0.45080131
0.023080528 0.01186955 0.45118296
0.024221689 0.012441292 0.45156464
0.025362834 0.013013028 0.45194629
0.026926011 0.013641326 0.45141456
0.028064936 0.014211947 0.45179546
0.029203862 0.014782568 0.45217639
0.030758142 0.015406391 0.45164159
0.031894833 0.015975891 0.45202178
0.033031508 0.016545391 0.45240194
0.034168199 0.017114891 0.45278209
0.083190352 0.038887855 0.45019537
0.083965287 0.039431006 0.45150912
0.084744707 0.039976392 0.45282438
0.085845664 0.040527992 0.45319259
0.086631775 0.041076735 0.45451009
0.0074930042 -0.0021987259 0.39427918
0.0085247457 -0.0016818084 0.39462426
0.0090529621 -0.0012593865 0.39585549
0.010086924 -0.00074135512 0.39620128
0.011120886 -0.00022331625 0.39654711
0.011161283 0.00011245906 0.39866969
0.01170516 0.00054272264 0.39990613
0.011761159 0.00088632852 0.40203395
0.011826128 0.0012344159 0.40416479
0.011900008 0.0015869774 0.40629858
0.011982828 0.0019440167 0.40843537
0.011591196 0.0022211149 0.41146803
0.011694103 0.0025882162 0.41361153
0.011805952 0.0029598027 0.41575804
0.011450052 0.0032547973 0.41880265
0.011581987 0.0036364496 0.42095587
0.01125066 0.0039437599 0.42400867
0.010932714 0.0042577758 0.42706597
0.010628164 0.0045785084 0.43012777
0.010337025 0.004905954 0.43319404
0.010059267 0.0052401088 0.43626478
0.0097949505 0.0055809878 0.43934
0.010002807 0.0060006753 0.44151863
0.010676205 0.0064958334 0.44279838
0.010899737 0.0069233663 0.4449822
0.012036413 0.0074928664 0.44536236
0.012723207 0.0079947263 0.44664666
0.013414472 0.0084988363 0.44793236
0.014555633 0.0090705715 0.44831404
0.015696779 0.0096423142 0.44869569
0.016837925 0.010214049 0.44907737
0.017979085 0.010785788 0.44945902
0.019120231 0.011357527 0.44984069
0.020261377 0.011929262 0.45022234
0.021402538 0.012501001 0.45060402
0.022543684 0.01307274 0.45098567
0.024112403 0.013700927 0.45045581
0.025251329 0.014271544 0.45083672
0.026390225 0.014842158 0.45121765
0.027950034 0.015465869 0.45068473
0.029086724 0.016035372 0.45106491
0.030223399 0.016604872 0.45144507
0.03136009 0.017174372 0.45182523
0.03249678 0.017743872 0.45220542
0.082349703 0.040038977 0.4509517
0.08312583 0.0405856 0.45226583
0.084226772 0.0411372 0.45263404
0.085009605 0.041687179 0.45395038
0.085796878 0.042239398 0.45526826
0.086902305 0.042793237 0.45563796
0.0070076436 -0.0011109114 0.39410082
0.0075325966 -0.00068724155 0.39533091
0.0085665584 -0.00016921014 0.39567673
0.0096005201 0.00034882128 0.39602253
0.010134414 0.00077696145 0.3972556
0.010672778 0.0012073405 0.39849016
0.011215597 0.0016399547 0.39972621
0.01126951 0.0019882694 0.40185326
0.011332363 0.0023410693 0.40398332
0.011404127 0.0026983395 0.40611637
0.011484861 0.0030600876 0.40825236
0.01109007 0.0033442453 0.41128388
0.011190891 0.003716059 0.41342661
0.011300623 0.0040923543 0.41557232
0.01094158 0.0043944158 0.41861579
0.011071414 0.0047807768 0.42076823
0.010736942 0.0050951503 0.42381987
0.010415837 0.0054162256 0.42687601
0.010108143 0.0057440251 0.42993665
0.0098138452 0.0060785338 0.43300176
0.0095329434 0.0064197518 0.43607137
0.0097275674 0.0068385638 0.43824542
0.0099311173 0.0072618462 0.44042253
0.010143578 0.0076896064 0.44260263
0.010820389 0.0081893578 0.44388348
0.011501685 0.0086913444 0.44516584
0.012638375 0.0092608444 0.445546
0.013326332 0.0097661838 0.44683066
0.014465243 0.010336801 0.44721156
0.015604168 0.010907426 0.4475925
0.016301095 0.01141724 0.44888008
0.017442241 0.011988979 0.44926172
0.01902093 0.012619281 0.44873524
0.020159855 0.013189899 0.44911614
0.021298766 0.013760516 0.44949707
0.022437692 0.014331138 0.44987798
0.023576617 0.014901763 0.45025891
0.025141925 0.01552535 0.44972786
0.026278615 0.01609485 0.45010805
0.027415305 0.01666435 0.45048821
0.028551996 0.017233854 0.4508684
0.029688671 0.017803354 0.45124856
0.081506938 0.041194811 0.45170724
0.082284257 0.041744906 0.45302173
0.083066016 0.04229724 0.45433772
0.084171429 0.042851079 0.45470741
0.085276857 0.043404914 0.45507714
0.0065222979 -2.30968e-05 0.39392245
0.0070461929 0.0004029274 0.39515215
0.0080801547 0.00092095882 0.39549795
0.0091141164 0.0014389902 0.39584377
0.010148078 0.0019570217 0.39618957
0.010184258 0.0023022182 0.39831063
0.010726035 0.0027371906 0.3995463
0.010777846 0.0030902177 0.40167257
0.010838598 0.0034477189 0.40380186
0.010908276 0.0038097017 0.40593413
0.010986894 0.0041761585 0.40806937
0.010588959 0.004467383 0.4110997
0.010687679 0.0048439018 0.41324165
0.01079531 0.0052249059 0.41538662
0.010433108 0.0055340305 0.41842893
0.010084301 0.0058498718 0.42147565
0.0097489059 0.006172426 0.42452693
0.0094268769 0.0065016896 0.42758265
0.0095881224 0.0069095418 0.42974553
0.0092906654 0.0072511137 0.43280947
0.0090066195 0.0075993985 0.43587792
0.0091991425 0.0080229156 0.43805122
0.0094005764 0.0084509104 0.44022754
0.010069638 0.008949656 0.44150582
0.010743171 0.0094506405 0.44278556
0.011421174 0.0099538639 0.44406679
0.012103647 0.010459326 0.44534948
0.013240322 0.011028826 0.44572967
0.014376998 0.011598324 0.44610983
0.015513688 0.012167824 0.44648999
0.016650379 0.012737328 0.44687018
0.017787069 0.013306828 0.44725034
0.018923759 0.013876328 0.44763049
0.020060435 0.014445828 0.44801068
0.021197125 0.015015328 0.44839084
0.022333816 0.015584828 0.44877103
0.023470506 0.016154332 0.44915119
0.024607196 0.016723832 0.44953135
0.025743872 0.01729333 0.44991153
0.026880562 0.01786283 0.45029169
0.028017253 0.018432334 0.45067185
0.080217227 0.041805405 0.45020428
0.08033514 0.042355087 0.45340717
0.081440568 0.042908922 0.4537769
0.082545981 0.043462761 0.45414659
0.083331183 0.044019684 0.45546368
0.0060369372 0.0010647215 0.39374405
0.0070686638 0.0015816391 0.39408913
0.0075937361 0.0020111278 0.39531919
0.0086276978 0.0025291592 0.39566502
0.0091595054 0.0029620118 0.39689729
0.0096957535 0.0033970997 0.3981311
0.010236472 0.0038344227 0.39936638
0.010286182 0.0041921586 0.40149188
0.010344833 0.0045543723 0.40362039
0.01041241 0.0049210601 0.40575188
0.010488942 0.0052922294 0.40788636
0.010087848 0.0055905133 0.41091552
0.0097001493 0.0058955178 0.41394919
0.0098079145 0.0062823445 0.41609409
0.0099246502 0.006673649 0.41824204
0.0095726848 0.0069965534 0.42128763
0.0092341304 0.0073261708 0.42433774
0.0089089572 0.0076624975 0.4273923
0.0090680867 0.0080750585 0.42955443
0.0092361718 0.0084920973 0.43171951
0.0089467466 0.0088463277 0.43478602
0.0091349036 0.0092734322 0.43695787
0.009332031 0.0097050183 0.43913266
0.0099978149 0.010205001 0.44040975
0.010668039 0.010707218 0.44168839
0.011342764 0.011211675 0.44296849
0.012474984 0.011778936 0.44334716
0.013156399 0.012286752 0.44462949
0.014290854 0.012855139 0.4450089
0.01497896 0.013366306 0.44629347
0.016115651 0.01393581 0.44667366
0.017252341 0.014505306 0.44705382
0.018389016 0.015074806 0.44743398
0.019525707 0.015644306 0.44781417
0.020662397 0.016213806 0.44819432
0.022232026 0.016833808 0.44766489
0.023366481 0.017402191 0.4480443
0.024500936 0.017970571 0.44842371
0.025635377 0.018538952 0.44880313
0.049469203 0.029980883 0.45361114
0.050596952 0.030545909 0.45398831
0.051724702 0.031110933 0.45436549
0.052852467 0.031675957 0.45474267
0.078709692 0.042966764 0.45284635
0.07948713 0.043522689 0.45416078
0.080594793 0.044077646 0.45453125
0.0055515766 0.0021525361 0.39356568
0.0065833032 0.0026694536 0.39391077
0.0071073174 0.0031012967 0.39514044
0.0081412792 0.0036193281 0.39548627
0.0086720288 0.0040545352 0.39671814
0.0092072487 0.0044919774 0.39795157
0.0097469091 0.0049316585 0.39918646
0.0097945333 0.0052940995 0.40131119
0.0098510683 0.0056610256 0.40343896
0.009916544 0.0060324222 0.40556964
0.0095011592 0.0063321814 0.40859392
0.0095867217 0.0067136511 0.41073138
0.009195894 0.007025715 0.41376385
0.0093015581 0.0074172541 0.41590801
0.009416163 0.0078132637 0.41805518
0.0090610534 0.0081432313 0.4210996
0.0087193549 0.0084799156 0.42414856
0.0083910227 0.0088233054 0.42720196
0.008548066 0.0092405751 0.42936331
0.0087140501 0.0096623227 0.43152761
0.0088889599 0.010088544 0.43369493
0.0090727806 0.01051924 0.43586525
0.0092655718 0.010954414 0.4380385
0.0099280626 0.011455631 0.43931451
0.010595024 0.011959093 0.44059196
0.01126644 0.012464778 0.44187096
0.012396425 0.013030926 0.44224891
0.013074577 0.013539974 0.44353008
0.014206782 0.014107235 0.44390878
0.015339002 0.014674496 0.44428745
0.01602608 0.015188027 0.44557163
0.017160535 0.01575641 0.44595104
0.018294975 0.016324788 0.44633046
0.01942943 0.016893171 0.4467099
0.020563886 0.017461551 0.44708931
0.021698341 0.018029936 0.44746873
0.023264557 0.018645341 0.44693819
0.024396777 0.019212604 0.44731686
0.047810912 0.030604919 0.45303896
0.048938662 0.031169945 0.45341614
0.050066426 0.031734973 0.45379335
0.051572338 0.032320168 0.4532426
0.052697867 0.032884073 0.45361903
0.053823382 0.033447981 0.45399547
0.054948896 0.034011886 0.4543719
0.056074426 0.03457579 0.45474833
0.05719994 0.035139699 0.45512477
0.077527136 0.044138931 0.45454246
0.078637034 0.044695005 0.45491365
0.079746917 0.045251079 0.45528486
0.0808568 0.045807153 0.45565608
0.005066216 0.0032403506 0.39338732
0.0055869669 0.0036734343 0.39461586
0.0066209137 0.0041914657 0.39496168
0.0076548755 0.0047094971 0.39530748
0.008184582 0.0051470622 0.396539
0.008718729 0.0055868588 0.39777204
0.0087575614 0.0059506595 0.39989373
0.0093028545 0.0063960478 0.4011305
0.0093573183 0.0067676753 0.40325749
0.0089275837 0.007068906 0.40627685
0.0090021491 0.0074506067 0.40841052
0.0090856105 0.0078367814 0.4105472
0.0086916089 0.0081559122 0.41357854
0.0087951869 0.0085521638 0.41572192
0.0084257722 0.0088835955 0.41876149
0.0080697238 0.0092217438 0.42180553
0.0082045794 0.0096336566 0.42395937
0.007873103 0.0099841133 0.42701164
0.0080280304 0.010406092 0.42917219
0.0081919134 0.010832548 0.43133575
0.0083647221 0.011263479 0.43350229
0.0085464418 0.011698885 0.43567184
0.0092011988 0.0121991 0.43694517
0.0093985796 0.012642337 0.43911991
0.010524109 0.013206245 0.43949634
0.011192262 0.013713179 0.44077417
0.011864841 0.014222344 0.44205353
0.012994826 0.014788484 0.44243148
0.014124826 0.015354631 0.4428094
0.01525481 0.015920771 0.44318733
0.016384795 0.016486919 0.44356525
0.0170708 0.017002795 0.44484904
0.018203035 0.01757006 0.44522771
0.019774765 0.018185349 0.44469905
0.02090475 0.018751495 0.44507697
0.022034734 0.019317636 0.4454549
0.045415252 0.030687343 0.45116583
0.046540767 0.031251252 0.45154229
0.047666296 0.031815156 0.45191872
0.048791811 0.032379061 0.45229515
0.04991734 0.032942966 0.45267159
0.051042855 0.033506878 0.45304802
0.052168384 0.034070782 0.45342445
0.053293899 0.034634687 0.45380089
0.054791927 0.035213053 0.45324752
0.055915222 0.03577584 0.45362321
0.057038501 0.036338627 0.45399889
0.058161795 0.036901418 0.45437458
0.059648663 0.037474189 0.45381752
0.060769707 0.038035858 0.45419246
0.077005014 0.045309156 0.45435056
0.078114897 0.04586523 0.45472178
0.0040665865 0.0042455718 0.39409131
0.0051005483 0.0047636032 0.3944371
0.00613451 0.0052816346 0.39478293
0.0066609234 0.0057204328 0.39601329
0.0076971203 0.0062395856 0.39635986
0.0077271461 0.0066047385 0.39847857
0.0082669556 0.0070502497 0.39971343
0.008312583 0.0074232258 0.40183738
0.0083671659 0.0078006871 0.40396431
0.0084306598 0.0081826225 0.40609422
0.0085031241 0.008569032 0.40822712
0.0080948025 0.0088896304 0.4112536
0.0081873536 0.0092861131 0.4133932
0.0082888156 0.0096870661 0.41553581
0.0079162419 0.010025568 0.41857421
0.0075570494 0.010370776 0.42161712
0.0076898038 0.010787401 0.42377019
0.0078314692 0.011208493 0.42592624
0.0075080097 0.011571607 0.42898107
0.0076697916 0.012002774 0.43114385
0.0083100796 0.012498632 0.43241236
0.0084874928 0.012937626 0.43458033
0.0091389418 0.013439076 0.43585259
0.0093320012 0.013885912 0.4380258
0.009994626 0.014392955 0.43930176
0.011120141 0.014956864 0.43967819
0.012245655 0.015520765 0.44005463
0.012917235 0.016032292 0.44133356
0.014044985 0.016597314 0.44171074
0.014723241 0.017112188 0.44299197
0.015853226 0.017678335 0.4433699
0.016983196 0.018244477 0.44374782
0.018113196 0.018810622 0.44412574
0.019243181 0.019376766 0.44450366
0.020373166 0.019942911 0.44488162
0.043760255 0.031310145 0.45059481
0.044885769 0.031874053 0.45097125
0.046011299 0.032437958 0.45134768
0.047136813 0.033001862 0.45172411
0.048647061 0.03358347 0.45117489
0.049770355 0.034146257 0.45155057
0.050893635 0.034709048 0.45192626
0.052016929 0.035271835 0.45230195
0.053140208 0.035834622 0.45267764
0.05463706 0.036409512 0.45212394
0.055758119 0.036971182 0.45249888
0.057248265 0.037542719 0.45194295
0.058367088 0.038103268 0.45231715
0.059485912 0.038663819 0.45269135
0.060604721 0.039224368 0.45306554
0.076149523 0.046487417 0.45510152
0.077261642 0.047044609 0.45547348
0.07837376 0.047601804 0.45584545
0.0035801828 0.0053357407 0.39391252
0.0046141446 0.0058537796 0.39425835
0.0056481063 0.006371811 0.39460418
0.0061734617 0.0068129562 0.39583415
0.0067032874 0.007256344 0.39706567
0.0072375834 0.0077019706 0.39829865
0.0077763349 0.0081498362 0.39953312
0.0078198612 0.0085275248 0.40165633
0.0078723431 0.0089096949 0.40378246
0.0079337507 0.009296339 0.40591159
0.0075111389 0.009618409 0.40893316
0.0075926334 0.010015119 0.41106904
0.0076830834 0.01041631 0.41320789
0.0072961748 0.01075628 0.41624141
0.0074067265 0.011167537 0.41838697
0.0070443749 0.011519812 0.42142871
0.0071750283 0.011941144 0.423581
0.0073145926 0.012366947 0.42573628
0.0074630976 0.012797225 0.42789456
0.0076205283 0.01323198 0.4300558
0.0077868998 0.013671212 0.43222007
0.0079622269 0.014114918 0.43438727
0.0086126179 0.014618723 0.43565914
0.009267509 0.015124768 0.43693247
0.0099268556 0.015633047 0.43820727
0.011050135 0.016195837 0.43858296
0.011716187 0.016707471 0.43986005
0.012841702 0.017271381 0.44023648
0.013967216 0.017835289 0.44061291
0.015092745 0.018399194 0.44098935
0.015769958 0.018916426 0.44227013
0.016897708 0.019481452 0.44264731
0.018025473 0.020046478 0.44302449
0.0413789 0.031391099 0.44872653
0.042502195 0.031953886 0.44910222
0.043625474 0.032516673 0.44947791
0.044748768 0.03307946 0.4498536
0.045872062 0.033642247 0.45022929
0.047383353 0.0342215 0.44968048
0.048504412 0.03478317 0.45005542
0.049625471 0.035344839 0.45043036
0.050746515 0.035906505 0.45080531
0.052246645 0.036480162 0.45025274
0.053365469 0.037040714 0.45062694
0.054484293 0.037601262 0.45100114
0.055603117 0.038161814 0.45137534
0.0570921 0.038729876 0.45081899
0.058208689 0.039289311 0.45119241
0.059690952 0.039854016 0.45063388
0.060805306 0.040412329 0.45100659
0.075626343 0.047659997 0.45490927
0.0030937791 0.0064259097 0.39373377
0.0041277409 0.0069439486 0.3940796
0.0046498179 0.0073863305 0.39530846
0.0056860149 0.0079054832 0.39565501
0.0062147826 0.0083512254 0.39688614
0.0067480206 0.0087992065 0.39811873
0.0067827404 0.009178251 0.40023887
0.0068264306 0.0095617697 0.40236205
0.0073775351 0.010018699 0.40360063
0.0069405735 0.010342233 0.40661728
0.0070110857 0.010739189 0.4087494
0.0070904791 0.011140607 0.41088447
0.0071788132 0.011546507 0.41302255
0.0067887604 0.011893541 0.41605493
0.0068972111 0.01230951 0.41819972
0.0065317154 0.012668848 0.4212403
0.0066602528 0.013094889 0.42339182
0.006797716 0.013525397 0.42554632
0.0069441199 0.013960388 0.42770383
0.0070994496 0.014399851 0.42986429
0.00726372 0.014843792 0.43202782
0.0079063922 0.015346598 0.43329701
0.0080862939 0.015798366 0.43546572
0.0092051029 0.016358918 0.43583992
0.0098611712 0.016868435 0.43711358
0.01052171 0.017380193 0.43838876
0.011644989 0.01794298 0.43876445
0.012312219 0.018458089 0.44004187
0.013437748 0.019021997 0.44041833
0.014563262 0.019585902 0.44079477
0.015688777 0.020149807 0.4411712
0.016814306 0.020713715 0.44154763
0.040129647 0.032033488 0.44723701
0.041250706 0.032595158 0.44761196
0.04237175 0.033156827 0.4479869
0.043492809 0.033718493 0.44836184
0.044613868 0.034280162 0.44873679
0.045734912 0.034841832 0.44911173
0.047245041 0.035417609 0.44856253
0.04836385 0.035978157 0.44893673
0.049482673 0.036538709 0.44931093
0.050601497 0.037099257 0.44968513
0.052100465 0.037669443 0.44913214
0.053217053 0.038228877 0.4495056
0.054709315 0.038795702 0.44895044
0.055823669 0.039354015 0.44932312
0.056938022 0.039912328 0.44969583
0.058052376 0.040470637 0.45006853
0.059533462 0.041031871 0.44950962
0.075103164 0.048832577 0.45471698
0.076215282 0.049389772 0.45508894
0.0026073605 0.0075160787 0.39355502
0.0031261444 0.0079597011 0.39478275
0.0041623563 0.0084788539 0.39512929
0.0046878457 0.0089258328 0.39635929
0.0052177906 0.0093750469 0.39759076
0.0057522207 0.0098265037 0.39882371
0.0057870746 0.010211375 0.40094388
0.0063326657 0.010668419 0.40218058
0.0063831657 0.011061125 0.40430593
0.0064426064 0.011458304 0.4064343
0.0065110028 0.011859968 0.40856561
0.00658831 0.012266096 0.41069993
0.0066745579 0.012676705 0.41283724
0.0062813461 0.013030801 0.41586843
0.0063876808 0.013451479 0.41801247
0.006019026 0.01381788 0.42105189
0.0061454773 0.01424863 0.42320263
0.0062808394 0.01468385 0.42535636
0.0064251423 0.01512355 0.42751309
0.0065783858 0.015567722 0.42967281
0.0067405552 0.016016372 0.43183553
0.0073821545 0.016521532 0.43310434
0.0075599551 0.016978011 0.43527231
0.008678779 0.017538562 0.4356465
0.0093337893 0.018050432 0.43691978
0.010454848 0.018612098 0.43729472
0.011116564 0.019127332 0.43857023
0.012239859 0.019690119 0.43894592
0.013363138 0.020252906 0.43932161
0.014486432 0.020815693 0.4396973
0.037360162 0.032092147 0.44629332
0.038886964 0.032673404 0.44574973
0.040005773 0.033233956 0.44612393
0.041124597 0.033794504 0.44649813
0.042243421 0.034355056 0.44687232
0.043362245 0.034915604 0.44724652
0.044481069 0.035476156 0.44762072
0.045599878 0.036036704 0.44799492
0.046718702 0.036597256 0.44836912
0.048225433 0.037168439 0.44781876
0.049342006 0.03772787 0.44819221
0.050842017 0.038295701 0.44763967
0.05195637 0.038854014 0.44801235
0.053070724 0.039412327 0.44838506
0.054561794 0.03997568 0.44782954
0.056048393 0.040536799 0.44727251
0.057158291 0.041092873 0.4476437
0.058268175 0.041648943 0.44801491
0.059378058 0.042205021 0.44838613
0.073806614 0.049433984 0.45321181
0.074916497 0.049990058 0.45358303
0.075692102 0.050562352 0.45489666
0.076804236 0.051119544 0.45526862
0.077916354 0.051676735 0.45564058
0.0016025007 0.0085330755 0.39425704
0.0026386976 0.0090522282 0.39460361
0.0031608939 0.0095004439 0.39583245
0.004199326 0.010020714 0.39617977
0.0047282279 0.010472283 0.39741084
0.0052616 0.010926094 0.3986434
0.0052943826 0.011315674 0.4007628
0.005336076 0.011709731 0.40288514
0.0053867102 0.012108264 0.40501046
0.0054462999 0.012511272 0.40713879
0.0055148005 0.012918757 0.40927011
0.0055922568 0.013330717 0.4114044
0.005678609 0.013747156 0.4135417
0.0057739317 0.014168065 0.41568196
0.0058781654 0.014593452 0.41782522
0.0055063665 0.014966916 0.42086348
0.0056307018 0.015402375 0.42301345
0.0057639778 0.015842304 0.4251664
0.0059061795 0.016286712 0.42732236
0.0060572922 0.016735593 0.4294813
0.0062173754 0.017188953 0.43164325
0.0068579316 0.017696466 0.43291166
0.0075029731 0.018206216 0.4341816
0.0081524551 0.018718207 0.43545306
0.0092712641 0.019278759 0.43582726
0.0099274665 0.019794099 0.43710089
0.011048526 0.020355769 0.43747583
0.01216957 0.020917438 0.43785077
0.013290629 0.021479107 0.43822572
0.036122978 0.03273195 0.44480792
0.037241802 0.033292502 0.44518211
0.038360626 0.033853047 0.44555631
0.039479449 0.034413598 0.44593051
0.04100062 0.034989145 0.44538501
0.042117208 0.035548575 0.44575846
0.043233797 0.03610801 0.44613191
0.044350386 0.036667436 0.44650537
0.045860365 0.037237387 0.4459562
0.046974719 0.0377957 0.44632891
0.048089072 0.038354009 0.44670162
0.049203426 0.038912326 0.44707429
0.050702244 0.039476682 0.4465214
0.051814377 0.040033873 0.44689336
0.052926496 0.040591069 0.44726533
0.054416373 0.04115095 0.44670939
0.055901796 0.041708592 0.446152
0.057009459 0.042263545 0.44652247
0.058488175 0.042817835 0.44596285
0.059593603 0.04337167 0.44633257
0.060699016 0.043925509 0.44670227
0.074731946 0.051142834 0.45244983
0.075504258 0.051716361 0.45376235
0.076614156 0.052272435 0.45413354
0.07772404 0.052828509 0.45450476
0.078505293 0.053406511 0.45582026
0.0011150539 0.0096255988 0.3940779
0.0021512359 0.010144752 0.39442447
0.0026724041 0.010595322 0.39565292
0.0031980276 0.011048127 0.39688286
0.0037280917 0.011503169 0.39811429
0.0042626411 0.011960452 0.39934728
0.0042955577 0.01235586 0.40146664
0.0048412681 0.012818739 0.40270329
0.0048898011 0.013221981 0.40482783
0.0049472749 0.013629697 0.40695539
0.0050136894 0.014041895 0.40908596
0.0050890297 0.014458563 0.41121948
0.0051732957 0.014879707 0.41335598
0.0052665174 0.015305325 0.41549549
0.00536865 0.015735421 0.41763797
0.004993692 0.016115952 0.42067507
0.0051159263 0.01655612 0.42282426
0.0052470863 0.017000757 0.42497644
0.0053872019 0.017449874 0.42713162
0.0055362284 0.017903466 0.42928979
0.0056941956 0.018361535 0.43145099
0.0063337088 0.018871404 0.43271902
0.0069776922 0.019383507 0.43398854
0.0076261163 0.01989785 0.43525964
0.0087449551 0.020458402 0.43563381
0.009863764 0.02101895 0.43600801
0.010982573 0.021579498 0.4363822
0.033359006 0.032790497 0.4438661
0.03447783 0.033351045 0.4442403
0.036008984 0.033928715 0.4436982
0.037125573 0.034488142 0.44407162
0.038242161 0.035047576 0.44444507
0.03935875 0.035607003 0.44481853
0.040878713 0.036179073 0.44427273
0.041993082 0.03673739 0.44464543
0.04310742 0.037295699 0.44501814
0.044221789 0.037854012 0.44539085
0.045336142 0.038412325 0.44576356
0.046842694 0.038977683 0.44521329
0.047954828 0.039534874 0.44558522
0.049454704 0.040096875 0.44503269
0.050564587 0.040652953 0.4454039
0.05167447 0.041209023 0.44577512
0.052784368 0.041765101 0.44614631
0.054273069 0.042321507 0.44559005
0.055757299 0.042875677 0.4450323
0.056862727 0.043429513 0.44540203
0.058340281 0.043980327 0.44484201
0.059443474 0.044533044 0.44521099
0.060546666 0.045085762 0.44557995
0.073444068 0.051737063 0.45094773
0.074549481 0.052290902 0.45131743
0.075318515 0.052865662 0.45262879
0.076426178 0.053420618 0.45299923
0.077201918 0.053998735 0.45431286
0.077982113 0.054579094 0.45562798
0.0011454523 0.011169933 0.3951261
0.0021838844 0.011690203 0.39547339
0.0021946132 0.01208025 0.39758521
0.0032374859 0.01260276 0.39793399
0.003261596 0.01299952 0.40005034
0.0038017929 0.01346251 0.40128517
0.0038415194 0.013867108 0.40340671
0.0043928921 0.014335698 0.40464523
0.0044482648 0.014748123 0.40677199
0.0045125782 0.015165025 0.40890178
0.0045858175 0.015586406 0.41103452
0.0046679676 0.016012259 0.41317028
0.0047590882 0.016442586 0.41530898
0.0043698102 0.01682459 0.41834119
0.0044810176 0.017264985 0.42048666
0.0046011657 0.017709862 0.42263508
0.0047302246 0.018159211 0.42478651
0.0048682243 0.018613037 0.42694092
0.0050151497 0.019071337 0.42909831
0.0051710159 0.019534115 0.43125871
0.0058094859 0.020046338 0.43252635
0.0064524114 0.020560795 0.43379551
0.0070997924 0.021077495 0.43506619
0.0082186162 0.021638047 0.43544039
0.0093374401 0.022198595 0.43581459
0.032133937 0.033427708 0.44238481
0.03325054 0.033987138 0.44275823
0.034367114 0.034546569 0.44313169
0.035897076 0.035120763 0.44258928
0.037011415 0.035679076 0.44296199
0.038125783 0.036237385 0.44333467
0.039240122 0.036795698 0.44370738
0.04035449 0.037354007 0.44408008
0.041871041 0.037921488 0.44353318
0.042983159 0.038478684 0.44390514
0.044095278 0.039035879 0.44427711
0.045602903 0.039598878 0.4437272
0.046712786 0.040154953 0.44409838
0.047822684 0.040711027 0.4444696
0.049321368 0.041269556 0.44391671
0.050429016 0.041824512 0.44428715
0.051536679 0.042379469 0.44465762
0.053026438 0.04293352 0.44410178
0.054131851 0.043487355 0.44447148
0.055614918 0.044038054 0.44391334
0.057093516 0.044586513 0.44335377
0.058194473 0.045138109 0.44372198
0.059295431 0.045689709 0.44409019
0.060396388 0.046241309 0.44445843
0.073607862 0.052860495 0.44887707
0.074708804 0.053412095 0.44924527
0.075134873 0.054010253 0.45149603
0.076240301 0.054564089 0.45186573
0.077012762 0.055143446 0.4531782
0.077789679 0.055725034 0.45449218
0.078571066 0.056308866 0.45580766
0.079683185 0.056866057 0.45617962
0.00013756752 0.012199819 0.39582694
0.0011782348 0.012721203 0.396175
0.0017039925 0.013179841 0.39740491
0.0022341907 0.013640711 0.39863634
0.0027688742 0.014103819 0.39986926
0.0027998239 0.014509767 0.40198782
0.0033456534 0.01497847 0.40322447
0.0033922344 0.015392248 0.40534824
0.0039492548 0.015866548 0.40658861
0.0040114522 0.016288163 0.40871763
0.0040825903 0.016714249 0.4108496
0.0041626543 0.01714481 0.41298455
0.0042516589 0.01757985 0.41512251
0.0038592517 0.017968915 0.41815355
0.0039683431 0.018414021 0.42029822
0.0040863901 0.018863607 0.42244589
0.003729701 0.019270573 0.42548889
0.0038678348 0.019730225 0.42764327
0.0040149093 0.020194355 0.42980066
0.004647851 0.020706695 0.43106645
0.0052852482 0.021221273 0.43233371
0.0063996017 0.021779582 0.43270642
0.0070437193 0.02229752 0.43397591
0.030915424 0.034062449 0.44090581
0.032029778 0.034620762 0.44127852
0.033144131 0.035179071 0.44165123
0.034258485 0.035737384 0.44202393
0.035787255 0.036308102 0.44148114
0.036899373 0.036865298 0.44185311
0.038011491 0.037422489 0.44222507
0.039531335 0.037988734 0.44167927
0.040641218 0.038544808 0.44205049
0.041751117 0.039100882 0.44242167
0.042861 0.039656956 0.44279289
0.043970883 0.04021303 0.44316408
0.045477331 0.040772561 0.44261381
0.046584979 0.041327517 0.44298428
0.048084721 0.041883692 0.44243181
0.049190134 0.042437527 0.44280151
0.050295562 0.042991363 0.44317123
0.051400989 0.043545201 0.44354093
0.052889571 0.044095781 0.4429847
0.053992763 0.044648498 0.44335365
0.055474639 0.045195721 0.44279519
0.056575596 0.045747321 0.44316342
0.057676539 0.046298917 0.44353163
0.059149489 0.046841666 0.44297016
0.060248211 0.047392145 0.44333765
0.073775828 0.053974509 0.44680792
0.07487233 0.05452387 0.44717467
0.074953362 0.055150136 0.45036402
0.07572028 0.055729605 0.45167464
0.076491684 0.056311317 0.45298672
0.077267542 0.056895263 0.45430031
0.078377441 0.057451338 0.4546715
0.079160005 0.058038637 0.45598733
-0.00035199523 0.013297051 0.39564702
0.00017049909 0.013756918 0.3968758
0.00069740415 0.014219025 0.3981061
0.0012288094 0.014683373 0.39933792
0.0017646849 0.015149955 0.4005712
0.0023050159 0.015618775 0.40180597
0.0023427755 0.016033908 0.4039267
0.0028942674 0.016508318 0.40516523
0.0034502447 0.016984973 0.40640521
0.003510341 0.017411295 0.40853345
0.0035793781 0.017842092 0.41066465
0.003657341 0.018277366 0.41279885
0.0037442446 0.01871711 0.41493604
0.0033486784 0.019113241 0.41796592
0.0034556687 0.019563057 0.42010981
0.0035716146 0.02001735 0.42225671
0.0032117814 0.020431381 0.42529854
0.0033477992 0.020895742 0.42745215
0.0034927726 0.021364581 0.42960876
0.0041246712 0.021879274 0.43087417
0.0047610253 0.022396207 0.43214104
0.0058753788 0.022954516 0.43251374
0.028162479 0.034120761 0.43996775
0.029276848 0.03467907 0.44034046
0.030815586 0.035251912 0.43980107
0.031927705 0.035809103 0.440173
0.033039838 0.036366299 0.44054496
0.034569651 0.036934663 0.44000256
0.035679549 0.037490737 0.44037375
0.036789432 0.038046811 0.44074497
0.037899315 0.038602885 0.44111618
0.039009213 0.039158959 0.44148737
0.040119097 0.039715033 0.44185859
0.041633278 0.04027557 0.44131094
0.042740941 0.040830523 0.44168141
0.043848604 0.041385479 0.44205186
0.045353845 0.041941535 0.44150126
0.046459273 0.04249537 0.44187096
0.047564685 0.043049209 0.44224069
0.04906103 0.04360079 0.44168708
0.050164223 0.044153508 0.44205603
0.051653847 0.044701733 0.44150019
0.05275479 0.045253333 0.44186842
0.053855747 0.045804929 0.44223663
0.054956704 0.046356529 0.44260487
0.056435168 0.046899162 0.44204527
0.05753389 0.047449641 0.44241273
0.059005648 0.047988914 0.44185093
0.060102135 0.048538275 0.44221765
0.061567202 0.049074192 0.44165358
0.074587196 0.054408822 0.43968382
0.073260009 0.055130608 0.44661835
0.073672965 0.055733711 0.44886458
0.074434385 0.056313299 0.45017329
0.075537562 0.056866016 0.45054224
0.076305673 0.057448961 0.45185322
0.077078253 0.058034144 0.45316565
0.077855304 0.058621563 0.45447963
0.078965202 0.059177637 0.45485082
0.079748943 0.059768412 0.45616704
-0.0013630092 0.014334003 0.39634669
-0.00083938241 0.014797343 0.39757586
-0.00031125546 0.015262924 0.39880654
0.00022131205 0.015730742 0.40003869
0.00127092 0.016256604 0.40038973
0.0018101931 0.016727783 0.40162411
0.0018458664 0.017147623 0.40374407
0.0023963153 0.017624389 0.40498221
0.0029512197 0.018103398 0.40622181
0.0030092299 0.018534431 0.40834931
0.0030761659 0.018969936 0.41047972
0.0031520128 0.019409917 0.41261315
0.0032368302 0.019854372 0.41474956
0.002838105 0.020257568 0.41777828
0.0029430091 0.020712089 0.4199214
0.003056854 0.021171095 0.42206752
0.0026938617 0.021592189 0.42510819
0.0028277785 0.022061259 0.42726105
0.0034519136 0.022574952 0.42852381
0.004080534 0.02309088 0.42978808
0.026956052 0.034752913 0.43849292
0.02806817 0.035310104 0.43886489
0.029180288 0.035867296 0.43923682
0.030717865 0.036436666 0.43869704
0.031827748 0.03699274 0.43906826
0.032937646 0.037548818 0.43943945
0.034047529 0.038104888 0.43981066
0.035157412 0.038660966 0.44018188
0.036681592 0.039223615 0.4396376
0.03778924 0.039778572 0.44000807
0.038896888 0.040333524 0.44037852
0.040004551 0.040888481 0.44074899
0.041517556 0.041445542 0.44020101
0.042622983 0.041999377 0.44057071
0.043728396 0.042553216 0.44094044
0.04523249 0.0431058 0.44038942
0.046335682 0.043658517 0.44075841
0.047833055 0.044207744 0.44020519
0.048934013 0.044759344 0.44057342
0.05003497 0.045310944 0.44094163
0.051135913 0.045862541 0.44130987
0.052622125 0.046406172 0.44075289
0.053720847 0.046956651 0.44112036
0.054819569 0.047507133 0.44148785
0.05629684 0.048046291 0.44092792
0.057393327 0.048595652 0.44129464
0.058489829 0.049145013 0.44166136
0.059586316 0.049694374 0.44202808
0.06142205 0.050212137 0.44053397
0.062514082 0.050759263 0.44089922
0.063606098 0.051306382 0.44126445
0.074078739 0.055548437 0.43949696
0.072399139 0.056314811 0.4473674
0.073155031 0.056894518 0.44867423
0.073915407 0.057476461 0.44998255
0.0750186 0.058029179 0.45035154
0.075785652 0.058614478 0.45166212
0.076557174 0.059202015 0.45297417
0.077333182 0.059791788 0.45428774
0.078113645 0.0603838 0.45560279
0.078898579 0.060978048 0.45691934
-0.0018513352 0.015842475 0.39827517
-0.00080397725 0.016367223 0.39862546
-0.00027243793 0.016837392 0.39985722
0.00026357174 0.017309804 0.40109047
0.00080400705 0.017784452 0.40232524
0.0013489425 0.018261338 0.40356147
0.0018983483 0.01874046 0.40479922
0.001947552 0.019172844 0.40692365
0.0025081038 0.019657565 0.40816513
0.0025729537 0.020097779 0.4102948
0.0026466995 0.020542469 0.41242743
0.0027294159 0.020991635 0.41456306
0.0023275316 0.021401891 0.41759065
0.0024303198 0.021861125 0.41973299
0.0020530224 0.02228369 0.42276877
0.0021759272 0.022752997 0.42491788
0.0023077428 0.023226775 0.42706993
0.002448529 0.023705032 0.429225
0.02420862 0.034811106 0.43755674
0.025320739 0.035368301 0.43792871
0.026432872 0.035925493 0.43830064
0.027975947 0.036494743 0.43776274
0.029085845 0.037050817 0.43813396
0.030195728 0.037606891 0.43850514
0.031305611 0.038162965 0.43887636
0.032415509 0.038719043 0.43924758
0.033945203 0.039281577 0.43870518
0.035470426 0.039841875 0.43816131
0.036575839 0.040395711 0.43853104
0.037681267 0.04094955 0.43890074
0.03878668 0.041503385 0.43927047
0.039892107 0.04205722 0.43964016
0.040997535 0.042611059 0.44000989
0.042507142 0.043163527 0.43946078
0.043610319 0.043716244 0.43982974
0.044713512 0.044268962 0.44019872
0.045816705 0.04482168 0.44056767
0.047315121 0.045368548 0.44001487
0.048416078 0.045920148 0.44038308
0.049517035 0.046471749 0.44075128
0.051006526 0.047014147 0.44019547
0.052105248 0.047564626 0.44056293
0.053588033 0.048103664 0.44000489
0.054684535 0.048653025 0.4403716
0.055781022 0.049202386 0.44073835
0.056877509 0.049751747 0.44110507
0.058349147 0.050285194 0.44054326
0.059443399 0.050833438 0.44090924
0.060908332 0.051363528 0.44034517
0.062000349 0.05191065 0.44071043
0.063458577 0.052437384 0.44014415
0.072873577 0.056746736 0.44118506
0.071882263 0.057473265 0.44717744
0.072637111 0.058055326 0.44848391
0.073396429 0.058639623 0.44979182
0.074499622 0.059192337 0.4501608
0.075265616 0.059779994 0.451471
0.076036111 0.060369886 0.45278266
0.07681106 0.060962014 0.45409584
0.077590466 0.06155638 0.45541054
0.078374356 0.062152982 0.45672667
-0.0023440421 0.016946774 0.39809409
-0.0018157959 0.017418183 0.39932474
-0.00076620281 0.017944045 0.39967576
-0.00023125112 0.018418811 0.40090862
0.00030815601 0.018895814 0.402143
0.0008520335 0.019375054 0.40337884
0.0014003813 0.019856531 0.40461621
0.0014474839 0.020293623 0.40673986
0.0015035123 0.020735193 0.40886652
0.0015684962 0.021181237 0.41099614
0.0016423762 0.021631753 0.41312876
0.0017251968 0.022086751 0.4152644
0.0018169582 0.022546219 0.41740301
0.0014253557 0.022970252 0.42043388
0.0015372038 0.023439789 0.42257923
0.0016580075 0.023913804 0.42472753
0.022573322 0.035426494 0.43699253
0.02368544 0.035983685 0.43736446
0.025234044 0.03655282 0.43682843
0.026343942 0.037108894 0.43719965
0.027453825 0.037664969 0.43757087
0.028563708 0.038221043 0.43794206
0.03010115 0.038784578 0.43740231
0.031208813 0.039339535 0.43777275
0.032316461 0.039894491 0.43814322
0.033844963 0.040453557 0.43760049
0.03495039 0.041007392 0.43797022
0.036055803 0.041561227 0.43833992
0.037161231 0.042115066 0.43870965
0.038678586 0.042668533 0.43816316
0.039781779 0.04322125 0.43853211
0.040884972 0.043773968 0.4389011
0.041988164 0.044326689 0.43927005
0.043494329 0.04487456 0.43871987
0.044595286 0.04542616 0.43908808
0.045696244 0.04597776 0.43945628
0.046797201 0.046529356 0.43982452
0.047898158 0.047080956 0.44019273
0.049390927 0.047622118 0.43963805
0.050489649 0.048172597 0.44000551
0.051588371 0.048723079 0.44037297
0.053072214 0.049259767 0.43981531
0.054168701 0.049809128 0.44018203
0.055265188 0.050358489 0.44054878
0.056361675 0.050907847 0.4409155
0.057834372 0.051438939 0.44035408
0.058928639 0.051987179 0.44072005
0.060394615 0.052514918 0.44015637
0.061486632 0.05306204 0.44052163
0.062945902 0.053586416 0.43995574
0.064035699 0.054132424 0.44032022
0.06512548 0.054678425 0.44068471
0.066215277 0.055224434 0.44104919
0.068750948 0.056288101 0.44084328
0.070266664 0.058081239 0.44662002
0.071018234 0.058664534 0.44792533
0.072119191 0.059216134 0.44829357
0.072877452 0.059802786 0.44960111
0.073640168 0.060391672 0.45091018
0.074745595 0.060945511 0.45127988
0.07517904 0.061576165 0.45353276
0.076288924 0.062132239 0.45390397
0.076735765 0.062769607 0.45616132
0.077850133 0.063327923 0.45653403
-0.0023095608 0.018524837 0.39914328
-0.0017778873 0.019000836 0.40037498
-0.00072607398 0.019527819 0.40072677
-0.00070117414 0.019959548 0.40284294
-0.00015610456 0.020442262 0.40407917
0.00039342046 0.020927217 0.40531686
0.00044064224 0.021370133 0.40744054
-7.7188015e-06 0.021774383 0.41045231
0.00056189299 0.022269405 0.41169676
0.00063595176 0.02272575 0.41382936
0.00022107363 0.023146778 0.41685238
0.00031518936 0.023613192 0.41899168
0.00041826069 0.024084082 0.421134
0.00053025782 0.024559449 0.42327929
0.019379437 0.035470631 0.43696091
0.020938024 0.036041886 0.43642828
0.022050142 0.036599077 0.43680024
0.023162276 0.037156269 0.4371722
0.024711922 0.037723046 0.43663657
0.025821805 0.03827912 0.43700776
0.026931703 0.038835194 0.43737897
0.028041586 0.039391268 0.43775019
0.029580072 0.03995245 0.4372108
0.03068772 0.040507406 0.43758127
0.032219514 0.041065238 0.43703967
0.033324942 0.041619074 0.43740937
0.03443037 0.042172913 0.4377791
0.035535783 0.042726748 0.4381488
0.037056416 0.043278977 0.43760344
0.038159609 0.043831695 0.43797243
0.039262801 0.044384412 0.43834138
0.040365994 0.044937134 0.43871036
0.041875452 0.045483772 0.43816128
0.042976409 0.046035368 0.43852952
0.044077367 0.046586968 0.43889773
0.045178324 0.047138568 0.43926597
0.046279266 0.047690164 0.43963417
0.047380224 0.048241764 0.44000238
0.04887405 0.048780572 0.43944809
0.049972773 0.04933105 0.43981555
0.051071495 0.049881533 0.44018301
0.052556396 0.050415862 0.43962574
0.053652883 0.050965223 0.43999249
0.05474937 0.051514585 0.44035921
0.055845857 0.052063946 0.44072592
0.057319596 0.05259268 0.44016489
0.058413863 0.053140923 0.44053087
0.059508115 0.053689167 0.44089684
0.060602367 0.05423741 0.44126281
0.061696634 0.054785654 0.44162881
0.062790886 0.055333894 0.44199479
0.063885137 0.055882134 0.44236076
0.064979404 0.056430377 0.44272673
0.066433027 0.056949049 0.44215897
0.067907244 0.058106922 0.44475991
0.069749787 0.059239693 0.44643006
0.070500299 0.059825338 0.44773501
0.071255282 0.06041323 0.4490414
0.072358474 0.060965948 0.44941038
0.073120147 0.061557192 0.45071906
0.07388629 0.062150672 0.4520292
0.074656919 0.062746391 0.45334086
0.075432003 0.063344344 0.45465404
0.076211542 0.063944548 0.45596865
0.076995552 0.064546973 0.45728478
-0.0022726953 0.02010984 0.40019313
-0.0012208819 0.020636823 0.40054491
-0.0011980832 0.021073265 0.40266031
-0.00065407157 0.021558333 0.40389615
-0.00010558963 0.022045642 0.40513349
-6.0468912e-05 0.022493267 0.40725636
-0.0005119741 0.02290458 0.410267
-0.00044676661 0.023362281 0.41239658
-0.00037258863 0.023824451 0.41452917
-0.0017861426 0.024178784 0.4193258
-0.0016874224 0.024653263 0.42146662
0.017740846 0.036087248 0.43639556
0.019302726 0.036657266 0.43586406
0.020414844 0.037214465 0.43623602
0.021526963 0.037771657 0.43660799
0.022639096 0.038328849 0.43697992
0.0241898 0.038893271 0.43644467
0.025299683 0.039449345 0.43681589
0.026409566 0.040005419 0.43718708
0.027519464 0.040561493 0.43755829
0.029058993 0.041120321 0.43701929
0.030166656 0.041675277 0.43738976
0.031699494 0.042230751 0.43684855
0.032804921 0.04278459 0.43721828
0.034331068 0.043336704 0.4366748
0.035434261 0.043889422 0.43704376
0.036537439 0.04444214 0.43741274
0.038054645 0.044989783 0.43686628
0.039155602 0.04554138 0.43723452
0.04025656 0.04609298 0.43760273
0.041357517 0.04664458 0.43797097
0.042458475 0.047196176 0.43833917
0.043559432 0.047747776 0.43870738
0.044660389 0.048299376 0.43907562
0.045761347 0.048850972 0.43944383
0.046862304 0.049402572 0.43981206
0.048357189 0.049939025 0.43925813
0.049455896 0.050489504 0.43962559
0.050554633 0.051039986 0.43999305
0.052040562 0.051571961 0.43943617
0.053137064 0.052121323 0.43980291
0.054233551 0.052670684 0.44016963
0.055330038 0.053220045 0.44053635
