# .PCD v0.7 - Point Cloud Data file format
VERSION 0.7
FIELDS x y z
SIZE 4 4 4
TYPE F F F
COUNT 1 1 1
WIDTH 1382
HEIGHT 1
VIEWPOINT 0 0 0 1 0 0 0
POINTS 1382
DATA ascii
0.24127516 0.18743044 0.47370759
0.24231136 0.1879496 0.47405416
0.24334499 0.18815412 0.47334722
0.24437897 0.18867217 0.47369304
0.24541293 0.18919019 0.47403884
0.24643764 0.18939027 0.47332889
0.24746937 0.18990718 0.47367394
0.24850111 0.1904241 0.47401902
0.24953282 0.19094101 0.47436407
0.2505464 0.19113547 0.47365037
0.25157589 0.19165125 0.4739947
0.25258273 0.19184236 0.47327876
0.25361001 0.19235703 0.47362235
0.25461012 0.1925448 0.47290418
0.25563517 0.19305837 0.47324702
-0.28187975 -0.024960868 0.45977339
-0.28050193 -0.024270542 0.46023425
-0.27827916 -0.023473106 0.459925
-0.27690354 -0.022783898 0.46038508
-0.27552792 -0.022094674 0.46084517
-0.27331403 -0.021301739 0.46053293
-0.27110472 -0.020511024 0.46021923
-0.26889983 -0.019722577 0.45990402
-0.26753089 -0.019036721 0.46036187
-0.26533273 -0.018251609 0.46004447
-0.26396599 -0.017566856 0.46050155
-0.26177451 -0.016785093 0.4601818
-0.26041004 -0.016101472 0.46063817
-0.25822529 -0.015323099 0.46031627
-0.256863 -0.014640581 0.46077189
-0.2546849 -0.013865545 0.4604477
-0.2533249 -0.01318416 0.46090257
-0.25115356 -0.012412462 0.46057621
-0.24979579 -0.011732209 0.46103033
-0.2476311 -0.010963876 0.46070167
-0.24547085 -0.010197803 0.46037146
-0.24411753 -0.0095197558 0.46082407
-0.24196404 -0.0087570287 0.46049175
-0.24061298 -0.0080801286 0.46094361
-0.23846611 -0.0073207393 0.46060899
-0.23632383 -0.0065636113 0.46027288
-0.23497719 -0.0058889315 0.46072328
-0.23284152 -0.0051351599 0.46038491
-0.2314972 -0.0044615977 0.46083453
-0.22936818 -0.0037111714 0.46049395
-0.22724372 -0.0029629879 0.46015182
-0.22512367 -0.0022170395 0.45980823
-0.22378603 -0.0015468374 0.46025562
-0.22167268 -0.00080424547 0.45990983
-0.22033724 -0.00013516843 0.46035647
-0.21823061 0.000604067 0.46000835
-0.2161285 0.0013410598 0.45965883
-0.21403077 0.0020758249 0.45930776
-0.21270204 0.0027415343 0.45975217
-0.2113733 0.0034072585 0.46019658
-0.20928457 0.0041375533 0.45984259
-0.20795807 0.0048021525 0.46028623
-0.20587599 0.0055290759 0.45992991
-0.2045517 0.006192565 0.46037284
-0.20247629 0.0069161467 0.46001425
-0.20115426 0.0075785108 0.46045643
-0.19983223 0.0082408674 0.46089858
-0.1977658 0.0089599639 0.46053711
-0.196446 0.0096212178 0.46097854
-0.19438627 0.010336954 0.46061477
-0.19306871 0.010997076 0.46105543
-0.19028023 0.011761708 0.45988277
-0.18896711 0.012419609 0.46032193
-0.186923 0.013127517 0.45995301
-0.18488342 0.013833173 0.45958251
-0.18357477 0.014488839 0.46002021
-0.18226612 0.015144482 0.46045789
-0.18023542 0.015845684 0.46008441
-0.17820922 0.016544627 0.4597095
-0.17618743 0.017241357 0.45933297
-0.17488548 0.017893648 0.45976841
-0.17358354 0.018545946 0.46020386
-0.17157069 0.019238185 0.45982447
-0.16956234 0.019928195 0.45944354
-0.1682649 0.020578243 0.45987746
-0.16626322 0.021264894 0.45949432
-0.16426602 0.021949315 0.45910966
-0.16227326 0.022631489 0.45872346
-0.16028503 0.023311418 0.45833585
-0.15899646 0.023957003 0.45876679
-0.1577079 0.024602588 0.45919776
-0.15572861 0.025278039 0.45880708
-0.15444228 0.025922507 0.45923731
-0.15315595 0.026566967 0.45966753
-0.15186968 0.027211435 0.46009773
-0.14990151 0.0278813 0.45970342
-0.14861742 0.02852465 0.46013287
-0.14733335 0.029167993 0.46056232
-0.14604926 0.029811343 0.4609918
-0.14409223 0.030475611 0.46059361
-0.1428104 0.031117836 0.46102235
-0.14152858 0.031760067 0.46145105
-0.14024672 0.032402292 0.46187976
-0.13896486 0.033044517 0.4623085
-0.13768303 0.033686735 0.4627372
-0.13574165 0.034343183 0.46233392
-0.13380477 0.034997378 0.46192908
-0.13252738 0.035637375 0.4623563
-0.13125002 0.036277357 0.46278352
-0.12932205 0.036927089 0.4623757
-0.099655062 0.048312321 0.46071893
-0.098404497 0.048938878 0.46113718
-0.096547991 0.049552802 0.46070552
-0.094695956 0.050164483 0.46027228
-0.093449861 0.050788812 0.46068904
-0.092203766 0.051413134 0.46110582
-0.090360641 0.052020349 0.46066961
-0.089116782 0.052643545 0.46108562
-0.087872893 0.053266756 0.46150166
-0.086629003 0.05388996 0.46191767
-0.084797055 0.05449158 0.46147779
-0.08355543 0.055113666 0.46189305
-0.082313776 0.055735752 0.46230832
-0.081072122 0.056357838 0.46272358
-0.079251319 0.056953862 0.46227986
-0.0780119 0.057574827 0.46269438
-0.076772481 0.058195796 0.46310893
-0.075533062 0.058816768 0.46352345
-0.073723465 0.059407193 0.46307608
-0.072486311 0.060027041 0.46348986
-0.071249127 0.060646892 0.46390364
-0.069448441 0.061232839 0.46345323
-0.068213493 0.061851572 0.46386626
-0.066978544 0.062470302 0.46427932
-0.065743595 0.063089028 0.46469232
-0.064508647 0.063707761 0.46510538
-0.063273698 0.064326495 0.46551841
-0.062038749 0.064945221 0.46593145
-0.060803831 0.065563954 0.46634448
-0.059568882 0.066182688 0.46675751
-0.058333904 0.066801414 0.46717054
-0.056557804 0.067375064 0.46671197
-0.055864036 0.068038881 0.4679966
-0.054092377 0.068610281 0.46753654
-0.052859694 0.069227897 0.46794882
-0.051094711 0.069795944 0.46748641
-0.049864233 0.070412435 0.46789798
-0.048105985 0.070977129 0.46743336
-0.046352208 0.071539581 0.46696734
-0.044602901 0.072099805 0.46649975
-0.043379128 0.072712928 0.46690905
-0.041636497 0.073269792 0.46643928
-0.039898336 0.073824421 0.46596792
-0.038164645 0.074376814 0.46549517
-0.036947578 0.074986592 0.46590224
-0.035220593 0.075535618 0.46542719
-0.033498079 0.076082408 0.46495062
-0.032285482 0.076689951 0.4653562
-0.030569643 0.077233389 0.46487746
-0.029359251 0.077839807 0.46528229
-0.027650148 0.078379877 0.46480119
-0.025945485 0.078917712 0.46431872
-0.024739563 0.079521902 0.46472207
-0.023533642 0.080126092 0.46512538
-0.02183792 0.080659449 0.46463987
-0.020146698 0.081190579 0.46415293
-0.018945247 0.081792526 0.46455476
-0.017260671 0.082320295 0.46406546
-0.015580565 0.082845822 0.4635748
-0.014383584 0.083445534 0.46397513
-0.013186604 0.084045246 0.46437547
-0.011515468 0.084566303 0.46388173
-0.0098487735 0.085085124 0.46338651
-0.0081865489 0.085601702 0.46288988
-0.006996274 0.086198062 0.46328795
-0.0053407401 0.08671128 0.46278894
-0.0041526854 0.087306514 0.46318629
-0.0029646456 0.087901756 0.46358365
-0.0013180524 0.088410497 0.46308178
-0.0001322329 0.089004621 0.46347836
0.0010535717 0.08959873 0.46387497
0.0026912391 0.090103 0.46337005
0.0038748085 0.090696 0.46376589
0.0050584078 0.091288999 0.46416175
0.0062419772 0.091881998 0.46455762
0.0078684688 0.092380673 0.46404895
0.0090498179 0.092972547 0.46444404
0.010669619 0.093467869 0.46393314
0.18972844 0.16673601 0.4690831
0.19079143 0.1672686 0.46943861
0.19185442 0.16780116 0.46979412
0.19281393 0.16859815 0.47116771
0.19387916 0.16913183 0.47152397
0.19494438 0.16966553 0.47188023
0.19600961 0.17019923 0.47223651
0.19707483 0.17073293 0.4725928
0.19814005 0.17126663 0.47294906
0.19920528 0.17180032 0.47330531
0.2002705 0.17233402 0.47366157
0.20142135 0.17259437 0.47299382
0.20248434 0.17312694 0.47334936
0.20362845 0.17338395 0.47267938
0.2046892 0.17391542 0.47303414
0.20574997 0.17444688 0.47338891
0.20688516 0.17469941 0.47271597
0.20794368 0.17522974 0.47307
0.20900223 0.17576009 0.47342402
0.21012846 0.17600814 0.47274807
0.21118475 0.17653735 0.47310135
0.21224107 0.17706659 0.47345462
0.21329735 0.17759579 0.4738079
0.21441245 0.17783828 0.47312823
0.2154665 0.17836638 0.47348076
0.21652056 0.17889448 0.47383329
0.21762672 0.17913245 0.47315061
0.21867856 0.17965944 0.4735024
0.21973039 0.18018642 0.47385418
0.22082761 0.18041994 0.47316855
0.22187719 0.18094578 0.47351959
0.2229268 0.18147166 0.47387064
0.22401507 0.18170069 0.47318196
0.22506244 0.18222545 0.47353226
0.22610982 0.1827502 0.47388256
0.22715716 0.18327492 0.47423285
0.22820453 0.18379968 0.47458315
0.22925188 0.18432443 0.47493345
0.23032457 0.18454564 0.47423956
0.23136967 0.18506926 0.47458908
0.23243564 0.18528709 0.47389296
0.23347853 0.1858096 0.47424176
0.23452143 0.18633211 0.47459057
0.23557846 0.18654548 0.47389147
0.23661913 0.18706687 0.47423953
0.23766947 0.1872769 0.47353819
0.23870787 0.18779716 0.47388551
0.23974633 0.18831745 0.47423282
0.2407877 0.18852296 0.47352844
0.2418239 0.18904212 0.47387502
0.24285859 0.18924429 0.47316846
0.24389257 0.18976234 0.47351429
0.24492653 0.19028036 0.47386009
0.24596049 0.1907984 0.47420588
0.24698402 0.19099499 0.47349557
0.24801576 0.19151191 0.47384062
0.24904747 0.19202882 0.47418571
0.25006208 0.19222093 0.47347239
0.25109157 0.19273672 0.47381672
0.25209945 0.19292547 0.47310117
0.25312674 0.19344014 0.47344473
0.25412792 0.19362555 0.47272697
0.25515294 0.19413912 0.47306979
-0.28337833 -0.023615055 0.46030334
-0.28115013 -0.022817768 0.45999601
-0.27977225 -0.022127412 0.46045688
-0.27755067 -0.021333478 0.46014726
-0.27617505 -0.020644255 0.46060735
-0.27396014 -0.01985367 0.4602955
-0.27174976 -0.019065306 0.45998219
-0.27037856 -0.018378332 0.46044078
-0.26817492 -0.017593358 0.46012518
-0.26680598 -0.016907487 0.46058303
-0.26460895 -0.016125847 0.46026528
-0.26324227 -0.015441108 0.46072236
-0.26105192 -0.014662817 0.46040228
-0.25968745 -0.013979211 0.46085861
-0.25750384 -0.01320428 0.46053639
-0.25532469 -0.012431599 0.46021259
-0.25396469 -0.011750214 0.46066743
-0.25260469 -0.011068814 0.4611223
-0.25043452 -0.010300618 0.46079558
-0.24907675 -0.0096203499 0.46124968
-0.24691328 -0.0088555105 0.46092066
-0.24475417 -0.0080928802 0.46059009
-0.24340084 -0.0074148476 0.46104273
-0.24124858 -0.0066556074 0.46071002
-0.23989749 -0.0059786923 0.46116188
-0.23775187 -0.0052228048 0.4608269
-0.23561069 -0.004469119 0.46049047
-0.23347399 -0.0037176944 0.46015248
-0.2321296 -0.0030441321 0.4606021
-0.22999957 -0.0022960678 0.46026191
-0.22787404 -0.0015502386 0.45992017
-0.22653413 -0.00087891892 0.46036831
-0.22441527 -0.00013644248 0.46002436
-0.22307763 0.00053375959 0.46047175
-0.22096547 0.0012728721 0.4601256
-0.2188578 0.0020097531 0.45977786
-0.21675459 0.0027443841 0.45942873
-0.21542361 0.0034112334 0.45987388
-0.21332714 0.0041425042 0.45952246
-0.21199837 0.0048082285 0.45996684
-0.20990857 0.0055361688 0.45961323
-0.20858207 0.0062007681 0.4600569
-0.20725557 0.0068653673 0.46050054
-0.20592907 0.0075299665 0.46094421
-0.20385039 0.0082523152 0.46058682
-0.20177621 0.0089724176 0.46022785
-0.20045418 0.0096347742 0.46067002
-0.1983867 0.010351516 0.46030894
-0.19706687 0.01101277 0.46075037
-0.1950061 0.011726152 0.46038696
-0.19368854 0.012386274 0.46082762
-0.19163451 0.013096297 0.46046206
-0.18958482 0.013804099 0.4600949
-0.1875397 0.014509659 0.45972636
-0.18549904 0.015212953 0.45935628
-0.18419036 0.015868619 0.45979396
-0.18288174 0.016524263 0.46023163
-0.18085 0.01722311 0.45985854
-0.17882273 0.017919699 0.45948401
-0.17751858 0.018573122 0.4599202
-0.17621437 0.019226531 0.46035638
-0.17419598 0.019918663 0.45997876
-0.17289406 0.020570954 0.4604142
-0.17088243 0.021259729 0.46003446
-0.16887525 0.021946251 0.45965314
-0.16687253 0.022630548 0.45927039
-0.16557729 0.023279494 0.45970359
-0.16358128 0.023960428 0.45931855
-0.16158971 0.02463913 0.45893198
-0.15960261 0.025315594 0.45854402
-0.15831408 0.025961179 0.45897499
-0.15633371 0.026634276 0.4585847
-0.15504739 0.027278744 0.45901492
-0.15376109 0.027923204 0.45944515
-0.15247479 0.028567672 0.45987535
-0.15118846 0.029212132 0.46030554
-0.14922151 0.029878533 0.45991087
-0.14793745 0.030521875 0.46034035
-0.14665332 0.031165225 0.4607698
-0.14536926 0.031808577 0.46119925
-0.1440852 0.032451913 0.46162871
-0.14280111 0.033095263 0.46205819
-0.14084974 0.03375382 0.46165815
-0.13956788 0.034396045 0.46208689
-0.13828605 0.035038266 0.46251559
-0.13634363 0.035692357 0.46211269
-0.13506404 0.036333464 0.46254066
-0.13312832 0.036984194 0.46213546
-0.13185093 0.037624177 0.46256268
-0.10272136 0.049027588 0.46177918
-0.10085487 0.049643643 0.46135089
-0.098992795 0.050257444 0.46092096
-0.097135276 0.050869014 0.46048969
-0.095886916 0.051494461 0.46090719
-0.094638556 0.0521199 0.46132472
-0.092789978 0.052726991 0.46089038
-0.091543823 0.05335132 0.46130714
-0.089701921 0.053955048 0.46087056
-0.088458031 0.05457826 0.4612866
-0.087214172 0.055201463 0.46170262
-0.085970283 0.055824675 0.46211863
-0.084139526 0.056422815 0.46167839
-0.082897872 0.057044901 0.46209365
-0.081656247 0.057666987 0.46250895
-0.079834372 0.058260657 0.46206558
-0.078594953 0.058881622 0.4624801
-0.076779842 0.059471928 0.46203461
-0.075542659 0.060091782 0.46244842
-0.074305475 0.060711633 0.46286219
-0.073068291 0.061331481 0.46327597
-0.071831137 0.061951332 0.46368974
-0.070593923 0.062571183 0.46410352
-0.068794459 0.063153654 0.46365276
-0.063854665 0.065628573 0.46530488
-0.062619716 0.066247299 0.46571794
-0.061384767 0.066866033 0.46613097
-0.060149819 0.067484766 0.466544
-0.05891487 0.068103492 0.46695703
-0.057679921 0.068722226 0.46737006
-0.056444973 0.069340959 0.46778309
-0.054672301 0.069910005 0.46732342
-0.053439587 0.070527621 0.46773571
-0.052206874 0.071145229 0.46814799
-0.05097416 0.071762845 0.46856028
-0.049212605 0.072326295 0.46809676
-0.047455519 0.072887518 0.46763182
-0.045702964 0.073446497 0.46716541
-0.043954819 0.074003235 0.46669748
-0.042211145 0.074557751 0.4662281
-0.040471941 0.075110018 0.4657571
-0.039252609 0.075720921 0.46616492
-0.037520111 0.076269835 0.4656918
-0.036303043 0.076879613 0.46609887
-0.03457725 0.077425167 0.46562347
-0.032855898 0.077968478 0.46514654
-0.031139046 0.078509562 0.46466821
-0.029928654 0.079115987 0.46507302
-0.028218478 0.079653703 0.46459234
-0.027010351 0.08025901 0.4649964
-0.02530688 0.080793373 0.46451357
-0.024100959 0.081397563 0.46491688
-0.022404194 0.081928566 0.46443179
-0.019510418 0.083059289 0.46434703
-0.017824799 0.083584704 0.46385813
-0.01614368 0.084107876 0.46336785
-0.014946699 0.084707588 0.46376818
-0.013272256 0.085227415 0.46327558
-0.01207751 0.085826002 0.46367517
-0.010409802 0.086342469 0.46318033
-0.0058996379 0.087963916 0.46258354
-0.0047115833 0.088559151 0.4629809
-0.0030617118 0.089066669 0.46248016
-0.0018759072 0.089660779 0.46287677
-0.00069007277 0.090254903 0.46327335
0.00049573183 0.090849012 0.46366996
0.0021344423 0.091350928 0.46316543
0.0033180118 0.091943927 0.46356127
0.0049500167 0.092442498 0.46305448
0.0061313808 0.093034372 0.4634496
0.0073127151 0.093626246 0.46384472
0.0084940791 0.09421812 0.46423981
0.0096754283 0.094810009 0.46463493
0.18922836 0.16785678 0.46889931
0.19029135 0.16838937 0.46925485
0.19135433 0.16892195 0.46961036
0.19231282 0.16972128 0.47098354
0.19337803 0.17025496 0.47133982
0.19444327 0.17078866 0.47169608
0.19550848 0.17132236 0.47205234
0.19657372 0.17185606 0.47240862
0.19763894 0.17238976 0.47276488
0.19870417 0.17292345 0.47312117
0.19976938 0.17345715 0.47347742
0.20083462 0.17399085 0.47383371
0.20198426 0.17424773 0.47316557
0.20304725 0.17478029 0.47352111
0.20419019 0.17503384 0.47285074
0.20525095 0.1755653 0.47320554
0.20631173 0.17609677 0.4735603
0.20744573 0.17634583 0.47288698
0.20850426 0.17687616 0.47324103
0.20956278 0.17740649 0.47359505
0.21068785 0.17765108 0.47291872
0.21174416 0.17818031 0.473272
0.21280044 0.17870952 0.47362527
0.21385673 0.17923874 0.47397858
0.21497063 0.17947774 0.47329852
0.2160247 0.18000585 0.47365108
0.2171319 0.18024145 0.47296876
0.21818374 0.18076845 0.47332057
0.21923557 0.18129542 0.47367236
0.22033384 0.18152659 0.47298709
0.22138342 0.18205243 0.47333813
0.22243303 0.18257831 0.47368917
0.22348261 0.18310417 0.47404021
0.22456974 0.18332975 0.47335118
0.22561711 0.18385449 0.47370148
0.22666445 0.18437923 0.47405177
0.22771183 0.18490399 0.47440207
0.22875917 0.18542872 0.47475237
0.2298329 0.18564758 0.47405887
0.23087801 0.1861712 0.47440839
0.23192315 0.18669483 0.47475794
0.23298793 0.1869092 0.47406146
0.23403083 0.18743169 0.47441027
0.2350889 0.18764272 0.47371155
0.23612957 0.18816411 0.47405961
0.23717022 0.18868549 0.47440764
0.23821937 0.18889205 0.47370598
0.23925781 0.18941233 0.47405329
0.24029623 0.18993258 0.47440058
0.24133645 0.19013464 0.47369587
0.24237262 0.19065379 0.47404242
0.24340615 0.19085251 0.4733355
0.24444011 0.19137053 0.47368133
0.24547407 0.19188857 0.47402713
0.24649866 0.19208281 0.47331721
0.2475304 0.19259973 0.47366226
0.24856211 0.19311664 0.47400734
0.24959385 0.19363356 0.47435239
0.25060725 0.19382218 0.47363871
0.25161621 0.19400857 0.47292355
0.25264347 0.19452326 0.47326714
0.25364572 0.19470631 0.47254977
0.25467074 0.19521987 0.47289258
-0.28487906 -0.022264533 0.46083254
-0.28264752 -0.021468468 0.46052629
-0.28042045 -0.020674631 0.46021864
-0.27904257 -0.019984305 0.46067947
-0.27682218 -0.019193828 0.4603695
-0.27544662 -0.01850462 0.46082959
-0.27323279 -0.017717492 0.46051741
-0.2710236 -0.016932622 0.46020371
-0.26965246 -0.016245648 0.46066228
-0.26828131 -0.015558675 0.46112087
-0.26608101 -0.01477826 0.46080419
-0.26388517 -0.014000107 0.46048608
-0.2625185 -0.013315368 0.46094319
-0.26032934 -0.012540571 0.4606227
-0.25896487 -0.011856936 0.46107906
-0.25678244 -0.011085492 0.46075648
-0.25460449 -0.010316275 0.46043232
-0.25324449 -0.0096348748 0.46088716
-0.25107327 -0.0088690333 0.46056083
-0.24971551 -0.0081887655 0.46101496
-0.24755093 -0.0074262805 0.4606863
-0.2453908 -0.0066660047 0.46035615
-0.24403748 -0.005987972 0.46080875
-0.24188417 -0.0052310862 0.46047643
-0.24053308 -0.0045541711 0.46092829
-0.23838636 -0.003800638 0.4605937
-0.23624417 -0.0030492991 0.46025765
-0.23410639 -0.0023002438 0.45992005
-0.23276207 -0.0016266815 0.46036968
-0.23141769 -0.00095313415 0.4608193
-0.22928885 -0.00020854175 0.46047872
-0.22716448 0.00053382292 0.46013665
-0.22504458 0.001273945 0.45979309
-0.22370687 0.0019441471 0.46024048
-0.22159371 0.0026809052 0.45989472
-0.2202583 0.0033499822 0.46034136
-0.21815178 0.0040833838 0.45999324
-0.21604976 0.0048145652 0.45964375
-0.21471879 0.0054813921 0.46008891
-0.21262345 0.0062092058 0.45973712
-0.21129471 0.0068749376 0.46018153
-0.20920613 0.007599391 0.45982757
-0.20787963 0.0082639903 0.46027121
-0.20655313 0.0089285895 0.46071485
-0.20522657 0.0095932037 0.46115854
-0.20314914 0.010312058 0.46080077
-0.20107609 0.011028688 0.46044144
-0.19975406 0.011691052 0.46088362
-0.19768777 0.012404323 0.46052217
-0.19562596 0.013115358 0.46015918
-0.19430837 0.013775479 0.46059984
-0.19225326 0.014483148 0.46023467
-0.19020256 0.015188595 0.45986789
-0.18815637 0.015891787 0.45949975
-0.18684551 0.016548555 0.45993817
-0.18553463 0.017205331 0.46037659
-0.18349737 0.017904043 0.46000537
-0.18218872 0.018559702 0.46044305
-0.18015817 0.019255063 0.46006963
-0.17885175 0.019909596 0.46050653
-0.17682794 0.02060161 0.4601309
-0.17552373 0.021255033 0.46056709
-0.17350653 0.021943679 0.4601891
-0.17149386 0.022630092 0.45980975
-0.17019412 0.023281273 0.46024445
-0.16818812 0.023964331 0.45986277
-0.1661866 0.024645148 0.45947969
-0.16418955 0.025323728 0.45909503
-0.1621969 0.026000082 0.45870882
-0.16020879 0.026674185 0.45832124
-0.15892026 0.02731977 0.45875221
-0.15763173 0.027965348 0.45918316
-0.15565252 0.02863498 0.45879254
-0.15436623 0.029279441 0.45922276
-0.1530799 0.029923908 0.45965296
-0.1517936 0.030568369 0.46008316
-0.1505073 0.031212837 0.46051338
-0.14922097 0.031857304 0.46094361
-0.14793468 0.032501765 0.46137381
-0.14597332 0.03316246 0.46097726
-0.14468926 0.033805795 0.46140674
-0.14340517 0.034449145 0.46183619
-0.14212111 0.035092488 0.46226564
-0.1401709 0.035747577 0.46186528
-0.13888907 0.036389794 0.46229398
-0.13694558 0.03704153 0.46189147
-0.13566598 0.037682638 0.46231943
-0.10767943 0.04912854 0.46325907
-0.10580072 0.049747828 0.46283486
-0.10392648 0.050364867 0.46240917
-0.10205671 0.050979663 0.46198195
-0.10019144 0.051592231 0.46155328
-0.098330528 0.052202575 0.46112302
-0.0964742 0.052810673 0.46069136
-0.095225841 0.053436112 0.46110889
-0.093977481 0.054061558 0.46152639
-0.092130035 0.054665171 0.4610917
-0.09088394 0.055289488 0.46150848
-0.0890432 0.055889755 0.46107155
-0.08779934 0.056512959 0.46148756
-0.086555451 0.057136171 0.46190357
-0.084723622 0.057731956 0.46146372
-0.083481997 0.058354042 0.46187899
-0.082240343 0.058976129 0.46229425
-0.080998689 0.059598222 0.46270955
-0.079178005 0.060188409 0.46226582
-0.077938616 0.060809378 0.46268037
-0.076699167 0.06143035 0.46309489
-0.074887484 0.062016066 0.4626483
-0.07365033 0.062635913 0.46306208
-0.072413117 0.063255765 0.46347585
-0.071175963 0.063875616 0.46388963
-0.064435631 0.066930659 0.46509138
-0.063200682 0.067549385 0.46550444
-0.061965734 0.068168119 0.46591747
-0.060730785 0.068786845 0.4663305
-0.059495836 0.069405586 0.46674353
-0.058260888 0.070024312 0.46715656
-0.057025939 0.070643045 0.46756959
-0.055252194 0.071209736 0.46711031
-0.054019481 0.071827352 0.46752259
-0.052786767 0.07244496 0.46793488
-0.051554054 0.073062576 0.46834716
-0.049791455 0.073623672 0.46788403
-0.048033327 0.07418254 0.46741948
-0.046805114 0.074797913 0.46783027
-0.045053691 0.075353421 0.46736351
-0.043306738 0.075906679 0.46689519
-0.041564256 0.076457724 0.46642545
-0.039826214 0.077006519 0.46595412
-0.038606912 0.077617422 0.46636191
-0.036875606 0.078162856 0.46588844
-0.03514877 0.078706056 0.46541342
-0.0048053861 0.089722827 0.46187854
-0.0036195666 0.090316951 0.46227515
-0.0024337471 0.090911061 0.46267173
-0.0012479275 0.091505185 0.46306834
-6.210804e-05 0.092099294 0.46346495
0.0015776455 0.092598855 0.46296078
0.002761215 0.093191855 0.46335664
0.0039448142 0.093784854 0.46375251
0.0051283836 0.094377853 0.46414834
0.0067569762 0.094871819 0.46364045
0.0079383254 0.095463693 0.46403557
0.18979129 0.16951014 0.46907106
0.19085428 0.17004272 0.46942657
0.19181171 0.17084441 0.47079939
0.19287692 0.17137811 0.47115564
0.19394216 0.17191181 0.47151193
0.19500737 0.17244549 0.47186819
0.19607261 0.17297919 0.47222444
0.19713783 0.17351289 0.47258073
0.19820306 0.17404659 0.47293699
0.19926827 0.17458028 0.47329327
0.20033351 0.17511398 0.47364953
0.20139872 0.17564766 0.47400579
0.20254719 0.17590107 0.47333732
0.20369117 0.17615227 0.47266737
0.20475194 0.17668372 0.47302213
0.20581271 0.17721519 0.4733769
0.20694776 0.17746189 0.47270399
0.20800629 0.17799222 0.47305802
0.20906481 0.17852256 0.47341204
0.21012335 0.17905292 0.47376609
0.21124724 0.17929402 0.4730894
0.21230352 0.17982323 0.47344267
0.2133598 0.18035245 0.47379595
0.21441609 0.18088168 0.47414923
0.2154724 0.18141091 0.4745025
0.21658288 0.1816453 0.47382137
0.21763694 0.18217342 0.4741739
0.21874076 0.18240443 0.47349051
0.21979259 0.18293142 0.47384229
0.22088967 0.1831591 0.47315666
0.22193928 0.18368497 0.4735077
0.22298886 0.18421082 0.47385874
0.22403847 0.1847367 0.47420979
0.22512439 0.18495879 0.4735204
0.22617173 0.18548353 0.47387069
0.2272191 0.18600829 0.47422099
0.22826645 0.18653302 0.47457129
0.22934124 0.18674952 0.47387818
0.23038635 0.18727314 0.4742277
0.23143148 0.18779677 0.47457728
0.23249732 0.18800879 0.47388116
0.23354022 0.18853128 0.47422996
0.23459934 0.18873994 0.47353163
0.23564 0.18926133 0.47387969
0.23668066 0.18978272 0.47422773
0.23772132 0.19030412 0.47457579
0.23876931 0.1905072 0.47387373
0.23980772 0.19102746 0.47422105
0.24084899 0.19122717 0.47351673
0.24188517 0.19174631 0.47386327
0.24292138 0.19226547 0.47420985
0.2439537 0.1924607 0.47350258
0.24498767 0.19297874 0.47384837
0.24602163 0.19349678 0.4741942
0.24704504 0.19368754 0.47348389
0.24807675 0.19420445 0.47382894
0.24910849 0.19472137 0.47417402
0.25012296 0.19490764 0.47346073
0.25115246 0.19542345 0.47380504
0.25216022 0.19560637 0.47308955
0.25318748 0.19612104 0.47343311
0.25418854 0.19630063 0.47271538
-0.28552935 -0.02080705 0.46059355
-0.28414705 -0.020114474 0.46105587
-0.28191665 -0.01932187 0.4607493
-0.27969077 -0.018531531 0.46044126
-0.27831289 -0.01784119 0.46090209
-0.27693501 -0.017150864 0.46136293
-0.27471802 -0.016364977 0.46105185
-0.27250549 -0.015581336 0.46073928
-0.2702975 -0.014799938 0.46042523
-0.26892635 -0.014112964 0.46088383
-0.26755515 -0.013425976 0.46134242
-0.26535603 -0.012649048 0.46102539
-0.26316145 -0.011874367 0.46070689
-0.26179478 -0.011189628 0.461164
-0.25960675 -0.010418281 0.46084318
-0.25824228 -0.0097346604 0.46129951
-0.25606108 -0.0089666881 0.46097654
-0.25388429 -0.0082009435 0.46065205
-0.25252429 -0.007519573 0.4611069
-0.25035423 -0.0067571886 0.4607802
-0.24899647 -0.0060769208 0.4612343
-0.24683312 -0.0053178929 0.46090531
-0.24467412 -0.0045610964 0.46057478
-0.24251974 -0.003806565 0.46024284
-0.24116865 -0.0031296499 0.46069473
-0.23902091 -0.0023784712 0.4603605
-0.23687765 -0.0016294941 0.46002483
-0.23553103 -0.00095482916 0.46047524
-0.23339447 -0.00020922348 0.46013728
-0.23205009 0.00046432391 0.46058688
-0.22992024 0.0012065619 0.46024668
-0.22779483 0.0019465648 0.459905
-0.22645491 0.002617877 0.46035314
-0.22433618 0.003354542 0.46000922
-0.22299853 0.0040247291 0.46045658
-0.22088653 0.0047580227 0.46011049
-0.21955109 0.0054270998 0.46055713
-0.21744576 0.0061570294 0.46020865
-0.21534494 0.0068847165 0.4598588
-0.21401396 0.0075515658 0.46030396
-0.21191981 0.0082759149 0.45995179
-0.21059105 0.0089416392 0.4603962
-0.20926231 0.0096073635 0.46084061
-0.20717713 0.010327205 0.46048552
-0.20585063 0.010991819 0.46092919
-0.20452413 0.01165642 0.46137285
-0.20169804 0.012422595 0.46021289
-0.200376 0.013084959 0.46065503
-0.19830862 0.013795882 0.46029401
-0.19698885 0.014457121 0.46073541
-0.1949282 0.015164677 0.46037206
-0.19287205 0.015869992 0.46000725
-0.19082031 0.016573085 0.45964089
-0.18950716 0.017230978 0.46008006
-0.18819407 0.017888865 0.46051922
-0.1861513 0.018587474 0.46014997
-0.18484041 0.019244242 0.46058837
-0.18280438 0.01993949 0.46021679
-0.1814957 0.020595141 0.4606545
-0.18018708 0.021250792 0.46109217
-0.17887846 0.021906443 0.46152985
-0.17613724 0.022630097 0.4603416
-0.17483309 0.023283506 0.46077779
-0.17281708 0.023968702 0.46039948
-0.17080554 0.024651643 0.46001974
-0.16879854 0.025332339 0.45963845
-0.16679594 0.026010802 0.45925575
-0.1655007 0.02665974 0.45968893
-0.16280416 0.02736102 0.45848566
-0.16151336 0.028007723 0.45891738
-0.15952644 0.028678361 0.45852944
-0.1582379 0.029323939 0.45896038
-0.15694934 0.029969525 0.45939136
-0.15566078 0.03061511 0.4598223
-0.15437225 0.031260688 0.46025327
-0.15308371 0.031906273 0.46068421
-0.15179518 0.032551859 0.46111518
-0.14982608 0.033213541 0.46072119
-0.14853981 0.033858001 0.46115142
-0.14725348 0.034502469 0.46158162
-0.14596716 0.035146929 0.46201184
-0.14400926 0.035803027 0.46161419
-0.1427252 0.03644637 0.46204364
-0.14144108 0.03708972 0.46247312
-0.13949209 0.037741322 0.46207237
-0.13821027 0.038383555 0.46250108
-0.11015728 0.049839705 0.46346334
-0.108273 0.050458871 0.46304095
-0.10701123 0.05109103 0.46346295
-0.10513374 0.051706832 0.46303836
-0.10264716 0.052302938 0.46176496
-0.10078081 0.052913152 0.4613367
-0.098918825 0.053521141 0.46090683
-0.09766826 0.054147698 0.46132508
-0.095813096 0.054752316 0.46089306
-0.094564766 0.055377763 0.4613106
-0.091470152 0.056603346 0.46129304
-0.090224057 0.057227679 0.4617098
-0.088384479 0.057824463 0.46127251
-0.08714059 0.058447674 0.46168852
-0.085896701 0.059070878 0.46210456
-0.084652841 0.059694082 0.46252057
-0.065016598 0.068232737 0.46487787
-0.063781649 0.068851463 0.46529093
-0.0625467 0.069470197 0.46570393
-0.061311752 0.070088923 0.46611699
-0.060076803 0.070707664 0.46653003
-0.058841854 0.07132639 0.46694306
-0.057606906 0.071945123 0.46735609
-0.055832118 0.07250946 0.46689719
-0.054599404 0.073127076 0.46730947
-0.053366691 0.073744684 0.46772176
-0.052133977 0.0743623 0.46813405
-0.050901264 0.074979909 0.46854633
-0.049139827 0.075537533 0.46808285
-0.047382921 0.076092936 0.4676179
-0.045630455 0.076646082 0.46715155
-0.043882459 0.077197 0.46668363
-0.042138934 0.077745676 0.46621427
-0.040917367 0.078357697 0.46662283
-0.039695829 0.078969717 0.46703139
-0.037961215 0.079513915 0.4665589
-0.036231071 0.080055878 0.46608508
-0.005829379 0.091064423 0.4625701
-0.0041774064 0.091567233 0.46207014
-0.0029915869 0.092161343 0.46246672
-0.0018057823 0.092755467 0.46286333
-0.00016275048 0.093253791 0.46236029
0.0010208488 0.093846783 0.46275616
0.0022044182 0.094439782 0.46315202
0.0033880174 0.095032781 0.46354786
0.0045715868 0.095625781 0.46394372
0.0062012374 0.096117392 0.46343622
0.0073825866 0.096709266 0.46383134
0.19024536 0.17143384 0.47025895
0.19131058 0.17196754 0.47061521
0.19237581 0.17250124 0.47097149
0.19344103 0.17303494 0.47132775
0.19450626 0.17356862 0.47168401
0.19557148 0.17410232 0.4720403
0.19663671 0.17463602 0.47239655
0.19760871 0.17544788 0.47377416
0.19876716 0.17570341 0.4731091
0.19983238 0.17623711 0.47346535
0.2008976 0.17677081 0.47382164
0.20204712 0.17702185 0.47315356
0.20319216 0.1772707 0.47248396
0.20425293 0.17780215 0.47283873
0.2053137 0.17833361 0.47319353
0.20637445 0.17886508 0.47354829
0.20750833 0.17910829 0.472875
0.20856684 0.17963864 0.47322902
0.20962538 0.18016899 0.47358307
0.21075034 0.18040773 0.47290677
0.21180663 0.18093695 0.47326005
0.21286291 0.18146616 0.47361332
0.21391919 0.18199539 0.4739666
0.21497548 0.18252462 0.47431991
0.21608703 0.18275666 0.47363913
0.21714108 0.18328477 0.47399166
0.21819516 0.18381287 0.47434422
0.21929778 0.18404043 0.47366044
0.22034959 0.18456741 0.47401223
0.22144552 0.18479161 0.47332624
0.22249509 0.18531747 0.47367728
0.2235447 0.18584333 0.47402832
0.22459431 0.18636921 0.47437936
0.22567903 0.18658783 0.47368962
0.2267264 0.18711258 0.47403991
0.22777374 0.18763733 0.47439021
0.22882111 0.18816206 0.47474051
0.22989468 0.18837509 0.47404703
0.23093982 0.18889871 0.47439656
0.2320067 0.18910837 0.47370085
0.2330496 0.18963087 0.47404966
0.23409249 0.19015339 0.47439846
0.23515046 0.19035858 0.47369978
0.23619111 0.19087996 0.47404781
0.23723178 0.19140136 0.47439587
0.23827244 0.19192274 0.47474393
0.23931921 0.19212234 0.47404152
0.24035764 0.19264263 0.47438884
0.24139771 0.19283883 0.47368413
0.24243392 0.193358 0.4740307
0.2434701 0.19387715 0.47437724
0.24450126 0.19406892 0.47366962
0.24553522 0.19458695 0.47401544
0.24656917 0.19510497 0.47436124
0.24759139 0.19529226 0.47365057
0.24862313 0.19580917 0.47399566
0.24965486 0.19632609 0.47434071
0.25066817 0.19650891 0.47362706
0.25169766 0.1970247 0.4739714
0.2527042 0.19720414 0.47325549
0.25370634 0.19738138 0.47253814
-0.28703317 -0.019449461 0.46112153
-0.28564861 -0.018755767 0.4615846
-0.28341493 -0.017964393 0.46127921
-0.28203264 -0.017271832 0.46174154
-0.27980569 -0.01648384 0.46143383
-0.27758321 -0.01569809 0.46112472
-0.27620533 -0.015007734 0.46158555
-0.27398953 -0.014225349 0.46127412
-0.27261397 -0.013536125 0.46173421
-0.27040485 -0.012757074 0.46142054
-0.26820019 -0.011980265 0.46110538
-0.26682904 -0.011293277 0.46156397
-0.26380441 -0.010433365 0.46047059
-0.26243767 -0.0097486265 0.4609277
-0.26107094 -0.0090638585 0.4613848
-0.25888416 -0.0082960203 0.46106362
-0.25751969 -0.0076123998 0.46151999
-0.25533965 -0.0068478771 0.46119666
-0.25316408 -0.0060856268 0.46087179
-0.25180408 -0.0054042414 0.46132663
-0.24963522 -0.0046453364 0.46099958
-0.24827743 -0.0039650686 0.46145368
-0.24531075 -0.0031342208 0.46034083
-0.24395749 -0.0024562031 0.46079341
-0.24180424 -0.0017051287 0.46046114
-0.24045318 -0.0010282286 0.460913
-0.23830661 -0.00028049201 0.46057841
-0.23616454 0.00046498328 0.46024242
-0.23481795 0.0011396557 0.46069279
-0.23268256 0.0018817745 0.46035448
-0.23133817 0.0025553294 0.4608041
-0.22920945 0.0032941028 0.46046355
-0.22708523 0.0040306337 0.46012148
-0.22574535 0.0047019459 0.46056962
-0.22362784 0.0054351166 0.46022531
-0.22229013 0.0061053187 0.46067271
-0.22017932 0.0068351403 0.46032622
-0.21884391 0.0075042173 0.4607729
-0.21673971 0.008230675 0.46042404
-0.21464005 0.0089548975 0.46007386
-0.21330908 0.0096217394 0.46051899
-0.21197811 0.010288574 0.46096414
-0.20988739 0.011008333 0.4606109
-0.20855865 0.01167405 0.46105528
-0.20722991 0.012339775 0.46149969
-0.20514813 0.013055043 0.46114352
-0.20307082 0.013768075 0.46078578
-0.20099792 0.014478866 0.46042648
-0.19967586 0.015141245 0.46086866
-0.19760975 0.015848681 0.46050721
-0.19554803 0.016553875 0.46014425
-0.19423047 0.017213996 0.46058491
-0.19217548 0.017915862 0.46021977
-0.1901249 0.018615475 0.45985302
-0.18881181 0.019273361 0.46029219
-0.18749869 0.019931247 0.46073139
-0.1861856 0.020589134 0.46117055
-0.18414623 0.021283146 0.46080017
-0.18283537 0.021939915 0.46123859
-0.18152449 0.022596691 0.46167704
-0.17949405 0.023286223 0.46130362
-0.17818543 0.023941882 0.4617413
-0.17616171 0.024628056 0.46136561
-0.17342952 0.025341412 0.46017438
-0.17141697 0.026022006 0.45979503
-0.17011729 0.026673179 0.46022972
-0.16811141 0.027350411 0.45984808
-0.16611001 0.028025402 0.459465
-0.16411307 0.028698156 0.4590804
-0.16212061 0.029368669 0.45869422
-0.16082981 0.030015379 0.45912591
-0.15884405 0.03068253 0.45873761
-0.15755552 0.031328116 0.45916858
-0.15626696 0.031973701 0.45959952
-0.15497842 0.032619279 0.4600305
-0.15368989 0.033264864 0.46046147
-0.15240133 0.03391045 0.46089241
-0.15111282 0.034556028 0.46132335
-0.14982426 0.035201613 0.46175432
-0.1485357 0.035847198 0.46218529
-0.14657229 0.036503166 0.46178946
-0.14528596 0.037147641 0.46221966
-0.14399967 0.037792094 0.46264988
-0.14204517 0.038443603 0.46225113
-0.11516377 0.049945164 0.46492663
-0.11326733 0.050567567 0.46450847
-0.11137539 0.051187735 0.46408874
-0.10948786 0.051805668 0.46366757
-0.10760483 0.052421369 0.4632448
-0.10572624 0.053034816 0.46282059
-0.10385212 0.053646043 0.46239495
-0.1019825 0.054255012 0.46196774
-0.10011733 0.054861762 0.46153912
-0.098256588 0.055466264 0.46110886
-0.097005993 0.056092829 0.46152714
-0.061892718 0.071391016 0.46590349
-0.06065774 0.072009742 0.46631652
-0.059422821 0.072628476 0.46672955
-0.058187872 0.073247209 0.46714258
-0.056952924 0.073865935 0.46755561
-0.055179298 0.074426807 0.46709636
-0.053946584 0.075044416 0.46750864
-0.052713871 0.075662032 0.46792093
-0.051481158 0.07627964 0.46833321
-0.049718708 0.07683491 0.46787009
-0.0484882 0.077451408 0.46828166
-0.046732455 0.078003317 0.46781635
-0.044981182 0.078553006 0.46734962
-0.043234378 0.079100437 0.46688133
-0.041492015 0.079645649 0.46641162
-0.040270478 0.080257669 0.46682018
-0.03853479 0.080799513 0.46634811
-0.036803633 0.081339121 0.46587467
-0.0047352612 0.092817515 0.4618651
-0.0035494417 0.093411624 0.46226171
-0.0023636222 0.094005749 0.46265832
-0.0011778176 0.094599858 0.46305493
0.00046405196 0.095094711 0.46255153
0.0016476363 0.09568771 0.4629474
0.0028312206 0.096280709 0.46334323
0.0044641346 0.096771076 0.46283686
0.0056454837 0.097362965 0.46323198
0.0068268478 0.097954839 0.4636271
0.18974423 0.17255698 0.47007477
0.19080949 0.17309068 0.47043106
0.19187468 0.17362437 0.47078732
0.19293994 0.17415807 0.47114357
0.19400513 0.17469175 0.47149986
0.19507039 0.17522545 0.47185612
0.19613561 0.17575915 0.4722124
0.19710654 0.17657337 0.4735896
0.19826603 0.17682655 0.47292492
0.19933128 0.17736025 0.4732812
0.20039648 0.17789394 0.47363746
0.20154706 0.17814264 0.47296977
0.20261005 0.17867522 0.47332528
0.20375392 0.17892057 0.47265536
0.20481469 0.17945203 0.47301012
0.20587544 0.1799835 0.47336489
0.2069362 0.18051496 0.47371969
0.20806888 0.18075471 0.47304603
0.20912741 0.18128505 0.47340006
0.21018595 0.1818154 0.47375408
0.21124446 0.18234573 0.47410813
0.21236598 0.18257989 0.47343072
0.21342227 0.1831091 0.473784
0.21447857 0.18363833 0.47413728
0.21553485 0.18416755 0.47449055
0.21659116 0.18469678 0.47484383
0.21769929 0.18492423 0.47416198
0.21875335 0.18545234 0.47451451
0.21985477 0.18567641 0.47383037
0.22090662 0.18620341 0.47418216
0.22200133 0.18642412 0.47349581
0.22305094 0.18695 0.47384685
0.22410055 0.18747588 0.47419789
0.22515012 0.18800174 0.47454894
0.22623369 0.18821688 0.47385883
0.22728103 0.18874162 0.47420913
0.22832841 0.18926637 0.47455943
0.22940302 0.18947703 0.47386634
0.23044816 0.19000065 0.47421589
0.23151609 0.19020796 0.47352055
0.232559 0.19073047 0.47386935
0.23360188 0.19125298 0.47421816
0.23464479 0.19177549 0.47456694
0.23570155 0.19197719 0.47386789
0.23674221 0.19249859 0.47421595
0.23778288 0.19301997 0.47456402
0.23882352 0.19354135 0.47491208
0.23986913 0.19373751 0.47420928
0.24090755 0.19425777 0.4745566
0.24194598 0.19477804 0.47490391
0.24298264 0.19496967 0.4741981
0.24401884 0.19548883 0.47454467
0.24505503 0.19600798 0.47489122
0.24608277 0.19619514 0.47418249
0.24711673 0.19671318 0.47452828
0.24815071 0.19723122 0.47487411
0.2491695 0.19741391 0.47416234
0.25020123 0.19793083 0.47450742
0.25121334 0.19811016 0.47379339
0.25224283 0.19862595 0.47413772
0.25324821 0.19880192 0.47342148
-0.28853914 -0.018087164 0.46164885
-0.28629991 -0.017295923 0.46134523
-0.28491536 -0.016602214 0.46180829
-0.28268293 -0.015814357 0.46150255
-0.28130057 -0.01512178 0.46196488
-0.27907488 -0.01433726 0.46165681
-0.27685353 -0.01355496 0.46134734
-0.27547565 -0.012864634 0.46180817
-0.27326104 -0.012085699 0.46149638
-0.27188548 -0.01139649 0.46195644
-0.26967749 -0.010620903 0.46164241
-0.26747409 -0.0098475665 0.4613269
-0.26610294 -0.0091605932 0.4617855
-0.26390621 -0.0083906241 0.46146771
-0.26171389 -0.0076228641 0.46114853
-0.26034722 -0.0069381408 0.46160561
-0.25816163 -0.0061737448 0.46128407
-0.25679716 -0.0054901093 0.46174043
-0.25461823 -0.0047290884 0.46141675
-0.25244388 -0.0039703026 0.46109149
-0.25108388 -0.0032889172 0.46154636
-0.24891615 -0.0025334843 0.46121892
-0.24675295 -0.0017802902 0.46088997
-0.24459413 -0.0010293275 0.46055946
-0.2432408 -0.00035129488 0.46101207
-0.24108878 0.00039629266 0.46067944
-0.23894116 0.0011416748 0.46034524
-0.23679802 0.0018847957 0.4600096
-0.23545143 0.0025594682 0.46045998
-0.23410481 0.003234148 0.46091035
-0.23197058 0.0039727949 0.46057168
-0.23062626 0.0046463497 0.4610213
-0.22849873 0.0053816363 0.4606804
-0.22637567 0.0061146878 0.46033797
-0.22503579 0.0067860074 0.4607861
-0.22291943 0.0075157136 0.46044144
-0.22158173 0.0081859082 0.46088883
-0.21947211 0.0089122504 0.46054199
-0.21813667 0.0095813274 0.46098864
-0.2160337 0.010304321 0.46063945
-0.21470046 0.010972288 0.46108535
-0.21260425 0.011691906 0.46073404
-0.21127328 0.012358762 0.4611792
-0.20918375 0.01307502 0.46082556
-0.20785502 0.013740744 0.46126997
-0.20577219 0.014453666 0.46091416
-0.20444569 0.015118266 0.46135783
-0.20236951 0.015827825 0.46099973
-0.2002978 0.016535167 0.46064007
-0.19823059 0.017240234 0.46027905
-0.19691083 0.01790148 0.46072045
-0.1948503 0.018603202 0.46035713
-0.19353271 0.019263338 0.46079782
-0.19147888 0.019961717 0.46043229
-0.19016358 0.02062072 0.4608722
-0.18884823 0.021279732 0.46131214
-0.18680331 0.021973623 0.46094352
-0.18549022 0.022631524 0.46138272
-0.1841771 0.02328941 0.46182188
-0.18286398 0.023947304 0.46226105
-0.18083027 0.024635602 0.46188882
-0.17880103 0.025321662 0.46151504
-0.17749241 0.025977314 0.46195272
-0.17475596 0.026687073 0.46076304
-0.17274007 0.027366428 0.46038473
-0.17072871 0.028043542 0.46000502
-0.1687218 0.028718419 0.45962378
-0.16742432 0.029368475 0.46005771
-0.16542411 0.030040001 0.45967427
-0.16342837 0.030709276 0.45928928
-0.16143703 0.031376325 0.45890275
-0.16014627 0.032023013 0.45933446
-0.15885547 0.032669723 0.45976618
-0.15756473 0.033316426 0.46019787
-0.15627393 0.033963121 0.46062958
-0.15498316 0.034609824 0.46106127
-0.15369239 0.035256535 0.46149299
-0.1524016 0.03590323 0.4619247
-0.15111083 0.036549933 0.46235642
-0.14914188 0.037205789 0.46196252
-0.14785334 0.037851375 0.46239346
-0.1458911 0.038503878 0.46199727
-0.1446048 0.039148331 0.46242747
-0.11766353 0.050662644 0.46512339
-0.11576155 0.051284917 0.46470696
-0.11386409 0.051904976 0.46428916
-0.11197105 0.052522782 0.46386984
-0.11070484 0.053157184 0.46429333
-0.1088185 0.053771645 0.46387181
-0.10693663 0.054383859 0.46344864
-0.10505924 0.054993834 0.46302408
-0.10257292 0.055578288 0.46175075
-0.10131785 0.056207087 0.46217051
-0.098844916 0.056784824 0.46089265
-0.097594321 0.057411388 0.46131092
-0.058768809 0.074549288 0.46692908
-0.05753389 0.075168014 0.46734211
-0.056298941 0.07578674 0.46775514
-0.055063993 0.076405481 0.46816817
-0.053293794 0.076961756 0.46770781
-0.052061081 0.077579364 0.4681201
-0.050828367 0.07819698 0.46853238
-0.04906705 0.078748778 0.4680689
-0.047836602 0.079365268 0.46848044
-0.04608202 0.07991372 0.46801481
-0.043810099 0.080390751 0.46666977
-0.042586297 0.081003889 0.46707907
-0.040845126 0.081545621 0.466609
-0.0029214621 0.095256031 0.46245331
-0.0017356575 0.09585014 0.46284992
-9.2744827e-05 0.096342638 0.46234691
0.0039083958 0.098016649 0.46263263
0.18935408 0.17340507 0.46887526
0.19030836 0.17421381 0.47024688
0.19137357 0.1747475 0.47060314
0.19243881 0.1752812 0.47095942
0.19350402 0.1758149 0.47131568
0.19456926 0.1763486 0.47167197
0.19563448 0.1768823 0.47202823
0.19660437 0.17769887 0.47340506
0.19767185 0.17823367 0.47376207
0.19883016 0.17848338 0.47309703
0.19989537 0.17901707 0.47345331
0.20096061 0.17955077 0.47380957
0.20210998 0.179796 0.47314152
0.20317297 0.18032856 0.47349703
0.20431566 0.18057047 0.47282675
0.20537642 0.18110192 0.47318152
0.20643717 0.18163338 0.47353628
0.20757091 0.18187077 0.47286302
0.20862946 0.18240112 0.47321704
0.20968798 0.18293147 0.47357109
0.2107465 0.1834618 0.47392511
0.21180505 0.18399215 0.47427914
0.21286353 0.18452248 0.47463316
0.21398166 0.18475205 0.47395465
0.21503794 0.18528126 0.47430792
0.21609426 0.18581049 0.4746612
0.21715054 0.18633971 0.47501448
0.21825749 0.1865637 0.47433227
0.21931154 0.1870918 0.4746848
0.22041181 0.18731241 0.4740003
0.22146362 0.18783939 0.47435209
0.22251545 0.18836637 0.47470388
0.22360678 0.18858252 0.47401646
0.22465636 0.18910839 0.47436747
0.22570595 0.18963425 0.47471851
0.22678833 0.18984592 0.47402805
0.2278357 0.19037065 0.47437835
0.22888304 0.19089541 0.47472864
0.22995651 0.19110261 0.4740352
0.23100162 0.19162622 0.47438473
0.23206839 0.19183005 0.47368905
0.23311128 0.19235256 0.47403786
0.23415418 0.19287507 0.47438663
0.23521198 0.19307442 0.47368798
0.23625265 0.19359583 0.47403604
0.23729332 0.1941172 0.4743841
0.23833396 0.19463859 0.47473213
0.23937464 0.19515999 0.47508019
0.24041905 0.19535264 0.47437707
0.24145748 0.19587292 0.47472438
0.24249589 0.19639319 0.47507167
0.24353138 0.19658135 0.47436553
0.24456757 0.19710051 0.47471207
0.24560377 0.19761966 0.47505865
0.24663031 0.19780335 0.47434953
0.24766429 0.19832139 0.47469535
0.24869823 0.19883941 0.47504115
0.24971588 0.19901863 0.47432902
0.25074762 0.19953555 0.47467411
0.25175852 0.19971141 0.47395971
0.25276497 0.19988503 0.47324386
-0.2900472 -0.016720153 0.46217537
-0.28780475 -0.015930161 0.46187291
-0.28556672 -0.015142377 0.46156892
-0.28418216 -0.014448684 0.46203202
-0.28195086 -0.01366429 0.46172589
-0.28056857 -0.012971714 0.46218821
-0.27834395 -0.012190659 0.46187982
-0.27612385 -0.011411861 0.46156994
-0.27474597 -0.01072152 0.46203077
-0.27253261 -0.0099460706 0.46171862
-0.27115694 -0.0092568323 0.46217871
-0.26895019 -0.0084847324 0.46186432
-0.26674798 -0.0077148825 0.46154842
-0.26537678 -0.0070278943 0.46200702
-0.26318118 -0.0062613823 0.46168891
-0.26099017 -0.0054971315 0.46136934
-0.25880352 -0.0047351047 0.46104816
-0.25743905 -0.0040514693 0.46150452
-0.2552591 -0.0032927878 0.46118122
-0.25308368 -0.0025363714 0.46085638
-0.25172368 -0.001854986 0.46131122
-0.2495549 -0.0011018999 0.4609842
-0.24819714 -0.00042163208 0.46143833
-0.24603507 0.00032809004 0.46110898
-0.24387744 0.0010755807 0.46077809
-0.24172437 0.0018208139 0.46044585
-0.24037328 0.0024977438 0.46089771
-0.23822686 0.0032396391 0.46056315
-0.23608491 0.0039792731 0.46022716
-0.23473829 0.004653953 0.46067753
-0.2333917 0.005328618 0.46112791
-0.23125866 0.0060638003 0.46078888
-0.22991428 0.0067373551 0.4612385
-0.22778794 0.0074691772 0.46089724
-0.22566611 0.0081987567 0.46055445
-0.22432616 0.0088700838 0.46100259
-0.22221103 0.0095963031 0.46065757
-0.22087339 0.010266505 0.46110496
-0.21876493 0.010989368 0.46075776
-0.21742946 0.011658458 0.46120441
-0.21609402 0.012327535 0.46165106
-0.21399447 0.013045924 0.46130076
-0.21189943 0.013762094 0.46094909
-0.21056846 0.014428928 0.46139422
-0.20848009 0.015141722 0.46104023
-0.20715135 0.015807439 0.46148464
-0.20506969 0.016516881 0.4611285
-0.20374319 0.017181488 0.46157214
-0.20091972 0.017929073 0.46041152
-0.19959769 0.01859143 0.46085367
-0.19753167 0.019293033 0.46049228
-0.19547012 0.019992407 0.46012935
-0.19415253 0.020652544 0.46057001
-0.19283497 0.02131268 0.46101066
-0.19151741 0.021972802 0.46145135
-0.19019982 0.02263293 0.46189201
-0.18888226 0.023293052 0.4623327
-0.18683633 0.023984598 0.46196458
-0.18552098 0.024643602 0.46240449
-0.18420562 0.025302613 0.4628444
-0.18216863 0.02598968 0.46247318
-0.18013608 0.026674513 0.4621006
-0.17810804 0.027357101 0.46172646
-0.17608443 0.028037449 0.46135083
-0.17335257 0.028739145 0.46015963
-0.17134014 0.029413905 0.45978031
-0.1700404 0.030065086 0.460215
-0.1680347 0.030736484 0.45983341
-0.16603342 0.031405658 0.45945033
-0.16473821 0.032054596 0.45988354
-0.1627436 0.032720387 0.4594982
-0.16075349 0.033383965 0.4591113
-0.15946272 0.034030676 0.45954302
-0.15817192 0.034677379 0.45997471
-0.15688115 0.035324074 0.46040642
-0.15559039 0.035970777 0.46083811
-0.15429959 0.036617488 0.46126983
-0.15300885 0.037264183 0.46170154
-0.15171805 0.037910886 0.46213326
-0.15042725 0.038557597 0.46256495
-0.14845952 0.039209966 0.46217069
-0.14717096 0.039855544 0.46260166
-0.12144497 0.050743699 0.46489125
-0.1195353 0.051366992 0.46447757
-0.11826235 0.052004755 0.46490332
-0.11635932 0.052624673 0.46448728
-0.1144608 0.05324237 0.46406987
-0.11256674 0.053857829 0.46365091
-0.1113005 0.054492231 0.4640744
-0.10941312 0.055104338 0.46365327
-0.1037778 0.056927204 0.46238071
-0.1019083 0.057530362 0.46195352
-0.10004327 0.05813127 0.46152493
-0.098790437 0.058758959 0.46194392
-0.058114827 0.076470099 0.4671286
-0.056879878 0.077088833 0.46754164
-0.055644929 0.077707559 0.46795467
-0.054410011 0.078326292 0.4683677
-0.053175062 0.078945026 0.46878073
-0.051408261 0.079496711 0.46831927
-0.050175577 0.08011432 0.46873155
-0.048415452 0.080662638 0.46826771
-0.046659827 0.081208736 0.46780244
-0.044908673 0.081752583 0.46733573
-0.043162018 0.082294196 0.46686748
0.18885401 0.17452584 0.46869147
0.18980724 0.17533694 0.4700627
0.19087246 0.17587064 0.47041899
0.19193769 0.17640434 0.47077525
0.19300291 0.17693803 0.47113153
0.19406813 0.17747173 0.47148779
0.19513336 0.17800543 0.47184408
0.1961022 0.17882435 0.4732205
0.19716968 0.17935915 0.47357753
0.19832903 0.17960651 0.47291288
0.19939426 0.18014021 0.47326913
0.20045948 0.18067391 0.47362539
0.20160991 0.18091677 0.47295773
0.2026729 0.18144934 0.47331324
0.20373592 0.18198194 0.47366878
0.20487741 0.18222035 0.47299811
0.20593816 0.1827518 0.47335288
0.20699891 0.18328327 0.47370768
0.20805968 0.18381473 0.47406244
0.20919001 0.18404754 0.47338808
0.21024853 0.18457788 0.4737421
0.21130708 0.18510821 0.47409615
0.21236557 0.18563855 0.47445017
0.21342412 0.18616889 0.47480419
0.21454102 0.18639497 0.4741253
0.21559733 0.1869242 0.4744786
0.21665362 0.18745342 0.47483188
0.21770991 0.18798265 0.47518516
0.21881567 0.18820316 0.47450256
0.21986973 0.18873127 0.4748551
0.22096881 0.18894841 0.47417024
0.22202064 0.18947537 0.47452205
0.22311302 0.18968917 0.47383499
0.22416259 0.19021504 0.47418603
0.22521219 0.1907409 0.47453704
0.22626176 0.19126676 0.47488809
0.22734298 0.19147496 0.47419727
0.22839034 0.1919997 0.47454756
0.22946484 0.19220455 0.47385451
0.23050997 0.19272816 0.47420403
0.23155509 0.1932518 0.47455359
0.23262066 0.19345215 0.47385755
0.23366356 0.19397466 0.47420633
0.23470643 0.19449717 0.47455513
0.23574933 0.19501968 0.47490394
0.23679224 0.19554219 0.47525275
0.23784439 0.19573583 0.47455221
0.23888507 0.19625722 0.47490028
