# .PCD v0.7 - Point Cloud Data file format
VERSION 0.7
FIELDS x y z
SIZE 4 4 4
TYPE F F F
COUNT 1 1 1
WIDTH 1345
HEIGHT 1
VIEWPOINT 0 0 0 1 0 0 0
POINTS 1345
DATA ascii
0.12463773 -0.063529752 0.45801428
0.12583175 -0.063529573 0.45801434
0.12702578 -0.063529395 0.4580144
0.18135667 -0.061300501 0.44201761
0.18250901 -0.061300334 0.4420177
0.18366131 -0.061300162 0.44201776
0.18439552 -0.06116125 0.44101778
0.18554524 -0.061161082 0.44101787
0.18669495 -0.061160911 0.44101793
0.18784466 -0.06116074 0.44101799
0.18899438 -0.061160568 0.44101807
0.19014409 -0.061160397 0.44101813
0.19086003 -0.061021492 0.44001818
0.19200715 -0.061021321 0.44001824
0.19315425 -0.061021149 0.44001833
0.19385976 -0.060882241 0.43901834
0.19500425 -0.060882073 0.4390184
0.19614878 -0.060881902 0.43901849
0.19684386 -0.060743 0.43801853
0.19798577 -0.060742833 0.43801859
0.19912764 -0.060742665 0.43801868
0.19981229 -0.060603756 0.43701869
0.20095158 -0.060603589 0.43701875
0.20209086 -0.060603417 0.43701884
0.20276511 -0.06046452 0.43601888
0.2039018 -0.060464349 0.43601894
-0.32300913 -0.079017855 0.5799877
-0.32038844 -0.078745067 0.57798785
-0.31888157 -0.078744844 0.57798791
-0.31682557 -0.078608349 0.57698804
-0.31532133 -0.078608125 0.57698816
-0.31327313 -0.078471638 0.57598829
-0.31177148 -0.078471415 0.57598841
-0.30973113 -0.078334913 0.57498854
-0.30823207 -0.078334689 0.5749886
-0.30619955 -0.078198187 0.57398868
-0.30470312 -0.078197964 0.5739888
-0.30267838 -0.078061469 0.57298893
-0.30065894 -0.077924982 0.57198906
-0.29916769 -0.077924766 0.57198912
-0.29715607 -0.077788271 0.57098925
-0.29566741 -0.077788047 0.57098931
-0.29366356 -0.077651553 0.56998944
-0.29166496 -0.077515058 0.56898952
-0.29018152 -0.077514842 0.56898963
-0.28819072 -0.077378348 0.56798977
-0.28670993 -0.077378131 0.56798983
-0.28522912 -0.077377908 0.56798995
-0.28324872 -0.077241428 0.56699008
-0.28177053 -0.077241205 0.56699014
-0.28029233 -0.077240989 0.56699026
-0.2783224 -0.077104501 0.56599039
-0.2768468 -0.077104285 0.56599045
-0.27537119 -0.077104069 0.56599057
-0.27389559 -0.077103846 0.56599063
-0.27241999 -0.07710363 0.56599075
-0.27046567 -0.076967135 0.56499082
-0.26946881 -0.07710319 0.56599092
-0.26751971 -0.076966695 0.564991
-0.26604673 -0.076966479 0.56499106
-0.26410544 -0.076829992 0.56399119
-0.26216942 -0.07669352 0.56299132
-0.26070163 -0.076693296 0.56299138
-0.25831294 -0.07642056 0.56099159
-0.25639254 -0.076284081 0.55999166
-0.25447735 -0.076147601 0.55899173
-0.25256735 -0.076011114 0.55799186
-0.2506626 -0.075874656 0.55699199
-0.24921048 -0.07587444 0.55699211
-0.24731353 -0.075737961 0.55599219
-0.245864 -0.075737745 0.55599231
-0.24397486 -0.075601257 0.55499238
-0.24252793 -0.075601041 0.55499244
-0.24064663 -0.075464576 0.55399257
-0.23920232 -0.07546436 0.55399269
-0.23775801 -0.075464144 0.55399275
-0.2363137 -0.075463936 0.55399281
-0.23486939 -0.07546372 0.55399293
-0.23300374 -0.075327247 0.55299306
-0.23156202 -0.075327031 0.55299312
-0.23012033 -0.075326815 0.55299324
-0.22867861 -0.075326607 0.5529933
-0.2272369 -0.075326391 0.55299342
-0.22579521 -0.075326174 0.55299348
-0.22435349 -0.075325958 0.55299354
-0.2229118 -0.07532575 0.55299366
-0.2210696 -0.075189285 0.55199379
-0.21963051 -0.075189069 0.55199385
-0.21819139 -0.07518886 0.55199397
-0.21635962 -0.075052388 0.55099398
-0.21492311 -0.075052179 0.5509941
-0.21309918 -0.074915707 0.54999423
-0.2116653 -0.074915498 0.54999429
-0.20984918 -0.074779034 0.54899442
-0.20841789 -0.074778818 0.54899448
-0.20660958 -0.07464236 0.54799461
-0.20518091 -0.074642152 0.54799473
-0.20338044 -0.074505694 0.54699481
-0.20195439 -0.074505478 0.54699492
-0.20052832 -0.07450527 0.54699498
-0.19873825 -0.074368797 0.54599506
-0.1973148 -0.074368589 0.54599512
-0.19553256 -0.074232131 0.54499525
-0.1941117 -0.074231923 0.54499537
-0.1923373 -0.074095465 0.54399544
-0.19091907 -0.074095257 0.54399556
-0.18915248 -0.073958792 0.54299563
-0.18773684 -0.073958583 0.54299575
-0.18597808 -0.073822133 0.54199588
-0.18456507 -0.073821925 0.54199594
-0.18315202 -0.073821716 0.541996
-0.18140367 -0.073685259 0.54099607
-0.17999324 -0.07368505 0.54099619
-0.17825273 -0.073548593 0.53999627
-0.17684489 -0.073548384 0.53999639
-0.17511222 -0.073411934 0.53899646
-0.17370701 -0.073411725 0.53899658
-0.17198214 -0.073275276 0.53799665
-0.17057952 -0.073275067 0.53799677
-0.16886246 -0.073138617 0.53699684
-0.16746247 -0.073138408 0.5369969
-0.16575325 -0.073001958 0.53599703
-0.16435584 -0.07300175 0.53599709
-0.16295847 -0.073001549 0.53599715
-0.16125965 -0.072865106 0.53499728
-0.15986487 -0.072864898 0.5349974
-0.15817389 -0.072728448 0.53399748
-0.1567817 -0.072728246 0.5339976
-0.15509859 -0.072591797 0.53299767
-0.15370899 -0.072591588 0.53299779
-0.15231943 -0.072591387 0.53299785
-0.15064669 -0.072454944 0.53199792
-0.14897916 -0.072318502 0.53099799
-0.14759481 -0.072318301 0.53099811
-0.14593512 -0.072181851 0.52999818
-0.14455336 -0.07218165 0.5299983
-0.14317164 -0.072181441 0.52999836
-0.14152235 -0.072045013 0.52899849
-0.14014322 -0.072044805 0.52899855
-0.13876408 -0.072044604 0.52899867
-0.13712522 -0.071908154 0.52799869
-0.13574871 -0.071907952 0.52799881
-0.13437217 -0.071907744 0.52799886
-0.13274378 -0.071771316 0.52699894
-0.13161913 -0.071907334 0.52799904
-0.042176615 -0.067535847 0.49600434
-0.040883515 -0.067535654 0.4960044
-0.039670229 -0.067671672 0.49700448
-0.038374517 -0.067671478 0.49700454
-0.037078809 -0.067671284 0.49700463
-0.035783097 -0.06767109 0.49700469
-0.034487385 -0.067670904 0.49700478
-0.033191673 -0.06767071 0.49700487
-0.031895965 -0.067670517 0.49700493
-0.030538684 -0.067534119 0.49600503
-0.02924558 -0.067533925 0.49600512
-0.027952475 -0.067533731 0.49600518
-0.026605621 -0.067397356 0.49500528
-0.025315125 -0.067397162 0.49500534
-0.024024628 -0.067396969 0.49500543
-0.022734132 -0.067396775 0.49500552
-0.021400314 -0.067260377 0.49400556
-0.020112423 -0.067260183 0.49400565
-0.018824533 -0.067259997 0.49400571
-0.017501144 -0.067123599 0.49300581
-0.014930578 -0.067123219 0.49300596
0.016782807 -0.065484181 0.48100784
0.018036805 -0.065483995 0.4810079
0.019290803 -0.065483809 0.48100799
0.020587509 -0.065619819 0.48200807
0.021844115 -0.065619633 0.48200813
0.023100719 -0.065619439 0.48200822
0.024407856 -0.065755434 0.48300827
0.025667068 -0.065755248 0.48300835
0.026870534 -0.06561888 0.48200843
0.028127138 -0.065618694 0.48200852
0.029383743 -0.065618508 0.48200858
0.030640347 -0.065618321 0.48200867
0.031963129 -0.065754317 0.48300874
0.03322234 -0.06575413 0.4830088
0.034481551 -0.065753944 0.48300889
0.035666768 -0.065617576 0.48200896
0.036923371 -0.06561739 0.48200902
0.038179975 -0.065617204 0.48200911
0.039436582 -0.065617017 0.48200917
0.040693186 -0.065616831 0.48200926
0.041862763 -0.065480463 0.48100933
0.04311676 -0.065480277 0.48100942
0.044370756 -0.065480091 0.48100948
0.045624755 -0.065479904 0.48100957
0.046781287 -0.065343536 0.48000962
0.048032682 -0.06534335 0.4800097
0.049284071 -0.065343164 0.48000976
0.050430182 -0.065206803 0.47900984
0.051678967 -0.065206617 0.47900993
0.052817255 -0.065070257 0.47800997
0.054063432 -0.06507007 0.47801006
0.055309609 -0.065069884 0.47801012
0.05643747 -0.064933516 0.47701019
0.057681039 -0.064933337 0.47701028
0.058924608 -0.064933151 0.47701034
0.060042039 -0.064796798 0.47601038
0.061283 -0.064796612 0.47601047
0.062392615 -0.064660251 0.47501054
0.063630961 -0.064660065 0.47501063
0.064869322 -0.064659886 0.47501069
0.065968499 -0.064523526 0.47401077
0.067204252 -0.064523339 0.47401085
0.068440005 -0.064523153 0.47401091
0.069675751 -0.064522974 0.474011
0.070761904 -0.064386621 0.47301105
0.071995042 -0.064386442 0.47301111
0.073073365 -0.064250082 0.47201118
0.074303903 -0.064249903 0.47201127
0.07537441 -0.064113542 0.47101131
0.076602332 -0.064113364 0.47101137
0.077665024 -0.063977018 0.47001144
0.078890346 -0.063976832 0.47001153
0.080115661 -0.063976653 0.47001159
0.081167914 -0.0638403 0.46901163
0.082390636 -0.063840121 0.46901172
0.083613344 -0.063839935 0.46901178
0.084655173 -0.063703582 0.46801186
0.08587528 -0.063703403 0.46801195
0.086909279 -0.063567065 0.46701199
0.088126779 -0.063566878 0.46701205
0.089344271 -0.0635667 0.46701214
0.090367861 -0.063430354 0.46601221
0.091582753 -0.063430168 0.46601227
0.092598505 -0.063293822 0.46501234
0.093810789 -0.063293643 0.4650124
0.095023073 -0.063293464 0.46501249
0.096235357 -0.063293286 0.46501255
0.097238079 -0.063156947 0.46401259
0.098447755 -0.063156769 0.46401268
0.099657439 -0.06315659 0.46401274
0.10086711 -0.063156404 0.46401283
0.10207679 -0.063156225 0.46401289
0.10306387 -0.063019887 0.46301296
0.10427094 -0.063019708 0.46301302
0.10547802 -0.063019529 0.46301311
0.10668509 -0.06301935 0.46301317
0.10789216 -0.063019171 0.46301326
0.10909922 -0.063018993 0.46301332
0.11006805 -0.062882647 0.46201336
0.11127251 -0.062882468 0.46201342
0.11247698 -0.062882289 0.46201351
0.11343538 -0.062745959 0.46101359
0.11463724 -0.06274578 0.46101364
0.11583909 -0.062745601 0.4610137
0.11704095 -0.062745422 0.46101379
0.11798631 -0.062609084 0.46001384
0.11918556 -0.062608913 0.4600139
0.12038481 -0.062608734 0.46001396
0.12131976 -0.062472396 0.45901403
0.1225164 -0.062472217 0.45901412
0.12371304 -0.062472038 0.45901418
0.12490968 -0.062471867 0.45901424
0.12583157 -0.062335532 0.45801431
0.1270256 -0.062335357 0.4580144
0.12821963 -0.062335178 0.45801446
0.12913114 -0.062198848 0.4570145
0.13032255 -0.062198672 0.45701456
0.13151398 -0.062198494 0.45701465
0.18596581 -0.060147498 0.44201788
0.18711814 -0.060147326 0.44201794
0.18784449 -0.060011026 0.44101799
0.1889942 -0.060010854 0.44101804
0.19014391 -0.060010683 0.4410181
0.19129363 -0.060010515 0.44101816
0.19200698 -0.059874214 0.44001824
0.1931541 -0.059874043 0.4400183
0.19430119 -0.059873875 0.44001836
0.19500411 -0.059737571 0.4390184
0.1961486 -0.059737399 0.43901846
0.1972931 -0.059737232 0.43901852
0.19798559 -0.059600938 0.43801859
0.19912747 -0.05960077 0.43801865
0.19981214 -0.05946447 0.43701866
0.20095143 -0.059464302 0.43701875
0.20209071 -0.059464131 0.43701881
0.20276496 -0.059327841 0.43601885
0.20390162 -0.059327669 0.43601891
-0.32300937 -0.07750576 0.5799877
-0.320943 -0.077371866 0.57898784
-0.31888178 -0.077237964 0.57798791
-0.31737486 -0.07723774 0.57798803
-0.31532153 -0.077103846 0.57698816
-0.31381726 -0.077103622 0.57698822
-0.31177172 -0.076969743 0.57598835
-0.31027001 -0.076969519 0.57598847
-0.30823228 -0.076835632 0.5749886
-0.30673322 -0.076835409 0.57498866
-0.30470333 -0.076701514 0.57398874
-0.30320683 -0.076701291 0.57398885
-0.30118477 -0.076567404 0.57298899
-0.2991679 -0.076433524 0.57198912
-0.29715627 -0.076299638 0.57098925
-0.29566762 -0.076299414 0.57098931
-0.2936638 -0.076165527 0.56998944
-0.29166517 -0.07603164 0.56898952
-0.29018173 -0.076031424 0.56898957
-0.28869832 -0.076031201 0.56898969
-0.28671014 -0.075897321 0.56798983
-0.28522933 -0.075897098 0.56798989
-0.28324896 -0.075763218 0.56699002
-0.28177077 -0.075762995 0.56699014
-0.28029257 -0.075762779 0.5669902
-0.27881435 -0.075762555 0.56699032
-0.27733615 -0.075762339 0.56699038
-0.27585796 -0.075762115 0.56699049
-0.27437973 -0.075761899 0.56699055
-0.27290154 -0.075761676 0.56699067
-0.2709446 -0.075627819 0.56599081
-0.26946902 -0.075627595 0.56599087
-0.26799342 -0.075627379 0.56599098
-0.26604694 -0.075493492 0.56499106
-0.26457393 -0.075493276 0.56499112
-0.26263529 -0.075359397 0.56399125
-0.26070184 -0.075225525 0.56299138
-0.25877362 -0.075091653 0.56199151
-0.25639275 -0.074824125 0.5599916
-0.25493279 -0.074823909 0.55999172
-0.25256759 -0.074556373 0.55799186
-0.25111285 -0.074556157 0.55799192
-0.24921069 -0.074422307 0.55699205
-0.24731374 -0.074288435 0.55599219
-0.24586421 -0.074288219 0.55599231
-0.24397507 -0.07415434 0.55499232
-0.24252814 -0.074154124 0.55499244
-0.24108121 -0.074153915 0.5549925
-0.23963431 -0.074153699 0.55499262
-0.23775822 -0.074019834 0.55399275
-0.23631394 -0.074019626 0.55399281
-0.2348696 -0.07401941 0.55399287
-0.23342529 -0.074019194 0.55399299
-0.23198098 -0.074018978 0.55399305
-0.23053667 -0.074018769 0.55399317
-0.22909236 -0.074018553 0.55399323
-0.22723711 -0.073884688 0.55299336
-0.22579542 -0.073884472 0.55299348
-0.2243537 -0.073884256 0.55299354
-0.22291201 -0.073884048 0.5529936
-0.2214703 -0.073883832 0.55299371
-0.22002858 -0.073883615 0.55299377
-0.21819159 -0.073749758 0.55199391
-0.2167525 -0.073749542 0.55199403
-0.2153134 -0.073749326 0.55199409
-0.21348685 -0.073615469 0.55099416
-0.21166551 -0.073481612 0.54999429
-0.2102316 -0.073481396 0.54999435
-0.20879775 -0.073481187 0.54999447
-0.20698681 -0.07334733 0.54899454
-0.20518115 -0.073213488 0.54799467
-0.20375246 -0.073213272 0.54799479
-0.2019546 -0.073079415 0.54699486
-0.20052853 -0.073079206 0.54699498
-0.19873846 -0.072945341 0.545995
-0.19731501 -0.072945133 0.54599512
-0.19589156 -0.072944924 0.54599518
-0.19411191 -0.072811075 0.54499531
-0.19269109 -0.072810866 0.54499543
-0.19091928 -0.072677016 0.5439955
-0.18915269 -0.072543159 0.54299563
-0.18773705 -0.072542951 0.54299569
-0.18597829 -0.072409101 0.54199582
-0.18456528 -0.072408892 0.54199594
-0.18315223 -0.072408684 0.541996
-0.18140388 -0.072274834 0.54099607
-0.17999345 -0.072274625 0.54099613
-0.17825294 -0.072140776 0.53999627
-0.1768451 -0.072140567 0.53999633
-0.1754373 -0.072140358 0.53999645
-0.17370722 -0.072006524 0.53899652
-0.17230201 -0.072006315 0.53899664
-0.17057973 -0.071872473 0.53799671
-0.16917714 -0.071872264 0.53799683
-0.16746268 -0.071738414 0.5369969
-0.16606268 -0.071738206 0.53699696
-0.16435605 -0.071604364 0.53599709
-0.16295868 -0.071604162 0.53599715
-0.16156128 -0.071603954 0.53599721
-0.15986508 -0.071470119 0.53499734
-0.1584703 -0.07146991 0.53499746
-0.15678191 -0.071336076 0.53399754
-0.15538976 -0.071335867 0.53399765
-0.15399757 -0.071335658 0.53399771
-0.15231964 -0.071201824 0.53299785
-0.15093008 -0.071201615 0.53299791
-0.14925992 -0.07106778 0.53199798
-0.14759502 -0.070933945 0.53099805
-0.14621067 -0.070933737 0.53099817
-0.14455357 -0.07079991 0.52999824
-0.14317185 -0.070799701 0.52999836
-0.14179009 -0.0707995 0.52999842
-0.14014342 -0.070665672 0.52899855
-0.13876429 -0.070665471 0.52899861
-0.13712543 -0.070531629 0.52799869
-0.13574889 -0.070531428 0.52799875
-0.13437238 -0.070531219 0.52799881
-0.13299584 -0.070531018 0.52799892
-0.040883705 -0.066242553 0.49600437
-0.039590601 -0.06624236 0.49600446
-0.038297497 -0.066242166 0.49600455
-0.037004393 -0.06624198 0.49600461
-0.035711292 -0.066241786 0.4960047
-0.034487579 -0.066375196 0.49700475
-0.03312508 -0.066241398 0.49600485
-0.03183198 -0.066241212 0.49600494
-0.030538876 -0.066241018 0.496005
-0.029245771 -0.066240825 0.49600509
-0.027952667 -0.066240631 0.49600515
-0.026605813 -0.066106856 0.49500525
-0.025315316 -0.066106662 0.49500534
-0.02402482 -0.066106468 0.4950054
-0.022734324 -0.066106275 0.49500549
-0.021443827 -0.066106088 0.49500555
-0.020112615 -0.065972298 0.49400562
-0.018824724 -0.065972112 0.49400571
-0.017501336 -0.065838322 0.49300578
-0.016216055 -0.065838136 0.49300587
-0.014930769 -0.065837942 0.49300593
0.019290617 -0.064229816 0.48100796
0.020544615 -0.06422963 0.48100805
0.021843929 -0.064363033 0.4820081
0.023148458 -0.064496413 0.48300818
0.02440767 -0.064496219 0.48300827
0.025666881 -0.064496033 0.48300833
0.026926093 -0.064495847 0.48300841
0.028185304 -0.06449566 0.48300847
0.029444518 -0.064495474 0.48300856
0.030703727 -0.064495288 0.48300862
0.031962939 -0.064495102 0.48300871
0.03322215 -0.064494915 0.48300877
0.034481362 -0.064494729 0.48300886
0.035740573 -0.064494543 0.48300892
0.036999784 -0.064494357 0.48300901
0.038179789 -0.064360604 0.48200908
0.039436396 -0.064360417 0.48200917
0.040693 -0.064360231 0.48200923
0.041949604 -0.064360045 0.48200932
0.043116573 -0.064226285 0.48100939
0.044370569 -0.064226098 0.48100948
0.045624569 -0.064225912 0.48100954
0.046878565 -0.064225726 0.48100963
0.0480325 -0.064091958 0.48000968
0.049283888 -0.064091772 0.48000973
0.05053528 -0.064091586 0.48000982
0.05167878 -0.063957833 0.4790099
0.052927565 -0.063957646 0.47900999
0.054063246 -0.063823894 0.47801003
0.055309422 -0.063823707 0.47801009
0.056555599 -0.063823521 0.47801018
0.057680856 -0.063689768 0.47701025
0.058924425 -0.063689582 0.47701034
0.060041852 -0.063555837 0.47601038
0.061282814 -0.06355565 0.47601044
0.062392432 -0.063421898 0.47501051
0.063630775 -0.063421711 0.4750106
0.064869136 -0.063421533 0.47501066
0.06596832 -0.06328778 0.47401074
0.067204073 -0.063287593 0.47401083
0.068439826 -0.063287407 0.47401088
0.069675572 -0.063287228 0.47401097
0.070761718 -0.063153483 0.47301102
0.071994856 -0.063153304 0.47301108
0.073227994 -0.063153118 0.47301117
0.074303716 -0.063019373 0.47201124
0.075374231 -0.062885612 0.47101128
0.076602153 -0.062885433 0.47101137
0.077830084 -0.062885247 0.47101143
0.07889016 -0.062751509 0.4700115
0.080115475 -0.06275133 0.47001159
0.081340797 -0.062751144 0.47001165
0.08239045 -0.062617406 0.46901169
0.083613157 -0.06261722 0.46901178
0.084654994 -0.062483475 0.46801186
0.085875101 -0.062483296 0.46801192
0.0869091 -0.062349558 0.46701196
0.0881266 -0.062349379 0.46701202
0.089344092 -0.062349197 0.46701211
0.090561591 -0.062349014 0.46701217
0.091582566 -0.06221528 0.46601224
0.092797458 -0.062215097 0.46601233
0.09401235 -0.062214918 0.46601239
0.095022894 -0.062081184 0.46501246
0.096235178 -0.062081002 0.46501255
0.09744747 -0.062080823 0.46501261
0.098447576 -0.061947081 0.46401265
0.09965726 -0.061946902 0.46401271
0.10086694 -0.061946724 0.4640128
0.10207661 -0.061946545 0.46401286
0.10328629 -0.061946366 0.46401295
0.10427076 -0.061812636 0.46301302
0.10547784 -0.061812457 0.46301308
0.10668491 -0.061812278 0.46301314
0.10789198 -0.061812099 0.46301323
0.10909905 -0.06181192 0.46301329
0.11006787 -0.061678182 0.46201333
0.11127234 -0.061678004 0.46201342
0.1124768 -0.061677825 0.46201348
0.11368126 -0.061677646 0.46201354
0.11463706 -0.061543919 0.46101362
0.11583891 -0.061543744 0.4610137
0.11704078 -0.061543565 0.46101376
0.11824262 -0.061543386 0.46101385
0.11918539 -0.061409656 0.46001387
0.12038464 -0.061409477 0.46001396
0.12158389 -0.061409302 0.46001402
0.12278314 -0.061409123 0.4600141
0.12371286 -0.061275396 0.45901415
0.12490951 -0.061275218 0.45901424
0.12610614 -0.061275039 0.4590143
0.12702546 -0.061141323 0.45801437
0.12821949 -0.061141144 0.45801443
0.12941352 -0.061140969 0.45801452
0.13060755 -0.061140791 0.45801458
0.1315138 -0.061007068 0.45701462
0.13270521 -0.061006892 0.45701468
0.13389665 -0.061006714 0.45701477
0.13479251 -0.060872991 0.45601481
0.13598132 -0.060872816 0.4560149
0.19014376 -0.058860965 0.44101807
0.19129348 -0.058860797 0.44101816
0.19244319 -0.058860626 0.44101822
0.19315392 -0.058726937 0.44001827
0.19430104 -0.058726769 0.44001836
0.19544813 -0.058726598 0.44001842
0.19614843 -0.058592901 0.43901843
0.19729292 -0.058592733 0.43901852
0.19798541 -0.058459044 0.43801856
0.19912732 -0.058458876 0.43801862
0.20026919 -0.058458705 0.43801871
0.20095125 -0.058325015 0.43701872
0.20209053 -0.058324844 0.43701878
0.20276478 -0.058191162 0.43601882
0.20390144 -0.05819099 0.43601891
-0.32300961 -0.075993665 0.57998765
-0.32149753 -0.075993434 0.57998776
-0.31943372 -0.075862154 0.5789879
-0.31737509 -0.07573086 0.57798797
-0.31586823 -0.075730637 0.57798809
-0.31381747 -0.07559935 0.57698822
-0.3123132 -0.075599134 0.57698828
-0.31027022 -0.075467855 0.57598841
-0.30876857 -0.075467631 0.57598853
-0.30673346 -0.075336345 0.57498866
-0.3052344 -0.075336128 0.57498872
-0.30320704 -0.075204834 0.5739888
-0.30118498 -0.075073555 0.57298893
-0.29916814 -0.074942283 0.57198906
-0.29715648 -0.074811004 0.57098919
-0.29566783 -0.074810781 0.57098931
-0.29366401 -0.074679501 0.56998944
-0.29166541 -0.074548222 0.56898952
-0.29018196 -0.074548006 0.56898957
-0.28869855 -0.074547783 0.56898969
-0.28671035 -0.074416511 0.56798983
-0.28522953 -0.074416287 0.56798989
-0.28374872 -0.074416071 0.56798995
-0.28177097 -0.074284792 0.56699008
-0.28029278 -0.074284576 0.5669902
-0.27881455 -0.074284352 0.56699026
-0.27733636 -0.074284136 0.56699038
-0.27585816 -0.074283913 0.56699044
-0.27437994 -0.074283697 0.56699055
-0.27290174 -0.074283473 0.56699061
-0.27142352 -0.074283257 0.56699073
-0.26946926 -0.074151993 0.56599087
-0.26799366 -0.074151777 0.56599092
-0.26651806 -0.074151553 0.56599104
-0.26457414 -0.074020281 0.56499112
-0.2626355 -0.07388901 0.56399125
-0.26070207 -0.073757745 0.56299132
-0.25877383 -0.073626481 0.56199145
-0.25685084 -0.073495217 0.56099159
-0.25493303 -0.073363952 0.55999166
-0.25302041 -0.073232681 0.55899179
-0.25111306 -0.073101416 0.55799192
-0.24921089 -0.072970167 0.55699205
-0.24775875 -0.072969951 0.55699211
-0.24586442 -0.072838686 0.55599225
-0.2444149 -0.07283847 0.55599236
-0.24252838 -0.072707199 0.55499238
-0.24108145 -0.07270699 0.5549925
-0.23963454 -0.072706774 0.55499256
-0.23818761 -0.072706558 0.55499268
-0.23631415 -0.072575316 0.55399281
-0.23486981 -0.0725751 0.55399287
-0.2334255 -0.072574884 0.55399299
-0.23198119 -0.072574668 0.55399305
-0.23053688 -0.072574459 0.55399311
-0.22909257 -0.072574243 0.55399323
-0.22764823 -0.072574027 0.55399328
-0.22579563 -0.07244277 0.55299342
-0.22435391 -0.072442554 0.55299354
-0.22291222 -0.072442345 0.5529936
-0.2214705 -0.072442129 0.55299371
-0.22002879 -0.072441913 0.55299377
-0.21819183 -0.072310664 0.55199391
-0.21675274 -0.072310448 0.55199397
-0.21531364 -0.072310232 0.55199409
-0.21387455 -0.072310023 0.55199414
-0.21205056 -0.072178766 0.55099422
-0.21023181 -0.072047517 0.54999435
-0.20879796 -0.072047308 0.54999441
-0.20736405 -0.072047092 0.54999453
-0.20555577 -0.071915843 0.5489946
-0.20375267 -0.071784601 0.54799473
-0.202324 -0.071784392 0.54799485
-0.20052874 -0.071653143 0.54699492
-0.19910267 -0.071652934 0.54699504
-0.19731522 -0.071521677 0.54599512
-0.19589177 -0.071521468 0.54599518
-0.19411212 -0.071390226 0.54499531
-0.1926913 -0.071390018 0.54499537
-0.19091949 -0.071258776 0.5439955
-0.18950123 -0.07125856 0.54399556
-0.18773726 -0.071127318 0.54299569
-0.18632162 -0.071127109 0.54299575
-0.18456548 -0.070995867 0.54199588
-0.18315244 -0.070995659 0.541996
-0.18140408 -0.070864417 0.54099602
-0.17999366 -0.070864208 0.54099613
-0.17858323 -0.070863999 0.54099619
-0.17684531 -0.070732757 0.53999633
-0.17543751 -0.070732549 0.53999639
-0.17402968 -0.07073234 0.5399965
-0.17230222 -0.070601106 0.53899658
-0.17089701 -0.070600897 0.5389967
-0.16917735 -0.070469663 0.53799677
-0.16777474 -0.070469454 0.53799689
-0.16606289 -0.070338212 0.53699696
-0.1646629 -0.070338011 0.53699702
-0.1632629 -0.070337802 0.53699708
-0.16156149 -0.070206568 0.53599721
-0.16016412 -0.070206359 0.53599727
-0.15876672 -0.07020615 0.53599739
-0.15707573 -0.070074923 0.53499752
-0.15538996 -0.069943696 0.5339976
-0.15399778 -0.069943488 0.53399771
-0.15231985 -0.069812261 0.53299779
-0.15093029 -0.069812052 0.53299791
-0.14926013 -0.069680825 0.53199792
-0.14787319 -0.069680616 0.53199804
-0.14621088 -0.069549389 0.53099811
-0.14455378 -0.069418162 0.52999824
-0.14317203 -0.069417953 0.5299983
-0.1417903 -0.069417752 0.52999842
-0.14014363 -0.069286533 0.52899849
-0.1387645 -0.069286332 0.52899861
-0.13712564 -0.069155097 0.52799863
-0.1357491 -0.069154896 0.52799875
-0.13437259 -0.069154687 0.52799881
-0.13299605 -0.069154486 0.52799886
-0.13161951 -0.069154277 0.52799898
-0.039590795 -0.064949259 0.49600443
-0.03829769 -0.064949065 0.49600452
-0.037004586 -0.064948879 0.49600458
-0.035711486 -0.064948685 0.49600467
-0.034418378 -0.064948492 0.49600476
-0.033058487 -0.064817317 0.49500483
-0.03176799 -0.064817123 0.49500492
-0.030477496 -0.064816937 0.49500498
-0.029186999 -0.064816743 0.49500507
-0.027896501 -0.064816549 0.49500516
-0.026606005 -0.064816363 0.49500522
-0.025315508 -0.064816169 0.49500531
-0.024025012 -0.064815976 0.49500537
-0.022734515 -0.064815782 0.49500546
-0.021444019 -0.064815596 0.49500555
-0.020112807 -0.064684406 0.49400559
-0.018824916 -0.06468422 0.49400568
-0.017537028 -0.064684026 0.49400574
-0.016216245 -0.064552851 0.49300584
-0.01493096 -0.064552657 0.49300593
0.01929043 -0.062975816 0.48100793
0.020544428 -0.06297563 0.48100802
0.021843743 -0.063106425 0.4820081
0.023100346 -0.063106231 0.48200816
0.024407484 -0.063237011 0.48300824
0.025666695 -0.063236825 0.4830083
0.026925907 -0.063236639 0.48300838
0.028185118 -0.063236453 0.48300844
0.029444331 -0.063236266 0.48300853
0.030703541 -0.06323608 0.48300862
0.031962752 -0.063235894 0.48300868
0.033221964 -0.063235708 0.48300877
0.034481175 -0.063235521 0.48300883
0.035740387 -0.063235335 0.48300892
0.036999598 -0.063235149 0.48300898
0.03825881 -0.063234963 0.48300907
0.03943621 -0.06310381 0.48200914
0.040692814 -0.063103624 0.48200923
0.041949417 -0.063103437 0.48200929
0.043116387 -0.062972285 0.48100936
0.044370383 -0.062972099 0.48100945
0.045624383 -0.062971912 0.48100951
0.046878379 -0.062971726 0.4810096
0.048132379 -0.06297154 0.48100966
0.049283702 -0.062840387 0.48000973
0.050535094 -0.062840201 0.48000979
0.051678594 -0.062709056 0.47900987
0.052927379 -0.06270887 0.47900996
0.054063059 -0.062577717 0.47801
0.055309236 -0.062577531 0.47801009
0.056555413 -0.062577344 0.47801015
0.05768067 -0.062446199 0.47701022
0.058924239 -0.062446017 0.47701031
0.060167808 -0.062445831 0.47701037
0.061282631 -0.062314682 0.47601041
0.06239225 -0.06218354 0.47501051
0.063630596 -0.062183354 0.47501057
0.064868957 -0.062183172 0.47501066
0.06610731 -0.062182989 0.47501072
0.067203887 -0.062051851 0.4740108
0.06843964 -0.062051669 0.47401088
0.069675386 -0.062051486 0.47401094
0.070761539 -0.061920337 0.47301099
0.071994677 -0.061920155 0.47301108
0.073227815 -0.061919972 0.47301114
0.074303538 -0.061788835 0.47201121
0.075534068 -0.061788652 0.4720113
0.076601967 -0.061657514 0.47101134
0.077829897 -0.061657332 0.4710114
0.078889981 -0.06152619 0.47001147
0.080115296 -0.061526012 0.47001156
0.081340618 -0.061525829 0.47001162
0.082390271 -0.061394691 0.46901166
0.083612978 -0.061394509 0.46901175
0.084835693 -0.06139433 0.46901181
0.085874923 -0.061263196 0.46801189
0.087095022 -0.061263017 0.46801198
0.088126421 -0.06113188 0.46701202
0.089343913 -0.061131697 0.46701208
0.090561412 -0.061131515 0.46701217
0.091582388 -0.061000388 0.46601224
0.092797279 -0.061000206 0.4660123
0.094012171 -0.061000027 0.46601236
0.095022716 -0.0608689 0.46501243
0.096235 -0.060868718 0.46501252
0.097447291 -0.060868539 0.46501258
0.098659575 -0.06086836 0.46501267
0.099871859 -0.060868181 0.46501273
0.10086676 -0.060737047 0.46401277
0.10207643 -0.060736869 0.46401286
0.10328611 -0.06073669 0.46401292
0.10449579 -0.060736507 0.46401298
0.10547765 -0.060605384 0.46301305
0.10668472 -0.060605206 0.46301314
0.10789179 -0.060605027 0.4630132
0.10909886 -0.060604848 0.46301329
0.11030593 -0.060604669 0.46301335
0.11127216 -0.060473539 0.46201339
0.11247662 -0.06047336 0.46201345
0.11368109 -0.060473181 0.46201354
0.11488555 -0.060473002 0.4620136
0.11583873 -0.060341887 0.46101367
0.1170406 -0.060341708 0.46101373
0.11824244 -0.06034153 0.46101382
0.11918521 -0.060210407 0.46001387
0.12038446 -0.060210228 0.46001393
0.12158371 -0.060210053 0.46001399
0.12278296 -0.060209874 0.46001408
0.12398221 -0.060209695 0.46001413
0.12490933 -0.060078576 0.45901421
0.12610596 -0.060078397 0.45901427
0.12730262 -0.060078222 0.45901436
0.12849924 -0.060078043 0.45901442
0.12941334 -0.059946932 0.45801449
0.13060737 -0.059946753 0.45801455
0.13151363 -0.059815638 0.45701459
0.13270503 -0.059815463 0.45701468
0.13389647 -0.059815284 0.45701474
0.13479233 -0.059684172 0.45601481
0.13598114 -0.059683997 0.45601487
0.13686916 -0.059552886 0.45501491
0.13805535 -0.059552707 0.45501497
0.13924158 -0.059552532 0.45501506
0.1404278 -0.059552357 0.45501512
0.19474244 -0.057710569 0.44101834
0.19544795 -0.057579488 0.44001839
0.19659507 -0.057579316 0.44001848
0.19729275 -0.057448231 0.43901849
0.19843727 -0.057448059 0.43901855
0.19912714 -0.057316985 0.43801862
0.20026904 -0.057316814 0.43801868
0.20141092 -0.057316646 0.43801874
0.20209035 -0.05718556 0.43701878
0.20322967 -0.057185393 0.43701884
0.20390129 -0.057054311 0.43601888
-0.32300982 -0.074481569 0.57998765
-0.32149774 -0.074481338 0.57998776
-0.31998566 -0.074481115 0.57998782
-0.31792444 -0.074352443 0.57898796
-0.31586844 -0.074223757 0.57798803
-0.31436157 -0.074223533 0.57798815
-0.31231344 -0.074094854 0.57698828
-0.31080914 -0.074094631 0.57698834
-0.30876881 -0.073965959 0.57598847
-0.30673367 -0.07383728 0.5749886
-0.30523461 -0.073837064 0.57498872
-0.30320728 -0.073708378 0.5739888
-0.30171084 -0.073708154 0.57398885
-0.29916835 -0.073451042 0.57198906
-0.29715672 -0.073322371 0.57098919
-0.29566807 -0.073322147 0.57098925
-0.29366422 -0.073193476 0.56998938
-0.29217821 -0.073193252 0.5699895
-0.29018217 -0.073064588 0.56898957
-0.28869876 -0.073064364 0.56898963
-0.28671059 -0.0729357 0.56798977
-0.28522977 -0.072935477 0.56798989
-0.28374895 -0.072935261 0.56798995
-0.28177118 -0.072806589 0.56699008
-0.28029299 -0.072806373 0.56699014
-0.27881476 -0.07280615 0.56699026
-0.27733657 -0.072805934 0.56699032
-0.27585837 -0.07280571 0.56699044
-0.27438015 -0.072805494 0.56699049
-0.27290195 -0.072805271 0.56699061
-0.27142373 -0.072805054 0.56699067
-0.26994553 -0.072804838 0.56699079
-0.26846734 -0.072804615 0.56699085
-0.26651827 -0.072675958 0.56599098
-0.26504266 -0.072675742 0.5659911
-0.2631014 -0.072547071 0.56499118
-0.26116532 -0.072418414 0.56399131
-0.25923452 -0.072289757 0.56299144
-0.2573089 -0.072161101 0.56199151
-0.25493324 -0.071903996 0.55999166
-0.25347328 -0.071903773 0.55999172
-0.25156331 -0.071775116 0.55899185
-0.24965852 -0.071646467 0.55799198
-0.24775898 -0.071517818 0.55699211
-0.24630684 -0.071517602 0.55699217
-0.2444151 -0.071388945 0.55599231
-0.24296561 -0.071388729 0.55599242
-0.24108166 -0.071260072 0.55499244
-0.23963475 -0.071259856 0.55499256
-0.23818782 -0.07125964 0.55499262
-0.23674089 -0.071259424 0.55499274
-0.23487002 -0.071130782 0.55399287
-0.23342571 -0.071130566 0.55399293
-0.2319814 -0.07113035 0.55399305
-0.23053709 -0.071130142 0.55399311
-0.22909278 -0.071129926 0.55399317
-0.22723755 -0.071001276 0.5529933
-0.22579584 -0.07100106 0.55299342
-0.22435415 -0.071000844 0.55299348
-0.22291243 -0.071000636 0.5529936
-0.22147071 -0.07100042 0.55299366
-0.22002903 -0.071000203 0.55299377
-0.21858731 -0.070999995 0.55299383
-0.21675295 -0.070871346 0.55199397
-0.21531385 -0.07087113 0.55199403
-0.21387476 -0.070870921 0.55199414
-0.21205077 -0.070742272 0.55099416
-0.21061426 -0.070742063 0.55099428
-0.20879817 -0.070613421 0.54999441
-0.20736429 -0.070613205 0.54999447
-0.20555598 -0.070484564 0.5489946
-0.20412469 -0.070484355 0.54899466
-0.20232421 -0.070355721 0.54799479
-0.20052895 -0.070227079 0.54699492
-0.19910288 -0.07022687 0.54699498
-0.19767681 -0.070226654 0.5469951
-0.19589198 -0.070098013 0.54599518
-0.19446853 -0.070097797 0.54599524
-0.1926915 -0.06996917 0.54499537
-0.19127065 -0.069968954 0.54499543
-0.18950143 -0.069840319 0.54399556
-0.18773746 -0.069711685 0.54299569
-0.18632182 -0.069711477 0.54299575
-0.18456569 -0.069582835 0.54199588
-0.18315265 -0.069582626 0.54199594
-0.18140429 -0.069453992 0.54099602
-0.17999387 -0.069453783 0.54099607
-0.17858344 -0.069453575 0.54099619
-0.17684552 -0.06932494 0.53999627
-0.17543772 -0.069324732 0.53999639
-0.17402989 -0.069324523 0.53999645
-0.17262208 -0.069324315 0.53999656
-0.17089722 -0.069195688 0.53899664
-0.16949201 -0.069195479 0.53899676
-0.16777495 -0.069066852 0.53799683
-0.16637236 -0.069066651 0.53799695
-0.16496977 -0.069066443 0.53799701
-0.16326311 -0.068937808 0.53699708
-0.16186312 -0.0689376 0.53699714
-0.1601643 -0.068808973 0.53599727
-0.15876693 -0.068808764 0.53599733
-0.15736952 -0.068808556 0.53599745
-0.15568116 -0.068679944 0.53499758
-0.15428638 -0.068679735 0.53499764
-0.15260583 -0.068551108 0.53399777
-0.15093049 -0.068422489 0.53299785
-0.1495409 -0.06842228 0.53299797
-0.1478734 -0.068293661 0.53199798
-0.14648643 -0.068293452 0.5319981
-0.14482674 -0.068164833 0.53099817
-0.14317223 -0.068036214 0.5299983
-0.14179051 -0.068036012 0.52999836
-0.14040875 -0.068035804 0.52999848
-0.13876471 -0.067907199 0.52899855
-0.13738555 -0.067906991 0.52899867
-0.13600641 -0.067906789 0.52899873
-0.13462728 -0.067906581 0.52899879
-0.13324815 -0.06790638 0.52899891
-0.03563967 -0.063527204 0.49500465
-0.03434917 -0.06352701 0.49500474
-0.033058677 -0.063526817 0.49500483
-0.03176818 -0.063526623 0.49500489
-0.030477688 -0.063526437 0.49500498
-0.029187191 -0.063526243 0.49500504
-0.027896693 -0.063526049 0.49500513
-0.026606197 -0.063525863 0.49500522
-0.0253157 -0.063525669 0.49500528
-0.024025204 -0.063525476 0.49500537
-0.022734707 -0.063525282 0.49500543
-0.021444211 -0.063525096 0.49500552
-0.020112997 -0.063396521 0.49400556
-0.018825106 -0.063396335 0.49400565
-0.017501716 -0.06326776 0.49300575
-0.016216435 -0.063267574 0.49300581
-0.014931151 -0.06326738 0.4930059
-0.013618187 -0.063138813 0.49200594
-0.012310438 -0.063010246 0.49100605
0.020544242 -0.061721638 0.48100799
0.02179824 -0.061721452 0.48100808
0.02310016 -0.061849631 0.48200813
0.024407296 -0.061977807 0.48300821
0.025666507 -0.061977621 0.4830083
0.026925718 -0.061977435 0.48300835
0.02818493 -0.061977245 0.48300844
0.029444143 -0.061977059 0.4830085
0.030703353 -0.061976872 0.48300859
0.031962566 -0.061976686 0.48300865
0.033221778 -0.0619765 0.48300874
0.034480989 -0.061976314 0.4830088
0.0357402 -0.061976124 0.48300889
0.036999412 -0.061975937 0.48300895
0.038258623 -0.061975751 0.48300904
0.039436024 -0.061847206 0.48200911
0.040692627 -0.06184702 0.4820092
0.041949231 -0.061846834 0.48200926
0.043116201 -0.061718289 0.48100936
0.044370197 -0.061718103 0.48100942
0.045624197 -0.061717916 0.48100951
0.046878193 -0.06171773 0.48100957
0.048132192 -0.061717544 0.48100966
0.049283516 -0.061588999 0.4800097
0.050534908 -0.061588813 0.48000976
0.051786296 -0.061588626 0.48000985
0.052927196 -0.061460089 0.47900993
0.054175977 -0.061459903 0.47901002
0.055309054 -0.061331354 0.47801006
0.05655523 -0.061331168 0.47801012
0.057801407 -0.061330985 0.47801021
0.058924053 -0.061202448 0.47701028
0.060167622 -0.061202262 0.47701037
0.061282445 -0.06107372 0.47601041
0.06252341 -0.061073534 0.47601047
0.06363041 -0.060945 0.47501054
0.064868771 -0.060944818 0.47501063
0.066107124 -0.060944635 0.47501069
0.067345485 -0.060944449 0.47501078
0.068439461 -0.060815919 0.47401085
0.069675207 -0.060815737 0.47401091
0.070910953 -0.06081555 0.474011
0.072146699 -0.060815368 0.47401106
0.073227629 -0.06068683 0.47301114
0.074460775 -0.060686648 0.4730112
0.075693913 -0.060686465 0.47301126
0.07676442 -0.060557935 0.47201136
0.077829719 -0.060429405 0.4710114
0.079057641 -0.060429223 0.47101146
0.08011511 -0.060300693 0.47001153
0.081340432 -0.06030051 0.47001162
0.082565755 -0.060300328 0.47001168
0.0836128 -0.060171794 0.46901172
0.084835514 -0.060171615 0.46901181
0.085874736 -0.060043089 0.46801189
0.087094836 -0.06004291 0.46801195
0.088126242 -0.05991438 0.46701199
0.089343734 -0.059914198 0.46701205
0.090561233 -0.059914015 0.46701214
0.091778733 -0.059913836 0.4670122
0.092797101 -0.059785314 0.46601227
0.094011992 -0.059785135 0.46601236
0.095226876 -0.059784956 0.46601242
0.096441768 -0.059784774 0.46601251
0.097447112 -0.059656255 0.46501258
0.098659396 -0.059656076 0.46501264
0.09987168 -0.059655897 0.4650127
0.10108396 -0.059655715 0.46501279
0.10207625 -0.059527192 0.46401283
0.10328593 -0.059527013 0.46401289
0.10449561 -0.059526831 0.46401298
0.10570528 -0.059526652 0.46401304
0.10668454 -0.059398137 0.46301311
0.10789161 -0.059397958 0.46301317
0.10909868 -0.059397779 0.46301326
0.11030575 -0.059397601 0.46301332
0.11127198 -0.059269078 0.46201336
0.11247645 -0.059268899 0.46201345
0.11368091 -0.05926872 0.46201351
0.11488537 -0.059268542 0.46201357
0.11608983 -0.059268363 0.46201366
0.11704042 -0.059139851 0.46101373
0.11824226 -0.059139673 0.46101379
0.11944412 -0.059139494 0.46101388
0.12038428 -0.059010979 0.4600139
0.12158353 -0.059010804 0.46001399
0.12278278 -0.059010625 0.46001405
0.12398203 -0.059010446 0.46001413
0.12518129 -0.059010267 0.46001419
0.12610579 -0.058881756 0.45901427
0.12730244 -0.058881581 0.45901433
0.12849906 -0.058881402 0.45901442
0.12969571 -0.058881223 0.45901448
0.13060719 -0.058752719 0.45801455
0.13180125 -0.058752544 0.45801461
0.13270488 -0.058624037 0.45701465
0.13389632 -0.058623858 0.45701471
0.13508776 -0.058623683 0.4570148
0.13598096 -0.058495175 0.45601484
0.13716978 -0.058495 0.45601493
0.13805518 -0.058366492 0.45501494
0.1392414 -0.058366317 0.45501503
0.14042762 -0.058366142 0.45501509
0.14130262 -0.058237642 0.45401517
0.14248621 -0.058237467 0.45401523
0.14366981 -0.058237292 0.45401531
0.14453435 -0.058108784 0.45301533
0.19843709 -0.056303561 0.43901855
0.19958159 -0.056303389 0.43901861
0.20026886 -0.056174919 0.43801865
0.20141074 -0.056174751 0.43801874
0.20255265 -0.05617458 0.4380188
0.20322949 -0.056046106 0.43701881
0.20436877 -0.056045938 0.43701887
-0.32356697 -0.073095322 0.58098757
-0.32149798 -0.072969243 0.5799877
-0.3199859 -0.072969019 0.57998782
-0.31847376 -0.072968796 0.57998788
-0.31641519 -0.072842725 0.57898802
-0.31436181 -0.072716646 0.57798809
-0.31285492 -0.072716422 0.57798821
-0.31080934 -0.072590359 0.57698834
-0.30876902 -0.072464295 0.57598847
-0.30726734 -0.072464071 0.57598853
-0.30523485 -0.072338007 0.57498866
-0.30320749 -0.072211929 0.57398874
-0.30171105 -0.072211705 0.57398885
-0.29916859 -0.071959801 0.571989
-0.29767737 -0.071959578 0.57198912
-0.29566827 -0.071833514 0.57098925
-0.29366446 -0.07170745 0.56998938
-0.29217845 -0.071707226 0.56998944
-0.29018238 -0.07158117 0.56898952
-0.28869897 -0.071580946 0.56898963
-0.2867108 -0.07145489 0.56798977
-0.28522998 -0.071454667 0.56798983
-0.28374916 -0.07145445 0.56798995
-0.28177142 -0.071328387 0.56699008
-0.28029323 -0.071328171 0.56699014
-0.278815 -0.071327947 0.56699026
-0.27733681 -0.071327731 0.56699032
-0.27585861 -0.071327507 0.56699044
-0.27438039 -0.071327291 0.56699049
-0.27338347 -0.071452908 0.56799054
-0.27142397 -0.071326852 0.56699067
-0.26994577 -0.071326636 0.56699073
-0.26846758 -0.071326412 0.56699085
-0.26698938 -0.071326196 0.56699091
-0.26504287 -0.071200147 0.56599104
-0.26310161 -0.071074076 0.56499112
-0.2616286 -0.07107386 0.56499124
-0.25969517 -0.070947804 0.56399137
-0.25730911 -0.070695929 0.56199151
-0.25538871 -0.07056988 0.56099164
-0.25347349 -0.070443824 0.55999172
-0.25156352 -0.070317768 0.55899185
-0.24965876 -0.070191726 0.55799198
-0.24820402 -0.07019151 0.55799204
-0.24630705 -0.070065469 0.55699217
-0.24441531 -0.06993942 0.55599231
-0.24296582 -0.069939204 0.55599236
-0.24151626 -0.069938987 0.55599248
-0.23963496 -0.069812939 0.5549925
-0.23818803 -0.069812723 0.55499262
-0.23674113 -0.069812506 0.55499268
-0.23529419 -0.06981229 0.55499279
-0.23342595 -0.069686256 0.55399293
-0.23198161 -0.06968604 0.55399299
-0.2305373 -0.069685832 0.55399311
-0.22909299 -0.069685616 0.55399317
-0.22723776 -0.069559574 0.5529933
-0.22579604 -0.069559358 0.55299336
-0.22435436 -0.069559142 0.55299348
-0.22291264 -0.069558933 0.55299354
-0.22147092 -0.069558717 0.55299366
-0.22002923 -0.069558501 0.55299371
-0.21858752 -0.069558293 0.55299383
-0.21675315 -0.069432244 0.55199391
-0.21531406 -0.069432028 0.55199403
-0.21387497 -0.069431819 0.55199409
-0.21243584 -0.069431603 0.5519942
-0.2106145 -0.069305569 0.55099428
-0.209178 -0.069305353 0.55099434
-0.2073645 -0.069179319 0.54999447
-0.20593062 -0.069179103 0.54999453
-0.2041249 -0.069053076 0.54899466
-0.20269364 -0.06905286 0.54899472
-0.20089576 -0.068926834 0.54799485
-0.19910312 -0.068800807 0.54699498
-0.19767705 -0.068800591 0.54699504
-0.19625098 -0.068800382 0.54699516
-0.19446874 -0.068674341 0.54599524
-0.19269171 -0.068548314 0.54499531
-0.19127086 -0.068548098 0.54499543
-0.18950164 -0.068422072 0.5439955
-0.18808341 -0.068421863 0.54399562
-0.18632203 -0.068295836 0.54299575
-0.18490642 -0.068295628 0.54299581
-0.18315285 -0.068169601 0.54199594
-0.18173984 -0.068169393 0.541996
-0.17999408 -0.068043366 0.54099607
-0.17858365 -0.068043157 0.54099613
-0.17717323 -0.068042949 0.54099625
-0.17543793 -0.067916922 0.53999633
-0.1740301 -0.067916714 0.53999645
-0.17262229 -0.067916505 0.5399965
-0.17121449 -0.067916296 0.53999662
-0.16949221 -0.067790277 0.5389967
-0.16808701 -0.067790069 0.53899682
-0.16637257 -0.06766405 0.53799689
-0.16496998 -0.067663841 0.53799701
-0.16356736 -0.067663632 0.53799707
-0.16186333 -0.067537606 0.53699714
-0.16046333 -0.067537397 0.5369972
-0.15876713 -0.067411378 0.53599733
-0.15736973 -0.067411169 0.53599739
-0.15597236 -0.067410961 0.53599751
-0.15428659 -0.067284957 0.53499764
-0.15289181 -0.067284748 0.5349977
-0.15121385 -0.067158736 0.53399783
-0.14954111 -0.067032717 0.53299791
-0.14815158 -0.067032516 0.53299803
-0.14648661 -0.066906497 0.53199804
-0.14509967 -0.066906296 0.53199816
-0.14344257 -0.066780277 0.53099823
-0.14179072 -0.066654265 0.52999836
-0.14040896 -0.066654056 0.52999842
-0.13876492 -0.06652806 0.52899855
-0.13738576 -0.066527851 0.52899861
-0.13600662 -0.06652765 0.52899873
-0.13462749 -0.066527441 0.52899879
-0.13324836 -0.06652724 0.52899885
-0.13186923 -0.066527031 0.52899897
-0.034349363 -0.062236514 0.49500471
-0.033058871 -0.06223632 0.4950048
-0.030416304 -0.06211016 0.49400494
-0.029128416 -0.06210997 0.49400502
-0.027840525 -0.062109776 0.49400508
-0.026606388 -0.062235363 0.49500519
-0.025315892 -0.062235173 0.49500525
-0.024025396 -0.062234979 0.49500534
-0.022734899 -0.062234789 0.49500543
-0.021444403 -0.062234599 0.49500549
-0.020113189 -0.062108628 0.49400556
-0.018825298 -0.062108438 0.49400562
-0.017501907 -0.061982479 0.49300572
-0.016216626 -0.061982289 0.49300581
-0.014901053 -0.061856326 0.49200585
-0.013590696 -0.061730366 0.49100596
-0.012310628 -0.061730176 0.49100602
0.021798054 -0.060467456 0.48100805
0.023099974 -0.060593028 0.48200813
0.024407109 -0.060718596 0.48300818
0.025666321 -0.06071841 0.48300827
0.026925532 -0.060718223 0.48300833
0.028184744 -0.060718033 0.48300841
0.029443957 -0.060717847 0.4830085
0.030703166 -0.060717661 0.48300856
0.03196238 -0.060717475 0.48300865
0.033221591 -0.060717288 0.48300871
0.034480803 -0.060717102 0.4830088
0.035740014 -0.060716912 0.48300886
0.036999226 -0.060716726 0.48300895
0.03817923 -0.060590789 0.48200902
0.039435837 -0.060590602 0.48200911
0.040692441 -0.060590416 0.48200917
0.041949045 -0.06059023 0.48200926
0.043116014 -0.060464293 0.48100933
0.04437001 -0.060464107 0.48100939
0.04562401 -0.06046392 0.48100948
0.046878006 -0.060463734 0.48100954
0.048132006 -0.060463548 0.48100963
0.049283329 -0.060337607 0.48000968
0.050534721 -0.060337421 0.48000976
0.05178611 -0.060337234 0.48000982
0.05292701 -0.060211305 0.4790099
0.05417579 -0.060211118 0.47900999
0.055308867 -0.060085181 0.47801003
0.056555044 -0.060084995 0.47801012
0.057801221 -0.060084812 0.47801018
0.05892387 -0.059958879 0.47701025
0.060167439 -0.059958693 0.47701034
0.061282262 -0.059832759 0.47601038
0.062523223 -0.059832573 0.47601047
0.063630223 -0.059706647 0.47501054
0.064868584 -0.059706464 0.4750106
0.066106938 -0.059706282 0.47501069
0.067345299 -0.059706096 0.47501075
0.068439275 -0.059580173 0.47401083
0.069675021 -0.059579991 0.47401091
0.070910767 -0.059579805 0.47401097
0.072146513 -0.059579622 0.47401106
0.073227443 -0.059453689 0.47301111
0.074460588 -0.059453506 0.47301117
0.075693727 -0.059453323 0.47301126
0.076764241 -0.059327401 0.47201133
0.077994771 -0.059327219 0.47201139
0.079057455 -0.059201296 0.47101143
0.080285385 -0.059201114 0.47101152
0.081340253 -0.059075188 0.47001159
0.082565576 -0.059075005 0.47001165
0.083612613 -0.058949083 0.46901169
0.084835328 -0.058948904 0.46901178
0.086058043 -0.058948722 0.46901184
0.087094657 -0.058822807 0.46801192
0.088314764 -0.058822624 0.46801201
0.089343548 -0.058696698 0.46701205
0.090561047 -0.058696516 0.46701211
0.091778547 -0.058696337 0.4670122
0.092996046 -0.058696155 0.46701226
0.094011813 -0.058570243 0.46601233
0.095226698 -0.058570065 0.46601242
0.096441589 -0.058569882 0.46601248
0.097656488 -0.058569703 0.46601254
0.09887138 -0.058569521 0.46601263
0.099871494 -0.058443613 0.4650127
0.10108378 -0.058443431 0.46501276
0.10229606 -0.058443252 0.46501285
0.10350835 -0.058443073 0.46501291
0.10449543 -0.058317155 0.46401295
0.1057051 -0.058316976 0.46401301
0.10691478 -0.058316797 0.4640131
0.10789143 -0.058190886 0.46301317
0.1090985 -0.058190707 0.46301323
0.11030557 -0.058190528 0.46301332
0.11151265 -0.058190349 0.46301338
0.11271972 -0.058190171 0.46301344
0.11368073 -0.058064256 0.46201348
0.11488519 -0.058064077 0.46201357
0.11608965 -0.058063898 0.46201363
0.11704024 -0.057937998 0.4610137
0.11824208 -0.05793782 0.46101376
0.11944395 -0.057937641 0.46101385
0.12064581 -0.057937462 0.46101391
0.12158335 -0.057811555 0.46001396
0.1227826 -0.057811376 0.46001402
0.12398185 -0.057811197 0.4600141
0.12518111 -0.057811018 0.46001416
0.12638032 -0.057810843 0.46001425
0.1275796 -0.057810664 0.46001431
0.12849888 -0.057684761 0.45901439
0.12969553 -0.057684582 0.45901445
0.13060701 -0.057558686 0.45801452
0.13180107 -0.05755851 0.45801458
0.13299507 -0.057558332 0.45801467
0.13418913 -0.057558153 0.45801473
0.13508758 -0.057432257 0.45701477
0.13627899 -0.057432078 0.45701483
0.1371696 -0.057306178 0.4560149
0.13835841 -0.057305999 0.45601496
0.13924122 -0.057180103 0.455015
0.14042744 -0.057179928 0.45501509
0.14161366 -0.057179753 0.45501515
0.14248604 -0.05705386 0.45401523
0.14366964 -0.057053685 0.45401528
0.14485323 -0.05705351 0.45401534
0.14571518 -0.056927606 0.45301539
0.14689618 -0.056927431 0.45301545
0.14807719 -0.056927256 0.45301554
0.1492582 -0.056927081 0.4530156
0.2025525 -0.055032685 0.43801877
0.20369437 -0.055032518 0.43801883
0.20436862 -0.054906651 0.43701887
-0.32356721 -0.071580611 0.58098757
-0.32205251 -0.07158038 0.58098763
-0.32053781 -0.071580157 0.58098775
-0.31847396 -0.071456693 0.57998788
-0.31696188 -0.07145647 0.57998794
-0.31490594 -0.071333013 0.57898808
-0.31285512 -0.071209535 0.57798815
-0.31134823 -0.071209311 0.57798827
-0.30930531 -0.071085855 0.5769884
-0.30726758 -0.070962399 0.57598853
-0.30576593 -0.070962176 0.57598859
-0.30373597 -0.07083872 0.57498872
-0.30171129 -0.070715241 0.5739888
-0.2996918 -0.070591785 0.57298893
-0.29767758 -0.070468336 0.57198906
-0.29566851 -0.07034488 0.57098919
-0.29417989 -0.070344657 0.57098931
-0.29217866 -0.070221201 0.56998944
-0.29018262 -0.070097744 0.56898952
-0.28869921 -0.070097521 0.56898957
-0.2872158 -0.070097305 0.56898969
-0.28523019 -0.069973849 0.56798983
-0.28374937 -0.069973633 0.56798989
-0.28226855 -0.069973409 0.56799001
-0.28078777 -0.069973193 0.56799006
-0.27930695 -0.06997297 0.56799018
-0.27782613 -0.069972754 0.56799024
-0.27634531 -0.06997253 0.56799036
-0.27486449 -0.069972314 0.56799042
-0.27338368 -0.06997209 0.56799054
-0.27190286 -0.069971874 0.5679906
-0.27042207 -0.069971651 0.56799072
-0.26846778 -0.069848202 0.56699085
-0.26698959 -0.069847986 0.56699091
-0.26504311 -0.069724545 0.56599104
-0.26356751 -0.069724329 0.5659911
-0.26162881 -0.069600865 0.56499118
-0.25969538 -0.069477417 0.56399131
-0.25776717 -0.069353983 0.56299144
-0.25584415 -0.069230542 0.56199157
-0.25392637 -0.069107093 0.5609917
-0.25201371 -0.068983644 0.55999178
-0.25010636 -0.068860203 0.55899191
-0.24820423 -0.068736769 0.55799204
-0.24630725 -0.068613335 0.55699211
-0.24485514 -0.068613119 0.55699223
-0.24296603 -0.068489671 0.55599236
-0.2415165 -0.068489455 0.55599242
-0.24006698 -0.068489239 0.55599254
-0.23818824 -0.068365797 0.55499262
-0.23674133 -0.068365581 0.55499268
-0.2352944 -0.068365365 0.55499274
-0.2338475 -0.068365157 0.55499285
-0.23198181 -0.068241723 0.55399299
