# .PCD v0.7 - Point Cloud Data file format
VERSION 0.7
FIELDS x y z
SIZE 4 4 4
TYPE F F F
COUNT 1 1 1
WIDTH 1308
HEIGHT 1
VIEWPOINT 0 0 0 1 0 0 0
POINTS 1308
DATA ascii
-0.058393724 -0.055267967 0.50200313
-0.056971259 -0.055157632 0.50100327
-0.05566512 -0.055157438 0.50100332
-0.054250475 -0.055047099 0.50000334
-0.052946944 -0.055046905 0.50000346
-0.051540125 -0.054936577 0.49900353
-0.050239202 -0.054936387 0.49900362
-0.048840202 -0.054826051 0.49800372
-0.047446419 -0.054715719 0.49700379
-0.046150707 -0.054715529 0.49700385
-0.044674486 -0.054495063 0.49500397
-0.043383993 -0.054494873 0.49500406
-0.042093493 -0.054494679 0.49500412
-0.040720563 -0.054384351 0.49400419
-0.039432675 -0.054384161 0.49400425
-0.038144786 -0.054383971 0.49400434
-0.036856897 -0.054383777 0.49400443
-0.035569008 -0.054383587 0.49400449
-0.034211721 -0.054273266 0.49300459
-0.032926437 -0.054273076 0.49300465
-0.031705339 -0.054383013 0.49400473
-0.030417452 -0.054382823 0.49400482
-0.029129563 -0.054382633 0.49400488
-0.027841672 -0.05438244 0.49400496
-0.026553784 -0.05438225 0.49400502
-0.025265895 -0.05438206 0.49400511
-0.011009231 -0.053939447 0.49000594
-0.007162198 -0.053828754 0.48900619
0.010205051 -0.051403452 0.46700716
0.011471465 -0.051623512 0.46900725
0.012721241 -0.051733449 0.47000736
0.013946561 -0.05173327 0.47000742
0.015171881 -0.051733088 0.47000751
0.016397201 -0.051732905 0.47000757
0.017660014 -0.051842846 0.47100765
0.018928042 -0.051952779 0.47200772
0.020201283 -0.052062709 0.4730078
0.021525053 -0.052282766 0.47500789
0.022859249 -0.052502818 0.47700799
0.024153346 -0.052612744 0.47800803
0.025452659 -0.052722678 0.47900814
0.026757183 -0.052832607 0.48000821
-0.096710443 -0.048266523 0.44900075
-0.095539875 -0.048266347 0.44900081
-0.094579481 -0.048373722 0.45000085
-0.093406305 -0.048373546 0.45000091
-0.092438094 -0.048480924 0.45100099
-0.091464669 -0.048588291 0.45200104
-0.090685777 -0.04880321 0.4540011
-0.089896448 -0.049018126 0.45600116
-0.089096703 -0.049233042 0.45800123
-0.088033885 -0.049985502 0.46500129
-0.087568454 -0.050415497 0.46900129
-0.087266289 -0.050953038 0.47400135
-0.086938046 -0.051490575 0.47900137
-0.086225942 -0.051813014 0.48200142
-0.085674487 -0.052242998 0.48600146
-0.08475481 -0.052457899 0.48800153
-0.083653636 -0.052565251 0.48900157
-0.08271572 -0.05278014 0.49100164
-0.081601508 -0.052887492 0.49200171
-0.080482081 -0.052994844 0.49300179
-0.079357445 -0.053102195 0.49400184
-0.078069553 -0.053102002 0.49400192
-0.076937094 -0.05320935 0.495002
-0.075646594 -0.05320916 0.49500209
-0.074356101 -0.053208966 0.49500218
-0.073213212 -0.053316317 0.49600223
-0.072065108 -0.053423658 0.49700227
-0.070911795 -0.053531006 0.49800238
-0.069753267 -0.05363835 0.49900243
-0.068589523 -0.053745694 0.5000025
-0.067420572 -0.053853039 0.50100261
-0.06624639 -0.053960383 0.50200266
-0.064937636 -0.053960189 0.50200272
-0.063755646 -0.054067526 0.50300282
-0.062444299 -0.054067332 0.50300288
-0.061132949 -0.054067139 0.50300294
-0.059821591 -0.054066941 0.50300306
-0.05851024 -0.054066747 0.50300312
-0.057085171 -0.053959023 0.50200319
-0.055665314 -0.053851295 0.50100332
-0.054359179 -0.053851102 0.50100338
-0.05305304 -0.053850908 0.50100344
-0.051643603 -0.05374318 0.50000352
-0.050239395 -0.053635456 0.49900359
-0.048938468 -0.053635262 0.49900368
-0.047542077 -0.053527538 0.49800378
-0.046150897 -0.053419814 0.49700382
-0.04476494 -0.053312097 0.49600393
-0.043384187 -0.053204373 0.49500403
-0.042093687 -0.053204179 0.49500409
-0.04080319 -0.053203989 0.49500418
-0.039512694 -0.053203795 0.49500427
-0.038222197 -0.053203605 0.49500433
-0.036931701 -0.053203411 0.49500442
-0.035569198 -0.053095695 0.49400446
-0.034281306 -0.053095505 0.49400455
-0.032993417 -0.053095315 0.49400464
-0.031705528 -0.053095121 0.4940047
-0.030417642 -0.053094931 0.49400479
-0.029129753 -0.053094741 0.49400485
-0.027841862 -0.053094547 0.49400494
-0.026553974 -0.053094357 0.49400502
-0.023978194 -0.053093974 0.49400517
-0.0097319586 -0.052661791 0.490006
-0.0084372405 -0.052554086 0.4890061
-0.0071623875 -0.0525539 0.48900616
-0.0058754915 -0.05244619 0.48800626
0.011397911 -0.050078258 0.46600723
0.012693996 -0.050400618 0.46900731
0.013916709 -0.050400436 0.46900737
0.015139421 -0.050400253 0.46900746
0.016362133 -0.050400071 0.46900752
0.017584845 -0.050399892 0.46900761
0.018847659 -0.050507218 0.47000769
0.020115687 -0.050614551 0.47100776
0.021434242 -0.050829384 0.47300786
0.022763222 -0.051044222 0.47500792
0.024102634 -0.051259059 0.47700801
0.02539934 -0.051366378 0.47800809
0.026756998 -0.051581211 0.48000818
-0.096710615 -0.047095951 0.44900072
-0.095540047 -0.047095776 0.44900078
-0.094579652 -0.047200542 0.45000082
-0.093406476 -0.047200367 0.45000091
-0.092438266 -0.047305137 0.45100099
-0.09146484 -0.0474099 0.45200104
-0.090685956 -0.047619604 0.45400107
-0.089896627 -0.047829308 0.45600113
-0.089096874 -0.048039008 0.4580012
-0.088286698 -0.048248705 0.46000123
-0.087844737 -0.048668277 0.46400127
-0.087381929 -0.049087849 0.46800131
-0.08689826 -0.049507413 0.47200134
-0.086575232 -0.050031915 0.47700137
-0.085868344 -0.050346538 0.48000142
-0.085145809 -0.050661158 0.48300144
-0.084233955 -0.050870843 0.4850015
-0.083482757 -0.051185463 0.48800159
-0.082378976 -0.051290207 0.48900163
-0.081435844 -0.051499885 0.4910017
-0.080319017 -0.051604629 0.49200177
-0.07919699 -0.051709373 0.49300185
-0.077911705 -0.051709183 0.49300194
-0.076781854 -0.051813923 0.49400198
-0.075493962 -0.051813733 0.49400204
-0.074356295 -0.051918473 0.49500215
-0.073065795 -0.051918283 0.49500221
-0.071920305 -0.05202302 0.49600229
-0.070769593 -0.052127756 0.49700233
-0.069613673 -0.052232496 0.49800244
-0.068452537 -0.052337233 0.49900249
-0.067420766 -0.0525469 0.50100261
-0.066114627 -0.052546706 0.50100267
-0.064937837 -0.052651443 0.50200272
-0.06375584 -0.052756175 0.50300276
-0.062568635 -0.052860908 0.50400287
-0.06125468 -0.052860711 0.50400293
-0.058510434 -0.052755397 0.50300312
-0.05719908 -0.052755203 0.50300318
-0.055776618 -0.052650083 0.50200325
-0.054467876 -0.052649889 0.50200337
-0.053053234 -0.052544769 0.50100344
-0.051643796 -0.052439649 0.50000346
-0.050239589 -0.052334532 0.49900359
-0.048938662 -0.052334338 0.49900365
-0.04754227 -0.052229222 0.49800375
-0.04615109 -0.052124105 0.49700382
-0.044855382 -0.052123912 0.49700388
-0.043472026 -0.052018799 0.49600399
-0.042093877 -0.051913686 0.49500409
-0.04080338 -0.051913496 0.49500415
-0.039512884 -0.051913302 0.49500424
-0.038222387 -0.051913112 0.4950043
-0.036931891 -0.051912919 0.49500439
-0.035569388 -0.051807806 0.49400446
-0.034281496 -0.051807616 0.49400452
-0.032993607 -0.051807426 0.49400461
-0.031769905 -0.051912155 0.49500468
-0.030479413 -0.051911961 0.49500477
-0.029188916 -0.051911771 0.49500486
-0.027898418 -0.051911581 0.49500492
-0.026607921 -0.051911388 0.49500501
-0.012312148 -0.051489629 0.49100584
-0.0097321486 -0.05138433 0.49000597
-0.008454687 -0.05138414 0.49000606
0.012612623 -0.048863187 0.46600729
0.013857186 -0.048967909 0.46700734
0.015074684 -0.04896773 0.46700743
0.016292181 -0.048967548 0.46700749
0.017509682 -0.048967369 0.46700758
0.018807378 -0.049176995 0.46900764
0.020072795 -0.04928172 0.47000775
0.021388745 -0.049491342 0.47200784
0.02271512 -0.049700968 0.47400793
0.024051921 -0.049910583 0.47600797
0.02534602 -0.050015304 0.47700807
0.026701072 -0.050224923 0.47900817
0.028008202 -0.050329637 0.48000824
-0.095753007 -0.046027537 0.45000073
-0.094579831 -0.046027362 0.45000082
-0.093614228 -0.046129528 0.4510009
-0.092438444 -0.046129353 0.45100096
-0.091667369 -0.046333838 0.45300099
-0.090686128 -0.046436001 0.45400107
-0.089699656 -0.046538152 0.45500112
-0.088902511 -0.04674264 0.45700118
-0.088286877 -0.047049455 0.4600012
-0.087655596 -0.04735627 0.46300125
-0.08700867 -0.047663081 0.4660013
-0.086530216 -0.048072219 0.47000134
-0.086030915 -0.048481356 0.47400138
-0.08533185 -0.048788164 0.47700143
-0.08461713 -0.04909496 0.48000148
-0.08388678 -0.04940176 0.4830015
-0.082969718 -0.04960623 0.48500156
-0.082042225 -0.049810696 0.48700163
-0.081104308 -0.050015163 0.48900169
-0.079992697 -0.050117299 0.49000174
-0.078875892 -0.050219435 0.49100184
-0.077753857 -0.050321572 0.49200189
-0.076626621 -0.050423712 0.49300197
-0.075341336 -0.050423522 0.49300206
-0.074056052 -0.050423328 0.49300215
-0.072918378 -0.05052546 0.49400219
-0.071775496 -0.050627597 0.49500227
-0.070627391 -0.050729729 0.49600235
-0.069474079 -0.050831854 0.49700239
-0.068452731 -0.051036309 0.49900246
-0.06728638 -0.051138438 0.5000025
-0.066114821 -0.051240571 0.50100261
-0.064938031 -0.051342696 0.50200272
-0.063756041 -0.051444821 0.50300276
-0.062568836 -0.051546946 0.50400281
-0.061254874 -0.051546749 0.50400287
-0.059940912 -0.051546555 0.50400299
-0.057199273 -0.051443849 0.50300318
-0.055887923 -0.051443655 0.50300324
-0.054468069 -0.051341143 0.50200331
-0.053053427 -0.051238634 0.50100344
-0.051747285 -0.05123844 0.5010035
-0.050340459 -0.051135924 0.50000358
-0.048938852 -0.051033415 0.49900362
-0.047637928 -0.051033221 0.49900371
-0.046244144 -0.050930709 0.49800381
-0.044855576 -0.0508282 0.49700385
-0.043559864 -0.050828006 0.49700394
-0.042179111 -0.050725505 0.49600405
-0.040803574 -0.050623 0.49500412
-0.039513078 -0.050622806 0.49500421
-0.038222581 -0.050622616 0.4950043
-0.036932085 -0.050622422 0.49500436
-0.035641588 -0.050622232 0.49500445
-0.034351088 -0.050622042 0.4950045
-0.033060595 -0.050621849 0.49500459
-0.031770099 -0.050621659 0.49500468
-0.030479603 -0.050621465 0.49500474
-0.029189106 -0.050621275 0.49500483
-0.027898608 -0.050621085 0.49500489
-0.026608111 -0.050620891 0.49500498
-0.01103227 -0.05020937 0.4910059
-0.008454876 -0.050106682 0.49000603
-0.0071627656 -0.050004192 0.48900613
0.0098986188 -0.046318766 0.45300707
0.013738323 -0.047341224 0.46300733
0.014977671 -0.047443341 0.46400741
0.016222233 -0.047545463 0.46500748
0.017434519 -0.047545284 0.46500757
0.018726999 -0.047749687 0.46700761
0.019987203 -0.047851808 0.46800771
0.021297937 -0.048056219 0.47000781
0.022667015 -0.048362918 0.47300789
0.024001209 -0.048567329 0.47500798
0.0252927 -0.048669439 0.47600803
0.026645144 -0.048873845 0.47800812
0.028008016 -0.049078245 0.48000821
-0.094580002 -0.044854186 0.45000079
-0.093614399 -0.044953745 0.45100087
-0.092643589 -0.045053292 0.45200092
-0.091667548 -0.045152839 0.45300096
-0.090686306 -0.045252394 0.45400104
-0.089699835 -0.045351941 0.45500109
-0.08890269 -0.045551214 0.45700115
-0.088095129 -0.045750484 0.45900121
-0.087466449 -0.046049476 0.46200123
-0.086635418 -0.046248745 0.4640013
-0.085978068 -0.04654773 0.46700132
-0.085486576 -0.046946444 0.47100139
-0.084795348 -0.047245428 0.47400144
-0.08408846 -0.047544409 0.47700149
-0.083365932 -0.047843385 0.48000151
-0.082456686 -0.048042644 0.48200157
-0.081537016 -0.048241895 0.48400164
-0.080606915 -0.048441149 0.4860017
-0.079666384 -0.048640404 0.48800176
-0.078554779 -0.048739932 0.48900184
-0.077437967 -0.048839457 0.49000189
-0.076315947 -0.04893899 0.49100196
-0.075188704 -0.049038518 0.49200201
-0.074056245 -0.049138047 0.49300212
-0.072770968 -0.049137857 0.49300218
-0.071630687 -0.049237382 0.49400225
-0.070485197 -0.049336907 0.49500233
-0.069474272 -0.049536146 0.49700236
-0.068315744 -0.049635671 0.49800247
-0.067152001 -0.049735192 0.49900252
-0.066115014 -0.049934432 0.50100261
-0.064938225 -0.050033953 0.50200266
-0.063756235 -0.05013347 0.50300276
-0.06256903 -0.050232988 0.50400281
-0.061255068 -0.05023279 0.50400287
-0.059941106 -0.050232597 0.50400293
-0.058627144 -0.050232403 0.50400305
-0.055888116 -0.050132304 0.50300318
-0.054576762 -0.050132107 0.5030033
-0.053159516 -0.050032206 0.50200337
-0.051747479 -0.049932301 0.5010035
-0.050340652 -0.049832392 0.50000352
-0.049037121 -0.049832199 0.50000358
-0.047638122 -0.049732298 0.49900368
-0.046337198 -0.049732104 0.49900377
-0.044946022 -0.049632203 0.49800387
-0.043560054 -0.049532298 0.49700391
-0.042264342 -0.049532108 0.497004
-0.040886201 -0.049432211 0.4960041
-0.039593097 -0.049432017 0.49600416
-0.038299993 -0.049431827 0.49600425
-0.037006889 -0.049431633 0.49600431
-0.035641778 -0.049331736 0.49500442
-0.034351278 -0.049331546 0.4950045
-0.033060785 -0.049331352 0.49500456
-0.031770289 -0.049331162 0.49500465
-0.030479794 -0.049330968 0.49500471
-0.029189298 -0.049330778 0.4950048
-0.0278988 -0.049330588 0.49500489
-0.026608303 -0.049330395 0.49500495
-0.025317807 -0.049330205 0.49500504
-0.01103246 -0.048929304 0.49100587
-0.0097523918 -0.048929114 0.49100596
-0.0071776048 -0.04882903 0.49000609
-0.0058881012 -0.048729148 0.48900619
0.013589793 -0.0456357 0.45800731
0.014848382 -0.045834903 0.46000737
0.0161174 -0.046034101 0.46200743
0.017359355 -0.046133619 0.46300754
0.018606523 -0.046233125 0.46400759
0.019901611 -0.046432324 0.46600768
0.02125244 -0.046731211 0.46900776
0.022570994 -0.046930406 0.47100785
0.0239505 -0.04722929 0.47400796
0.025292516 -0.047428478 0.476008
0.02664496 -0.047627669 0.47800809
0.028007831 -0.047826856 0.48000818
-0.094790354 -0.043778129 0.45100078
-0.093614571 -0.043777958 0.45100084
-0.09264376 -0.043874897 0.45200089
-0.091667727 -0.04397184 0.45300093
-0.090686485 -0.044068787 0.45400101
-0.089700013 -0.044165727 0.45500106
-0.088708334 -0.044262666 0.45600113
-0.08790338 -0.044456724 0.4580012
-0.087087981 -0.044650782 0.46000123
-0.086262167 -0.044844832 0.46200129
-0.085610032 -0.045136008 0.46500134
-0.084942259 -0.04542717 0.4680014
-0.084258839 -0.045718335 0.47100142
-0.083559781 -0.046009496 0.4740015
-0.082845077 -0.046300657 0.47700152
-0.081943654 -0.0464947 0.47900158
-0.081031807 -0.046688735 0.48100165
-0.080275394 -0.046979889 0.4840017
-0.07934007 -0.047173928 0.48600176
-0.078394331 -0.047367968 0.48800182
-0.077280119 -0.047464889 0.48900187
-0.076160692 -0.047561806 0.49000195
-0.075036064 -0.04765873 0.49100202
-0.073756002 -0.04765854 0.49100211
-0.072623536 -0.047755457 0.49200216
-0.07148587 -0.047852386 0.49300224
-0.070485383 -0.04804641 0.4950023
-0.069334671 -0.048143327 0.49600238
-0.068178751 -0.048240241 0.49700242
-0.067152195 -0.048434269 0.49900249
-0.065983236 -0.048531182 0.50000256
-0.064938419 -0.048725206 0.50200266
-0.063756429 -0.048822116 0.5030027
-0.062569223 -0.04891903 0.50400275
-0.061255265 -0.048918832 0.50400287
-0.059941303 -0.048918638 0.50400293
-0.058627341 -0.048918445 0.50400299
-0.057313383 -0.048918247 0.50400311
-0.054576959 -0.048820753 0.50300324
-0.05315971 -0.048723459 0.50200337
-0.051747672 -0.048626162 0.50100344
-0.050441533 -0.048625968 0.5010035
-0.049037315 -0.048528668 0.50000358
-0.047733784 -0.048528474 0.50000364
-0.046337392 -0.04843118 0.49900374
-0.045036469 -0.048430987 0.49900383
-0.043647896 -0.04833369 0.4980039
-0.042264536 -0.048236396 0.49700397
-0.040968824 -0.048236202 0.49700406
-0.039673116 -0.048236012 0.49700412
-0.038300186 -0.048138723 0.49600422
-0.037081696 -0.048235625 0.4970043
-0.035713982 -0.048138339 0.49600437
-0.034420874 -0.048138145 0.49600446
-0.03312777 -0.048137955 0.49600452
-0.031834669 -0.048137762 0.49600461
-0.030541562 -0.048137572 0.4960047
-0.029248457 -0.048137378 0.49600476
-0.027898991 -0.048040092 0.49500486
-0.026608495 -0.048039898 0.49500495
-0.025317999 -0.048039708 0.49500501
-0.024027502 -0.048039515 0.4950051
-0.012337797 -0.047746513 0.49200577
-0.0097525818 -0.047649045 0.49100593
-0.0071777944 -0.047551569 0.49000606
-0.0059003332 -0.047551379 0.49000615
0.014719098 -0.044247318 0.45600733
0.015977688 -0.044441309 0.45800743
0.017246703 -0.044635296 0.46000749
0.018526148 -0.044829279 0.46200755
0.019816021 -0.04502327 0.46400765
0.021161636 -0.045314331 0.46700773
0.022522891 -0.045605399 0.47000784
0.023899792 -0.045896456 0.47300792
0.025239198 -0.046090435 0.47500801
0.026644774 -0.046381492 0.47800809
0.028007645 -0.046575464 0.48000816
-0.094790533 -0.042602345 0.45100075
-0.09361475 -0.042602174 0.45100084
-0.092643939 -0.042696506 0.45200089
-0.091667898 -0.042790841 0.45300093
-0.090686657 -0.042885181 0.45400101
-0.089700185 -0.042979512 0.45500106
-0.088708505 -0.043073844 0.45600113
-0.087711625 -0.04316818 0.45700118
-0.086898841 -0.043357022 0.45900124
-0.086075634 -0.043545861 0.46100128
-0.085241996 -0.043734703 0.46300134
-0.084397927 -0.043923542 0.4650014
-0.083722331 -0.044206887 0.46800143
-0.083031088 -0.044490226 0.47100148
-0.082324222 -0.044773567 0.47400156
-0.081601694 -0.045056902 0.47700158
-0.080695055 -0.045245729 0.47900164
-0.079777993 -0.045434553 0.4810017
-0.07901375 -0.045717884 0.48400176
-0.078073226 -0.045906708 0.48600182
-0.076964229 -0.046001021 0.48700187
-0.075850025 -0.046095345 0.48800194
-0.074730597 -0.046189655 0.48900202
-0.073605962 -0.046283964 0.49000207
-0.072476126 -0.046378285 0.49100214
-0.07134106 -0.046472594 0.49200222
-0.070343174 -0.04666141 0.49400228
-0.069195077 -0.046755724 0.49500236
-0.068178944 -0.046944533 0.49700239
-0.067017809 -0.047038842 0.4980025
-0.06598343 -0.047227651 0.5000025
-0.064809255 -0.04732196 0.50100267
-0.063629873 -0.047416266 0.50200272
-0.062569417 -0.047605067 0.50400275
-0.061255459 -0.04760487 0.50400281
-0.059941497 -0.047604676 0.50400293
-0.058627535 -0.047604483 0.50400299
-0.057313576 -0.047604285 0.50400305
-0.055999618 -0.047604091 0.50400317
-0.054577153 -0.047509402 0.50300324
-0.053265803 -0.047509208 0.5030033
-0.051851157 -0.047414519 0.50200343
-0.050441727 -0.047319829 0.5010035
-0.049135588 -0.047319636 0.50100356
-0.047733977 -0.047224943 0.50000364
-0.046430446 -0.047224749 0.5000037
-0.045036662 -0.047130063 0.4990038
-0.043735739 -0.047129869 0.49900389
-0.042349771 -0.04703518 0.49800396
-0.040969014 -0.046940494 0.49700403
-0.039673306 -0.046940304 0.49700412
-0.038377594 -0.046940111 0.49700418
-0.037081886 -0.046939917 0.49700427
-0.035786174 -0.046939727 0.49700433
-0.034490462 -0.046939533 0.49700442
-0.03312796 -0.046844851 0.49600452
-0.031899042 -0.046939149 0.49700457
-0.030541753 -0.046844468 0.49600467
-0.029248649 -0.046844274 0.49600476
-0.027955545 -0.046844084 0.49600482
-0.026608687 -0.046749402 0.49500492
-0.02531819 -0.046749212 0.49500498
-0.024027694 -0.046749018 0.49500507
-0.022737198 -0.046748828 0.49500516
-0.021403374 -0.04665415 0.4940052
-0.014933631 -0.046558708 0.4930056
-0.0084727025 -0.046368789 0.49100599
0.014589815 -0.042680591 0.45200729
0.015872858 -0.042963844 0.45500737
0.017134055 -0.043152623 0.45700747
0.018445773 -0.043435868 0.46000752
0.019773139 -0.043719117 0.46300763
0.021116145 -0.044002362 0.46600771
0.02247479 -0.044285603 0.46900779
0.023849083 -0.044568844 0.4720079
0.025239013 -0.044852082 0.47500798
0.02658885 -0.045040846 0.47700807
0.028007459 -0.045324076 0.48000816
0.029319808 -0.045418363 0.48100823
-0.093822502 -0.041518286 0.4520008
-0.09264411 -0.041518111 0.45200086
-0.091668077 -0.041609839 0.4530009
-0.090686835 -0.04170157 0.45400098
-0.089503221 -0.041701395 0.45400104
-0.088514149 -0.041793119 0.45500109
-0.087519869 -0.041884847 0.45600116
-0.086709693 -0.042068478 0.45800123
-0.085702382 -0.042160198 0.45900127
-0.084873952 -0.042343825 0.46100134
-0.084035106 -0.042527452 0.4630014
-0.083185829 -0.042711075 0.46500146
-0.08250241 -0.042986594 0.46800148
-0.081803352 -0.043262113 0.47100154
-0.080917574 -0.043445729 0.4730016
-0.080189832 -0.04372124 0.47600162
-0.079446465 -0.043996759 0.4790017
-0.078524172 -0.044180367 0.48100176
-0.077752121 -0.044455875 0.48400182
-0.076806381 -0.044639483 0.48600188
-0.075694777 -0.044731192 0.48700193
-0.074577972 -0.044822901 0.488002
-0.073455937 -0.044914607 0.48900208
-0.072328694 -0.045006316 0.49000213
-0.071196243 -0.045098022 0.4910022
-0.070200965 -0.045281626 0.49300227
-0.069195271 -0.045465223 0.49500233
-0.068041958 -0.045556929 0.49600241
-0.067018002 -0.045740522 0.49800247
-0.065851651 -0.045832224 0.49900252
-0.064809449 -0.046015818 0.50100261
-0.063630067 -0.046107519 0.50200266
-0.062445465 -0.046199214 0.50300276
-0.061255652 -0.046290908 0.50400281
-0.05994169 -0.046290714 0.50400287
-0.058627728 -0.046290521 0.50400299
-0.05731377 -0.046290323 0.50400305
-0.055999812 -0.046290129 0.50400311
-0.053265996 -0.04619785 0.5030033
-0.051851351 -0.046105772 0.50200337
-0.050542604 -0.046105579 0.50200349
-0.049135782 -0.046013493 0.50100356
-0.047829643 -0.046013299 0.50100362
-0.04643064 -0.045921214 0.5000037
-0.045127109 -0.04592102 0.50000376
-0.043735933 -0.045828938 0.49900386
-0.042435002 -0.045828748 0.49900392
-0.041051645 -0.04573667 0.49800402
-0.039753325 -0.045736477 0.49800411
-0.038455009 -0.045736283 0.49800417
-0.03708208 -0.045644201 0.49700424
-0.035786368 -0.045644011 0.49700433
-0.034490656 -0.045643818 0.49700439
-0.033194944 -0.045643628 0.49700448
-0.031899236 -0.045643434 0.49700454
-0.030541947 -0.045551363 0.49600464
-0.029248843 -0.04555117 0.49600473
-0.027955739 -0.04555098 0.49600479
-0.026662637 -0.045550786 0.49600488
-0.025318382 -0.045458712 0.49500498
-0.024027886 -0.045458518 0.49500504
-0.022737389 -0.045458328 0.49500513
-0.021403564 -0.045366257 0.49400517
-0.020115674 -0.045366064 0.49400526
-0.018827783 -0.045365874 0.49400535
-0.014933822 -0.045273423 0.49300557
-0.011055503 -0.045180973 0.4920058
-0.0084728925 -0.045088716 0.49100596
-0.0071928254 -0.045088526 0.49100605
0.014492813 -0.041226588 0.44900727
0.015768033 -0.041502021 0.45200735
0.017058896 -0.041777454 0.45500743
0.018365404 -0.042052884 0.45800751
0.01968755 -0.042328309 0.4610076
0.021025339 -0.042603731 0.46400768
0.022426691 -0.042971022 0.46800777
0.023798373 -0.043246441 0.47100785
0.025185699 -0.043521859 0.47400796
0.026588665 -0.043797273 0.47700804
0.028007273 -0.04407268 0.48000813
0.029319622 -0.044164363 0.48100823
-0.092849247 -0.040429011 0.45300081
-0.091668248 -0.040428836 0.45300087
-0.090487249 -0.040428661 0.45300096
-0.089503393 -0.040517788 0.45400104
-0.088514328 -0.040606905 0.45500109
-0.087520048 -0.040696025 0.45600116
-0.086331226 -0.040695846 0.45600122
-0.085515834 -0.040874265 0.45800129
-0.084505908 -0.040963382 0.45900133
-0.083490774 -0.041052494 0.46000138
-0.082828209 -0.041320201 0.46300146
-0.081973724 -0.041498613 0.46500149
-0.081282482 -0.041766308 0.46800154
-0.0805756 -0.042034004 0.4710016
-0.079853095 -0.0423017 0.47400165
-0.079114921 -0.042569391 0.4770017
-0.078197859 -0.042747788 0.47900176
-0.077270366 -0.042926185 0.48100182
-0.076490492 -0.043193869 0.48400185
-0.075539529 -0.043372262 0.48600191
-0.074425332 -0.043461364 0.48700199
-0.073305912 -0.043550465 0.48800206
-0.07218127 -0.043639567 0.48900211
-0.071196437 -0.043817956 0.49100217
-0.070201159 -0.043996345 0.49300227
-0.069055669 -0.044085439 0.49400231
-0.068042152 -0.044263825 0.49600238
-0.066883616 -0.044352919 0.49700242
-0.065851845 -0.044531301 0.49900252
-0.064680278 -0.044620391 0.50000256
-0.063503504 -0.044709485 0.50100267
-0.062445659 -0.044887863 0.5030027
-0.06125585 -0.04497695 0.50400281
-0.059941888 -0.044976756 0.50400287
-0.058627926 -0.044976562 0.50400293
-0.057313967 -0.044976365 0.50400305
-0.056000009 -0.044976171 0.50400311
-0.054686047 -0.044975977 0.50400317
-0.051954832 -0.044886306 0.50300336
-0.050542798 -0.044796832 0.50200343
-0.049234055 -0.044796634 0.50200355
-0.047829837 -0.04470716 0.50100362
-0.046523698 -0.044706967 0.50100368
-0.045127302 -0.044617489 0.5000037
-0.043823771 -0.044617295 0.50000381
-0.042435195 -0.044527825 0.49900392
-0.041134272 -0.044527631 0.49900398
-0.039833348 -0.044527438 0.49900407
-0.038455203 -0.044437964 0.49800417
-0.037156887 -0.04443777 0.49800423
-0.035858568 -0.04443758 0.49800432
-0.03449085 -0.04434811 0.49700439
-0.033195138 -0.04434792 0.49700445
-0.03189943 -0.044347726 0.49700454
-0.030603714 -0.044347532 0.4970046
-0.029308004 -0.044347342 0.49700469
-0.027955931 -0.044257876 0.49600479
-0.026662828 -0.044257682 0.49600485
-0.025318574 -0.044168215 0.49500495
-0.024028078 -0.044168022 0.49500501
-0.022737581 -0.044167832 0.4950051
-0.021447085 -0.044167642 0.49500519
-0.020115865 -0.044078175 0.49400523
-0.018827975 -0.044077985 0.49400532
-0.017540086 -0.044077795 0.49400538
-0.016219297 -0.043988332 0.49300548
-0.014934013 -0.043988142 0.49300557
-0.013648731 -0.043987952 0.49300563
-0.012338368 -0.043898486 0.49200571
-0.011055693 -0.043898296 0.49200577
-0.0097730178 -0.043898102 0.49200585
-0.0071930154 -0.04380846 0.49100602
-0.0059129475 -0.04380827 0.49100611
0.0095263384 -0.038896281 0.43600693
0.010736381 -0.039163902 0.43900698
0.011962065 -0.039431524 0.44200709
0.013173725 -0.039609876 0.44400719
0.014428088 -0.039877489 0.44700724
0.015663212 -0.040055845 0.44900733
0.01698374 -0.040412713 0.4530074
0.018285032 -0.040680323 0.45600748
0.019601963 -0.040947929 0.45900756
0.020979851 -0.041304793 0.46300766
0.022378592 -0.041661654 0.46700773
0.023747664 -0.041929252 0.47000784
0.025185516 -0.042286113 0.47400793
0.026588481 -0.042553704 0.47700801
0.027948741 -0.042732038 0.47900811
0.029319435 -0.042910367 0.4810082
-0.092849426 -0.039248012 0.45300078
-0.091668427 -0.039247837 0.45300087
-0.090487428 -0.039247662 0.45300093
-0.089503571 -0.039334182 0.45400101
-0.088319965 -0.039334007 0.45400107
-0.087328285 -0.039420515 0.45500112
-0.086331397 -0.039507028 0.45600119
-0.085329294 -0.039593544 0.45700127
-0.084321983 -0.039680049 0.45800135
-0.083309449 -0.039766558 0.45900139
-0.082649492 -0.040026441 0.46200141
-0.081621319 -0.040112954 0.46300149
-0.080935299 -0.040372826 0.46600154
-0.080233634 -0.040632706 0.46900156
-0.079347864 -0.040805895 0.47100163
-0.078617521 -0.041065767 0.47400171
-0.077871531 -0.041325636 0.47700176
-0.077109903 -0.041585505 0.48000178
-0.076174594 -0.041758686 0.48200184
-0.075228855 -0.041931864 0.4840019
-0.074272692 -0.042105045 0.48600197
-0.073155873 -0.042191539 0.48700204
-0.072181456 -0.042364713 0.48900211
-0.071051612 -0.042451203 0.49000216
-0.070058949 -0.042624377 0.49200222
-0.069055863 -0.042797551 0.49400228
-0.067905158 -0.042884037 0.49500239
-0.06688381 -0.043057207 0.49700242
-0.065720074 -0.043143693 0.4980025
-0.064551108 -0.043230183 0.49900255
-0.063503698 -0.043403346 0.50100267
-0.062321711 -0.043489832 0.50200272
-0.061134506 -0.043576315 0.50300276
-0.059942082 -0.043662794 0.50400281
-0.05862812 -0.0436626 0.50400293
-0.057314161 -0.043662403 0.50400299
-0.056000203 -0.043662209 0.50400305
-0.054686241 -0.043662015 0.50400317
-0.053372283 -0.043661818 0.50400323
-0.051955029 -0.043574952 0.5030033
-0.050643679 -0.043574758 0.50300342
-0.049234249 -0.043487888 0.50200349
-0.047925502 -0.043487694 0.50200361
-0.046523895 -0.043400828 0.50100368
-0.04521776 -0.04340063 0.50100374
-0.043911621 -0.043400437 0.50100386
-0.04252043 -0.04331357 0.50000387
-0.041216899 -0.043313377 0.50000393
-0.039833538 -0.043226514 0.49900404
-0.038532615 -0.04322632 0.49900413
-0.037231691 -0.043226127 0.49900419
-0.035930768 -0.043225937 0.49900427
-0.034629837 -0.043225743 0.49900436
-0.033262122 -0.043138877 0.49800444
-0.031963807 -0.043138683 0.49800453
-0.030603908 -0.04305182 0.4970046
-0.029308198 -0.04305163 0.49700466
-0.028012486 -0.043051437 0.49700475
-0.02666302 -0.042964578 0.49600482
-0.025369916 -0.042964388 0.49600491
-0.02402827 -0.042877525 0.49500501
-0.022737773 -0.042877335 0.49500507
-0.021447277 -0.042877145 0.49500516
-0.020116055 -0.042790286 0.49400523
-0.018828165 -0.042790096 0.49400529
-0.017540276 -0.042789906 0.49400538
-0.016219487 -0.042703051 0.49300545
-0.014934204 -0.042702861 0.49300554
-0.013621234 -0.042616002 0.49200559
-0.012338559 -0.042615812 0.49200568
-0.011055884 -0.042615622 0.49200577
-0.0097732088 -0.042615429 0.49200583
-0.0084905326 -0.042615239 0.49200591
-0.0071932054 -0.042528391 0.49100599
0.0094824741 -0.037586287 0.4340069
0.010687303 -0.037846088 0.43700698
0.011907773 -0.03810589 0.44000706
0.013084549 -0.038192373 0.44100714
0.014331089 -0.038452167 0.44400722
0.015593273 -0.038711961 0.4470073
0.016871098 -0.038971752 0.45000738
0.018204663 -0.039318196 0.45400748
0.019559084 -0.039664634 0.45800754
0.020934362 -0.040011067 0.46200761
0.022330493 -0.040357504 0.46600771
0.0251322 -0.040963709 0.47300789
0.026532557 -0.041223478 0.47600797
0.027948556 -0.041483257 0.47900808
0.029319249 -0.041656367 0.48100817
-0.091870971 -0.038150925 0.45400086
-0.090687364 -0.03815075 0.45400092
-0.08950375 -0.038150575 0.45400098
-0.088320144 -0.0381504 0.45400107
-0.087328464 -0.038234301 0.45500112
-0.086142249 -0.038234126 0.45500118
-0.085142754 -0.038318031 0.45600125
-0.084138043 -0.038401935 0.4570013
-0.083128124 -0.03848584 0.45800138
-0.082291871 -0.038653824 0.46000141
-0.08144521 -0.038821802 0.46200147
-0.080761798 -0.039073862 0.46500152
-0.079891667 -0.039241835 0.46700156
-0.079179578 -0.039493892 0.47000164
-0.078285985 -0.039661866 0.4720017
-0.077545203 -0.039913911 0.47500172
-0.076788791 -0.040165957 0.47800177
-0.075858697 -0.040333927 0.48000184
-0.075073607 -0.040585969 0.48300189
-0.073967226 -0.040669858 0.48400196
-0.073005848 -0.040837824 0.48600203
-0.072034046 -0.041005787 0.48800209
-0.071051799 -0.041173745 0.49000213
-0.069916748 -0.041257627 0.49100223
-0.068916261 -0.041425589 0.4930023
-0.067905352 -0.04159354 0.49500236
-0.066749424 -0.041677427 0.49600241
-0.065588288 -0.041761305 0.49700248
-0.064551301 -0.04192926 0.49900255
-0.063503891 -0.042097211 0.50100261
-0.06219776 -0.042097017 0.50100273
-0.061013158 -0.042180896 0.50200278
-0.059823342 -0.042264767 0.50300282
-0.058628317 -0.042348642 0.50400287
-0.057314359 -0.042348444 0.50400299
-0.0560004 -0.042348251 0.50400305
-0.054686438 -0.042348057 0.50400311
-0.05337248 -0.04234786 0.50400323
-0.052058518 -0.042347666 0.50400329
-0.049332518 -0.04226321 0.50300348
-0.047925696 -0.042178951 0.50200355
-0.046616949 -0.042178757 0.50200361
-0.045217954 -0.042094495 0.50100374
-0.043911815 -0.042094301 0.5010038
-0.042605672 -0.042094108 0.50100386
-0.041217092 -0.042009845 0.50000393
-0.039913561 -0.042009652 0.50000399
-0.03861003 -0.042009458 0.50000405
-0.037231885 -0.041925203 0.49900419
-0.035930961 -0.041925013 0.49900424
-0.03463003 -0.041924819 0.49900433
-0.033329107 -0.041924626 0.49900439
-0.031964 -0.041840367 0.4980045
-0.030665681 -0.041840177 0.49800459
-0.02930839 -0.041755922 0.49700463
-0.028012678 -0.041755728 0.49700472
-0.026716968 -0.041755535 0.49700481
-0.025370108 -0.041671287 0.49600488
-0.02402846 -0.041587029 0.49500498
-0.022737963 -0.041586839 0.49500507
-0.021447467 -0.041586649 0.49500513
-0.020156968 -0.041586455 0.49500522
-0.018828357 -0.041502208 0.49400526
-0.01750496 -0.041417956 0.49300537
-0.016219679 -0.041417766 0.49300545
-0.0149041 -0.041333519 0.4920055
-0.013621424 -0.041333329 0.49200559
-0.012338749 -0.041333139 0.49200565
-0.011056074 -0.041332949 0.49200574
-0.0097733987 -0.041332755 0.4920058
-0.0084907226 -0.041332565 0.49200588
-0.007208047 -0.041332375 0.49200597
0.010662681 -0.036622752 0.43600696
0.011853481 -0.036790684 0.43800703
0.013054711 -0.036958613 0.44000712
0.014266368 -0.037126537 0.44200718
0.015523335 -0.037378509 0.44500726
0.016833436 -0.03771453 0.44900736
0.018164391 -0.03805054 0.45300743
0.019516202 -0.038386554 0.45700753
0.02084356 -0.038638517 0.46000758
0.022282397 -0.039058566 0.46500772
0.023696776 -0.039394569 0.46900779
0.025132017 -0.039730567 0.47300789
0.026532372 -0.039982516 0.47600797
0.02794837 -0.040234473 0.47900808
0.029319063 -0.040402371 0.48100814
-0.092073493 -0.037048794 0.45500082
-0.090687536 -0.036967143 0.45400089
-0.089503922 -0.036966968 0.45400098
-0.088320315 -0.036966793 0.45400104
-0.087136708 -0.036966618 0.4540011
-0.086142421 -0.037047915 0.45500115
-0.085142933 -0.037129212 0.45600125
-0.084138222 -0.037210509 0.4570013
-0.083128303 -0.037291806 0.45800138
-0.08229205 -0.037454575 0.46000138
-0.081445388 -0.037617337 0.46200144
-0.080588296 -0.037780102 0.46400151
-0.079720773 -0.037942868 0.46600157
-0.078842811 -0.038105629 0.46800163
-0.077954434 -0.038268387 0.4700017
-0.077218875 -0.038512614 0.47300172
-0.076467678 -0.03875684 0.47600177
-0.0755428 -0.038919598 0.47800183
-0.074762933 -0.039163824 0.48100191
-0.073814586 -0.039326571 0.48300195
-0.072855815 -0.039489325 0.48500201
-0.071886614 -0.039652068 0.48700207
-0.070906982 -0.039814815 0.48900214
-0.069916934 -0.039977562 0.4910022
-0.068916455 -0.040140308 0.49300227
-0.06776835 -0.040221583 0.49400231
-0.066749617 -0.040384322 0.49600238
-0.065588482 -0.040465593 0.49700245
-0.064551495 -0.040628336 0.49900252
-0.063377321 -0.040709604 0.50000256
-0.062197953 -0.040790878 0.50100267
-0.061013352 -0.040872149 0.50200278
-0.059823535 -0.040953413 0.50300282
-0.058512185 -0.040953219 0.50300288
-0.057314552 -0.041034486 0.50400293
-0.056000594 -0.041034292 0.50400305
-0.054686632 -0.041034099 0.50400311
-0.053372674 -0.041033901 0.50400317
-0.052058712 -0.041033708 0.50400329
-0.05074475 -0.041033514 0.50400335
-0.048021361 -0.040951662 0.50300354
-0.0453084 -0.040869817 0.50200367
-0.043999653 -0.040869623 0.50200379
-0.042605866 -0.040787969 0.50100386
-0.041299727 -0.040787775 0.50100392
-0.039993588 -0.040787581 0.50100404
-0.038610224 -0.040705927 0.50000405
-0.037306692 -0.040705733 0.50000417
-0.036003161 -0.040705539 0.50000417
-0.034630224 -0.040623896 0.4990043
-0.033329301 -0.040623702 0.49900439
-0.032028377 -0.040623508 0.49900445
-0.030665874 -0.040541857 0.49800456
-0.029367559 -0.040541664 0.49800465
-0.02801287 -0.040460017 0.49700469
-0.02671716 -0.040459823 0.49700478
-0.02542145 -0.040459633 0.49700484
-0.024077196 -0.040377989 0.49600494
-0.022738155 -0.040296346 0.49500504
-0.021447659 -0.040296156 0.4950051
-0.02015716 -0.040295962 0.49500519
-0.018828548 -0.040214319 0.49400526
-0.01750515 -0.040132675 0.49300534
-0.016219869 -0.040132485 0.49300542
-0.01490429 -0.040050842 0.49200547
-0.013621614 -0.040050652 0.49200556
-0.012338939 -0.040050462 0.49200565
-0.011056264 -0.040050272 0.49200571
-0.0097735887 -0.040050078 0.4920058
-0.0084909126 -0.040049888 0.49200585
-0.0072082374 -0.040049698 0.49200594
0.010613604 -0.035323188 0.43400693
0.011772131 -0.035404462 0.43500701
0.012965538 -0.035567179 0.43700707
0.014169373 -0.035729889 0.43900713
0.0154534 -0.036055487 0.44300723
0.016720796 -0.036299635 0.44600731
0.018043928 -0.036625218 0.45000741
0.019430619 -0.037032247 0.45500749
0.020798074 -0.037357826 0.45900759
0.022282217 -0.037846282 0.46500769
0.023646072 -0.038090419 0.46800777
0.025131835 -0.038497426 0.47300786
0.026532188 -0.038741555 0.47600794
0.028006529 -0.039067123 0.48000804
0.029318877 -0.039148375 0.48100814
-0.090887457 -0.035862405 0.45500085
-0.0895041 -0.035783362 0.45400095
-0.088320494 -0.035783187 0.45400101
-0.087136887 -0.035783011 0.4540011
-0.08595328 -0.035782833 0.45400116
-0.084956385 -0.035861526 0.45500121
-0.08395429 -0.035940215 0.45600128
-0.083128475 -0.036097772 0.45800135
-0.08211334 -0.036176454 0.45900139
-0.081269279 -0.036334012 0.46100146
-0.080414794 -0.036491565 0.46300152
-0.079549871 -0.036649112 0.46500155
-0.078674525 -0.036806654 0.46700159
-0.077788755 -0.036964204 0.46900165
-0.076892547 -0.03712175 0.47100171
-0.076146573 -0.037358161 0.4740018
-0.075384952 -0.037594561 0.47700182
-0.074452244 -0.037752103 0.47900188
-0.073661946 -0.037988503 0.48200193
-0.072705783 -0.038146038 0.48400199
-0.071739189 -0.038303569 0.48600206
-0.070907176 -0.038539965 0.48900211
-0.069917127 -0.038697492 0.49100217
-0.068916641 -0.038855027 0.49300224
-0.067768544 -0.038933694 0.49400228
-0.066615231 -0.039012361 0.49500239
-0.065588675 -0.039169885 0.49700242
-0.064422332 -0.039248552 0.4980025
-0.063250765 -0.039327215 0.49900258
-0.062198147 -0.039484739 0.50100267
-0.060892008 -0.039484546 0.50100273
-0.059704799 -0.039563209 0.50200284
-0.058512378 -0.039641868 0.50300288
-0.057314746 -0.039720524 0.50400293
-0.056000788 -0.03972033 0.50400299
-0.054686826 -0.039720137 0.50400311
-0.053372867 -0.039719939 0.50400317
-0.052058905 -0.039719746 0.50400323
-0.050744943 -0.039719552 0.50400335
-0.049430985 -0.039719354 0.50400341
-0.0426911 -0.039560683 0.50200385
-0.039993782 -0.039481442 0.50100398
-0.038687643 -0.039481249 0.5010041
-0.03469982 -0.039401814 0.50000429
-0.033329494 -0.039322775 0.49900436
-0.032028571 -0.039322581 0.49900445
-0.028069431 -0.039243154 0.49800467
-0.026717354 -0.039164115 0.49700475
-0.025421644 -0.039163925 0.49700484
-0.024077388 -0.039084885 0.49600491
-0.022784283 -0.039084695 0.496005
-0.02144785 -0.03900566 0.4950051
-0.020157352 -0.039005466 0.49500516
-0.018828738 -0.03892643 0.49400523
-0.017505342 -0.038847394 0.49300531
-0.016220061 -0.038847204 0.49300539
-0.01490448 -0.038768169 0.49200547
-0.013621805 -0.038767979 0.49200553
-0.01233913 -0.038767789 0.49200562
-0.011056455 -0.038767599 0.49200568
-0.0097737797 -0.038767405 0.49200577
-0.0084911035 -0.038767215 0.49200585
-0.0072084279 -0.038767025 0.49200591
0.011717843 -0.034112718 0.43300697
0.012906035 -0.034270223 0.43500707
0.014104655 -0.034427721 0.4370071
0.015348586 -0.034664057 0.44000721
0.016608158 -0.034900386 0.44300729
0.017923469 -0.035215545 0.44700739
0.019302338 -0.035609536 0.45200747
0.020707278 -0.036003523 0.45700756
0.022186205 -0.036476336 0.46300766
0.023544844 -0.03671265 0.46600774
0.02502539 -0.037106626 0.47100782
0.026476266 -0.037421763 0.47500792
0.027889656 -0.037658069 0.478008
0.02931869 -0.037894376 0.48100811
-0.092680939 -0.034905151 0.45800075
-0.089701422 -0.034676015 0.45500091
-0.088515207 -0.034675837 0.45500097
-0.087137058 -0.034599405 0.45400107
-0.086142778 -0.034675486 0.45500112
-0.084956564 -0.034675311 0.45500118
-0.083954461 -0.034751393 0.45600128
-0.08294715 -0.034827478 0.45700133
-0.082113519 -0.034979813 0.45900136
-0.081093162 -0.035055898 0.46000141
-0.080241285 -0.035208233 0.46200147
-0.079378977 -0.035360567 0.46400154
-0.078506239 -0.035512906 0.4660016
-0.077623077 -0.035665236 0.46800166
-0.076729476 -0.035817567 0.47000173
-0.075986102 -0.036046151 0.47300175
-0.075069048 -0.036198482 0.47500181
-0.074296996 -0.036427062 0.47800186
-0.073509306 -0.036655642 0.48100194
-0.072555743 -0.036807965 0.48300198
-0.071591765 -0.036960285 0.48500204
-0.070762359 -0.037188858 0.48800209
-0.069774911 -0.03734117 0.49000216
-0.06877704 -0.037493486 0.49200222
-0.067768738 -0.037645802 0.49400228
-0.066615425 -0.037721865 0.49500236
-0.065588869 -0.037874173 0.49700239
-0.064422518 -0.037950236 0.4980025
-0.063250959 -0.038026292 0.49900255
-0.062074184 -0.038102347 0.50000262
-0.060892202 -0.038178407 0.50100273
-0.059704993 -0.038254466 0.50200278
-0.058512576 -0.038330514 0.50300282
-0.057314944 -0.038406566 0.50400293
-0.056000985 -0.038406372 0.50400299
-0.054687023 -0.038406178 0.50400305
-0.053478967 -0.038482234 0.50500309
-0.052162398 -0.038482036 0.50500321
-0.041382551 -0.038251746 0.50200391
-0.038687836 -0.03817511 0.50100404
-0.037381697 -0.038174916 0.50100416
-0.030727841 -0.038021464 0.49900448
-0.028069625 -0.037944838 0.49800467
-0.026771307 -0.037944648 0.49800473
-0.025421835 -0.037868213 0.49700481
-0.024126124 -0.037868019 0.4970049
-0.022784475 -0.037791595 0.49600497
-0.021448042 -0.037715163 0.49500507
-0.020157544 -0.037714969 0.49500513
-0.01882893 -0.037638538 0.4940052
-0.017505532 -0.037562113 0.49300531
-0.016220251 -0.037561923 0.49300537
-0.01490467 -0.037485491 0.49200544
-0.013621995 -0.037485301 0.4920055
-0.01233932 -0.037485112 0.49200559
-0.011056645 -0.037484922 0.49200568
-0.0097739697 -0.037484728 0.49200574
-0.0084912935 -0.037484538 0.49200583
0.011663556 -0.032831408 0.43100697
0.012846534 -0.032983694 0.43300703
0.015278653 -0.033364497 0.43800718
0.017843105 -0.033897731 0.44500735
0.019174058 -0.034202468 0.44900742
0.020571176 -0.03458342 0.45400754
0.022042274 -0.035040591 0.46000761
0.023443617 -0.035345308 0.46400771
0.026364608 -0.036030963 0.47300789
0.027831128 -0.036335673 0.47700799
0.029257551 -0.03656416 0.48000807
0.030636057 -0.03671642 0.48200816
-0.098365046 -0.03444821 0.46800038
-0.096107066 -0.034079749 0.46300054
-0.094285086 -0.033858601 0.4600006
-0.089898743 -0.033563454 0.45600089
-0.088515379 -0.033489618 0.45500097
-0.087329164 -0.033489443 0.45500103
-0.08614295 -0.033489268 0.45500109
-0.084956735 -0.033489093 0.45500118
-0.08395464 -0.033562571 0.45600125
-0.082947321 -0.033636048 0.4570013
-0.081934795 -0.033709519 0.45800138
-0.081093341 -0.033856645 0.46000141
-0.080067784 -0.033930119 0.46100149
-0.079208083 -0.034077242 0.46300155
-0.078337952 -0.034224361 0.46500158
-0.077457391 -0.034371477 0.46700162
-0.076566398 -0.034518596 0.46900168
-0.075664982 -0.034665711 0.47100174
-0.0749112 -0.034886476 0.47400182
-0.074141748 -0.035107236 0.47700185
-0.073203832 -0.035254344 0.47900191
-0.072405718 -0.035475105 0.48200196
-0.07144434 -0.035622206 0.48400202
-0.070617534 -0.035842955 0.48700207
-0.069632694 -0.035990063 0.48900214
-0.068637446 -0.036137164 0.4910022
-0.067631744 -0.036284268 0.49300227
-0.066615619 -0.036431365 0.49500233
-0.065457091 -0.03650482 0.49600241
-0.064293347 -0.036578268 0.49700245
-0.063251153 -0.036725365 0.49900252
-0.062074378 -0.036798812 0.50000262
-0.060892396 -0.036872264 0.50100273
-0.059705187 -0.036945716 0.50200278
-0.05851277 -0.03701916 0.50300282
-0.057315137 -0.037092604 0.50400287
-0.056001179 -0.03709241 0.50400299
-0.054795727 -0.037165858 0.50500304
-0.053479161 -0.037165664 0.50500309
-0.052162591 -0.037165467 0.50500315
-0.029427107 -0.036720343 0.49900454
-0.026771499 -0.036646325 0.49800473
-0.025422027 -0.036572501 0.49700478
-0.024126315 -0.036572307 0.49700487
-0.022830606 -0.036572117 0.49700493
-0.021491565 -0.036498293 0.49600503
-0.020157736 -0.036424469 0.49500513
-0.018829122 -0.036350645 0.49400517
-0.017505724 -0.036276828 0.49300528
-0.016220443 -0.036276639 0.49300537
-0.014904861 -0.036202814 0.49200541
-0.013622186 -0.036202624 0.4920055
-0.012339511 -0.036202434 0.49200556
-0.011056836 -0.036202244 0.49200565
-0.0097741606 -0.036202051 0.49200571
-0.0084914844 -0.036201861 0.4920058
-0.0072088088 -0.036201671 0.49200588
0.019088481 -0.032884654 0.44700742
0.020480381 -0.033252571 0.4520075
0.021946268 -0.033694103 0.4580076
0.024812507 -0.0343563 0.46700776
0.027714254 -0.03494487 0.47500795
0.029196413 -0.035239149 0.47900805
0.030572312 -0.035386194 0.48100814
-0.089898922 -0.032374632 0.45600086
-0.088710099 -0.032374453 0.45600095
-0.087329343 -0.032303233 0.455001
-0.086143129 -0.032303058 0.45500109
-0.084956914 -0.032302883 0.45500115
-0.083954819 -0.032373749 0.45600122
-0.0829475 -0.032444619 0.45700127
-0.081934974 -0.032515485 0.45800135
-0.080917224 -0.032586351 0.45900139
-0.080067962 -0.032728262 0.46100146
-0.079208262 -0.032870173 0.46300152
-0.078169659 -0.032941032 0.46400157
-0.077291705 -0.033082936 0.46600163
-0.076403327 -0.033224843 0.46800169
-0.075504519 -0.033366743 0.47000176
-0.074753337 -0.033579685 0.47300178
-0.073831066 -0.033721581 0.47500184
-0.073051184 -0.033934519 0.47800189
-0.072255678 -0.03414746 0.48100197
-0.071296908 -0.034289349 0.48300201
-0.070472725 -0.034502283 0.48600206
-0.069490485 -0.034644172 0.48800215
-0.068497822 -0.034786057 0.49000219
-0.06749475 -0.034927946 0.49200225
-0.066481233 -0.035069831 0.49400231
-0.065325312 -0.035140675 0.49500239
-0.064293541 -0.035282556 0.49700242
-0.063124582 -0.035353404 0.49800253
-0.061950419 -0.035424247 0.49900258
-0.060892589 -0.035566125 0.50100267
-0.059586447 -0.035565931 0.50100273
-0.058512963 -0.035707805 0.50300282
-0.057315331 -0.035778642 0.50400287
-0.056001373 -0.035778448 0.50400293
-0.054795925 -0.035849292 0.50500298
-0.053479359 -0.035849098 0.50500309
-0.04680365 -0.035777085 0.50400347
-0.028126376 -0.035419229 0.4990046
-0.025473377 -0.035347816 0.49800476
-0.024126507 -0.035276596 0.49700484
-0.022830797 -0.035276406 0.49700493
-0.021491757 -0.035205189 0.496005
-0.020157928 -0.035133973 0.4950051
-0.018867433 -0.035133783 0.49500519
-0.017505914 -0.034991544 0.49300525
-0.016220633 -0.034991354 0.49300534
-0.014905051 -0.034920141 0.49200538
-0.013622376 -0.034919951 0.49200547
-0.012339701 -0.034919761 0.49200556
-0.011057026 -0.034919571 0.49200562
-0.0097743506 -0.034919377 0.49200571
-0.0084916744 -0.034919187 0.49200577
-0.0072089988 -0.034918997 0.49200585
-0.0059383716 -0.03498983 0.49300593
0.012757201 -0.030512935 0.43000695
0.013975058 -0.030725809 0.43300706
0.015208555 -0.030938677 0.43600714
0.01642021 -0.031080535 0.43800721
0.019002903 -0.031577274 0.44500738
0.020344283 -0.031861149 0.44900745
0.02185026 -0.032358047 0.45600757
0.023342215 -0.032783929 0.46200764
0.026252769 -0.03342266 0.47100782
0.02771407 -0.033706512 0.47500792
0.029135277 -0.033919353 0.478008
0.030572126 -0.034132197 0.48100811
0.031892288 -0.034203023 0.48200819
-0.091687188 -0.031391308 0.45900074
-0.088710271 -0.031185634 0.45600092
-0.087329522 -0.031117018 0.455001
-0.086143307 -0.031116843 0.45500106
-0.085143812 -0.031185105 0.45600113
-0.08395499 -0.031184928 0.45600119
-0.082947679 -0.031253193 0.45700127
-0.081935152 -0.031321451 0.45800135
-0.080917403 -0.03138971 0.45900139
-0.079894453 -0.031457968 0.46000144
-0.079037353 -0.03159466 0.4620015
-0.078001373 -0.031662922 0.46300158
-0.077126026 -0.031799614 0.46500164
-0.076240242 -0.031936299 0.46700165
-0.075344048 -0.032072991 0.46900171
-0.074595474 -0.032278113 0.47200179
-0.073675811 -0.032414798 0.47400185
-0.072898552 -0.032619912 0.47700191
-0.072105646 -0.032825027 0.48000193
-0.071149483 -0.032961708 0.48200199
-0.070182897 -0.033098385 0.48400205
-0.069348276 -0.033303492 0.4870021
-0.06835822 -0.033440165 0.48900217
-0.067357756 -0.033576839 0.49100223
-0.066346847 -0.033713512 0.4930023
-0.065325506 -0.033850178 0.49500236
-0.06416437 -0.033918418 0.49600244
-0.062998019 -0.033986658 0.49700248
-0.061950613 -0.034123324 0.49900255
-0.060771234 -0.034191556 0.50000262
-0.05958664 -0.034259792 0.50100273
-0.058396831 -0.034328029 0.50200278
-0.057201803 -0.034396261 0.50300288
-0.05600157 -0.03446449 0.50400293
-0.054796118 -0.034532722 0.50500298
-0.053479552 -0.034532528 0.50500304
-0.045489889 -0.034462929 0.50400352
-0.026825646 -0.034118112 0.49900466
-0.025473569 -0.034049496 0.49800476
-0.024175249 -0.034049302 0.49800482
-0.022830991 -0.033980697 0.4970049
-0.021535281 -0.033980504 0.49700499
-0.020198844 -0.033911895 0.49600506
-0.018867623 -0.033843286 0.49500516
-0.017541615 -0.033774678 0.4940052
-0.016220823 -0.033706073 0.49300531
-0.014935539 -0.033705883 0.49300539
-0.013622567 -0.033637274 0.49200544
-0.012339892 -0.033637084 0.49200553
-0.011057217 -0.033636894 0.49200559
-0.0097745415 -0.0336367 0.49200568
-0.0084918654 -0.03363651 0.49200577
-0.007223845 -0.033704739 0.49300584
-0.0059385626 -0.033704549 0.49300593
-0.0046532801 -0.033704355 0.49300599
0.012697704 -0.029255088 0.42800698
0.013910345 -0.029460138 0.43100703
0.015138626 -0.029665187 0.43400711
0.016382553 -0.029870234 0.43700716
0.017602026 -0.030006876 0.43900725
0.018917331 -0.030280322 0.44300735
0.020253493 -0.030553767 0.44700745
0.021754254 -0.031032419 0.45400754
0.023240991 -0.031442661 0.46000761
0.024705887 -0.031784501 0.46500772
0.02619685 -0.03212633 0.47000781
0.027655544 -0.032399759 0.4740079
0.029135093 -0.032673176 0.478008
0.030508382 -0.032809798 0.48000807
0.031892102 -0.032946415 0.48200816
-0.091887124 -0.0302605 0.46000069
-0.087521635 -0.029996639 0.45600098
-0.086143479 -0.029930629 0.45500103
-0.085143991 -0.029996285 0.4560011
-0.084139287 -0.030061938 0.45700115
-0.082947858 -0.030061761 0.45700124
-0.081935324 -0.030127417 0.45800132
-0.080917582 -0.030193068 0.45900136
-0.079894632 -0.030258721 0.46000141
-0.078866459 -0.030324372 0.46100149
-0.078001551 -0.030455852 0.46300155
-0.077126205 -0.030587327 0.46500161
-0.076077171 -0.030652976 0.46600166
-0.075344227 -0.030850276 0.46900171
-0.074437603 -0.030981749 0.47100174
-0.073520556 -0.031113222 0.47300181
-0.072745904 -0.031310514 0.47600186
-0.071805388 -0.031441987 0.47800192
