# .PCD v0.7 - Point Cloud Data file format
VERSION 0.7
FIELDS x y z
SIZE 4 4 4
TYPE F F F
COUNT 1 1 1
WIDTH 1384
HEIGHT 1
VIEWPOINT 0 0 0 1 0 0 0
POINTS 1384
DATA ascii
-0.23141316 0.012273123 0.44300002
-0.23026077 0.012273123 0.44300002
-0.22910838 0.012273123 0.44300002
-0.22795603 0.012273123 0.44300002
-0.22731562 0.012300828 0.44400004
-0.22616066 0.012300828 0.44400004
-0.22500567 0.012300828 0.44400004
-0.22385068 0.012300828 0.44400004
-0.22269571 0.012300828 0.44400004
-0.22154073 0.012300828 0.44400004
-0.22038575 0.012300828 0.44400004
-0.21923077 0.012300828 0.44400004
-0.2180758 0.012300828 0.44400004
-0.21692081 0.012300828 0.44400004
-0.21576583 0.012300828 0.44400004
-0.21461086 0.012300828 0.44400004
-0.21345589 0.012300828 0.44400004
-0.21182275 0.012273123 0.44300002
-0.21067037 0.012273123 0.44300002
-0.20951799 0.012273123 0.44300002
-0.20836562 0.012273123 0.44300002
-0.20721324 0.012273123 0.44300002
-0.20606086 0.012273123 0.44300002
-0.20490848 0.012273123 0.44300002
-0.20375611 0.012273123 0.44300002
-0.20260373 0.012273123 0.44300002
-0.20145136 0.012273123 0.44300002
-0.20075111 0.012300828 0.44400004
-0.19959614 0.012300828 0.44400004
-0.19844116 0.012300828 0.44400004
-0.19728619 0.012300828 0.44400004
-0.19613121 0.012300828 0.44400004
-0.19497623 0.012300828 0.44400004
-0.19382125 0.012300828 0.44400004
-0.19266628 0.012300828 0.44400004
-0.1915113 0.012300828 0.44400004
-0.19035633 0.012300828 0.44400004
-0.18920134 0.012300828 0.44400004
-0.18804637 0.012300828 0.44400004
-0.18689139 0.012300828 0.44400004
-0.18573642 0.012300828 0.44400004
-0.18458143 0.012300828 0.44400004
-0.18342644 0.012300828 0.44400004
-0.18227147 0.012300828 0.44400004
-0.18111649 0.012300828 0.44400004
-0.17996152 0.012300828 0.44400004
-0.17880653 0.012300828 0.44400004
-0.17765155 0.012300828 0.44400004
-0.17649658 0.012300828 0.44400004
-0.17573652 0.012328532 0.44500002
-0.17457893 0.012328532 0.44500002
-0.17303164 0.012300828 0.44400004
-0.17226377 0.012328532 0.44500002
-0.17110619 0.012328532 0.44500002
-0.16994862 0.012328532 0.44500002
-0.16879104 0.012328532 0.44500002
-0.16763344 0.012328532 0.44500002
-0.16647588 0.012328532 0.44500002
-0.1653183 0.012328532 0.44500002
-0.16416073 0.012328532 0.44500002
-0.16300315 0.012328532 0.44500002
-0.16184555 0.012328532 0.44500002
-0.16068798 0.012328532 0.44500002
-0.1595304 0.012328532 0.44500002
-0.15837282 0.012328532 0.44500002
-0.15721524 0.012328532 0.44500002
-0.15605766 0.012328532 0.44500002
-0.15490007 0.012328532 0.44500002
-0.15374251 0.012328532 0.44500002
-0.15258493 0.012328532 0.44500002
-0.15142734 0.012328532 0.44500002
-0.15060744 0.012356237 0.44600001
-0.14944726 0.012356237 0.44600001
-0.14828709 0.012356237 0.44600001
-0.14712691 0.012356237 0.44600001
-0.14596672 0.012356237 0.44600001
-0.14480653 0.012356237 0.44600001
-0.14364636 0.012356237 0.44600001
-0.14248618 0.012356237 0.44600001
-0.14132601 0.012356237 0.44600001
-0.14016582 0.012356237 0.44600001
-0.13900563 0.012356237 0.44600001
-0.13784546 0.012356237 0.44600001
-0.13668528 0.012356237 0.44600001
-0.13552509 0.012356237 0.44600001
-0.13436492 0.012356237 0.44600001
-0.13320473 0.012356237 0.44600001
-0.13204455 0.012356237 0.44600001
-0.13088438 0.012356237 0.44600001
-0.12972419 0.012356237 0.44600001
-0.12856402 0.012356237 0.44600001
-0.12711817 0.012328532 0.44500002
-0.1259606 0.012328532 0.44500002
-0.12480302 0.012328532 0.44500002
-0.12364543 0.012328532 0.44500002
-0.12248786 0.012328532 0.44500002
-0.12133028 0.012328532 0.44500002
-0.1201727 0.012328532 0.44500002
-0.11928257 0.012356237 0.44600001
-0.11812238 0.012356237 0.44600001
-0.1169622 0.012356237 0.44600001
-0.11580203 0.012356237 0.44600001
-0.11464185 0.012356237 0.44600001
-0.11348166 0.012356237 0.44600001
-0.11232148 0.012356237 0.44600001
-0.1111613 0.012356237 0.44600001
-0.11000112 0.012356237 0.44600001
-0.10884093 0.012356237 0.44600001
-0.10768076 0.012356237 0.44600001
-0.10652058 0.012356237 0.44600001
-0.10559663 0.012383942 0.44700003
-0.10443386 0.012383942 0.44700003
-0.10327107 0.012383942 0.44700003
-0.10210829 0.012383942 0.44700003
-0.1009455 0.012383942 0.44700003
-0.099782728 0.012383942 0.44700003
-0.098619945 0.012383942 0.44700003
-0.097457163 0.012383942 0.44700003
-0.096294381 0.012383942 0.44700003
-0.095131598 0.012383942 0.44700003
-0.093968816 0.012383942 0.44700003
-0.092806026 0.012383942 0.44700003
-0.091643251 0.012383942 0.44700003
-0.090480469 0.012383942 0.44700003
-0.089317687 0.012383942 0.44700003
-0.088154905 0.012383942 0.44700003
-0.086992122 0.012383942 0.44700003
-0.08582934 0.012383942 0.44700003
-0.084666558 0.012383942 0.44700003
-0.083503775 0.012383942 0.44700003
-0.082341 0.012383942 0.44700003
-0.081178211 0.012383942 0.44700003
-0.080015428 0.012383942 0.44700003
-0.078852646 0.012383942 0.44700003
-0.077689864 0.012383942 0.44700003
-0.058953315 0.01086019 0.39200002
-0.05778582 0.010832486 0.39100003
-0.056623515 0.010804781 0.39000002
-0.05560901 0.010804781 0.39000002
-0.054594498 0.010804781 0.39000002
-0.053579994 0.010804781 0.39000002
-0.052430708 0.010777077 0.38900003
-0.051418796 0.010777077 0.38900003
-0.050277311 0.010749372 0.38800001
-0.049141023 0.010721668 0.38700002
-0.048134323 0.010721668 0.38700002
0.032879516 0.0091702119 0.33100003
0.03556975 0.0091979159 0.33200002
0.03654312 0.00922562 0.333
0.037521694 0.0092533249 0.33400002
0.038620412 0.0093087349 0.33600003
0.042993989 0.0095026661 0.34300002
0.044142134 0.009558076 0.34500003
0.045039583 0.009558076 0.34500003
0.046070185 0.0095857801 0.34600002
0.046834484 0.009558076 0.34500003
0.047870282 0.0095857801 0.34600002
0.048770335 0.0095857801 0.34600002
0.049670383 0.0095857801 0.34600002
0.050570436 0.0095857801 0.34600002
0.051470485 0.0095857801 0.34600002
0.052370537 0.0095857801 0.34600002
0.053424545 0.0096134841 0.347
0.054327197 0.0096134841 0.347
0.05522985 0.0096134841 0.347
0.056456029 0.0096688932 0.34900001
0.057528257 0.0096965982 0.35000002
0.058605678 0.0097243022 0.35100001
0.059857875 0.0097797122 0.35300002
0.061120473 0.0098351212 0.35500002
0.062393479 0.0098905303 0.35700002
0.063854262 0.0099736433 0.36000001
0.064970709 0.010001348 0.36100003
0.066274926 0.010056757 0.36300001
0.067589551 0.010112166 0.36500001
0.068726808 0.010139871 0.36600003
0.069869265 0.010167575 0.36700001
0.092900261 0.01249476 0.45100003
0.094073452 0.01249476 0.45100003
0.095246635 0.01249476 0.45100003
0.096419826 0.01249476 0.45100003
0.097593009 0.01249476 0.45100003
0.0987662 0.01249476 0.45100003
0.099939391 0.01249476 0.45100003
0.10111257 0.01249476 0.45100003
0.10228577 0.01249476 0.45100003
0.10345895 0.01249476 0.45100003
0.10463214 0.01249476 0.45100003
0.10580532 0.01249476 0.45100003
0.10697851 0.01249476 0.45100003
0.1081517 0.01249476 0.45100003
0.10908248 0.012467055 0.45000002
0.11049808 0.01249476 0.45100003
0.11167126 0.01249476 0.45100003
0.11284444 0.01249476 0.45100003
0.11401763 0.01249476 0.45100003
0.11519083 0.01249476 0.45100003
0.11636401 0.01249476 0.45100003
0.11753719 0.01249476 0.45100003
0.11871038 0.01249476 0.45100003
0.11988357 0.01249476 0.45100003
0.12132518 0.012522464 0.45200002
0.12250096 0.012522464 0.45200002
0.12367675 0.012522464 0.45200002
0.12485254 0.012522464 0.45200002
0.12602833 0.012522464 0.45200002
0.12720412 0.012522464 0.45200002
0.12837991 0.012522464 0.45200002
0.12984231 0.012550168 0.45300001
0.13102069 0.012550168 0.45300001
0.13190727 0.012522464 0.45200002
0.13337749 0.012550168 0.45300001
0.13455588 0.012550168 0.45300001
0.13573426 0.012550168 0.45300001
0.13691264 0.012550168 0.45300001
0.13809106 0.012550168 0.45300001
0.13926944 0.012550168 0.45300001
0.14044783 0.012550168 0.45300001
0.14162621 0.012550168 0.45300001
0.14280461 0.012550168 0.45300001
0.14398299 0.012550168 0.45300001
0.14516139 0.012550168 0.45300001
0.14633977 0.012550168 0.45300001
0.14751816 0.012550168 0.45300001
0.14902481 0.012577873 0.45400003
0.15020581 0.012577873 0.45400003
0.1513868 0.012577873 0.45400003
0.15256777 0.012577873 0.45400003
0.15374877 0.012577873 0.45400003
0.15492977 0.012577873 0.45400003
0.15611076 0.012577873 0.45400003
0.15729174 0.012577873 0.45400003
0.15847273 0.012577873 0.45400003
0.15965372 0.012577873 0.45400003
0.16083473 0.012577873 0.45400003
0.16237257 0.012605578 0.45500001
0.1631967 0.012577873 0.45400003
0.16437769 0.012577873 0.45400003
0.16592336 0.012605578 0.45500001
0.16710694 0.012605578 0.45500001
0.16829053 0.012605578 0.45500001
0.16947412 0.012605578 0.45500001
0.17065771 0.012605578 0.45500001
0.17184131 0.012605578 0.45500001
0.17302491 0.012605578 0.45500001
0.17459138 0.012633283 0.45600003
0.17577757 0.012633283 0.45600003
0.17696376 0.012633283 0.45600003
0.17814997 0.012633283 0.45600003
0.17933616 0.012633283 0.45600003
0.18052234 0.012633283 0.45600003
0.18170853 0.012633283 0.45600003
0.18289472 0.012633283 0.45600003
0.18408093 0.012633283 0.45600003
0.18526712 0.012633283 0.45600003
0.18645331 0.012633283 0.45600003
0.1876395 0.012633283 0.45600003
0.18923979 0.012660987 0.45700002
0.1900119 0.012633283 0.45600003
0.1911981 0.012633283 0.45600003
0.19280617 0.012660987 0.45700002
0.19399497 0.012660987 0.45700002
0.19518377 0.012660987 0.45700002
0.19594286 0.012633283 0.45600003
0.19712906 0.012633283 0.45600003
0.19831525 0.012633283 0.45600003
0.19950144 0.012633283 0.45600003
0.20068765 0.012633283 0.45600003
0.20187384 0.012633283 0.45600003
0.20306003 0.012633283 0.45600003
0.20424622 0.012633283 0.45600003
0.20543242 0.012633283 0.45600003
0.20661861 0.012633283 0.45600003
0.2078048 0.012633283 0.45600003
0.20899099 0.012633283 0.45600003
0.21063809 0.012660987 0.45700002
0.21182689 0.012660987 0.45700002
0.21254958 0.012633283 0.45600003
0.21373577 0.012633283 0.45600003
0.21492197 0.012633283 0.45600003
0.21610816 0.012633283 0.45600003
0.21729437 0.012633283 0.45600003
0.21848054 0.012633283 0.45600003
-0.24642883 0.013364888 0.44100001
-0.24583785 0.013395194 0.44200003
-0.24468809 0.013395194 0.44200003
-0.24353831 0.013395194 0.44200003
-0.24238855 0.013395194 0.44200003
-0.24178454 0.013425499 0.44300002
-0.24063215 0.013425499 0.44300002
-0.2394798 0.013425499 0.44300002
-0.2383274 0.013425499 0.44300002
-0.23717505 0.013425499 0.44300002
-0.23602265 0.013425499 0.44300002
-0.23540045 0.013455805 0.44400004
-0.2337179 0.013425499 0.44300002
-0.23256552 0.013425499 0.44300002
-0.23141316 0.013425499 0.44300002
-0.23026077 0.013425499 0.44300002
-0.22910838 0.013425499 0.44300002
-0.22795603 0.013425499 0.44300002
-0.22731562 0.013455805 0.44400004
-0.22616066 0.013455805 0.44400004
-0.22500567 0.013455805 0.44400004
-0.22385068 0.013455805 0.44400004
-0.22319728 0.013486112 0.44500002
-0.22203968 0.013486112 0.44500002
-0.2208821 0.013486112 0.44500002
-0.21972454 0.013486112 0.44500002
-0.21856695 0.013486112 0.44500002
-0.21692081 0.013455805 0.44400004
-0.21576583 0.013455805 0.44400004
-0.21461086 0.013455805 0.44400004
-0.21345589 0.013455805 0.44400004
-0.21182275 0.013425499 0.44300002
-0.21067037 0.013425499 0.44300002
-0.20951799 0.013425499 0.44300002
-0.20836562 0.013425499 0.44300002
-0.20721324 0.013425499 0.44300002
-0.20606086 0.013425499 0.44300002
-0.20490848 0.013425499 0.44300002
-0.20375611 0.013425499 0.44300002
-0.20306107 0.013455805 0.44400004
-0.2019061 0.013455805 0.44400004
-0.20075111 0.013455805 0.44400004
-0.19959614 0.013455805 0.44400004
-0.19844116 0.013455805 0.44400004
-0.19728619 0.013455805 0.44400004
-0.19613121 0.013455805 0.44400004
-0.19497623 0.013455805 0.44400004
-0.19382125 0.013455805 0.44400004
-0.19266628 0.013455805 0.44400004
-0.1915113 0.013455805 0.44400004
-0.19035633 0.013455805 0.44400004
-0.18920134 0.013455805 0.44400004
-0.18804637 0.013455805 0.44400004
-0.18689139 0.013455805 0.44400004
-0.18573642 0.013455805 0.44400004
-0.18458143 0.013455805 0.44400004
-0.18342644 0.013455805 0.44400004
-0.18227147 0.013455805 0.44400004
-0.18111649 0.013455805 0.44400004
-0.17996152 0.013455805 0.44400004
-0.17880653 0.013455805 0.44400004
-0.17765155 0.013455805 0.44400004
-0.17689408 0.013486112 0.44500002
-0.17573652 0.013486112 0.44500002
-0.17457893 0.013486112 0.44500002
-0.17342135 0.013486112 0.44500002
-0.17226377 0.013486112 0.44500002
-0.17110619 0.013486112 0.44500002
-0.16994862 0.013486112 0.44500002
-0.16879104 0.013486112 0.44500002
-0.16763344 0.013486112 0.44500002
-0.16647588 0.013486112 0.44500002
-0.1653183 0.013486112 0.44500002
-0.16416073 0.013486112 0.44500002
-0.16300315 0.013486112 0.44500002
-0.16184555 0.013486112 0.44500002
-0.16068798 0.013486112 0.44500002
-0.1595304 0.013486112 0.44500002
-0.15837282 0.013486112 0.44500002
-0.15721524 0.013486112 0.44500002
-0.15605766 0.013486112 0.44500002
-0.15490007 0.013486112 0.44500002
-0.15374251 0.013486112 0.44500002
-0.15258493 0.013486112 0.44500002
-0.15142734 0.013486112 0.44500002
-0.15060744 0.013516417 0.44600001
-0.14944726 0.013516417 0.44600001
-0.14828709 0.013516417 0.44600001
-0.14712691 0.013516417 0.44600001
-0.14596672 0.013516417 0.44600001
-0.14480653 0.013516417 0.44600001
-0.14364636 0.013516417 0.44600001
-0.14248618 0.013516417 0.44600001
-0.14132601 0.013516417 0.44600001
-0.14016582 0.013516417 0.44600001
-0.13900563 0.013516417 0.44600001
-0.13784546 0.013516417 0.44600001
-0.13668528 0.013516417 0.44600001
-0.13552509 0.013516417 0.44600001
-0.13436492 0.013516417 0.44600001
-0.13320473 0.013516417 0.44600001
-0.13204455 0.013516417 0.44600001
-0.13088438 0.013516417 0.44600001
-0.12972419 0.013516417 0.44600001
-0.12856402 0.013516417 0.44600001
-0.12740383 0.013516417 0.44600001
-0.1259606 0.013486112 0.44500002
-0.12480302 0.013486112 0.44500002
-0.12364543 0.013486112 0.44500002
-0.12248786 0.013486112 0.44500002
-0.12133028 0.013486112 0.44500002
-0.1201727 0.013486112 0.44500002
-0.11928257 0.013516417 0.44600001
-0.11812238 0.013516417 0.44600001
-0.1169622 0.013516417 0.44600001
-0.11580203 0.013516417 0.44600001
-0.11464185 0.013516417 0.44600001
-0.11348166 0.013516417 0.44600001
-0.11232148 0.013516417 0.44600001
-0.1111613 0.013516417 0.44600001
-0.11000112 0.013516417 0.44600001
-0.10884093 0.013516417 0.44600001
-0.10768076 0.013516417 0.44600001
-0.10652058 0.013516417 0.44600001
-0.10559663 0.013546723 0.44700003
-0.10443386 0.013546723 0.44700003
-0.10327107 0.013546723 0.44700003
-0.10210829 0.013546723 0.44700003
-0.1009455 0.013546723 0.44700003
-0.099782728 0.013546723 0.44700003
-0.098619945 0.013546723 0.44700003
-0.097457163 0.013546723 0.44700003
-0.096294381 0.013546723 0.44700003
-0.095131598 0.013546723 0.44700003
-0.093968816 0.013546723 0.44700003
-0.092806026 0.013546723 0.44700003
-0.091643251 0.013546723 0.44700003
-0.090480469 0.013546723 0.44700003
-0.089317687 0.013546723 0.44700003
-0.088154905 0.013546723 0.44700003
-0.086992122 0.013546723 0.44700003
-0.08582934 0.013546723 0.44700003
-0.084477141 0.013516417 0.44600001
-0.083503775 0.013546723 0.44700003
-0.082341 0.013546723 0.44700003
-0.081178211 0.013546723 0.44700003
-0.080015428 0.013546723 0.44700003
-0.078852646 0.013546723 0.44700003
-0.077689864 0.013546723 0.44700003
-0.076527089 0.013546723 0.44700003
-0.075532898 0.013577028 0.44800001
-0.058802925 0.011849594 0.39100003
-0.05778582 0.011849594 0.39100003
-0.056623515 0.011819288 0.39000002
-0.05560901 0.011819288 0.39000002
-0.054594498 0.011819288 0.39000002
-0.053579994 0.011819288 0.39000002
-0.052430708 0.011788983 0.38900003
-0.051418796 0.011788983 0.38900003
-0.050277311 0.011758677 0.38800001
-0.049268 0.011758677 0.38800001
-0.048134323 0.011728371 0.38700002
-0.047127619 0.011728371 0.38700002
-0.046001736 0.011698064 0.38600001
0.03556975 0.010061548 0.33200002
0.03654312 0.010091853 0.333
0.038620412 0.010182772 0.33600003
0.042993989 0.010394913 0.34300002
0.044142134 0.010455525 0.34500003
0.045039583 0.010455525 0.34500003
0.045937035 0.010455525 0.34500003
0.046834484 0.010455525 0.34500003
0.047870282 0.01048583 0.34600002
0.048770335 0.01048583 0.34600002
0.049670383 0.01048583 0.34600002
0.050570436 0.01048583 0.34600002
0.051470485 0.01048583 0.34600002
0.052370537 0.01048583 0.34600002
0.053424545 0.010516136 0.347
0.054327197 0.010516136 0.347
0.05522985 0.010516136 0.347
0.056294266 0.010546442 0.34800002
0.05736389 0.010576747 0.34900001
0.058438711 0.010607054 0.35000002
0.059688307 0.010667666 0.35200003
0.060776133 0.010697971 0.35300002
0.062043935 0.010758583 0.35500002
0.063322149 0.010819195 0.35700002
0.064610757 0.010879807 0.35900003
0.065727204 0.010910112 0.36000001
0.066848852 0.010940419 0.36100003
0.067975692 0.010970724 0.36200002
0.069107741 0.01100103 0.36300001
0.070244998 0.011031336 0.36400002
0.092694268 0.013637641 0.45000002
0.093864858 0.013637641 0.45000002
0.095246635 0.013667947 0.45100003
0.096419826 0.013667947 0.45100003
0.097593009 0.013667947 0.45100003
0.0987662 0.013667947 0.45100003
0.099717788 0.013637641 0.45000002
0.10111257 0.013667947 0.45100003
0.10228577 0.013667947 0.45100003
0.10345895 0.013667947 0.45100003
0.10463214 0.013667947 0.45100003
0.10580532 0.013667947 0.45100003
0.10697851 0.013667947 0.45100003
0.1081517 0.013667947 0.45100003
0.10932489 0.013667947 0.45100003
0.11049808 0.013667947 0.45100003
0.11167126 0.013667947 0.45100003
0.11284444 0.013667947 0.45100003
0.11401763 0.013667947 0.45100003
0.11519083 0.013667947 0.45100003
0.11636401 0.013667947 0.45100003
0.11753719 0.013667947 0.45100003
0.11897359 0.013698252 0.45200002
0.12014939 0.013698252 0.45200002
0.12132518 0.013698252 0.45200002
0.12250096 0.013698252 0.45200002
0.12367675 0.013698252 0.45200002
0.12485254 0.013698252 0.45200002
0.12602833 0.013698252 0.45200002
0.12720412 0.013698252 0.45200002
0.12837991 0.013698252 0.45200002
0.12984231 0.013728558 0.45300001
0.13102069 0.013728558 0.45300001
0.13219911 0.013728558 0.45300001
0.13337749 0.013728558 0.45300001
0.13455588 0.013728558 0.45300001
0.13573426 0.013728558 0.45300001
0.13691264 0.013728558 0.45300001
0.13809106 0.013728558 0.45300001
0.13926944 0.013728558 0.45300001
0.14044783 0.013728558 0.45300001
0.14162621 0.013728558 0.45300001
0.14280461 0.013728558 0.45300001
0.14398299 0.013728558 0.45300001
0.14516139 0.013728558 0.45300001
0.14666283 0.013758864 0.45400003
0.14784381 0.013758864 0.45400003
0.14902481 0.013758864 0.45400003
0.15020581 0.013758864 0.45400003
0.1513868 0.013758864 0.45400003
0.15256777 0.013758864 0.45400003
0.15374877 0.013758864 0.45400003
0.15492977 0.013758864 0.45400003
0.15611076 0.013758864 0.45400003
0.15729174 0.013758864 0.45400003
0.15847273 0.013758864 0.45400003
0.15965372 0.013758864 0.45400003
0.16118897 0.013789169 0.45500001
0.16237257 0.013789169 0.45500001
0.1631967 0.013758864 0.45400003
0.16473974 0.013789169 0.45500001
0.16592336 0.013789169 0.45500001
0.16710694 0.013789169 0.45500001
0.16829053 0.013789169 0.45500001
0.16947412 0.013789169 0.45500001
0.17065771 0.013789169 0.45500001
0.17184131 0.013789169 0.45500001
0.17302491 0.013789169 0.45500001
0.17420849 0.013789169 0.45500001
0.17539208 0.013789169 0.45500001
0.17696376 0.013819476 0.45600003
0.17814997 0.013819476 0.45600003
0.17933616 0.013819476 0.45600003
0.18052234 0.013819476 0.45600003
0.18170853 0.013819476 0.45600003
0.18289472 0.013819476 0.45600003
0.18408093 0.013819476 0.45600003
0.18526712 0.013819476 0.45600003
0.18645331 0.013819476 0.45600003
0.1876395 0.013819476 0.45600003
0.1888257 0.013819476 0.45600003
0.1900119 0.013819476 0.45600003
0.19161738 0.013849781 0.45700002
0.19280617 0.013849781 0.45700002
0.19399497 0.013849781 0.45700002
0.19518377 0.013849781 0.45700002
0.19637255 0.013849781 0.45700002
0.19712906 0.013819476 0.45600003
0.19831525 0.013819476 0.45600003
0.19950144 0.013819476 0.45600003
0.20068765 0.013819476 0.45600003
0.20187384 0.013819476 0.45600003
0.20306003 0.013819476 0.45600003
0.20424622 0.013819476 0.45600003
0.20543242 0.013819476 0.45600003
0.20707172 0.013849781 0.45700002
0.2078048 0.013819476 0.45600003
0.20899099 0.013819476 0.45600003
0.21063809 0.013849781 0.45700002
0.21182689 0.013849781 0.45700002
0.21301569 0.013849781 0.45700002
0.21373577 0.013819476 0.45600003
0.21492197 0.013819476 0.45600003
0.21610816 0.013819476 0.45600003
0.21729437 0.013819476 0.45600003
0.21848054 0.013819476 0.45600003
-0.24642883 0.014512062 0.44100001
-0.24583785 0.014544969 0.44200003
-0.24468809 0.014544969 0.44200003
-0.24353831 0.014544969 0.44200003
-0.24238855 0.014544969 0.44200003
-0.24178454 0.014577877 0.44300002
-0.24063215 0.014577877 0.44300002
-0.2394798 0.014577877 0.44300002
-0.2383274 0.014577877 0.44300002
-0.23717505 0.014577877 0.44300002
-0.23602265 0.014577877 0.44300002
-0.23540045 0.014610784 0.44400004
-0.2337179 0.014577877 0.44300002
-0.23256552 0.014577877 0.44300002
-0.23141316 0.014577877 0.44300002
-0.23026077 0.014577877 0.44300002
-0.22962557 0.014610784 0.44400004
-0.22847061 0.014610784 0.44400004
-0.22731562 0.014610784 0.44400004
-0.22616066 0.014610784 0.44400004
-0.22500567 0.014610784 0.44400004
-0.22385068 0.014610784 0.44400004
-0.22319728 0.014643691 0.44500002
-0.22203968 0.014643691 0.44500002
-0.2208821 0.014643691 0.44500002
-0.21972454 0.014643691 0.44500002
-0.21856695 0.014643691 0.44500002
-0.21740937 0.014643691 0.44500002
-0.21576583 0.014610784 0.44400004
-0.21461086 0.014610784 0.44400004
-0.21345589 0.014610784 0.44400004
-0.21230091 0.014610784 0.44400004
-0.21067037 0.014577877 0.44300002
-0.20951799 0.014577877 0.44300002
-0.20836562 0.014577877 0.44300002
-0.20721324 0.014577877 0.44300002
-0.20606086 0.014577877 0.44300002
-0.20490848 0.014577877 0.44300002
-0.20421606 0.014610784 0.44400004
-0.20306107 0.014610784 0.44400004
-0.2019061 0.014610784 0.44400004
-0.20075111 0.014610784 0.44400004
-0.19959614 0.014610784 0.44400004
-0.19844116 0.014610784 0.44400004
-0.19728619 0.014610784 0.44400004
-0.19613121 0.014610784 0.44400004
-0.19497623 0.014610784 0.44400004
-0.19382125 0.014610784 0.44400004
-0.19266628 0.014610784 0.44400004
-0.1915113 0.014610784 0.44400004
-0.19035633 0.014610784 0.44400004
-0.18920134 0.014610784 0.44400004
-0.18804637 0.014610784 0.44400004
-0.18689139 0.014610784 0.44400004
-0.18573642 0.014610784 0.44400004
-0.18458143 0.014610784 0.44400004
-0.18342644 0.014610784 0.44400004
-0.18227147 0.014610784 0.44400004
-0.18111649 0.014610784 0.44400004
-0.17996152 0.014610784 0.44400004
-0.17880653 0.014610784 0.44400004
-0.17765155 0.014610784 0.44400004
-0.17689408 0.014643691 0.44500002
-0.17573652 0.014643691 0.44500002
-0.17457893 0.014643691 0.44500002
-0.17342135 0.014643691 0.44500002
-0.17226377 0.014643691 0.44500002
-0.17110619 0.014643691 0.44500002
-0.16994862 0.014643691 0.44500002
-0.16879104 0.014643691 0.44500002
-0.16763344 0.014643691 0.44500002
-0.16647588 0.014643691 0.44500002
-0.1653183 0.014643691 0.44500002
-0.16416073 0.014643691 0.44500002
-0.16300315 0.014643691 0.44500002
-0.16184555 0.014643691 0.44500002
-0.16068798 0.014643691 0.44500002
-0.1595304 0.014643691 0.44500002
-0.15837282 0.014643691 0.44500002
-0.15721524 0.014643691 0.44500002
-0.15605766 0.014643691 0.44500002
-0.15490007 0.014643691 0.44500002
-0.15374251 0.014643691 0.44500002
-0.15258493 0.014643691 0.44500002
-0.15142734 0.014643691 0.44500002
-0.15060744 0.014676598 0.44600001
-0.14944726 0.014676598 0.44600001
-0.14828709 0.014676598 0.44600001
-0.14712691 0.014676598 0.44600001
-0.14596672 0.014676598 0.44600001
-0.14480653 0.014676598 0.44600001
-0.14364636 0.014676598 0.44600001
-0.14248618 0.014676598 0.44600001
-0.14132601 0.014676598 0.44600001
-0.14016582 0.014676598 0.44600001
-0.13900563 0.014676598 0.44600001
-0.13784546 0.014676598 0.44600001
-0.13668528 0.014676598 0.44600001
-0.13552509 0.014676598 0.44600001
-0.13436492 0.014676598 0.44600001
-0.13320473 0.014676598 0.44600001
-0.13204455 0.014676598 0.44600001
-0.13088438 0.014676598 0.44600001
-0.12972419 0.014676598 0.44600001
-0.12856402 0.014676598 0.44600001
-0.12740383 0.014676598 0.44600001
-0.1259606 0.014643691 0.44500002
-0.12480302 0.014643691 0.44500002
-0.12364543 0.014643691 0.44500002
-0.12248786 0.014643691 0.44500002
-0.12133028 0.014643691 0.44500002
-0.1201727 0.014643691 0.44500002
-0.11928257 0.014676598 0.44600001
-0.11812238 0.014676598 0.44600001
-0.1169622 0.014676598 0.44600001
-0.11580203 0.014676598 0.44600001
-0.11464185 0.014676598 0.44600001
-0.11348166 0.014676598 0.44600001
-0.11232148 0.014676598 0.44600001
-0.1111613 0.014676598 0.44600001
-0.11000112 0.014676598 0.44600001
-0.10884093 0.014676598 0.44600001
-0.10768076 0.014676598 0.44600001
-0.10652058 0.014676598 0.44600001
-0.10559663 0.014709505 0.44700003
-0.10443386 0.014709505 0.44700003
-0.10327107 0.014709505 0.44700003
-0.10210829 0.014709505 0.44700003
-0.1009455 0.014709505 0.44700003
-0.099782728 0.014709505 0.44700003
-0.098619945 0.014709505 0.44700003
-0.097675182 0.014742413 0.44800001
-0.096509799 0.014742413 0.44800001
-0.095131598 0.014709505 0.44700003
-0.093968816 0.014709505 0.44700003
-0.092806026 0.014709505 0.44700003
-0.091643251 0.014709505 0.44700003
-0.090480469 0.014709505 0.44700003
-0.089317687 0.014709505 0.44700003
-0.088154905 0.014709505 0.44700003
-0.086797506 0.014676598 0.44600001
-0.08582934 0.014709505 0.44700003
-0.084477141 0.014676598 0.44600001
-0.083316967 0.014676598 0.44600001
-0.082341 0.014709505 0.44700003
-0.081178211 0.014709505 0.44700003
-0.080015428 0.014709505 0.44700003
-0.078852646 0.014709505 0.44700003
-0.077689864 0.014709505 0.44700003
-0.076527089 0.014709505 0.44700003
-0.075532898 0.014742413 0.44800001
-0.074367516 0.014742413 0.44800001
-0.056623515 0.012833796 0.39000002
-0.05560901 0.012833796 0.39000002
-0.054594498 0.012833796 0.39000002
-0.053579994 0.012833796 0.39000002
-0.052430708 0.01280089 0.38900003
-0.051418796 0.01280089 0.38900003
-0.050406892 0.01280089 0.38900003
-0.049268 0.012767982 0.38800001
-0.048258699 0.012767982 0.38800001
-0.047249392 0.012767982 0.38800001
-0.046120912 0.012735075 0.38700002
-0.044997633 0.012702168 0.38600001
0.042993989 0.01128716 0.34300002
0.044142134 0.011352974 0.34500003
0.045039583 0.011352974 0.34500003
0.045937035 0.011352974 0.34500003
0.046970233 0.011385881 0.34600002
0.047870282 0.011385881 0.34600002
0.048770335 0.011385881 0.34600002
0.049670383 0.011385881 0.34600002
0.050570436 0.011385881 0.34600002
0.051470485 0.011385881 0.34600002
0.052370537 0.011385881 0.34600002
0.053424545 0.011418788 0.347
0.054327197 0.011418788 0.347
0.055389017 0.011451695 0.34800002
0.056294266 0.011451695 0.34800002
0.05736389 0.011484602 0.34900001
0.058438711 0.01151751 0.35000002
0.059518736 0.011550417 0.35100001
0.060776133 0.011616231 0.35300002
0.061869159 0.011649138 0.354
0.063144773 0.011714952 0.35600001
0.064250812 0.01174786 0.35700002
0.065362051 0.011780767 0.35800001
0.066663668 0.011846581 0.36000001
0.067787915 0.011879489 0.36100003
0.068726987 0.011879489 0.36100003
0.070052013 0.011945303 0.36300001
0.070996292 0.011945303 0.36300001
0.095035441 0.014808226 0.45000002
0.096419826 0.014841135 0.45100003
0.097376615 0.014808226 0.45000002
0.098547198 0.014808226 0.45000002
0.099939391 0.014841135 0.45100003
0.10111257 0.014841135 0.45100003
0.10228577 0.014841135 0.45100003
0.10345895 0.014841135 0.45100003
0.10463214 0.014841135 0.45100003
0.10580532 0.014841135 0.45100003
0.10697851 0.014841135 0.45100003
0.1081517 0.014841135 0.45100003
0.10932489 0.014841135 0.45100003
0.11049808 0.014841135 0.45100003
0.11167126 0.014841135 0.45100003
0.11284444 0.014841135 0.45100003
0.11427043 0.014874041 0.45200002
0.11544623 0.014874041 0.45200002
0.11662202 0.014874041 0.45200002
0.11779781 0.014874041 0.45200002
0.11897359 0.014874041 0.45200002
0.12014939 0.014874041 0.45200002
0.12132518 0.014874041 0.45200002
0.12250096 0.014874041 0.45200002
0.12367675 0.014874041 0.45200002
0.12485254 0.014874041 0.45200002
0.12602833 0.014874041 0.45200002
0.12748554 0.014906948 0.45300001
0.12866393 0.014906948 0.45300001
0.12984231 0.014906948 0.45300001
0.13102069 0.014906948 0.45300001
0.13219911 0.014906948 0.45300001
0.13337749 0.014906948 0.45300001
0.13455588 0.014906948 0.45300001
0.13573426 0.014906948 0.45300001
0.13691264 0.014906948 0.45300001
0.13809106 0.014906948 0.45300001
0.13926944 0.014906948 0.45300001
0.14044783 0.014906948 0.45300001
0.14193885 0.014939856 0.45400003
0.14311986 0.014939856 0.45400003
0.14430085 0.014939856 0.45400003
0.14548184 0.014939856 0.45400003
0.14666283 0.014939856 0.45400003
0.14784381 0.014939856 0.45400003
0.14902481 0.014939856 0.45400003
0.15020581 0.014939856 0.45400003
0.1513868 0.014939856 0.45400003
0.15290383 0.014972762 0.45500001
0.15408742 0.014972762 0.45500001
0.15527102 0.014972762 0.45500001
0.15645461 0.014972762 0.45500001
0.15729174 0.014939856 0.45400003
0.15882179 0.014972762 0.45500001
0.16000538 0.014972762 0.45500001
0.16118897 0.014972762 0.45500001
0.16237257 0.014972762 0.45500001
0.16355616 0.014972762 0.45500001
0.16473974 0.014972762 0.45500001
0.16592336 0.014972762 0.45500001
0.16710694 0.014972762 0.45500001
0.16829053 0.014972762 0.45500001
0.16947412 0.014972762 0.45500001
0.17065771 0.014972762 0.45500001
0.17184131 0.014972762 0.45500001
0.17302491 0.014972762 0.45500001
0.17420849 0.014972762 0.45500001
0.17539208 0.014972762 0.45500001
0.17657568 0.014972762 0.45500001
0.17814997 0.01500567 0.45600003
0.17933616 0.01500567 0.45600003
0.18052234 0.01500567 0.45600003
0.18170853 0.01500567 0.45600003
0.18289472 0.01500567 0.45600003
0.18408093 0.01500567 0.45600003
0.18526712 0.01500567 0.45600003
0.18645331 0.01500567 0.45600003
0.1876395 0.01500567 0.45600003
0.1888257 0.01500567 0.45600003
0.1900119 0.01500567 0.45600003
0.19161738 0.015038577 0.45700002
0.19280617 0.015038577 0.45700002
0.19399497 0.015038577 0.45700002
0.19518377 0.015038577 0.45700002
0.19637255 0.015038577 0.45700002
0.19712906 0.01500567 0.45600003
0.19831525 0.01500567 0.45600003
0.19950144 0.01500567 0.45600003
0.20068765 0.01500567 0.45600003
0.20187384 0.01500567 0.45600003
0.20306003 0.01500567 0.45600003
0.20424622 0.01500567 0.45600003
0.20543242 0.01500567 0.45600003
0.20707172 0.015038577 0.45700002
0.2078048 0.01500567 0.45600003
0.20944931 0.015038577 0.45700002
0.21063809 0.015038577 0.45700002
0.21182689 0.015038577 0.45700002
0.21301569 0.015038577 0.45700002
0.21373577 0.01500567 0.45600003
0.21492197 0.01500567 0.45600003
0.21610816 0.01500567 0.45600003
0.21729437 0.01500567 0.45600003
0.21848054 0.01500567 0.45600003
-0.24642883 0.015659235 0.44100001
-0.24583785 0.015694745 0.44200003
-0.24468809 0.015694745 0.44200003
-0.24353831 0.015694745 0.44200003
-0.24238855 0.015694745 0.44200003
-0.24178454 0.015730252 0.44300002
-0.24063215 0.015730252 0.44300002
-0.2394798 0.015730252 0.44300002
-0.2383274 0.015730252 0.44300002
-0.23717505 0.015730252 0.44300002
-0.23655544 0.015765762 0.44400004
-0.23540045 0.015765762 0.44400004
-0.23424549 0.015765762 0.44400004
-0.23309051 0.015765762 0.44400004
-0.23193555 0.015765762 0.44400004
-0.23078056 0.015765762 0.44400004
-0.22962557 0.015765762 0.44400004
-0.22847061 0.015765762 0.44400004
-0.22731562 0.015765762 0.44400004
-0.22616066 0.015765762 0.44400004
-0.22551243 0.01580127 0.44500002
-0.22385068 0.015765762 0.44400004
-0.22319728 0.01580127 0.44500002
-0.22203968 0.01580127 0.44500002
-0.2208821 0.01580127 0.44500002
-0.21972454 0.01580127 0.44500002
-0.21856695 0.01580127 0.44500002
-0.21740937 0.01580127 0.44500002
-0.21625179 0.01580127 0.44500002
-0.21461086 0.015765762 0.44400004
-0.21345589 0.015765762 0.44400004
-0.21230091 0.015765762 0.44400004
-0.21114592 0.015765762 0.44400004
-0.20999095 0.015765762 0.44400004
-0.20836562 0.015730252 0.44300002
-0.207681 0.015765762 0.44400004
-0.20652601 0.015765762 0.44400004
-0.20537104 0.015765762 0.44400004
-0.20421606 0.015765762 0.44400004
-0.20306107 0.015765762 0.44400004
-0.2019061 0.015765762 0.44400004
-0.20075111 0.015765762 0.44400004
-0.19959614 0.015765762 0.44400004
-0.19844116 0.015765762 0.44400004
-0.19728619 0.015765762 0.44400004
-0.19613121 0.015765762 0.44400004
-0.19497623 0.015765762 0.44400004
-0.19382125 0.015765762 0.44400004
-0.19266628 0.015765762 0.44400004
-0.1915113 0.015765762 0.44400004
-0.19035633 0.015765762 0.44400004
-0.18920134 0.015765762 0.44400004
-0.18804637 0.015765762 0.44400004
-0.18689139 0.015765762 0.44400004
-0.18573642 0.015765762 0.44400004
-0.18458143 0.015765762 0.44400004
-0.18342644 0.015765762 0.44400004
-0.18227147 0.015765762 0.44400004
-0.18111649 0.015765762 0.44400004
-0.17996152 0.015765762 0.44400004
-0.17880653 0.015765762 0.44400004
-0.17805167 0.01580127 0.44500002
-0.17689408 0.01580127 0.44500002
-0.17573652 0.01580127 0.44500002
-0.17457893 0.01580127 0.44500002
-0.17342135 0.01580127 0.44500002
-0.17226377 0.01580127 0.44500002
-0.17110619 0.01580127 0.44500002
-0.16994862 0.01580127 0.44500002
-0.16879104 0.01580127 0.44500002
-0.16763344 0.01580127 0.44500002
-0.16647588 0.01580127 0.44500002
-0.1653183 0.01580127 0.44500002
-0.16416073 0.01580127 0.44500002
-0.16300315 0.01580127 0.44500002
-0.16184555 0.01580127 0.44500002
-0.16068798 0.01580127 0.44500002
-0.1595304 0.01580127 0.44500002
-0.15837282 0.01580127 0.44500002
-0.15721524 0.01580127 0.44500002
-0.15605766 0.01580127 0.44500002
-0.15490007 0.01580127 0.44500002
-0.15374251 0.01580127 0.44500002
-0.15258493 0.01580127 0.44500002
-0.15142734 0.01580127 0.44500002
-0.15026976 0.01580127 0.44500002
-0.14944726 0.015836777 0.44600001
-0.14828709 0.015836777 0.44600001
-0.14712691 0.015836777 0.44600001
-0.14596672 0.015836777 0.44600001
-0.14480653 0.015836777 0.44600001
-0.14364636 0.015836777 0.44600001
-0.14248618 0.015836777 0.44600001
-0.14132601 0.015836777 0.44600001
-0.14016582 0.015836777 0.44600001
-0.13900563 0.015836777 0.44600001
-0.13784546 0.015836777 0.44600001
-0.13668528 0.015836777 0.44600001
-0.13552509 0.015836777 0.44600001
-0.13436492 0.015836777 0.44600001
-0.13320473 0.015836777 0.44600001
-0.13204455 0.015836777 0.44600001
-0.13088438 0.015836777 0.44600001
-0.12972419 0.015836777 0.44600001
-0.12856402 0.015836777 0.44600001
-0.12740383 0.015836777 0.44600001
-0.12624365 0.015836777 0.44600001
-0.12480302 0.01580127 0.44500002
-0.12364543 0.01580127 0.44500002
-0.12248786 0.01580127 0.44500002
-0.12133028 0.01580127 0.44500002
-0.1201727 0.01580127 0.44500002
-0.11928257 0.015836777 0.44600001
-0.11812238 0.015836777 0.44600001
-0.1169622 0.015836777 0.44600001
-0.11580203 0.015836777 0.44600001
-0.11464185 0.015836777 0.44600001
-0.11348166 0.015836777 0.44600001
-0.11232148 0.015836777 0.44600001
-0.1111613 0.015836777 0.44600001
-0.11000112 0.015836777 0.44600001
-0.10884093 0.015836777 0.44600001
-0.10768076 0.015836777 0.44600001
-0.10675941 0.015872287 0.44700003
-0.10559663 0.015872287 0.44700003
-0.10443386 0.015872287 0.44700003
-0.10327107 0.015872287 0.44700003
-0.10210829 0.015872287 0.44700003
-0.1009455 0.015872287 0.44700003
-0.099782728 0.015872287 0.44700003
-0.098619945 0.015872287 0.44700003
-0.097457163 0.015872287 0.44700003
-0.096294381 0.015872287 0.44700003
-0.095131598 0.015872287 0.44700003
-0.093968816 0.015872287 0.44700003
-0.092806026 0.015872287 0.44700003
-0.091643251 0.015872287 0.44700003
-0.090480469 0.015872287 0.44700003
-0.089317687 0.015872287 0.44700003
-0.088154905 0.015872287 0.44700003
-0.086797506 0.015836777 0.44600001
-0.08582934 0.015872287 0.44700003
-0.084477141 0.015836777 0.44600001
-0.083503775 0.015872287 0.44700003
-0.082156785 0.015836777 0.44600001
-0.081178211 0.015872287 0.44700003
-0.080015428 0.015872287 0.44700003
-0.078852646 0.015872287 0.44700003
-0.077689864 0.015872287 0.44700003
-0.076527089 0.015872287 0.44700003
-0.075532898 0.015907794 0.44800001
-0.074367516 0.015907794 0.44800001
-0.05560901 0.013848304 0.39000002
-0.054594498 0.013848304 0.39000002
-0.053579994 0.013848304 0.39000002
-0.052565489 0.013848304 0.39000002
-0.051418796 0.013812795 0.38900003
-0.050406892 0.013812795 0.38900003
-0.049394984 0.013812795 0.38900003
-0.048383079 0.013812795 0.38900003
-0.047249392 0.013777287 0.38800001
-0.046240088 0.013777287 0.38800001
-0.045114208 0.013741778 0.38700002
0.042993989 0.012179405 0.34300002
0.044142134 0.012250423 0.34500003
0.045039583 0.012250423 0.34500003
0.045937035 0.012250423 0.34500003
0.046970233 0.012285931 0.34600002
0.047870282 0.012285931 0.34600002
0.048770335 0.012285931 0.34600002
0.049670383 0.012285931 0.34600002
0.050570436 0.012285931 0.34600002
0.051470485 0.012285931 0.34600002
0.052370537 0.012285931 0.34600002
0.053424545 0.012321439 0.347
0.054327197 0.012321439 0.347
0.05522985 0.012321439 0.347
0.056294266 0.012356948 0.34800002
0.05736389 0.012392456 0.34900001
0.058438711 0.012427965 0.35000002
0.059518736 0.012463473 0.35100001
0.060603965 0.012498982 0.35200003
0.061694391 0.01253449 0.35300002
0.062967397 0.012605507 0.35500002
0.064070828 0.012641015 0.35600001
0.065179475 0.012676524 0.35700002
0.066293314 0.012712033 0.35800001
0.067412362 0.012747541 0.35900003
0.068536609 0.01278305 0.36000001
0.069666058 0.012818558 0.36100003
0.095035441 0.015978811 0.45000002
0.096206032 0.015978811 0.45000002
0.097376615 0.015978811 0.45000002
0.098547198 0.015978811 0.45000002
0.099939391 0.016014321 0.45100003
0.10111257 0.016014321 0.45100003
0.10228577 0.016014321 0.45100003
0.10345895 0.016014321 0.45100003
0.10463214 0.016014321 0.45100003
0.10580532 0.016014321 0.45100003
0.10721571 0.016049828 0.45200002
0.1083915 0.016049828 0.45200002
0.10932489 0.016014321 0.45100003
0.11074308 0.016049828 0.45200002
0.11191887 0.016049828 0.45200002
0.11309465 0.016049828 0.45200002
0.11427043 0.016049828 0.45200002
0.11544623 0.016049828 0.45200002
0.11662202 0.016049828 0.45200002
0.11779781 0.016049828 0.45200002
0.11897359 0.016049828 0.45200002
0.12014939 0.016049828 0.45200002
0.12132518 0.016049828 0.45200002
0.12250096 0.016049828 0.45200002
0.12367675 0.016049828 0.45200002
0.12512875 0.016085336 0.45300001
0.12630716 0.016085336 0.45300001
0.12748554 0.016085336 0.45300001
0.12866393 0.016085336 0.45300001
0.12984231 0.016085336 0.45300001
0.13102069 0.016085336 0.45300001
0.13219911 0.016085336 0.45300001
0.13337749 0.016085336 0.45300001
0.13455588 0.016085336 0.45300001
0.13573426 0.016085336 0.45300001
0.13691264 0.016085336 0.45300001
0.13809106 0.016085336 0.45300001
0.13957688 0.016120845 0.45400003
0.14075787 0.016120845 0.45400003
0.14193885 0.016120845 0.45400003
0.14311986 0.016120845 0.45400003
0.14430085 0.016120845 0.45400003
0.14548184 0.016120845 0.45400003
0.14666283 0.016120845 0.45400003
0.14816946 0.016156353 0.45500001
0.14935306 0.016156353 0.45500001
0.15053664 0.016156353 0.45500001
0.15172024 0.016156353 0.45500001
0.15290383 0.016156353 0.45500001
0.15408742 0.016156353 0.45500001
0.15527102 0.016156353 0.45500001
0.15645461 0.016156353 0.45500001
0.15763819 0.016156353 0.45500001
0.15882179 0.016156353 0.45500001
0.16000538 0.016156353 0.45500001
0.16118897 0.016156353 0.45500001
0.16237257 0.016156353 0.45500001
0.16355616 0.016156353 0.45500001
0.16473974 0.016156353 0.45500001
0.16592336 0.016156353 0.45500001
0.16710694 0.016156353 0.45500001
0.16829053 0.016156353 0.45500001
0.16910166 0.016120845 0.45400003
0.17065771 0.016156353 0.45500001
0.17184131 0.016156353 0.45500001
0.17302491 0.016156353 0.45500001
0.17420849 0.016156353 0.45500001
0.17539208 0.016156353 0.45500001
0.17657568 0.016156353 0.45500001
0.17814997 0.016191863 0.45600003
0.17933616 0.016191863 0.45600003
0.18052234 0.016191863 0.45600003
0.18170853 0.016191863 0.45600003
0.18289472 0.016191863 0.45600003
0.18408093 0.016191863 0.45600003
0.18526712 0.016191863 0.45600003
0.18645331 0.016191863 0.45600003
0.1876395 0.016191863 0.45600003
0.1888257 0.016191863 0.45600003
0.1900119 0.016191863 0.45600003
0.19161738 0.01622737 0.45700002
0.19280617 0.01622737 0.45700002
0.19399497 0.01622737 0.45700002
0.19518377 0.01622737 0.45700002
0.19594286 0.016191863 0.45600003
0.19712906 0.016191863 0.45600003
0.19831525 0.016191863 0.45600003
0.19950144 0.016191863 0.45600003
0.20068765 0.016191863 0.45600003
0.20187384 0.016191863 0.45600003
0.20306003 0.016191863 0.45600003
0.20424622 0.016191863 0.45600003
0.20588291 0.01622737 0.45700002
0.20707172 0.01622737 0.45700002
0.20826051 0.01622737 0.45700002
0.20944931 0.01622737 0.45700002
0.21063809 0.01622737 0.45700002
0.21182689 0.01622737 0.45700002
0.21301569 0.01622737 0.45700002
0.21420449 0.01622737 0.45700002
0.21492197 0.016191863 0.45600003
0.21658207 0.01622737 0.45700002
0.21777087 0.01622737 0.45700002
0.21848054 0.016191863 0.45600003
-0.24642883 0.016806411 0.44100001
-0.24583785 0.01684452 0.44200003
-0.24468809 0.01684452 0.44200003
-0.24353831 0.01684452 0.44200003
-0.24293692 0.01688263 0.44300002
-0.24178454 0.01688263 0.44300002
-0.24063215 0.01688263 0.44300002
-0.2394798 0.01688263 0.44300002
-0.2383274 0.01688263 0.44300002
-0.23717505 0.01688263 0.44300002
-0.23655544 0.01692074 0.44400004
-0.23540045 0.01692074 0.44400004
-0.23424549 0.01692074 0.44400004
-0.23309051 0.01692074 0.44400004
-0.23193555 0.01692074 0.44400004
-0.23078056 0.01692074 0.44400004
-0.22962557 0.01692074 0.44400004
-0.22847061 0.01692074 0.44400004
-0.22731562 0.01692074 0.44400004
-0.22667001 0.01695885 0.44500002
-0.22551243 0.01695885 0.44500002
-0.22435483 0.01695885 0.44500002
-0.22319728 0.01695885 0.44500002
-0.22203968 0.01695885 0.44500002
-0.2208821 0.01695885 0.44500002
-0.21972454 0.01695885 0.44500002
-0.21856695 0.01695885 0.44500002
-0.21740937 0.01695885 0.44500002
-0.21625179 0.01695885 0.44500002
-0.21509421 0.01695885 0.44500002
-0.21345589 0.01692074 0.44400004
-0.21230091 0.01692074 0.44400004
-0.21114592 0.01692074 0.44400004
-0.20999095 0.01692074 0.44400004
-0.20883597 0.01692074 0.44400004
-0.207681 0.01692074 0.44400004
-0.20652601 0.01692074 0.44400004
-0.20537104 0.01692074 0.44400004
-0.20421606 0.01692074 0.44400004
-0.20306107 0.01692074 0.44400004
-0.2019061 0.01692074 0.44400004
-0.20075111 0.01692074 0.44400004
-0.19959614 0.01692074 0.44400004
-0.19844116 0.01692074 0.44400004
-0.19728619 0.01692074 0.44400004
-0.19613121 0.01692074 0.44400004
-0.19497623 0.01692074 0.44400004
-0.19382125 0.01692074 0.44400004
-0.19266628 0.01692074 0.44400004
-0.1915113 0.01692074 0.44400004
-0.19035633 0.01692074 0.44400004
-0.18920134 0.01692074 0.44400004
-0.18804637 0.01692074 0.44400004
-0.18689139 0.01692074 0.44400004
-0.18573642 0.01692074 0.44400004
-0.18458143 0.01692074 0.44400004
-0.18342644 0.01692074 0.44400004
-0.18227147 0.01692074 0.44400004
-0.18111649 0.01692074 0.44400004
-0.17996152 0.01692074 0.44400004
-0.17920925 0.01695885 0.44500002
-0.17805167 0.01695885 0.44500002
-0.17689408 0.01695885 0.44500002
-0.17573652 0.01695885 0.44500002
-0.17457893 0.01695885 0.44500002
-0.17342135 0.01695885 0.44500002
-0.17226377 0.01695885 0.44500002
-0.17110619 0.01695885 0.44500002
-0.16994862 0.01695885 0.44500002
-0.16879104 0.01695885 0.44500002
-0.16763344 0.01695885 0.44500002
-0.16647588 0.01695885 0.44500002
-0.1653183 0.01695885 0.44500002
-0.16416073 0.01695885 0.44500002
-0.16300315 0.01695885 0.44500002
-0.16184555 0.01695885 0.44500002
-0.16068798 0.01695885 0.44500002
-0.1595304 0.01695885 0.44500002
-0.15837282 0.01695885 0.44500002
-0.15721524 0.01695885 0.44500002
-0.15605766 0.01695885 0.44500002
-0.15490007 0.01695885 0.44500002
-0.15374251 0.01695885 0.44500002
-0.15258493 0.01695885 0.44500002
-0.15142734 0.01695885 0.44500002
-0.15026976 0.01695885 0.44500002
-0.14944726 0.016996959 0.44600001
-0.14828709 0.016996959 0.44600001
-0.14712691 0.016996959 0.44600001
-0.14596672 0.016996959 0.44600001
-0.14480653 0.016996959 0.44600001
-0.14364636 0.016996959 0.44600001
-0.14248618 0.016996959 0.44600001
-0.14132601 0.016996959 0.44600001
-0.14016582 0.016996959 0.44600001
-0.13900563 0.016996959 0.44600001
-0.13784546 0.016996959 0.44600001
-0.13668528 0.016996959 0.44600001
-0.13552509 0.016996959 0.44600001
-0.13436492 0.016996959 0.44600001
-0.13320473 0.016996959 0.44600001
-0.13204455 0.016996959 0.44600001
-0.13088438 0.016996959 0.44600001
-0.12972419 0.016996959 0.44600001
-0.12856402 0.016996959 0.44600001
-0.12740383 0.016996959 0.44600001
-0.12624365 0.016996959 0.44600001
-0.12480302 0.01695885 0.44500002
-0.12364543 0.01695885 0.44500002
-0.12248786 0.01695885 0.44500002
-0.12133028 0.01695885 0.44500002
-0.1201727 0.01695885 0.44500002
-0.11928257 0.016996959 0.44600001
-0.11812238 0.016996959 0.44600001
-0.1169622 0.016996959 0.44600001
-0.11580203 0.016996959 0.44600001
-0.11464185 0.016996959 0.44600001
-0.11348166 0.016996959 0.44600001
-0.11232148 0.016996959 0.44600001
-0.1111613 0.016996959 0.44600001
-0.11000112 0.016996959 0.44600001
-0.10884093 0.016996959 0.44600001
-0.10768076 0.016996959 0.44600001
-0.10652058 0.016996959 0.44600001
-0.10559663 0.017035069 0.44700003
-0.10443386 0.017035069 0.44700003
-0.10327107 0.017035069 0.44700003
-0.10210829 0.017035069 0.44700003
-0.1009455 0.017035069 0.44700003
-0.099782728 0.017035069 0.44700003
-0.098619945 0.017035069 0.44700003
-0.097457163 0.017035069 0.44700003
-0.096294381 0.017035069 0.44700003
-0.095131598 0.017035069 0.44700003
-0.093968816 0.017035069 0.44700003
-0.092806026 0.017035069 0.44700003
-0.091643251 0.017035069 0.44700003
-0.090480469 0.017035069 0.44700003
-0.089317687 0.017035069 0.44700003
-0.087957688 0.016996959 0.44600001
-0.086797506 0.016996959 0.44600001
-0.085637324 0.016996959 0.44600001
-0.084477141 0.016996959 0.44600001
-0.083503775 0.017035069 0.44700003
-0.082341 0.017035069 0.44700003
-0.081178211 0.017035069 0.44700003
-0.080015428 0.017035069 0.44700003
-0.078852646 0.017035069 0.44700003
-0.077689864 0.017035069 0.44700003
-0.076527089 0.017035069 0.44700003
-0.075532898 0.017073179 0.44800001
-0.074367516 0.017073179 0.44800001
-0.073202133 0.017073179 0.44800001
-0.072036751 0.017073179 0.44800001
-0.054594498 0.014862811 0.39000002
-0.053579994 0.014862811 0.39000002
-0.052565489 0.014862811 0.39000002
-0.051550977 0.014862811 0.39000002
-0.050406892 0.014824702 0.38900003
-0.049394984 0.014824702 0.38900003
-0.048383079 0.014824702 0.38900003
-0.047249392 0.014786592 0.38800001
-0.046120912 0.014748483 0.38700002
-0.045114208 0.014748483 0.38700002
0.043119334 0.013109762 0.34400001
0.044142134 0.013147872 0.34500003
0.045039583 0.013147872 0.34500003
0.045937035 0.013147872 0.34500003
0.046970233 0.013185982 0.34600002
0.047870282 0.013185982 0.34600002
0.048770335 0.013185982 0.34600002
0.049670383 0.013185982 0.34600002
0.050570436 0.013185982 0.34600002
0.051470485 0.013185982 0.34600002
0.052370537 0.013185982 0.34600002
0.053270586 0.013185982 0.34600002
0.054327197 0.013224091 0.347
0.05522985 0.013224091 0.347
0.056294266 0.013262201 0.34800002
0.057199523 0.013262201 0.34800002
0.05827174 0.013300311 0.34900001
0.059349168 0.013338421 0.35000002
0.060431793 0.01337653 0.35100001
0.061519623 0.013414641 0.35200003
0.062790021 0.013490859 0.354
0.063890859 0.01352897 0.35500002
0.064996898 0.013567079 0.35600001
0.066108137 0.01360519 0.35700002
0.067224577 0.013643298 0.35800001
0.068346232 0.013681409 0.35900003
0.069473073 0.013719519 0.36000001
0.070605129 0.013757628 0.36100003
0.0715442 0.013757628 0.36100003
0.072684057 0.013795738 0.36200002
0.073625721 0.013795738 0.36200002
0.096206032 0.017149398 0.45000002
0.097376615 0.017149398 0.45000002
0.098547198 0.017149398 0.45000002
0.099717788 0.017149398 0.45000002
0.10111257 0.017187508 0.45100003
0.10228577 0.017187508 0.45100003
0.10345895 0.017187508 0.45100003
0.10463214 0.017187508 0.45100003
0.10580532 0.017187508 0.45100003
0.10697851 0.017187508 0.45100003
0.1083915 0.017225618 0.45200002
0.10956728 0.017225618 0.45200002
0.11074308 0.017225618 0.45200002
0.11191887 0.017225618 0.45200002
0.11309465 0.017225618 0.45200002
0.11427043 0.017225618 0.45200002
