# .PCD v0.7 - Point Cloud Data file format
VERSION 0.7
FIELDS x y z
SIZE 4 4 4
TYPE F F F
COUNT 1 1 1
WIDTH 1305
HEIGHT 1
VIEWPOINT 0 0 0 1 0 0 0
POINTS 1305
DATA ascii
0.1024957 -0.00158993 0.48900002
0.10377055 -0.00158993 0.48900002
0.10483059 -0.0015866787 0.48800004
0.10610284 -0.0015866787 0.48800004
0.10671499 -0.0015769245 0.48500001
0.10753414 -0.0015704216 0.48300001
0.10811762 -0.0015606675 0.48000002
0.10868546 -0.0015509133 0.47700003
0.10923765 -0.0015411592 0.47400004
0.10954113 -0.0015281537 0.47000003
0.11005943 -0.0015183995 0.46700001
0.11056208 -0.0015086452 0.46400002
0.1110491 -0.0014988912 0.46100003
0.11152048 -0.001489137 0.45800003
0.11197621 -0.0014793827 0.45500001
0.1124163 -0.0014696285 0.45200002
0.11350347 -0.0014533716 0.44700003
0.11415575 -0.0014468689 0.44500002
0.1145385 -0.0014371147 0.44200003
0.11516733 -0.0014306119 0.44000003
0.11578573 -0.0014241091 0.43800002
0.11666067 -0.0014208577 0.43700001
0.11726083 -0.001414355 0.43500003
0.11785056 -0.0014078522 0.43300003
0.11870463 -0.0014046008 0.43200001
0.11927611 -0.001398098 0.43000001
0.12011716 -0.0013948466 0.42900002
0.12067039 -0.0013883439 0.42700002
0.12121318 -0.001381841 0.42500001
0.12174556 -0.0013753382 0.42300001
0.12226751 -0.0013688356 0.42100003
0.12277903 -0.0013623327 0.41900003
0.12328012 -0.0013558299 0.41700003
0.12377077 -0.0013493272 0.41500002
0.12425101 -0.0013428243 0.41300002
0.1247208 -0.0013363216 0.41100001
0.12518018 -0.0013298187 0.40900001
0.12562913 -0.001323316 0.40700001
0.12606765 -0.0013168133 0.40500003
0.12649573 -0.0013103104 0.40300003
0.1269134 -0.0013038077 0.40100002
0.12763973 -0.0013005562 0.40000001
0.12836085 -0.0012973049 0.39900002
0.12875244 -0.0012908021 0.39700001
0.12913361 -0.0012842993 0.39500001
0.12983388 -0.0012810479 0.39400002
0.13052891 -0.0012777965 0.39300001
0.13088402 -0.0012712938 0.39100003
0.13156602 -0.0012680424 0.39000002
0.13190287 -0.0012615395 0.38800001
0.13257185 -0.0012582882 0.38700002
0.1332356 -0.0012550368 0.38600001
0.13389416 -0.0012517854 0.38500002
0.13454749 -0.001248534 0.384
0.13519561 -0.0012452826 0.38300002
0.13583852 -0.0012420312 0.38200003
0.13683441 -0.0012420312 0.38200003
0.1374695 -0.0012387799 0.38100001
0.13809939 -0.0012355285 0.38000003
0.13872403 -0.001232277 0.37900001
0.13934349 -0.0012290257 0.37800002
0.14032894 -0.0012290257 0.37800002
0.14094058 -0.0012257743 0.377
0.14154698 -0.0012225229 0.37600002
0.14252724 -0.0012225229 0.37600002
0.14312583 -0.0012192716 0.37500003
0.14410348 -0.0012192716 0.37500003
0.14508112 -0.0012192716 0.37500003
0.14644825 -0.0012225229 0.37600002
0.14703642 -0.0012192716 0.37500003
0.14801407 -0.0012192716 0.37500003
0.14938903 -0.0012225229 0.37600002
0.15036929 -0.0012225229 0.37600002
0.15134954 -0.0012225229 0.37600002
0.15273492 -0.0012257743 0.377
-0.22975744 -0.00026095242 0.40500003
-0.22870159 -0.00026095242 0.40500003
-0.22764574 -0.00026095242 0.40500003
-0.22658987 -0.00026095242 0.40500003
-0.22609086 -0.00026159672 0.40600002
-0.2250324 -0.00026159672 0.40600002
-0.22397394 -0.00026159672 0.40600002
-0.2234645 -0.00026224105 0.40700001
-0.22240344 -0.00026224105 0.40700001
-0.22134237 -0.00026224105 0.40700001
-0.2202813 -0.00026224105 0.40700001
-0.21975884 -0.00026288538 0.40800002
-0.21869516 -0.00026288538 0.40800002
-0.21763149 -0.00026288538 0.40800002
-0.21656781 -0.00026288538 0.40800002
-0.21603231 -0.00026352971 0.40900001
-0.21496603 -0.00026352971 0.40900001
-0.21389975 -0.00026352971 0.40900001
-0.21283346 -0.00026352971 0.40900001
-0.21176715 -0.00026352971 0.40900001
-0.21070087 -0.00026352971 0.40900001
-0.20963459 -0.00026352971 0.40900001
-0.20856827 -0.00026352971 0.40900001
-0.20800935 -0.00026417404 0.41000003
-0.20694046 -0.00026417404 0.41000003
-0.20587157 -0.00026417404 0.41000003
-0.20480266 -0.00026417404 0.41000003
-0.20373376 -0.00026417404 0.41000003
-0.20315917 -0.00026481837 0.41100001
-0.20208766 -0.00026481837 0.41100001
-0.20101617 -0.00026481837 0.41100001
-0.20043115 -0.0002654627 0.41200003
-0.19935703 -0.0002654627 0.41200003
-0.19828293 -0.0002654627 0.41200003
-0.19768746 -0.00026610703 0.41300002
-0.19661076 -0.00026610703 0.41300002
-0.19553404 -0.00026610703 0.41300002
-0.19445732 -0.00026610703 0.41300002
-0.19338061 -0.00026610703 0.41300002
-0.19276953 -0.00026675136 0.41400003
-0.19169019 -0.00026675136 0.41400003
-0.19107129 -0.00026739569 0.41500002
-0.18998934 -0.00026739569 0.41500002
-0.18936262 -0.00026803999 0.41600001
-0.18827806 -0.00026803999 0.41600001
-0.18764351 -0.00026868435 0.41700003
-0.18655638 -0.00026868435 0.41700003
-0.18591399 -0.00026932865 0.41800001
-0.18482424 -0.00026932865 0.41800001
-0.18417405 -0.00026997298 0.41900003
-0.1830817 -0.00026997298 0.41900003
-0.18242367 -0.00027061731 0.42000002
-0.18132871 -0.00027061731 0.42000002
-0.17980462 -0.00026997298 0.41900003
-0.17871226 -0.00026997298 0.41900003
-0.17804381 -0.00027061731 0.42000002
-0.17694885 -0.00027061731 0.42000002
-0.17543519 -0.00026997298 0.41900003
-0.17434281 -0.00026997298 0.41900003
-0.17325047 -0.00026997298 0.41900003
-0.17256896 -0.00027061731 0.42000002
-0.17147401 -0.00027061731 0.42000002
-0.17037904 -0.00027061731 0.42000002
-0.16928408 -0.00027061731 0.42000002
-0.16818911 -0.00027061731 0.42000002
-0.16709414 -0.00027061731 0.42000002
-0.16639441 -0.00027126164 0.42100003
-0.16529685 -0.00027126164 0.42100003
-0.16419926 -0.00027126164 0.42100003
-0.1631017 -0.00027126164 0.42100003
-0.16200411 -0.00027126164 0.42100003
-0.16128874 -0.00027190597 0.42200002
-0.16018856 -0.00027190597 0.42200002
-0.15908837 -0.00027190597 0.42200002
-0.15798821 -0.00027190597 0.42200002
-0.15725978 -0.0002725503 0.42300001
-0.156157 -0.0002725503 0.42300001
-0.15505421 -0.0002725503 0.42300001
-0.15431538 -0.00027319463 0.42400002
-0.15320998 -0.00027319463 0.42400002
-0.15246333 -0.00027383893 0.42500001
-0.15135533 -0.00027383893 0.42500001
-0.15024732 -0.00027383893 0.42500001
-0.14913931 -0.00027383893 0.42500001
-0.14837962 -0.00027448329 0.42600003
-0.14726903 -0.00027448329 0.42600003
-0.14615841 -0.00027448329 0.42600003
-0.1450478 -0.00027448329 0.42600003
-0.14427507 -0.00027512759 0.42700002
-0.14316185 -0.00027512759 0.42700002
-0.14204863 -0.00027512759 0.42700002
-0.14093542 -0.00027512759 0.42700002
-0.1398222 -0.00027512759 0.42700002
-0.13870899 -0.00027512759 0.42700002
-0.13791801 -0.00027577195 0.42800003
-0.1368022 -0.00027577195 0.42800003
-0.13568637 -0.00027577195 0.42800003
-0.13488495 -0.00027641625 0.42900002
-0.13376653 -0.00027641625 0.42900002
-0.13295729 -0.00027706058 0.43000001
-0.13183627 -0.00027706058 0.43000001
-0.13071522 -0.00027706058 0.43000001
-0.12989557 -0.00027770491 0.43100002
-0.12877193 -0.00027770491 0.43100002
-0.12794445 -0.00027834924 0.43200001
-0.12681819 -0.00027834924 0.43200001
-0.12569195 -0.00027834924 0.43200001
-0.12485404 -0.00027899357 0.43300003
-0.12372519 -0.00027899357 0.43300003
-0.12287945 -0.0002796379 0.43400002
-0.12174799 -0.0002796379 0.43400002
-0.12061653 -0.0002796379 0.43400002
-0.11976037 -0.00028028223 0.43500003
-0.1186263 -0.00028028223 0.43500003
-0.11749222 -0.00028028223 0.43500003
-0.11635816 -0.00028028223 0.43500003
-0.11548896 -0.00028092656 0.43600002
-0.11435229 -0.00028092656 0.43600002
-0.1132156 -0.00028092656 0.43600002
-0.11207893 -0.00028092656 0.43600002
-0.1111967 -0.00028157086 0.43700001
-0.11005741 -0.00028157086 0.43700001
-0.10891812 -0.00028157086 0.43700001
-0.10777883 -0.00028157086 0.43700001
-0.10663955 -0.00028157086 0.43700001
-0.10550026 -0.00028157086 0.43700001
-0.10436098 -0.00028157086 0.43700001
-0.10322169 -0.00028157086 0.43700001
-0.1020824 -0.00028157086 0.43700001
-0.10094311 -0.00028157086 0.43700001
-0.09980382 -0.00028157086 0.43700001
-0.098664537 -0.00028157086 0.43700001
-0.097748429 -0.00028221519 0.43800002
-0.09660653 -0.00028221519 0.43800002
-0.095464639 -0.00028221519 0.43800002
-0.094538093 -0.00028285952 0.43900001
-0.093393587 -0.00028285952 0.43900001
-0.092459224 -0.00028350385 0.44000003
-0.091312118 -0.00028350385 0.44000003
-0.090165012 -0.00028350385 0.44000003
-0.089220218 -0.00028414818 0.44100001
-0.088070504 -0.00028414818 0.44100001
-0.086920783 -0.00028414818 0.44100001
-0.085965559 -0.00028479251 0.44200003
-0.084813237 -0.00028479251 0.44200003
-0.08385019 -0.00028543684 0.44300002
-0.082695268 -0.00028543684 0.44300002
-0.081540339 -0.00028543684 0.44300002
-0.080385409 -0.00028543684 0.44300002
-0.079409331 -0.00028608117 0.44400004
-0.078251794 -0.00028608117 0.44400004
-0.077094257 -0.00028608117 0.44400004
-0.075936727 -0.00028608117 0.44400004
-0.07494761 -0.0002867255 0.44500002
-0.073787466 -0.0002867255 0.44500002
-0.072627313 -0.0002867255 0.44500002
-0.071627773 -0.0002873698 0.44600001
-0.070465021 -0.0002873698 0.44600001
-0.069302268 -0.0002873698 0.44600001
-0.068139523 -0.0002873698 0.44600001
-0.067126945 -0.00028801415 0.44700003
-0.065961592 -0.00028801415 0.44700003
-0.064796232 -0.00028801415 0.44700003
-0.063630871 -0.00028801415 0.44700003
-0.062605262 -0.00028865846 0.44800001
-0.061437298 -0.00028865846 0.44800001
-0.060269333 -0.00028865846 0.44800001
-0.059233293 -0.00028930281 0.44900003
-0.058062714 -0.00028930281 0.44900003
-0.05701885 -0.00028994711 0.45000002
-0.055845674 -0.00028994711 0.45000002
-0.054672498 -0.00028994711 0.45000002
-0.053618204 -0.00029059144 0.45100003
-0.05244242 -0.00029059144 0.45100003
-0.051266637 -0.00029059144 0.45100003
-0.050201915 -0.00029123577 0.45200002
-0.049023524 -0.00029123577 0.45200002
-0.047845129 -0.00029123577 0.45200002
-0.046769977 -0.0002918801 0.45300001
-0.045588978 -0.0002918801 0.45300001
-0.044407979 -0.0002918801 0.45300001
-0.043322407 -0.00029252443 0.45400003
-0.0421388 -0.00029252443 0.45400003
-0.041045401 -0.00029316876 0.45500001
-0.039859187 -0.00029316876 0.45500001
-0.038672972 -0.00029316876 0.45500001
-0.037486758 -0.00029316876 0.45500001
-0.036380328 -0.00029381309 0.45600003
-0.035191506 -0.00029381309 0.45600003
-0.034002684 -0.00029381309 0.45600003
-0.032813866 -0.00029381309 0.45600003
-0.03162504 -0.00029381309 0.45600003
-0.030502966 -0.00029445742 0.45700002
-0.029311538 -0.00029445742 0.45700002
-0.028181644 -0.00029510175 0.45800003
-0.026987609 -0.00029510175 0.45800003
-0.025793573 -0.00029510175 0.45800003
-0.024653248 -0.00029574605 0.45900002
-0.023456607 -0.00029574605 0.45900002
-0.02230846 -0.00029639038 0.46000001
-0.02110921 -0.00029639038 0.46000001
-0.019953245 -0.00029703471 0.46100003
-0.018751387 -0.00029703471 0.46100003
-0.017587598 -0.00029767904 0.46200001
-0.016383136 -0.00029767904 0.46200001
-0.015211528 -0.00029832337 0.46300003
-0.014004456 -0.00029832337 0.46300003
-0.012797386 -0.00029832337 0.46300003
-0.011590315 -0.00029832337 0.46300003
-0.010405671 -0.0002989677 0.46400002
-0.0091959937 -0.0002989677 0.46400002
-0.0079863155 -0.0002989677 0.46400002
-0.0067912429 -0.00029961203 0.46500003
-0.0055789584 -0.00029961203 0.46500003
-0.004366674 -0.00029961203 0.46500003
-0.0031611728 -0.00030025636 0.46600002
-0.0019462811 -0.00030025636 0.46600002
-0.00073138939 -0.00030025636 0.46600002
0.00048350231 -0.00030025636 0.46600002
0.0017020386 -0.00030090066 0.46700001
0.0029195372 -0.00030090066 0.46700001
0.0041370359 -0.00030090066 0.46700001
0.0053545348 -0.00030090066 0.46700001
0.0065720333 -0.00030090066 0.46700001
0.0077895327 -0.00030090066 0.46700001
0.0090070311 -0.00030090066 0.46700001
0.010246424 -0.00030154502 0.46800002
0.01146653 -0.00030154502 0.46800002
0.012686635 -0.00030154502 0.46800002
0.013936456 -0.00030218932 0.46900001
0.015159169 -0.00030218932 0.46900001
0.016381882 -0.00030218932 0.46900001
0.017642133 -0.00030283368 0.47000003
0.018867452 -0.00030283368 0.47000003
0.020135522 -0.00030347798 0.47100002
0.02136345 -0.00030347798 0.47100002
0.022591377 -0.00030347798 0.47100002
0.023819303 -0.00030347798 0.47100002
0.02510041 -0.00030412231 0.47200003
0.026330944 -0.00030412231 0.47200003
0.02761987 -0.00030476664 0.47300002
0.028853012 -0.00030476664 0.47300002
0.03008615 -0.00030476664 0.47300002
0.031385511 -0.00030541097 0.47400004
0.032621257 -0.00030541097 0.47400004
0.033857007 -0.00030541097 0.47400004
0.035092752 -0.00030541097 0.47400004
0.036405142 -0.0003060553 0.47500002
0.037643496 -0.0003060553 0.47500002
0.038881857 -0.0003060553 0.47500002
0.04012021 -0.0003060553 0.47500002
0.041445635 -0.00030669963 0.47600001
0.042686597 -0.00030669963 0.47600001
0.043927558 -0.00030669963 0.47600001
0.045263413 -0.00030734396 0.47700003
0.046506982 -0.00030734396 0.47700003
0.047850661 -0.00030798826 0.47800002
0.049096834 -0.00030798826 0.47800002
0.050448332 -0.00030863262 0.47900003
0.051697116 -0.00030863262 0.47900003
0.05305643 -0.00030927692 0.48000002
0.054307822 -0.00030927692 0.48000002
0.055559214 -0.00030927692 0.48000002
0.056810606 -0.00030927692 0.48000002
0.058182959 -0.00030992128 0.48100004
0.059436958 -0.00030992128 0.48100004
0.060690954 -0.00030992128 0.48100004
0.06194495 -0.00030992128 0.48100004
0.063198946 -0.00030992128 0.48100004
0.064452946 -0.00030992128 0.48100004
0.065706946 -0.00030992128 0.48100004
0.066960938 -0.00030992128 0.48100004
0.068214945 -0.00030992128 0.48100004
0.069613367 -0.00031056558 0.48200002
0.070869967 -0.00031056558 0.48200002
0.072126575 -0.00031056558 0.48200002
0.07353542 -0.00031120991 0.48300001
0.074794635 -0.00031120991 0.48300001
0.076053843 -0.00031120991 0.48300001
0.077473126 -0.00031185424 0.48400003
0.078734949 -0.00031185424 0.48400003
0.080162048 -0.00031249857 0.48500001
0.081426471 -0.00031249857 0.48500001
0.082861394 -0.0003131429 0.48600003
0.084128425 -0.0003131429 0.48600003
0.085571177 -0.00031378723 0.48700002
0.086840816 -0.00031378723 0.48700002
0.088291384 -0.00031443156 0.48800004
0.089563631 -0.00031443156 0.48800004
0.090835877 -0.00031443156 0.48800004
0.092296869 -0.00031507589 0.48900002
0.093571723 -0.00031507589 0.48900002
0.094846576 -0.00031507589 0.48900002
0.09612143 -0.00031507589 0.48900002
0.097595453 -0.00031572019 0.49000001
0.098872915 -0.00031572019 0.49000001
0.10015038 -0.00031572019 0.49000001
0.10142784 -0.00031572019 0.49000001
0.1027053 -0.00031572019 0.49000001
0.10377055 -0.00031507589 0.48900002
0.10504541 -0.00031507589 0.48900002
0.10610284 -0.00031443156 0.48800004
0.10715505 -0.00031378723 0.48700002
0.10797942 -0.00031249857 0.48500001
0.10879335 -0.00031120991 0.48300001
0.10936901 -0.00030927692 0.48000002
0.11053077 -0.00030218932 0.46900001
0.11080036 -0.00029961203 0.46500003
0.11128999 -0.00029767904 0.46200001
0.11176397 -0.00029574605 0.45900002
0.11222231 -0.00029381309 0.45600003
0.112665 -0.0002918801 0.45300001
0.11334337 -0.00029059144 0.45100003
0.11401132 -0.00028930281 0.44900003
0.11441229 -0.0002873698 0.44600001
0.11505678 -0.00028608117 0.44400004
0.11569083 -0.00028479251 0.44200003
0.11631444 -0.00028350385 0.44000003
0.11692764 -0.00028221519 0.43800002
0.11753039 -0.00028092656 0.43600002
0.11839491 -0.00028028223 0.43500003
0.11925419 -0.0002796379 0.43400002
0.11983089 -0.00027834924 0.43200001
0.12039714 -0.00027706058 0.43000001
0.12123559 -0.00027641625 0.42900002
0.1217836 -0.00027512759 0.42700002
0.12232119 -0.00027383893 0.42500001
0.12284834 -0.0002725503 0.42300001
0.12336508 -0.00027126164 0.42100003
0.12387139 -0.00026997298 0.41900003
0.12436726 -0.00026868435 0.41700003
0.12485271 -0.00026739569 0.41500002
0.12532772 -0.00026610703 0.41300002
0.12579231 -0.00026481837 0.41100001
0.1259378 -0.00026288538 0.40800002
0.12669021 -0.00026224105 0.40700001
0.1271235 -0.00026095242 0.40500003
0.12754638 -0.00025966376 0.40300003
0.12827793 -0.00025901943 0.40200001
0.12868255 -0.00025773078 0.40000001
0.12940107 -0.00025708645 0.39900002
0.12978745 -0.00025579779 0.39700001
0.13049294 -0.00025515349 0.39600003
0.13086106 -0.00025386483 0.39400002
0.13121876 -0.00025257617 0.39200002
0.13190338 -0.00025193184 0.39100003
0.13224283 -0.00025064318 0.38900003
0.13291441 -0.00024999885 0.38800001
0.13358079 -0.00024935452 0.38700002
0.13389416 -0.00024806586 0.38500002
0.13454749 -0.00024742153 0.384
0.13554859 -0.00024742153 0.384
0.13619412 -0.00024677723 0.38300002
0.13683441 -0.0002461329 0.38200003
0.13783032 -0.0002461329 0.38200003
0.1384628 -0.00024548857 0.38100001
0.13909006 -0.00024484424 0.38000003
0.13971211 -0.00024419991 0.37900001
0.14070019 -0.00024419991 0.37900001
0.14131443 -0.00024355558 0.37800002
0.14192343 -0.00024291125 0.377
0.14290629 -0.00024291125 0.377
0.1435075 -0.00024226693 0.37600002
0.14448775 -0.00024226693 0.37600002
0.145468 -0.00024226693 0.37600002
0.14644825 -0.00024226693 0.37600002
0.14742851 -0.00024226693 0.37600002
0.14840877 -0.00024226693 0.37600002
0.14938903 -0.00024226693 0.37600002
0.15036929 -0.00024226693 0.37600002
0.15134954 -0.00024226693 0.37600002
0.15232979 -0.00024226693 0.37600002
0.15331006 -0.00024226693 0.37600002
-0.22975744 0.00079490844 0.40500003
-0.22870159 0.00079490844 0.40500003
-0.22764574 0.00079490844 0.40500003
-0.22658987 0.00079490844 0.40500003
-0.22609086 0.00079687114 0.40600002
-0.2250324 0.00079687114 0.40600002
-0.22397394 0.00079687114 0.40600002
-0.2234645 0.00079883385 0.40700001
-0.22240344 0.00079883385 0.40700001
-0.22134237 0.00079883385 0.40700001
-0.2202813 0.00079883385 0.40700001
-0.21975884 0.00080079661 0.40800002
-0.21869516 0.00080079661 0.40800002
-0.21763149 0.00080079661 0.40800002
-0.21656781 0.00080079661 0.40800002
-0.21603231 0.00080275931 0.40900001
-0.21496603 0.00080275931 0.40900001
-0.21389975 0.00080275931 0.40900001
-0.21283346 0.00080275931 0.40900001
-0.21176715 0.00080275931 0.40900001
-0.21070087 0.00080275931 0.40900001
-0.20963459 0.00080275931 0.40900001
-0.20856827 0.00080275931 0.40900001
-0.20800935 0.00080472208 0.41000003
-0.20694046 0.00080472208 0.41000003
-0.20587157 0.00080472208 0.41000003
-0.20480266 0.00080472208 0.41000003
-0.20373376 0.00080472208 0.41000003
-0.20315917 0.00080668484 0.41100001
-0.20208766 0.00080668484 0.41100001
-0.20101617 0.00080668484 0.41100001
-0.20043115 0.0008086476 0.41200003
-0.19935703 0.0008086476 0.41200003
-0.19828293 0.0008086476 0.41200003
-0.19768746 0.00081061031 0.41300002
-0.19661076 0.00081061031 0.41300002
-0.19553404 0.00081061031 0.41300002
-0.19445732 0.00081061031 0.41300002
-0.19384885 0.00081257307 0.41400003
-0.19276953 0.00081257307 0.41400003
-0.19169019 0.00081257307 0.41400003
-0.19107129 0.00081453577 0.41500002
-0.18998934 0.00081453577 0.41500002
-0.18936262 0.00081649848 0.41600001
-0.18827806 0.00081649848 0.41600001
-0.18764351 0.00081846124 0.41700003
-0.18655638 0.00081846124 0.41700003
-0.18591399 0.000820424 0.41800001
-0.18482424 0.000820424 0.41800001
-0.18417405 0.00082238676 0.41900003
-0.1830817 0.00082238676 0.41900003
-0.18198933 0.00082238676 0.41900003
-0.18089698 0.00082238676 0.41900003
-0.17980462 0.00082238676 0.41900003
-0.17871226 0.00082238676 0.41900003
-0.1776199 0.00082238676 0.41900003
-0.17694885 0.00082434947 0.42000002
-0.17543519 0.00082238676 0.41900003
-0.17434281 0.00082238676 0.41900003
-0.17325047 0.00082238676 0.41900003
-0.17256896 0.00082434947 0.42000002
-0.17147401 0.00082434947 0.42000002
-0.17037904 0.00082434947 0.42000002
-0.16928408 0.00082434947 0.42000002
-0.16818911 0.00082434947 0.42000002
-0.16709414 0.00082434947 0.42000002
-0.16639441 0.00082631223 0.42100003
-0.16529685 0.00082631223 0.42100003
-0.16419926 0.00082631223 0.42100003
-0.1631017 0.00082631223 0.42100003
-0.16238892 0.00082827493 0.42200002
-0.16128874 0.00082827493 0.42200002
-0.16018856 0.00082827493 0.42200002
-0.15908837 0.00082827493 0.42200002
-0.15798821 0.00082827493 0.42200002
-0.15725978 0.00083023764 0.42300001
-0.156157 0.00083023764 0.42300001
-0.15505421 0.00083023764 0.42300001
-0.15431538 0.0008322004 0.42400002
-0.15320998 0.0008322004 0.42400002
-0.15246333 0.0008341631 0.42500001
-0.15135533 0.0008341631 0.42500001
-0.15024732 0.0008341631 0.42500001
-0.14913931 0.0008341631 0.42500001
-0.14837962 0.00083612592 0.42600003
-0.14726903 0.00083612592 0.42600003
-0.14615841 0.00083612592 0.42600003
-0.1450478 0.00083612592 0.42600003
-0.14427507 0.00083808863 0.42700002
-0.14316185 0.00083808863 0.42700002
-0.14204863 0.00083808863 0.42700002
-0.14093542 0.00083808863 0.42700002
-0.1398222 0.00083808863 0.42700002
-0.13903384 0.00084005139 0.42800003
-0.13791801 0.00084005139 0.42800003
-0.1368022 0.00084005139 0.42800003
-0.13600339 0.00084201409 0.42900002
-0.13488495 0.00084201409 0.42900002
-0.13376653 0.00084201409 0.42900002
-0.13295729 0.0008439768 0.43000001
-0.13183627 0.0008439768 0.43000001
-0.13071522 0.0008439768 0.43000001
-0.12989557 0.00084593956 0.43100002
-0.12877193 0.00084593956 0.43100002
-0.12794445 0.00084790227 0.43200001
-0.12681819 0.00084790227 0.43200001
-0.12569195 0.00084790227 0.43200001
-0.12485404 0.00084986503 0.43300003
-0.12372519 0.00084986503 0.43300003
-0.12287945 0.00085182779 0.43400002
-0.12174799 0.00085182779 0.43400002
-0.12061653 0.00085182779 0.43400002
-0.11976037 0.00085379055 0.43500003
-0.1186263 0.00085379055 0.43500003
-0.11749222 0.00085379055 0.43500003
-0.11635816 0.00085379055 0.43500003
-0.11548896 0.00085575326 0.43600002
-0.11435229 0.00085575326 0.43600002
-0.1132156 0.00085575326 0.43600002
-0.11207893 0.00085575326 0.43600002
-0.1111967 0.00085771596 0.43700001
-0.11005741 0.00085771596 0.43700001
-0.10891812 0.00085771596 0.43700001
-0.10777883 0.00085771596 0.43700001
-0.10663955 0.00085771596 0.43700001
-0.10550026 0.00085771596 0.43700001
-0.10436098 0.00085771596 0.43700001
-0.10322169 0.00085771596 0.43700001
-0.1020824 0.00085771596 0.43700001
-0.10071212 0.00085575326 0.43600002
-0.09980382 0.00085771596 0.43700001
-0.098664537 0.00085771596 0.43700001
-0.097525254 0.00085771596 0.43700001
-0.09660653 0.00085967872 0.43800002
-0.095464639 0.00085967872 0.43800002
-0.094322741 0.00085967872 0.43800002
-0.093393587 0.00086164143 0.43900001
-0.092459224 0.00086360419 0.44000003
-0.091312118 0.00086360419 0.44000003
-0.090369932 0.00086556689 0.44100001
-0.089220218 0.00086556689 0.44100001
-0.088070504 0.00086556689 0.44100001
-0.087117881 0.00086752971 0.44200003
-0.085965559 0.00086752971 0.44200003
-0.084813237 0.00086752971 0.44200003
-0.08385019 0.00086949242 0.44300002
-0.082695268 0.00086949242 0.44300002
-0.081540339 0.00086949242 0.44300002
-0.080566868 0.00087145518 0.44400004
-0.079409331 0.00087145518 0.44400004
-0.078251794 0.00087145518 0.44400004
-0.077094257 0.00087145518 0.44400004
-0.075936727 0.00087145518 0.44400004
-0.07494761 0.00087341788 0.44500002
-0.073787466 0.00087341788 0.44500002
-0.072627313 0.00087341788 0.44500002
-0.071627773 0.00087538059 0.44600001
-0.070465021 0.00087538059 0.44600001
-0.069302268 0.00087538059 0.44600001
-0.068139523 0.00087538059 0.44600001
-0.067126945 0.00087734335 0.44700003
-0.065961592 0.00087734335 0.44700003
-0.064796232 0.00087734335 0.44700003
-0.063773222 0.00087930606 0.44800001
-0.062605262 0.00087930606 0.44800001
-0.061437298 0.00087930606 0.44800001
-0.060403865 0.00088126882 0.44900003
-0.059233293 0.00088126882 0.44900003
-0.058062714 0.00088126882 0.44900003
-0.05701885 0.00088323158 0.45000002
-0.055845674 0.00088323158 0.45000002
-0.054672498 0.00088323158 0.45000002
-0.053618204 0.00088519434 0.45100003
-0.05244242 0.00088519434 0.45100003
-0.051266637 0.00088519434 0.45100003
-0.050201915 0.00088715705 0.45200002
-0.049023524 0.00088715705 0.45200002
-0.047845129 0.00088715705 0.45200002
-0.046769977 0.00088911975 0.45300001
-0.045588978 0.00088911975 0.45300001
-0.044407979 0.00088911975 0.45300001
-0.043322407 0.00089108251 0.45400003
-0.0421388 0.00089108251 0.45400003
-0.041045401 0.00089304522 0.45500001
-0.039859187 0.00089304522 0.45500001
-0.038672972 0.00089304522 0.45500001
-0.037486758 0.00089304522 0.45500001
-0.036380328 0.00089500798 0.45600003
-0.035191506 0.00089500798 0.45600003
-0.034002684 0.00089500798 0.45600003
-0.032813866 0.00089500798 0.45600003
-0.03162504 0.00089500798 0.45600003
-0.030502966 0.00089697068 0.45700002
-0.029311538 0.00089697068 0.45700002
-0.02812011 0.00089697068 0.45700002
-0.026987609 0.0008989335 0.45800003
-0.025793573 0.0008989335 0.45800003
-0.024653248 0.00090089621 0.45900002
-0.023456607 0.00090089621 0.45900002
-0.02230846 0.00090285891 0.46000001
-0.02110921 0.00090285891 0.46000001
-0.019953245 0.00090482167 0.46100003
-0.018792061 0.00090678438 0.46200001
-0.017587598 0.00090678438 0.46200001
-0.016383136 0.00090678438 0.46200001
-0.015211528 0.00090874714 0.46300003
-0.014004456 0.00090874714 0.46300003
-0.012797386 0.00090874714 0.46300003
-0.011590315 0.00090874714 0.46300003
-0.010405671 0.00091070984 0.46400002
-0.0091959937 0.00091070984 0.46400002
-0.0079863155 0.00091070984 0.46400002
-0.0067912429 0.00091267267 0.46500003
-0.0055789584 0.00091267267 0.46500003
-0.0043760645 0.00091463537 0.46600002
-0.0031611728 0.00091463537 0.46600002
-0.0019462811 0.00091463537 0.46600002
-0.0007329589 0.00091659807 0.46700001
0.00048453984 0.00091659807 0.46700001
0.0017020386 0.00091659807 0.46700001
0.0029195372 0.00091659807 0.46700001
0.0041370359 0.00091659807 0.46700001
0.0053545348 0.00091659807 0.46700001
0.0065720333 0.00091659807 0.46700001
0.0077895327 0.00091659807 0.46700001
0.0090070311 0.00091659807 0.46700001
0.010246424 0.00091856084 0.46800002
0.01146653 0.00091856084 0.46800002
0.012686635 0.00091856084 0.46800002
0.013936456 0.00092052354 0.46900001
0.015159169 0.00092052354 0.46900001
0.01641681 0.0009224863 0.47000003
0.017642133 0.0009224863 0.47000003
0.018867452 0.0009224863 0.47000003
0.020135522 0.00092444901 0.47100002
0.02136345 0.00092444901 0.47100002
0.022591377 0.00092444901 0.47100002
0.023869876 0.00092641177 0.47200003
0.02510041 0.00092641177 0.47200003
0.026330944 0.00092641177 0.47200003
0.02761987 0.00092837453 0.47300002
0.028853012 0.00092837453 0.47300002
0.03008615 0.00092837453 0.47300002
0.031385511 0.00093033729 0.47400004
0.032621257 0.00093033729 0.47400004
0.033857007 0.00093033729 0.47400004
0.035092752 0.00093033729 0.47400004
0.036328502 0.00093033729 0.47400004
0.037643496 0.0009323 0.47500002
0.038881857 0.0009323 0.47500002
0.04012021 0.0009323 0.47500002
0.041358564 0.0009323 0.47500002
0.042596921 0.0009323 0.47500002
0.043927558 0.0009342627 0.47600001
0.045263413 0.00093622546 0.47700003
0.046506982 0.00093622546 0.47700003
0.047750555 0.00093622546 0.47700003
0.049096834 0.00093818817 0.47800002
0.050448332 0.00094015093 0.47900003
0.051697116 0.00094015093 0.47900003
0.05305643 0.00094211363 0.48000002
0.054307822 0.00094211363 0.48000002
0.055559214 0.00094211363 0.48000002
0.056810606 0.00094211363 0.48000002
0.058182959 0.00094407646 0.48100004
0.059436958 0.00094407646 0.48100004
0.060690954 0.00094407646 0.48100004
0.06194495 0.00094407646 0.48100004
0.063198946 0.00094407646 0.48100004
0.064452946 0.00094407646 0.48100004
0.065706946 0.00094407646 0.48100004
0.066960938 0.00094407646 0.48100004
0.068214945 0.00094407646 0.48100004
0.069613367 0.00094603916 0.48200002
0.070869967 0.00094603916 0.48200002
0.072126575 0.00094603916 0.48200002
0.07353542 0.00094800186 0.48300001
0.074794635 0.00094800186 0.48300001
0.076053843 0.00094800186 0.48300001
0.077473126 0.00094996463 0.48400003
0.078734949 0.00094996463 0.48400003
0.080162048 0.00095192733 0.48500001
0.081426471 0.00095192733 0.48500001
0.082861394 0.00095389009 0.48600003
0.084128425 0.00095389009 0.48600003
0.085571177 0.0009558528 0.48700002
0.086840816 0.0009558528 0.48700002
0.088291384 0.00095781556 0.48800004
0.089563631 0.00095781556 0.48800004
0.091022015 0.00095977832 0.48900002
0.092296869 0.00095977832 0.48900002
0.093571723 0.00095977832 0.48900002
0.094846576 0.00095977832 0.48900002
0.096317992 0.00096174103 0.49000001
0.097595453 0.00096174103 0.49000001
0.098872915 0.00096174103 0.49000001
0.10015038 0.00096174103 0.49000001
0.10142784 0.00096174103 0.49000001
0.1027053 0.00096174103 0.49000001
0.10398276 0.00096174103 0.49000001
0.10504541 0.00095977832 0.48900002
0.10632026 0.00095977832 0.48900002
0.10737509 0.00095781556 0.48800004
0.10842469 0.0009558528 0.48700002
0.1090186 0.00094996463 0.48400003
0.11005256 0.00094800186 0.48300001
0.11070646 0.0009323 0.47500002
0.11100212 0.00092444901 0.47100002
0.11127692 0.00091659807 0.46700001
0.11177176 0.00091070984 0.46400002
0.11200746 0.00090285891 0.46000001
0.11246841 0.00089697068 0.45700002
0.11316242 0.00089304522 0.45500001
0.11359468 0.00088715705 0.45200002
0.11426523 0.00088323158 0.45000002
0.11492535 0.00087930606 0.44800001
0.11557504 0.00087538059 0.44600001
0.11621431 0.00087145518 0.44400004
0.11684314 0.00086752971 0.44200003
0.11746155 0.00086360419 0.44000003
0.11806952 0.00085967872 0.43800002
0.11866707 0.00085575326 0.43600002
0.11952897 0.00085379055 0.43500003
0.12038566 0.00085182779 0.43400002
0.12095714 0.00084790227 0.43200001
0.12151819 0.0008439768 0.43000001
0.12206881 0.00084005139 0.42800003
0.12289682 0.00083808863 0.42700002
0.12342919 0.0008341631 0.42500001
0.12365811 0.00082827493 0.42200002
0.12446266 0.00082631223 0.42100003
0.1246655 0.000820424 0.41800001
0.12515356 0.00081649848 0.41600001
0.12563118 0.00081257307 0.41400003
0.12609838 0.0008086476 0.41200003
0.12655514 0.00080472208 0.41000003
0.12700148 0.00080079661 0.40800002
0.12743738 0.00079687114 0.40600002
0.12786287 0.00079294568 0.40400001
0.12859704 0.00079098297 0.40300003
0.12900427 0.00078705745 0.40100002
0.12972538 0.00078509469 0.40000001
0.13011438 0.00078116928 0.39800003
0.13082245 0.00077920652 0.39700001
0.13119319 0.00077528105 0.39500001
0.13188824 0.00077331829 0.39400002
0.13224073 0.00076939282 0.39200002
0.13292274 0.00076743012 0.39100003
0.13325697 0.00076350465 0.38900003
0.13392594 0.00076154189 0.38800001
0.13458972 0.00075957918 0.38700002
0.13524826 0.00075761636 0.38600001
0.1359016 0.00075565366 0.38500002
0.13654971 0.0007536909 0.384
0.13719262 0.00075172819 0.38300002
0.13783032 0.00074976549 0.38200003
0.13882622 0.00074976549 0.38200003
0.13945609 0.00074780273 0.38100001
0.14008075 0.00074584002 0.38000003
0.14070019 0.00074387726 0.37900001
0.14131443 0.0007419145 0.37800002
0.14229989 0.0007419145 0.37800002
0.14290629 0.00073995173 0.377
0.14388916 0.00073995173 0.377
0.14487202 0.00073995173 0.377
0.145468 0.00073798903 0.37600002
0.14644825 0.00073798903 0.37600002
0.14742851 0.00073798903 0.37600002
0.14840877 0.00073798903 0.37600002
0.14938903 0.00073798903 0.37600002
0.15036929 0.00073798903 0.37600002
0.15134954 0.00073798903 0.37600002
0.15232979 0.00073798903 0.37600002
-0.22975744 0.0018507692 0.40500003
-0.22870159 0.0018507692 0.40500003
-0.22764574 0.0018507692 0.40500003
-0.22714935 0.0018553389 0.40600002
-0.22609086 0.0018553389 0.40600002
-0.2250324 0.0018553389 0.40600002
-0.2245256 0.0018599087 0.40700001
-0.2234645 0.0018599087 0.40700001
-0.22240344 0.0018599087 0.40700001
-0.22134237 0.0018599087 0.40700001
-0.22082254 0.0018644786 0.40800002
-0.21975884 0.0018644786 0.40800002
-0.21869516 0.0018644786 0.40800002
-0.21763149 0.0018644786 0.40800002
-0.21656781 0.0018644786 0.40800002
-0.21603231 0.0018690483 0.40900001
-0.21496603 0.0018690483 0.40900001
-0.21389975 0.0018690483 0.40900001
-0.21283346 0.0018690483 0.40900001
-0.21176715 0.0018690483 0.40900001
-0.21070087 0.0018690483 0.40900001
-0.20963459 0.0018690483 0.40900001
-0.20856827 0.0018690483 0.40900001
-0.20750199 0.0018690483 0.40900001
-0.20694046 0.0018736181 0.41000003
-0.20587157 0.0018736181 0.41000003
-0.20480266 0.0018736181 0.41000003
-0.20373376 0.0018736181 0.41000003
-0.20315917 0.0018781879 0.41100001
-0.20208766 0.0018781879 0.41100001
-0.20101617 0.0018781879 0.41100001
-0.20043115 0.0018827578 0.41200003
-0.19935703 0.0018827578 0.41200003
-0.19828293 0.0018827578 0.41200003
-0.19720881 0.0018827578 0.41200003
-0.19661076 0.0018873275 0.41300002
-0.19553404 0.0018873275 0.41300002
-0.19445732 0.0018873275 0.41300002
-0.19384885 0.0018918974 0.41400003
-0.19276953 0.0018918974 0.41400003
-0.19215322 0.0018964672 0.41500002
-0.19107129 0.0018964672 0.41500002
-0.18998934 0.0018964672 0.41500002
-0.18936262 0.0019010368 0.41600001
-0.18827806 0.0019010368 0.41600001
-0.18764351 0.0019056067 0.41700003
-0.18655638 0.0019056067 0.41700003
-0.18591399 0.0019101765 0.41800001
-0.18482424 0.0019101765 0.41800001
-0.18417405 0.0019147464 0.41900003
-0.1830817 0.0019147464 0.41900003
-0.18198933 0.0019147464 0.41900003
-0.18089698 0.0019147464 0.41900003
-0.17980462 0.0019147464 0.41900003
-0.17871226 0.0019147464 0.41900003
-0.1776199 0.0019147464 0.41900003
-0.17694885 0.0019193161 0.42000002
-0.17543519 0.0019147464 0.41900003
-0.17434281 0.0019147464 0.41900003
-0.17325047 0.0019147464 0.41900003
-0.17256896 0.0019193161 0.42000002
-0.17147401 0.0019193161 0.42000002
-0.17037904 0.0019193161 0.42000002
-0.16928408 0.0019193161 0.42000002
-0.16818911 0.0019193161 0.42000002
-0.16709414 0.0019193161 0.42000002
-0.16639441 0.001923886 0.42100003
-0.16529685 0.001923886 0.42100003
-0.16419926 0.001923886 0.42100003
-0.1631017 0.001923886 0.42100003
-0.16238892 0.0019284558 0.42200002
-0.16128874 0.0019284558 0.42200002
-0.16018856 0.0019284558 0.42200002
-0.15908837 0.0019284558 0.42200002
-0.15798821 0.0019284558 0.42200002
-0.15725978 0.0019330254 0.42300001
-0.156157 0.0019330254 0.42300001
-0.15505421 0.0019330254 0.42300001
-0.15431538 0.0019375953 0.42400002
-0.15320998 0.0019375953 0.42400002
-0.15246333 0.0019421651 0.42500001
-0.15135533 0.0019421651 0.42500001
-0.15024732 0.0019421651 0.42500001
-0.14949024 0.001946735 0.42600003
-0.14837962 0.001946735 0.42600003
-0.14726903 0.001946735 0.42600003
-0.14615841 0.001946735 0.42600003
-0.1450478 0.001946735 0.42600003
-0.14427507 0.0019513047 0.42700002
-0.14316185 0.0019513047 0.42700002
-0.14204863 0.0019513047 0.42700002
-0.14093542 0.0019513047 0.42700002
-0.1398222 0.0019513047 0.42700002
-0.13903384 0.0019558745 0.42800003
-0.13791801 0.0019558745 0.42800003
-0.1368022 0.0019558745 0.42800003
-0.13600339 0.0019604443 0.42900002
-0.13488495 0.0019604443 0.42900002
-0.13376653 0.0019604443 0.42900002
-0.13295729 0.001965014 0.43000001
-0.13183627 0.001965014 0.43000001
-0.13071522 0.001965014 0.43000001
-0.12989557 0.001969584 0.43100002
-0.12877193 0.001969584 0.43100002
-0.12794445 0.0019741538 0.43200001
-0.12681819 0.0019741538 0.43200001
-0.12569195 0.0019741538 0.43200001
-0.12485404 0.0019787236 0.43300003
-0.12372519 0.0019787236 0.43300003
-0.12287945 0.0019832933 0.43400002
-0.12174799 0.0019832933 0.43400002
-0.12061653 0.0019832933 0.43400002
-0.11948505 0.0019832933 0.43400002
-0.1186263 0.0019878631 0.43500003
-0.11749222 0.0019878631 0.43500003
-0.11635816 0.0019878631 0.43500003
-0.11548896 0.0019924329 0.43600002
-0.11435229 0.0019924329 0.43600002
-0.1132156 0.0019924329 0.43600002
-0.11207893 0.0019924329 0.43600002
-0.1111967 0.0019970026 0.43700001
-0.11005741 0.0019970026 0.43700001
-0.10891812 0.0019970026 0.43700001
-0.10777883 0.0019970026 0.43700001
-0.10663955 0.0019970026 0.43700001
-0.10550026 0.0019970026 0.43700001
-0.10436098 0.0019970026 0.43700001
-0.10322169 0.0019970026 0.43700001
-0.1020824 0.0019970026 0.43700001
-0.10071212 0.0019924329 0.43600002
-0.099575445 0.0019924329 0.43600002
-0.098664537 0.0019970026 0.43700001
-0.097525254 0.0019970026 0.43700001
-0.096385963 0.0019970026 0.43700001
-0.095464639 0.0020015726 0.43800002
-0.094322741 0.0020015726 0.43800002
-0.093393587 0.0020061424 0.43900001
-0.092459224 0.0020107122 0.44000003
-0.091312118 0.0020107122 0.44000003
-0.090369932 0.0020152819 0.44100001
-0.089220218 0.0020152819 0.44100001
-0.088070504 0.0020152819 0.44100001
-0.087117881 0.0020198517 0.44200003
-0.085965559 0.0020198517 0.44200003
-0.085005119 0.0020244215 0.44300002
-0.08385019 0.0020244215 0.44300002
-0.082695268 0.0020244215 0.44300002
-0.081540339 0.0020244215 0.44300002
-0.080566868 0.0020289915 0.44400004
-0.079409331 0.0020289915 0.44400004
-0.078251794 0.0020289915 0.44400004
-0.077094257 0.0020289915 0.44400004
-0.075936727 0.0020289915 0.44400004
-0.07494761 0.0020335612 0.44500002
-0.073787466 0.0020335612 0.44500002
-0.072790518 0.002038131 0.44600001
-0.071627773 0.002038131 0.44600001
-0.070465021 0.002038131 0.44600001
-0.069302268 0.002038131 0.44600001
-0.068139523 0.002038131 0.44600001
-0.067126945 0.0020427008 0.44700003
-0.065961592 0.0020427008 0.44700003
-0.064796232 0.0020427008 0.44700003
-0.063773222 0.0020472705 0.44800001
-0.062605262 0.0020472705 0.44800001
-0.061437298 0.0020472705 0.44800001
-0.060403865 0.0020518403 0.44900003
-0.059233293 0.0020518403 0.44900003
-0.058062714 0.0020518403 0.44900003
-0.056892145 0.0020518403 0.44900003
-0.055845674 0.0020564101 0.45000002
-0.054672498 0.0020564101 0.45000002
-0.053618204 0.0020609801 0.45100003
-0.05244242 0.0020609801 0.45100003
-0.051266637 0.0020609801 0.45100003
-0.050201915 0.0020655498 0.45200002
-0.049023524 0.0020655498 0.45200002
-0.047845129 0.0020655498 0.45200002
-0.046769977 0.0020701196 0.45300001
-0.045588978 0.0020701196 0.45300001
-0.044506013 0.0020746894 0.45400003
-0.043322407 0.0020746894 0.45400003
-0.0421388 0.0020746894 0.45400003
-0.041045401 0.0020792591 0.45500001
-0.039859187 0.0020792591 0.45500001
-0.038672972 0.0020792591 0.45500001
-0.037569147 0.0020838289 0.45600003
-0.036380328 0.0020838289 0.45600003
-0.035191506 0.0020838289 0.45600003
-0.034002684 0.0020838289 0.45600003
-0.032813866 0.0020838289 0.45600003
-0.03162504 0.0020838289 0.45600003
-0.030502966 0.0020883987 0.45700002
-0.029311538 0.0020883987 0.45700002
-0.028181644 0.0020929687 0.45800003
-0.026987609 0.0020929687 0.45800003
-0.025793573 0.0020929687 0.45800003
-0.024653248 0.0020975384 0.45900002
-0.023507709 0.002102108 0.46000001
-0.02230846 0.002102108 0.46000001
-0.0211551 0.002106678 0.46100003
-0.019953245 0.002106678 0.46100003
-0.018792061 0.0021112477 0.46200001
-0.017587598 0.0021112477 0.46200001
-0.016383136 0.0021112477 0.46200001
-0.015211528 0.0021158175 0.46300003
-0.014004456 0.0021158175 0.46300003
-0.012797386 0.0021158175 0.46300003
-0.011590315 0.0021158175 0.46300003
-0.010405671 0.0021203873 0.46400002
-0.0091959937 0.0021203873 0.46400002
-0.0079863155 0.0021203873 0.46400002
-0.0067912429 0.0021249573 0.46500003
-0.0055789584 0.0021249573 0.46500003
-0.004366674 0.0021249573 0.46500003
-0.0031611728 0.002129527 0.46600002
-0.0019462811 0.002129527 0.46600002
-0.00073138939 0.002129527 0.46600002
0.00048350231 0.002129527 0.46600002
0.001698394 0.002129527 0.46600002
0.0029195372 0.0021340966 0.46700001
0.0041370359 0.0021340966 0.46700001
0.0053545348 0.0021340966 0.46700001
0.0065720333 0.0021340966 0.46700001
0.0077895327 0.0021340966 0.46700001
0.0090070311 0.0021340966 0.46700001
0.01022453 0.0021340966 0.46700001
0.01146653 0.0021386666 0.46800002
0.012686635 0.0021386666 0.46800002
0.013936456 0.0021432363 0.46900001
0.015159169 0.0021432363 0.46900001
0.016381882 0.0021432363 0.46900001
0.017642133 0.0021478061 0.47000003
0.018867452 0.0021478061 0.47000003
0.020135522 0.0021523759 0.47100002
0.02136345 0.0021523759 0.47100002
0.022591377 0.0021523759 0.47100002
0.023869876 0.0021569459 0.47200003
0.02510041 0.0021569459 0.47200003
0.026330944 0.0021569459 0.47200003
0.02761987 0.0021615156 0.47300002
0.028853012 0.0021615156 0.47300002
0.03008615 0.0021615156 0.47300002
0.031319294 0.0021615156 0.47300002
0.032621257 0.0021660854 0.47400004
0.033857007 0.0021660854 0.47400004
0.035092752 0.0021660854 0.47400004
0.036328502 0.0021660854 0.47400004
0.037564248 0.0021660854 0.47400004
0.038881857 0.0021706552 0.47500002
0.04012021 0.0021706552 0.47500002
0.041358564 0.0021706552 0.47500002
0.042596921 0.0021706552 0.47500002
0.043927558 0.0021752249 0.47600001
0.045168519 0.0021752249 0.47600001
0.046506982 0.0021797947 0.47700003
0.047750555 0.0021797947 0.47700003
0.049096834 0.0021843645 0.47800002
0.050448332 0.0021889345 0.47900003
0.051697116 0.0021889345 0.47900003
0.05305643 0.0021935042 0.48000002
0.054307822 0.0021935042 0.48000002
0.055559214 0.0021935042 0.48000002
0.056810606 0.0021935042 0.48000002
0.058061995 0.0021935042 0.48000002
0.059313387 0.0021935042 0.48000002
0.060690954 0.002198074 0.48100004
0.06194495 0.002198074 0.48100004
0.063198946 0.002198074 0.48100004
0.064452946 0.002198074 0.48100004
0.065706946 0.002198074 0.48100004
0.066960938 0.002198074 0.48100004
0.068214945 0.002198074 0.48100004
0.069468938 0.002198074 0.48100004
0.070869967 0.0022026438 0.48200002
0.072126575 0.0022026438 0.48200002
0.07353542 0.0022072135 0.48300001
0.074794635 0.0022072135 0.48300001
0.076053843 0.0022072135 0.48300001
0.077473126 0.0022117833 0.48400003
0.078734949 0.0022117833 0.48400003
0.080162048 0.0022163531 0.48500001
0.081594363 0.0022209231 0.48600003
0.082861394 0.0022209231 0.48600003
0.084128425 0.0022209231 0.48600003
0.085571177 0.0022254928 0.48700002
0.087019138 0.0022300626 0.48800004
0.088291384 0.0022300626 0.48800004
0.089563631 0.0022300626 0.48800004
0.091022015 0.0022346324 0.48900002
0.092296869 0.0022346324 0.48900002
0.093571723 0.0022346324 0.48900002
0.09504053 0.0022392021 0.49000001
0.096317992 0.0022392021 0.49000001
0.097595453 0.0022392021 0.49000001
0.098872915 0.0022392021 0.49000001
0.10015038 0.0022392021 0.49000001
0.10163483 0.0022437719 0.49100003
0.10291491 0.0022437719 0.49100003
0.10398276 0.0022392021 0.49000001
0.10526022 0.0022392021 0.49000001
0.10653768 0.0022392021 0.49000001
0.10759512 0.0022346324 0.48900002
0.10864734 0.0022300626 0.48800004
0.10969433 0.0022254928 0.48700002
0.11050827 0.0022163531 0.48500001
0.11108132 0.0022026438 0.48200002
0.11140566 0.0021843645 0.47800002
0.11170914 0.0021660854 0.47400004
0.11249442 0.0021340966 0.46700001
0.11273795 0.0021158175 0.46300003
0.11320671 0.002102108 0.46000001
0.11365984 0.0020883987 0.45700002
0.11434863 0.0020792591 0.45500001
0.115027 0.0020701196 0.45300001
0.1154384 0.0020564101 0.45000002
0.11609332 0.0020472705 0.44800001
0.1167378 0.002038131 0.44600001
0.11737184 0.0020289915 0.44400004
0.11799547 0.0020198517 0.44200003
0.11860865 0.0020107122 0.44000003
0.11921142 0.0020015726 0.43800002
0.12007853 0.0019970026 0.43700001
0.12066305 0.0019878631 0.43500003
0.12151712 0.0019832933 0.43400002
0.12208339 0.0019741538 0.43200001
0.12263922 0.001965014 0.43000001
0.12318464 0.0019558745 0.42800003
0.12401003 0.0019513047 0.42700002
0.12453719 0.0019421651 0.42500001
0.1247583 0.0019284558 0.42200002
0.12526198 0.0019193161 0.42000002
0.12575525 0.0019101765 0.41800001
0.12623809 0.0019010368 0.41600001
0.1267105 0.0018918974 0.41400003
0.12717248 0.0018827578 0.41200003
0.12762405 0.0018736181 0.41000003
0.12806515 0.0018644786 0.40800002
0.12849586 0.0018553389 0.40600002
0.12891613 0.0018461993 0.40400001
0.12964769 0.0018416296 0.40300003
0.13004969 0.00183249 0.40100002
0.13076821 0.0018279201 0.40000001
0.13115199 0.0018187806 0.39800003
0.13185745 0.0018142107 0.39700001
0.13222298 0.0018050711 0.39500001
0.13291542 0.0018005014 0.39400002
0.13326269 0.0017913617 0.39200002
0.1339421 0.001786792 0.39100003
0.13427113 0.0017776524 0.38900003
0.13493748 0.0017730825 0.38800001
0.13559864 0.0017685128 0.38700002
0.13625458 0.0017639429 0.38600001
0.13690531 0.0017593731 0.38500002
0.13755082 0.0017548032 0.384
0.13819113 0.0017502335 0.38300002
0.13882622 0.0017456638 0.38200003
0.13982213 0.0017456638 0.38200003
0.14044939 0.0017410939 0.38100001
0.14107144 0.0017365242 0.38000003
0.14168827 0.0017319543 0.37900001
0.14267634 0.0017319543 0.37900001
0.14328536 0.0017273845 0.37800002
0.14427082 0.0017273845 0.37800002
0.14487202 0.0017228146 0.377
0.14585488 0.0017228146 0.377
0.14644825 0.0017182449 0.37600002
0.14742851 0.0017182449 0.37600002
0.14840877 0.0017182449 0.37600002
0.14938903 0.0017182449 0.37600002
0.15036929 0.0017182449 0.37600002
0.15134954 0.0017182449 0.37600002
0.15232979 0.0017182449 0.37600002
0.15331006 0.0017182449 0.37600002
0.1542903 0.0017182449 0.37600002
-0.22975744 0.00290663 0.40500003
-0.22870159 0.00290663 0.40500003
-0.22820781 0.0029138068 0.40600002
-0.22714935 0.0029138068 0.40600002
-0.22609086 0.0029138068 0.40600002
-0.2250324 0.0029138068 0.40600002
-0.2245256 0.0029209836 0.40700001
-0.2234645 0.0029209836 0.40700001
-0.22240344 0.0029209836 0.40700001
-0.22134237 0.0029209836 0.40700001
-0.22082254 0.0029281606 0.40800002
-0.21975884 0.0029281606 0.40800002
-0.21869516 0.0029281606 0.40800002
-0.21763149 0.0029281606 0.40800002
-0.21656781 0.0029281606 0.40800002
-0.21603231 0.0029353374 0.40900001
-0.21496603 0.0029353374 0.40900001
-0.21389975 0.0029353374 0.40900001
-0.21283346 0.0029353374 0.40900001
-0.21176715 0.0029353374 0.40900001
-0.21070087 0.0029353374 0.40900001
-0.20963459 0.0029353374 0.40900001
-0.20856827 0.0029353374 0.40900001
-0.20750199 0.0029353374 0.40900001
-0.20694046 0.0029425144 0.41000003
-0.20587157 0.0029425144 0.41000003
-0.20480266 0.0029425144 0.41000003
-0.20373376 0.0029425144 0.41000003
-0.20315917 0.0029496911 0.41100001
-0.20208766 0.0029496911 0.41100001
-0.20101617 0.0029496911 0.41100001
-0.20043115 0.0029568681 0.41200003
-0.19935703 0.0029568681 0.41200003
-0.19828293 0.0029568681 0.41200003
-0.19720881 0.0029568681 0.41200003
-0.19661076 0.0029640449 0.41300002
-0.19553404 0.0029640449 0.41300002
-0.19445732 0.0029640449 0.41300002
-0.19384885 0.0029712219 0.41400003
-0.19276953 0.0029712219 0.41400003
-0.19215322 0.0029783987 0.41500002
-0.19107129 0.0029783987 0.41500002
-0.19044715 0.0029855755 0.41600001
-0.18936262 0.0029855755 0.41600001
-0.18827806 0.0029855755 0.41600001
-0.18764351 0.0029927525 0.41700003
-0.18655638 0.0029927525 0.41700003
-0.18591399 0.0029999292 0.41800001
-0.18482424 0.0029999292 0.41800001
-0.18373449 0.0029999292 0.41800001
-0.1830817 0.0030071063 0.41900003
-0.18198933 0.0030071063 0.41900003
-0.18089698 0.0030071063 0.41900003
-0.17980462 0.0030071063 0.41900003
-0.17871226 0.0030071063 0.41900003
-0.1776199 0.0030071063 0.41900003
-0.17652754 0.0030071063 0.41900003
-0.17585388 0.003014283 0.42000002
-0.17434281 0.0030071063 0.41900003
-0.17325047 0.0030071063 0.41900003
-0.17256896 0.003014283 0.42000002
-0.17147401 0.003014283 0.42000002
-0.17037904 0.003014283 0.42000002
-0.16928408 0.003014283 0.42000002
-0.16818911 0.003014283 0.42000002
-0.16709414 0.003014283 0.42000002
-0.16639441 0.00302146 0.42100003
-0.16529685 0.00302146 0.42100003
-0.16419926 0.00302146 0.42100003
-0.1631017 0.00302146 0.42100003
-0.16238892 0.0030286368 0.42200002
-0.16128874 0.0030286368 0.42200002
-0.16018856 0.0030286368 0.42200002
-0.15908837 0.0030286368 0.42200002
-0.15798821 0.0030286368 0.42200002
-0.15725978 0.0030358136 0.42300001
-0.156157 0.0030358136 0.42300001
-0.15505421 0.0030358136 0.42300001
-0.15431538 0.0030429906 0.42400002
-0.15320998 0.0030429906 0.42400002
-0.15246333 0.0030501673 0.42500001
-0.15135533 0.0030501673 0.42500001
-0.15024732 0.0030501673 0.42500001
-0.14949024 0.0030573444 0.42600003
-0.14837962 0.0030573444 0.42600003
-0.14726903 0.0030573444 0.42600003
-0.14615841 0.0030573444 0.42600003
-0.14538829 0.0030645211 0.42700002
-0.14427507 0.0030645211 0.42700002
-0.14316185 0.0030645211 0.42700002
-0.14204863 0.0030645211 0.42700002
-0.14093542 0.0030645211 0.42700002
-0.14014965 0.0030716981 0.42800003
-0.13903384 0.0030716981 0.42800003
-0.13791801 0.0030716981 0.42800003
-0.1368022 0.0030716981 0.42800003
-0.13600339 0.0030788749 0.42900002
-0.13488495 0.0030788749 0.42900002
-0.13376653 0.0030788749 0.42900002
-0.13295729 0.0030860517 0.43000001
-0.13183627 0.0030860517 0.43000001
-0.13071522 0.0030860517 0.43000001
-0.12989557 0.0030932284 0.43100002
-0.12877193 0.0030932284 0.43100002
-0.12794445 0.0031004052 0.43200001
-0.12681819 0.0031004052 0.43200001
-0.12569195 0.0031004052 0.43200001
-0.12485404 0.0031075822 0.43300003
-0.12372519 0.0031075822 0.43300003
