# .PCD v0.7 - Point Cloud Data file format
VERSION 0.7
FIELDS x y z
SIZE 4 4 4
TYPE F F F
COUNT 1 1 1
WIDTH 1342
HEIGHT 1
VIEWPOINT 0 0 0 1 0 0 0
POINTS 1342
DATA ascii
-0.2860713 -0.075933836 0.54700005
-0.28464526 -0.075933836 0.54700005
-0.28321916 -0.075933836 0.54700005
-0.28127792 -0.07579501 0.546
-0.27985448 -0.07579501 0.546
-0.27792105 -0.075656191 0.54500002
-0.27650023 -0.075656191 0.54500002
-0.27457464 -0.075517371 0.54400003
-0.27265429 -0.07537856 0.54300004
-0.27123865 -0.07537856 0.54300004
-0.26932612 -0.07523974 0.54200006
-0.26741877 -0.075100914 0.54100001
-0.26600832 -0.075100914 0.54100001
-0.26410884 -0.074962102 0.54000002
-0.26221454 -0.074823283 0.53900003
-0.26080933 -0.074823283 0.53900003
-0.25940412 -0.074823283 0.53900003
-0.25752026 -0.074684463 0.53800005
-0.25564158 -0.074545637 0.537
-0.25424159 -0.074545637 0.537
-0.25284159 -0.074545637 0.537
-0.25097337 -0.074406825 0.53600001
-0.24957599 -0.074406825 0.53600001
-0.2481786 -0.074406825 0.53600001
-0.24632081 -0.074268006 0.53500003
-0.24492602 -0.074268006 0.53500003
-0.24353126 -0.074268006 0.53500003
-0.24168389 -0.074129187 0.53400004
-0.23984173 -0.073990375 0.53300005
-0.23845217 -0.073990375 0.53300005
-0.2366178 -0.073851548 0.53200001
-0.23523086 -0.073851548 0.53200001
-0.23340434 -0.073712729 0.53100002
-0.23201999 -0.073712729 0.53100002
-0.2302013 -0.07357391 0.53000003
-0.22881956 -0.07357391 0.53000003
-0.22743782 -0.07357391 0.53000003
-0.22562957 -0.073435098 0.52900004
-0.22425042 -0.073435098 0.52900004
-0.22244997 -0.073296271 0.528
-0.22107343 -0.073296271 0.528
-0.21928081 -0.073157452 0.52700001
-0.21790689 -0.073157452 0.52700001
-0.21612209 -0.07301864 0.52600002
-0.21475078 -0.07301864 0.52600002
-0.2129738 -0.072879821 0.52500004
-0.2116051 -0.072879821 0.52500004
-0.21023639 -0.072879821 0.52500004
-0.20886768 -0.072879821 0.52500004
-0.20710374 -0.072741002 0.52400005
-0.20573765 -0.072741002 0.52400005
-0.20398149 -0.072602175 0.523
-0.202618 -0.072602175 0.523
-0.2012545 -0.072602175 0.523
-0.19950882 -0.072463363 0.52200001
-0.19814794 -0.072463363 0.52200001
-0.19678704 -0.072463363 0.52200001
-0.19505179 -0.072324544 0.52100003
-0.1936935 -0.072324544 0.52100003
-0.19233522 -0.072324544 0.52100003
-0.19061038 -0.072185725 0.52000004
-0.18925472 -0.072185725 0.52000004
-0.1875377 -0.072046913 0.51900005
-0.18618464 -0.072046913 0.51900005
-0.18447542 -0.071908087 0.51800001
-0.18312497 -0.071908087 0.51800001
-0.18142359 -0.071769267 0.51700002
-0.18007573 -0.071769267 0.51700002
-0.17838219 -0.071630448 0.51600003
-0.17703694 -0.071630448 0.51600003
-0.17535122 -0.071491636 0.51500005
-0.17367068 -0.07135281 0.514
-0.17233066 -0.07135281 0.514
-0.17065796 -0.07121399 0.51300001
-0.16932054 -0.07121399 0.51300001
-0.16765566 -0.071075179 0.51200002
-0.16632086 -0.071075179 0.51200002
-0.16466379 -0.070936359 0.51100004
-0.1633316 -0.070936359 0.51100004
-0.16199937 -0.070936359 0.51100004
-0.16035275 -0.07079754 0.51000005
-0.15871133 -0.070658714 0.509
-0.15707512 -0.070519902 0.50800002
-0.15544416 -0.070381083 0.50700003
-0.15381838 -0.070242263 0.50600004
-0.15219782 -0.070103444 0.505
-0.15058248 -0.069964625 0.50400001
-0.14838003 -0.069548175 0.50100005
-0.13858365 -0.067327067 0.48500001
-0.13618669 -0.066771798 0.48100004
-0.13437162 -0.066494159 0.47900003
-0.13284492 -0.06635534 0.47800002
-0.13159874 -0.06635534 0.47800002
-0.13035257 -0.06635534 0.47800002
-0.12910639 -0.06635534 0.47800002
-0.12786022 -0.06635534 0.47800002
-0.12634917 -0.066216521 0.47700003
-0.12484332 -0.066077702 0.47600001
-0.12334269 -0.065938883 0.47500002
-0.12184728 -0.065800071 0.47400004
-0.12010261 -0.065522432 0.47200003
-0.11862023 -0.065383606 0.47100002
-0.11714306 -0.065244794 0.47000003
-0.11542448 -0.064967155 0.46800002
-0.11371632 -0.064689517 0.46600002
-0.11226001 -0.064550698 0.46500003
-0.11080891 -0.064411879 0.46400002
-0.10579393 -0.063578971 0.45800003
-0.10414313 -0.063301332 0.45600003
-0.10250275 -0.063023694 0.45400003
-0.099914968 -0.062884867 0.45300001
-0.098516017 -0.062746055 0.45200002
-0.097337626 -0.062746055 0.45200002
-0.096159235 -0.062746055 0.45200002
-0.094980843 -0.062746055 0.45200002
-0.093802452 -0.062746055 0.45200002
-0.092624061 -0.062746055 0.45200002
-0.091445662 -0.062746055 0.45200002
-0.090267271 -0.062746055 0.45200002
-0.088891774 -0.062607236 0.45100003
-0.087715991 -0.062607236 0.45100003
-0.086540207 -0.062607236 0.45100003
-0.085364424 -0.062607236 0.45100003
-0.084188633 -0.062607236 0.45100003
-0.083012849 -0.062607236 0.45100003
-0.081837066 -0.062607236 0.45100003
-0.080661282 -0.062607236 0.45100003
-0.079485498 -0.062607236 0.45100003
-0.078309707 -0.062607236 0.45100003
-0.076962896 -0.062468417 0.45000002
-0.075789712 -0.062468417 0.45000002
-0.074616536 -0.062468417 0.45000002
-0.073606558 -0.062607236 0.45100003
-0.072591372 -0.062746055 0.45200002
-0.071570978 -0.062884867 0.45300001
-0.07054536 -0.063023694 0.45400003
-0.069667317 -0.063301332 0.45600003
-0.068778843 -0.063578971 0.45800003
-0.06787993 -0.063856602 0.46000001
-0.06711556 -0.064273059 0.46300003
-0.066335544 -0.064689517 0.46600002
-0.065539882 -0.065105967 0.46900001
-0.064591445 -0.065383606 0.47100002
-0.063767105 -0.065800071 0.47400004
-0.062795199 -0.066077702 0.47600001
-0.061812866 -0.06635534 0.47800002
-0.060693402 -0.066494159 0.47900003
-0.059568722 -0.066632979 0.48000002
-0.05831733 -0.066632979 0.48000002
-0.057184827 -0.066771798 0.48100004
-0.055930831 -0.066771798 0.48100004
-0.054676831 -0.066771798 0.48100004
-0.053422835 -0.066771798 0.48100004
-0.052168839 -0.066771798 0.48100004
-0.050914843 -0.066771798 0.48100004
-0.049660839 -0.066771798 0.48100004
-0.048406843 -0.066771798 0.48100004
-0.047152847 -0.066771798 0.48100004
-0.045803424 -0.066632979 0.48000002
-0.044552032 -0.066632979 0.48000002
-0.043300644 -0.066632979 0.48000002
-0.041961651 -0.066494159 0.47900003
-0.040712867 -0.066494159 0.47900003
-0.039381694 -0.06635534 0.47800002
-0.038135517 -0.06635534 0.47800002
-0.036889341 -0.06635534 0.47800002
-0.035568599 -0.066216521 0.47700003
-0.03432503 -0.066216521 0.47700003
-0.033012103 -0.066077702 0.47600001
-0.031704396 -0.065938883 0.47500002
-0.030466041 -0.065938883 0.47500002
-0.029166155 -0.065800071 0.47400004
-0.027930407 -0.065800071 0.47400004
-0.026694657 -0.065800071 0.47400004
-0.025405198 -0.065661244 0.47300002
-0.024172058 -0.065661244 0.47300002
-0.022938916 -0.065661244 0.47300002
-0.021659886 -0.065522432 0.47200003
-0.020429352 -0.065522432 0.47200003
-0.019158142 -0.065383606 0.47100002
-0.017930215 -0.065383606 0.47100002
-0.016702289 -0.065383606 0.47100002
-0.015474361 -0.065383606 0.47100002
-0.014216186 -0.065244794 0.47000003
-0.012990868 -0.065244794 0.47000003
-0.011765547 -0.065244794 0.47000003
-0.010517801 -0.065105967 0.46900001
-0.0092950882 -0.065105967 0.46900001
-0.0080723744 -0.065105967 0.46900001
-0.0068496619 -0.065105967 0.46900001
-0.0056149517 -0.064967155 0.46800002
-0.004385455 -0.064828329 0.46700001
-0.0031679564 -0.064828329 0.46700001
-0.0019462811 -0.064689517 0.46600002
-0.00073138939 -0.064689517 0.46600002
0.00048246476 -0.064550698 0.46500003
0.0016947495 -0.064550698 0.46500003
0.002907034 -0.064550698 0.46500003
0.0041104602 -0.064411879 0.46400002
0.0053201374 -0.064411879 0.46400002
0.0065157423 -0.064273059 0.46300003
0.0077228132 -0.064273059 0.46300003
0.0089298831 -0.064273059 0.46300003
0.010115059 -0.06413424 0.46200001
0.011319524 -0.06413424 0.46200001
0.012523986 -0.06413424 0.46200001
0.013698735 -0.063995421 0.46100003
0.014868268 -0.063856602 0.46000001
0.016067516 -0.063856602 0.46000001
0.017266767 -0.063856602 0.46000001
0.018425873 -0.063717782 0.45900002
0.019622514 -0.063717782 0.45900002
0.020773802 -0.063578971 0.45800003
0.021967836 -0.063578971 0.45800003
0.023161871 -0.063578971 0.45800003
0.024302727 -0.063440144 0.45700002
0.025494155 -0.063440144 0.45700002
0.026685582 -0.063440144 0.45700002
0.027877012 -0.063440144 0.45700002
0.029004831 -0.063301332 0.45600003
0.030193655 -0.063301332 0.45600003
0.031382475 -0.063301332 0.45600003
0.032499868 -0.063162506 0.45500001
0.033686079 -0.063162506 0.45500001
0.034872293 -0.063162506 0.45500001
0.03597926 -0.063023694 0.45400003
0.03716287 -0.063023694 0.45400003
0.03826201 -0.062884867 0.45300001
0.039443009 -0.062884867 0.45300001
0.040624008 -0.062884867 0.45300001
0.041712724 -0.062746055 0.45200002
0.042891115 -0.062746055 0.45200002
0.04406951 -0.062746055 0.45200002
0.045247905 -0.062746055 0.45200002
0.046426296 -0.062746055 0.45200002
0.04749937 -0.062607236 0.45100003
0.048675157 -0.062607236 0.45100003
0.049850941 -0.062607236 0.45100003
0.051026724 -0.062607236 0.45100003
0.052086763 -0.062468417 0.45000002
0.053259943 -0.062468417 0.45000002
0.054433122 -0.062468417 0.45000002
0.05548273 -0.062329598 0.44900003
0.056653302 -0.062329598 0.44900003
0.057823874 -0.062329598 0.44900003
0.058863051 -0.062190779 0.44800001
0.060031015 -0.062190779 0.44800001
0.06119898 -0.062190779 0.44800001
0.062227733 -0.062051959 0.44700003
0.063393094 -0.062051959 0.44700003
0.064558454 -0.062051959 0.44700003
0.065576777 -0.06191314 0.44600001
0.066739522 -0.06191314 0.44600001
0.067750029 -0.061774325 0.44500002
0.068910174 -0.061774325 0.44500002
0.069912858 -0.061635505 0.44400004
0.071070395 -0.061635505 0.44400004
0.072227925 -0.061635505 0.44400004
0.073220178 -0.061496686 0.44300002
0.074375108 -0.061496686 0.44300002
0.075530037 -0.061496686 0.44300002
0.076684967 -0.061496686 0.44300002
0.077664189 -0.061357867 0.44200003
0.078816511 -0.061357867 0.44200003
0.079968832 -0.061357867 0.44200003
0.080937624 -0.061219048 0.44100001
0.082087338 -0.061219048 0.44100001
0.083237052 -0.061219048 0.44100001
0.084195413 -0.061080229 0.44000003
0.085342519 -0.061080229 0.44000003
0.086489633 -0.061080229 0.44000003
0.087636739 -0.061080229 0.44000003
0.088582061 -0.060941409 0.43900001
0.08972656 -0.060941409 0.43900001
0.090871058 -0.060941409 0.43900001
0.092015564 -0.060941409 0.43900001
0.092947863 -0.060802594 0.43800002
0.094089754 -0.060802594 0.43800002
0.095231645 -0.060802594 0.43800002
0.096373543 -0.060802594 0.43800002
0.097515434 -0.060802594 0.43800002
0.098432079 -0.060663771 0.43700001
0.099571362 -0.060663771 0.43700001
0.10071065 -0.060663771 0.43700001
0.10184994 -0.060663771 0.43700001
0.10298923 -0.060663771 0.43700001
0.10389023 -0.060524955 0.43600002
0.10502692 -0.060524955 0.43600002
0.1061636 -0.060524955 0.43600002
0.10730027 -0.060524955 0.43600002
0.10818825 -0.060386136 0.43500003
0.10932232 -0.060386136 0.43500003
0.1104564 -0.060386136 0.43500003
0.11133393 -0.060247317 0.43400002
0.1124654 -0.060247317 0.43400002
0.11359687 -0.060247317 0.43400002
0.11446398 -0.060108498 0.43300003
0.11559284 -0.060108498 0.43300003
0.11645213 -0.059969679 0.43200001
0.11757839 -0.059969679 0.43200001
0.11870463 -0.059969679 0.43200001
0.11983089 -0.059969679 0.43200001
0.12067714 -0.059830863 0.43100002
0.1218008 -0.059830863 0.43100002
0.12292443 -0.059830863 0.43100002
0.12376026 -0.05969204 0.43000001
0.12488129 -0.05969204 0.43000001
0.12600234 -0.05969204 0.43000001
0.12712339 -0.05969204 0.43000001
0.12794617 -0.059553225 0.42900002
0.1290646 -0.059553225 0.42900002
0.13018303 -0.059553225 0.42900002
0.13130146 -0.059553225 0.42900002
0.13211122 -0.059414405 0.42800003
0.13322705 -0.059414405 0.42800003
0.13434286 -0.059414405 0.42800003
0.13514221 -0.059275586 0.42700002
0.13625541 -0.059275586 0.42700002
0.13736863 -0.059275586 0.42700002
0.13815753 -0.059136767 0.42600003
0.13926814 -0.059136767 0.42600003
0.14037876 -0.059136767 0.42600003
0.14115722 -0.058997948 0.42500001
0.14226523 -0.058997948 0.42500001
0.14337322 -0.058997948 0.42500001
0.14448124 -0.058997948 0.42500001
0.14558923 -0.058997948 0.42500001
0.14635207 -0.058859132 0.42400002
0.14745747 -0.058859132 0.42400002
0.14856286 -0.058859132 0.42400002
0.14966825 -0.058859132 0.42400002
0.15041804 -0.058720309 0.42300001
0.15152083 -0.058720309 0.42300001
0.15262362 -0.058720309 0.42300001
0.15372641 -0.058720309 0.42300001
0.15482919 -0.058720309 0.42300001
0.15556335 -0.058581494 0.42200002
0.15666354 -0.058581494 0.42200002
0.15776372 -0.058581494 0.42200002
0.15848744 -0.058442675 0.42100003
0.15958503 -0.058442675 0.42100003
0.16068259 -0.058442675 0.42100003
0.16139589 -0.058303855 0.42000002
0.16249084 -0.058303855 0.42000002
0.16358583 -0.058303855 0.42000002
0.16468078 -0.058303855 0.42000002
0.16538106 -0.058165036 0.41900003
0.16647342 -0.058165036 0.41900003
0.16716585 -0.058026217 0.41800001
0.16825561 -0.058026217 0.41800001
0.16934535 -0.058026217 0.41800001
0.17043512 -0.058026217 0.41800001
0.17111452 -0.057887401 0.41700003
0.17220166 -0.057887401 0.41700003
0.17287324 -0.057748578 0.41600001
0.17395778 -0.057748578 0.41600001
0.17462155 -0.057609763 0.41500002
0.17570348 -0.057609763 0.41500002
0.17678541 -0.057609763 0.41500002
0.17743875 -0.057470944 0.41400003
0.17851809 -0.057470944 0.41400003
0.17916359 -0.057332125 0.41300002
0.1802403 -0.057332125 0.41300002
0.18131702 -0.057332125 0.41300002
0.18195212 -0.057193305 0.41200003
0.18302622 -0.057193305 0.41200003
0.18410033 -0.057193305 0.41200003
0.18517444 -0.057193305 0.41200003
0.18624856 -0.057193305 0.41200003
0.18732266 -0.057193305 0.41200003
0.18793949 -0.057054486 0.41100001
0.18901099 -0.057054486 0.41100001
0.19008251 -0.057054486 0.41100001
0.191154 -0.057054486 0.41100001
-0.30795136 -0.075325035 0.55300003
-0.30595541 -0.07518883 0.55200005
-0.30451632 -0.07518883 0.55200005
-0.30252811 -0.075052612 0.551
-0.30109164 -0.075052612 0.551
-0.29911131 -0.0749164 0.55000001
-0.29767743 -0.0749164 0.55000001
-0.29624352 -0.0749164 0.55000001
-0.29427364 -0.074780189 0.54900002
-0.29284236 -0.074780189 0.54900002
-0.29088029 -0.074643977 0.54800004
-0.2894516 -0.074643977 0.54800004
-0.28802294 -0.074643977 0.54800004
-0.2860713 -0.074507773 0.54700005
-0.28464526 -0.074507773 0.54700005
-0.28321916 -0.074507773 0.54700005
-0.28179312 -0.074507773 0.54700005
-0.27985448 -0.074371554 0.546
-0.27792105 -0.074235342 0.54500002
-0.27650023 -0.074235342 0.54500002
-0.27457464 -0.074099131 0.54400003
-0.2731564 -0.074099131 0.54400003
-0.27123865 -0.073962919 0.54300004
-0.26932612 -0.073826715 0.54200006
-0.26791307 -0.073826715 0.54200006
-0.26600832 -0.073690496 0.54100001
-0.26410884 -0.073554285 0.54000002
-0.262701 -0.073554285 0.54000002
-0.26080933 -0.073418073 0.53900003
-0.25940412 -0.073418073 0.53900003
-0.25752026 -0.073281862 0.53800005
-0.25611767 -0.073281862 0.53800005
-0.25424159 -0.07314565 0.537
-0.25284159 -0.07314565 0.537
-0.25097337 -0.073009439 0.53600001
-0.24957599 -0.073009439 0.53600001
-0.2481786 -0.073009439 0.53600001
-0.24678122 -0.073009439 0.53600001
-0.24492602 -0.072873227 0.53500003
-0.24353126 -0.072873227 0.53500003
-0.24168389 -0.072737016 0.53400004
-0.2402917 -0.072737016 0.53400004
-0.23845217 -0.072600804 0.53300005
-0.2370626 -0.072600804 0.53300005
-0.23523086 -0.072464593 0.53200001
-0.23384389 -0.072464593 0.53200001
-0.23201999 -0.072328381 0.53100002
-0.23063564 -0.072328381 0.53100002
-0.22881956 -0.07219217 0.53000003
-0.22743782 -0.07219217 0.53000003
-0.22605608 -0.07219217 0.53000003
-0.22425042 -0.072055958 0.52900004
-0.22287129 -0.072055958 0.52900004
-0.22107343 -0.071919739 0.528
-0.21969689 -0.071919739 0.528
-0.21790689 -0.071783535 0.52700001
-0.21653296 -0.071783535 0.52700001
-0.21475078 -0.071647324 0.52600002
-0.21337946 -0.071647324 0.52600002
-0.21200815 -0.071647324 0.52600002
-0.21023639 -0.071511112 0.52500004
-0.20886768 -0.071511112 0.52500004
-0.20749897 -0.071511112 0.52500004
-0.20573765 -0.071374901 0.52400005
-0.20437154 -0.071374901 0.52400005
-0.202618 -0.071238682 0.523
-0.2012545 -0.071238682 0.523
-0.199891 -0.071238682 0.523
-0.19814794 -0.071102478 0.52200001
-0.19678704 -0.071102478 0.52200001
-0.19542617 -0.071102478 0.52200001
-0.1936935 -0.070966266 0.52100003
-0.19233522 -0.070966266 0.52100003
-0.19097693 -0.070966266 0.52100003
-0.18925472 -0.070830055 0.52000004
-0.18789904 -0.070830055 0.52000004
-0.18618464 -0.070693843 0.51900005
-0.18483157 -0.070693843 0.51900005
-0.18312497 -0.070557624 0.51800001
-0.18177451 -0.070557624 0.51800001
-0.18007573 -0.07042142 0.51700002
-0.1787279 -0.07042142 0.51700002
-0.17703694 -0.070285209 0.51600003
-0.17569171 -0.070285209 0.51600003
-0.17400858 -0.070148997 0.51500005
-0.17233066 -0.070012778 0.514
-0.17099062 -0.070012778 0.514
-0.16932054 -0.069876567 0.51300001
-0.16798311 -0.069876567 0.51300001
-0.16632086 -0.069740362 0.51200002
-0.16498603 -0.069740362 0.51200002
-0.1633316 -0.069604151 0.51100004
-0.16199937 -0.069604151 0.51100004
-0.16035275 -0.069467939 0.51000005
-0.15871133 -0.06933172 0.509
-0.15707512 -0.069195509 0.50800002
-0.15544416 -0.069059305 0.50700003
-0.15381838 -0.068923093 0.50600004
-0.15189645 -0.068650663 0.50400001
-0.15028371 -0.068514451 0.50300002
-0.14778769 -0.067969605 0.49900001
-0.14501895 -0.067288548 0.49400002
-0.14285821 -0.066879913 0.49100003
-0.1382979 -0.065926433 0.48400003
-0.13618669 -0.065517798 0.48100004
-0.13437162 -0.065245375 0.47900003
-0.13312285 -0.065245375 0.47900003
-0.13187405 -0.065245375 0.47900003
-0.13062528 -0.065245375 0.47900003
-0.1293765 -0.065245375 0.47900003
-0.12786022 -0.065109164 0.47800002
-0.12661403 -0.065109164 0.47800002
-0.1251056 -0.064972952 0.47700003
-0.12334269 -0.064700529 0.47500002
-0.12184728 -0.064564317 0.47400004
-0.12035707 -0.064428106 0.47300002
-0.11862023 -0.064155683 0.47100002
-0.11714306 -0.064019471 0.47000003
-0.11567111 -0.06388326 0.46900001
-0.11396034 -0.063610837 0.46700001
-0.11226001 -0.063338414 0.46500003
-0.11080891 -0.063202202 0.46400002
-0.10745516 -0.062657356 0.46000001
-0.10602492 -0.062521145 0.45900002
-0.10437151 -0.062248718 0.45700002
-0.10295431 -0.06211251 0.45600003
-0.10154231 -0.061976295 0.45500001
-0.098951928 -0.061840083 0.45400003
-0.097768322 -0.061840083 0.45400003
-0.096584715 -0.061840083 0.45400003
-0.095190972 -0.061703872 0.45300001
-0.094009973 -0.061703872 0.45300001
-0.092828974 -0.061703872 0.45300001
-0.091647975 -0.061703872 0.45300001
-0.090466976 -0.061703872 0.45300001
-0.089088872 -0.06156766 0.45200002
-0.087910481 -0.06156766 0.45200002
-0.08673209 -0.06156766 0.45200002
-0.085553698 -0.06156766 0.45200002
-0.084375307 -0.06156766 0.45200002
-0.083196916 -0.06156766 0.45200002
-0.082018517 -0.06156766 0.45200002
-0.080661282 -0.061431453 0.45100003
-0.079485498 -0.061431453 0.45100003
-0.078309707 -0.061431453 0.45100003
-0.077133924 -0.061431453 0.45100003
-0.07595814 -0.061431453 0.45100003
-0.074782357 -0.061431453 0.45100003
-0.073769771 -0.06156766 0.45200002
-0.072912574 -0.061840083 0.45400003
-0.071886964 -0.061976295 0.45500001
-0.070856139 -0.06211251 0.45600003
-0.070125654 -0.062521145 0.45900002
-0.069379523 -0.062929779 0.46200001
-0.068470195 -0.063202202 0.46400002
-0.066904947 -0.064019471 0.47000003
-0.065959118 -0.064291894 0.47200003
-0.065002859 -0.064564317 0.47400004
-0.064170696 -0.064972952 0.47700003
-0.063059047 -0.065109164 0.47800002
-0.062071498 -0.065381587 0.48000002
-0.060946818 -0.065517798 0.48100004
-0.059692826 -0.065517798 0.48100004
-0.058438826 -0.065517798 0.48100004
-0.057184827 -0.065517798 0.48100004
-0.055930831 -0.065517798 0.48100004
-0.054676831 -0.065517798 0.48100004
-0.053533901 -0.06565401 0.48200002
-0.052277297 -0.06565401 0.48200002
-0.051020693 -0.06565401 0.48200002
-0.049660839 -0.065517798 0.48100004
-0.048406843 -0.065517798 0.48100004
-0.047152847 -0.065517798 0.48100004
-0.045898847 -0.065517798 0.48100004
-0.044552032 -0.065381587 0.48000002
-0.043300644 -0.065381587 0.48000002
-0.042049255 -0.065381587 0.48000002
-0.040712867 -0.065245375 0.47900003
-0.039464083 -0.065245375 0.47900003
-0.038135517 -0.065109164 0.47800002
-0.036889341 -0.065109164 0.47800002
-0.035568599 -0.064972952 0.47700003
-0.03432503 -0.064972952 0.47700003
-0.033012103 -0.06483674 0.47600001
-0.031704396 -0.064700529 0.47500002
-0.030466041 -0.064700529 0.47500002
-0.029166155 -0.064564317 0.47400004
-0.027930407 -0.064564317 0.47400004
-0.026694657 -0.064564317 0.47400004
-0.025405198 -0.064428106 0.47300002
-0.024172058 -0.064428106 0.47300002
-0.022938916 -0.064428106 0.47300002
-0.021659886 -0.064291894 0.47200003
-0.020429352 -0.064291894 0.47200003
-0.019198818 -0.064291894 0.47200003
-0.017930215 -0.064155683 0.47100002
-0.016702289 -0.064155683 0.47100002
-0.015474361 -0.064155683 0.47100002
-0.014246434 -0.064155683 0.47100002
-0.012990868 -0.064019471 0.47000003
-0.011765547 -0.064019471 0.47000003
-0.010540227 -0.064019471 0.47000003
-0.0092950882 -0.06388326 0.46900001
-0.0080723744 -0.06388326 0.46900001
-0.0068496619 -0.06388326 0.46900001
-0.0056149517 -0.063747048 0.46800002
-0.004385455 -0.063610837 0.46700001
-0.0031679564 -0.063610837 0.46700001
-0.0019504576 -0.063610837 0.46700001
-0.00073138939 -0.063474625 0.46600002
0.00048350231 -0.063474625 0.46600002
0.0016947495 -0.063338414 0.46500003
0.002907034 -0.063338414 0.46500003
0.0041104602 -0.063202202 0.46400002
0.0053201374 -0.063202202 0.46400002
0.0065157423 -0.063065991 0.46300003
0.0077228132 -0.063065991 0.46300003
0.0089298831 -0.063065991 0.46300003
0.010115059 -0.062929779 0.46200001
0.011319524 -0.062929779 0.46200001
0.012523986 -0.062929779 0.46200001
0.013698735 -0.062793568 0.46100003
0.014900591 -0.062793568 0.46100003
0.016067516 -0.062657356 0.46000001
0.017266767 -0.062657356 0.46000001
0.018425873 -0.062521145 0.45900002
0.019622514 -0.062521145 0.45900002
0.020773802 -0.062384933 0.45800003
0.021967836 -0.062384933 0.45800003
0.023161871 -0.062384933 0.45800003
0.024302727 -0.062248718 0.45700002
0.025494155 -0.062248718 0.45700002
0.026685582 -0.062248718 0.45700002
0.027877012 -0.062248718 0.45700002
0.029068438 -0.062248718 0.45700002
0.030193655 -0.06211251 0.45600003
0.031382475 -0.06211251 0.45600003
0.032499868 -0.061976295 0.45500001
0.033686079 -0.061976295 0.45500001
0.034872293 -0.061976295 0.45500001
0.03597926 -0.061840083 0.45400003
0.03716287 -0.061840083 0.45400003
0.03826201 -0.061703872 0.45300001
0.039443009 -0.061703872 0.45300001
0.040624008 -0.061703872 0.45300001
0.041805007 -0.061703872 0.45300001
0.042986006 -0.061703872 0.45300001
0.04406951 -0.06156766 0.45200002
0.045247905 -0.06156766 0.45200002
0.046426296 -0.06156766 0.45200002
0.047604688 -0.06156766 0.45200002
0.048783083 -0.06156766 0.45200002
0.049850941 -0.061431453 0.45100003
0.051026724 -0.061431453 0.45100003
0.052202515 -0.061431453 0.45100003
0.053259943 -0.061295237 0.45000002
0.054433122 -0.061295237 0.45000002
0.055606298 -0.061295237 0.45000002
0.056653302 -0.061159026 0.44900003
0.057823874 -0.061159026 0.44900003
0.058994446 -0.061159026 0.44900003
0.060031015 -0.061022814 0.44800001
0.06119898 -0.061022814 0.44800001
0.062366944 -0.061022814 0.44800001
0.063393094 -0.060886603 0.44700003
0.064558454 -0.060886603 0.44700003
0.065576777 -0.060750391 0.44600001
0.066739522 -0.060750391 0.44600001
0.067750029 -0.06061418 0.44500002
0.068910174 -0.06061418 0.44500002
0.069912858 -0.060477972 0.44400004
0.071070395 -0.060477972 0.44400004
0.072227925 -0.060477972 0.44400004
0.073385462 -0.060477972 0.44400004
0.074375108 -0.060341757 0.44300002
0.075530037 -0.060341757 0.44300002
0.076684967 -0.060341757 0.44300002
0.077839896 -0.060341757 0.44300002
0.078816511 -0.060205545 0.44200003
0.079968832 -0.060205545 0.44200003
0.081121154 -0.060205545 0.44200003
0.082087338 -0.060069334 0.44100001
0.083237052 -0.060069334 0.44100001
0.084386766 -0.060069334 0.44100001
0.08553648 -0.060069334 0.44100001
0.086489633 -0.059933122 0.44000003
0.087636739 -0.059933122 0.44000003
0.088783845 -0.059933122 0.44000003
0.08972656 -0.059796907 0.43900001
0.090871058 -0.059796907 0.43900001
0.092015564 -0.059796907 0.43900001
0.09316007 -0.059796907 0.43900001
0.094089754 -0.059660699 0.43800002
0.095231645 -0.059660699 0.43800002
0.096373543 -0.059660699 0.43800002
0.097515434 -0.059660699 0.43800002
0.098657325 -0.059660699 0.43800002
0.099571362 -0.059524484 0.43700001
0.10071065 -0.059524484 0.43700001
0.10184994 -0.059524484 0.43700001
0.10298923 -0.059524484 0.43700001
0.10389023 -0.059388276 0.43600002
0.10502692 -0.059388276 0.43600002
0.1061636 -0.059388276 0.43600002
0.10730027 -0.059388276 0.43600002
0.10843696 -0.059388276 0.43600002
0.10932232 -0.059252065 0.43500003
0.1104564 -0.059252065 0.43500003
0.11133393 -0.059115849 0.43400002
0.1124654 -0.059115849 0.43400002
0.11359687 -0.059115849 0.43400002
0.11446398 -0.058979642 0.43300003
0.11559284 -0.058979642 0.43300003
0.11645213 -0.058843426 0.43200001
0.11757839 -0.058843426 0.43200001
0.11870463 -0.058843426 0.43200001
0.11983089 -0.058843426 0.43200001
0.12095714 -0.058843426 0.43200001
0.1218008 -0.058707219 0.43100002
0.12292443 -0.058707219 0.43100002
0.12404808 -0.058707219 0.43100002
0.12488129 -0.058571003 0.43000001
0.12600234 -0.058571003 0.43000001
0.12712339 -0.058571003 0.43000001
0.12824441 -0.058571003 0.43000001
0.1290646 -0.058434792 0.42900002
0.13018303 -0.058434792 0.42900002
0.13130146 -0.058434792 0.42900002
0.13211122 -0.058298584 0.42800003
0.13322705 -0.058298584 0.42800003
0.13434286 -0.058298584 0.42800003
0.13514221 -0.058162369 0.42700002
0.13625541 -0.058162369 0.42700002
0.13736863 -0.058162369 0.42700002
0.13815753 -0.058026161 0.42600003
0.13926814 -0.058026161 0.42600003
0.14037876 -0.058026161 0.42600003
0.14115722 -0.057889946 0.42500001
0.14226523 -0.057889946 0.42500001
0.14337322 -0.057889946 0.42500001
0.14448124 -0.057889946 0.42500001
0.14558923 -0.057889946 0.42500001
0.14669724 -0.057889946 0.42500001
0.14780523 -0.057889946 0.42500001
0.14856286 -0.057753734 0.42400002
0.14966825 -0.057753734 0.42400002
0.15077364 -0.057753734 0.42400002
0.15187904 -0.057753734 0.42400002
0.15262362 -0.057617523 0.42300001
0.15372641 -0.057617523 0.42300001
0.15482919 -0.057617523 0.42300001
0.15593199 -0.057617523 0.42300001
0.15666354 -0.057481311 0.42200002
0.15776372 -0.057481311 0.42200002
0.1588639 -0.057481311 0.42200002
0.15958503 -0.057345103 0.42100003
0.16068259 -0.057345103 0.42100003
0.16178018 -0.057345103 0.42100003
0.16249084 -0.057208888 0.42000002
0.16358583 -0.057208888 0.42000002
0.16468078 -0.057208888 0.42000002
0.16538106 -0.057072677 0.41900003
0.16647342 -0.057072677 0.41900003
0.16756578 -0.057072677 0.41900003
0.16865814 -0.057072677 0.41900003
0.16934535 -0.056936465 0.41800001
0.17043512 -0.056936465 0.41800001
0.17152485 -0.056936465 0.41800001
0.17220166 -0.056800254 0.41700003
0.17328881 -0.056800254 0.41700003
0.17395778 -0.056664042 0.41600001
0.17504232 -0.056664042 0.41600001
0.17570348 -0.056527831 0.41500002
0.17678541 -0.056527831 0.41500002
0.17743875 -0.056391623 0.41400003
0.17851809 -0.056391623 0.41400003
0.17916359 -0.056255408 0.41300002
0.1802403 -0.056255408 0.41300002
0.18131702 -0.056255408 0.41300002
0.18239374 -0.056255408 0.41300002
0.18347046 -0.056255408 0.41300002
0.18454717 -0.056255408 0.41300002
0.18517444 -0.056119196 0.41200003
0.18624856 -0.056119196 0.41200003
0.18732266 -0.056119196 0.41200003
0.18839678 -0.056119196 0.41200003
0.18901099 -0.055982985 0.41100001
0.19008251 -0.055982985 0.41100001
0.191154 -0.055982985 0.41100001
-0.30795136 -0.073883332 0.55300003
-0.30650967 -0.073883332 0.55300003
-0.30451632 -0.073749729 0.55200005
-0.30307719 -0.073749729 0.55200005
-0.30109164 -0.073616117 0.551
-0.29965514 -0.073616117 0.551
-0.29767743 -0.073482513 0.55000001
-0.29624352 -0.073482513 0.55000001
-0.29480964 -0.073482513 0.55000001
-0.29284236 -0.07334891 0.54900002
-0.2914111 -0.07334891 0.54900002
-0.2894516 -0.073215313 0.54800004
-0.28802294 -0.073215313 0.54800004
-0.2865943 -0.073215313 0.54800004
-0.28464526 -0.073081709 0.54700005
-0.28321916 -0.073081709 0.54700005
-0.28179312 -0.073081709 0.54700005
-0.27985448 -0.072948098 0.546
-0.278431 -0.072948098 0.546
-0.27650023 -0.072814494 0.54500002
-0.27507937 -0.072814494 0.54500002
-0.2731564 -0.072680891 0.54400003
-0.27123865 -0.072547287 0.54300004
-0.26982301 -0.072547287 0.54300004
-0.26791307 -0.072413683 0.54200006
-0.26600832 -0.072280072 0.54100001
-0.26459792 -0.072280072 0.54100001
-0.262701 -0.072146468 0.54000002
-0.2612932 -0.072146468 0.54000002
-0.25940412 -0.072012872 0.53900003
-0.25799891 -0.072012872 0.53900003
-0.25611767 -0.071879268 0.53800005
-0.25471506 -0.071879268 0.53800005
-0.25284159 -0.071745656 0.537
-0.2514416 -0.071745656 0.537
-0.24957599 -0.071612053 0.53600001
-0.2481786 -0.071612053 0.53600001
-0.24678122 -0.071612053 0.53600001
-0.24538383 -0.071612053 0.53600001
-0.24353126 -0.071478449 0.53500003
-0.24213646 -0.071478449 0.53500003
-0.2402917 -0.071344845 0.53400004
-0.23889954 -0.071344845 0.53400004
-0.2370626 -0.071211241 0.53300005
-0.23567304 -0.071211241 0.53300005
-0.23384389 -0.07107763 0.53200001
-0.23245694 -0.07107763 0.53200001
-0.23063564 -0.070944026 0.53100002
-0.2292513 -0.070944026 0.53100002
-0.22743782 -0.07081043 0.53000003
-0.22605608 -0.07081043 0.53000003
-0.22467433 -0.07081043 0.53000003
-0.22287129 -0.070676826 0.52900004
-0.22149216 -0.070676826 0.52900004
-0.22011301 -0.070676826 0.52900004
-0.21832037 -0.070543215 0.528
-0.21694383 -0.070543215 0.528
-0.21515904 -0.070409611 0.52700001
-0.21378511 -0.070409611 0.52700001
-0.21200815 -0.070276007 0.52600002
-0.21063682 -0.070276007 0.52600002
-0.20886768 -0.070142403 0.52500004
-0.20749897 -0.070142403 0.52500004
-0.20613027 -0.070142403 0.52500004
-0.20437154 -0.070008799 0.52400005
-0.20300545 -0.070008799 0.52400005
-0.2012545 -0.069875188 0.523
-0.199891 -0.069875188 0.523
-0.19852751 -0.069875188 0.523
-0.19678704 -0.069741592 0.52200001
-0.19542617 -0.069741592 0.52200001
-0.19406526 -0.069741592 0.52200001
-0.19233522 -0.069607988 0.52100003
-0.19097693 -0.069607988 0.52100003
-0.18961866 -0.069607988 0.52100003
-0.18789904 -0.069474384 0.52000004
-0.18654338 -0.069474384 0.52000004
-0.18483157 -0.06934078 0.51900005
-0.18312497 -0.069207169 0.51800001
-0.18177451 -0.069207169 0.51800001
-0.18042403 -0.069207169 0.51800001
-0.1787279 -0.069073565 0.51700002
-0.17738003 -0.069073565 0.51700002
-0.17569171 -0.068939961 0.51600003
-0.17434645 -0.068939961 0.51600003
-0.17266595 -0.068806358 0.51500005
-0.17099062 -0.068672746 0.514
-0.1696506 -0.068672746 0.514
-0.16798311 -0.06853915 0.51300001
-0.16664569 -0.06853915 0.51300001
-0.16530827 -0.06853915 0.51300001
-0.16365123 -0.068405546 0.51200002
-0.16199937 -0.068271942 0.51100004
-0.16035275 -0.068138339 0.51000005
-0.15871133 -0.068004727 0.509
-0.15738432 -0.068004727 0.509
-0.15544416 -0.06773752 0.50700003
-0.15381838 -0.067603916 0.50600004
-0.15159507 -0.067203104 0.50300002
-0.14968616 -0.066935897 0.50100005
-0.14719535 -0.066401474 0.49700001
-0.1447254 -0.065867059 0.49300003
-0.13801216 -0.064531006 0.48300001
-0.13618669 -0.064263806 0.48100004
-0.13437162 -0.063996591 0.47900003
-0.13312285 -0.063996591 0.47900003
-0.13187405 -0.063996591 0.47900003
-0.13062528 -0.063996591 0.47900003
-0.1293765 -0.063996591 0.47900003
-0.12812772 -0.063996591 0.47900003
-0.12661403 -0.063862987 0.47800002
-0.1251056 -0.063729383 0.47700003
-0.12360235 -0.063595779 0.47600001
-0.12184728 -0.063328572 0.47400004
-0.12035707 -0.063194968 0.47300002
-0.11862023 -0.062927753 0.47100002
-0.11714306 -0.062794149 0.47000003
-0.11567111 -0.062660545 0.46900001
-0.11396034 -0.062393337 0.46700001
-0.11226001 -0.06212613 0.46500003
-0.11080891 -0.061992522 0.46400002
-0.10912682 -0.061725315 0.46200001
-0.10318008 -0.061057292 0.45700002
-0.10176548 -0.060923688 0.45600003
-0.097983673 -0.060790081 0.45500001
-0.096797459 -0.060790081 0.45500001
-0.095401108 -0.06065648 0.45400003
-0.094217509 -0.06065648 0.45400003
-0.093033902 -0.06065648 0.45400003
-0.091647975 -0.060522873 0.45300001
-0.090466976 -0.060522873 0.45300001
-0.08928597 -0.060522873 0.45300001
-0.088104971 -0.060522873 0.45300001
-0.086923972 -0.060522873 0.45300001
-0.085553698 -0.060389269 0.45200002
-0.084375307 -0.060389269 0.45200002
-0.083196916 -0.060389269 0.45200002
-0.082018517 -0.060389269 0.45200002
-0.080840126 -0.060389269 0.45200002
-0.079661734 -0.060389269 0.45200002
-0.078309707 -0.060255665 0.45100003
-0.077304952 -0.060389269 0.45200002
-0.076126561 -0.060389269 0.45200002
-0.075113982 -0.060522873 0.45300001
-0.07409618 -0.06065648 0.45400003
-0.073233776 -0.060923688 0.45600003
-0.072202951 -0.061057292 0.45700002
-0.071322292 -0.0613245 0.45900002
-0.070583992 -0.061725315 0.46200001
-0.069830045 -0.06212613 0.46500003
-0.067332 -0.063194968 0.47300002
-0.066378348 -0.063462175 0.47500002
-0.065414265 -0.063729383 0.47700003
-0.064439759 -0.063996591 0.47900003
-0.063322894 -0.064130194 0.48000002
-0.062200814 -0.064263806 0.48100004
-0.060946818 -0.064263806 0.48100004
-0.059816923 -0.06439741 0.48200002
-0.058560319 -0.06439741 0.48200002
-0.057303712 -0.06439741 0.48200002
-0.056047108 -0.06439741 0.48200002
-0.054790504 -0.06439741 0.48200002
-0.053533901 -0.06439741 0.48200002
-0.052277297 -0.06439741 0.48200002
-0.051020693 -0.06439741 0.48200002
-0.049660839 -0.064263806 0.48100004
-0.048406843 -0.064263806 0.48100004
-0.047152847 -0.064263806 0.48100004
-0.045898847 -0.064263806 0.48100004
-0.044644851 -0.064263806 0.48100004
-0.043300644 -0.064130194 0.48000002
-0.042049255 -0.064130194 0.48000002
-0.040712867 -0.063996591 0.47900003
-0.039464083 -0.063996591 0.47900003
-0.038135517 -0.063862987 0.47800002
-0.036889341 -0.063862987 0.47800002
-0.035643164 -0.063862987 0.47800002
-0.03432503 -0.063729383 0.47700003
-0.033081457 -0.063729383 0.47700003
-0.031771142 -0.063595779 0.47600001
-0.030466041 -0.063462175 0.47500002
-0.029227687 -0.063462175 0.47500002
-0.027930407 -0.063328572 0.47400004
-0.026694657 -0.063328572 0.47400004
-0.02545891 -0.063328572 0.47400004
-0.024172058 -0.063194968 0.47300002
-0.022938916 -0.063194968 0.47300002
-0.021705775 -0.063194968 0.47300002
-0.020429352 -0.063061364 0.47200003
-0.019198818 -0.063061364 0.47200003
-0.017930215 -0.062927753 0.47100002
-0.016702289 -0.062927753 0.47100002
-0.015474361 -0.062927753 0.47100002
-0.014246434 -0.062927753 0.47100002
-0.012990868 -0.062794149 0.47000003
-0.011765547 -0.062794149 0.47000003
-0.010540227 -0.062794149 0.47000003
-0.0092950882 -0.062660545 0.46900001
-0.0080723744 -0.062660545 0.46900001
-0.0068496619 -0.062660545 0.46900001
-0.0056269495 -0.062660545 0.46900001
-0.004394846 -0.062526941 0.46800002
-0.0031679564 -0.062393337 0.46700001
-0.0019504576 -0.062393337 0.46700001
-0.00073138939 -0.062259734 0.46600002
0.00048350231 -0.062259734 0.46600002
0.0016947495 -0.06212613 0.46500003
0.002907034 -0.06212613 0.46500003
0.0041104602 -0.061992522 0.46400002
0.0053201374 -0.061992522 0.46400002
0.006529815 -0.061992522 0.46400002
0.0077228132 -0.061858922 0.46300003
0.0089298831 -0.061858922 0.46300003
0.010136954 -0.061858922 0.46300003
0.011319524 -0.061725315 0.46200001
0.012523986 -0.061725315 0.46200001
0.013698735 -0.061591711 0.46100003
0.014900591 -0.061591711 0.46100003
0.016067516 -0.061458103 0.46000001
0.017266767 -0.061458103 0.46000001
0.018425873 -0.0613245 0.45900002
0.019622514 -0.0613245 0.45900002
0.020819157 -0.0613245 0.45900002
0.021967836 -0.061190899 0.45800003
0.023161871 -0.061190899 0.45800003
0.024355907 -0.061190899 0.45800003
0.025549941 -0.061190899 0.45800003
0.026685582 -0.061057292 0.45700002
0.027877012 -0.061057292 0.45700002
0.029068438 -0.061057292 0.45700002
0.030193655 -0.060923688 0.45600003
0.031382475 -0.060923688 0.45600003
0.032571297 -0.060923688 0.45600003
0.033686079 -0.060790081 0.45500001
0.034872293 -0.060790081 0.45500001
0.03597926 -0.06065648 0.45400003
0.03716287 -0.06065648 0.45400003
0.038346473 -0.06065648 0.45400003
0.03953008 -0.06065648 0.45400003
0.040624008 -0.060522873 0.45300001
0.041805007 -0.060522873 0.45300001
0.042986006 -0.060522873 0.45300001
0.044167008 -0.060522873 0.45300001
0.045348011 -0.060522873 0.45300001
0.046426296 -0.060389269 0.45200002
0.047604688 -0.060389269 0.45200002
0.048783083 -0.060389269 0.45200002
0.049961474 -0.060389269 0.45200002
0.051026724 -0.060255665 0.45100003
0.052202515 -0.060255665 0.45100003
0.053378299 -0.060255665 0.45100003
0.054433122 -0.060122058 0.45000002
0.055606298 -0.060122058 0.45000002
0.056779478 -0.060122058 0.45000002
0.057823874 -0.059988458 0.44900003
0.058994446 -0.059988458 0.44900003
0.060031015 -0.05985485 0.44800001
0.06119898 -0.05985485 0.44800001
0.062366944 -0.05985485 0.44800001
0.063393094 -0.059721246 0.44700003
0.064558454 -0.059721246 0.44700003
0.065576777 -0.059587639 0.44600001
0.066739522 -0.059587639 0.44600001
0.067750029 -0.059454039 0.44500002
0.068910174 -0.059454039 0.44500002
0.069912858 -0.059320435 0.44400004
0.071070395 -0.059320435 0.44400004
0.072227925 -0.059320435 0.44400004
0.073385462 -0.059320435 0.44400004
0.074542999 -0.059320435 0.44400004
0.075700536 -0.059320435 0.44400004
0.076684967 -0.059186827 0.44300002
0.077839896 -0.059186827 0.44300002
0.078994825 -0.059186827 0.44300002
0.079968832 -0.059053224 0.44200003
0.081121154 -0.059053224 0.44200003
0.082273476 -0.059053224 0.44200003
0.083425798 -0.059053224 0.44200003
0.084386766 -0.058919616 0.44100001
0.08553648 -0.058919616 0.44100001
0.086686194 -0.058919616 0.44100001
0.087636739 -0.058786016 0.44000003
0.088783845 -0.058786016 0.44000003
0.089930952 -0.058786016 0.44000003
0.091078058 -0.058786016 0.44000003
0.092015564 -0.058652408 0.43900001
0.09316007 -0.058652408 0.43900001
0.094304569 -0.058652408 0.43900001
0.095449068 -0.058652408 0.43900001
0.096373543 -0.058518805 0.43800002
0.097515434 -0.058518805 0.43800002
0.098657325 -0.058518805 0.43800002
0.099799223 -0.058518805 0.43800002
0.10094111 -0.058518805 0.43800002
0.10184994 -0.058385197 0.43700001
0.10298923 -0.058385197 0.43700001
0.10412851 -0.058385197 0.43700001
0.1052678 -0.058385197 0.43700001
0.1061636 -0.058251597 0.43600002
0.10730027 -0.058251597 0.43600002
0.10843696 -0.058251597 0.43600002
0.10932232 -0.058117993 0.43500003
0.1104564 -0.058117993 0.43500003
0.11159046 -0.058117993 0.43500003
0.1124654 -0.057984386 0.43400002
0.11359687 -0.057984386 0.43400002
0.11472833 -0.057984386 0.43400002
0.11559284 -0.057850782 0.43300003
0.11645213 -0.057717178 0.43200001
0.11757839 -0.057717178 0.43200001
0.11870463 -0.057717178 0.43200001
0.11983089 -0.057717178 0.43200001
0.12095714 -0.057717178 0.43200001
0.1218008 -0.057583574 0.43100002
0.12292443 -0.057583574 0.43100002
0.12404808 -0.057583574 0.43100002
0.12488129 -0.057449967 0.43000001
0.12600234 -0.057449967 0.43000001
0.12712339 -0.057449967 0.43000001
0.12824441 -0.057449967 0.43000001
0.12936546 -0.057449967 0.43000001
0.13018303 -0.057316363 0.42900002
0.13130146 -0.057316363 0.42900002
0.13211122 -0.057182759 0.42800003
0.13322705 -0.057182759 0.42800003
0.13402897 -0.057049155 0.42700002
0.13514221 -0.057049155 0.42700002
0.13625541 -0.057049155 0.42700002
0.13736863 -0.057049155 0.42700002
0.13815753 -0.056915551 0.42600003
0.13926814 -0.056915551 0.42600003
0.14037876 -0.056915551 0.42600003
0.14148936 -0.056915551 0.42600003
0.14226523 -0.056781944 0.42500001
0.14337322 -0.056781944 0.42500001
0.14448124 -0.056781944 0.42500001
0.14558923 -0.056781944 0.42500001
0.14669724 -0.056781944 0.42500001
0.14780523 -0.056781944 0.42500001
0.14891323 -0.056781944 0.42500001
0.14966825 -0.05664834 0.42400002
0.15077364 -0.05664834 0.42400002
0.15187904 -0.05664834 0.42400002
0.15298444 -0.05664834 0.42400002
0.15408984 -0.05664834 0.42400002
0.15482919 -0.056514736 0.42300001
0.15593199 -0.056514736 0.42300001
0.15703477 -0.056514736 0.42300001
0.15776372 -0.056381132 0.42200002
0.1588639 -0.056381132 0.42200002
0.15958503 -0.056247529 0.42100003
0.16068259 -0.056247529 0.42100003
0.16178018 -0.056247529 0.42100003
0.16249084 -0.056113921 0.42000002
0.16358583 -0.056113921 0.42000002
0.16468078 -0.056113921 0.42000002
0.16577576 -0.056113921 0.42000002
0.16647342 -0.055980321 0.41900003
0.16756578 -0.055980321 0.41900003
0.16865814 -0.055980321 0.41900003
0.16934535 -0.055846713 0.41800001
0.17043512 -0.055846713 0.41800001
0.17152485 -0.055846713 0.41800001
0.17220166 -0.05571311 0.41700003
0.17328881 -0.05571311 0.41700003
0.17395778 -0.055579502 0.41600001
0.17504232 -0.055579502 0.41600001
0.17612685 -0.055579502 0.41600001
0.17678541 -0.055445898 0.41500002
0.17786734 -0.055445898 0.41500002
0.17851809 -0.055312298 0.41400003
0.17959741 -0.055312298 0.41400003
0.18067673 -0.055312298 0.41400003
0.18131702 -0.055178691 0.41300002
0.18239374 -0.055178691 0.41300002
0.18347046 -0.055178691 0.41300002
0.18454717 -0.055178691 0.41300002
0.18562388 -0.055178691 0.41300002
0.18624856 -0.055045087 0.41200003
0.18732266 -0.055045087 0.41200003
0.18839678 -0.055045087 0.41200003
0.18947087 -0.055045087 0.41200003
0.19008251 -0.054911479 0.41100001
0.191154 -0.054911479 0.41100001
-0.30795136 -0.07244163 0.55300003
-0.30650967 -0.07244163 0.55300003
-0.30506796 -0.07244163 0.55300003
-0.30307719 -0.072310634 0.55200005
-0.3016381 -0.072310634 0.55200005
-0.29965514 -0.07217963 0.551
-0.29821867 -0.07217963 0.551
-0.29624352 -0.072048634 0.55000001
-0.29480964 -0.072048634 0.55000001
-0.29337579 -0.072048634 0.55000001
-0.2914111 -0.071917638 0.54900002
-0.28997982 -0.071917638 0.54900002
-0.28802294 -0.071786642 0.54800004
-0.2865943 -0.071786642 0.54800004
-0.28464526 -0.071655646 0.54700005
-0.28321916 -0.071655646 0.54700005
-0.28179312 -0.071655646 0.54700005
-0.28036705 -0.071655646 0.54700005
-0.278431 -0.071524642 0.546
-0.27700755 -0.071524642 0.546
-0.27507937 -0.071393646 0.54500002
-0.2731564 -0.07126265 0.54400003
-0.27173817 -0.07126265 0.54400003
-0.26982301 -0.071131654 0.54300004
-0.26791307 -0.071000658 0.54200006
-0.26650006 -0.071000658 0.54200006
-0.26459792 -0.070869654 0.54100001
-0.262701 -0.070738658 0.54000002
-0.2612932 -0.070738658 0.54000002
-0.25940412 -0.070607662 0.53900003
-0.25799891 -0.070607662 0.53900003
-0.25611767 -0.070476666 0.53800005
-0.25471506 -0.070476666 0.53800005
-0.25331247 -0.070476666 0.53800005
-0.2514416 -0.070345663 0.537
-0.2500416 -0.070345663 0.537
-0.2481786 -0.070214666 0.53600001
-0.24678122 -0.070214666 0.53600001
-0.24538383 -0.070214666 0.53600001
-0.24353126 -0.07008367 0.53500003
-0.24213646 -0.07008367 0.53500003
-0.24074169 -0.07008367 0.53500003
-0.23889954 -0.069952674 0.53400004
-0.23750736 -0.069952674 0.53400004
-0.23567304 -0.069821678 0.53300005
-0.23428346 -0.069821678 0.53300005
-0.23245694 -0.069690675 0.53200001
-0.23106998 -0.069690675 0.53200001
-0.2292513 -0.069559678 0.53100002
-0.22786693 -0.069559678 0.53100002
-0.22605608 -0.069428682 0.53000003
-0.22467433 -0.069428682 0.53000003
-0.22329259 -0.069428682 0.53000003
-0.22149216 -0.069297686 0.52900004
-0.22011301 -0.069297686 0.52900004
-0.21873388 -0.069297686 0.52900004
-0.21694383 -0.069166683 0.528
-0.21556732 -0.069166683 0.528
-0.21378511 -0.069035687 0.52700001
-0.21241121 -0.069035687 0.52700001
-0.21063682 -0.06890469 0.52600002
-0.20926553 -0.06890469 0.52600002
-0.20749897 -0.068773694 0.52500004
-0.20613027 -0.068773694 0.52500004
-0.20476155 -0.068773694 0.52500004
-0.20300545 -0.068642698 0.52400005
-0.20163934 -0.068642698 0.52400005
-0.20027323 -0.068642698 0.52400005
-0.19852751 -0.068511695 0.523
-0.19716401 -0.068511695 0.523
-0.19542617 -0.068380699 0.52200001
-0.19406526 -0.068380699 0.52200001
-0.19233522 -0.068249702 0.52100003
-0.19097693 -0.068249702 0.52100003
-0.18961866 -0.068249702 0.52100003
-0.18789904 -0.068118706 0.52000004
-0.18654338 -0.068118706 0.52000004
-0.18483157 -0.067987718 0.51900005
-0.18312497 -0.067856714 0.51800001
-0.18177451 -0.067856714 0.51800001
-0.18042403 -0.067856714 0.51800001
-0.1787279 -0.067725718 0.51700002
-0.17738003 -0.067725718 0.51700002
-0.17569171 -0.067594722 0.51600003
-0.17434645 -0.067594722 0.51600003
-0.17266595 -0.067463726 0.51500005
-0.1713233 -0.067463726 0.51500005
-0.1696506 -0.067332722 0.514
-0.16831055 -0.067332722 0.514
-0.16664569 -0.067201726 0.51300001
-0.16530827 -0.067201726 0.51300001
-0.16397084 -0.067201726 0.51300001
-0.16199937 -0.066939734 0.51100004
-0.16066717 -0.066939734 0.51100004
-0.15902315 -0.066808738 0.51000005
-0.15738432 -0.066677734 0.509
-0.15544416 -0.066415742 0.50700003
-0.15351439 -0.066153742 0.505
-0.15129368 -0.065760754 0.50200003
-0.14938737 -0.065498754 0.5
-0.14660302 -0.064843774 0.49500003
-0.13801216 -0.063271798 0.48300001
-0.13618669 -0.063009806 0.48100004
-0.13465215 -0.06287881 0.48000002
-0.13340077 -0.06287881 0.48000002
-0.13214937 -0.06287881 0.48000002
-0.13089798 -0.06287881 0.48000002
-0.12964658 -0.06287881 0.48000002
-0.12812772 -0.062747814 0.47900003
-0.12687893 -0.062747814 0.47900003
-0.12536786 -0.06261681 0.47800002
-0.12360235 -0.062354814 0.47600001
-0.12210434 -0.062223818 0.47500002
-0.12035707 -0.061961826 0.47300002
-0.11887208 -0.06183083 0.47200003
-0.11714306 -0.061568834 0.47000003
-0.11567111 -0.061437834 0.46900001
-0.11396034 -0.061175838 0.46700001
-0.11250143 -0.061044842 0.46600002
-0.11080891 -0.060782846 0.46400002
-0.10912682 -0.06052085 0.46200001
-0.10745516 -0.060258854 0.46000001
-0.096797459 -0.05960387 0.45500001
-0.095401108 -0.059472874 0.45400003
-0.094217509 -0.059472874 0.45400003
-0.093033902 -0.059472874 0.45400003
-0.091850296 -0.059472874 0.45400003
-0.090466976 -0.059341874 0.45300001
-0.08928597 -0.059341874 0.45300001
-0.088104971 -0.059341874 0.45300001
-0.086923972 -0.059341874 0.45300001
-0.085553698 -0.059210878 0.45200002
-0.084375307 -0.059210878 0.45200002
-0.083196916 -0.059210878 0.45200002
-0.082018517 -0.059210878 0.45200002
-0.080840126 -0.059210878 0.45200002
-0.079661734 -0.059210878 0.45200002
-0.078483343 -0.059210878 0.45200002
-0.077304952 -0.059210878 0.45200002
-0.076294981 -0.059341874 0.45300001
-0.075279795 -0.059472874 0.45400003
-0.074422598 -0.05973487 0.45600003
-0.073554978 -0.059996862 0.45800003
-0.072518937 -0.060127858 0.45900002
-0.071788453 -0.06052085 0.46200001
-0.071042329 -0.060913846 0.46500003
-0.070280559 -0.061306838 0.46800002
-0.069355585 -0.061568834 0.47000003
-0.068565138 -0.061961826 0.47300002
-0.067616701 -0.062223818 0.47500002
-0.066657834 -0.062485814 0.47700003
-0.065688543 -0.062747814 0.47900003
-0.064708814 -0.063009806 0.48100004
-0.063454822 -0.063009806 0.48100004
-0.06233013 -0.063140802 0.48200002
-0.061073527 -0.063140802 0.48200002
-0.059816923 -0.063140802 0.48200002
-0.058681812 -0.063271798 0.48300001
-0.057422597 -0.063271798 0.48300001
-0.056047108 -0.063140802 0.48200002
-0.054790504 -0.063140802 0.48200002
-0.053533901 -0.063140802 0.48200002
-0.052277297 -0.063140802 0.48200002
-0.051020693 -0.063140802 0.48200002
-0.049660839 -0.063009806 0.48100004
-0.048406843 -0.063009806 0.48100004
-0.047152847 -0.063009806 0.48100004
-0.045898847 -0.063009806 0.48100004
-0.044644851 -0.063009806 0.48100004
-0.043300644 -0.06287881 0.48000002
-0.042049255 -0.06287881 0.48000002
-0.040797859 -0.06287881 0.48000002
-0.039464083 -0.062747814 0.47900003
-0.038215298 -0.062747814 0.47900003
-0.036889341 -0.06261681 0.47800002
-0.035643164 -0.06261681 0.47800002
-0.03432503 -0.062485814 0.47700003
-0.033081457 -0.062485814 0.47700003
-0.031771142 -0.062354814 0.47600001
-0.030466041 -0.062223818 0.47500002
-0.029227687 -0.062223818 0.47500002
-0.027930407 -0.062092826 0.47400004
-0.026694657 -0.062092826 0.47400004
-0.02545891 -0.062092826 0.47400004
-0.024172058 -0.061961826 0.47300002
-0.022938916 -0.061961826 0.47300002
-0.021705775 -0.061961826 0.47300002
-0.020472635 -0.061961826 0.47300002
-0.019198818 -0.06183083 0.47200003
-0.017968284 -0.06183083 0.47200003
-0.016702289 -0.06169983 0.47100002
-0.015474361 -0.06169983 0.47100002
-0.014246434 -0.06169983 0.47100002
-0.013018508 -0.06169983 0.47100002
-0.011765547 -0.061568834 0.47000003
