# .PCD v0.7 - Point Cloud Data file format
VERSION 0.7
FIELDS x y z
SIZE 4 4 4
TYPE F F F
COUNT 1 1 1
WIDTH 1341
HEIGHT 1
VIEWPOINT 0 0 0 1 0 0 0
POINTS 1341
DATA ascii
0.16867186 -0.054682814 0.48500001
0.16993628 -0.054682814 0.48500001
0.17120071 -0.054682814 0.48500001
0.17246513 -0.054682814 0.48500001
0.17372955 -0.054682814 0.48500001
0.17499399 -0.054682814 0.48500001
0.17625841 -0.054682814 0.48500001
0.17752284 -0.054682814 0.48500001
0.17878728 -0.054682814 0.48500001
0.18005168 -0.054682814 0.48500001
0.18131612 -0.054682814 0.48500001
0.18258055 -0.054682814 0.48500001
0.18384497 -0.054682814 0.48500001
0.18510939 -0.054682814 0.48500001
0.18637383 -0.054682814 0.48500001
0.18763824 -0.054682814 0.48500001
0.18890268 -0.054682814 0.48500001
0.1901671 -0.054682814 0.48500001
0.19143152 -0.054682814 0.48500001
0.19269596 -0.054682814 0.48500001
0.19396037 -0.054682814 0.48500001
0.19522481 -0.054682814 0.48500001
0.19648923 -0.054682814 0.48500001
0.19775365 -0.054682814 0.48500001
0.19860774 -0.054570068 0.48400003
0.19986956 -0.054570068 0.48400003
0.20154692 -0.054682814 0.48500001
0.20281136 -0.054682814 0.48500001
0.203655 -0.054570068 0.48400003
0.20491683 -0.054570068 0.48400003
0.20617865 -0.054570068 0.48400003
0.20786907 -0.054682814 0.48500001
0.20913349 -0.054682814 0.48500001
0.21039791 -0.054682814 0.48500001
0.21166234 -0.054682814 0.48500001
0.21292676 -0.054682814 0.48500001
0.21374957 -0.054570068 0.48400003
0.21501137 -0.054570068 0.48400003
0.2162732 -0.054570068 0.48400003
0.21753502 -0.054570068 0.48400003
0.21924889 -0.054682814 0.48500001
0.22051331 -0.054682814 0.48500001
0.22177775 -0.054682814 0.48500001
0.22304216 -0.054682814 0.48500001
0.2243066 -0.054682814 0.48500001
0.22557104 -0.054682814 0.48500001
0.22683544 -0.054682814 0.48500001
0.22809988 -0.054682814 0.48500001
-0.26924026 -0.052757543 0.47900003
-0.26799148 -0.052757543 0.47900003
-0.26674268 -0.052757543 0.47900003
-0.2654939 -0.052757543 0.47900003
-0.26424512 -0.052757543 0.47900003
-0.26299632 -0.052757543 0.47900003
-0.26174754 -0.052757543 0.47900003
-0.26049876 -0.052757543 0.47900003
-0.25924999 -0.052757543 0.47900003
-0.25800118 -0.052757543 0.47900003
-0.25675243 -0.052757543 0.47900003
-0.25603706 -0.052867685 0.48000002
-0.25478566 -0.052867685 0.48000002
-0.25353426 -0.052867685 0.48000002
-0.25228286 -0.052867685 0.48000002
-0.25103149 -0.052867685 0.48000002
-0.2497801 -0.052867685 0.48000002
-0.24801093 -0.052757543 0.47900003
-0.24676216 -0.052757543 0.47900003
-0.24551338 -0.052757543 0.47900003
-0.24426457 -0.052757543 0.47900003
-0.2430158 -0.052757543 0.47900003
-0.24176702 -0.052757543 0.47900003
-0.24051824 -0.052757543 0.47900003
-0.23926945 -0.052757543 0.47900003
-0.23802066 -0.052757543 0.47900003
-0.2367719 -0.052757543 0.47900003
-0.2355231 -0.052757543 0.47900003
-0.23427433 -0.052757543 0.47900003
-0.23302554 -0.052757543 0.47900003
-0.23177674 -0.052757543 0.47900003
-0.23052797 -0.052757543 0.47900003
-0.22927918 -0.052757543 0.47900003
-0.2280304 -0.052757543 0.47900003
-0.22678161 -0.052757543 0.47900003
-0.22600368 -0.052867685 0.48000002
-0.22475228 -0.052867685 0.48000002
-0.22303528 -0.052757543 0.47900003
-0.22178648 -0.052757543 0.47900003
-0.22099811 -0.052867685 0.48000002
-0.21974671 -0.052867685 0.48000002
-0.21849532 -0.052867685 0.48000002
-0.21724394 -0.052867685 0.48000002
-0.21599254 -0.052867685 0.48000002
-0.21429378 -0.052757543 0.47900003
-0.21304499 -0.052757543 0.47900003
-0.21179621 -0.052757543 0.47900003
-0.21054743 -0.052757543 0.47900003
-0.20929866 -0.052757543 0.47900003
-0.20804986 -0.052757543 0.47900003
-0.20680109 -0.052757543 0.47900003
-0.20555229 -0.052757543 0.47900003
-0.20430352 -0.052757543 0.47900003
-0.20305473 -0.052757543 0.47900003
-0.20222725 -0.052867685 0.48000002
-0.20097585 -0.052867685 0.48000002
-0.19972445 -0.052867685 0.48000002
-0.19847308 -0.052867685 0.48000002
-0.19722168 -0.052867685 0.48000002
-0.1959703 -0.052867685 0.48000002
-0.1947189 -0.052867685 0.48000002
-0.19346751 -0.052867685 0.48000002
-0.19221611 -0.052867685 0.48000002
-0.19096473 -0.052867685 0.48000002
-0.18971334 -0.052867685 0.48000002
-0.18846196 -0.052867685 0.48000002
-0.18721056 -0.052867685 0.48000002
-0.18595918 -0.052867685 0.48000002
-0.18470778 -0.052867685 0.48000002
-0.18345638 -0.052867685 0.48000002
-0.1825846 -0.052977826 0.48100004
-0.18133059 -0.052977826 0.48100004
-0.1800766 -0.052977826 0.48100004
-0.17882259 -0.052977826 0.48100004
-0.17756861 -0.052977826 0.48100004
-0.17631461 -0.052977826 0.48100004
-0.17506061 -0.052977826 0.48100004
-0.17380661 -0.052977826 0.48100004
-0.17255262 -0.052977826 0.48100004
-0.17129862 -0.052977826 0.48100004
-0.17004463 -0.052977826 0.48100004
-0.1684397 -0.052867685 0.48000002
-0.1671883 -0.052867685 0.48000002
-0.16593692 -0.052867685 0.48000002
-0.16468552 -0.052867685 0.48000002
-0.16343413 -0.052867685 0.48000002
-0.16218275 -0.052867685 0.48000002
-0.16093136 -0.052867685 0.48000002
-0.15967996 -0.052867685 0.48000002
-0.15842858 -0.052867685 0.48000002
-0.15717718 -0.052867685 0.48000002
-0.1559258 -0.052867685 0.48000002
-0.1546744 -0.052867685 0.48000002
-0.15342303 -0.052867685 0.48000002
-0.15217163 -0.052867685 0.48000002
-0.15092023 -0.052867685 0.48000002
-0.14966884 -0.052867685 0.48000002
-0.14841744 -0.052867685 0.48000002
-0.14716606 -0.052867685 0.48000002
-0.14591466 -0.052867685 0.48000002
-0.14466329 -0.052867685 0.48000002
-0.14341189 -0.052867685 0.48000002
-0.14186434 -0.052757543 0.47900003
-0.14061555 -0.052757543 0.47900003
-0.13936678 -0.052757543 0.47900003
-0.13782963 -0.052647401 0.47800002
-0.13658346 -0.052647401 0.47800002
-0.13533728 -0.052647401 0.47800002
-0.13381058 -0.052537262 0.47700003
-0.13256702 -0.052537262 0.47700003
-0.13132344 -0.052537262 0.47700003
-0.13007988 -0.052537262 0.47700003
-0.1288363 -0.052537262 0.47700003
-0.12759274 -0.052537262 0.47700003
-0.12634917 -0.052537262 0.47700003
-0.1251056 -0.052537262 0.47700003
-0.12386202 -0.052537262 0.47700003
-0.12261846 -0.052537262 0.47700003
-0.12137488 -0.052537262 0.47700003
-0.12013132 -0.052537262 0.47700003
-0.11888774 -0.052537262 0.47700003
-0.11764418 -0.052537262 0.47700003
-0.11640061 -0.052537262 0.47700003
-0.11515704 -0.052537262 0.47700003
-0.11391347 -0.052537262 0.47700003
-0.1126699 -0.052537262 0.47700003
-0.11142634 -0.052537262 0.47700003
-0.10995176 -0.052427117 0.47600001
-0.10848242 -0.052316979 0.47500002
-0.10701829 -0.05220684 0.47400004
-0.10555937 -0.052096695 0.47300002
-0.10388511 -0.051876415 0.47100002
-0.10243922 -0.051766273 0.47000003
-0.10099855 -0.051656131 0.46900001
-0.099350356 -0.051435847 0.46700001
-0.098132856 -0.051435847 0.46700001
-0.096707836 -0.051325709 0.46600002
-0.095492944 -0.051325709 0.46600002
-0.094480366 -0.051435847 0.46700001
-0.093462572 -0.051545992 0.46800002
-0.092439562 -0.051656131 0.46900001
-0.091411345 -0.051766273 0.47000003
-0.090377904 -0.051876415 0.47100002
-0.089339264 -0.051986557 0.47200003
-0.088295393 -0.052096695 0.47300002
-0.087246321 -0.05220684 0.47400004
-0.086373486 -0.052427117 0.47600001
-0.085311376 -0.052537262 0.47700003
-0.084244043 -0.052647401 0.47800002
-0.083171509 -0.052757543 0.47900003
-0.082093753 -0.052867685 0.48000002
-0.080842361 -0.052867685 0.48000002
-0.079590969 -0.052867685 0.48000002
-0.078339577 -0.052867685 0.48000002
-0.077088185 -0.052867685 0.48000002
-0.075836793 -0.052867685 0.48000002
-0.074585408 -0.052867685 0.48000002
-0.073334016 -0.052867685 0.48000002
-0.072082624 -0.052867685 0.48000002
-0.070683673 -0.052757543 0.47900003
-0.069434889 -0.052757543 0.47900003
-0.068043754 -0.052647401 0.47800002
-0.066797577 -0.052647401 0.47800002
-0.065414265 -0.052537262 0.47700003
-0.064170696 -0.052537262 0.47700003
-0.062795199 -0.052427117 0.47600001
-0.061424918 -0.052316979 0.47500002
-0.060186565 -0.052316979 0.47500002
-0.058824115 -0.05220684 0.47400004
-0.054768026 -0.051876415 0.47100002
-0.052090038 -0.051656131 0.46900001
-0.050867327 -0.051656131 0.46900001
-0.049644616 -0.051656131 0.46900001
-0.048318654 -0.051545992 0.46800002
-0.046997909 -0.051435847 0.46700001
-0.040297199 -0.050664861 0.46000001
-0.03909795 -0.050664861 0.46000001
-0.037816312 -0.050554723 0.45900002
-0.036619671 -0.050554723 0.45900002
-0.035423029 -0.050554723 0.45900002
-0.034151822 -0.050444584 0.45800003
-0.032957785 -0.050444584 0.45800003
-0.031763747 -0.050444584 0.45800003
-0.030569714 -0.050444584 0.45800003
-0.029375678 -0.050444584 0.45800003
-0.028181644 -0.050444584 0.45800003
-0.026928684 -0.050334439 0.45700002
-0.025737254 -0.050334439 0.45700002
-0.024545826 -0.050334439 0.45700002
-0.023354398 -0.050334439 0.45700002
-0.022114472 -0.0502243 0.45600003
-0.020925652 -0.0502243 0.45600003
-0.019736832 -0.0502243 0.45600003
-0.01854801 -0.0502243 0.45600003
-0.017321121 -0.050114159 0.45500001
-0.016099446 -0.050004017 0.45400003
-0.01491584 -0.050004017 0.45400003
-0.013732231 -0.050004017 0.45400003
-0.012548625 -0.050004017 0.45400003
-0.011365018 -0.050004017 0.45400003
-0.010181411 -0.050004017 0.45400003
-0.0089978036 -0.050004017 0.45400003
-0.0078141969 -0.050004017 0.45400003
-0.0066305897 -0.050004017 0.45400003
-0.005446983 -0.050004017 0.45400003
-0.0042633764 -0.050004017 0.45400003
-0.0030797694 -0.050004017 0.45400003
-0.0018961623 -0.050004017 0.45400003
-0.00071255537 -0.050004017 0.45400003
0.00047105161 -0.050004017 0.45400003
0.0016510139 -0.049893875 0.45300001
0.0028257621 -0.049783736 0.45200002
0.0039952965 -0.049673595 0.45100003
0.005159616 -0.049563453 0.45000002
0.0063187219 -0.049453314 0.44900003
0.0074892938 -0.049453314 0.44900003
0.008640578 -0.049343169 0.44800001
0.0098085422 -0.049343169 0.44800001
0.010976507 -0.049343169 0.44800001
0.012117364 -0.049233031 0.44700003
0.013282722 -0.049233031 0.44700003
0.014448078 -0.049233031 0.44700003
0.015613436 -0.049233031 0.44700003
0.016778793 -0.049233031 0.44700003
0.017944152 -0.049233031 0.44700003
0.019066757 -0.049122889 0.44600001
0.020229509 -0.049122889 0.44600001
0.021440223 -0.049233031 0.44700003
0.022605581 -0.049233031 0.44700003
0.02377094 -0.049233031 0.44700003
0.024936296 -0.049233031 0.44700003
0.026101653 -0.049233031 0.44700003
0.027267013 -0.049233031 0.44700003
0.028495973 -0.049343169 0.44800001
0.029663941 -0.049343169 0.44800001
0.030831905 -0.049343169 0.44800001
0.031999867 -0.049343169 0.44800001
0.033167832 -0.049343169 0.44800001
0.034335796 -0.049343169 0.44800001
0.03550376 -0.049343169 0.44800001
0.036671728 -0.049343169 0.44800001
0.037839692 -0.049343169 0.44800001
0.039007656 -0.049343169 0.44800001
0.04017562 -0.049343169 0.44800001
0.041343585 -0.049343169 0.44800001
0.042511549 -0.049343169 0.44800001
0.043679513 -0.049343169 0.44800001
0.044947587 -0.049453314 0.44900003
0.046118159 -0.049453314 0.44900003
0.047288731 -0.049453314 0.44900003
0.048459303 -0.049453314 0.44900003
0.049629871 -0.049453314 0.44900003
0.050800443 -0.049453314 0.44900003
0.051971018 -0.049453314 0.44900003
0.05314159 -0.049453314 0.44900003
0.054312158 -0.049453314 0.44900003
0.05548273 -0.049453314 0.44900003
0.056653302 -0.049453314 0.44900003
0.057695087 -0.049343169 0.44800001
0.058863051 -0.049343169 0.44800001
0.060031015 -0.049343169 0.44800001
0.06119898 -0.049343169 0.44800001
0.062366944 -0.049343169 0.44800001
0.063534915 -0.049343169 0.44800001
0.064702876 -0.049343169 0.44800001
0.065870844 -0.049343169 0.44800001
0.067038804 -0.049343169 0.44800001
0.068206772 -0.049343169 0.44800001
0.069529593 -0.049453314 0.44900003
0.070857622 -0.049563453 0.45000002
0.072190873 -0.049673595 0.45100003
0.073529333 -0.049783736 0.45200002
0.075203568 -0.050114159 0.45500001
0.076725565 -0.050334439 0.45700002
0.078257985 -0.050554723 0.45900002
0.079973936 -0.050885145 0.46200001
0.081529826 -0.051105425 0.46400002
0.083096139 -0.051325709 0.46600002
0.084672883 -0.051545992 0.46800002
0.089465678 -0.05220684 0.47400004
0.090892777 -0.052316979 0.47500002
0.092519052 -0.052537262 0.47700003
0.093959183 -0.052647401 0.47800002
0.095404536 -0.052757543 0.47900003
0.096855104 -0.052867685 0.48000002
0.09831088 -0.052977826 0.48100004
0.099771872 -0.053087965 0.48200002
0.10102849 -0.053087965 0.48200002
0.10249729 -0.053198107 0.48300001
0.10375651 -0.053198107 0.48300001
0.10501572 -0.053198107 0.48300001
0.10627493 -0.053198107 0.48300001
0.10753414 -0.053198107 0.48300001
0.10879335 -0.053198107 0.48300001
0.11005256 -0.053198107 0.48300001
0.11131177 -0.053198107 0.48300001
0.11257099 -0.053198107 0.48300001
0.11383019 -0.053198107 0.48300001
0.11508941 -0.053198107 0.48300001
0.11634862 -0.053198107 0.48300001
0.11760784 -0.053198107 0.48300001
0.11886705 -0.053198107 0.48300001
0.12012626 -0.053198107 0.48300001
0.12138546 -0.053198107 0.48300001
0.12264469 -0.053198107 0.48300001
0.12390389 -0.053198107 0.48300001
0.12542224 -0.053308249 0.48400003
0.12668407 -0.053308249 0.48400003
0.12794589 -0.053308249 0.48400003
0.1292077 -0.053308249 0.48400003
0.13046952 -0.053308249 0.48400003
0.13173135 -0.053308249 0.48400003
0.13299316 -0.053308249 0.48400003
0.13425498 -0.053308249 0.48400003
0.13551679 -0.053308249 0.48400003
0.13677862 -0.053308249 0.48400003
0.13804042 -0.053308249 0.48400003
0.13930225 -0.053308249 0.48400003
0.14056407 -0.053308249 0.48400003
0.14182588 -0.053308249 0.48400003
0.14308771 -0.053308249 0.48400003
0.14434953 -0.053308249 0.48400003
0.14561135 -0.053308249 0.48400003
0.14687316 -0.053308249 0.48400003
0.14813499 -0.053308249 0.48400003
0.14939681 -0.053308249 0.48400003
0.15065862 -0.053308249 0.48400003
0.15192044 -0.053308249 0.48400003
0.15318227 -0.053308249 0.48400003
0.15444407 -0.053308249 0.48400003
0.1557059 -0.053308249 0.48400003
0.15696771 -0.053308249 0.48400003
0.15822953 -0.053308249 0.48400003
0.15949136 -0.053308249 0.48400003
0.16075318 -0.053308249 0.48400003
0.16201499 -0.053308249 0.48400003
0.16327681 -0.053308249 0.48400003
0.16453864 -0.053308249 0.48400003
0.16580045 -0.053308249 0.48400003
0.16740744 -0.053418387 0.48500001
0.16867186 -0.053418387 0.48500001
0.16993628 -0.053418387 0.48500001
0.17120071 -0.053418387 0.48500001
0.17246513 -0.053418387 0.48500001
0.17372955 -0.053418387 0.48500001
0.17499399 -0.053418387 0.48500001
0.17625841 -0.053418387 0.48500001
0.17752284 -0.053418387 0.48500001
0.17878728 -0.053418387 0.48500001
0.18005168 -0.053418387 0.48500001
0.18131612 -0.053418387 0.48500001
0.18258055 -0.053418387 0.48500001
0.18384497 -0.053418387 0.48500001
0.18510939 -0.053418387 0.48500001
0.18637383 -0.053418387 0.48500001
0.18763824 -0.053418387 0.48500001
0.18890268 -0.053418387 0.48500001
0.1901671 -0.053418387 0.48500001
0.19143152 -0.053418387 0.48500001
0.19269596 -0.053418387 0.48500001
0.19396037 -0.053418387 0.48500001
0.19522481 -0.053418387 0.48500001
0.1960841 -0.053308249 0.48400003
0.19734593 -0.053308249 0.48400003
0.19860774 -0.053308249 0.48400003
0.19986956 -0.053308249 0.48400003
0.20113137 -0.053308249 0.48400003
0.2023932 -0.053308249 0.48400003
0.203655 -0.053308249 0.48400003
0.20491683 -0.053308249 0.48400003
0.20617865 -0.053308249 0.48400003
0.20786907 -0.053418387 0.48500001
0.20913349 -0.053418387 0.48500001
0.21039791 -0.053418387 0.48500001
0.21166234 -0.053418387 0.48500001
0.21292676 -0.053418387 0.48500001
0.2141912 -0.053418387 0.48500001
0.21545561 -0.053418387 0.48500001
0.21672004 -0.053418387 0.48500001
0.21798447 -0.053418387 0.48500001
0.21924889 -0.053418387 0.48500001
0.22051331 -0.053418387 0.48500001
0.22177775 -0.053418387 0.48500001
0.22304216 -0.053418387 0.48500001
0.2243066 -0.053418387 0.48500001
0.22557104 -0.053418387 0.48500001
0.22683544 -0.053418387 0.48500001
0.22809988 -0.053418387 0.48500001
-0.26924026 -0.051508758 0.47900003
-0.26799148 -0.051508758 0.47900003
-0.26674268 -0.051508758 0.47900003
-0.2654939 -0.051508758 0.47900003
-0.26424512 -0.051508758 0.47900003
-0.26299632 -0.051508758 0.47900003
-0.26174754 -0.051508758 0.47900003
-0.26049876 -0.051508758 0.47900003
-0.25924999 -0.051508758 0.47900003
-0.25800118 -0.051508758 0.47900003
-0.25728843 -0.051616289 0.48000002
-0.25603706 -0.051616289 0.48000002
-0.25478566 -0.051616289 0.48000002
-0.25353426 -0.051616289 0.48000002
-0.25228286 -0.051616289 0.48000002
-0.25103149 -0.051616289 0.48000002
-0.2497801 -0.051616289 0.48000002
-0.24801093 -0.051508758 0.47900003
-0.24676216 -0.051508758 0.47900003
-0.24551338 -0.051508758 0.47900003
-0.24426457 -0.051508758 0.47900003
-0.2430158 -0.051508758 0.47900003
-0.24176702 -0.051508758 0.47900003
-0.24051824 -0.051508758 0.47900003
-0.23926945 -0.051508758 0.47900003
-0.23802066 -0.051508758 0.47900003
-0.2367719 -0.051508758 0.47900003
-0.2355231 -0.051508758 0.47900003
-0.23427433 -0.051508758 0.47900003
-0.23302554 -0.051508758 0.47900003
-0.23177674 -0.051508758 0.47900003
-0.23052797 -0.051508758 0.47900003
-0.22927918 -0.051508758 0.47900003
-0.2280304 -0.051508758 0.47900003
-0.22678161 -0.051508758 0.47900003
-0.22600368 -0.051616289 0.48000002
-0.22475228 -0.051616289 0.48000002
-0.22350089 -0.051616289 0.48000002
-0.22224949 -0.051616289 0.48000002
-0.22099811 -0.051616289 0.48000002
-0.21974671 -0.051616289 0.48000002
-0.21849532 -0.051616289 0.48000002
-0.21724394 -0.051616289 0.48000002
-0.21599254 -0.051616289 0.48000002
-0.21474116 -0.051616289 0.48000002
-0.21304499 -0.051508758 0.47900003
-0.21179621 -0.051508758 0.47900003
-0.21054743 -0.051508758 0.47900003
-0.20929866 -0.051508758 0.47900003
-0.20804986 -0.051508758 0.47900003
-0.20680109 -0.051508758 0.47900003
-0.20555229 -0.051508758 0.47900003
-0.20430352 -0.051508758 0.47900003
-0.20305473 -0.051508758 0.47900003
-0.20180595 -0.051508758 0.47900003
-0.20097585 -0.051616289 0.48000002
-0.19972445 -0.051616289 0.48000002
-0.19847308 -0.051616289 0.48000002
-0.19722168 -0.051616289 0.48000002
-0.1959703 -0.051616289 0.48000002
-0.1947189 -0.051616289 0.48000002
-0.19346751 -0.051616289 0.48000002
-0.19221611 -0.051616289 0.48000002
-0.19096473 -0.051616289 0.48000002
-0.18971334 -0.051616289 0.48000002
-0.18846196 -0.051616289 0.48000002
-0.18721056 -0.051616289 0.48000002
-0.18595918 -0.051616289 0.48000002
-0.18470778 -0.051616289 0.48000002
-0.18345638 -0.051616289 0.48000002
-0.18220499 -0.051616289 0.48000002
-0.18133059 -0.051723827 0.48100004
-0.1800766 -0.051723827 0.48100004
-0.17882259 -0.051723827 0.48100004
-0.17756861 -0.051723827 0.48100004
-0.17631461 -0.051723827 0.48100004
-0.17506061 -0.051723827 0.48100004
-0.17380661 -0.051723827 0.48100004
-0.17255262 -0.051723827 0.48100004
-0.17129862 -0.051723827 0.48100004
-0.17004463 -0.051723827 0.48100004
-0.1684397 -0.051616289 0.48000002
-0.1671883 -0.051616289 0.48000002
-0.16593692 -0.051616289 0.48000002
-0.16468552 -0.051616289 0.48000002
-0.16343413 -0.051616289 0.48000002
-0.16218275 -0.051616289 0.48000002
-0.16093136 -0.051616289 0.48000002
-0.15967996 -0.051616289 0.48000002
-0.15842858 -0.051616289 0.48000002
-0.15717718 -0.051616289 0.48000002
-0.1559258 -0.051616289 0.48000002
-0.1546744 -0.051616289 0.48000002
-0.15342303 -0.051616289 0.48000002
-0.15217163 -0.051616289 0.48000002
-0.15092023 -0.051616289 0.48000002
-0.14966884 -0.051616289 0.48000002
-0.14841744 -0.051616289 0.48000002
-0.14716606 -0.051616289 0.48000002
-0.14591466 -0.051616289 0.48000002
-0.14466329 -0.051616289 0.48000002
-0.14311312 -0.051508758 0.47900003
-0.14186434 -0.051508758 0.47900003
-0.14061555 -0.051508758 0.47900003
-0.13907582 -0.05140122 0.47800002
-0.13782963 -0.05140122 0.47800002
-0.13629773 -0.05129369 0.47700003
-0.13505416 -0.05129369 0.47700003
-0.13353005 -0.051186152 0.47600001
-0.1322891 -0.051186152 0.47600001
-0.13104813 -0.051186152 0.47600001
-0.12953447 -0.051078621 0.47500002
-0.12829611 -0.051078621 0.47500002
-0.12732524 -0.051186152 0.47600001
-0.12608427 -0.051186152 0.47600001
-0.12484332 -0.051186152 0.47600001
-0.12360235 -0.051186152 0.47600001
-0.1223614 -0.051186152 0.47600001
-0.12086598 -0.051078621 0.47500002
-0.11987947 -0.051186152 0.47600001
-0.1186385 -0.051186152 0.47600001
-0.11739754 -0.051186152 0.47600001
-0.11615658 -0.051186152 0.47600001
-0.11491562 -0.051186152 0.47600001
-0.11367466 -0.051186152 0.47600001
-0.11243369 -0.051186152 0.47600001
-0.11095913 -0.051078621 0.47500002
-0.10972077 -0.051078621 0.47500002
-0.10802566 -0.050863553 0.47300002
-0.10679251 -0.050863553 0.47300002
-0.10511303 -0.050648484 0.47100002
-0.10366455 -0.05054095 0.47000003
-0.10222127 -0.050433416 0.46900001
-0.10056785 -0.050218347 0.46700001
-0.099350356 -0.050218347 0.46700001
-0.097922727 -0.050110813 0.46600002
-0.096707836 -0.050110813 0.46600002
-0.095492944 -0.050110813 0.46600002
-0.094480366 -0.050218347 0.46700001
-0.093662277 -0.050433416 0.46900001
-0.092439562 -0.050433416 0.46900001
-0.091411345 -0.05054095 0.47000003
-0.090569794 -0.050756019 0.47200003
-0.089528538 -0.050863553 0.47300002
-0.088482067 -0.050971087 0.47400004
-0.08743038 -0.051078621 0.47500002
-0.086554945 -0.05129369 0.47700003
-0.085311376 -0.05129369 0.47700003
-0.084244043 -0.05140122 0.47800002
-0.083171509 -0.051508758 0.47900003
-0.082093753 -0.051616289 0.48000002
-0.080842361 -0.051616289 0.48000002
-0.079590969 -0.051616289 0.48000002
-0.078339577 -0.051616289 0.48000002
-0.077248789 -0.051723827 0.48100004
-0.075836793 -0.051616289 0.48000002
-0.074585408 -0.051616289 0.48000002
-0.073334016 -0.051616289 0.48000002
-0.072082624 -0.051616289 0.48000002
-0.070683673 -0.051508758 0.47900003
-0.069434889 -0.051508758 0.47900003
-0.068043754 -0.05140122 0.47800002
-0.066797577 -0.05140122 0.47800002
-0.065414265 -0.05129369 0.47700003
-0.064036168 -0.051186152 0.47600001
-0.062795199 -0.051186152 0.47600001
-0.061295606 -0.050971087 0.47400004
-0.059933148 -0.050863553 0.47300002
-0.05870001 -0.050863553 0.47300002
-0.055877063 -0.05054095 0.47000003
-0.053199079 -0.050325882 0.46800002
-0.050541949 -0.050110813 0.46600002
-0.049327057 -0.050110813 0.46600002
-0.048112165 -0.050110813 0.46600002
-0.041496448 -0.049465608 0.46000001
-0.040209599 -0.049358077 0.45900002
-0.039012954 -0.049358077 0.45900002
-0.037816312 -0.049358077 0.45900002
-0.036619671 -0.049358077 0.45900002
-0.035423029 -0.049358077 0.45900002
-0.034226388 -0.049358077 0.45900002
-0.032957785 -0.049250543 0.45800003
-0.031763747 -0.049250543 0.45800003
-0.030569714 -0.049250543 0.45800003
-0.029375678 -0.049250543 0.45800003
-0.02812011 -0.049143009 0.45700002
-0.026928684 -0.049143009 0.45700002
-0.025737254 -0.049143009 0.45700002
-0.024492117 -0.049035475 0.45600003
-0.023303296 -0.049035475 0.45600003
-0.022114472 -0.049035475 0.45600003
-0.020925652 -0.049035475 0.45600003
-0.01969355 -0.04892794 0.45500001
-0.018507333 -0.04892794 0.45500001
-0.017283052 -0.048820406 0.45400003
-0.016099446 -0.048820406 0.45400003
-0.01491584 -0.048820406 0.45400003
-0.013732231 -0.048820406 0.45400003
-0.012548625 -0.048820406 0.45400003
-0.011365018 -0.048820406 0.45400003
-0.010181411 -0.048820406 0.45400003
-0.0089978036 -0.048820406 0.45400003
-0.0078141969 -0.048820406 0.45400003
-0.0066305897 -0.048820406 0.45400003
-0.005446983 -0.048820406 0.45400003
-0.0042633764 -0.048820406 0.45400003
-0.0030797694 -0.048820406 0.45400003
-0.0018961623 -0.048820406 0.45400003
-0.00071255537 -0.048820406 0.45400003
0.00047105161 -0.048820406 0.45400003
0.0016473694 -0.048605338 0.45200002
0.0028257621 -0.048605338 0.45200002
0.0039952965 -0.048497807 0.45100003
0.005159616 -0.048390273 0.45000002
0.0063187219 -0.048282739 0.44900003
0.0074892938 -0.048282739 0.44900003
0.008640578 -0.048175205 0.44800001
0.0098085422 -0.048175205 0.44800001
0.010976507 -0.048175205 0.44800001
0.012117364 -0.04806767 0.44700003
0.013282722 -0.04806767 0.44700003
0.014448078 -0.04806767 0.44700003
0.015613436 -0.04806767 0.44700003
0.016778793 -0.04806767 0.44700003
0.017944152 -0.04806767 0.44700003
0.019109508 -0.04806767 0.44700003
0.020274866 -0.04806767 0.44700003
0.021440223 -0.04806767 0.44700003
0.022605581 -0.04806767 0.44700003
0.02377094 -0.04806767 0.44700003
0.024936296 -0.04806767 0.44700003
0.026160045 -0.048175205 0.44800001
0.027328011 -0.048175205 0.44800001
0.028495973 -0.048175205 0.44800001
0.029663941 -0.048175205 0.44800001
0.030831905 -0.048175205 0.44800001
0.0320713 -0.048282739 0.44900003
0.033167832 -0.048175205 0.44800001
0.034335796 -0.048175205 0.44800001
0.03550376 -0.048175205 0.44800001
0.036671728 -0.048175205 0.44800001
0.037839692 -0.048175205 0.44800001
0.039094727 -0.048282739 0.44900003
0.040265299 -0.048282739 0.44900003
0.041343585 -0.048175205 0.44800001
0.042606443 -0.048282739 0.44900003
0.043777011 -0.048282739 0.44900003
0.044947587 -0.048282739 0.44900003
0.046118159 -0.048282739 0.44900003
0.047288731 -0.048282739 0.44900003
0.048459303 -0.048282739 0.44900003
0.049629871 -0.048282739 0.44900003
0.050800443 -0.048282739 0.44900003
0.051971018 -0.048282739 0.44900003
0.05314159 -0.048282739 0.44900003
0.054312158 -0.048282739 0.44900003
0.05548273 -0.048282739 0.44900003
0.056527123 -0.048175205 0.44800001
0.057695087 -0.048175205 0.44800001
0.058863051 -0.048175205 0.44800001
0.060031015 -0.048175205 0.44800001
0.06119898 -0.048175205 0.44800001
0.062366944 -0.048175205 0.44800001
0.063534915 -0.048175205 0.44800001
0.064702876 -0.048175205 0.44800001
0.065870844 -0.048175205 0.44800001
0.067188449 -0.048282739 0.44900003
0.068663515 -0.048497807 0.45100003
0.069839299 -0.048497807 0.45100003
0.071172543 -0.048605338 0.45200002
0.072671078 -0.048820406 0.45400003
0.074180029 -0.049035475 0.45600003
0.075864702 -0.049358077 0.45900002
0.077397123 -0.049573146 0.46100003
0.079110466 -0.049895745 0.46400002
0.080666348 -0.050110813 0.46600002
0.083809413 -0.05054095 0.47000003
0.08539658 -0.050756019 0.47200003
0.086994179 -0.050971087 0.47400004
0.088416062 -0.051078621 0.47500002
0.090031914 -0.05129369 0.47700003
0.091466837 -0.05140122 0.47800002
0.093100928 -0.051616289 0.48000002
0.09435232 -0.051616289 0.48000002
0.095802888 -0.051723827 0.48100004
0.097258665 -0.051831357 0.48200002
0.098515272 -0.051831357 0.48200002
0.099978864 -0.051938891 0.48300001
0.10123809 -0.051938891 0.48300001
0.10249729 -0.051938891 0.48300001
0.10375651 -0.051938891 0.48300001
0.10523315 -0.052046426 0.48400003
0.10649496 -0.052046426 0.48400003
0.10775678 -0.052046426 0.48400003
0.1090186 -0.052046426 0.48400003
0.11028042 -0.052046426 0.48400003
0.11154224 -0.052046426 0.48400003
0.11280406 -0.052046426 0.48400003
0.11383019 -0.051938891 0.48300001
0.11508941 -0.051938891 0.48300001
0.11634862 -0.051938891 0.48300001
0.11760784 -0.051938891 0.48300001
0.11886705 -0.051938891 0.48300001
0.12012626 -0.051938891 0.48300001
0.12138546 -0.051938891 0.48300001
0.12264469 -0.051938891 0.48300001
0.12390389 -0.051938891 0.48300001
0.12542224 -0.052046426 0.48400003
0.12668407 -0.052046426 0.48400003
0.12794589 -0.052046426 0.48400003
0.1292077 -0.052046426 0.48400003
0.13046952 -0.052046426 0.48400003
0.13173135 -0.052046426 0.48400003
0.13299316 -0.052046426 0.48400003
0.13425498 -0.052046426 0.48400003
0.13551679 -0.052046426 0.48400003
0.13677862 -0.052046426 0.48400003
0.13804042 -0.052046426 0.48400003
0.13930225 -0.052046426 0.48400003
0.14056407 -0.052046426 0.48400003
0.14182588 -0.052046426 0.48400003
0.14308771 -0.052046426 0.48400003
0.14434953 -0.052046426 0.48400003
0.14561135 -0.052046426 0.48400003
0.14687316 -0.052046426 0.48400003
0.14813499 -0.052046426 0.48400003
0.14939681 -0.052046426 0.48400003
0.15065862 -0.052046426 0.48400003
0.15192044 -0.052046426 0.48400003
0.15318227 -0.052046426 0.48400003
0.15444407 -0.052046426 0.48400003
0.1557059 -0.052046426 0.48400003
0.15696771 -0.052046426 0.48400003
0.15822953 -0.052046426 0.48400003
0.15949136 -0.052046426 0.48400003
0.16075318 -0.052046426 0.48400003
0.16201499 -0.052046426 0.48400003
0.16327681 -0.052046426 0.48400003
0.16453864 -0.052046426 0.48400003
0.16580045 -0.052046426 0.48400003
0.16740744 -0.05215396 0.48500001
0.16867186 -0.05215396 0.48500001
0.16993628 -0.05215396 0.48500001
0.17120071 -0.05215396 0.48500001
0.17246513 -0.05215396 0.48500001
0.17372955 -0.05215396 0.48500001
0.17499399 -0.05215396 0.48500001
0.17625841 -0.05215396 0.48500001
0.17752284 -0.05215396 0.48500001
0.17878728 -0.05215396 0.48500001
0.18005168 -0.05215396 0.48500001
0.18131612 -0.05215396 0.48500001
0.18258055 -0.05215396 0.48500001
0.18384497 -0.05215396 0.48500001
0.18549107 -0.052261494 0.48600003
0.1867581 -0.052261494 0.48600003
0.18802513 -0.052261494 0.48600003
0.18929218 -0.052261494 0.48600003
0.1901671 -0.05215396 0.48500001
0.19143152 -0.05215396 0.48500001
0.19269596 -0.05215396 0.48500001
0.19396037 -0.05215396 0.48500001
0.19482228 -0.052046426 0.48400003
0.1960841 -0.052046426 0.48400003
0.19734593 -0.052046426 0.48400003
0.19860774 -0.052046426 0.48400003
0.19986956 -0.052046426 0.48400003
0.20113137 -0.052046426 0.48400003
0.2023932 -0.052046426 0.48400003
0.203655 -0.052046426 0.48400003
0.20491683 -0.052046426 0.48400003
0.20617865 -0.052046426 0.48400003
0.20744047 -0.052046426 0.48400003
0.20913349 -0.05215396 0.48500001
0.21039791 -0.05215396 0.48500001
0.21166234 -0.05215396 0.48500001
0.21292676 -0.05215396 0.48500001
0.2141912 -0.05215396 0.48500001
0.21545561 -0.05215396 0.48500001
0.21672004 -0.05215396 0.48500001
0.21798447 -0.05215396 0.48500001
0.21924889 -0.05215396 0.48500001
0.22051331 -0.05215396 0.48500001
0.22177775 -0.05215396 0.48500001
0.22304216 -0.05215396 0.48500001
0.2243066 -0.05215396 0.48500001
0.22557104 -0.05215396 0.48500001
0.22683544 -0.05215396 0.48500001
0.22809988 -0.05215396 0.48500001
-0.26924026 -0.050259974 0.47900003
-0.26799148 -0.050259974 0.47900003
-0.26674268 -0.050259974 0.47900003
-0.2654939 -0.050259974 0.47900003
-0.26424512 -0.050259974 0.47900003
-0.26299632 -0.050259974 0.47900003
-0.26174754 -0.050259974 0.47900003
-0.26049876 -0.050259974 0.47900003
-0.25924999 -0.050259974 0.47900003
-0.25853983 -0.0503649 0.48000002
-0.25728843 -0.0503649 0.48000002
-0.25603706 -0.0503649 0.48000002
-0.25478566 -0.0503649 0.48000002
-0.25353426 -0.0503649 0.48000002
-0.25228286 -0.0503649 0.48000002
-0.25103149 -0.0503649 0.48000002
-0.2497801 -0.0503649 0.48000002
-0.24801093 -0.050259974 0.47900003
-0.24676216 -0.050259974 0.47900003
-0.24551338 -0.050259974 0.47900003
-0.24426457 -0.050259974 0.47900003
-0.2430158 -0.050259974 0.47900003
-0.24176702 -0.050259974 0.47900003
-0.24051824 -0.050259974 0.47900003
-0.23926945 -0.050259974 0.47900003
-0.23802066 -0.050259974 0.47900003
-0.2367719 -0.050259974 0.47900003
-0.2355231 -0.050259974 0.47900003
-0.23427433 -0.050259974 0.47900003
-0.23302554 -0.050259974 0.47900003
-0.23177674 -0.050259974 0.47900003
-0.23052797 -0.050259974 0.47900003
-0.22927918 -0.050259974 0.47900003
-0.2280304 -0.050259974 0.47900003
-0.22725505 -0.0503649 0.48000002
-0.22600368 -0.0503649 0.48000002
-0.22475228 -0.0503649 0.48000002
-0.22350089 -0.0503649 0.48000002
-0.22224949 -0.0503649 0.48000002
-0.22099811 -0.0503649 0.48000002
-0.21974671 -0.0503649 0.48000002
-0.21849532 -0.0503649 0.48000002
-0.21724394 -0.0503649 0.48000002
-0.21599254 -0.0503649 0.48000002
-0.21474116 -0.0503649 0.48000002
-0.21304499 -0.050259974 0.47900003
-0.21179621 -0.050259974 0.47900003
-0.21054743 -0.050259974 0.47900003
-0.20929866 -0.050259974 0.47900003
-0.20804986 -0.050259974 0.47900003
-0.20680109 -0.050259974 0.47900003
-0.20555229 -0.050259974 0.47900003
-0.20430352 -0.050259974 0.47900003
-0.20305473 -0.050259974 0.47900003
-0.20180595 -0.050259974 0.47900003
-0.20055716 -0.050259974 0.47900003
-0.19972445 -0.0503649 0.48000002
-0.19847308 -0.0503649 0.48000002
-0.19722168 -0.0503649 0.48000002
-0.1959703 -0.0503649 0.48000002
-0.1947189 -0.0503649 0.48000002
-0.19346751 -0.0503649 0.48000002
-0.19221611 -0.0503649 0.48000002
-0.19096473 -0.0503649 0.48000002
-0.18971334 -0.0503649 0.48000002
-0.18846196 -0.0503649 0.48000002
-0.18721056 -0.0503649 0.48000002
-0.18595918 -0.0503649 0.48000002
-0.18470778 -0.0503649 0.48000002
-0.18345638 -0.0503649 0.48000002
-0.18220499 -0.0503649 0.48000002
-0.18133059 -0.050469827 0.48100004
-0.1800766 -0.050469827 0.48100004
-0.17882259 -0.050469827 0.48100004
-0.17756861 -0.050469827 0.48100004
-0.17631461 -0.050469827 0.48100004
-0.17506061 -0.050469827 0.48100004
-0.17380661 -0.050469827 0.48100004
-0.17255262 -0.050469827 0.48100004
-0.17129862 -0.050469827 0.48100004
-0.17004463 -0.050469827 0.48100004
-0.1684397 -0.0503649 0.48000002
-0.1671883 -0.0503649 0.48000002
-0.16593692 -0.0503649 0.48000002
-0.16468552 -0.0503649 0.48000002
-0.16343413 -0.0503649 0.48000002
-0.16218275 -0.0503649 0.48000002
-0.16093136 -0.0503649 0.48000002
-0.15967996 -0.0503649 0.48000002
-0.15842858 -0.0503649 0.48000002
-0.15717718 -0.0503649 0.48000002
-0.1559258 -0.0503649 0.48000002
-0.1546744 -0.0503649 0.48000002
-0.15342303 -0.0503649 0.48000002
-0.15217163 -0.0503649 0.48000002
-0.15092023 -0.0503649 0.48000002
-0.14966884 -0.0503649 0.48000002
-0.14841744 -0.0503649 0.48000002
-0.14716606 -0.0503649 0.48000002
-0.14591466 -0.0503649 0.48000002
-0.1443619 -0.050259974 0.47900003
-0.14311312 -0.050259974 0.47900003
-0.14156817 -0.050155044 0.47800002
-0.14032198 -0.050155044 0.47800002
-0.13878487 -0.050050121 0.47700003
-0.13725294 -0.049945191 0.47600001
-0.13601199 -0.049945191 0.47600001
-0.13448788 -0.049840264 0.47500002
-0.13324952 -0.049840264 0.47500002
-0.13173325 -0.049735341 0.47400004
-0.1304975 -0.049735341 0.47400004
-0.12926176 -0.049735341 0.47400004
-0.12802601 -0.049735341 0.47400004
-0.12705776 -0.049840264 0.47500002
-0.1258194 -0.049840264 0.47500002
-0.12458105 -0.049840264 0.47500002
-0.12334269 -0.049840264 0.47500002
-0.12210434 -0.049840264 0.47500002
-0.12086598 -0.049840264 0.47500002
-0.11962762 -0.049840264 0.47500002
-0.11838926 -0.049840264 0.47500002
-0.11715091 -0.049840264 0.47500002
-0.11591256 -0.049840264 0.47500002
-0.1146742 -0.049840264 0.47500002
-0.11343585 -0.049840264 0.47500002
-0.11196129 -0.049735341 0.47400004
-0.11072554 -0.049735341 0.47400004
-0.10925879 -0.049630411 0.47300002
-0.10779727 -0.049525484 0.47200003
-0.10634096 -0.049420558 0.47100002
-0.10488986 -0.049315631 0.47000003
-0.10344398 -0.049210701 0.46900001
-0.10178535 -0.049000848 0.46700001
-0.10035251 -0.048895922 0.46600002
-0.099137619 -0.048895922 0.46600002
-0.097712591 -0.048790999 0.46500003
-0.096707836 -0.048895922 0.46600002
-0.095697865 -0.049000848 0.46700001
-0.094682679 -0.049105778 0.46800002
-0.093662277 -0.049210701 0.46900001
-0.09263666 -0.049315631 0.47000003
-0.091605835 -0.049420558 0.47100002
-0.090761676 -0.049630411 0.47300002
-0.08971782 -0.049735341 0.47400004
-0.088668741 -0.049840264 0.47500002
-0.087614447 -0.049945191 0.47600001
-0.086554945 -0.050050121 0.47700003
-0.085490219 -0.050155044 0.47800002
-0.084420294 -0.050259974 0.47900003
-0.083345145 -0.0503649 0.48000002
-0.082093753 -0.0503649 0.48000002
-0.081010789 -0.050469827 0.48100004
-0.079590969 -0.0503649 0.48000002
-0.078502782 -0.050469827 0.48100004
-0.077248789 -0.050469827 0.48100004
-0.075836793 -0.0503649 0.48000002
-0.074585408 -0.0503649 0.48000002
-0.073334016 -0.0503649 0.48000002
-0.072082624 -0.0503649 0.48000002
-0.070683673 -0.050259974 0.47900003
-0.06928993 -0.050155044 0.47800002
-0.068043754 -0.050155044 0.47800002
-0.066657834 -0.050050121 0.47700003
-0.065277129 -0.049945191 0.47600001
-0.063901633 -0.049840264 0.47500002
-0.062663279 -0.049840264 0.47500002
-0.061166286 -0.049630411 0.47300002
-0.05980644 -0.049525484 0.47200003
-0.058451809 -0.049420558 0.47100002
-0.05710239 -0.049315631 0.47000003
-0.055758175 -0.049210701 0.46900001
-0.054419186 -0.049105778 0.46800002
-0.053085405 -0.049000848 0.46700001
-0.051645774 -0.048790999 0.46500003
-0.049115352 -0.048686069 0.46400002
-0.039012954 -0.048161436 0.45900002
-0.037816312 -0.048161436 0.45900002
-0.036619671 -0.048161436 0.45900002
-0.035423029 -0.048161436 0.45900002
-0.030569714 -0.048056509 0.45800003
-0.02812011 -0.047951583 0.45700002
-0.026928684 -0.047951583 0.45700002
-0.025680937 -0.047846656 0.45600003
-0.024492117 -0.047846656 0.45600003
-0.023303296 -0.047846656 0.45600003
-0.022065977 -0.047741726 0.45500001
-0.020879762 -0.047741726 0.45500001
-0.01969355 -0.047741726 0.45500001
-0.011390051 -0.047741726 0.45500001
-0.010181411 -0.0476368 0.45400003
-0.0089978036 -0.0476368 0.45400003
-0.0078141969 -0.0476368 0.45400003
-0.0066305897 -0.0476368 0.45400003
-0.005446983 -0.0476368 0.45400003
-0.0042633764 -0.0476368 0.45400003
-0.0030797694 -0.0476368 0.45400003
-0.0018961623 -0.0476368 0.45400003
-0.00071255537 -0.0476368 0.45400003
0.00047105161 -0.0476368 0.45400003
0.0016510139 -0.047531873 0.45300001
0.0028257621 -0.047426946 0.45200002
0.0039952965 -0.04732202 0.45100003
0.005159616 -0.047217093 0.45000002
0.0063327947 -0.047217093 0.45000002
0.0074892938 -0.047112167 0.44900003
0.008640578 -0.04700724 0.44800001
0.0098085422 -0.04700724 0.44800001
0.010976507 -0.04700724 0.44800001
0.012144472 -0.04700724 0.44800001
0.013282722 -0.046902314 0.44700003
0.014448078 -0.046902314 0.44700003
0.015613436 -0.046902314 0.44700003
0.016778793 -0.046902314 0.44700003
0.017944152 -0.046902314 0.44700003
0.019109508 -0.046902314 0.44700003
0.020274866 -0.046902314 0.44700003
0.021440223 -0.046902314 0.44700003
0.022605581 -0.046902314 0.44700003
0.02377094 -0.046902314 0.44700003
0.024992082 -0.04700724 0.44800001
0.026160045 -0.04700724 0.44800001
0.027328011 -0.04700724 0.44800001
0.028495973 -0.04700724 0.44800001
0.029663941 -0.04700724 0.44800001
0.030900728 -0.047112167 0.44900003
0.0320713 -0.047112167 0.44900003
0.033241868 -0.047112167 0.44900003
0.03441244 -0.047112167 0.44900003
0.03550376 -0.04700724 0.44800001
0.036753587 -0.047112167 0.44900003
0.037924156 -0.047112167 0.44900003
0.039094727 -0.047112167 0.44900003
0.040265299 -0.047112167 0.44900003
0.041435871 -0.047112167 0.44900003
0.042606443 -0.047112167 0.44900003
0.043777011 -0.047112167 0.44900003
0.044947587 -0.047112167 0.44900003
0.046220869 -0.047217093 0.45000002
0.047394048 -0.047217093 0.45000002
0.048459303 -0.047112167 0.44900003
0.049629871 -0.047112167 0.44900003
0.050800443 -0.047112167 0.44900003
0.051971018 -0.047112167 0.44900003
0.05314159 -0.047112167 0.44900003
0.054312158 -0.047112167 0.44900003
0.05548273 -0.047112167 0.44900003
0.056527123 -0.04700724 0.44800001
0.057695087 -0.04700724 0.44800001
0.058994446 -0.047112167 0.44900003
0.060031015 -0.04700724 0.44800001
0.06119898 -0.04700724 0.44800001
0.062366944 -0.04700724 0.44800001
0.063676737 -0.047112167 0.44900003
0.064991727 -0.047217093 0.45000002
0.066164911 -0.047217093 0.45000002
0.067637369 -0.047426946 0.45200002
0.069120258 -0.0476368 0.45400003
0.070458718 -0.047741726 0.45500001
0.072117314 -0.048056509 0.45800003
0.07363148 -0.048266362 0.46000001
0.075156085 -0.048476215 0.46200001
0.076691113 -0.048686069 0.46400002
0.078236565 -0.048895922 0.46600002
0.079792455 -0.049105778 0.46800002
0.081358768 -0.049315631 0.47000003
0.082759805 -0.049420558 0.47100002
0.084344365 -0.049630411 0.47300002
0.085939355 -0.049840264 0.47500002
0.087544776 -0.050050121 0.47700003
0.088974483 -0.050155044 0.47800002
0.090598151 -0.0503649 0.48000002
0.091849543 -0.0503649 0.48000002
0.093294896 -0.050469827 0.48100004
0.094745457 -0.050574753 0.48200002
0.096002057 -0.050574753 0.48200002
0.097460441 -0.05067968 0.48300001
0.098719656 -0.05067968 0.48300001
0.099978864 -0.05067968 0.48300001
0.10123809 -0.05067968 0.48300001
0.10249729 -0.05067968 0.48300001
0.10375651 -0.05067968 0.48300001
0.10523315 -0.050784606 0.48400003
0.10649496 -0.050784606 0.48400003
0.10775678 -0.050784606 0.48400003
0.1090186 -0.050784606 0.48400003
0.11028042 -0.050784606 0.48400003
0.11154224 -0.050784606 0.48400003
0.11280406 -0.050784606 0.48400003
0.11383019 -0.05067968 0.48300001
0.11508941 -0.05067968 0.48300001
0.11634862 -0.05067968 0.48300001
0.11760784 -0.05067968 0.48300001
0.11886705 -0.05067968 0.48300001
0.12012626 -0.05067968 0.48300001
0.12138546 -0.05067968 0.48300001
0.12264469 -0.05067968 0.48300001
0.12416042 -0.050784606 0.48400003
0.12542224 -0.050784606 0.48400003
0.12668407 -0.050784606 0.48400003
0.12794589 -0.050784606 0.48400003
0.1292077 -0.050784606 0.48400003
0.13046952 -0.050784606 0.48400003
0.13173135 -0.050784606 0.48400003
0.13299316 -0.050784606 0.48400003
0.13425498 -0.050784606 0.48400003
0.13551679 -0.050784606 0.48400003
0.13677862 -0.050784606 0.48400003
0.13804042 -0.050784606 0.48400003
0.13930225 -0.050784606 0.48400003
0.14056407 -0.050784606 0.48400003
0.14182588 -0.050784606 0.48400003
0.14308771 -0.050784606 0.48400003
0.14434953 -0.050784606 0.48400003
0.14561135 -0.050784606 0.48400003
0.14687316 -0.050784606 0.48400003
0.14813499 -0.050784606 0.48400003
0.14939681 -0.050784606 0.48400003
0.15065862 -0.050784606 0.48400003
0.15192044 -0.050784606 0.48400003
0.15318227 -0.050784606 0.48400003
0.15444407 -0.050784606 0.48400003
0.1557059 -0.050784606 0.48400003
0.15696771 -0.050784606 0.48400003
0.15822953 -0.050784606 0.48400003
0.15949136 -0.050784606 0.48400003
0.16075318 -0.050784606 0.48400003
0.16201499 -0.050784606 0.48400003
0.16327681 -0.050784606 0.48400003
0.16453864 -0.050784606 0.48400003
0.16580045 -0.050784606 0.48400003
0.16706227 -0.050784606 0.48400003
0.16832408 -0.050784606 0.48400003
0.16958591 -0.050784606 0.48400003
0.17120071 -0.050889533 0.48500001
0.17246513 -0.050889533 0.48500001
0.17372955 -0.050889533 0.48500001
0.17499399 -0.050889533 0.48500001
0.17625841 -0.050889533 0.48500001
0.17752284 -0.050889533 0.48500001
0.17878728 -0.050889533 0.48500001
0.18005168 -0.050889533 0.48500001
0.18131612 -0.050889533 0.48500001
0.18258055 -0.050889533 0.48500001
0.18422404 -0.050994463 0.48600003
0.18549107 -0.050994463 0.48600003
0.1867581 -0.050994463 0.48600003
0.18802513 -0.050994463 0.48600003
0.18929218 -0.050994463 0.48600003
0.1901671 -0.050889533 0.48500001
0.19143152 -0.050889533 0.48500001
0.19269596 -0.050889533 0.48500001
0.19396037 -0.050889533 0.48500001
0.19482228 -0.050784606 0.48400003
0.1960841 -0.050784606 0.48400003
0.19734593 -0.050784606 0.48400003
0.19860774 -0.050784606 0.48400003
0.19986956 -0.050784606 0.48400003
0.20113137 -0.050784606 0.48400003
0.2023932 -0.050784606 0.48400003
0.203655 -0.050784606 0.48400003
0.20491683 -0.050784606 0.48400003
0.20660463 -0.050889533 0.48500001
0.20786907 -0.050889533 0.48500001
0.20913349 -0.050889533 0.48500001
0.21039791 -0.050889533 0.48500001
0.21166234 -0.050889533 0.48500001
0.21292676 -0.050889533 0.48500001
0.2141912 -0.050889533 0.48500001
0.21545561 -0.050889533 0.48500001
0.21672004 -0.050889533 0.48500001
0.21798447 -0.050889533 0.48500001
0.21924889 -0.050889533 0.48500001
0.22051331 -0.050889533 0.48500001
0.22177775 -0.050889533 0.48500001
0.22304216 -0.050889533 0.48500001
0.2243066 -0.050889533 0.48500001
0.22557104 -0.050889533 0.48500001
0.22730316 -0.050994463 0.48600003
0.22857019 -0.050994463 0.48600003
-0.26924026 -0.049011189 0.47900003
-0.26799148 -0.049011189 0.47900003
-0.26674268 -0.049011189 0.47900003
-0.2654939 -0.049011189 0.47900003
-0.26424512 -0.049011189 0.47900003
-0.26299632 -0.049011189 0.47900003
-0.26174754 -0.049011189 0.47900003
-0.26049876 -0.049011189 0.47900003
-0.25979123 -0.049113508 0.48000002
-0.25853983 -0.049113508 0.48000002
-0.25728843 -0.049113508 0.48000002
-0.25603706 -0.049113508 0.48000002
-0.25478566 -0.049113508 0.48000002
-0.25353426 -0.049113508 0.48000002
-0.25228286 -0.049113508 0.48000002
-0.25103149 -0.049113508 0.48000002
-0.2497801 -0.049113508 0.48000002
-0.24801093 -0.049011189 0.47900003
-0.24676216 -0.049011189 0.47900003
-0.24551338 -0.049011189 0.47900003
-0.24426457 -0.049011189 0.47900003
-0.2430158 -0.049011189 0.47900003
-0.24176702 -0.049011189 0.47900003
-0.24051824 -0.049011189 0.47900003
-0.23926945 -0.049011189 0.47900003
-0.23802066 -0.049011189 0.47900003
-0.2367719 -0.049011189 0.47900003
-0.2355231 -0.049011189 0.47900003
-0.23427433 -0.049011189 0.47900003
-0.23302554 -0.049011189 0.47900003
-0.23177674 -0.049011189 0.47900003
-0.23100923 -0.049113508 0.48000002
-0.22975783 -0.049113508 0.48000002
-0.22850645 -0.049113508 0.48000002
-0.22725505 -0.049113508 0.48000002
-0.22600368 -0.049113508 0.48000002
-0.22475228 -0.049113508 0.48000002
-0.22350089 -0.049113508 0.48000002
-0.22224949 -0.049113508 0.48000002
-0.22099811 -0.049113508 0.48000002
-0.21974671 -0.049113508 0.48000002
-0.21849532 -0.049113508 0.48000002
-0.21724394 -0.049113508 0.48000002
-0.21599254 -0.049113508 0.48000002
-0.21474116 -0.049113508 0.48000002
-0.21304499 -0.049011189 0.47900003
-0.21179621 -0.049011189 0.47900003
-0.21054743 -0.049011189 0.47900003
-0.20929866 -0.049011189 0.47900003
-0.20804986 -0.049011189 0.47900003
-0.20680109 -0.049011189 0.47900003
-0.20555229 -0.049011189 0.47900003
-0.20430352 -0.049011189 0.47900003
-0.20305473 -0.049011189 0.47900003
-0.20180595 -0.049011189 0.47900003
-0.20055716 -0.049011189 0.47900003
-0.19930837 -0.049011189 0.47900003
-0.19805959 -0.049011189 0.47900003
-0.19681081 -0.049011189 0.47900003
-0.1959703 -0.049113508 0.48000002
-0.1947189 -0.049113508 0.48000002
-0.19346751 -0.049113508 0.48000002
-0.19221611 -0.049113508 0.48000002
-0.19096473 -0.049113508 0.48000002
-0.18971334 -0.049113508 0.48000002
-0.18846196 -0.049113508 0.48000002
-0.18721056 -0.049113508 0.48000002
-0.18595918 -0.049113508 0.48000002
-0.18470778 -0.049113508 0.48000002
-0.18345638 -0.049113508 0.48000002
-0.18220499 -0.049113508 0.48000002
-0.18095361 -0.049113508 0.48000002
-0.1800766 -0.049215831 0.48100004
-0.17882259 -0.049215831 0.48100004
-0.17756861 -0.049215831 0.48100004
-0.17631461 -0.049215831 0.48100004
-0.17506061 -0.049215831 0.48100004
-0.17380661 -0.049215831 0.48100004
-0.17255262 -0.049215831 0.48100004
-0.17129862 -0.049215831 0.48100004
-0.17004463 -0.049215831 0.48100004
-0.16879062 -0.049215831 0.48100004
-0.1671883 -0.049113508 0.48000002
-0.16593692 -0.049113508 0.48000002
-0.16468552 -0.049113508 0.48000002
-0.16343413 -0.049113508 0.48000002
-0.16218275 -0.049113508 0.48000002
-0.16093136 -0.049113508 0.48000002
-0.15967996 -0.049113508 0.48000002
-0.15842858 -0.049113508 0.48000002
-0.15717718 -0.049113508 0.48000002
-0.1559258 -0.049113508 0.48000002
-0.1546744 -0.049113508 0.48000002
-0.15342303 -0.049113508 0.48000002
-0.15217163 -0.049113508 0.48000002
-0.15092023 -0.049113508 0.48000002
-0.14966884 -0.049113508 0.48000002
-0.14841744 -0.049113508 0.48000002
-0.14716606 -0.049113508 0.48000002
-0.14561068 -0.049011189 0.47900003
-0.1443619 -0.049011189 0.47900003
-0.14281434 -0.048908871 0.47800002
-0.14156817 -0.048908871 0.47800002
-0.14002843 -0.048806552 0.47700003
-0.13849391 -0.048704229 0.47600001
-0.13696459 -0.04860191 0.47500002
-0.13572624 -0.04860191 0.47500002
-0.13420476 -0.048499592 0.47400004
-0.13145533 -0.048397269 0.47300002
-0.13022219 -0.048397269 0.47300002
-0.12871635 -0.048294954 0.47200003
-0.12748581 -0.048294954 0.47200003
-0.12652278 -0.048397269 0.47300002
-0.12555452 -0.048499592 0.47400004
-0.1240565 -0.048397269 0.47300002
-0.12282334 -0.048397269 0.47300002
-0.12159021 -0.048397269 0.47300002
-0.12035707 -0.048397269 0.47300002
-0.11937578 -0.048499592 0.47400004
-0.11814003 -0.048499592 0.47400004
-0.11690428 -0.048499592 0.47400004
-0.11542451 -0.048397269 0.47300002
-0.11419136 -0.048397269 0.47300002
-0.11295822 -0.048397269 0.47300002
-0.11172508 -0.048397269 0.47300002
-0.11049194 -0.048397269 0.47300002
-0.10879681 -0.048192631 0.47100002
-0.1073405 -0.048090313 0.47000003
-0.1058894 -0.04798799 0.46900001
-0.10444352 -0.047885671 0.46800002
-0.10300285 -0.047783349 0.46700001
-0.1015674 -0.047681034 0.46600002
-0.10035251 -0.047681034 0.46600002
-0.098924875 -0.047578715 0.46500003
-0.097712591 -0.047578715 0.46500003
-0.096707836 -0.047681034 0.46600002
-0.095697865 -0.047783349 0.46700001
