# .PCD v0.7 - Point Cloud Data file format
VERSION 0.7
FIELDS x y z
SIZE 4 4 4
TYPE F F F
COUNT 1 1 1
WIDTH 1388
HEIGHT 1
VIEWPOINT 0 0 0 1 0 0 0
POINTS 1388
DATA ascii
0.032208331 -0.11133117 0.46800002
0.033428434 -0.11133117 0.46800002
0.034648541 -0.11133117 0.46800002
0.035792001 -0.11109328 0.46700001
0.0370095 -0.11109328 0.46700001
0.038227003 -0.11109328 0.46700001
0.039360039 -0.1108554 0.46600002
0.040574931 -0.1108554 0.46600002
0.041789819 -0.1108554 0.46600002
0.042912427 -0.11061752 0.46500003
0.044124711 -0.11061752 0.46500003
0.045336995 -0.11061752 0.46500003
0.046449177 -0.11037962 0.46400002
0.047658853 -0.11037962 0.46400002
0.048868529 -0.11037962 0.46400002
0.050078206 -0.11037962 0.46400002
0.051177353 -0.11014174 0.46300003
0.052384421 -0.11014174 0.46300003
0.053591494 -0.11014174 0.46300003
0.054798566 -0.11014174 0.46300003
0.05588467 -0.10990385 0.46200001
0.057089131 -0.10990385 0.46200001
0.058293596 -0.10990385 0.46200001
0.059369277 -0.10966597 0.46100003
0.060571134 -0.10966597 0.46100003
0.061772987 -0.10966597 0.46100003
0.062838234 -0.10942808 0.46000001
0.064037487 -0.10942808 0.46000001
0.06523674 -0.10942808 0.46000001
0.066291563 -0.10919019 0.45900002
0.067488208 -0.10919019 0.45900002
0.068684846 -0.10919019 0.45900002
0.069729246 -0.10895231 0.45800003
0.070923284 -0.10895231 0.45800003
0.072117314 -0.10895231 0.45800003
0.073151276 -0.10871442 0.45700002
0.074342705 -0.10871442 0.45700002
0.075534135 -0.10871442 0.45700002
0.076725565 -0.10871442 0.45700002
0.077746496 -0.10847653 0.45600003
0.078935318 -0.10847653 0.45600003
0.08012414 -0.10847653 0.45600003
0.081312962 -0.10847653 0.45600003
0.082501784 -0.10847653 0.45600003
0.083507068 -0.10823864 0.45500001
0.084693283 -0.10823864 0.45500001
0.085879497 -0.10823864 0.45500001
0.087065712 -0.10823864 0.45500001
0.088057965 -0.10800076 0.45400003
0.089241572 -0.10800076 0.45400003
0.090425178 -0.10800076 0.45400003
0.091407001 -0.10776287 0.45300001
0.092588 -0.10776287 0.45300001
0.093768999 -0.10776287 0.45300001
0.094740406 -0.10752498 0.45200002
0.095918797 -0.10752498 0.45200002
0.097097188 -0.10752498 0.45200002
0.09827558 -0.10752498 0.45200002
0.099233948 -0.10728709 0.45100003
0.10040973 -0.10728709 0.45100003
0.10158551 -0.10728709 0.45100003
0.10253344 -0.1070492 0.45000002
0.10370662 -0.1070492 0.45000002
0.1048798 -0.1070492 0.45000002
0.10605298 -0.1070492 0.45000002
0.10698788 -0.10681132 0.44900003
0.10815845 -0.10681132 0.44900003
0.10932903 -0.10681132 0.44900003
0.1102535 -0.10657343 0.44800001
0.11142146 -0.10657343 0.44800001
0.11258942 -0.10657343 0.44800001
0.11375739 -0.10657343 0.44800001
0.11466882 -0.10633554 0.44700003
0.11583418 -0.10633554 0.44700003
0.11699954 -0.10633554 0.44700003
0.11790054 -0.10609765 0.44600001
0.1190633 -0.10609765 0.44600001
0.11995648 -0.10585977 0.44500002
0.12111663 -0.10585977 0.44500002
0.12227676 -0.10585977 0.44500002
0.12315953 -0.10562189 0.44400004
0.12431706 -0.10562189 0.44400004
0.1254746 -0.10562189 0.44400004
0.12634692 -0.105384 0.44300002
0.12750186 -0.105384 0.44300002
0.12865677 -0.105384 0.44300002
0.12951869 -0.10514611 0.44200003
0.13067101 -0.10514611 0.44200003
0.13182333 -0.10514611 0.44200003
0.13297565 -0.10514611 0.44200003
0.13382451 -0.10490822 0.44100001
0.13497423 -0.10490822 0.44100001
0.13581528 -0.10467034 0.44000003
0.13696238 -0.10467034 0.44000003
0.13810949 -0.10467034 0.44000003
0.13894011 -0.10443245 0.43900001
0.14008459 -0.10443245 0.43900001
0.14090741 -0.10419456 0.43800002
0.1420493 -0.10419456 0.43800002
0.14319119 -0.10419456 0.43800002
0.14433309 -0.10419456 0.43800002
0.14514284 -0.10395667 0.43700001
0.14628214 -0.10395667 0.43700001
0.1474214 -0.10395667 0.43700001
0.1485607 -0.10395667 0.43700001
0.14969999 -0.10395667 0.43700001
0.15083927 -0.10395667 0.43700001
0.15197855 -0.10395667 0.43700001
0.15311785 -0.10395667 0.43700001
0.15425713 -0.10395667 0.43700001
0.15504083 -0.10371879 0.43600002
0.15617751 -0.10371879 0.43600002
0.15731418 -0.10371879 0.43600002
0.15808746 -0.10348091 0.43500003
0.15922152 -0.10348091 0.43500003
0.15998696 -0.10324301 0.43400002
0.16111842 -0.10324301 0.43400002
0.16187605 -0.10300513 0.43300003
0.1630049 -0.10300513 0.43300003
0.1637547 -0.10276724 0.43200001
0.16488095 -0.10276724 0.43200001
0.16562293 -0.10252935 0.43100002
0.16674657 -0.10252935 0.43100002
0.16787021 -0.10252935 0.43100002
0.16899386 -0.10252935 0.43100002
0.1701175 -0.10252935 0.43100002
0.17124115 -0.10252935 0.43100002
0.17236479 -0.10252935 0.43100002
0.17348844 -0.10252935 0.43100002
0.17420694 -0.10229146 0.43000001
0.17532799 -0.10229146 0.43000001
0.17644902 -0.10229146 0.43000001
0.17757006 -0.10229146 0.43000001
0.17827553 -0.10205358 0.42900002
0.17939396 -0.10205358 0.42900002
0.18009162 -0.10181569 0.42800003
0.18120745 -0.10181569 0.42800003
0.18189727 -0.1015778 0.42700002
0.18301049 -0.1015778 0.42700002
0.18412371 -0.1015778 0.42700002
0.18480313 -0.10133991 0.42600003
0.18591374 -0.10133991 0.42600003
0.18658531 -0.10110202 0.42500001
0.18769331 -0.10110202 0.42500001
0.1888013 -0.10110202 0.42500001
0.18990932 -0.10110202 0.42500001
0.19101731 -0.10110202 0.42500001
0.19212532 -0.10110202 0.42500001
0.19323331 -0.10110202 0.42500001
0.19434133 -0.10110202 0.42500001
0.19544932 -0.10110202 0.42500001
0.19655733 -0.10110202 0.42500001
0.19766533 -0.10110202 0.42500001
-0.31463382 -0.13293323 0.565
-0.31260657 -0.13269795 0.56400001
-0.31113622 -0.13269795 0.56400001
-0.30911675 -0.13246268 0.56300002
-0.30764899 -0.13246268 0.56300002
-0.30563739 -0.13222739 0.56200004
-0.30363101 -0.13199212 0.56100005
-0.30162978 -0.13175683 0.56
-0.2996338 -0.13152155 0.55900002
-0.29817647 -0.13152155 0.55900002
-0.29671913 -0.13152155 0.55900002
-0.29473358 -0.13128628 0.55800003
-0.29327884 -0.13128628 0.55800003
-0.2918241 -0.13128628 0.55800003
-0.28984901 -0.131051 0.55700004
-0.28839684 -0.131051 0.55700004
-0.28694472 -0.131051 0.55700004
-0.28498006 -0.13081571 0.55600005
-0.2835305 -0.13081571 0.55600005
-0.28208098 -0.13081571 0.55600005
-0.28012669 -0.13058043 0.55500001
-0.27867979 -0.13058043 0.55500001
-0.27673334 -0.13034515 0.55400002
-0.27528903 -0.13034515 0.55400002
-0.27335042 -0.13010988 0.55300003
-0.2719087 -0.13010988 0.55300003
-0.26997793 -0.1298746 0.55200005
-0.26805231 -0.12963931 0.551
-0.26661581 -0.12963931 0.551
-0.26469806 -0.12940404 0.55000001
-0.26278552 -0.12916875 0.54900002
-0.26087821 -0.12893347 0.54800004
-0.25944951 -0.12893347 0.54800004
-0.25755003 -0.1286982 0.54700005
-0.25612396 -0.1286982 0.54700005
-0.25469789 -0.1286982 0.54700005
-0.25280878 -0.12846291 0.546
-0.25138533 -0.12846291 0.546
-0.24996188 -0.12846291 0.546
-0.24853843 -0.12846291 0.546
-0.24666238 -0.12822764 0.54500002
-0.24524152 -0.12822764 0.54500002
-0.24382068 -0.12822764 0.54500002
-0.24195506 -0.12799236 0.54400003
-0.24053682 -0.12799236 0.54400003
-0.23911858 -0.12799236 0.54400003
-0.2372634 -0.12775707 0.54300004
-0.23584776 -0.12775707 0.54300004
-0.2340004 -0.1275218 0.54200006
-0.23258737 -0.1275218 0.54200006
-0.23117435 -0.1275218 0.54200006
-0.2297613 -0.1275218 0.54200006
-0.22792695 -0.12728651 0.54100001
-0.22651653 -0.12728651 0.54100001
-0.22510611 -0.12728651 0.54100001
-0.2232822 -0.12705123 0.54000002
-0.22146352 -0.12681596 0.53900003
-0.22005832 -0.12681596 0.53900003
-0.21824744 -0.12658069 0.53800005
-0.21684486 -0.12658069 0.53800005
-0.21504177 -0.12634538 0.537
-0.21324395 -0.12611011 0.53600001
-0.21184656 -0.12611011 0.53600001
-0.21005656 -0.12587483 0.53500003
-0.20866176 -0.12587483 0.53500003
-0.207267 -0.12587483 0.53500003
-0.20548742 -0.12563956 0.53400004
-0.20409523 -0.12563956 0.53400004
-0.20270307 -0.12563956 0.53400004
-0.2009339 -0.12540428 0.53300005
-0.19916995 -0.12516899 0.53200001
-0.19778299 -0.12516899 0.53200001
-0.19602688 -0.12493371 0.53100002
-0.19464251 -0.12493371 0.53100002
-0.19289424 -0.12469844 0.53000003
-0.19151248 -0.12469844 0.53000003
-0.19013074 -0.12469844 0.53000003
-0.18874899 -0.12469844 0.53000003
-0.18701375 -0.12446316 0.52900004
-0.1856346 -0.12446316 0.52900004
-0.18390712 -0.12422787 0.528
-0.1825306 -0.12422787 0.528
-0.18081097 -0.12399259 0.52700001
-0.17943706 -0.12399259 0.52700001
-0.17772526 -0.12375731 0.52600002
-0.17635395 -0.12375731 0.52600002
-0.17464997 -0.12352204 0.52500004
-0.17328127 -0.12352204 0.52500004
-0.17191255 -0.12352204 0.52500004
-0.17054385 -0.12352204 0.52500004
-0.1688529 -0.12328676 0.52400005
-0.1674868 -0.12328676 0.52400005
-0.16612069 -0.12328676 0.52400005
-0.16475458 -0.12328676 0.52400005
-0.16338849 -0.12328676 0.52400005
-0.16171317 -0.12305146 0.523
-0.16034968 -0.12305146 0.523
-0.15898618 -0.12305146 0.523
-0.15762269 -0.12305146 0.523
-0.15625919 -0.12305146 0.523
-0.15489571 -0.12305146 0.523
-0.15323865 -0.12281619 0.52200001
-0.15187778 -0.12281619 0.52200001
-0.15022853 -0.12258092 0.52100003
-0.14887026 -0.12258092 0.52100003
-0.14751197 -0.12258092 0.52100003
-0.14587316 -0.12234563 0.52000004
-0.14423959 -0.12211036 0.51900005
-0.14288652 -0.12211036 0.51900005
-0.14126074 -0.12187507 0.51800001
-0.13964018 -0.12163979 0.51700002
-0.13829234 -0.12163979 0.51700002
-0.13667959 -0.12140451 0.51600003
-0.13507208 -0.12116924 0.51500005
-0.13346976 -0.12093395 0.514
-0.13212974 -0.12093395 0.514
-0.1307897 -0.12093395 0.514
-0.12919784 -0.12069867 0.51300001
-0.1278604 -0.12069867 0.51300001
-0.12652297 -0.12069867 0.51300001
-0.12518556 -0.12069867 0.51300001
-0.12360672 -0.12046339 0.51200002
-0.1222719 -0.12046339 0.51200002
-0.12093709 -0.12046339 0.51200002
-0.11960227 -0.12046339 0.51200002
-0.11803646 -0.12022811 0.51100004
-0.11670425 -0.12022811 0.51100004
-0.11537204 -0.12022811 0.51100004
-0.11403983 -0.12022811 0.51100004
-0.11270762 -0.12022811 0.51100004
-0.11115746 -0.11999284 0.51000005
-0.10982786 -0.11999284 0.51000005
-0.10849825 -0.11999284 0.51000005
-0.10695851 -0.11975755 0.509
-0.1040996 -0.11952227 0.50800002
-0.10277522 -0.11952227 0.50800002
-0.10105142 -0.11905172 0.50600004
-0.099732235 -0.11905172 0.50600004
-0.09821856 -0.11881643 0.505
-0.096710116 -0.11858115 0.50400001
-0.095206879 -0.11834587 0.50300002
-0.093708858 -0.1181106 0.50200003
-0.092400111 -0.1181106 0.50200003
-0.090909913 -0.11787532 0.50100005
-0.089603774 -0.11787532 0.50100005
-0.088121384 -0.11764003 0.5
-0.086817853 -0.11764003 0.5
-0.085343294 -0.11740475 0.49900001
-0.08404237 -0.11740475 0.49900001
-0.082575634 -0.11716947 0.49800003
-0.081277311 -0.11716947 0.49800003
-0.079978995 -0.11716947 0.49800003
-0.078680679 -0.11716947 0.49800003
-0.077382356 -0.11716947 0.49800003
-0.07608404 -0.11716947 0.49800003
-0.074785724 -0.11716947 0.49800003
-0.073339842 -0.11693419 0.49700001
-0.072044127 -0.11693419 0.49700001
-0.070748419 -0.11693419 0.49700001
-0.06945271 -0.11693419 0.49700001
-0.068157002 -0.11693419 0.49700001
-0.066861287 -0.11693419 0.49700001
-0.065565579 -0.11693419 0.49700001
-0.064269863 -0.11693419 0.49700001
-0.062847443 -0.11669891 0.49600002
-0.061554346 -0.11669891 0.49600002
-0.060261242 -0.11669891 0.49600002
-0.058849249 -0.11646363 0.49500003
-0.057558753 -0.11646363 0.49500003
-0.056268256 -0.11646363 0.49500003
-0.054866694 -0.11622835 0.49400002
-0.053578805 -0.11622835 0.49400002
-0.052185066 -0.11599308 0.49300003
-0.050899781 -0.11599308 0.49300003
-0.049614497 -0.11599308 0.49300003
-0.048231184 -0.11575779 0.49200001
-0.046948507 -0.11575779 0.49200001
-0.045573018 -0.11552251 0.49100003
-0.044292949 -0.11552251 0.49100003
-0.04292528 -0.11528723 0.49000001
-0.041647814 -0.11528723 0.49000001
-0.040287968 -0.11505195 0.48900002
-0.039013114 -0.11505195 0.48900002
-0.03773826 -0.11505195 0.48900002
-0.036388841 -0.11481667 0.48800004
-0.035116594 -0.11481667 0.48800004
-0.033844344 -0.11481667 0.48800004
-0.032505348 -0.11458139 0.48700002
-0.03123571 -0.11458139 0.48700002
-0.029966069 -0.11458139 0.48700002
-0.028637506 -0.11434611 0.48600003
-0.027370472 -0.11434611 0.48600003
-0.026103439 -0.11434611 0.48600003
-0.024836406 -0.11434611 0.48600003
-0.023569373 -0.11434611 0.48600003
-0.022256451 -0.11411083 0.48500001
-0.020948743 -0.11387555 0.48400003
-0.019686922 -0.11387555 0.48400003
-0.018425105 -0.11387555 0.48400003
-0.017127825 -0.11364027 0.48300001
-0.015868613 -0.11364027 0.48300001
-0.0146094 -0.11364027 0.48300001
-0.013350189 -0.11364027 0.48300001
-0.012065944 -0.11340499 0.48200002
-0.01080934 -0.11340499 0.48200002
-0.0095527349 -0.11340499 0.48200002
-0.0082789175 -0.11316971 0.48100004
-0.0070249201 -0.11316971 0.48100004
-0.0057709226 -0.11316971 0.48100004
-0.0045169252 -0.11316971 0.48100004
-0.0032629275 -0.11316971 0.48100004
-0.0020089296 -0.11316971 0.48100004
-0.000754932 -0.11316971 0.48100004
0.00049906567 -0.11316971 0.48100004
0.0017530634 -0.11316971 0.48100004
0.0030008093 -0.11293443 0.48000002
0.0042522 -0.11293443 0.48000002
0.0055035907 -0.11293443 0.48000002
0.0067409081 -0.11269915 0.47900003
0.0079896925 -0.11269915 0.47900003
0.0092191882 -0.11246387 0.47800002
0.01044347 -0.11222859 0.47700003
0.011662539 -0.11199331 0.47600001
0.0129035 -0.11199331 0.47600001
0.014114749 -0.11175803 0.47500002
0.015353103 -0.11175803 0.47500002
0.016556529 -0.11152276 0.47400004
0.017792279 -0.11152276 0.47400004
0.018987883 -0.11128747 0.47300002
0.020221023 -0.11128747 0.47300002
0.021408807 -0.11105219 0.47200003
0.022591377 -0.11081691 0.47100002
0.023819303 -0.11081691 0.47100002
0.024994053 -0.11058163 0.47000003
0.026219372 -0.11058163 0.47000003
0.027386297 -0.11034635 0.46900001
0.028609011 -0.11034635 0.46900001
0.029831722 -0.11034635 0.46900001
0.031054437 -0.11034635 0.46900001
0.032277152 -0.11034635 0.46900001
0.033428434 -0.11011107 0.46800002
0.034648541 -0.11011107 0.46800002
0.035868645 -0.11011107 0.46800002
0.037088752 -0.11011107 0.46800002
0.038227003 -0.10987578 0.46700001
0.039444499 -0.10987578 0.46700001
0.040661998 -0.10987578 0.46700001
0.041789819 -0.10964051 0.46600002
0.04300471 -0.10964051 0.46600002
0.044124711 -0.10940523 0.46500003
0.045336995 -0.10940523 0.46500003
0.046549283 -0.10940523 0.46500003
0.047761567 -0.10940523 0.46500003
0.048868529 -0.10916995 0.46400002
0.050078206 -0.10916995 0.46400002
0.051287882 -0.10916995 0.46400002
0.052497562 -0.10916995 0.46400002
0.053591494 -0.10893467 0.46300003
0.054798566 -0.10893467 0.46300003
0.05588467 -0.10869939 0.46200001
0.057089131 -0.10869939 0.46200001
0.058293596 -0.10869939 0.46200001
0.059498057 -0.10869939 0.46200001
0.060571134 -0.10846411 0.46100003
0.061772987 -0.10846411 0.46100003
0.062838234 -0.10822883 0.46000001
0.064037487 -0.10822883 0.46000001
0.06523674 -0.10822883 0.46000001
0.066291563 -0.10799355 0.45900002
0.067488208 -0.10799355 0.45900002
0.068684846 -0.10799355 0.45900002
0.069729246 -0.10775827 0.45800003
0.070923284 -0.10775827 0.45800003
0.072117314 -0.10775827 0.45800003
0.073311351 -0.10775827 0.45800003
0.074342705 -0.10752299 0.45700002
0.075534135 -0.10752299 0.45700002
0.076725565 -0.10752299 0.45700002
0.077916987 -0.10752299 0.45700002
0.079108417 -0.10752299 0.45700002
0.08012414 -0.10728771 0.45600003
0.081312962 -0.10728771 0.45600003
0.082501784 -0.10728771 0.45600003
0.083690606 -0.10728771 0.45600003
0.084693283 -0.10705242 0.45500001
0.085879497 -0.10705242 0.45500001
0.087065712 -0.10705242 0.45500001
0.088251926 -0.10705242 0.45500001
0.089241572 -0.10681715 0.45400003
0.090425178 -0.10681715 0.45400003
0.091608785 -0.10681715 0.45400003
0.092588 -0.10658187 0.45300001
0.093768999 -0.10658187 0.45300001
0.094950005 -0.10658187 0.45300001
0.096131004 -0.10658187 0.45300001
0.097097188 -0.10634659 0.45200002
0.09827558 -0.10634659 0.45200002
0.099453971 -0.10634659 0.45200002
0.10040973 -0.10611131 0.45100003
0.10158551 -0.10611131 0.45100003
0.1027613 -0.10611131 0.45100003
0.10370662 -0.10587603 0.45000002
0.1048798 -0.10587603 0.45000002
0.10605298 -0.10587603 0.45000002
0.10722616 -0.10587603 0.45000002
0.10815845 -0.10564075 0.44900003
0.10932903 -0.10564075 0.44900003
0.1104996 -0.10564075 0.44900003
0.11167017 -0.10564075 0.44900003
0.11258942 -0.10540546 0.44800001
0.11375739 -0.10540546 0.44800001
0.11492535 -0.10540546 0.44800001
0.11583418 -0.10517019 0.44700003
0.11699954 -0.10517019 0.44700003
0.1181649 -0.10517019 0.44700003
0.1190633 -0.10493491 0.44600001
0.12022604 -0.10493491 0.44600001
0.12138879 -0.10493491 0.44600001
0.12227676 -0.10469963 0.44500002
0.12343691 -0.10469963 0.44500002
0.12431706 -0.10446435 0.44400004
0.1254746 -0.10446435 0.44400004
0.12663212 -0.10446435 0.44400004
0.12750186 -0.10422907 0.44300002
0.12865677 -0.10422907 0.44300002
0.12981172 -0.10422907 0.44300002
0.13067101 -0.10399379 0.44200003
0.13182333 -0.10399379 0.44200003
0.13297565 -0.10399379 0.44200003
0.13382451 -0.10375851 0.44100001
0.13497423 -0.10375851 0.44100001
0.13612394 -0.10375851 0.44100001
0.13696238 -0.10352323 0.44000003
0.13810949 -0.10352323 0.44000003
0.13894011 -0.10328794 0.43900001
0.14008459 -0.10328794 0.43900001
0.14090741 -0.10305267 0.43800002
0.1420493 -0.10305267 0.43800002
0.14319119 -0.10305267 0.43800002
0.14433309 -0.10305267 0.43800002
0.14547497 -0.10305267 0.43800002
0.14661688 -0.10305267 0.43800002
0.1474214 -0.10281739 0.43700001
0.1485607 -0.10281739 0.43700001
0.14969999 -0.10281739 0.43700001
0.15083927 -0.10281739 0.43700001
0.15197855 -0.10281739 0.43700001
0.15311785 -0.10281739 0.43700001
0.15425713 -0.10281739 0.43700001
0.15539642 -0.10281739 0.43700001
0.15617751 -0.1025821 0.43600002
0.15731418 -0.1025821 0.43600002
0.15808746 -0.10234683 0.43500003
0.15922152 -0.10234683 0.43500003
0.15998696 -0.10211155 0.43400002
0.16111842 -0.10211155 0.43400002
0.16187605 -0.10187627 0.43300003
0.1630049 -0.10187627 0.43300003
0.1637547 -0.10164098 0.43200001
0.16488095 -0.10164098 0.43200001
0.16600721 -0.10164098 0.43200001
0.16674657 -0.10140571 0.43100002
0.16787021 -0.10140571 0.43100002
0.16899386 -0.10140571 0.43100002
0.1701175 -0.10140571 0.43100002
0.17124115 -0.10140571 0.43100002
0.17236479 -0.10140571 0.43100002
0.17348844 -0.10140571 0.43100002
0.17461208 -0.10140571 0.43100002
0.17532799 -0.10117042 0.43000001
0.17644902 -0.10117042 0.43000001
0.17757006 -0.10117042 0.43000001
0.17827553 -0.10093515 0.42900002
0.17939396 -0.10093515 0.42900002
0.1805124 -0.10093515 0.42900002
0.18120745 -0.10069987 0.42800003
0.18232326 -0.10069987 0.42800003
0.18301049 -0.10046458 0.42700002
0.18412371 -0.10046458 0.42700002
0.18480313 -0.10022931 0.42600003
0.18591374 -0.10022931 0.42600003
0.18658531 -0.099994026 0.42500001
0.18769331 -0.099994026 0.42500001
0.1888013 -0.099994026 0.42500001
0.18990932 -0.099994026 0.42500001
0.19101731 -0.099994026 0.42500001
0.19212532 -0.099994026 0.42500001
0.19323331 -0.099994026 0.42500001
0.19434133 -0.099994026 0.42500001
0.19544932 -0.099994026 0.42500001
0.19655733 -0.099994026 0.42500001
0.19766533 -0.099994026 0.42500001
-0.31407696 -0.13122757 0.56400001
-0.31260657 -0.13122757 0.56400001
-0.31058457 -0.1309949 0.56300002
-0.30911675 -0.1309949 0.56300002
-0.30710256 -0.13076223 0.56200004
-0.30563739 -0.13076223 0.56200004
-0.30363101 -0.13052955 0.56100005
-0.30162978 -0.13029687 0.56
-0.30016983 -0.13029687 0.56
-0.29817647 -0.1300642 0.55900002
-0.29671913 -0.1300642 0.55900002
-0.29526177 -0.1300642 0.55900002
-0.29327884 -0.12983154 0.55800003
-0.2918241 -0.12983154 0.55800003
-0.28984901 -0.12959887 0.55700004
-0.28839684 -0.12959887 0.55700004
-0.28694472 -0.12959887 0.55700004
-0.2854926 -0.12959887 0.55700004
-0.2835305 -0.12936619 0.55600005
-0.28208098 -0.12936619 0.55600005
-0.28063145 -0.12936619 0.55600005
-0.27867979 -0.12913351 0.55500001
-0.27723286 -0.12913351 0.55500001
-0.27528903 -0.12890084 0.55400002
-0.27384472 -0.12890084 0.55400002
-0.2719087 -0.12866817 0.55300003
-0.27046701 -0.12866817 0.55300003
-0.26853883 -0.12843551 0.55200005
-0.26661581 -0.12820281 0.551
-0.26469806 -0.12797014 0.55000001
-0.26278552 -0.12773748 0.54900002
-0.26135427 -0.12773748 0.54900002
-0.25944951 -0.12750481 0.54800004
-0.25755003 -0.12727214 0.54700005
-0.25612396 -0.12727214 0.54700005
-0.25469789 -0.12727214 0.54700005
-0.25280878 -0.12703945 0.546
-0.25138533 -0.12703945 0.546
-0.24996188 -0.12703945 0.546
-0.24853843 -0.12703945 0.546
-0.24666238 -0.12680678 0.54500002
-0.24524152 -0.12680678 0.54500002
-0.24382068 -0.12680678 0.54500002
-0.24195506 -0.12657411 0.54400003
-0.24053682 -0.12657411 0.54400003
-0.23911858 -0.12657411 0.54400003
-0.23770034 -0.12657411 0.54400003
-0.23584776 -0.12634145 0.54300004
-0.23443213 -0.12634145 0.54300004
-0.23301649 -0.12634145 0.54300004
-0.23117435 -0.12610878 0.54200006
-0.2297613 -0.12610878 0.54200006
-0.22834828 -0.12610878 0.54200006
-0.22651653 -0.12587608 0.54100001
-0.22510611 -0.12587608 0.54100001
-0.2232822 -0.12564342 0.54000002
-0.22187439 -0.12564342 0.54000002
-0.22005832 -0.12541075 0.53900003
-0.21824744 -0.12517808 0.53800005
-0.21684486 -0.12517808 0.53800005
-0.21504177 -0.12494539 0.537
-0.21324395 -0.12471273 0.53600001
-0.21184656 -0.12471273 0.53600001
-0.21044917 -0.12471273 0.53600001
-0.20866176 -0.12448005 0.53500003
-0.207267 -0.12448005 0.53500003
-0.20548742 -0.12424739 0.53400004
-0.20409523 -0.12424739 0.53400004
-0.20270307 -0.12424739 0.53400004
-0.2009339 -0.12401471 0.53300005
-0.19954436 -0.12401471 0.53300005
-0.19778299 -0.12378203 0.53200001
-0.19639604 -0.12378203 0.53200001
-0.19464251 -0.12354936 0.53100002
-0.19325818 -0.12354936 0.53100002
-0.19151248 -0.12331669 0.53000003
-0.19013074 -0.12331669 0.53000003
-0.18874899 -0.12331669 0.53000003
-0.18701375 -0.12308402 0.52900004
-0.1856346 -0.12308402 0.52900004
-0.18390712 -0.12285133 0.528
-0.1825306 -0.12285133 0.528
-0.18081097 -0.12261867 0.52700001
-0.17943706 -0.12261867 0.52700001
-0.17806314 -0.12261867 0.52700001
-0.17635395 -0.122386 0.52600002
-0.17498262 -0.122386 0.52600002
-0.17328127 -0.12215333 0.52500004
-0.17191255 -0.12215333 0.52500004
-0.17054385 -0.12215333 0.52500004
-0.16917513 -0.12215333 0.52500004
-0.1674868 -0.12192066 0.52400005
-0.16612069 -0.12192066 0.52400005
-0.16475458 -0.12192066 0.52400005
-0.16338849 -0.12192066 0.52400005
-0.16171317 -0.12168797 0.523
-0.16034968 -0.12168797 0.523
-0.15898618 -0.12168797 0.523
-0.15762269 -0.12168797 0.523
-0.15625919 -0.12168797 0.523
-0.15489571 -0.12168797 0.523
-0.15323865 -0.1214553 0.52200001
-0.15187778 -0.1214553 0.52200001
-0.15051688 -0.1214553 0.52200001
-0.14887026 -0.12122264 0.52100003
-0.14751197 -0.12122264 0.52100003
-0.14615369 -0.12122264 0.52100003
-0.1445175 -0.12098996 0.52000004
-0.14288652 -0.1207573 0.51900005
-0.14126074 -0.12052461 0.51800001
-0.13991027 -0.12052461 0.51800001
-0.13829234 -0.12029194 0.51700002
-0.13667959 -0.12005927 0.51600003
-0.13507208 -0.1198266 0.51500005
-0.13372944 -0.1198266 0.51500005
-0.13212974 -0.11959392 0.514
-0.1307897 -0.11959392 0.514
-0.12944968 -0.11959392 0.514
-0.12810963 -0.11959392 0.514
-0.12652297 -0.11936124 0.51300001
-0.12518556 -0.11936124 0.51300001
-0.12384813 -0.11936124 0.51300001
-0.1222719 -0.11912858 0.51200002
-0.12093709 -0.11912858 0.51200002
-0.11960227 -0.11912858 0.51200002
-0.11826745 -0.11912858 0.51200002
-0.11670425 -0.1188959 0.51100004
-0.11537204 -0.1188959 0.51100004
-0.11403983 -0.1188959 0.51100004
-0.11270762 -0.1188959 0.51100004
-0.11137541 -0.1188959 0.51100004
-0.10982786 -0.11866324 0.51000005
-0.10849825 -0.11866324 0.51000005
-0.10695851 -0.11843055 0.509
-0.10563152 -0.11843055 0.509
-0.1040996 -0.11819788 0.50800002
-0.1025729 -0.11796521 0.50700003
-0.10105142 -0.11773254 0.50600004
-0.099732235 -0.11773254 0.50600004
-0.09821856 -0.11749986 0.505
-0.096710116 -0.11726719 0.50400001
-0.095396154 -0.11726719 0.50400001
-0.093895525 -0.11703452 0.50300002
-0.092400111 -0.11680185 0.50200003
-0.090909913 -0.11656918 0.50100005
-0.089603774 -0.11656918 0.50100005
-0.088121384 -0.11633649 0.5
-0.086817853 -0.11633649 0.5
-0.085343294 -0.11610383 0.49900001
-0.08404237 -0.11610383 0.49900001
-0.082741447 -0.11610383 0.49900001
-0.081277311 -0.11587115 0.49800003
-0.079978995 -0.11587115 0.49800003
-0.078680679 -0.11587115 0.49800003
-0.077382356 -0.11587115 0.49800003
-0.07608404 -0.11587115 0.49800003
-0.074785724 -0.11587115 0.49800003
-0.073487408 -0.11587115 0.49800003
-0.072189093 -0.11587115 0.49800003
-0.070890769 -0.11587115 0.49800003
-0.06945271 -0.11563848 0.49700001
-0.068157002 -0.11563848 0.49700001
-0.066861287 -0.11563848 0.49700001
-0.065565579 -0.11563848 0.49700001
-0.064269863 -0.11563848 0.49700001
-0.062974155 -0.11563848 0.49700001
-0.061554346 -0.11540581 0.49600002
-0.060261242 -0.11540581 0.49600002
-0.058849249 -0.11517314 0.49500003
-0.057558753 -0.11517314 0.49500003
-0.056268256 -0.11517314 0.49500003
-0.054866694 -0.11494046 0.49400002
-0.053578805 -0.11494046 0.49400002
-0.052290916 -0.11494046 0.49400002
-0.050899781 -0.11470779 0.49300003
-0.049614497 -0.11470779 0.49300003
-0.048329215 -0.11470779 0.49300003
-0.046948507 -0.11447512 0.49200001
-0.045573018 -0.11424244 0.49100003
-0.044292949 -0.11424244 0.49100003
-0.043012884 -0.11424244 0.49100003
-0.041647814 -0.11400977 0.49000001
-0.040287968 -0.11377709 0.48900002
-0.039013114 -0.11377709 0.48900002
-0.03773826 -0.11377709 0.48900002
-0.036388841 -0.11354443 0.48800004
-0.035116594 -0.11354443 0.48800004
-0.033844344 -0.11354443 0.48800004
-0.032572094 -0.11354443 0.48800004
-0.03123571 -0.11331175 0.48700002
-0.029966069 -0.11331175 0.48700002
-0.028637506 -0.11307908 0.48600003
-0.027370472 -0.11307908 0.48600003
-0.026103439 -0.11307908 0.48600003
-0.024836406 -0.11307908 0.48600003
-0.023569373 -0.11307908 0.48600003
-0.022256451 -0.1128464 0.48500001
-0.020992024 -0.1128464 0.48500001
-0.019686922 -0.11261373 0.48400003
-0.018425105 -0.11261373 0.48400003
-0.017127825 -0.11238106 0.48300001
-0.015868613 -0.11238106 0.48300001
-0.0146094 -0.11238106 0.48300001
-0.013350189 -0.11238106 0.48300001
-0.012065944 -0.11214839 0.48200002
-0.01080934 -0.11214839 0.48200002
-0.0095527349 -0.11214839 0.48200002
-0.0082789175 -0.11191572 0.48100004
-0.0070249201 -0.11191572 0.48100004
-0.0057709226 -0.11191572 0.48100004
-0.0045169252 -0.11191572 0.48100004
-0.0032629275 -0.11191572 0.48100004
-0.0020089296 -0.11191572 0.48100004
-0.000754932 -0.11191572 0.48100004
0.00049906567 -0.11191572 0.48100004
0.0017530634 -0.11191572 0.48100004
0.0030070611 -0.11191572 0.48100004
0.0042522 -0.11168304 0.48000002
0.0055035907 -0.11168304 0.48000002
0.0067409081 -0.11145037 0.47900003
0.0079730116 -0.11121769 0.47800002
0.0092191882 -0.11121769 0.47800002
0.01044347 -0.11098503 0.47700003
0.011662539 -0.11075234 0.47600001
0.0129035 -0.11075234 0.47600001
0.014114749 -0.11051968 0.47500002
0.015353103 -0.11051968 0.47500002
0.016556529 -0.110287 0.47400004
0.017792279 -0.110287 0.47400004
0.018987883 -0.11005433 0.47300002
0.020221023 -0.11005433 0.47300002
0.021408807 -0.10982166 0.47200003
0.022639342 -0.10982166 0.47200003
0.023819303 -0.10958898 0.47100002
0.025047231 -0.10958898 0.47100002
0.026219372 -0.10935631 0.47000003
0.02744469 -0.10935631 0.47000003
0.028670013 -0.10935631 0.47000003
0.029831722 -0.10912363 0.46900001
0.031054437 -0.10912363 0.46900001
0.032277152 -0.10912363 0.46900001
0.033499863 -0.10912363 0.46900001
0.034722574 -0.10912363 0.46900001
0.035868645 -0.10889097 0.46800002
0.037088752 -0.10889097 0.46800002
0.038308859 -0.10889097 0.46800002
0.039444499 -0.10865829 0.46700001
0.040661998 -0.10865829 0.46700001
0.041789819 -0.10842562 0.46600002
0.04300471 -0.10842562 0.46600002
0.044219602 -0.10842562 0.46600002
0.045434494 -0.10842562 0.46600002
0.046549283 -0.10819295 0.46500003
0.047761567 -0.10819295 0.46500003
0.048973851 -0.10819295 0.46500003
0.050078206 -0.10796027 0.46400002
0.051287882 -0.10796027 0.46400002
0.052497562 -0.10796027 0.46400002
0.053591494 -0.1077276 0.46300003
0.054798566 -0.1077276 0.46300003
0.056005634 -0.1077276 0.46300003
0.057089131 -0.10749492 0.46200001
0.058293596 -0.10749492 0.46200001
0.059498057 -0.10749492 0.46200001
0.060571134 -0.10726225 0.46100003
0.061772987 -0.10726225 0.46100003
0.06297484 -0.10726225 0.46100003
0.064037487 -0.10702958 0.46000001
0.06523674 -0.10702958 0.46000001
0.066435993 -0.10702958 0.46000001
0.067488208 -0.10679691 0.45900002
0.068684846 -0.10679691 0.45900002
0.069881491 -0.10679691 0.45900002
0.071078129 -0.10679691 0.45900002
0.072117314 -0.10656424 0.45800003
0.073311351 -0.10656424 0.45800003
0.074505381 -0.10656424 0.45800003
0.075534135 -0.10633156 0.45700002
0.076725565 -0.10633156 0.45700002
0.077916987 -0.10633156 0.45700002
0.079108417 -0.10633156 0.45700002
0.080299854 -0.10633156 0.45700002
0.081312962 -0.10609889 0.45600003
0.082501784 -0.10609889 0.45600003
0.083690606 -0.10609889 0.45600003
0.084879428 -0.10609889 0.45600003
0.086068243 -0.10609889 0.45600003
0.087065712 -0.10586622 0.45500001
0.088251926 -0.10586622 0.45500001
0.089438133 -0.10586622 0.45500001
0.090624347 -0.10586622 0.45500001
0.091608785 -0.10563354 0.45400003
0.092792392 -0.10563354 0.45400003
0.093768999 -0.10540087 0.45300001
0.094950005 -0.10540087 0.45300001
0.096131004 -0.10540087 0.45300001
0.097097188 -0.10516819 0.45200002
0.09827558 -0.10516819 0.45200002
0.099453971 -0.10516819 0.45200002
0.10063236 -0.10516819 0.45200002
0.10158551 -0.10493553 0.45100003
0.1027613 -0.10493553 0.45100003
0.10393709 -0.10493553 0.45100003
0.1048798 -0.10470285 0.45000002
0.10605298 -0.10470285 0.45000002
0.10722616 -0.10470285 0.45000002
0.10815845 -0.10447018 0.44900003
0.10932903 -0.10447018 0.44900003
0.1104996 -0.10447018 0.44900003
0.11167017 -0.10447018 0.44900003
0.11258942 -0.1042375 0.44800001
0.11375739 -0.1042375 0.44800001
0.11492535 -0.1042375 0.44800001
0.11583418 -0.10400483 0.44700003
0.11699954 -0.10400483 0.44700003
0.1181649 -0.10400483 0.44700003
0.1190633 -0.10377216 0.44600001
0.12022604 -0.10377216 0.44600001
0.12138879 -0.10377216 0.44600001
0.12227676 -0.10353949 0.44500002
0.12343691 -0.10353949 0.44500002
0.12459705 -0.10353949 0.44500002
0.1254746 -0.10330682 0.44400004
0.12663212 -0.10330682 0.44400004
0.12778968 -0.10330682 0.44400004
0.12865677 -0.10307414 0.44300002
0.12981172 -0.10307414 0.44300002
0.13067101 -0.10284147 0.44200003
0.13182333 -0.10284147 0.44200003
0.13297565 -0.10284147 0.44200003
0.13382451 -0.10260879 0.44100001
0.13497423 -0.10260879 0.44100001
0.13612394 -0.10260879 0.44100001
0.13696238 -0.10237612 0.44000003
0.13810949 -0.10237612 0.44000003
0.1392566 -0.10237612 0.44000003
0.14008459 -0.10214344 0.43900001
0.14122911 -0.10214344 0.43900001
0.14237361 -0.10214344 0.43900001
0.14351811 -0.10214344 0.43900001
0.14433309 -0.10191078 0.43800002
0.14547497 -0.10191078 0.43800002
0.14661688 -0.10191078 0.43800002
0.14775877 -0.10191078 0.43800002
0.14890066 -0.10191078 0.43800002
0.15004255 -0.10191078 0.43800002
0.15083927 -0.1016781 0.43700001
0.15197855 -0.1016781 0.43700001
0.15311785 -0.1016781 0.43700001
0.15425713 -0.1016781 0.43700001
0.15539642 -0.1016781 0.43700001
0.15617751 -0.10144543 0.43600002
0.15731418 -0.10144543 0.43600002
0.15808746 -0.10121275 0.43500003
0.15922152 -0.10121275 0.43500003
0.15998696 -0.10098008 0.43400002
0.16111842 -0.10098008 0.43400002
0.16187605 -0.10074741 0.43300003
0.1630049 -0.10074741 0.43300003
0.16413377 -0.10074741 0.43300003
0.16488095 -0.10051473 0.43200001
0.16600721 -0.10051473 0.43200001
0.16713345 -0.10051473 0.43200001
0.16787021 -0.10028207 0.43100002
0.16899386 -0.10028207 0.43100002
0.1701175 -0.10028207 0.43100002
0.17124115 -0.10028207 0.43100002
0.17236479 -0.10028207 0.43100002
0.17348844 -0.10028207 0.43100002
0.17461208 -0.10028207 0.43100002
0.17532799 -0.10004938 0.43000001
0.17644902 -0.10004938 0.43000001
0.17757006 -0.10004938 0.43000001
0.17869109 -0.10004938 0.43000001
0.17939396 -0.099816717 0.42900002
0.1805124 -0.099816717 0.42900002
0.18120745 -0.09958405 0.42800003
0.18232326 -0.09958405 0.42800003
0.18301049 -0.099351369 0.42700002
0.18412371 -0.099351369 0.42700002
0.18523693 -0.099351369 0.42700002
0.18591374 -0.099118702 0.42600003
0.18702434 -0.099118702 0.42600003
0.18769331 -0.09888602 0.42500001
0.1888013 -0.09888602 0.42500001
0.18990932 -0.09888602 0.42500001
0.19101731 -0.09888602 0.42500001
0.19212532 -0.09888602 0.42500001
0.19323331 -0.09888602 0.42500001
0.19434133 -0.09888602 0.42500001
0.19544932 -0.09888602 0.42500001
0.19655733 -0.09888602 0.42500001
0.19766533 -0.09888602 0.42500001
-0.31407696 -0.12975718 0.56400001
-0.31260657 -0.12975718 0.56400001
-0.31058457 -0.12952712 0.56300002
-0.30911675 -0.12952712 0.56300002
-0.30710256 -0.12929706 0.56200004
-0.30563739 -0.12929706 0.56200004
-0.30363101 -0.129067 0.56100005
-0.30162978 -0.12883691 0.56
-0.30016983 -0.12883691 0.56
-0.29817647 -0.12860686 0.55900002
-0.29671913 -0.12860686 0.55900002
-0.29526177 -0.12860686 0.55900002
-0.29327884 -0.1283768 0.55800003
-0.2918241 -0.1283768 0.55800003
-0.29036936 -0.1283768 0.55800003
-0.28839684 -0.12814674 0.55700004
-0.28694472 -0.12814674 0.55700004
-0.2854926 -0.12814674 0.55700004
-0.2835305 -0.12791666 0.55600005
-0.28208098 -0.12791666 0.55600005
-0.28063145 -0.12791666 0.55600005
-0.27918193 -0.12791666 0.55600005
-0.27723286 -0.12768659 0.55500001
-0.27578592 -0.12768659 0.55500001
-0.27384472 -0.12745653 0.55400002
-0.27240041 -0.12745653 0.55400002
-0.27046701 -0.12722647 0.55300003
-0.26853883 -0.1269964 0.55200005
-0.26709971 -0.1269964 0.55200005
-0.26469806 -0.12653627 0.55000001
-0.26326418 -0.12653627 0.55000001
-0.26135427 -0.12630621 0.54900002
-0.25944951 -0.12607613 0.54800004
-0.25802088 -0.12607613 0.54800004
-0.25612396 -0.12584607 0.54700005
-0.25469789 -0.12584607 0.54700005
-0.25280878 -0.125616 0.546
-0.25138533 -0.125616 0.546
-0.24996188 -0.125616 0.546
-0.24853843 -0.125616 0.546
-0.24666238 -0.12538594 0.54500002
-0.24524152 -0.12538594 0.54500002
-0.24382068 -0.12538594 0.54500002
-0.24239983 -0.12538594 0.54500002
-0.24053682 -0.12515587 0.54400003
-0.23911858 -0.12515587 0.54400003
-0.23770034 -0.12515587 0.54400003
-0.23584776 -0.12492581 0.54300004
-0.23443213 -0.12492581 0.54300004
-0.23301649 -0.12492581 0.54300004
-0.23160085 -0.12492581 0.54300004
-0.2297613 -0.12469575 0.54200006
-0.22834828 -0.12469575 0.54200006
-0.22693525 -0.12469575 0.54200006
-0.22510611 -0.12446567 0.54100001
-0.2236957 -0.12446567 0.54100001
-0.22187439 -0.12423561 0.54000002
-0.22005832 -0.12400554 0.53900003
-0.2186531 -0.12400554 0.53900003
-0.21684486 -0.12377548 0.53800005
-0.21504177 -0.1235454 0.537
-0.21324395 -0.12331534 0.53600001
-0.21184656 -0.12331534 0.53600001
-0.21044917 -0.12331534 0.53600001
-0.20866176 -0.12308528 0.53500003
-0.207267 -0.12308528 0.53500003
-0.20587221 -0.12308528 0.53500003
-0.20409523 -0.12285522 0.53400004
-0.20270307 -0.12285522 0.53400004
-0.20131089 -0.12285522 0.53400004
-0.19954436 -0.12262515 0.53300005
-0.19815478 -0.12262515 0.53300005
-0.19639604 -0.12239508 0.53200001
-0.19500907 -0.12239508 0.53200001
-0.19362213 -0.12239508 0.53200001
-0.19187382 -0.12216501 0.53100002
-0.19048947 -0.12216501 0.53100002
-0.18874899 -0.12193495 0.53000003
-0.18736726 -0.12193495 0.53000003
-0.18598551 -0.12193495 0.53000003
-0.18425545 -0.12170488 0.52900004
-0.18287632 -0.12170488 0.52900004
-0.18115407 -0.12147481 0.528
-0.17977755 -0.12147481 0.528
-0.17806314 -0.12124474 0.52700001
-0.17668922 -0.12124474 0.52700001
-0.17498262 -0.12101468 0.52600002
-0.17361131 -0.12101468 0.52600002
-0.17191255 -0.12078462 0.52500004
-0.17054385 -0.12078462 0.52500004
-0.16917513 -0.12078462 0.52500004
-0.1674868 -0.12055456 0.52400005
-0.16612069 -0.12055456 0.52400005
-0.16475458 -0.12055456 0.52400005
-0.16338849 -0.12055456 0.52400005
-0.16171317 -0.12032448 0.523
-0.16034968 -0.12032448 0.523
-0.15898618 -0.12032448 0.523
-0.15762269 -0.12032448 0.523
-0.15625919 -0.12032448 0.523
-0.15489571 -0.12032448 0.523
-0.15353221 -0.12032448 0.523
-0.15187778 -0.12009442 0.52200001
-0.15051688 -0.12009442 0.52200001
-0.149156 -0.12009442 0.52200001
-0.14751197 -0.11986435 0.52100003
-0.14615369 -0.11986435 0.52100003
-0.1445175 -0.11963429 0.52000004
-0.14316182 -0.11963429 0.52000004
-0.14153345 -0.11940423 0.51900005
-0.13991027 -0.11917415 0.51800001
-0.13855982 -0.11917415 0.51800001
-0.13694447 -0.11894409 0.51700002
-0.13533436 -0.11871403 0.51600003
-0.13372944 -0.11848396 0.51500005
-0.13238682 -0.11848396 0.51500005
-0.1307897 -0.11825389 0.514
-0.12944968 -0.11825389 0.514
-0.12810963 -0.11825389 0.514
-0.12676962 -0.11825389 0.514
-0.12518556 -0.11802382 0.51300001
-0.12384813 -0.11802382 0.51300001
-0.12251071 -0.11802382 0.51300001
-0.12117328 -0.11802382 0.51300001
-0.11960227 -0.11779376 0.51200002
-0.11826745 -0.11779376 0.51200002
-0.11693263 -0.11779376 0.51200002
-0.11537204 -0.11756369 0.51100004
-0.11403983 -0.11756369 0.51100004
-0.11270762 -0.11756369 0.51100004
-0.11137541 -0.11756369 0.51100004
-0.10982786 -0.11733364 0.51000005
-0.10849825 -0.11733364 0.51000005
-0.10695851 -0.11710355 0.509
-0.10563152 -0.11710355 0.509
-0.1040996 -0.1168735 0.50800002
-0.1025729 -0.11664343 0.50700003
-0.10125113 -0.11664343 0.50700003
-0.099732235 -0.11641337 0.50600004
-0.09821856 -0.11618329 0.505
-0.096710116 -0.11595323 0.50400001
-0.095396154 -0.11595323 0.50400001
-0.093895525 -0.11572316 0.50300002
-0.09258417 -0.11572316 0.50300002
-0.091091365 -0.1154931 0.50200003
-0.089603774 -0.11526304 0.50100005
-0.088297635 -0.11526304 0.50100005
-0.086991496 -0.11526304 0.50100005
-0.085514322 -0.11503296 0.5
-0.084210791 -0.11503296 0.5
-0.082741447 -0.1148029 0.49900001
-0.081440516 -0.1148029 0.49900001
-0.080139592 -0.1148029 0.49900001
-0.078838669 -0.1148029 0.49900001
-0.077537745 -0.1148029 0.49900001
-0.076236822 -0.1148029 0.49900001
-0.074785724 -0.11457284 0.49800003
-0.073487408 -0.11457284 0.49800003
-0.072189093 -0.11457284 0.49800003
-0.070890769 -0.11457284 0.49800003
-0.069592454 -0.11457284 0.49800003
-0.068294138 -0.11457284 0.49800003
-0.066861287 -0.11434276 0.49700001
-0.065565579 -0.11434276 0.49700001
-0.064269863 -0.11434276 0.49700001
-0.062974155 -0.11434276 0.49700001
-0.061554346 -0.1141127 0.49600002
-0.060261242 -0.1141127 0.49600002
-0.058968134 -0.1141127 0.49600002
-0.057558753 -0.11388264 0.49500003
-0.056268256 -0.11388264 0.49500003
-0.054977763 -0.11388264 0.49500003
-0.053578805 -0.11365257 0.49400002
-0.052290916 -0.11365257 0.49400002
-0.050899781 -0.11342251 0.49300003
-0.049614497 -0.11342251 0.49300003
-0.048329215 -0.11342251 0.49300003
-0.046948507 -0.11319244 0.49200001
-0.045665834 -0.11319244 0.49200001
-0.044292949 -0.11296237 0.49100003
-0.043012884 -0.11296237 0.49100003
-0.041647814 -0.11273231 0.49000001
-0.040370353 -0.11273231 0.49000001
-0.039013114 -0.11250225 0.48900002
-0.03773826 -0.11250225 0.48900002
-0.036463406 -0.11250225 0.48900002
-0.035116594 -0.11227218 0.48800004
-0.033844344 -0.11227218 0.48800004
-0.032572094 -0.11227218 0.48800004
-0.03123571 -0.11204211 0.48700002
-0.029966069 -0.11204211 0.48700002
-0.028696431 -0.11204211 0.48700002
-0.027426789 -0.11204211 0.48700002
-0.02615715 -0.11204211 0.48700002
-0.024836406 -0.11181205 0.48600003
-0.023569373 -0.11181205 0.48600003
-0.022302341 -0.11181205 0.48600003
-0.020992024 -0.11158198 0.48500001
-0.019727597 -0.11158198 0.48500001
-0.018425105 -0.11135191 0.48400003
-0.017163286 -0.11135191 0.48400003
-0.015901467 -0.11135191 0.48400003
-0.0146094 -0.11112185 0.48300001
-0.013350189 -0.11112185 0.48300001
-0.012090976 -0.11112185 0.48300001
-0.01080934 -0.11089178 0.48200002
-0.0095527349 -0.11089178 0.48200002
-0.0082961293 -0.11089178 0.48200002
-0.0070395251 -0.11089178 0.48200002
-0.0057709226 -0.11066172 0.48100004
-0.0045169252 -0.11066172 0.48100004
-0.0032629275 -0.11066172 0.48100004
-0.0020089296 -0.11066172 0.48100004
-0.000754932 -0.11066172 0.48100004
0.00049906567 -0.11066172 0.48100004
0.0017530634 -0.11066172 0.48100004
0.0030070611 -0.11066172 0.48100004
0.0042522 -0.11043165 0.48000002
0.0055035907 -0.11043165 0.48000002
0.0067409081 -0.11020159 0.47900003
0.0079730116 -0.10997152 0.47800002
0.0092191882 -0.10997152 0.47800002
0.01044347 -0.10974146 0.47700003
0.01168704 -0.10974146 0.47700003
0.0129035 -0.10951138 0.47600001
0.014114749 -0.10928132 0.47500002
0.015353103 -0.10928132 0.47500002
0.016556529 -0.10905126 0.47400004
0.017792279 -0.10905126 0.47400004
0.019028027 -0.10905126 0.47400004
0.020221023 -0.10882119 0.47300002
0.021454165 -0.10882119 0.47300002
0.022639342 -0.10859112 0.47200003
0.023819303 -0.10836106 0.47100002
0.025047231 -0.10836106 0.47100002
0.026275158 -0.10836106 0.47100002
0.02744469 -0.10813099 0.47000003
0.028670013 -0.10813099 0.47000003
0.02989533 -0.10813099 0.47000003
0.031054437 -0.10790092 0.46900001
0.032277152 -0.10790092 0.46900001
0.033499863 -0.10790092 0.46900001
0.034722574 -0.10790092 0.46900001
0.035945289 -0.10790092 0.46900001
0.037088752 -0.10767086 0.46800002
0.038308859 -0.10767086 0.46800002
0.039444499 -0.10744079 0.46700001
0.040661998 -0.10744079 0.46700001
0.041879497 -0.10744079 0.46700001
0.04300471 -0.10721073 0.46600002
0.044219602 -0.10721073 0.46600002
0.045434494 -0.10721073 0.46600002
0.046549283 -0.10698067 0.46500003
0.047761567 -0.10698067 0.46500003
0.048973851 -0.10698067 0.46500003
0.050078206 -0.10675059 0.46400002
0.051287882 -0.10675059 0.46400002
0.052497562 -0.10675059 0.46400002
0.053707242 -0.10675059 0.46400002
0.054798566 -0.10652053 0.46300003
0.056005634 -0.10652053 0.46300003
0.057089131 -0.10629046 0.46200001
0.058293596 -0.10629046 0.46200001
0.059498057 -0.10629046 0.46200001
0.060702521 -0.10629046 0.46200001
0.061772987 -0.1060604 0.46100003
0.06297484 -0.1060604 0.46100003
0.064176701 -0.1060604 0.46100003
0.06523674 -0.10583033 0.46000001
0.066435993 -0.10583033 0.46000001
0.067635238 -0.10583033 0.46000001
0.068684846 -0.10560027 0.45900002
0.069881491 -0.10560027 0.45900002
0.071078129 -0.10560027 0.45900002
0.072117314 -0.1053702 0.45800003
0.073311351 -0.1053702 0.45800003
0.074505381 -0.1053702 0.45800003
0.075699419 -0.1053702 0.45800003
0.076725565 -0.10514013 0.45700002
0.077916987 -0.10514013 0.45700002
0.079108417 -0.10514013 0.45700002
0.080299854 -0.10514013 0.45700002
0.081491277 -0.10514013 0.45700002
0.082501784 -0.10491007 0.45600003
0.083690606 -0.10491007 0.45600003
0.084879428 -0.10491007 0.45600003
0.086068243 -0.10491007 0.45600003
0.087257065 -0.10491007 0.45600003
0.088251926 -0.10468 0.45500001
0.089438133 -0.10468 0.45500001
0.090624347 -0.10468 0.45500001
0.091608785 -0.10444994 0.45400003
0.092792392 -0.10444994 0.45400003
0.093975998 -0.10444994 0.45400003
0.094950005 -0.10421987 0.45300001
0.096131004 -0.10421987 0.45300001
0.097312003 -0.10421987 0.45300001
0.09827558 -0.1039898 0.45200002
0.099453971 -0.1039898 0.45200002
0.10063236 -0.1039898 0.45200002
0.10158551 -0.10375974 0.45100003
0.1027613 -0.10375974 0.45100003
0.10393709 -0.10375974 0.45100003
0.10511287 -0.10375974 0.45100003
0.10605298 -0.10352967 0.45000002
0.10722616 -0.10352967 0.45000002
0.10839934 -0.10352967 0.45000002
0.10932903 -0.10329961 0.44900003
0.1104996 -0.10329961 0.44900003
0.11167017 -0.10329961 0.44900003
0.11258942 -0.10306954 0.44800001
0.11375739 -0.10306954 0.44800001
0.11492535 -0.10306954 0.44800001
0.11609332 -0.10306954 0.44800001
0.11699954 -0.10283948 0.44700003
0.1181649 -0.10283948 0.44700003
0.1190633 -0.1026094 0.44600001
0.12022604 -0.1026094 0.44600001
0.12138879 -0.1026094 0.44600001
0.12255154 -0.1026094 0.44600001
0.12343691 -0.10237934 0.44500002
0.12459705 -0.10237934 0.44500002
0.1257572 -0.10237934 0.44500002
0.12663212 -0.10214928 0.44400004
0.12778968 -0.10214928 0.44400004
0.1289472 -0.10214928 0.44400004
0.12981172 -0.10191921 0.44300002
0.13096665 -0.10191921 0.44300002
0.13182333 -0.10168914 0.44200003
0.13297565 -0.10168914 0.44200003
0.13412797 -0.10168914 0.44200003
0.13497423 -0.10145908 0.44100001
0.13612394 -0.10145908 0.44100001
0.13727367 -0.10145908 0.44100001
0.13810949 -0.10122901 0.44000003
0.1392566 -0.10122901 0.44000003
0.1404037 -0.10122901 0.44000003
0.14155082 -0.10122901 0.44000003
0.14237361 -0.10099895 0.43900001
0.14351811 -0.10099895 0.43900001
0.14466262 -0.10099895 0.43900001
0.1458071 -0.10099895 0.43900001
0.14661688 -0.10076888 0.43800002
0.14775877 -0.10076888 0.43800002
0.14890066 -0.10076888 0.43800002
0.15004255 -0.10076888 0.43800002
0.15118445 -0.10076888 0.43800002
0.15232635 -0.10076888 0.43800002
0.15311785 -0.10053881 0.43700001
0.15425713 -0.10053881 0.43700001
0.15539642 -0.10053881 0.43700001
0.15617751 -0.10030875 0.43600002
0.15731418 -0.10030875 0.43600002
0.15845087 -0.10030875 0.43600002
0.15922152 -0.10007869 0.43500003
0.1603556 -0.10007869 0.43500003
0.16111842 -0.099848613 0.43400002
0.16224989 -0.099848613 0.43400002
0.1630049 -0.099618554 0.43300003
0.16413377 -0.099618554 0.43300003
0.16488095 -0.09938848 0.43200001
0.16600721 -0.09938848 0.43200001
0.16713345 -0.09938848 0.43200001
0.16787021 -0.099158421 0.43100002
0.16899386 -0.099158421 0.43100002
0.1701175 -0.099158421 0.43100002
0.17124115 -0.099158421 0.43100002
0.17236479 -0.099158421 0.43100002
0.17348844 -0.099158421 0.43100002
0.17461208 -0.099158421 0.43100002
0.17573573 -0.099158421 0.43100002
0.17644902 -0.098928347 0.43000001
0.17757006 -0.098928347 0.43000001
0.17869109 -0.098928347 0.43000001
0.17981213 -0.098928347 0.43000001
0.1805124 -0.098698288 0.42900002
0.18163083 -0.098698288 0.42900002
0.18232326 -0.098468222 0.42800003
0.18343909 -0.098468222 0.42800003
0.18412371 -0.098238155 0.42700002
0.18523693 -0.098238155 0.42700002
0.18635015 -0.098238155 0.42700002
0.18702434 -0.098008089 0.42600003
0.18813495 -0.098008089 0.42600003
0.1888013 -0.097778022 0.42500001
0.18990932 -0.097778022 0.42500001
0.19101731 -0.097778022 0.42500001
0.19212532 -0.097778022 0.42500001
0.19323331 -0.097778022 0.42500001
0.19434133 -0.097778022 0.42500001
0.19544932 -0.097778022 0.42500001
0.19655733 -0.097778022 0.42500001
0.19766533 -0.097778022 0.42500001
-0.31407696 -0.12828681 0.56400001
-0.31260657 -0.12828681 0.56400001
-0.31058457 -0.12805934 0.56300002
-0.30911675 -0.12805934 0.56300002
-0.30710256 -0.12783189 0.56200004
-0.30563739 -0.12783189 0.56200004
-0.30417222 -0.12783189 0.56200004
-0.30216843 -0.12760444 0.56100005
-0.30016983 -0.12737696 0.56
-0.29870987 -0.12737696 0.56
-0.29671913 -0.12714951 0.55900002
-0.29526177 -0.12714951 0.55900002
-0.29380441 -0.12714951 0.55900002
-0.2918241 -0.12692206 0.55800003
-0.29036936 -0.12692206 0.55800003
-0.28891462 -0.12692206 0.55800003
-0.28694472 -0.12669459 0.55700004
-0.2854926 -0.12669459 0.55700004
-0.28404042 -0.12669459 0.55700004
-0.28208098 -0.12646714 0.55600005
-0.28063145 -0.12646714 0.55600005
-0.27918193 -0.12646714 0.55600005
-0.2777324 -0.12646714 0.55600005
-0.27578592 -0.12623967 0.55500001
-0.27433902 -0.12623967 0.55500001
-0.27240041 -0.12601222 0.55400002
-0.27046701 -0.12578475 0.55300003
-0.2690253 -0.12578475 0.55300003
-0.26709971 -0.1255573 0.55200005
-0.26517934 -0.12532984 0.551
-0.26326418 -0.12510237 0.55000001
-0.26135427 -0.12487492 0.54900002
-0.25944951 -0.12464747 0.54800004
-0.25802088 -0.12464747 0.54800004
-0.25612396 -0.12442001 0.54700005
-0.25469789 -0.12442001 0.54700005
-0.25327182 -0.12442001 0.54700005
-0.25138533 -0.12419254 0.546
-0.24996188 -0.12419254 0.546
-0.24853843 -0.12419254 0.546
-0.24666238 -0.12396508 0.54500002
-0.24524152 -0.12396508 0.54500002
-0.24382068 -0.12396508 0.54500002
-0.24239983 -0.12396508 0.54500002
-0.24053682 -0.12373763 0.54400003
-0.23911858 -0.12373763 0.54400003
-0.23770034 -0.12373763 0.54400003
-0.2362821 -0.12373763 0.54400003
-0.23443213 -0.12351017 0.54300004
-0.23301649 -0.12351017 0.54300004
-0.23160085 -0.12351017 0.54300004
-0.23018521 -0.12351017 0.54300004
-0.22834828 -0.12328272 0.54200006
-0.22693525 -0.12328272 0.54200006
-0.22510611 -0.12305525 0.54100001
-0.2236957 -0.12305525 0.54100001
-0.22187439 -0.12282779 0.54000002
