# .PCD v0.7 - Point Cloud Data file format
VERSION 0.7
FIELDS x y z
SIZE 4 4 4
TYPE F F F
COUNT 1 1 1
WIDTH 1382
HEIGHT 1
VIEWPOINT 0 0 0 1 0 0 0
POINTS 1382
DATA ascii
0.13813838 -0.17559378 0.49800003
0.13971668 -0.17594637 0.49900001
0.14101762 -0.17594637 0.49900001
0.14231853 -0.17594637 0.49900001
0.14361946 -0.17594637 0.49900001
0.1452108 -0.17629896 0.5
0.14651434 -0.17629896 0.5
0.14781788 -0.17629896 0.5
0.14941967 -0.17665158 0.50100005
0.15072581 -0.17665158 0.50100005
0.15203194 -0.17665158 0.50100005
0.15364414 -0.17700417 0.50200003
0.15495288 -0.17700417 0.50200003
0.15657291 -0.17735676 0.50300002
0.15788426 -0.17735676 0.50300002
0.1595121 -0.17770936 0.50400001
0.16082606 -0.17770936 0.50400001
0.16214003 -0.17770936 0.50400001
0.16377828 -0.17806195 0.505
0.16509485 -0.17806195 0.505
0.16674097 -0.17841457 0.50600004
0.16806014 -0.17841457 0.50600004
0.16937932 -0.17841457 0.50600004
0.17069849 -0.17841457 0.50600004
0.17201766 -0.17841457 0.50600004
0.17333683 -0.17841457 0.50600004
0.17465602 -0.17841457 0.50600004
0.17562738 -0.17806195 0.505
0.17659359 -0.17770936 0.50400001
0.17755455 -0.17735676 0.50300002
0.17815472 -0.17665158 0.50100005
0.17874444 -0.17594637 0.49900001
0.17932373 -0.17524117 0.49700001
0.17952919 -0.17418338 0.49400002
0.17832534 -0.16818921 0.47700003
0.17843954 -0.16713142 0.47400004
0.17862102 -0.16501583 0.46800002
0.17907259 -0.16431063 0.46600002
0.17990059 -0.16395804 0.46500003
0.18150237 -0.16431063 0.46600002
0.18350145 -0.16501583 0.46800002
0.18551096 -0.16572103 0.47000003
0.18792823 -0.16677882 0.47300002
0.19076103 -0.16818921 0.47700003
0.19361472 -0.16959961 0.48100004
0.20476292 -0.17594637 0.49900001
0.21225816 -0.18123533 0.514
0.21442932 -0.18194054 0.51600003
0.21577457 -0.18194054 0.51600003
0.2171198 -0.18194054 0.51600003
0.21888843 -0.18229313 0.51700002
0.22066227 -0.18264572 0.51800001
0.22201273 -0.18264572 0.51800001
0.22336319 -0.18264572 0.51800001
0.22514747 -0.18299834 0.51900005
0.22693695 -0.18335094 0.52000004
0.22829263 -0.18335094 0.52000004
0.23008993 -0.18370353 0.52100003
0.2314482 -0.18370353 0.52100003
0.23280649 -0.18370353 0.52100003
0.23416476 -0.18370353 0.52100003
0.2359751 -0.18405612 0.52200001
0.23733598 -0.18405612 0.52200001
0.23915415 -0.18440871 0.523
0.24097753 -0.18476133 0.52400005
0.24234363 -0.18476133 0.52400005
0.24417484 -0.18511392 0.52500004
0.24554354 -0.18511392 0.52500004
0.24738255 -0.18546651 0.52600002
0.24875386 -0.18546651 0.52600002
-0.22862284 -0.14104632 0.40300003
-0.22813688 -0.1413963 0.40400001
-0.22708364 -0.1413963 0.40400001
-0.22603039 -0.1413963 0.40400001
-0.22553401 -0.1417463 0.40500003
-0.22447814 -0.1417463 0.40500003
-0.22342229 -0.1417463 0.40500003
-0.22236642 -0.1417463 0.40500003
-0.22131056 -0.1417463 0.40500003
-0.22079854 -0.1420963 0.40600002
-0.21974008 -0.1420963 0.40600002
-0.21868159 -0.1420963 0.40600002
-0.21762313 -0.1420963 0.40600002
-0.21656467 -0.1420963 0.40600002
-0.21603701 -0.14244628 0.40700001
-0.21497591 -0.14244628 0.40700001
-0.21391484 -0.14244628 0.40700001
-0.21337676 -0.14279628 0.40800002
-0.21231309 -0.14279628 0.40800002
-0.2112494 -0.14279628 0.40800002
-0.21070087 -0.14314626 0.40900001
-0.20963459 -0.14314626 0.40900001
-0.20907824 -0.14349626 0.41000003
-0.20800935 -0.14349626 0.41000003
-0.20694046 -0.14349626 0.41000003
-0.20587157 -0.14349626 0.41000003
-0.20480266 -0.14349626 0.41000003
-0.20373376 -0.14349626 0.41000003
-0.20266487 -0.14349626 0.41000003
-0.20208766 -0.14384624 0.41100001
-0.20101617 -0.14384624 0.41100001
-0.19994466 -0.14384624 0.41100001
-0.19887315 -0.14384624 0.41100001
-0.19780165 -0.14384624 0.41100001
-0.19720881 -0.14419624 0.41200003
-0.19613472 -0.14419624 0.41200003
-0.1950606 -0.14419624 0.41200003
-0.19445732 -0.14454623 0.41300002
-0.19338061 -0.14454623 0.41300002
-0.1923039 -0.14454623 0.41300002
-0.19122717 -0.14454623 0.41300002
-0.19015045 -0.14454623 0.41300002
-0.18953155 -0.14489622 0.41400003
-0.18845223 -0.14489622 0.41400003
-0.18782549 -0.14524621 0.41500002
-0.18674354 -0.14524621 0.41500002
-0.18566163 -0.14524621 0.41500002
-0.18502446 -0.14559619 0.41600001
-0.18393992 -0.14559619 0.41600001
-0.18285538 -0.14559619 0.41600001
-0.18177085 -0.14559619 0.41600001
-0.18112065 -0.14594619 0.41700003
-0.1800335 -0.14594619 0.41700003
-0.17894636 -0.14594619 0.41700003
-0.17785922 -0.14594619 0.41700003
-0.17677207 -0.14594619 0.41700003
-0.17610623 -0.14629617 0.41800001
-0.17501648 -0.14629617 0.41800001
-0.17392671 -0.14629617 0.41800001
-0.17283697 -0.14629617 0.41800001
-0.17215809 -0.14664617 0.41900003
-0.17106575 -0.14664617 0.41900003
-0.16997337 -0.14664617 0.41900003
-0.16928408 -0.14699616 0.42000002
-0.16818911 -0.14699616 0.42000002
-0.16709414 -0.14699616 0.42000002
-0.16599917 -0.14699616 0.42000002
-0.16490421 -0.14699616 0.42000002
-0.16419926 -0.14734615 0.42100003
-0.1631017 -0.14734615 0.42100003
-0.16200411 -0.14734615 0.42100003
-0.16090654 -0.14734615 0.42100003
-0.16018856 -0.14769614 0.42200002
-0.15908837 -0.14769614 0.42200002
-0.15798821 -0.14769614 0.42200002
-0.15688801 -0.14769614 0.42200002
-0.15578784 -0.14769614 0.42200002
-0.15468766 -0.14769614 0.42200002
-0.15395142 -0.14804614 0.42300001
-0.15284863 -0.14804614 0.42300001
-0.15174586 -0.14804614 0.42300001
-0.15064305 -0.14804614 0.42300001
-0.14954028 -0.14804614 0.42300001
-0.14843749 -0.14804614 0.42300001
-0.14768301 -0.14839612 0.42400002
-0.14657761 -0.14839612 0.42400002
-0.14547221 -0.14839612 0.42400002
-0.14470731 -0.14874612 0.42500001
-0.1435993 -0.14874612 0.42500001
-0.14282659 -0.14909612 0.42600003
-0.14171597 -0.14909612 0.42600003
-0.14060538 -0.14909612 0.42600003
-0.1398222 -0.1494461 0.42700002
-0.13870899 -0.1494461 0.42700002
-0.13759577 -0.1494461 0.42700002
-0.1368022 -0.1497961 0.42800003
-0.13568637 -0.1497961 0.42800003
-0.13457054 -0.1497961 0.42800003
-0.13345473 -0.1497961 0.42800003
-0.1326481 -0.15014608 0.42900002
-0.13152967 -0.15014608 0.42900002
-0.13041124 -0.15014608 0.42900002
-0.12959419 -0.15049607 0.43000001
-0.12847315 -0.15049607 0.43000001
-0.12735212 -0.15049607 0.43000001
-0.12623107 -0.15049607 0.43000001
-0.12511005 -0.15049607 0.43000001
-0.12427735 -0.15084606 0.43100002
-0.12315371 -0.15084606 0.43100002
-0.12203006 -0.15084606 0.43100002
-0.12118693 -0.15119605 0.43200001
-0.12006069 -0.15119605 0.43200001
-0.11920974 -0.15154605 0.43300003
-0.11808089 -0.15154605 0.43300003
-0.11695203 -0.15154605 0.43300003
-0.11609066 -0.15189603 0.43400002
-0.1149592 -0.15189603 0.43400002
-0.11382774 -0.15189603 0.43400002
-0.11295594 -0.15224603 0.43500003
-0.11182187 -0.15224603 0.43500003
-0.11068779 -0.15224603 0.43500003
-0.10955372 -0.15224603 0.43500003
-0.10841965 -0.15224603 0.43500003
-0.10728557 -0.15224603 0.43500003
-0.1061515 -0.15224603 0.43500003
-0.10501743 -0.15224603 0.43500003
-0.10388336 -0.15224603 0.43500003
-0.10298549 -0.15259601 0.43600002
-0.10184881 -0.15259601 0.43600002
-0.10071212 -0.15259601 0.43600002
-0.099575445 -0.15259601 0.43600002
-0.098664537 -0.152946 0.43700001
-0.097525254 -0.152946 0.43700001
-0.096385963 -0.152946 0.43700001
-0.095464639 -0.15329599 0.43800002
-0.094322741 -0.15329599 0.43800002
-0.09318085 -0.15329599 0.43800002
-0.092038959 -0.15329599 0.43800002
-0.091104589 -0.15364598 0.43900001
-0.089960091 -0.15364598 0.43900001
-0.088815585 -0.15364598 0.43900001
-0.087870799 -0.15399598 0.44000003
-0.086723685 -0.15399598 0.44000003
-0.085576579 -0.15399598 0.44000003
-0.084429465 -0.15399598 0.44000003
-0.083471633 -0.15434597 0.44100001
-0.08232192 -0.15434597 0.44100001
-0.081356272 -0.15469596 0.44200003
-0.08020395 -0.15469596 0.44200003
-0.07923048 -0.15504596 0.44300002
-0.07807555 -0.15504596 0.44300002
-0.077094257 -0.15539595 0.44400004
-0.075936727 -0.15539595 0.44400004
-0.07477919 -0.15539595 0.44400004
-0.073787466 -0.15574594 0.44500002
-0.072627313 -0.15574594 0.44500002
-0.071467169 -0.15574594 0.44500002
-0.070307031 -0.15574594 0.44500002
-0.069146886 -0.15574594 0.44500002
-0.067986742 -0.15574594 0.44500002
-0.066976771 -0.15609592 0.44600001
-0.065814018 -0.15609592 0.44600001
-0.064651273 -0.15609592 0.44600001
-0.063488521 -0.15609592 0.44600001
-0.062325772 -0.15609592 0.44600001
-0.061300162 -0.15644592 0.44700003
-0.060134802 -0.15644592 0.44700003
-0.059101369 -0.1567959 0.44800001
-0.057933398 -0.1567959 0.44800001
-0.056765433 -0.1567959 0.44800001
-0.055597473 -0.1567959 0.44800001
-0.054551005 -0.1571459 0.44900003
-0.05338043 -0.1571459 0.44900003
-0.052209858 -0.1571459 0.44900003
-0.05103929 -0.1571459 0.44900003
-0.049979784 -0.15749589 0.45000002
-0.048806604 -0.15749589 0.45000002
-0.047739279 -0.15784588 0.45100003
-0.046563491 -0.15784588 0.45100003
-0.045488343 -0.15819587 0.45200002
-0.044309951 -0.15819587 0.45200002
-0.043131556 -0.15819587 0.45200002
-0.042045981 -0.15854585 0.45300001
-0.040864982 -0.15854585 0.45300001
-0.039771587 -0.15889585 0.45400003
-0.038587976 -0.15889585 0.45400003
-0.037486758 -0.15924583 0.45500001
-0.036300544 -0.15924583 0.45500001
-0.035114329 -0.15924583 0.45500001
-0.033928119 -0.15924583 0.45500001
-0.032813866 -0.15959583 0.45600003
-0.03162504 -0.15959583 0.45600003
-0.03043622 -0.15959583 0.45600003
-0.029311538 -0.15994582 0.45700002
-0.02812011 -0.15994582 0.45700002
-0.026928684 -0.15994582 0.45700002
-0.025737254 -0.15994582 0.45700002
-0.024545826 -0.15994582 0.45700002
-0.023405503 -0.16029581 0.45800003
-0.022211466 -0.16029581 0.45800003
-0.021017432 -0.16029581 0.45800003
-0.019823397 -0.16029581 0.45800003
-0.018629361 -0.16029581 0.45800003
-0.017473394 -0.1606458 0.45900002
-0.016276753 -0.1606458 0.45900002
-0.015080111 -0.1606458 0.45900002
-0.013883467 -0.1606458 0.45900002
-0.012686825 -0.1606458 0.45900002
-0.011490183 -0.1606458 0.45900002
-0.010315967 -0.1609958 0.46000001
-0.0091167176 -0.1609958 0.46000001
-0.0079174675 -0.1609958 0.46000001
-0.0067328238 -0.16134579 0.46100003
-0.0055309674 -0.16134579 0.46100003
-0.0043385015 -0.16169578 0.46200001
-0.0031340383 -0.16169578 0.46200001
-0.0019337514 -0.16204578 0.46300003
-0.00072668091 -0.16204578 0.46300003
0.00048038963 -0.16204578 0.46300003
0.0016911047 -0.16239576 0.46400002
0.0029007823 -0.16239576 0.46400002
0.0041104602 -0.16239576 0.46400002
0.0053316033 -0.16274576 0.46500003
0.0065438878 -0.16274576 0.46500003
0.0077561731 -0.16274576 0.46500003
0.0089684576 -0.16274576 0.46500003
0.010202636 -0.16309574 0.46600002
0.011417528 -0.16309574 0.46600002
0.012632419 -0.16309574 0.46600002
0.013877026 -0.16344573 0.46700001
0.015094524 -0.16344573 0.46700001
0.016312022 -0.16344573 0.46700001
0.017567059 -0.16379572 0.46800002
0.018787164 -0.16379572 0.46800002
0.020007269 -0.16379572 0.46800002
0.021227377 -0.16379572 0.46800002
0.022447482 -0.16379572 0.46800002
0.02371816 -0.16414571 0.46900001
0.024940873 -0.16414571 0.46900001
0.026163585 -0.16414571 0.46900001
0.027386297 -0.16414571 0.46900001
0.028670013 -0.16449571 0.47000003
0.02989533 -0.16449571 0.47000003
0.031120652 -0.16449571 0.47000003
0.032414794 -0.16484569 0.47100002
0.03364272 -0.16484569 0.47100002
0.034870647 -0.16484569 0.47100002
0.036098573 -0.16484569 0.47100002
0.037405748 -0.16519569 0.47200003
0.038636286 -0.16519569 0.47200003
0.039951283 -0.16554567 0.47300002
0.041184422 -0.16554567 0.47300002
0.042417563 -0.16554567 0.47300002
0.043742992 -0.16589567 0.47400004
0.044978738 -0.16589567 0.47400004
0.046214487 -0.16589567 0.47400004
0.047550343 -0.16624565 0.47500002
0.048788697 -0.16624565 0.47500002
0.050132371 -0.16659565 0.47600001
0.051481262 -0.16694564 0.47700003
0.052724831 -0.16694564 0.47700003
0.0539684 -0.16694564 0.47700003
0.055327717 -0.16729563 0.47800002
0.056573894 -0.16729563 0.47800002
0.057820071 -0.16729563 0.47800002
0.059189819 -0.16764563 0.47900003
0.060438599 -0.16764563 0.47900003
0.061816167 -0.16799562 0.48000002
0.063067555 -0.16799562 0.48000002
0.064318947 -0.16799562 0.48000002
0.065570332 -0.16799562 0.48000002
0.066821724 -0.16799562 0.48000002
0.068073124 -0.16799562 0.48000002
0.069324516 -0.16799562 0.48000002
0.0705759 -0.16799562 0.48000002
0.071827292 -0.16799562 0.48000002
0.073078685 -0.16799562 0.48000002
0.074484929 -0.16834562 0.48100004
0.075738929 -0.16834562 0.48100004
0.076992922 -0.16834562 0.48100004
0.078246921 -0.16834562 0.48100004
0.079666197 -0.1686956 0.48200002
0.081090689 -0.16904558 0.48300001
0.082349904 -0.16904558 0.48300001
0.083782218 -0.16939558 0.48400003
0.085044049 -0.16939558 0.48400003
0.086484179 -0.16974556 0.48500001
0.087929532 -0.17009556 0.48600003
0.089196563 -0.17009556 0.48600003
0.090463594 -0.17009556 0.48600003
0.09191937 -0.17044555 0.48700002
0.093189016 -0.17044555 0.48700002
0.094652615 -0.17079554 0.48800004
0.095924862 -0.17079554 0.48800004
0.097197108 -0.17079554 0.48800004
0.098671131 -0.17114553 0.48900002
0.099945985 -0.17114553 0.48900002
0.10122084 -0.17114553 0.48900002
0.1027053 -0.17149551 0.49000001
0.10398276 -0.17149551 0.49000001
0.10526022 -0.17149551 0.49000001
0.10675512 -0.17184551 0.49100003
0.10803518 -0.17184551 0.49100003
0.10931525 -0.17184551 0.49100003
0.11059532 -0.17184551 0.49100003
0.11210323 -0.17219549 0.49200001
0.11338591 -0.17219549 0.49200001
0.11466858 -0.17219549 0.49200001
0.11595125 -0.17219549 0.49200001
0.11723393 -0.17219549 0.49200001
0.11851661 -0.17219549 0.49200001
0.11979929 -0.17219549 0.49200001
0.12132807 -0.17254549 0.49300003
0.12261335 -0.17254549 0.49300003
0.12389863 -0.17254549 0.49300003
0.12543784 -0.17289548 0.49400002
0.12672572 -0.17289548 0.49400002
0.12827276 -0.17324547 0.49500003
0.12956326 -0.17324547 0.49500003
0.13111809 -0.17359547 0.49600002
0.13267815 -0.17394546 0.49700001
0.13397387 -0.17394546 0.49700001
0.13526958 -0.17394546 0.49700001
0.13684006 -0.17429546 0.49800003
0.13813838 -0.17429546 0.49800003
0.13971668 -0.17464544 0.49900001
0.14101762 -0.17464544 0.49900001
0.14231853 -0.17464544 0.49900001
0.14361946 -0.17464544 0.49900001
0.1452108 -0.17499542 0.5
0.14651434 -0.17499542 0.5
0.14781788 -0.17499542 0.5
0.14941967 -0.17534544 0.50100005
0.15072581 -0.17534544 0.50100005
0.15203194 -0.17534544 0.50100005
0.15364414 -0.17569542 0.50200003
0.15495288 -0.17569542 0.50200003
0.15657291 -0.1760454 0.50300002
0.15788426 -0.1760454 0.50300002
0.1595121 -0.17639539 0.50400001
0.16082606 -0.17639539 0.50400001
0.16214003 -0.17639539 0.50400001
0.16377828 -0.17674537 0.505
0.16509485 -0.17674537 0.505
0.16641143 -0.17674537 0.505
0.16772799 -0.17674537 0.505
0.16937932 -0.17709538 0.50600004
0.17069849 -0.17709538 0.50600004
0.17167769 -0.17674537 0.505
0.17299426 -0.17674537 0.505
0.17431083 -0.17674537 0.505
0.17527962 -0.17639539 0.50400001
0.17589283 -0.17569542 0.50200003
0.17649557 -0.17499542 0.5
0.17744352 -0.17464544 0.49900001
0.17766982 -0.17359547 0.49600002
0.17671052 -0.16659565 0.47600001
0.17682995 -0.16554567 0.47300002
0.17693372 -0.16449571 0.47000003
0.17702186 -0.16344573 0.46700001
0.17785768 -0.16309574 0.46600002
0.17868832 -0.16274576 0.46500003
0.17951369 -0.16239576 0.46400002
0.18111289 -0.16274576 0.46500003
0.18271725 -0.16309574 0.46600002
0.18432684 -0.16344573 0.46700001
0.18633898 -0.16414571 0.46900001
0.18836153 -0.16484569 0.47100002
0.19079703 -0.16589567 0.47400004
0.19324817 -0.16694564 0.47700003
0.20895454 -0.17709538 0.50600004
0.21442932 -0.18059529 0.51600003
0.21577457 -0.18059529 0.51600003
0.2171198 -0.18059529 0.51600003
0.2193118 -0.18129526 0.51800001
0.22066227 -0.18129526 0.51800001
0.22201273 -0.18129526 0.51800001
0.22379442 -0.18164527 0.51900005
0.22514747 -0.18164527 0.51900005
0.22693695 -0.18199526 0.52000004
0.22829263 -0.18199526 0.52000004
0.23008993 -0.18234524 0.52100003
0.2314482 -0.18234524 0.52100003
0.23280649 -0.18234524 0.52100003
0.23461421 -0.18269522 0.52200001
0.2359751 -0.18269522 0.52200001
0.23779064 -0.18304521 0.523
0.23915415 -0.18304521 0.523
0.24097753 -0.18339522 0.52400005
0.24234363 -0.18339522 0.52400005
0.24417484 -0.18374521 0.52500004
0.24554354 -0.18374521 0.52500004
0.24738255 -0.18409519 0.52600002
0.24875386 -0.18409519 0.52600002
-0.22862284 -0.13999568 0.40300003
-0.22813688 -0.14034306 0.40400001
-0.22708364 -0.14034306 0.40400001
-0.22603039 -0.14034306 0.40400001
-0.22497712 -0.14034306 0.40400001
-0.22392388 -0.14034306 0.40400001
-0.22342229 -0.14069045 0.40500003
-0.22236642 -0.14069045 0.40500003
-0.22131056 -0.14069045 0.40500003
-0.2202547 -0.14069045 0.40500003
-0.21974008 -0.14103782 0.40600002
-0.21868159 -0.14103782 0.40600002
-0.21762313 -0.14103782 0.40600002
-0.21656467 -0.14103782 0.40600002
-0.21603701 -0.14138521 0.40700001
-0.21497591 -0.14138521 0.40700001
-0.21391484 -0.14138521 0.40700001
-0.21337676 -0.1417326 0.40800002
-0.21231309 -0.1417326 0.40800002
-0.2112494 -0.1417326 0.40800002
-0.21070087 -0.14207998 0.40900001
-0.20963459 -0.14207998 0.40900001
-0.20907824 -0.14242737 0.41000003
-0.20800935 -0.14242737 0.41000003
-0.20694046 -0.14242737 0.41000003
-0.20587157 -0.14242737 0.41000003
-0.20480266 -0.14242737 0.41000003
-0.20423067 -0.14277475 0.41100001
-0.20266487 -0.14242737 0.41000003
-0.20208766 -0.14277475 0.41100001
-0.20101617 -0.14277475 0.41100001
-0.19994466 -0.14277475 0.41100001
-0.19887315 -0.14277475 0.41100001
-0.19780165 -0.14277475 0.41100001
-0.19720881 -0.14312214 0.41200003
-0.19613472 -0.14312214 0.41200003
-0.1950606 -0.14312214 0.41200003
-0.19445732 -0.14346951 0.41300002
-0.19338061 -0.14346951 0.41300002
-0.1923039 -0.14346951 0.41300002
-0.19122717 -0.14346951 0.41300002
-0.19015045 -0.14346951 0.41300002
-0.18953155 -0.1438169 0.41400003
-0.18845223 -0.1438169 0.41400003
-0.18782549 -0.14416428 0.41500002
-0.18674354 -0.14416428 0.41500002
-0.18566163 -0.14416428 0.41500002
-0.18502446 -0.14451167 0.41600001
-0.18393992 -0.14451167 0.41600001
-0.18285538 -0.14451167 0.41600001
-0.18220779 -0.14485905 0.41700003
-0.18112065 -0.14485905 0.41700003
-0.1800335 -0.14485905 0.41700003
-0.17894636 -0.14485905 0.41700003
-0.17785922 -0.14485905 0.41700003
-0.17719598 -0.14520644 0.41800001
-0.17610623 -0.14520644 0.41800001
-0.17501648 -0.14520644 0.41800001
-0.17392671 -0.14520644 0.41800001
-0.17283697 -0.14520644 0.41800001
-0.17215809 -0.14555383 0.41900003
-0.17106575 -0.14555383 0.41900003
-0.16997337 -0.14555383 0.41900003
-0.16928408 -0.1459012 0.42000002
-0.16818911 -0.1459012 0.42000002
-0.16709414 -0.1459012 0.42000002
-0.16599917 -0.1459012 0.42000002
-0.16529685 -0.14624859 0.42100003
-0.16419926 -0.14624859 0.42100003
-0.1631017 -0.14624859 0.42100003
-0.16200411 -0.14624859 0.42100003
-0.16128874 -0.14659597 0.42200002
-0.16018856 -0.14659597 0.42200002
-0.15908837 -0.14659597 0.42200002
-0.15798821 -0.14659597 0.42200002
-0.15688801 -0.14659597 0.42200002
-0.15578784 -0.14659597 0.42200002
-0.15468766 -0.14659597 0.42200002
-0.15395142 -0.14694335 0.42300001
-0.15284863 -0.14694335 0.42300001
-0.15174586 -0.14694335 0.42300001
-0.15064305 -0.14694335 0.42300001
-0.14954028 -0.14694335 0.42300001
-0.14843749 -0.14694335 0.42300001
-0.14768301 -0.14729074 0.42400002
-0.14657761 -0.14729074 0.42400002
-0.1458153 -0.14763811 0.42500001
-0.14470731 -0.14763811 0.42500001
-0.1435993 -0.14763811 0.42500001
-0.14282659 -0.1479855 0.42600003
-0.14171597 -0.1479855 0.42600003
-0.14093542 -0.14833289 0.42700002
-0.1398222 -0.14833289 0.42700002
-0.13870899 -0.14833289 0.42700002
-0.13759577 -0.14833289 0.42700002
-0.1368022 -0.14868027 0.42800003
-0.13568637 -0.14868027 0.42800003
-0.13457054 -0.14868027 0.42800003
-0.13345473 -0.14868027 0.42800003
-0.1326481 -0.14902766 0.42900002
-0.13152967 -0.14902766 0.42900002
-0.13041124 -0.14902766 0.42900002
-0.12959419 -0.14937504 0.43000001
-0.12847315 -0.14937504 0.43000001
-0.12735212 -0.14937504 0.43000001
-0.12623107 -0.14937504 0.43000001
-0.12511005 -0.14937504 0.43000001
-0.12427735 -0.14972243 0.43100002
-0.12315371 -0.14972243 0.43100002
-0.12203006 -0.14972243 0.43100002
-0.12118693 -0.1500698 0.43200001
-0.12006069 -0.1500698 0.43200001
-0.11920974 -0.15041719 0.43300003
-0.11808089 -0.15041719 0.43300003
-0.11695203 -0.15041719 0.43300003
-0.11609066 -0.15076457 0.43400002
-0.1149592 -0.15076457 0.43400002
-0.11382774 -0.15076457 0.43400002
-0.11269626 -0.15076457 0.43400002
-0.11182187 -0.15111196 0.43500003
-0.11068779 -0.15111196 0.43500003
-0.10955372 -0.15111196 0.43500003
-0.10841965 -0.15111196 0.43500003
-0.10728557 -0.15111196 0.43500003
-0.1061515 -0.15111196 0.43500003
-0.10501743 -0.15111196 0.43500003
-0.10412217 -0.15145934 0.43600002
-0.10298549 -0.15145934 0.43600002
-0.10184881 -0.15145934 0.43600002
-0.10071212 -0.15145934 0.43600002
-0.099575445 -0.15145934 0.43600002
-0.098664537 -0.15180673 0.43700001
-0.097525254 -0.15180673 0.43700001
-0.096385963 -0.15180673 0.43700001
-0.095464639 -0.15215412 0.43800002
-0.094322741 -0.15215412 0.43800002
-0.09318085 -0.15215412 0.43800002
-0.092038959 -0.15215412 0.43800002
-0.091104589 -0.15250149 0.43900001
-0.089960091 -0.15250149 0.43900001
-0.088815585 -0.15250149 0.43900001
-0.087870799 -0.15284888 0.44000003
-0.086723685 -0.15284888 0.44000003
-0.085576579 -0.15284888 0.44000003
-0.084429465 -0.15284888 0.44000003
-0.083471633 -0.15319626 0.44100001
-0.08232192 -0.15319626 0.44100001
-0.081356272 -0.15354365 0.44200003
-0.08020395 -0.15354365 0.44200003
-0.07923048 -0.15389103 0.44300002
-0.07807555 -0.15389103 0.44300002
-0.077094257 -0.15423842 0.44400004
-0.075936727 -0.15423842 0.44400004
-0.07477919 -0.15423842 0.44400004
-0.073621653 -0.15423842 0.44400004
-0.072627313 -0.15458579 0.44500002
-0.071467169 -0.15458579 0.44500002
-0.070307031 -0.15458579 0.44500002
-0.069146886 -0.15458579 0.44500002
-0.067986742 -0.15458579 0.44500002
-0.066976771 -0.15493317 0.44600001
-0.06566646 -0.15458579 0.44500002
-0.064651273 -0.15493317 0.44600001
-0.063488521 -0.15493317 0.44600001
-0.062325772 -0.15493317 0.44600001
-0.061300162 -0.15528056 0.44700003
-0.060134802 -0.15528056 0.44700003
-0.059101369 -0.15562795 0.44800001
-0.057933398 -0.15562795 0.44800001
-0.056765433 -0.15562795 0.44800001
-0.055597473 -0.15562795 0.44800001
-0.054551005 -0.15597534 0.44900003
-0.05338043 -0.15597534 0.44900003
-0.052209858 -0.15597534 0.44900003
-0.05103929 -0.15597534 0.44900003
-0.049979784 -0.15632272 0.45000002
-0.048806604 -0.15632272 0.45000002
-0.047739279 -0.15667011 0.45100003
-0.046563491 -0.15667011 0.45100003
-0.045488343 -0.15701748 0.45200002
-0.044309951 -0.15701748 0.45200002
-0.04322698 -0.15736486 0.45300001
-0.042045981 -0.15736486 0.45300001
-0.040864982 -0.15736486 0.45300001
-0.039771587 -0.15771225 0.45400003
-0.038587976 -0.15771225 0.45400003
-0.037486758 -0.15805963 0.45500001
-0.036300544 -0.15805963 0.45500001
-0.035114329 -0.15805963 0.45500001
-0.033928119 -0.15805963 0.45500001
-0.032813866 -0.15840702 0.45600003
-0.03162504 -0.15840702 0.45600003
-0.030502966 -0.15875441 0.45700002
-0.029311538 -0.15875441 0.45700002
-0.02812011 -0.15875441 0.45700002
-0.026928684 -0.15875441 0.45700002
-0.025737254 -0.15875441 0.45700002
-0.024599537 -0.15910178 0.45800003
-0.023405503 -0.15910178 0.45800003
-0.022211466 -0.15910178 0.45800003
-0.021017432 -0.15910178 0.45800003
-0.019823397 -0.15910178 0.45800003
-0.018629361 -0.15910178 0.45800003
-0.017473394 -0.15944918 0.45900002
-0.016276753 -0.15944918 0.45900002
-0.015080111 -0.15944918 0.45900002
-0.013883467 -0.15944918 0.45900002
-0.012686825 -0.15944918 0.45900002
-0.011490183 -0.15944918 0.45900002
-0.010293541 -0.15944918 0.45900002
-0.0091167176 -0.15979655 0.46000001
-0.0079174675 -0.15979655 0.46000001
-0.0067328238 -0.16014394 0.46100003
-0.0055309674 -0.16014394 0.46100003
-0.0043385015 -0.16049132 0.46200001
-0.0031340383 -0.16049132 0.46200001
-0.0019337514 -0.16083871 0.46300003
-0.00072668091 -0.16083871 0.46300003
0.00048038963 -0.16083871 0.46300003
0.0016911047 -0.16118608 0.46400002
0.0029007823 -0.16118608 0.46400002
0.0041104602 -0.16118608 0.46400002
0.0053316033 -0.16153347 0.46500003
0.0065438878 -0.16153347 0.46500003
0.0077561731 -0.16153347 0.46500003
0.0089684576 -0.16153347 0.46500003
0.010202636 -0.16188085 0.46600002
0.011417528 -0.16188085 0.46600002
0.012632419 -0.16188085 0.46600002
0.013877026 -0.16222824 0.46700001
0.015094524 -0.16222824 0.46700001
0.016312022 -0.16222824 0.46700001
0.017529523 -0.16222824 0.46700001
0.018787164 -0.16257563 0.46800002
0.020007269 -0.16257563 0.46800002
0.021227377 -0.16257563 0.46800002
0.022447482 -0.16257563 0.46800002
0.02371816 -0.16292301 0.46900001
0.024940873 -0.16292301 0.46900001
0.026163585 -0.16292301 0.46900001
0.027386297 -0.16292301 0.46900001
0.028609011 -0.16292301 0.46900001
0.02989533 -0.1632704 0.47000003
0.031120652 -0.1632704 0.47000003
0.032345973 -0.1632704 0.47000003
0.03364272 -0.16361777 0.47100002
0.034870647 -0.16361777 0.47100002
0.036098573 -0.16361777 0.47100002
0.037405748 -0.16396517 0.47200003
0.038636286 -0.16396517 0.47200003
0.039951283 -0.16431254 0.47300002
0.041184422 -0.16431254 0.47300002
0.042417563 -0.16431254 0.47300002
0.043742992 -0.16465993 0.47400004
0.044978738 -0.16465993 0.47400004
0.046214487 -0.16465993 0.47400004
0.047550343 -0.16500731 0.47500002
0.048788697 -0.16500731 0.47500002
0.050132371 -0.16535468 0.47600001
0.051373333 -0.16535468 0.47600001
0.052724831 -0.16570207 0.47700003
0.0539684 -0.16570207 0.47700003
0.055327717 -0.16604947 0.47800002
0.056573894 -0.16604947 0.47800002
0.057820071 -0.16604947 0.47800002
0.059189819 -0.16639686 0.47900003
0.060438599 -0.16639686 0.47900003
0.061816167 -0.16674423 0.48000002
0.063067555 -0.16674423 0.48000002
0.064318947 -0.16674423 0.48000002
0.065570332 -0.16674423 0.48000002
0.066821724 -0.16674423 0.48000002
0.068073124 -0.16674423 0.48000002
0.069324516 -0.16674423 0.48000002
0.0705759 -0.16674423 0.48000002
0.071827292 -0.16674423 0.48000002
0.073078685 -0.16674423 0.48000002
0.074484929 -0.16709162 0.48100004
0.075738929 -0.16709162 0.48100004
0.076992922 -0.16709162 0.48100004
0.078409597 -0.167439 0.48200002
0.079666197 -0.167439 0.48200002
0.081090689 -0.16778637 0.48300001
0.082349904 -0.16778637 0.48300001
0.083782218 -0.16813377 0.48400003
0.085044049 -0.16813377 0.48400003
0.086484179 -0.16848114 0.48500001
0.087929532 -0.16882853 0.48600003
0.089196563 -0.16882853 0.48600003
0.090463594 -0.16882853 0.48600003
0.09191937 -0.16917592 0.48700002
0.093189016 -0.16917592 0.48700002
0.094652615 -0.1695233 0.48800004
0.095924862 -0.1695233 0.48800004
0.097197108 -0.1695233 0.48800004
0.098671131 -0.16987069 0.48900002
0.099945985 -0.16987069 0.48900002
0.10122084 -0.16987069 0.48900002
0.1027053 -0.17021807 0.49000001
0.10398276 -0.17021807 0.49000001
0.10526022 -0.17021807 0.49000001
0.10675512 -0.17056546 0.49100003
0.10803518 -0.17056546 0.49100003
0.10931525 -0.17056546 0.49100003
0.11059532 -0.17056546 0.49100003
0.11210323 -0.17091283 0.49200001
0.11338591 -0.17091283 0.49200001
0.11466858 -0.17091283 0.49200001
0.11595125 -0.17091283 0.49200001
0.11723393 -0.17091283 0.49200001
0.11851661 -0.17091283 0.49200001
0.12004279 -0.17126022 0.49300003
0.12132807 -0.17126022 0.49300003
0.12261335 -0.17126022 0.49300003
0.12389863 -0.17126022 0.49300003
0.12543784 -0.1716076 0.49400002
0.12672572 -0.1716076 0.49400002
0.12827276 -0.17195499 0.49500003
0.12956326 -0.17195499 0.49500003
0.13111809 -0.17230237 0.49600002
0.13267815 -0.17264976 0.49700001
0.13397387 -0.17264976 0.49700001
0.13526958 -0.17264976 0.49700001
0.13684006 -0.17299715 0.49800003
0.13813838 -0.17299715 0.49800003
0.13971668 -0.17334452 0.49900001
0.14101762 -0.17334452 0.49900001
0.14231853 -0.17334452 0.49900001
0.14390728 -0.1736919 0.5
0.1452108 -0.1736919 0.5
0.14651434 -0.1736919 0.5
0.14811353 -0.1740393 0.50100005
0.14941967 -0.1740393 0.50100005
0.15072581 -0.1740393 0.50100005
0.15233539 -0.17438668 0.50200003
0.15364414 -0.17438668 0.50200003
0.15495288 -0.17438668 0.50200003
0.15657291 -0.17473406 0.50300002
0.15788426 -0.17473406 0.50300002
0.1595121 -0.17508143 0.50400001
0.16082606 -0.17508143 0.50400001
0.16214003 -0.17508143 0.50400001
0.16377828 -0.17542882 0.505
0.16509485 -0.17542882 0.505
0.16641143 -0.17542882 0.505
0.16772799 -0.17542882 0.505
0.16870983 -0.17508143 0.50400001
0.17002378 -0.17508143 0.50400001
0.17133774 -0.17508143 0.50400001
0.17230915 -0.17473406 0.50300002
0.17362049 -0.17473406 0.50300002
0.1742363 -0.1740393 0.50100005
0.17484166 -0.17334452 0.49900001
0.1754366 -0.17264976 0.49700001
0.17602113 -0.17195499 0.49500003
0.17553158 -0.16778637 0.48300001
0.17569271 -0.16674423 0.48000002
0.17546956 -0.16535468 0.47600001
0.17522557 -0.16396517 0.47200003
0.17533456 -0.16292301 0.46900001
0.17580435 -0.16222824 0.46700001
0.17626375 -0.16153347 0.46500003
0.17709434 -0.16118608 0.46400002
0.17830403 -0.16118608 0.46400002
0.17951369 -0.16118608 0.46400002
0.18072338 -0.16118608 0.46400002
0.18193306 -0.16118608 0.46400002
0.18393216 -0.16188085 0.46600002
0.18554436 -0.16222824 0.46700001
0.18756168 -0.16292301 0.46900001
0.18838188 -0.16257563 0.46800002
0.19000711 -0.16292301 0.46900001
0.19286078 -0.16431254 0.47300002
0.21152037 -0.17681836 0.509
0.21493822 -0.17855527 0.514
0.2171198 -0.17925005 0.51600003
0.21888843 -0.17959742 0.51700002
0.22023627 -0.17959742 0.51700002
0.22201273 -0.17994481 0.51800001
0.22379442 -0.1802922 0.51900005
0.22514747 -0.1802922 0.51900005
0.22693695 -0.18063959 0.52000004
0.22829263 -0.18063959 0.52000004
0.23008993 -0.18098697 0.52100003
0.2314482 -0.18098697 0.52100003
0.23280649 -0.18098697 0.52100003
0.23461421 -0.18133435 0.52200001
0.2359751 -0.18133435 0.52200001
0.23779064 -0.18168172 0.523
0.23915415 -0.18168172 0.523
0.24097753 -0.18202913 0.52400005
0.24234363 -0.18202913 0.52400005
0.24417484 -0.1823765 0.52500004
0.24554354 -0.1823765 0.52500004
0.24738255 -0.18272388 0.52600002
0.24875386 -0.18272388 0.52600002
-0.22862284 -0.13894503 0.40300003
-0.2275722 -0.13894503 0.40300003
-0.22708364 -0.1392898 0.40400001
-0.22603039 -0.1392898 0.40400001
-0.22497712 -0.1392898 0.40400001
-0.22392388 -0.1392898 0.40400001
-0.22342229 -0.13963458 0.40500003
-0.22236642 -0.13963458 0.40500003
-0.22131056 -0.13963458 0.40500003
-0.2202547 -0.13963458 0.40500003
-0.21919885 -0.13963458 0.40500003
-0.21868159 -0.13997935 0.40600002
-0.21762313 -0.13997935 0.40600002
-0.21656467 -0.13997935 0.40600002
-0.21603701 -0.14032413 0.40700001
-0.21497591 -0.14032413 0.40700001
-0.21391484 -0.14032413 0.40700001
-0.21337676 -0.14066891 0.40800002
-0.21231309 -0.14066891 0.40800002
-0.2112494 -0.14066891 0.40800002
-0.21070087 -0.14101368 0.40900001
-0.20963459 -0.14101368 0.40900001
-0.20907824 -0.14135846 0.41000003
-0.20800935 -0.14135846 0.41000003
-0.20694046 -0.14135846 0.41000003
-0.20587157 -0.14135846 0.41000003
-0.20480266 -0.14135846 0.41000003
-0.20373376 -0.14135846 0.41000003
-0.20266487 -0.14135846 0.41000003
-0.20208766 -0.14170323 0.41100001
-0.20101617 -0.14170323 0.41100001
-0.19994466 -0.14170323 0.41100001
-0.19887315 -0.14170323 0.41100001
-0.19780165 -0.14170323 0.41100001
-0.19720881 -0.14204802 0.41200003
-0.19613472 -0.14204802 0.41200003
-0.1950606 -0.14204802 0.41200003
-0.19445732 -0.14239278 0.41300002
-0.19338061 -0.14239278 0.41300002
-0.1923039 -0.14239278 0.41300002
-0.19122717 -0.14239278 0.41300002
-0.19015045 -0.14239278 0.41300002
-0.18953155 -0.14273757 0.41400003
-0.18845223 -0.14273757 0.41400003
-0.18782549 -0.14308235 0.41500002
-0.18674354 -0.14308235 0.41500002
-0.18566163 -0.14308235 0.41500002
-0.18502446 -0.14342712 0.41600001
-0.18393992 -0.14342712 0.41600001
-0.18285538 -0.14342712 0.41600001
-0.18220779 -0.1437719 0.41700003
-0.18112065 -0.1437719 0.41700003
-0.1800335 -0.1437719 0.41700003
-0.17894636 -0.1437719 0.41700003
-0.17828573 -0.14411667 0.41800001
-0.17719598 -0.14411667 0.41800001
-0.17610623 -0.14411667 0.41800001
-0.17501648 -0.14411667 0.41800001
-0.17392671 -0.14411667 0.41800001
-0.17325047 -0.14446145 0.41900003
-0.17215809 -0.14446145 0.41900003
-0.17106575 -0.14446145 0.41900003
-0.16997337 -0.14446145 0.41900003
-0.16928408 -0.14480622 0.42000002
-0.16818911 -0.14480622 0.42000002
-0.16709414 -0.14480622 0.42000002
-0.16599917 -0.14480622 0.42000002
-0.16529685 -0.145151 0.42100003
-0.16419926 -0.145151 0.42100003
-0.1631017 -0.145151 0.42100003
-0.16200411 -0.145151 0.42100003
-0.16128874 -0.14549579 0.42200002
-0.16018856 -0.14549579 0.42200002
-0.15908837 -0.14549579 0.42200002
-0.15798821 -0.14549579 0.42200002
-0.15688801 -0.14549579 0.42200002
-0.15578784 -0.14549579 0.42200002
-0.15468766 -0.14549579 0.42200002
-0.15358748 -0.14549579 0.42200002
-0.15284863 -0.14584056 0.42300001
-0.15174586 -0.14584056 0.42300001
-0.15064305 -0.14584056 0.42300001
-0.14954028 -0.14584056 0.42300001
-0.14843749 -0.14584056 0.42300001
-0.14768301 -0.14618534 0.42400002
-0.14657761 -0.14618534 0.42400002
-0.1458153 -0.14653011 0.42500001
-0.14470731 -0.14653011 0.42500001
-0.1435993 -0.14653011 0.42500001
-0.14282659 -0.14687489 0.42600003
-0.14171597 -0.14687489 0.42600003
-0.14093542 -0.14721966 0.42700002
-0.1398222 -0.14721966 0.42700002
-0.13870899 -0.14721966 0.42700002
-0.13759577 -0.14721966 0.42700002
-0.1368022 -0.14756444 0.42800003
-0.13568637 -0.14756444 0.42800003
-0.13457054 -0.14756444 0.42800003
-0.13345473 -0.14756444 0.42800003
-0.1326481 -0.14790922 0.42900002
-0.13152967 -0.14790922 0.42900002
-0.13041124 -0.14790922 0.42900002
-0.12929282 -0.14790922 0.42900002
-0.12847315 -0.14825399 0.43000001
-0.12735212 -0.14825399 0.43000001
-0.12623107 -0.14825399 0.43000001
-0.12511005 -0.14825399 0.43000001
-0.12398899 -0.14825399 0.43000001
-0.12315371 -0.14859878 0.43100002
-0.12203006 -0.14859878 0.43100002
-0.12090641 -0.14859878 0.43100002
-0.12006069 -0.14894354 0.43200001
-0.11893443 -0.14894354 0.43200001
-0.11808089 -0.14928833 0.43300003
-0.11695203 -0.14928833 0.43300003
-0.11609066 -0.14963309 0.43400002
-0.1149592 -0.14963309 0.43400002
-0.11382774 -0.14963309 0.43400002
-0.11269626 -0.14963309 0.43400002
-0.11182187 -0.14997788 0.43500003
-0.11068779 -0.14997788 0.43500003
-0.10955372 -0.14997788 0.43500003
-0.10841965 -0.14997788 0.43500003
-0.10728557 -0.14997788 0.43500003
-0.1061515 -0.14997788 0.43500003
-0.10501743 -0.14997788 0.43500003
-0.10412217 -0.15032266 0.43600002
-0.10298549 -0.15032266 0.43600002
-0.10184881 -0.15032266 0.43600002
-0.10071212 -0.15032266 0.43600002
-0.09980382 -0.15066743 0.43700001
-0.098664537 -0.15066743 0.43700001
-0.097525254 -0.15066743 0.43700001
-0.096385963 -0.15066743 0.43700001
-0.095464639 -0.15101221 0.43800002
-0.094322741 -0.15101221 0.43800002
-0.09318085 -0.15101221 0.43800002
-0.092038959 -0.15101221 0.43800002
-0.091104589 -0.15135698 0.43900001
-0.089960091 -0.15135698 0.43900001
-0.088815585 -0.15135698 0.43900001
-0.087870799 -0.15170176 0.44000003
-0.086723685 -0.15170176 0.44000003
-0.085576579 -0.15170176 0.44000003
-0.084429465 -0.15170176 0.44000003
-0.083471633 -0.15204653 0.44100001
-0.08232192 -0.15204653 0.44100001
-0.081356272 -0.15239131 0.44200003
-0.08020395 -0.15239131 0.44200003
-0.07923048 -0.1527361 0.44300002
-0.07807555 -0.1527361 0.44300002
-0.077094257 -0.15308088 0.44400004
-0.075936727 -0.15308088 0.44400004
-0.07477919 -0.15308088 0.44400004
-0.073621653 -0.15308088 0.44400004
-0.072627313 -0.15342565 0.44500002
-0.071467169 -0.15342565 0.44500002
-0.070307031 -0.15342565 0.44500002
-0.069146886 -0.15342565 0.44500002
-0.067986742 -0.15342565 0.44500002
-0.066826604 -0.15342565 0.44500002
-0.06566646 -0.15342565 0.44500002
-0.064651273 -0.15377042 0.44600001
-0.063488521 -0.15377042 0.44600001
-0.062325772 -0.15377042 0.44600001
-0.061300162 -0.1541152 0.44700003
-0.060134802 -0.1541152 0.44700003
-0.059101369 -0.15445997 0.44800001
-0.057933398 -0.15445997 0.44800001
-0.056765433 -0.15445997 0.44800001
-0.055597473 -0.15445997 0.44800001
-0.054551005 -0.15480475 0.44900003
-0.05338043 -0.15480475 0.44900003
-0.052209858 -0.15480475 0.44900003
-0.05103929 -0.15480475 0.44900003
-0.049979784 -0.15514953 0.45000002
-0.048806604 -0.15514953 0.45000002
-0.047633424 -0.15514953 0.45000002
-0.046563491 -0.15549432 0.45100003
-0.045488343 -0.15583909 0.45200002
-0.044309951 -0.15583909 0.45200002
-0.04322698 -0.15618385 0.45300001
-0.042045981 -0.15618385 0.45300001
-0.040864982 -0.15618385 0.45300001
-0.039771587 -0.15652864 0.45400003
-0.038587976 -0.15652864 0.45400003
-0.037486758 -0.1568734 0.45500001
-0.036300544 -0.1568734 0.45500001
-0.035114329 -0.1568734 0.45500001
-0.033928119 -0.1568734 0.45500001
-0.032813866 -0.15721819 0.45600003
-0.03162504 -0.15721819 0.45600003
-0.03043622 -0.15721819 0.45600003
-0.029311538 -0.15756297 0.45700002
-0.02812011 -0.15756297 0.45700002
-0.026928684 -0.15756297 0.45700002
-0.025737254 -0.15756297 0.45700002
-0.024599537 -0.15790775 0.45800003
-0.023405503 -0.15790775 0.45800003
-0.022211466 -0.15790775 0.45800003
-0.021017432 -0.15790775 0.45800003
-0.019823397 -0.15790775 0.45800003
-0.018629361 -0.15790775 0.45800003
-0.017435327 -0.15790775 0.45800003
-0.016276753 -0.15825252 0.45900002
-0.015080111 -0.15825252 0.45900002
-0.013883467 -0.15825252 0.45900002
-0.012686825 -0.15825252 0.45900002
-0.011490183 -0.15825252 0.45900002
-0.010293541 -0.15825252 0.45900002
-0.0091167176 -0.15859729 0.46000001
-0.0079174675 -0.15859729 0.46000001
-0.0067328238 -0.15894207 0.46100003
-0.0055309674 -0.15894207 0.46100003
-0.0043385015 -0.15928684 0.46200001
-0.0031340383 -0.15928684 0.46200001
-0.0019337514 -0.15963162 0.46300003
-0.00072668091 -0.15963162 0.46300003
0.00048038963 -0.15963162 0.46300003
0.0016911047 -0.15997641 0.46400002
0.0029007823 -0.15997641 0.46400002
0.0041104602 -0.15997641 0.46400002
0.0053316033 -0.16032119 0.46500003
0.0065438878 -0.16032119 0.46500003
0.0077561731 -0.16032119 0.46500003
0.0089684576 -0.16032119 0.46500003
0.010202636 -0.16066596 0.46600002
0.011417528 -0.16066596 0.46600002
0.012632419 -0.16066596 0.46600002
0.013877026 -0.16101073 0.46700001
0.015094524 -0.16101073 0.46700001
0.016312022 -0.16101073 0.46700001
0.017567059 -0.16135551 0.46800002
0.018787164 -0.16135551 0.46800002
0.020007269 -0.16135551 0.46800002
0.021227377 -0.16135551 0.46800002
0.022447482 -0.16135551 0.46800002
0.02371816 -0.16170028 0.46900001
0.024940873 -0.16170028 0.46900001
0.026163585 -0.16170028 0.46900001
0.027386297 -0.16170028 0.46900001
0.028609011 -0.16170028 0.46900001
0.02989533 -0.16204506 0.47000003
0.031120652 -0.16204506 0.47000003
0.032345973 -0.16204506 0.47000003
0.03364272 -0.16238984 0.47100002
0.034870647 -0.16238984 0.47100002
0.036098573 -0.16238984 0.47100002
0.037405748 -0.16273463 0.47200003
0.038636286 -0.16273463 0.47200003
0.039951283 -0.1630794 0.47300002
0.041184422 -0.1630794 0.47300002
0.042417563 -0.1630794 0.47300002
0.043650705 -0.1630794 0.47300002
0.044978738 -0.16342418 0.47400004
0.046214487 -0.16342418 0.47400004
0.047550343 -0.16376895 0.47500002
0.048788697 -0.16376895 0.47500002
0.05002705 -0.16376895 0.47500002
0.051373333 -0.16411372 0.47600001
0.052724831 -0.1644585 0.47700003
0.0539684 -0.1644585 0.47700003
0.055327717 -0.16480328 0.47800002
0.056573894 -0.16480328 0.47800002
0.057820071 -0.16480328 0.47800002
0.059189819 -0.16514806 0.47900003
0.060438599 -0.16514806 0.47900003
0.061687384 -0.16514806 0.47900003
0.063067555 -0.16549283 0.48000002
0.064318947 -0.16549283 0.48000002
0.065570332 -0.16549283 0.48000002
0.066821724 -0.16549283 0.48000002
0.068073124 -0.16549283 0.48000002
0.069324516 -0.16549283 0.48000002
0.0705759 -0.16549283 0.48000002
0.071827292 -0.16549283 0.48000002
0.073078685 -0.16549283 0.48000002
0.074330077 -0.16549283 0.48000002
0.075738929 -0.16583762 0.48100004
0.076992922 -0.16583762 0.48100004
0.078409597 -0.16618238 0.48200002
0.079666197 -0.16618238 0.48200002
0.081090689 -0.16652715 0.48300001
0.082349904 -0.16652715 0.48300001
0.083782218 -0.16687194 0.48400003
0.085044049 -0.16687194 0.48400003
0.086484179 -0.16721672 0.48500001
0.087929532 -0.1675615 0.48600003
0.089196563 -0.1675615 0.48600003
0.090463594 -0.1675615 0.48600003
0.09191937 -0.16790627 0.48700002
0.093189016 -0.16790627 0.48700002
0.094652615 -0.16825105 0.48800004
0.095924862 -0.16825105 0.48800004
0.097197108 -0.16825105 0.48800004
0.098469354 -0.16825105 0.48800004
0.099945985 -0.16859582 0.48900002
0.10122084 -0.16859582 0.48900002
0.1024957 -0.16859582 0.48900002
0.10398276 -0.16894059 0.49000001
0.10526022 -0.16894059 0.49000001
0.10675512 -0.16928537 0.49100003
0.10803518 -0.16928537 0.49100003
0.10931525 -0.16928537 0.49100003
0.11059532 -0.16928537 0.49100003
0.11210323 -0.16963015 0.49200001
0.11338591 -0.16963015 0.49200001
0.11466858 -0.16963015 0.49200001
0.11595125 -0.16963015 0.49200001
0.11723393 -0.16963015 0.49200001
0.11851661 -0.16963015 0.49200001
0.12004279 -0.16997494 0.49300003
0.12132807 -0.16997494 0.49300003
0.12261335 -0.16997494 0.49300003
0.12389863 -0.16997494 0.49300003
0.12543784 -0.17031971 0.49400002
0.12672572 -0.17031971 0.49400002
0.12827276 -0.17066449 0.49500003
0.12956326 -0.17066449 0.49500003
0.13111809 -0.17100926 0.49600002
0.13267815 -0.17135403 0.49700001
0.13397387 -0.17135403 0.49700001
0.13526958 -0.17135403 0.49700001
0.13684006 -0.17169881 0.49800003
0.13813838 -0.17169881 0.49800003
0.13971668 -0.17204359 0.49900001
0.14101762 -0.17204359 0.49900001
0.14231853 -0.17204359 0.49900001
0.14390728 -0.17238836 0.5
0.1452108 -0.17238836 0.5
0.14651434 -0.17238836 0.5
0.14811353 -0.17273316 0.50100005
0.14941967 -0.17273316 0.50100005
0.15072581 -0.17273316 0.50100005
0.15233539 -0.17307793 0.50200003
0.15364414 -0.17307793 0.50200003
0.15495288 -0.17307793 0.50200003
0.15657291 -0.17342269 0.50300002
0.15788426 -0.17342269 0.50300002
0.1595121 -0.17376746 0.50400001
0.16082606 -0.17376746 0.50400001
0.16214003 -0.17376746 0.50400001
0.16345397 -0.17376746 0.50400001
0.16476794 -0.17376746 0.50400001
0.16608191 -0.17376746 0.50400001
0.16739586 -0.17376746 0.50400001
0.16870983 -0.17376746 0.50400001
0.16968644 -0.17342269 0.50300002
0.17065784 -0.17307793 0.50200003
0.17162402 -0.17273316 0.50100005
0.17258498 -0.17238836 0.5
0.17319296 -0.17169881 0.49800003
0.17344013 -0.17066449 0.49500003
0.17402464 -0.16997494 0.49300003
0.17444597 -0.16790627 0.48700002
0.17427236 -0.16652715 0.48300001
0.17371449 -0.16480328 0.47800002
0.17386258 -0.16376895 0.47500002
0.17399505 -0.16273463 0.47200003
0.17411184 -0.16170028 0.46900001
0.17458686 -0.16101073 0.46700001
0.17505145 -0.16032119 0.46500003
0.17588468 -0.15997641 0.46400002
0.17671268 -0.15963162 0.46300003
0.17791976 -0.15963162 0.46300003
0.17951369 -0.15997641 0.46400002
0.1803339 -0.15963162 0.46300003
0.18193306 -0.15997641 0.46400002
0.18353745 -0.16032119 0.46500003
0.18514705 -0.16066596 0.46600002
0.18676184 -0.16101073 0.46700001
0.18757683 -0.16066596 0.46600002
0.18879171 -0.16066596 0.46600002
0.19163758 -0.16204506 0.47000003
0.19696635 -0.16549283 0.48000002
0.2115929 -0.17445703 0.50600004
0.2154367 -0.17652568 0.51200002
0.21761827 -0.17721523 0.514
0.21938431 -0.17756003 0.51500005
0.22115554 -0.1779048 0.51600003
0.22336319 -0.17859434 0.51800001
0.22558127 -0.1792839 0.52000004
0.22693695 -0.1792839 0.52000004
0.22829263 -0.1792839 0.52000004
0.23008993 -0.17962869 0.52100003
0.2314482 -0.17962869 0.52100003
0.23280649 -0.17962869 0.52100003
0.23461421 -0.17997345 0.52200001
0.2359751 -0.17997345 0.52200001
0.23779064 -0.18031822 0.523
0.23915415 -0.18031822 0.523
0.24097753 -0.18066302 0.52400005
0.24234363 -0.18066302 0.52400005
0.24417484 -0.18100779 0.52500004
0.24554354 -0.18100779 0.52500004
0.24738255 -0.18135256 0.52600002
0.24875386 -0.18135256 0.52600002
-0.22862284 -0.13789439 0.40300003
-0.2275722 -0.13789439 0.40300003
-0.22708364 -0.13823655 0.40400001
-0.22603039 -0.13823655 0.40400001
-0.22497712 -0.13823655 0.40400001
-0.22392388 -0.13823655 0.40400001
-0.22287062 -0.13823655 0.40400001
-0.22236642 -0.13857873 0.40500003
-0.22131056 -0.13857873 0.40500003
-0.2202547 -0.13857873 0.40500003
-0.21919885 -0.13857873 0.40500003
-0.21868159 -0.13892089 0.40600002
-0.21762313 -0.13892089 0.40600002
-0.21656467 -0.13892089 0.40600002
-0.21603701 -0.13926306 0.40700001
-0.21497591 -0.13926306 0.40700001
-0.21391484 -0.13926306 0.40700001
-0.21337676 -0.13960524 0.40800002
-0.21231309 -0.13960524 0.40800002
-0.2112494 -0.13960524 0.40800002
-0.21070087 -0.1399474 0.40900001
-0.20963459 -0.1399474 0.40900001
-0.20907824 -0.14028957 0.41000003
-0.20800935 -0.14028957 0.41000003
-0.20694046 -0.14028957 0.41000003
-0.20587157 -0.14028957 0.41000003
-0.20480266 -0.14028957 0.41000003
-0.20373376 -0.14028957 0.41000003
-0.20266487 -0.14028957 0.41000003
-0.20208766 -0.14063174 0.41100001
-0.20101617 -0.14063174 0.41100001
-0.19994466 -0.14063174 0.41100001
-0.19887315 -0.14063174 0.41100001
-0.19780165 -0.14063174 0.41100001
-0.19720881 -0.14097391 0.41200003
-0.19613472 -0.14097391 0.41200003
-0.19553404 -0.14131609 0.41300002
-0.19445732 -0.14131609 0.41300002
-0.19338061 -0.14131609 0.41300002
-0.1923039 -0.14131609 0.41300002
-0.19122717 -0.14131609 0.41300002
-0.19015045 -0.14131609 0.41300002
-0.18953155 -0.14165826 0.41400003
-0.18845223 -0.14165826 0.41400003
-0.18782549 -0.14200042 0.41500002
-0.18674354 -0.14200042 0.41500002
-0.18566163 -0.14200042 0.41500002
-0.18502446 -0.14234258 0.41600001
-0.18393992 -0.14234258 0.41600001
-0.18285538 -0.14234258 0.41600001
-0.18220779 -0.14268476 0.41700003
-0.18112065 -0.14268476 0.41700003
-0.1800335 -0.14268476 0.41700003
-0.17894636 -0.14268476 0.41700003
-0.17828573 -0.14302693 0.41800001
-0.17719598 -0.14302693 0.41800001
-0.17610623 -0.14302693 0.41800001
-0.17501648 -0.14302693 0.41800001
-0.17392671 -0.14302693 0.41800001
-0.17325047 -0.14336911 0.41900003
-0.17215809 -0.14336911 0.41900003
-0.17106575 -0.14336911 0.41900003
-0.16997337 -0.14336911 0.41900003
-0.16928408 -0.14371127 0.42000002
-0.16818911 -0.14371127 0.42000002
-0.16709414 -0.14371127 0.42000002
-0.16599917 -0.14371127 0.42000002
-0.16529685 -0.14405344 0.42100003
-0.16419926 -0.14405344 0.42100003
-0.1631017 -0.14405344 0.42100003
-0.16200411 -0.14405344 0.42100003
-0.16128874 -0.1443956 0.42200002
-0.16018856 -0.1443956 0.42200002
-0.15908837 -0.1443956 0.42200002
-0.15798821 -0.1443956 0.42200002
-0.15688801 -0.1443956 0.42200002
-0.15578784 -0.1443956 0.42200002
-0.15468766 -0.1443956 0.42200002
-0.15395142 -0.14473778 0.42300001
-0.15284863 -0.14473778 0.42300001
-0.15174586 -0.14473778 0.42300001
-0.15064305 -0.14473778 0.42300001
-0.14954028 -0.14473778 0.42300001
-0.14843749 -0.14473778 0.42300001
-0.14768301 -0.14507996 0.42400002
-0.14657761 -0.14507996 0.42400002
-0.1458153 -0.14542212 0.42500001
-0.14470731 -0.14542212 0.42500001
-0.1435993 -0.14542212 0.42500001
-0.14282659 -0.14576429 0.42600003
-0.14171597 -0.14576429 0.42600003
-0.14093542 -0.14610645 0.42700002
-0.1398222 -0.14610645 0.42700002
-0.13870899 -0.14610645 0.42700002
-0.13759577 -0.14610645 0.42700002
-0.1368022 -0.14644863 0.42800003
-0.13568637 -0.14644863 0.42800003
-0.13457054 -0.14644863 0.42800003
-0.13345473 -0.14644863 0.42800003
-0.1323389 -0.14644863 0.42800003
-0.13152967 -0.1467908 0.42900002
-0.13041124 -0.1467908 0.42900002
-0.12929282 -0.1467908 0.42900002
-0.12817438 -0.1467908 0.42900002
-0.12735212 -0.14713296 0.43000001
-0.12623107 -0.14713296 0.43000001
-0.12511005 -0.14713296 0.43000001
-0.12398899 -0.14713296 0.43000001
-0.12315371 -0.14747514 0.43100002
-0.12203006 -0.14747514 0.43100002
-0.12090641 -0.14747514 0.43100002
-0.12006069 -0.1478173 0.43200001
-0.11893443 -0.1478173 0.43200001
-0.11808089 -0.14815947 0.43300003
-0.11695203 -0.14815947 0.43300003
-0.11609066 -0.14850165 0.43400002
-0.1149592 -0.14850165 0.43400002
-0.11382774 -0.14850165 0.43400002
-0.11269626 -0.14850165 0.43400002
-0.11182187 -0.14884382 0.43500003
-0.11068779 -0.14884382 0.43500003
-0.10955372 -0.14884382 0.43500003
-0.10841965 -0.14884382 0.43500003
-0.10728557 -0.14884382 0.43500003
-0.1061515 -0.14884382 0.43500003
