# .PCD v0.7 - Point Cloud Data file format
VERSION 0.7
FIELDS x y z
SIZE 4 4 4
TYPE F F F
COUNT 1 1 1
WIDTH 1289
HEIGHT 1
VIEWPOINT 0 0 0 1 0 0 0
POINTS 1289
DATA ascii
-0.039665788 -0.0026772141 0.43800002
-0.038438458 -0.0026711018 0.43700001
-0.037216332 -0.0026649896 0.43600002
-0.035916649 -0.0026527648 0.43400002
-0.017101452 -0.0023899332 0.39100003
-0.016125478 -0.0023960455 0.39200002
-0.015105767 -0.0023960455 0.39200002
-0.014121991 -0.0024021578 0.39300001
-0.013099679 -0.0024021578 0.39300001
-0.012108099 -0.0024082703 0.39400002
-0.011083186 -0.0024082703 0.39400002
-0.010058273 -0.0024082703 0.39400002
-0.0090562869 -0.0024143825 0.39500001
-0.0080084465 -0.0024082703 0.39400002
-0.006983534 -0.0024082703 0.39400002
-0.0059586205 -0.0024082703 0.39400002
-0.0049211853 -0.0024021578 0.39300001
-0.003888953 -0.0023960455 0.39200002
-0.0028692426 -0.0023960455 0.39200002
-0.001849532 -0.0023960455 0.39200002
0.0001898887 -0.0023960455 0.39200002
0.0012126848 -0.0024021578 0.39300001
0.0043122889 -0.002420495 0.39600003
0.0053558955 -0.0024266073 0.39700001
0.0063886126 -0.0024266073 0.39700001
0.0074400231 -0.0024327198 0.39800003
0.0084753409 -0.0024327198 0.39800003
0.0095106596 -0.0024327198 0.39800003
0.010545977 -0.0024327198 0.39800003
0.011581296 -0.0024327198 0.39800003
0.012616615 -0.0024327198 0.39800003
0.013651934 -0.0024327198 0.39800003
0.01468725 -0.0024327198 0.39800003
0.015683064 -0.0024266073 0.39700001
0.016715782 -0.0024266073 0.39700001
0.017748497 -0.0024266073 0.39700001
0.018781215 -0.0024266073 0.39700001
0.019813932 -0.0024266073 0.39700001
0.020846648 -0.0024266073 0.39700001
0.021879366 -0.0024266073 0.39700001
0.022912083 -0.0024266073 0.39700001
0.023944799 -0.0024266073 0.39700001
0.024977518 -0.0024266073 0.39700001
0.026010232 -0.0024266073 0.39700001
0.02704295 -0.0024266073 0.39700001
0.028075667 -0.0024266073 0.39700001
0.029108385 -0.0024266073 0.39700001
0.030141102 -0.0024266073 0.39700001
0.03117382 -0.0024266073 0.39700001
0.032206535 -0.0024266073 0.39700001
0.033239253 -0.0024266073 0.39700001
0.03427197 -0.0024266073 0.39700001
0.035393618 -0.0024327198 0.39800003
0.036428936 -0.0024327198 0.39800003
0.037464254 -0.0024327198 0.39800003
0.038499571 -0.0024327198 0.39800003
0.039534889 -0.0024327198 0.39800003
0.040570207 -0.0024327198 0.39800003
0.04171006 -0.0024388321 0.39900002
0.042747982 -0.0024388321 0.39900002
0.0437859 -0.0024388321 0.39900002
0.044823822 -0.0024388321 0.39900002
0.04586174 -0.0024388321 0.39900002
0.046899658 -0.0024388321 0.39900002
0.047937579 -0.0024388321 0.39900002
0.048975497 -0.0024388321 0.39900002
0.050013416 -0.0024388321 0.39900002
0.058486179 -0.0027383377 0.44800001
0.059651569 -0.0027383377 0.44800001
0.060816947 -0.0027383377 0.44800001
0.06198233 -0.0027383377 0.44800001
0.063147716 -0.0027383377 0.44800001
0.064313099 -0.0027383377 0.44800001
0.065624639 -0.0027444502 0.44900003
0.066792622 -0.0027444502 0.44900003
0.067960612 -0.0027444502 0.44900003
0.069128595 -0.0027444502 0.44900003
0.070296578 -0.0027444502 0.44900003
0.071464568 -0.0027444502 0.44900003
0.072632551 -0.0027444502 0.44900003
0.073636167 -0.0027383377 0.44800001
0.074801549 -0.0027383377 0.44800001
0.075966932 -0.0027383377 0.44800001
0.077132314 -0.0027383377 0.44800001
0.078297697 -0.0027383377 0.44800001
0.079640456 -0.0027444502 0.44900003
0.080808438 -0.0027444502 0.44900003
0.081976429 -0.0027444502 0.44900003
0.083144411 -0.0027444502 0.44900003
0.084312394 -0.0027444502 0.44900003
0.085480385 -0.0027444502 0.44900003
0.08664836 -0.0027444502 0.44900003
0.08781635 -0.0027444502 0.44900003
0.088984333 -0.0027444502 0.44900003
0.090152323 -0.0027444502 0.44900003
0.091320306 -0.0027444502 0.44900003
0.092694268 -0.0027505625 0.45000002
0.093656272 -0.0027444502 0.44900003
0.095035441 -0.0027505625 0.45000002
0.095992245 -0.0027444502 0.44900003
0.097160228 -0.0027444502 0.44900003
0.098547198 -0.0027505625 0.45000002
0.099717788 -0.0027505625 0.45000002
0.10088837 -0.0027505625 0.45000002
0.10205896 -0.0027505625 0.45000002
0.10322955 -0.0027505625 0.45000002
0.10440014 -0.0027505625 0.45000002
0.10557072 -0.0027505625 0.45000002
0.1067413 -0.0027505625 0.45000002
0.10791189 -0.0027505625 0.45000002
0.10908248 -0.0027505625 0.45000002
0.11000806 -0.0027444502 0.44900003
0.11117604 -0.0027444502 0.44900003
0.11234403 -0.0027444502 0.44900003
0.11351201 -0.0027444502 0.44900003
0.11468 -0.0027444502 0.44900003
0.11584798 -0.0027444502 0.44900003
0.11701597 -0.0027444502 0.44900003
0.11818395 -0.0027444502 0.44900003
0.11935195 -0.0027444502 0.44900003
0.12051992 -0.0027444502 0.44900003
0.12195892 -0.0027505625 0.45000002
0.1231295 -0.0027505625 0.45000002
0.12430009 -0.0027505625 0.45000002
0.12547068 -0.0027505625 0.45000002
0.1269227 -0.002756675 0.45100003
0.12809588 -0.002756675 0.45100003
0.12898244 -0.0027505625 0.45000002
0.13015302 -0.0027505625 0.45000002
0.13132362 -0.0027505625 0.45000002
0.1324942 -0.0027505625 0.45000002
0.13366479 -0.0027505625 0.45000002
0.13483536 -0.0027505625 0.45000002
0.13600595 -0.0027505625 0.45000002
0.13717654 -0.0027505625 0.45000002
0.13834712 -0.0027505625 0.45000002
0.13951771 -0.0027505625 0.45000002
0.14068829 -0.0027505625 0.45000002
0.14185889 -0.0027505625 0.45000002
0.14302947 -0.0027505625 0.45000002
0.14452051 -0.002756675 0.45100003
0.14569369 -0.002756675 0.45100003
0.14686687 -0.002756675 0.45100003
0.14804007 -0.002756675 0.45100003
0.14921325 -0.002756675 0.45100003
0.15038644 -0.002756675 0.45100003
0.15122357 -0.0027505625 0.45000002
0.15239415 -0.0027505625 0.45000002
0.15356475 -0.0027505625 0.45000002
0.15473533 -0.0027505625 0.45000002
0.15590592 -0.0027505625 0.45000002
0.15707649 -0.0027505625 0.45000002
0.15824708 -0.0027505625 0.45000002
0.15941767 -0.0027505625 0.45000002
0.16058826 -0.0027505625 0.45000002
0.16175884 -0.0027505625 0.45000002
0.1632915 -0.002756675 0.45100003
0.1644647 -0.002756675 0.45100003
0.16563788 -0.002756675 0.45100003
0.16644119 -0.0027505625 0.45000002
0.16761178 -0.0027505625 0.45000002
0.16878235 -0.0027505625 0.45000002
0.16995294 -0.0027505625 0.45000002
0.17112353 -0.0027505625 0.45000002
0.17229411 -0.0027505625 0.45000002
0.1734647 -0.0027505625 0.45000002
0.17463528 -0.0027505625 0.45000002
0.17580588 -0.0027505625 0.45000002
0.17736974 -0.002756675 0.45100003
0.17854294 -0.002756675 0.45100003
0.17971613 -0.002756675 0.45100003
0.18088931 -0.002756675 0.45100003
0.18206251 -0.002756675 0.45100003
0.18323569 -0.002756675 0.45100003
0.18440887 -0.002756675 0.45100003
0.18558206 -0.002756675 0.45100003
0.18675524 -0.002756675 0.45100003
0.18834512 -0.0027627873 0.45200002
0.18952091 -0.0027627873 0.45200002
0.1906967 -0.0027627873 0.45200002
0.19187248 -0.0027627873 0.45200002
0.19304828 -0.0027627873 0.45200002
0.19465376 -0.0027688995 0.45300001
0.19583215 -0.0027688995 0.45300001
0.19701053 -0.0027688995 0.45300001
0.19818892 -0.0027688995 0.45300001
0.19936731 -0.0027688995 0.45300001
0.20054571 -0.0027688995 0.45300001
0.2017241 -0.0027688995 0.45300001
0.20335039 -0.002775012 0.45400003
0.20453139 -0.002775012 0.45400003
0.20571239 -0.002775012 0.45400003
0.20689338 -0.002775012 0.45400003
0.20807436 -0.002775012 0.45400003
0.20925535 -0.002775012 0.45400003
0.21043634 -0.002775012 0.45400003
0.21161735 -0.002775012 0.45400003
0.21279833 -0.002775012 0.45400003
0.21397932 -0.002775012 0.45400003
0.21516031 -0.002775012 0.45400003
0.21634132 -0.002775012 0.45400003
0.21752229 -0.002775012 0.45400003
-0.24642883 -0.0015483771 0.44100001
-0.24528165 -0.0015483771 0.44100001
-0.24358089 -0.0015448661 0.44000003
-0.24243632 -0.0015448661 0.44000003
-0.24129176 -0.0015448661 0.44000003
-0.24069296 -0.0015483771 0.44100001
-0.23954578 -0.0015483771 0.44100001
-0.23839861 -0.0015483771 0.44100001
-0.23725143 -0.0015483771 0.44100001
-0.23610428 -0.0015483771 0.44100001
-0.23495708 -0.0015483771 0.44100001
-0.2338099 -0.0015483771 0.44100001
-0.23266275 -0.0015483771 0.44100001
-0.23151556 -0.0015483771 0.44100001
-0.23036841 -0.0015483771 0.44100001
-0.22922122 -0.0015483771 0.44100001
-0.22807403 -0.0015483771 0.44100001
-0.22692688 -0.0015483771 0.44100001
-0.22526772 -0.0015448661 0.44000003
-0.22412317 -0.0015448661 0.44000003
-0.22297858 -0.0015448661 0.44000003
-0.221834 -0.0015448661 0.44000003
-0.22068945 -0.0015448661 0.44000003
-0.21954486 -0.0015448661 0.44000003
-0.21840028 -0.0015448661 0.44000003
-0.21725573 -0.0015448661 0.44000003
-0.21611115 -0.0015448661 0.44000003
-0.21496657 -0.0015448661 0.44000003
-0.21382199 -0.0015448661 0.44000003
-0.21267742 -0.0015448661 0.44000003
-0.21153286 -0.0015448661 0.44000003
-0.21038829 -0.0015448661 0.44000003
-0.2092437 -0.0015448661 0.44000003
-0.20809913 -0.0015448661 0.44000003
-0.20695457 -0.0015448661 0.44000003
-0.20581 -0.0015448661 0.44000003
-0.20466541 -0.0015448661 0.44000003
-0.20352083 -0.0015448661 0.44000003
-0.20237626 -0.0015448661 0.44000003
-0.2012317 -0.0015448661 0.44000003
-0.20008713 -0.0015448661 0.44000003
-0.19894254 -0.0015448661 0.44000003
-0.19779797 -0.0015448661 0.44000003
-0.19665341 -0.0015448661 0.44000003
-0.19550884 -0.0015448661 0.44000003
-0.19436426 -0.0015448661 0.44000003
-0.19321968 -0.0015448661 0.44000003
-0.1920751 -0.0015448661 0.44000003
-0.19093055 -0.0015448661 0.44000003
-0.18978597 -0.0015448661 0.44000003
-0.1886414 -0.0015448661 0.44000003
-0.18749681 -0.0015448661 0.44000003
-0.18635225 -0.0015448661 0.44000003
-0.18478674 -0.0015413549 0.43900001
-0.18406311 -0.0015448661 0.44000003
-0.18291853 -0.0015448661 0.44000003
-0.18177395 -0.0015448661 0.44000003
-0.1810399 -0.0015483771 0.44100001
-0.17989273 -0.0015483771 0.44100001
-0.17874555 -0.0015483771 0.44100001
-0.17759837 -0.0015483771 0.44100001
-0.17645121 -0.0015483771 0.44100001
-0.17530403 -0.0015483771 0.44100001
-0.17415686 -0.0015483771 0.44100001
-0.17340201 -0.0015518882 0.44200003
-0.17225222 -0.0015518882 0.44200003
-0.17071533 -0.0015483771 0.44100001
-0.16956815 -0.0015483771 0.44100001
-0.1688029 -0.0015518882 0.44200003
-0.16727382 -0.0015483771 0.44100001
-0.16612662 -0.0015483771 0.44100001
-0.16535357 -0.0015518882 0.44200003
-0.16420379 -0.0015518882 0.44200003
-0.16305402 -0.0015518882 0.44200003
-0.16190425 -0.0015518882 0.44200003
-0.16075446 -0.0015518882 0.44200003
-0.1596047 -0.0015518882 0.44200003
-0.15845492 -0.0015518882 0.44200003
-0.15730515 -0.0015518882 0.44200003
-0.15615536 -0.0015518882 0.44200003
-0.15500559 -0.0015518882 0.44200003
-0.15385582 -0.0015518882 0.44200003
-0.15305153 -0.0015553993 0.44300002
-0.15189916 -0.0015553993 0.44300002
-0.15108706 -0.0015589104 0.44400004
-0.14993209 -0.0015589104 0.44400004
-0.14877711 -0.0015589104 0.44400004
-0.14762212 -0.0015589104 0.44400004
-0.14646715 -0.0015589104 0.44400004
-0.14531216 -0.0015589104 0.44400004
-0.14448187 -0.0015624213 0.44500002
-0.14300221 -0.0015589104 0.44400004
-0.14184724 -0.0015589104 0.44400004
-0.14069226 -0.0015589104 0.44400004
-0.13953727 -0.0015589104 0.44400004
-0.13869397 -0.0015624213 0.44500002
-0.13753639 -0.0015624213 0.44500002
-0.13637881 -0.0015624213 0.44500002
-0.13522123 -0.0015624213 0.44500002
-0.13406365 -0.0015624213 0.44500002
-0.13290608 -0.0015624213 0.44500002
-0.1317485 -0.0015624213 0.44500002
-0.13059092 -0.0015624213 0.44500002
-0.12943333 -0.0015624213 0.44500002
-0.12827575 -0.0015624213 0.44500002
-0.12711817 -0.0015624213 0.44500002
-0.1259606 -0.0015624213 0.44500002
-0.12480302 -0.0015624213 0.44500002
-0.12364543 -0.0015624213 0.44500002
-0.12248786 -0.0015624213 0.44500002
-0.12133028 -0.0015624213 0.44500002
-0.1201727 -0.0015624213 0.44500002
-0.11901513 -0.0015624213 0.44500002
-0.11785754 -0.0015624213 0.44500002
-0.11669996 -0.0015624213 0.44500002
-0.11554238 -0.0015624213 0.44500002
-0.11438481 -0.0015624213 0.44500002
-0.11322722 -0.0015624213 0.44500002
-0.11206964 -0.0015624213 0.44500002
-0.11091206 -0.0015624213 0.44500002
-0.10950785 -0.0015589104 0.44400004
-0.10859691 -0.0015624213 0.44500002
-0.10743932 -0.0015624213 0.44500002
-0.10628174 -0.0015624213 0.44500002
-0.10512417 -0.0015624213 0.44500002
-0.10373296 -0.0015589104 0.44400004
-0.10257798 -0.0015589104 0.44400004
-0.101423 -0.0015589104 0.44400004
-0.10026802 -0.0015589104 0.44400004
-0.099113047 -0.0015589104 0.44400004
-0.097958073 -0.0015589104 0.44400004
-0.096803084 -0.0015589104 0.44400004
-0.09564811 -0.0015589104 0.44400004
-0.094493128 -0.0015589104 0.44400004
-0.093338154 -0.0015589104 0.44400004
-0.092390791 -0.0015624213 0.44500002
-0.091233216 -0.0015624213 0.44500002
-0.090075634 -0.0015624213 0.44500002
-0.088918053 -0.0015624213 0.44500002
-0.087760478 -0.0015624213 0.44500002
-0.086797506 -0.0015659324 0.44600001
-0.085637324 -0.0015659324 0.44600001
-0.084477141 -0.0015659324 0.44600001
-0.083316967 -0.0015659324 0.44600001
-0.082156785 -0.0015659324 0.44600001
-0.080996603 -0.0015659324 0.44600001
-0.079836421 -0.0015659324 0.44600001
-0.078676239 -0.0015659324 0.44600001
-0.077342257 -0.0015624213 0.44500002
-0.076184683 -0.0015624213 0.44500002
-0.075027101 -0.0015624213 0.44500002
-0.073869526 -0.0015624213 0.44500002
-0.072711937 -0.0015624213 0.44500002
-0.071554363 -0.0015624213 0.44500002
-0.070396781 -0.0015624213 0.44500002
-0.069239207 -0.0015624213 0.44500002
-0.068081625 -0.0015624213 0.44500002
-0.066924043 -0.0015624213 0.44500002
-0.065766469 -0.0015624213 0.44500002
-0.064608887 -0.0015624213 0.44500002
-0.063451305 -0.0015624213 0.44500002
-0.062293723 -0.0015624213 0.44500002
-0.061136149 -0.0015624213 0.44500002
-0.059978571 -0.0015624213 0.44500002
-0.058820989 -0.0015624213 0.44500002
-0.057663411 -0.0015624213 0.44500002
-0.056505829 -0.0015624213 0.44500002
-0.055472627 -0.0015659324 0.44600001
-0.054312445 -0.0015659324 0.44600001
-0.053152263 -0.0015659324 0.44600001
-0.051992085 -0.0015659324 0.44600001
-0.050831906 -0.0015659324 0.44600001
-0.049671724 -0.0015659324 0.44600001
-0.048511542 -0.0015659324 0.44600001
-0.04735136 -0.0015659324 0.44600001
-0.046087615 -0.0015624213 0.44500002
-0.044930033 -0.0015624213 0.44500002
-0.043575726 -0.0015553993 0.44300002
-0.042231821 -0.0015483771 0.44100001
-0.040991485 -0.0015448661 0.44000003
-0.038438458 -0.0015343329 0.43700001
-0.037216332 -0.0015308218 0.43600002
-0.017145189 -0.0013763353 0.39200002
-0.016125478 -0.0013763353 0.39200002
-0.015144302 -0.0013798462 0.39300001
-0.013133012 -0.0013833573 0.39400002
-0.012108099 -0.0013833573 0.39400002
-0.011083186 -0.0013833573 0.39400002
-0.010083801 -0.0013868684 0.39500001
-0.0090562869 -0.0013868684 0.39500001
-0.0080287727 -0.0013868684 0.39500001
-0.0070012584 -0.0013868684 0.39500001
-0.0059586205 -0.0013833573 0.39400002
-0.0049337074 -0.0013833573 0.39400002
-0.0039087948 -0.0013833573 0.39400002
-0.0028765621 -0.0013798462 0.39300001
-0.0018542502 -0.0013798462 0.39300001
-0.00083193858 -0.0013798462 0.39300001
0.00019085752 -0.0013833573 0.39400002
0.0012157706 -0.0013833573 0.39400002
0.0022463705 -0.0013868684 0.39500001
0.0032821731 -0.0013903795 0.39600003
0.0053558955 -0.0013938905 0.39700001
0.0064047049 -0.0013974017 0.39800003
0.0074400231 -0.0013974017 0.39800003
0.0084753409 -0.0013974017 0.39800003
0.0095106596 -0.0013974017 0.39800003
0.010572474 -0.0014009126 0.39900002
0.011581296 -0.0013974017 0.39800003
0.012616615 -0.0013974017 0.39800003
0.013651934 -0.0013974017 0.39800003
0.01468725 -0.0013974017 0.39800003
0.015722569 -0.0013974017 0.39800003
0.016757889 -0.0013974017 0.39800003
0.017793205 -0.0013974017 0.39800003
0.018828524 -0.0013974017 0.39800003
0.019863842 -0.0013974017 0.39800003
0.02089916 -0.0013974017 0.39800003
0.021934479 -0.0013974017 0.39800003
0.022969797 -0.0013974017 0.39800003
0.024005115 -0.0013974017 0.39800003
0.025040435 -0.0013974017 0.39800003
0.026075751 -0.0013974017 0.39800003
0.02711107 -0.0013974017 0.39800003
0.028146388 -0.0013974017 0.39800003
0.029181708 -0.0013974017 0.39800003
0.030217025 -0.0013974017 0.39800003
0.031252343 -0.0013974017 0.39800003
0.032287661 -0.0013974017 0.39800003
0.033322979 -0.0013974017 0.39800003
0.034358297 -0.0013974017 0.39800003
0.035393618 -0.0013974017 0.39800003
0.036428936 -0.0013974017 0.39800003
0.037464254 -0.0013974017 0.39800003
0.038499571 -0.0013974017 0.39800003
0.039534889 -0.0013974017 0.39800003
0.040570207 -0.0013974017 0.39800003
0.04171006 -0.0014009126 0.39900002
0.042747982 -0.0014009126 0.39900002
0.0437859 -0.0014009126 0.39900002
0.044823822 -0.0014009126 0.39900002
0.04586174 -0.0014009126 0.39900002
0.046899658 -0.0014009126 0.39900002
0.047937579 -0.0014009126 0.39900002
0.048975497 -0.0014009126 0.39900002
0.050013416 -0.0014009126 0.39900002
0.058486179 -0.0015729545 0.44800001
0.059651569 -0.0015729545 0.44800001
0.060816947 -0.0015729545 0.44800001
0.06198233 -0.0015729545 0.44800001
0.063147716 -0.0015729545 0.44800001
0.064313099 -0.0015729545 0.44800001
0.065624639 -0.0015764657 0.44900003
0.066792622 -0.0015764657 0.44900003
0.067960612 -0.0015764657 0.44900003
0.069128595 -0.0015764657 0.44900003
0.070296578 -0.0015764657 0.44900003
0.071464568 -0.0015764657 0.44900003
0.072632551 -0.0015764657 0.44900003
0.073636167 -0.0015729545 0.44800001
0.074801549 -0.0015729545 0.44800001
0.075966932 -0.0015729545 0.44800001
0.077132314 -0.0015729545 0.44800001
0.078297697 -0.0015729545 0.44800001
0.079640456 -0.0015764657 0.44900003
0.080808438 -0.0015764657 0.44900003
0.081976429 -0.0015764657 0.44900003
0.083144411 -0.0015764657 0.44900003
0.084312394 -0.0015764657 0.44900003
0.085480385 -0.0015764657 0.44900003
0.08664836 -0.0015764657 0.44900003
0.08781635 -0.0015764657 0.44900003
0.088984333 -0.0015764657 0.44900003
0.090152323 -0.0015764657 0.44900003
0.091320306 -0.0015764657 0.44900003
0.092488289 -0.0015764657 0.44900003
0.093656272 -0.0015764657 0.44900003
0.095035441 -0.0015799766 0.45000002
0.096206032 -0.0015799766 0.45000002
0.097376615 -0.0015799766 0.45000002
0.098547198 -0.0015799766 0.45000002
0.099717788 -0.0015799766 0.45000002
0.10088837 -0.0015799766 0.45000002
0.10205896 -0.0015799766 0.45000002
0.10322955 -0.0015799766 0.45000002
0.10440014 -0.0015799766 0.45000002
0.10557072 -0.0015799766 0.45000002
0.1067413 -0.0015799766 0.45000002
0.10791189 -0.0015799766 0.45000002
0.10908248 -0.0015799766 0.45000002
0.11000806 -0.0015764657 0.44900003
0.11117604 -0.0015764657 0.44900003
0.11234403 -0.0015764657 0.44900003
0.11351201 -0.0015764657 0.44900003
0.11468 -0.0015764657 0.44900003
0.11584798 -0.0015764657 0.44900003
0.11701597 -0.0015764657 0.44900003
0.11818395 -0.0015764657 0.44900003
0.11935195 -0.0015764657 0.44900003
0.12078834 -0.0015799766 0.45000002
0.12195892 -0.0015799766 0.45000002
0.1231295 -0.0015799766 0.45000002
0.12430009 -0.0015799766 0.45000002
0.12547068 -0.0015799766 0.45000002
0.1269227 -0.0015834877 0.45100003
0.12809588 -0.0015834877 0.45100003
0.12926906 -0.0015834877 0.45100003
0.13044225 -0.0015834877 0.45100003
0.13132362 -0.0015799766 0.45000002
0.1324942 -0.0015799766 0.45000002
0.13366479 -0.0015799766 0.45000002
0.13483536 -0.0015799766 0.45000002
0.13600595 -0.0015799766 0.45000002
0.13717654 -0.0015799766 0.45000002
0.13834712 -0.0015799766 0.45000002
0.13951771 -0.0015799766 0.45000002
0.14068829 -0.0015799766 0.45000002
0.14185889 -0.0015799766 0.45000002
0.14334732 -0.0015834877 0.45100003
0.14452051 -0.0015834877 0.45100003
0.14569369 -0.0015834877 0.45100003
0.14686687 -0.0015834877 0.45100003
0.14804007 -0.0015834877 0.45100003
0.14921325 -0.0015834877 0.45100003
0.15038644 -0.0015834877 0.45100003
0.15122357 -0.0015799766 0.45000002
0.15239415 -0.0015799766 0.45000002
0.15356475 -0.0015799766 0.45000002
0.15473533 -0.0015799766 0.45000002
0.15590592 -0.0015799766 0.45000002
0.15707649 -0.0015799766 0.45000002
0.15824708 -0.0015799766 0.45000002
0.15941767 -0.0015799766 0.45000002
0.16058826 -0.0015799766 0.45000002
0.16175884 -0.0015799766 0.45000002
0.1632915 -0.0015834877 0.45100003
0.1644647 -0.0015834877 0.45100003
0.16563788 -0.0015834877 0.45100003
0.16681106 -0.0015834877 0.45100003
0.16761178 -0.0015799766 0.45000002
0.16878235 -0.0015799766 0.45000002
0.16995294 -0.0015799766 0.45000002
0.17112353 -0.0015799766 0.45000002
0.17229411 -0.0015799766 0.45000002
0.1734647 -0.0015799766 0.45000002
0.17463528 -0.0015799766 0.45000002
0.17580588 -0.0015799766 0.45000002
0.17736974 -0.0015834877 0.45100003
0.17854294 -0.0015834877 0.45100003
0.17971613 -0.0015834877 0.45100003
0.18088931 -0.0015834877 0.45100003
0.18206251 -0.0015834877 0.45100003
0.18323569 -0.0015834877 0.45100003
0.18481776 -0.0015869988 0.45200002
0.18558206 -0.0015834877 0.45100003
0.18716933 -0.0015869988 0.45200002
0.18834512 -0.0015869988 0.45200002
0.18952091 -0.0015869988 0.45200002
0.1906967 -0.0015869988 0.45200002
0.19187248 -0.0015869988 0.45200002
0.19347538 -0.0015905098 0.45300001
0.19465376 -0.0015905098 0.45300001
0.19583215 -0.0015905098 0.45300001
0.19701053 -0.0015905098 0.45300001
0.19818892 -0.0015905098 0.45300001
0.19936731 -0.0015905098 0.45300001
0.20054571 -0.0015905098 0.45300001
0.2017241 -0.0015905098 0.45300001
0.20290248 -0.0015905098 0.45300001
0.20408086 -0.0015905098 0.45300001
0.20571239 -0.0015940209 0.45400003
0.20689338 -0.0015940209 0.45400003
0.20807436 -0.0015940209 0.45400003
0.20925535 -0.0015940209 0.45400003
0.21043634 -0.0015940209 0.45400003
0.21161735 -0.0015940209 0.45400003
0.21279833 -0.0015940209 0.45400003
0.21397932 -0.0015940209 0.45400003
0.21516031 -0.0015940209 0.45400003
0.21634132 -0.0015940209 0.45400003
0.21752229 -0.0015940209 0.45400003
-0.24587004 -0.00040029315 0.44000003
-0.24472545 -0.00040029315 0.44000003
-0.24358089 -0.00040029315 0.44000003
-0.24243632 -0.00040029315 0.44000003
-0.24129176 -0.00040029315 0.44000003
-0.24014717 -0.00040029315 0.44000003
-0.23954578 -0.00040120291 0.44100001
-0.23785804 -0.00040029315 0.44000003
-0.23725143 -0.00040120291 0.44100001
-0.23610428 -0.00040120291 0.44100001
-0.23495708 -0.00040120291 0.44100001
-0.2338099 -0.00040120291 0.44100001
-0.23266275 -0.00040120291 0.44100001
-0.23151556 -0.00040120291 0.44100001
-0.23036841 -0.00040120291 0.44100001
-0.22922122 -0.00040120291 0.44100001
-0.22807403 -0.00040120291 0.44100001
-0.22692688 -0.00040120291 0.44100001
-0.22526772 -0.00040029315 0.44000003
-0.22412317 -0.00040029315 0.44000003
-0.22297858 -0.00040029315 0.44000003
-0.221834 -0.00040029315 0.44000003
-0.22068945 -0.00040029315 0.44000003
-0.21954486 -0.00040029315 0.44000003
-0.21840028 -0.00040029315 0.44000003
-0.21725573 -0.00040029315 0.44000003
-0.21611115 -0.00040029315 0.44000003
-0.21496657 -0.00040029315 0.44000003
-0.21382199 -0.00040029315 0.44000003
-0.21267742 -0.00040029315 0.44000003
-0.21153286 -0.00040029315 0.44000003
-0.21038829 -0.00040029315 0.44000003
-0.2092437 -0.00040029315 0.44000003
-0.20809913 -0.00040029315 0.44000003
-0.20695457 -0.00040029315 0.44000003
-0.20581 -0.00040029315 0.44000003
-0.20466541 -0.00040029315 0.44000003
-0.20352083 -0.00040029315 0.44000003
-0.20191632 -0.00039938337 0.43900001
-0.2012317 -0.00040029315 0.44000003
-0.20008713 -0.00040029315 0.44000003
-0.19894254 -0.00040029315 0.44000003
-0.19779797 -0.00040029315 0.44000003
-0.19665341 -0.00040029315 0.44000003
-0.19595316 -0.00040120291 0.44100001
-0.19480599 -0.00040120291 0.44100001
-0.19321968 -0.00040029315 0.44000003
-0.1920751 -0.00040029315 0.44000003
-0.19093055 -0.00040029315 0.44000003
-0.18978597 -0.00040029315 0.44000003
-0.1886414 -0.00040029315 0.44000003
-0.18749681 -0.00040029315 0.44000003
-0.18635225 -0.00040029315 0.44000003
-0.18520768 -0.00040029315 0.44000003
-0.18406311 -0.00040029315 0.44000003
-0.18291853 -0.00040029315 0.44000003
-0.18177395 -0.00040029315 0.44000003
-0.1810399 -0.00040120291 0.44100001
-0.17989273 -0.00040120291 0.44100001
-0.17874555 -0.00040120291 0.44100001
-0.17759837 -0.00040120291 0.44100001
-0.17645121 -0.00040120291 0.44100001
-0.17570154 -0.00040211267 0.44200003
-0.17455177 -0.00040211267 0.44200003
-0.17340201 -0.00040211267 0.44200003
-0.17225222 -0.00040211267 0.44200003
-0.17071533 -0.00040120291 0.44100001
-0.16995268 -0.00040211267 0.44200003
-0.1688029 -0.00040211267 0.44200003
-0.16727382 -0.00040120291 0.44100001
-0.16612662 -0.00040120291 0.44100001
-0.16535357 -0.00040211267 0.44200003
-0.16420379 -0.00040211267 0.44200003
-0.16305402 -0.00040211267 0.44200003
-0.16190425 -0.00040211267 0.44200003
-0.16075446 -0.00040211267 0.44200003
-0.1596047 -0.00040211267 0.44200003
-0.15845492 -0.00040211267 0.44200003
-0.15730515 -0.00040211267 0.44200003
-0.15615536 -0.00040211267 0.44200003
-0.15500559 -0.00040211267 0.44200003
-0.15385582 -0.00040211267 0.44200003
-0.15305153 -0.00040302242 0.44300002
-0.15189916 -0.00040302242 0.44300002
-0.15108706 -0.00040393218 0.44400004
-0.14993209 -0.00040393218 0.44400004
-0.14877711 -0.00040393218 0.44400004
-0.14762212 -0.00040393218 0.44400004
-0.14646715 -0.00040393218 0.44400004
-0.14563943 -0.00040484194 0.44500002
-0.14448187 -0.00040484194 0.44500002
-0.14332429 -0.00040484194 0.44500002
-0.14184724 -0.00040393218 0.44400004
-0.14100914 -0.00040484194 0.44500002
-0.13985154 -0.00040484194 0.44500002
-0.13869397 -0.00040484194 0.44500002
-0.13753639 -0.00040484194 0.44500002
-0.13637881 -0.00040484194 0.44500002
-0.13522123 -0.00040484194 0.44500002
-0.13406365 -0.00040484194 0.44500002
-0.13290608 -0.00040484194 0.44500002
-0.1317485 -0.00040484194 0.44500002
-0.13059092 -0.00040484194 0.44500002
-0.12943333 -0.00040484194 0.44500002
-0.12827575 -0.00040484194 0.44500002
-0.12711817 -0.00040484194 0.44500002
-0.1259606 -0.00040484194 0.44500002
-0.12480302 -0.00040484194 0.44500002
-0.12364543 -0.00040484194 0.44500002
-0.12248786 -0.00040484194 0.44500002
-0.12133028 -0.00040484194 0.44500002
-0.1201727 -0.00040484194 0.44500002
-0.11901513 -0.00040484194 0.44500002
-0.11785754 -0.00040484194 0.44500002
-0.11669996 -0.00040484194 0.44500002
-0.11554238 -0.00040484194 0.44500002
-0.11438481 -0.00040484194 0.44500002
-0.11322722 -0.00040484194 0.44500002
-0.11206964 -0.00040484194 0.44500002
-0.11091206 -0.00040484194 0.44500002
-0.10975449 -0.00040484194 0.44500002
-0.10859691 -0.00040484194 0.44500002
-0.10743932 -0.00040484194 0.44500002
-0.10628174 -0.00040484194 0.44500002
-0.10512417 -0.00040484194 0.44500002
-0.10373296 -0.00040393218 0.44400004
-0.10257798 -0.00040393218 0.44400004
-0.101423 -0.00040393218 0.44400004
-0.10049385 -0.00040484194 0.44500002
-0.099336267 -0.00040484194 0.44500002
-0.097958073 -0.00040393218 0.44400004
-0.096803084 -0.00040393218 0.44400004
-0.09564811 -0.00040393218 0.44400004
-0.094493128 -0.00040393218 0.44400004
-0.093548372 -0.00040484194 0.44500002
-0.092390791 -0.00040484194 0.44500002
-0.091233216 -0.00040484194 0.44500002
-0.090075634 -0.00040484194 0.44500002
-0.088918053 -0.00040484194 0.44500002
-0.087957688 -0.00040575166 0.44600001
-0.086797506 -0.00040575166 0.44600001
-0.085637324 -0.00040575166 0.44600001
-0.084477141 -0.00040575166 0.44600001
-0.083316967 -0.00040575166 0.44600001
-0.082156785 -0.00040575166 0.44600001
-0.080996603 -0.00040575166 0.44600001
-0.079836421 -0.00040575166 0.44600001
-0.078499839 -0.00040484194 0.44500002
-0.077342257 -0.00040484194 0.44500002
-0.076184683 -0.00040484194 0.44500002
-0.075027101 -0.00040484194 0.44500002
-0.073869526 -0.00040484194 0.44500002
-0.072711937 -0.00040484194 0.44500002
-0.071554363 -0.00040484194 0.44500002
-0.070396781 -0.00040484194 0.44500002
-0.069239207 -0.00040484194 0.44500002
-0.068081625 -0.00040484194 0.44500002
-0.066924043 -0.00040484194 0.44500002
-0.065766469 -0.00040484194 0.44500002
-0.064608887 -0.00040484194 0.44500002
-0.063451305 -0.00040484194 0.44500002
-0.062293723 -0.00040484194 0.44500002
-0.061136149 -0.00040484194 0.44500002
-0.059978571 -0.00040484194 0.44500002
-0.058820989 -0.00040484194 0.44500002
-0.057663411 -0.00040484194 0.44500002
-0.056505829 -0.00040484194 0.44500002
-0.055472627 -0.00040575166 0.44600001
-0.054312445 -0.00040575166 0.44600001
-0.053152263 -0.00040575166 0.44600001
-0.051992085 -0.00040575166 0.44600001
-0.050831906 -0.00040575166 0.44600001
-0.049671724 -0.00040575166 0.44600001
-0.048511542 -0.00040575166 0.44600001
-0.04735136 -0.00040575166 0.44600001
-0.046191182 -0.00040575166 0.44600001
-0.044930033 -0.00040484194 0.44500002
-0.043575726 -0.00040302242 0.44300002
-0.042231821 -0.00040120291 0.44100001
-0.040991485 -0.00040029315 0.44000003
-0.038438458 -0.00039756385 0.43700001
-0.037130974 -0.00039574437 0.43500003
-0.017145189 -0.00035662481 0.39200002
-0.016166614 -0.00035753453 0.39300001
-0.015144302 -0.00035753453 0.39300001
-0.014157926 -0.00035844432 0.39400002
-0.013133012 -0.00035844432 0.39400002
-0.01213883 -0.00035935408 0.39500001
-0.011111315 -0.00035935408 0.39500001
-0.010083801 -0.00035935408 0.39500001
-0.0090792151 -0.00036026383 0.39600003
-0.0080490988 -0.00036026383 0.39600003
-0.0070189834 -0.00036026383 0.39600003
-0.0059888675 -0.00036026383 0.39600003
-0.0049462295 -0.00035935408 0.39500001
-0.0039187153 -0.00035935408 0.39500001
-0.0028912011 -0.00035935408 0.39500001
-0.0018636866 -0.00035935408 0.39500001
-0.00083617237 -0.00035935408 0.39500001
0.00019134193 -0.00035935408 0.39500001
0.0012188563 -0.00035935408 0.39500001
0.0084753409 -0.00036208334 0.39800003
0.0095106596 -0.00036208334 0.39800003
0.010545977 -0.00036208334 0.39800003
0.011581296 -0.00036208334 0.39800003
0.012616615 -0.00036208334 0.39800003
0.013651934 -0.00036208334 0.39800003
0.01468725 -0.00036208334 0.39800003
0.016757889 -0.00036208334 0.39800003
0.017793205 -0.00036208334 0.39800003
0.018828524 -0.00036208334 0.39800003
0.019863842 -0.00036208334 0.39800003
0.02089916 -0.00036208334 0.39800003
0.021934479 -0.00036208334 0.39800003
0.022969797 -0.00036208334 0.39800003
0.024005115 -0.00036208334 0.39800003
0.025040435 -0.00036208334 0.39800003
0.026141267 -0.0003629931 0.39900002
0.02711107 -0.00036208334 0.39800003
0.028146388 -0.00036208334 0.39800003
0.029181708 -0.00036208334 0.39800003
0.030217025 -0.00036208334 0.39800003
0.031252343 -0.00036208334 0.39800003
0.032287661 -0.00036208334 0.39800003
0.033322979 -0.00036208334 0.39800003
0.034358297 -0.00036208334 0.39800003
0.035393618 -0.00036208334 0.39800003
0.036428936 -0.00036208334 0.39800003
0.037464254 -0.00036208334 0.39800003
0.038499571 -0.00036208334 0.39800003
0.039534889 -0.00036208334 0.39800003
0.040672142 -0.0003629931 0.39900002
0.04171006 -0.0003629931 0.39900002
0.042747982 -0.0003629931 0.39900002
0.0437859 -0.0003629931 0.39900002
0.044823822 -0.0003629931 0.39900002
0.04586174 -0.0003629931 0.39900002
0.046899658 -0.0003629931 0.39900002
0.047937579 -0.0003629931 0.39900002
0.048975497 -0.0003629931 0.39900002
0.05013876 -0.00036390286 0.40000001
0.058486179 -0.00040757121 0.44800001
0.059651569 -0.00040757121 0.44800001
0.060816947 -0.00040757121 0.44800001
0.06198233 -0.00040757121 0.44800001
0.063288674 -0.00040848096 0.44900003
0.064456657 -0.00040848096 0.44900003
0.065624639 -0.00040848096 0.44900003
0.066792622 -0.00040848096 0.44900003
0.067960612 -0.00040848096 0.44900003
0.069128595 -0.00040848096 0.44900003
0.070296578 -0.00040848096 0.44900003
0.071464568 -0.00040848096 0.44900003
0.072470777 -0.00040757121 0.44800001
0.073800534 -0.00040848096 0.44900003
0.074968517 -0.00040848096 0.44900003
0.076136507 -0.00040848096 0.44900003
0.07730449 -0.00040848096 0.44900003
0.078472473 -0.00040848096 0.44900003
0.079640456 -0.00040848096 0.44900003
0.080808438 -0.00040848096 0.44900003
0.081976429 -0.00040848096 0.44900003
0.083144411 -0.00040848096 0.44900003
0.084312394 -0.00040848096 0.44900003
0.085480385 -0.00040848096 0.44900003
0.08664836 -0.00040848096 0.44900003
0.08781635 -0.00040848096 0.44900003
0.088984333 -0.00040848096 0.44900003
0.090152323 -0.00040848096 0.44900003
0.091320306 -0.00040848096 0.44900003
0.092488289 -0.00040848096 0.44900003
0.093864858 -0.00040939072 0.45000002
0.095035441 -0.00040939072 0.45000002
0.096206032 -0.00040939072 0.45000002
0.097376615 -0.00040939072 0.45000002
0.098547198 -0.00040939072 0.45000002
0.099717788 -0.00040939072 0.45000002
0.10088837 -0.00040939072 0.45000002
0.10205896 -0.00040939072 0.45000002
0.10322955 -0.00040939072 0.45000002
0.10440014 -0.00040939072 0.45000002
0.10557072 -0.00040939072 0.45000002
0.1067413 -0.00040939072 0.45000002
0.10791189 -0.00040939072 0.45000002
0.10884007 -0.00040848096 0.44900003
0.11000806 -0.00040848096 0.44900003
0.11117604 -0.00040848096 0.44900003
0.11234403 -0.00040848096 0.44900003
0.11351201 -0.00040848096 0.44900003
0.11468 -0.00040848096 0.44900003
0.11584798 -0.00040848096 0.44900003
0.11701597 -0.00040848096 0.44900003
0.11818395 -0.00040848096 0.44900003
0.11961775 -0.00040939072 0.45000002
0.12078834 -0.00040939072 0.45000002
0.12195892 -0.00040939072 0.45000002
0.1231295 -0.00040939072 0.45000002
0.12430009 -0.00040939072 0.45000002
0.12547068 -0.00040939072 0.45000002
0.1269227 -0.00041030048 0.45100003
0.12809588 -0.00041030048 0.45100003
0.12926906 -0.00041030048 0.45100003
0.13044225 -0.00041030048 0.45100003
0.13132362 -0.00040939072 0.45000002
0.1324942 -0.00040939072 0.45000002
0.13366479 -0.00040939072 0.45000002
0.13483536 -0.00040939072 0.45000002
0.13600595 -0.00040939072 0.45000002
0.13717654 -0.00040939072 0.45000002
0.13834712 -0.00040939072 0.45000002
0.13951771 -0.00040939072 0.45000002
0.14068829 -0.00040939072 0.45000002
0.14185889 -0.00040939072 0.45000002
0.14334732 -0.00041030048 0.45100003
0.14452051 -0.00041030048 0.45100003
0.14569369 -0.00041030048 0.45100003
0.14686687 -0.00041030048 0.45100003
0.14804007 -0.00041030048 0.45100003
0.14921325 -0.00041030048 0.45100003
0.15038644 -0.00041030048 0.45100003
0.15122357 -0.00040939072 0.45000002
0.15239415 -0.00040939072 0.45000002
0.15356475 -0.00040939072 0.45000002
0.15473533 -0.00040939072 0.45000002
0.15590592 -0.00040939072 0.45000002
0.15707649 -0.00040939072 0.45000002
0.15824708 -0.00040939072 0.45000002
0.15941767 -0.00040939072 0.45000002
0.16058826 -0.00040939072 0.45000002
0.16175884 -0.00040939072 0.45000002
0.1632915 -0.00041030048 0.45100003
0.1644647 -0.00041030048 0.45100003
0.16563788 -0.00041030048 0.45100003
0.16644119 -0.00040939072 0.45000002
0.16761178 -0.00040939072 0.45000002
0.16878235 -0.00040939072 0.45000002
0.16995294 -0.00040939072 0.45000002
0.17112353 -0.00040939072 0.45000002
0.17229411 -0.00040939072 0.45000002
0.1734647 -0.00040939072 0.45000002
0.17463528 -0.00040939072 0.45000002
0.17580588 -0.00040939072 0.45000002
0.17736974 -0.00041030048 0.45100003
0.17854294 -0.00041030048 0.45100003
0.17971613 -0.00041030048 0.45100003
0.18088931 -0.00041030048 0.45100003
0.18206251 -0.00041030048 0.45100003
0.18323569 -0.00041030048 0.45100003
0.18481776 -0.00041121023 0.45200002
0.18599354 -0.00041121023 0.45200002
0.18716933 -0.00041121023 0.45200002
0.18834512 -0.00041121023 0.45200002
0.18952091 -0.00041121023 0.45200002
0.1906967 -0.00041121023 0.45200002
0.19187248 -0.00041121023 0.45200002
0.19304828 -0.00041121023 0.45200002
0.19465376 -0.00041211999 0.45300001
0.19583215 -0.00041211999 0.45300001
0.19701053 -0.00041211999 0.45300001
0.19818892 -0.00041211999 0.45300001
0.19936731 -0.00041211999 0.45300001
0.20054571 -0.00041211999 0.45300001
0.2017241 -0.00041211999 0.45300001
0.20290248 -0.00041211999 0.45300001
0.20408086 -0.00041211999 0.45300001
0.20571239 -0.00041302975 0.45400003
0.20689338 -0.00041302975 0.45400003
0.20807436 -0.00041302975 0.45400003
0.20925535 -0.00041302975 0.45400003
0.21043634 -0.00041302975 0.45400003
0.21161735 -0.00041302975 0.45400003
0.21279833 -0.00041302975 0.45400003
0.21397932 -0.00041302975 0.45400003
0.21516031 -0.00041302975 0.45400003
0.21634132 -0.00041302975 0.45400003
0.21752229 -0.00041302975 0.45400003
-0.24587004 0.00074427982 0.44000003
-0.24472545 0.00074427982 0.44000003
-0.24358089 0.00074427982 0.44000003
-0.24243632 0.00074427982 0.44000003
-0.24129176 0.00074427982 0.44000003
-0.24014717 0.00074427982 0.44000003
-0.2390026 0.00074427982 0.44000003
-0.23785804 0.00074427982 0.44000003
-0.23725143 0.00074597134 0.44100001
-0.23610428 0.00074597134 0.44100001
-0.23495708 0.00074597134 0.44100001
-0.2338099 0.00074597134 0.44100001
-0.23266275 0.00074597134 0.44100001
-0.23151556 0.00074597134 0.44100001
-0.23036841 0.00074597134 0.44100001
-0.22922122 0.00074597134 0.44100001
-0.22807403 0.00074597134 0.44100001
-0.22641231 0.00074427982 0.44000003
-0.2257797 0.00074597134 0.44100001
-0.22412317 0.00074427982 0.44000003
-0.22297858 0.00074427982 0.44000003
-0.221834 0.00074427982 0.44000003
-0.22068945 0.00074427982 0.44000003
-0.21954486 0.00074427982 0.44000003
-0.21840028 0.00074427982 0.44000003
-0.21725573 0.00074427982 0.44000003
-0.21611115 0.00074427982 0.44000003
-0.21496657 0.00074427982 0.44000003
-0.21382199 0.00074427982 0.44000003
-0.21267742 0.00074427982 0.44000003
-0.21153286 0.00074427982 0.44000003
-0.21038829 0.00074427982 0.44000003
-0.2092437 0.00074427982 0.44000003
-0.20809913 0.00074427982 0.44000003
-0.20695457 0.00074427982 0.44000003
-0.20581 0.00074427982 0.44000003
-0.20420025 0.00074258825 0.43900001
-0.20305829 0.00074258825 0.43900001
-0.20191632 0.00074258825 0.43900001
-0.2012317 0.00074427982 0.44000003
-0.20008713 0.00074427982 0.44000003
-0.19894254 0.00074427982 0.44000003
-0.19779797 0.00074427982 0.44000003
-0.19665341 0.00074427982 0.44000003
-0.19595316 0.00074597134 0.44100001
-0.19480599 0.00074597134 0.44100001
-0.19365881 0.00074597134 0.44100001
-0.19251163 0.00074597134 0.44100001
-0.19093055 0.00074427982 0.44000003
-0.18978597 0.00074427982 0.44000003
-0.1886414 0.00074427982 0.44000003
-0.18749681 0.00074427982 0.44000003
-0.18635225 0.00074427982 0.44000003
-0.18520768 0.00074427982 0.44000003
-0.18406311 0.00074427982 0.44000003
-0.18333426 0.00074597134 0.44100001
-0.18218707 0.00074597134 0.44100001
-0.1810399 0.00074597134 0.44100001
-0.17989273 0.00074597134 0.44100001
-0.17874555 0.00074597134 0.44100001
-0.17759837 0.00074597134 0.44100001
-0.17685132 0.00074766291 0.44200003
-0.17570154 0.00074766291 0.44200003
-0.17455177 0.00074766291 0.44200003
-0.17340201 0.00074766291 0.44200003
-0.17225222 0.00074766291 0.44200003
-0.17110245 0.00074766291 0.44200003
-0.16995268 0.00074766291 0.44200003
-0.1688029 0.00074766291 0.44200003
-0.16765313 0.00074766291 0.44200003
-0.16650334 0.00074766291 0.44200003
-0.16535357 0.00074766291 0.44200003
-0.16420379 0.00074766291 0.44200003
-0.16305402 0.00074766291 0.44200003
-0.16190425 0.00074766291 0.44200003
-0.16075446 0.00074766291 0.44200003
-0.1596047 0.00074766291 0.44200003
-0.15845492 0.00074766291 0.44200003
-0.15730515 0.00074766291 0.44200003
-0.15615536 0.00074766291 0.44200003
-0.15500559 0.00074766291 0.44200003
-0.15385582 0.00074766291 0.44200003
-0.15305153 0.00074935443 0.44300002
-0.15189916 0.00074935443 0.44300002
-0.15108706 0.000751046 0.44400004
-0.14993209 0.000751046 0.44400004
-0.14877711 0.000751046 0.44400004
-0.14762212 0.000751046 0.44400004
-0.14679703 0.00075273751 0.44500002
-0.14563943 0.00075273751 0.44500002
-0.14448187 0.00075273751 0.44500002
-0.14332429 0.00075273751 0.44500002
-0.14184724 0.000751046 0.44400004
-0.14100914 0.00075273751 0.44500002
-0.13985154 0.00075273751 0.44500002
-0.13869397 0.00075273751 0.44500002
-0.13753639 0.00075273751 0.44500002
-0.13637881 0.00075273751 0.44500002
-0.13522123 0.00075273751 0.44500002
-0.13406365 0.00075273751 0.44500002
-0.13290608 0.00075273751 0.44500002
-0.1317485 0.00075273751 0.44500002
-0.13059092 0.00075273751 0.44500002
-0.12943333 0.00075273751 0.44500002
-0.12827575 0.00075273751 0.44500002
-0.12711817 0.00075273751 0.44500002
-0.1259606 0.00075273751 0.44500002
-0.12480302 0.00075273751 0.44500002
-0.12364543 0.00075273751 0.44500002
-0.12248786 0.00075273751 0.44500002
-0.12133028 0.00075273751 0.44500002
-0.1201727 0.00075273751 0.44500002
-0.11901513 0.00075273751 0.44500002
-0.11785754 0.00075273751 0.44500002
-0.11669996 0.00075273751 0.44500002
-0.11554238 0.00075273751 0.44500002
-0.11438481 0.00075273751 0.44500002
-0.11322722 0.00075273751 0.44500002
-0.11206964 0.00075273751 0.44500002
-0.11091206 0.00075273751 0.44500002
-0.10975449 0.00075273751 0.44500002
-0.10859691 0.00075273751 0.44500002
-0.10743932 0.00075273751 0.44500002
-0.10628174 0.00075273751 0.44500002
-0.10512417 0.00075273751 0.44500002
-0.10396659 0.00075273751 0.44500002
-0.102809 0.00075273751 0.44500002
-0.10165143 0.00075273751 0.44500002
-0.10049385 0.00075273751 0.44500002
-0.099336267 0.00075273751 0.44500002
-0.098178692 0.00075273751 0.44500002
-0.09702111 0.00075273751 0.44500002
-0.09564811 0.000751046 0.44400004
-0.094705947 0.00075273751 0.44500002
-0.093548372 0.00075273751 0.44500002
-0.092390791 0.00075273751 0.44500002
-0.091233216 0.00075273751 0.44500002
-0.090075634 0.00075273751 0.44500002
-0.088918053 0.00075273751 0.44500002
-0.087957688 0.00075442903 0.44600001
-0.086797506 0.00075442903 0.44600001
-0.085637324 0.00075442903 0.44600001
-0.084477141 0.00075442903 0.44600001
-0.083316967 0.00075442903 0.44600001
-0.082156785 0.00075442903 0.44600001
-0.080996603 0.00075442903 0.44600001
-0.079836421 0.00075442903 0.44600001
-0.078499839 0.00075273751 0.44500002
-0.077342257 0.00075273751 0.44500002
-0.076184683 0.00075273751 0.44500002
-0.075027101 0.00075273751 0.44500002
-0.073869526 0.00075273751 0.44500002
-0.072711937 0.00075273751 0.44500002
-0.071554363 0.00075273751 0.44500002
-0.070396781 0.00075273751 0.44500002
-0.069239207 0.00075273751 0.44500002
-0.068081625 0.00075273751 0.44500002
-0.066924043 0.00075273751 0.44500002
-0.065766469 0.00075273751 0.44500002
-0.064608887 0.00075273751 0.44500002
-0.063451305 0.00075273751 0.44500002
-0.062293723 0.00075273751 0.44500002
-0.061136149 0.00075273751 0.44500002
-0.059978571 0.00075273751 0.44500002
-0.058820989 0.00075273751 0.44500002
-0.057663411 0.00075273751 0.44500002
-0.056632806 0.00075442903 0.44600001
-0.055472627 0.00075442903 0.44600001
-0.054312445 0.00075442903 0.44600001
-0.053152263 0.00075442903 0.44600001
-0.051992085 0.00075442903 0.44600001
-0.050831906 0.00075442903 0.44600001
-0.049671724 0.00075442903 0.44600001
-0.048511542 0.00075442903 0.44600001
-0.047245193 0.00075273751 0.44500002
-0.046087615 0.00075273751 0.44500002
-0.044930033 0.00075273751 0.44500002
-0.043575726 0.00074935443 0.44300002
-0.042231821 0.00074597134 0.44100001
-0.038438458 0.0007392051 0.43700001
-0.037130974 0.00073582208 0.43500003
-0.016207751 0.00066646875 0.39400002
-0.015182838 0.00066646875 0.39400002
-0.014193859 0.00066816027 0.39500001
-0.013166344 0.00066816027 0.39500001
-0.01213883 0.00066816027 0.39500001
-0.011139446 0.00066985184 0.39600003
-0.010109331 0.00066985184 0.39600003
-0.0091021415 0.00067154336 0.39700001
-0.0080490988 0.00066985184 0.39600003
-0.0070189834 0.00066985184 0.39600003
-0.0059888675 0.00066985184 0.39600003
-0.0049587516 0.00066985184 0.39600003
-0.0039286362 0.00066985184 0.39600003
-0.0028912011 0.00066816027 0.39500001
-0.0018636866 0.00066816027 0.39500001
-0.00083617237 0.00066816027 0.39500001
0.00019134193 0.00066816027 0.39500001
0.0012188563 0.00066816027 0.39500001
0.0022463705 0.00066816027 0.39500001
0.0032821731 0.00066985184 0.39600003
0.0053558955 0.00067154336 0.39700001
0.0063886126 0.00067154336 0.39700001
0.0074213292 0.00067154336 0.39700001
0.0084753409 0.00067323493 0.39800003
0.0095106596 0.00067323493 0.39800003
0.010545977 0.00067323493 0.39800003
0.011581296 0.00067323493 0.39800003
0.012616615 0.00067323493 0.39800003
0.013651934 0.00067323493 0.39800003
0.01468725 0.00067323493 0.39800003
0.015722569 0.00067323493 0.39800003
0.016757889 0.00067323493 0.39800003
0.017793205 0.00067323493 0.39800003
0.018828524 0.00067323493 0.39800003
0.019863842 0.00067323493 0.39800003
0.02089916 0.00067323493 0.39800003
0.021934479 0.00067323493 0.39800003
0.023027509 0.00067492644 0.39900002
0.024065427 0.00067492644 0.39900002
0.025103349 0.00067492644 0.39900002
0.026141267 0.00067492644 0.39900002
0.027179187 0.00067492644 0.39900002
0.028217107 0.00067492644 0.39900002
0.029255027 0.00067492644 0.39900002
0.030292947 0.00067492644 0.39900002
0.031252343 0.00067323493 0.39800003
0.032287661 0.00067323493 0.39800003
0.033322979 0.00067323493 0.39800003
0.034358297 0.00067323493 0.39800003
0.035393618 0.00067323493 0.39800003
0.036428936 0.00067323493 0.39800003
0.037464254 0.00067323493 0.39800003
0.038499571 0.00067323493 0.39800003
0.03963422 0.00067492644 0.39900002
0.040672142 0.00067492644 0.39900002
0.04171006 0.00067492644 0.39900002
0.042747982 0.00067492644 0.39900002
0.0437859 0.00067492644 0.39900002
0.044823822 0.00067492644 0.39900002
0.04586174 0.00067492644 0.39900002
0.046899658 0.00067492644 0.39900002
0.047937579 0.00067492644 0.39900002
0.049098242 0.00067661796 0.40000001
0.058616731 0.00075950369 0.44900003
0.059651569 0.00075781211 0.44800001
0.060952701 0.00075950369 0.44900003
0.06198233 0.00075781211 0.44800001
0.063288674 0.00075950369 0.44900003
0.064456657 0.00075950369 0.44900003
0.065624639 0.00075950369 0.44900003
0.066792622 0.00075950369 0.44900003
0.067960612 0.00075950369 0.44900003
0.069128595 0.00075950369 0.44900003
0.070296578 0.00075950369 0.44900003
0.071464568 0.00075950369 0.44900003
0.072632551 0.00075950369 0.44900003
0.073800534 0.00075950369 0.44900003
0.074968517 0.00075950369 0.44900003
0.076136507 0.00075950369 0.44900003
0.07730449 0.00075950369 0.44900003
0.078472473 0.00075950369 0.44900003
0.079640456 0.00075950369 0.44900003
0.080808438 0.00075950369 0.44900003
0.081976429 0.00075950369 0.44900003
0.083144411 0.00075950369 0.44900003
0.084312394 0.00075950369 0.44900003
0.085480385 0.00075950369 0.44900003
0.08664836 0.00075950369 0.44900003
0.08781635 0.00075950369 0.44900003
0.088984333 0.00075950369 0.44900003
0.090152323 0.00075950369 0.44900003
0.091320306 0.00075950369 0.44900003
0.092488289 0.00075950369 0.44900003
0.093656272 0.00075950369 0.44900003
0.095035441 0.00076119526 0.45000002
0.096206032 0.00076119526 0.45000002
0.097376615 0.00076119526 0.45000002
0.098547198 0.00076119526 0.45000002
0.099717788 0.00076119526 0.45000002
0.10088837 0.00076119526 0.45000002
0.10205896 0.00076119526 0.45000002
0.10322955 0.00076119526 0.45000002
0.10440014 0.00076119526 0.45000002
0.10557072 0.00076119526 0.45000002
0.1067413 0.00076119526 0.45000002
0.10791189 0.00076119526 0.45000002
0.10884007 0.00075950369 0.44900003
0.11000806 0.00075950369 0.44900003
0.11117604 0.00075950369 0.44900003
0.11234403 0.00075950369 0.44900003
0.11351201 0.00075950369 0.44900003
0.11468 0.00075950369 0.44900003
0.11584798 0.00075950369 0.44900003
0.11701597 0.00075950369 0.44900003
0.11844716 0.00076119526 0.45000002
0.11961775 0.00076119526 0.45000002
0.12078834 0.00076119526 0.45000002
0.12195892 0.00076119526 0.45000002
0.1231295 0.00076119526 0.45000002
0.12430009 0.00076119526 0.45000002
0.12547068 0.00076119526 0.45000002
0.1269227 0.00076288683 0.45100003
0.12809588 0.00076288683 0.45100003
0.12926906 0.00076288683 0.45100003
0.13044225 0.00076288683 0.45100003
0.13132362 0.00076119526 0.45000002
0.1324942 0.00076119526 0.45000002
0.13366479 0.00076119526 0.45000002
0.13483536 0.00076119526 0.45000002
0.13600595 0.00076119526 0.45000002
0.13717654 0.00076119526 0.45000002
0.13834712 0.00076119526 0.45000002
0.13951771 0.00076119526 0.45000002
0.14068829 0.00076119526 0.45000002
0.14185889 0.00076119526 0.45000002
0.14334732 0.00076288683 0.45100003
0.14452051 0.00076288683 0.45100003
0.14569369 0.00076288683 0.45100003
0.14686687 0.00076288683 0.45100003
0.14804007 0.00076288683 0.45100003
0.14921325 0.00076288683 0.45100003
0.15038644 0.00076288683 0.45100003
0.15122357 0.00076119526 0.45000002
0.15239415 0.00076119526 0.45000002
0.15356475 0.00076119526 0.45000002
0.15473533 0.00076119526 0.45000002
0.15590592 0.00076119526 0.45000002
0.15707649 0.00076119526 0.45000002
0.15824708 0.00076119526 0.45000002
