# .PCD v0.7 - Point Cloud Data file format
VERSION 0.7
FIELDS x y z
SIZE 4 4 4
TYPE F F F
COUNT 1 1 1
WIDTH 1376
HEIGHT 1
VIEWPOINT 0 0 0 1 0 0 0
POINTS 1376
DATA ascii
0.11137199 -0.10249025 0.58500004
0.11289375 -0.10249025 0.58500004
0.1146111 -0.10266544 0.58600003
0.11613546 -0.10266544 0.58600003
0.1178606 -0.10284063 0.58700001
0.11938757 -0.10284063 0.58700001
0.12132651 -0.10319103 0.58900005
0.12285868 -0.10319103 0.58900005
0.12439084 -0.10319103 0.58900005
0.12613679 -0.10336623 0.59000003
0.12767157 -0.10336623 0.59000003
0.12920633 -0.10336623 0.59000003
0.1309627 -0.10354143 0.59100002
0.13250007 -0.10354143 0.59100002
0.13403744 -0.10354143 0.59100002
0.13580419 -0.10371662 0.59200001
0.13734418 -0.10371662 0.59200001
0.13888414 -0.10371662 0.59200001
0.14066133 -0.10389183 0.59300005
0.1424437 -0.10406702 0.59400004
0.14398888 -0.10406702 0.59400004
0.14553405 -0.10406702 0.59400004
0.14732683 -0.10424221 0.59500003
0.1488746 -0.10424221 0.59500003
0.15042236 -0.10424221 0.59500003
0.15222557 -0.10441741 0.59600002
0.15403394 -0.10459261 0.597
0.15558691 -0.10459261 0.597
0.1571399 -0.10459261 0.597
0.15895872 -0.10476781 0.59800005
0.1605143 -0.10476781 0.59800005
0.16206986 -0.10476781 0.59800005
0.16389905 -0.10494301 0.59900004
0.16573346 -0.1051182 0.60000002
0.16757306 -0.10529339 0.60100001
0.16913645 -0.10529339 0.60100001
0.17098387 -0.1054686 0.60200006
0.17254984 -0.1054686 0.60200006
0.17440505 -0.10564379 0.60300004
0.17626548 -0.10581899 0.60400003
0.17783666 -0.10581899 0.60400003
0.17940784 -0.10581899 0.60400003
0.18127866 -0.10599418 0.60500002
0.18285243 -0.10599418 0.60500002
0.18473107 -0.10616938 0.60600001
0.18661492 -0.10634458 0.60700005
0.1881939 -0.10634458 0.60700005
0.18977289 -0.10634458 0.60700005
0.19166712 -0.10651977 0.60800004
0.19324872 -0.10651977 0.60800004
0.19515075 -0.10669497 0.60900003
0.19705798 -0.10687017 0.61000001
0.19864476 -0.10687017 0.61000001
0.20055981 -0.10704536 0.611
0.20214921 -0.10704536 0.611
0.20407207 -0.10722057 0.61200005
0.2060001 -0.10739576 0.61300004
0.20793335 -0.10757095 0.61400002
0.20953056 -0.10757095 0.61400002
0.21147162 -0.10774615 0.61500001
0.21341789 -0.10792135 0.61600006
0.21502028 -0.10792135 0.61600006
0.21697433 -0.10809655 0.61700004
0.21857935 -0.10809655 0.61700004
0.22018436 -0.10809655 0.61700004
0.22214881 -0.10827175 0.61800003
0.22375642 -0.10827175 0.61800003
0.22572869 -0.10844694 0.61900002
0.2273389 -0.10844694 0.61900002
0.2289491 -0.10844694 0.61900002
0.2305593 -0.10844694 0.61900002
0.23254457 -0.10862213 0.62
0.2341574 -0.10862213 0.62
0.23615049 -0.10879734 0.62100005
0.23776589 -0.10879734 0.62100005
0.2393813 -0.10879734 0.62100005
0.2409967 -0.10879734 0.62100005
0.24261212 -0.10879734 0.62100005
0.24422753 -0.10879734 0.62100005
0.24623881 -0.10897253 0.62200004
0.24785681 -0.10897253 0.62200004
0.24947482 -0.10897253 0.62200004
0.25149652 -0.10914773 0.62300003
0.25352341 -0.10932293 0.62400001
0.25514662 -0.10932293 0.62400001
0.25718132 -0.10949812 0.625
0.25922126 -0.10967332 0.62600005
0.26126635 -0.10984852 0.62700003
0.26331666 -0.11002371 0.62800002
0.26495028 -0.11002371 0.62800002
0.26700836 -0.11019891 0.62900001
0.2686446 -0.11019891 0.62900001
0.27071056 -0.11037412 0.63000005
0.27278167 -0.11054931 0.63100004
0.27485797 -0.1107245 0.63200003
0.27693948 -0.11089969 0.63300002
0.27858612 -0.11089969 0.63300002
0.28067544 -0.11107489 0.634
0.28277001 -0.1112501 0.63500005
0.28442183 -0.1112501 0.63500005
0.28652415 -0.1114253 0.63600004
0.28817859 -0.1114253 0.63600004
0.29028872 -0.11160049 0.63700002
0.29194576 -0.11160049 0.63700002
0.29360276 -0.11160049 0.63700002
0.29572332 -0.11177568 0.63800001
0.29738295 -0.11177568 0.63800001
0.29904258 -0.11177568 0.63800001
0.30070221 -0.11177568 0.63800001
0.30283576 -0.11195089 0.63900006
0.30402148 -0.11177568 0.63800001
0.30616024 -0.11195089 0.63900006
0.30782247 -0.11195089 0.63900006
0.30948472 -0.11195089 0.63900006
0.31114694 -0.11195089 0.63900006
-0.26474842 -0.082155548 0.47600001
-0.26351023 -0.082155548 0.47600001
-0.26282302 -0.082328141 0.47700003
-0.2615822 -0.082328141 0.47700003
-0.26088715 -0.082500741 0.47800002
-0.26018691 -0.082673334 0.47900003
-0.25894091 -0.082673334 0.47900003
-0.25823286 -0.082845926 0.48000002
-0.25698423 -0.082845926 0.48000002
-0.25626841 -0.083018526 0.48100004
-0.25554734 -0.083191119 0.48200002
-0.25429353 -0.083191119 0.48200002
-0.25356466 -0.083363712 0.48300001
-0.25230825 -0.083363712 0.48300001
-0.25105181 -0.083363712 0.48300001
-0.25031254 -0.083536312 0.48400003
-0.24905354 -0.083536312 0.48400003
-0.24779449 -0.083536312 0.48400003
-0.24653548 -0.083536312 0.48400003
-0.24578321 -0.083708905 0.48500001
-0.24452156 -0.083708905 0.48500001
-0.24325995 -0.083708905 0.48500001
-0.24249728 -0.083881505 0.48600003
-0.24123305 -0.083881505 0.48600003
-0.23996882 -0.083881505 0.48600003
-0.23919575 -0.084054098 0.48700002
-0.2379289 -0.084054098 0.48700002
-0.23666207 -0.084054098 0.48700002
-0.23539524 -0.084054098 0.48700002
-0.2341284 -0.084054098 0.48700002
-0.23286158 -0.084054098 0.48700002
-0.23159473 -0.084054098 0.48700002
-0.2303279 -0.084054098 0.48700002
-0.22906107 -0.084054098 0.48700002
-0.22779423 -0.084054098 0.48700002
-0.22652739 -0.084054098 0.48700002
-0.22526056 -0.084054098 0.48700002
-0.22399373 -0.084054098 0.48700002
-0.2227269 -0.084054098 0.48700002
-0.22146006 -0.084054098 0.48700002
-0.22064537 -0.084226698 0.48800004
-0.21937594 -0.084226698 0.48800004
-0.21855344 -0.08439929 0.48900002
-0.2172814 -0.08439929 0.48900002
-0.21645111 -0.084571883 0.49000001
-0.21517645 -0.084571883 0.49000001
-0.21433836 -0.084744483 0.49100003
-0.21349505 -0.084917076 0.49200001
-0.21221521 -0.084917076 0.49200001
-0.21136412 -0.085089676 0.49300003
-0.21008167 -0.085089676 0.49300003
-0.20922275 -0.085262269 0.49400002
-0.2079377 -0.085262269 0.49400002
-0.20707099 -0.085434869 0.49500003
-0.20578335 -0.085434869 0.49500003
-0.2044957 -0.085434869 0.49500003
-0.20361857 -0.085607462 0.49600002
-0.20232832 -0.085607462 0.49600002
-0.20103809 -0.085607462 0.49600002
-0.19974783 -0.085607462 0.49600002
-0.19885769 -0.085780054 0.49700001
-0.19756486 -0.085780054 0.49700001
-0.19666693 -0.085952654 0.49800003
-0.19537148 -0.085952654 0.49800003
-0.19407603 -0.085952654 0.49800003
-0.19278058 -0.085952654 0.49800003
-0.19148514 -0.085952654 0.49800003
-0.19057159 -0.086125247 0.49900001
-0.18927355 -0.086125247 0.49900001
-0.18797548 -0.086125247 0.49900001
-0.18667744 -0.086125247 0.49900001
-0.18537939 -0.086125247 0.49900001
-0.18445024 -0.08629784 0.5
-0.18278329 -0.086125247 0.49900001
-0.18184893 -0.08629784 0.5
-0.18054828 -0.08629784 0.5
-0.17924763 -0.08629784 0.5
-0.17794698 -0.08629784 0.5
-0.17699963 -0.08647044 0.50100005
-0.17569639 -0.08647044 0.50100005
-0.17474122 -0.08664304 0.50200003
-0.17343538 -0.08664304 0.50200003
-0.1724724 -0.086815633 0.50300002
-0.17150421 -0.086988226 0.50400001
-0.17019317 -0.086988226 0.50400001
-0.16921718 -0.087160818 0.505
-0.16823603 -0.087333418 0.50600004
-0.16724965 -0.087506011 0.50700003
-0.16593078 -0.087506011 0.50700003
-0.1649366 -0.087678611 0.50800002
-0.16393721 -0.087851204 0.509
-0.16261315 -0.087851204 0.509
-0.16160598 -0.088023804 0.51000005
-0.1602793 -0.088023804 0.51000005
-0.15926431 -0.088196397 0.51100004
-0.15793505 -0.088196397 0.51100004
-0.1566058 -0.088196397 0.51100004
-0.15527651 -0.088196397 0.51100004
-0.15394725 -0.088196397 0.51100004
-0.15261799 -0.088196397 0.51100004
-0.15128872 -0.088196397 0.51100004
-0.14995946 -0.088196397 0.51100004
-0.14863019 -0.088196397 0.51100004
-0.14730093 -0.088196397 0.51100004
-0.14597166 -0.088196397 0.51100004
-0.1446424 -0.088196397 0.51100004
-0.14331314 -0.088196397 0.51100004
-0.14226171 -0.08836899 0.51200002
-0.14092985 -0.08836899 0.51200002
-0.13959798 -0.08836899 0.51200002
-0.13826612 -0.08836899 0.51200002
-0.13693425 -0.08836899 0.51200002
-0.13560238 -0.08836899 0.51200002
-0.13453276 -0.088541582 0.51300001
-0.13319829 -0.088541582 0.51300001
-0.13212086 -0.088714182 0.514
-0.13103825 -0.088886783 0.51500005
-0.12969857 -0.088886783 0.51500005
-0.12860815 -0.089059375 0.51600003
-0.12726587 -0.089059375 0.51600003
-0.1259236 -0.089059375 0.51600003
-0.12482277 -0.089231968 0.51700002
-0.12347789 -0.089231968 0.51700002
-0.12236925 -0.089404561 0.51800001
-0.12102178 -0.089404561 0.51800001
-0.11990534 -0.089577168 0.51900005
-0.11855527 -0.089577168 0.51900005
-0.11720519 -0.089577168 0.51900005
-0.11585511 -0.089577168 0.51900005
-0.11450505 -0.089577168 0.51900005
-0.11337298 -0.089749761 0.52000004
-0.11202031 -0.089749761 0.52000004
-0.11088045 -0.089922354 0.52100003
-0.10952517 -0.089922354 0.52100003
-0.10816989 -0.089922354 0.52100003
-0.10701963 -0.090094946 0.52200001
-0.10566176 -0.090094946 0.52200001
-0.10430387 -0.090094946 0.52200001
-0.10314321 -0.090267539 0.523
-0.10178272 -0.090267539 0.523
-0.10042224 -0.090267539 0.523
-0.099251181 -0.090440147 0.52400005
-0.097888097 -0.090440147 0.52400005
-0.096525021 -0.090440147 0.52400005
-0.095343538 -0.090612739 0.52500004
-0.093977854 -0.090612739 0.52500004
-0.09261217 -0.090612739 0.52500004
-0.091420285 -0.090785332 0.52600002
-0.090052009 -0.090785332 0.52600002
-0.088683717 -0.090785332 0.52600002
-0.087481432 -0.090957925 0.52700001
-0.08611054 -0.090957925 0.52700001
-0.084739663 -0.090957925 0.52700001
-0.083368771 -0.090957925 0.52700001
-0.081997886 -0.090957925 0.52700001
-0.080779992 -0.091130517 0.528
-0.0794065 -0.091130517 0.528
-0.078180812 -0.091303125 0.52900004
-0.07680472 -0.091303125 0.52900004
-0.075428635 -0.091303125 0.52900004
-0.074192524 -0.091475718 0.53000003
-0.072813839 -0.091475718 0.53000003
-0.071569934 -0.09164831 0.53100002
-0.070188634 -0.09164831 0.53100002
-0.068936929 -0.091820903 0.53200001
-0.067553028 -0.091820903 0.53200001
-0.066293523 -0.091993503 0.53300005
-0.065028809 -0.092166103 0.53400004
-0.063639708 -0.092166103 0.53400004
-0.062367186 -0.092338696 0.53500003
-0.060975492 -0.092338696 0.53500003
-0.059695166 -0.092511289 0.53600001
-0.058300868 -0.092511289 0.53600001
-0.05690657 -0.092511289 0.53600001
-0.055512272 -0.092511289 0.53600001
-0.054117974 -0.092511289 0.53600001
-0.05272368 -0.092511289 0.53600001
-0.051329378 -0.092511289 0.53600001
-0.04993508 -0.092511289 0.53600001
-0.048540782 -0.092511289 0.53600001
-0.047234442 -0.092683882 0.537
-0.045837544 -0.092683882 0.537
-0.044523403 -0.092856482 0.53800005
-0.043123908 -0.092856482 0.53800005
-0.041724406 -0.092856482 0.53800005
-0.040399857 -0.093029074 0.53900003
-0.038997754 -0.093029074 0.53900003
-0.037665401 -0.093201667 0.54000002
-0.036260698 -0.093201667 0.54000002
-0.034855999 -0.093201667 0.54000002
-0.033513241 -0.093374267 0.54100001
-0.032165285 -0.093546867 0.54200006
-0.030755376 -0.093546867 0.54200006
-0.029345471 -0.093546867 0.54200006
-0.027987108 -0.09371946 0.54300004
-0.02662354 -0.093892053 0.54400003
-0.02520843 -0.093892053 0.54400003
-0.02383706 -0.094064645 0.54500002
-0.02241935 -0.094064645 0.54500002
-0.021040175 -0.094237238 0.546
-0.019619865 -0.094237238 0.546
-0.018232888 -0.094409846 0.54700005
-0.016809976 -0.094409846 0.54700005
-0.015415193 -0.094582438 0.54800004
-0.01398968 -0.094582438 0.54800004
-0.012587093 -0.094755031 0.54900002
-0.011158978 -0.094755031 0.54900002
-0.0097485874 -0.094927624 0.55000001
-0.0083329948 -0.095100217 0.551
-0.0068996768 -0.095100217 0.551
-0.005476281 -0.095272824 0.55200005
-0.0040403623 -0.095272824 0.55200005
-0.0026091614 -0.095445417 0.55300003
-0.0011706414 -0.095445417 0.55300003
0.0002678787 -0.095445417 0.55300003
0.0017063988 -0.095445417 0.55300003
0.0031506058 -0.09561801 0.55400002
0.0045917272 -0.09561801 0.55400002
0.0060328483 -0.09561801 0.55400002
0.0074739698 -0.09561801 0.55400002
0.0089311833 -0.095790602 0.55500001
0.010374906 -0.095790602 0.55500001
0.011818628 -0.095790602 0.55500001
0.013286249 -0.09596321 0.55600005
0.014732572 -0.09596321 0.55600005
0.016178897 -0.09596321 0.55600005
0.01762522 -0.09596321 0.55600005
0.019105846 -0.096135803 0.55700004
0.02055477 -0.096135803 0.55700004
0.0220432 -0.096308395 0.55800003
0.023536831 -0.096480988 0.55900002
0.024990957 -0.096480988 0.55900002
0.026492393 -0.096653581 0.56
0.027949123 -0.096653581 0.56
0.029458364 -0.096826188 0.56100005
0.030972807 -0.096998781 0.56200004
0.032434739 -0.096998781 0.56200004
0.033956982 -0.097171374 0.56300002
0.035421517 -0.097171374 0.56300002
0.036951564 -0.097343966 0.56400001
0.038418699 -0.097343966 0.56400001
0.039956551 -0.097516559 0.565
0.04142629 -0.097516559 0.565
0.042896025 -0.097516559 0.565
0.04436576 -0.097516559 0.565
0.045835495 -0.097516559 0.565
0.04730523 -0.097516559 0.565
0.048774965 -0.097516559 0.565
0.050333634 -0.097689159 0.56600004
0.051805973 -0.097689159 0.56600004
0.053278312 -0.097689159 0.56600004
0.054750644 -0.097689159 0.56600004
0.056322314 -0.097861759 0.56700003
0.057797253 -0.097861759 0.56700003
0.059272192 -0.097861759 0.56700003
0.060854267 -0.098034352 0.56800002
0.062331807 -0.098034352 0.56800002
0.06392169 -0.098206945 0.56900001
0.065401822 -0.098206945 0.56900001
0.066999517 -0.098379545 0.57000005
0.068482257 -0.098379545 0.57000005
0.069964997 -0.098379545 0.57000005
0.071573086 -0.098552138 0.57100004
0.073058434 -0.098552138 0.57100004
0.074543774 -0.098552138 0.57100004
0.076029122 -0.098552138 0.57100004
0.077650212 -0.09872473 0.57200003
0.079138152 -0.09872473 0.57200003
0.0806261 -0.09872473 0.57200003
0.082257599 -0.09889733 0.57300001
0.083748147 -0.09889733 0.57300001
0.085387446 -0.099069923 0.574
0.086880602 -0.099069923 0.574
0.088527709 -0.099242523 0.57500005
0.090180017 -0.099415116 0.57600003
0.091678374 -0.099415116 0.57600003
0.093338482 -0.099587709 0.57700002
0.095003806 -0.099760301 0.57800001
0.096674331 -0.099932909 0.57900006
0.098350056 -0.1001055 0.58000004
0.099858806 -0.1001055 0.58000004
0.10154232 -0.10027809 0.58100003
0.10323106 -0.10045069 0.58200002
0.10474502 -0.10045069 0.58200002
0.10644155 -0.10062328 0.583
0.1079581 -0.10062328 0.583
0.10947466 -0.10062328 0.583
0.11137199 -0.10096848 0.58500004
0.11289375 -0.10096848 0.58500004
0.1146111 -0.10114107 0.58600003
0.11613546 -0.10114107 0.58600003
0.1178606 -0.10131367 0.58700001
0.11938757 -0.10131367 0.58700001
0.12112051 -0.10148626 0.588
0.12285868 -0.10165887 0.58900005
0.12460203 -0.10183146 0.59000003
0.12613679 -0.10183146 0.59000003
0.12767157 -0.10183146 0.59000003
0.12942532 -0.10200405 0.59100002
0.1309627 -0.10200405 0.59100002
0.13250007 -0.10200405 0.59100002
0.13403744 -0.10200405 0.59100002
0.13580419 -0.10217664 0.59200001
0.13734418 -0.10217664 0.59200001
0.13888414 -0.10217664 0.59200001
0.14066133 -0.10234924 0.59300005
0.1424437 -0.10252184 0.59400004
0.14398888 -0.10252184 0.59400004
0.14553405 -0.10252184 0.59400004
0.14732683 -0.10269444 0.59500003
0.1488746 -0.10269444 0.59500003
0.15042236 -0.10269444 0.59500003
0.15222557 -0.10286703 0.59600002
0.15403394 -0.10303962 0.597
0.15558691 -0.10303962 0.597
0.1571399 -0.10303962 0.597
0.15895872 -0.10321222 0.59800005
0.1605143 -0.10321222 0.59800005
0.16206986 -0.10321222 0.59800005
0.16389905 -0.10338482 0.59900004
0.16573346 -0.10355742 0.60000002
0.16729425 -0.10355742 0.60000002
0.16913645 -0.10373001 0.60100001
0.17069982 -0.10373001 0.60100001
0.17254984 -0.10390261 0.60200006
0.17440505 -0.1040752 0.60300004
0.17626548 -0.10424779 0.60400003
0.17783666 -0.10424779 0.60400003
0.17970487 -0.10442039 0.60500002
0.18127866 -0.10442039 0.60500002
0.18285243 -0.10442039 0.60500002
0.18473107 -0.10459299 0.60600001
0.18661492 -0.10476559 0.60700005
0.1881939 -0.10476559 0.60700005
0.18977289 -0.10476559 0.60700005
0.19166712 -0.10493818 0.60800004
0.19324872 -0.10493818 0.60800004
0.19515075 -0.10511077 0.60900003
0.19705798 -0.10528336 0.61000001
0.19864476 -0.10528336 0.61000001
0.20055981 -0.10545596 0.611
0.20248008 -0.10562856 0.61200005
0.20440552 -0.10580116 0.61300004
0.2060001 -0.10580116 0.61300004
0.20793335 -0.10597375 0.61400002
0.20987181 -0.10614634 0.61500001
0.21181549 -0.10631895 0.61600006
0.21341789 -0.10631895 0.61600006
0.21536933 -0.10649154 0.61700004
0.21697433 -0.10649154 0.61700004
0.21893361 -0.10666414 0.61800003
0.22054121 -0.10666414 0.61800003
0.22250827 -0.10683673 0.61900002
0.22411847 -0.10683673 0.61900002
0.22572869 -0.10683673 0.61900002
0.2273389 -0.10683673 0.61900002
0.22931896 -0.10700932 0.62
0.23093176 -0.10700932 0.62
0.23254457 -0.10700932 0.62
0.23453508 -0.10718193 0.62100005
0.23615049 -0.10718193 0.62100005
0.23776589 -0.10718193 0.62100005
0.2393813 -0.10718193 0.62100005
0.2409967 -0.10718193 0.62100005
0.24261212 -0.10718193 0.62100005
0.24422753 -0.10718193 0.62100005
0.24623881 -0.10735452 0.62200004
0.24785681 -0.10735452 0.62200004
0.24947482 -0.10735452 0.62200004
0.25149652 -0.10752711 0.62300003
0.25352341 -0.10769971 0.62400001
0.25514662 -0.10769971 0.62400001
0.25759283 -0.1080449 0.62600005
0.25922126 -0.1080449 0.62600005
0.26126635 -0.1082175 0.62700003
0.26331666 -0.10839009 0.62800002
0.26495028 -0.10839009 0.62800002
0.26700836 -0.10856269 0.62900001
0.26907173 -0.10873529 0.63000005
0.27114025 -0.10890788 0.63100004
0.27278167 -0.10890788 0.63100004
0.27485797 -0.10908047 0.63200003
0.27693948 -0.10925307 0.63300002
0.27858612 -0.10925307 0.63300002
0.28067544 -0.10942566 0.634
0.28277001 -0.10959826 0.63500005
0.28486973 -0.10977086 0.63600004
0.28652415 -0.10977086 0.63600004
0.28817859 -0.10977086 0.63600004
0.29028872 -0.10994345 0.63700002
0.29194576 -0.10994345 0.63700002
0.29360276 -0.10994345 0.63700002
0.29572332 -0.11011604 0.63800001
0.29738295 -0.11011604 0.63800001
0.29904258 -0.11011604 0.63800001
0.30070221 -0.11011604 0.63800001
0.30283576 -0.11028865 0.63900006
0.30402148 -0.11011604 0.63800001
0.30616024 -0.11028865 0.63900006
0.30782247 -0.11028865 0.63900006
0.30948472 -0.11028865 0.63900006
0.31114694 -0.11028865 0.63900006
-0.26474842 -0.080917329 0.47600001
-0.26406384 -0.081087328 0.47700003
-0.26282302 -0.081087328 0.47700003
-0.26213059 -0.081257321 0.47800002
-0.26088715 -0.081257321 0.47800002
-0.26018691 -0.081427313 0.47900003
-0.25948149 -0.081597306 0.48000002
-0.25823286 -0.081597306 0.48000002
-0.25751963 -0.081767306 0.48100004
-0.25626841 -0.081767306 0.48100004
-0.25554734 -0.081937298 0.48200002
-0.25429353 -0.081937298 0.48200002
-0.25356466 -0.082107291 0.48300001
-0.25230825 -0.082107291 0.48300001
-0.25105181 -0.082107291 0.48300001
-0.25031254 -0.082277283 0.48400003
-0.24905354 -0.082277283 0.48400003
-0.24779449 -0.082277283 0.48400003
-0.24653548 -0.082277283 0.48400003
-0.24578321 -0.082447276 0.48500001
-0.24452156 -0.082447276 0.48500001
-0.24325995 -0.082447276 0.48500001
-0.24249728 -0.082617275 0.48600003
-0.24123305 -0.082617275 0.48600003
-0.23996882 -0.082617275 0.48600003
-0.23919575 -0.082787268 0.48700002
-0.2379289 -0.082787268 0.48700002
-0.23666207 -0.082787268 0.48700002
-0.23539524 -0.082787268 0.48700002
-0.23460917 -0.082957268 0.48800004
-0.23333974 -0.082957268 0.48800004
-0.23159473 -0.082787268 0.48700002
-0.2303279 -0.082787268 0.48700002
-0.22906107 -0.082787268 0.48700002
-0.22779423 -0.082787268 0.48700002
-0.22652739 -0.082787268 0.48700002
-0.22526056 -0.082787268 0.48700002
-0.22399373 -0.082787268 0.48700002
-0.2227269 -0.082787268 0.48700002
-0.22191481 -0.082957268 0.48800004
-0.22064537 -0.082957268 0.48800004
-0.21937594 -0.082957268 0.48800004
-0.21810651 -0.082957268 0.48800004
-0.2172814 -0.08312726 0.48900002
-0.21645111 -0.083297253 0.49000001
-0.21517645 -0.083297253 0.49000001
-0.21433836 -0.083467245 0.49100003
-0.21306112 -0.083467245 0.49100003
-0.21221521 -0.083637238 0.49200001
-0.21093537 -0.083637238 0.49200001
-0.21008167 -0.083807237 0.49300003
-0.20922275 -0.08397723 0.49400002
-0.2079377 -0.08397723 0.49400002
-0.20665267 -0.08397723 0.49400002
-0.20578335 -0.084147222 0.49500003
-0.2044957 -0.084147222 0.49500003
-0.20361857 -0.084317215 0.49600002
-0.20232832 -0.084317215 0.49600002
-0.20103809 -0.084317215 0.49600002
-0.19974783 -0.084317215 0.49600002
-0.19885769 -0.084487207 0.49700001
-0.19756486 -0.084487207 0.49700001
-0.19666693 -0.084657207 0.49800003
-0.19537148 -0.084657207 0.49800003
-0.19407603 -0.084657207 0.49800003
-0.19278058 -0.084657207 0.49800003
-0.19148514 -0.084657207 0.49800003
-0.19057159 -0.0848272 0.49900001
-0.18927355 -0.0848272 0.49900001
-0.18797548 -0.0848272 0.49900001
-0.18667744 -0.0848272 0.49900001
-0.18537939 -0.0848272 0.49900001
-0.18445024 -0.084997192 0.5
-0.18278329 -0.0848272 0.49900001
-0.18184893 -0.084997192 0.5
-0.18054828 -0.084997192 0.5
-0.17924763 -0.084997192 0.5
-0.17794698 -0.084997192 0.5
-0.17699963 -0.085167192 0.50100005
-0.17569639 -0.085167192 0.50100005
-0.17474122 -0.085337184 0.50200003
-0.17343538 -0.085337184 0.50200003
-0.17212951 -0.085337184 0.50200003
-0.17116393 -0.085507177 0.50300002
-0.17019317 -0.085677169 0.50400001
-0.16921718 -0.085847162 0.505
-0.16823603 -0.086017169 0.50600004
-0.16724965 -0.086187154 0.50700003
-0.16593078 -0.086187154 0.50700003
-0.1649366 -0.086357147 0.50800002
-0.16393721 -0.086527139 0.509
-0.16261315 -0.086527139 0.509
-0.16160598 -0.086697146 0.51000005
-0.1602793 -0.086697146 0.51000005
-0.15926431 -0.086867139 0.51100004
-0.15793505 -0.086867139 0.51100004
-0.1566058 -0.086867139 0.51100004
-0.15527651 -0.086867139 0.51100004
-0.15394725 -0.086867139 0.51100004
-0.15261799 -0.086867139 0.51100004
-0.15128872 -0.086867139 0.51100004
-0.14995946 -0.086867139 0.51100004
-0.14863019 -0.086867139 0.51100004
-0.14730093 -0.086867139 0.51100004
-0.14597166 -0.086867139 0.51100004
-0.1446424 -0.086867139 0.51100004
-0.14331314 -0.086867139 0.51100004
-0.14198385 -0.086867139 0.51100004
-0.14092985 -0.087037131 0.51200002
-0.13959798 -0.087037131 0.51200002
-0.13826612 -0.087037131 0.51200002
-0.13693425 -0.087037131 0.51200002
-0.13586722 -0.087207124 0.51300001
-0.13453276 -0.087207124 0.51300001
-0.13345793 -0.087377116 0.514
-0.13237792 -0.087547116 0.51500005
-0.13103825 -0.087547116 0.51500005
-0.12995042 -0.087717108 0.51600003
-0.12860815 -0.087717108 0.51600003
-0.12726587 -0.087717108 0.51600003
-0.12616764 -0.087887101 0.51700002
-0.12482277 -0.087887101 0.51700002
-0.12371672 -0.088057093 0.51800001
-0.12236925 -0.088057093 0.51800001
-0.12125542 -0.088227093 0.51900005
-0.11990534 -0.088227093 0.51900005
-0.11855527 -0.088227093 0.51900005
-0.11743101 -0.088397086 0.52000004
-0.11607834 -0.088397086 0.52000004
-0.11472566 -0.088397086 0.52000004
-0.11337298 -0.088397086 0.52000004
-0.11223573 -0.088567078 0.52100003
-0.11088045 -0.088567078 0.52100003
-0.10952517 -0.088567078 0.52100003
-0.10816989 -0.088567078 0.52100003
-0.10701963 -0.088737071 0.52200001
-0.10566176 -0.088737071 0.52200001
-0.10430387 -0.088737071 0.52200001
-0.10314321 -0.088907063 0.523
-0.10178272 -0.088907063 0.523
-0.10042224 -0.088907063 0.523
-0.099251181 -0.089077063 0.52400005
-0.097888097 -0.089077063 0.52400005
-0.096709222 -0.089247055 0.52500004
-0.095343538 -0.089247055 0.52500004
-0.093977854 -0.089247055 0.52500004
-0.09261217 -0.089247055 0.52500004
-0.091420285 -0.089417048 0.52600002
-0.090052009 -0.089417048 0.52600002
-0.088683717 -0.089417048 0.52600002
-0.087481432 -0.08958704 0.52700001
-0.08611054 -0.08958704 0.52700001
-0.084739663 -0.08958704 0.52700001
-0.083368771 -0.08958704 0.52700001
-0.081997886 -0.08958704 0.52700001
-0.080779992 -0.089757033 0.528
-0.0794065 -0.089757033 0.528
-0.078033015 -0.089757033 0.528
-0.07680472 -0.08992704 0.52900004
-0.075428635 -0.08992704 0.52900004
-0.074052542 -0.08992704 0.52900004
-0.072813839 -0.090097032 0.53000003
-0.071569934 -0.090267017 0.53100002
-0.070188634 -0.090267017 0.53100002
-0.068936929 -0.09043701 0.53200001
-0.067553028 -0.09043701 0.53200001
-0.066293523 -0.090607017 0.53300005
-0.065028809 -0.09077701 0.53400004
-0.063639708 -0.09077701 0.53400004
-0.062250614 -0.09077701 0.53400004
-0.060975492 -0.090947002 0.53500003
-0.059583798 -0.090947002 0.53500003
-0.058300868 -0.091116995 0.53600001
-0.05690657 -0.091116995 0.53600001
-0.055512272 -0.091116995 0.53600001
-0.054117974 -0.091116995 0.53600001
-0.05272368 -0.091116995 0.53600001
-0.051329378 -0.091116995 0.53600001
-0.04993508 -0.091116995 0.53600001
-0.048631344 -0.091286987 0.537
-0.047234442 -0.091286987 0.537
-0.045837544 -0.091286987 0.537
-0.044523403 -0.091456987 0.53800005
-0.043123908 -0.091456987 0.53800005
-0.041801959 -0.091626979 0.53900003
-0.040399857 -0.091626979 0.53900003
-0.038997754 -0.091626979 0.53900003
-0.037665401 -0.091796972 0.54000002
-0.036260698 -0.091796972 0.54000002
-0.034920547 -0.091966964 0.54100001
-0.033575188 -0.092136964 0.54200006
-0.032165285 -0.092136964 0.54200006
-0.030755376 -0.092136964 0.54200006
-0.029399613 -0.092306957 0.54300004
-0.027987108 -0.092306957 0.54300004
-0.02662354 -0.092476949 0.54400003
-0.025254769 -0.092646942 0.54500002
-0.02383706 -0.092646942 0.54500002
-0.022460487 -0.092816934 0.546
-0.021040175 -0.092816934 0.546
-0.019619865 -0.092816934 0.546
-0.018232888 -0.092986934 0.54700005
-0.016809976 -0.092986934 0.54700005
-0.015415193 -0.093156926 0.54800004
-0.01398968 -0.093156926 0.54800004
-0.012564166 -0.093156926 0.54800004
-0.011158978 -0.093326919 0.54900002
-0.0097485874 -0.093496911 0.55000001
-0.0083329948 -0.093666904 0.551
-0.0068996768 -0.093666904 0.551
-0.005476281 -0.093836911 0.55200005
-0.0040403623 -0.093836911 0.55200005
-0.0026091614 -0.094006903 0.55300003
-0.0011706414 -0.094006903 0.55300003
0.0002683631 -0.094176888 0.55400002
0.0017094845 -0.094176888 0.55400002
0.0031506058 -0.094176888 0.55400002
0.0045917272 -0.094176888 0.55400002
0.0060328483 -0.094176888 0.55400002
0.0074874605 -0.094346881 0.55500001
0.0089311833 -0.094346881 0.55500001
0.010374906 -0.094346881 0.55500001
0.011818628 -0.094346881 0.55500001
0.013286249 -0.094516888 0.55600005
0.014732572 -0.094516888 0.55600005
0.016178897 -0.094516888 0.55600005
0.01765692 -0.094686881 0.55700004
0.019105846 -0.094686881 0.55700004
0.020591673 -0.094856873 0.55800003
0.0220432 -0.094856873 0.55800003
0.023536831 -0.095026866 0.55900002
0.024990957 -0.095026866 0.55900002
0.026492393 -0.095196858 0.56
0.027949123 -0.095196858 0.56
0.029458364 -0.095366858 0.56100005
0.030972807 -0.09553685 0.56200004
0.032434739 -0.09553685 0.56200004
0.033956982 -0.095706843 0.56300002
0.035484433 -0.095876835 0.56400001
0.036951564 -0.095876835 0.56400001
0.038418699 -0.095876835 0.56400001
0.039956551 -0.096046828 0.565
0.04142629 -0.096046828 0.565
0.042896025 -0.096046828 0.565
0.04436576 -0.096046828 0.565
0.045835495 -0.096046828 0.565
0.04730523 -0.096046828 0.565
0.048774965 -0.096046828 0.565
0.050333634 -0.096216828 0.56600004
0.051805973 -0.096216828 0.56600004
0.053278312 -0.096216828 0.56600004
0.054750644 -0.096216828 0.56600004
0.056222983 -0.096216828 0.56600004
0.057797253 -0.09638682 0.56700003
0.059272192 -0.09638682 0.56700003
0.060854267 -0.096556813 0.56800002
0.062331807 -0.096556813 0.56800002
0.06380935 -0.096556813 0.56800002
0.065401822 -0.096726805 0.56900001
0.06688197 -0.096726805 0.56900001
0.068482257 -0.096896805 0.57000005
0.069964997 -0.096896805 0.57000005
0.071447738 -0.096896805 0.57000005
0.073058434 -0.097066797 0.57100004
0.074543774 -0.097066797 0.57100004
0.076162271 -0.09723679 0.57200003
0.077650212 -0.09723679 0.57200003
0.079138152 -0.09723679 0.57200003
0.0806261 -0.09723679 0.57200003
0.082257599 -0.097406782 0.57300001
0.083748147 -0.097406782 0.57300001
0.085387446 -0.097576775 0.574
0.087031968 -0.097746782 0.57500005
0.088527709 -0.097746782 0.57500005
0.090180017 -0.097916774 0.57600003
0.091678374 -0.097916774 0.57600003
0.093338482 -0.098086767 0.57700002
0.095168181 -0.098426759 0.57900006
0.096674331 -0.098426759 0.57900006
0.098350056 -0.098596752 0.58000004
0.10003097 -0.098766744 0.58100003
0.10154232 -0.098766744 0.58100003
0.10323106 -0.098936737 0.58200002
0.10474502 -0.098936737 0.58200002
0.10644155 -0.099106729 0.583
0.1079581 -0.099106729 0.583
0.10966244 -0.099276729 0.58400005
0.11137199 -0.099446721 0.58500004
0.11289375 -0.099446721 0.58500004
0.1146111 -0.099616714 0.58600003
0.11633363 -0.099786706 0.58700001
0.1178606 -0.099786706 0.58700001
0.11959095 -0.099956699 0.588
0.12132651 -0.1001267 0.58900005
0.12285868 -0.1001267 0.58900005
0.12460203 -0.10029669 0.59000003
0.12613679 -0.10029669 0.59000003
0.12767157 -0.10029669 0.59000003
0.12942532 -0.10046668 0.59100002
0.1309627 -0.10046668 0.59100002
0.13250007 -0.10046668 0.59100002
0.13426423 -0.10063668 0.59200001
0.13580419 -0.10063668 0.59200001
0.13734418 -0.10063668 0.59200001
0.13911876 -0.10080668 0.59300005
0.14066133 -0.10080668 0.59300005
0.1424437 -0.10097667 0.59400004
0.14398888 -0.10097667 0.59400004
0.14553405 -0.10097667 0.59400004
0.14707921 -0.10097667 0.59400004
0.1488746 -0.10114666 0.59500003
0.15042236 -0.10114666 0.59500003
0.15222557 -0.10131665 0.59600002
0.15377593 -0.10131665 0.59600002
0.15558691 -0.10148665 0.597
0.1571399 -0.10148665 0.597
0.15869288 -0.10148665 0.597
0.16024585 -0.10148665 0.597
0.16206986 -0.10165665 0.59800005
0.16362543 -0.10165665 0.59800005
0.16545723 -0.10182665 0.59900004
0.16729425 -0.10199664 0.60000002
0.16913645 -0.10216663 0.60100001
0.17069982 -0.10216663 0.60100001
0.17254984 -0.10233663 0.60200006
0.17411582 -0.10233663 0.60200006
0.17597365 -0.10250662 0.60300004
0.17783666 -0.10267662 0.60400003
0.17970487 -0.10284661 0.60500002
0.18127866 -0.10284661 0.60500002
0.18315467 -0.1030166 0.60600001
0.18503593 -0.1031866 0.60700005
0.18661492 -0.1031866 0.60700005
0.1881939 -0.1031866 0.60700005
0.19008552 -0.10335659 0.60800004
0.19166712 -0.10335659 0.60800004
0.19356655 -0.10352658 0.60900003
0.19547118 -0.10369658 0.61000001
0.19705798 -0.10369658 0.61000001
0.19864476 -0.10369658 0.61000001
0.20055981 -0.10386657 0.611
0.20248008 -0.10403657 0.61200005
0.20440552 -0.10420656 0.61300004
0.20633616 -0.10437655 0.61400002
0.20793335 -0.10437655 0.61400002
0.20987181 -0.10454655 0.61500001
0.21181549 -0.10471655 0.61600006
0.21376434 -0.10488654 0.61700004
0.21536933 -0.10488654 0.61700004
0.21732599 -0.10505653 0.61800003
0.21893361 -0.10505653 0.61800003
0.22089806 -0.10522652 0.61900002
0.22250827 -0.10522652 0.61900002
0.22411847 -0.10522652 0.61900002
0.22609335 -0.10539652 0.62
0.22770616 -0.10539652 0.62
0.22931896 -0.10539652 0.62
0.23130426 -0.10556652 0.62100005
0.23291966 -0.10556652 0.62100005
0.23453508 -0.10556652 0.62100005
0.23615049 -0.10556652 0.62100005
0.23776589 -0.10556652 0.62100005
0.2393813 -0.10556652 0.62100005
0.2409967 -0.10556652 0.62100005
0.24261212 -0.10556652 0.62100005
0.24422753 -0.10556652 0.62100005
0.24623881 -0.10573652 0.62200004
0.24785681 -0.10573652 0.62200004
0.24947482 -0.10573652 0.62200004
0.25149652 -0.10590651 0.62300003
0.25352341 -0.1060765 0.62400001
0.25555551 -0.10624649 0.625
0.25759283 -0.10641649 0.62600005
0.25922126 -0.10641649 0.62600005
0.26168305 -0.10675648 0.62800002
0.26331666 -0.10675648 0.62800002
0.26537216 -0.10692647 0.62900001
0.26700836 -0.10692647 0.62900001
0.26907173 -0.10709647 0.63000005
0.27114025 -0.10726646 0.63100004
0.27278167 -0.10726646 0.63100004
0.27485797 -0.10743646 0.63200003
0.27693948 -0.10760645 0.63300002
0.27858612 -0.10760645 0.63300002
0.28067544 -0.10777644 0.634
0.28277001 -0.10794644 0.63500005
0.28442183 -0.10794644 0.63500005
0.28607365 -0.10794644 0.63500005
0.28817859 -0.10811643 0.63600004
0.29028872 -0.10828643 0.63700002
0.29194576 -0.10828643 0.63700002
0.29360276 -0.10828643 0.63700002
0.2952598 -0.10828643 0.63700002
0.29691684 -0.10828643 0.63700002
0.29904258 -0.10845642 0.63800001
0.30070221 -0.10845642 0.63800001
0.30236185 -0.10845642 0.63800001
0.30402148 -0.10845642 0.63800001
0.30616024 -0.10862642 0.63900006
0.30782247 -0.10862642 0.63900006
0.30948472 -0.10862642 0.63900006
0.31114694 -0.10862642 0.63900006
-0.26474842 -0.079679109 0.47600001
-0.26406384 -0.079846509 0.47700003
-0.26282302 -0.079846509 0.47700003
-0.26213059 -0.080013901 0.47800002
-0.26088715 -0.080013901 0.47800002
-0.26018691 -0.080181293 0.47900003
-0.25948149 -0.080348685 0.48000002
-0.25823286 -0.080348685 0.48000002
-0.25751963 -0.080516085 0.48100004
-0.25626841 -0.080516085 0.48100004
-0.25554734 -0.08068347 0.48200002
-0.25429353 -0.08068347 0.48200002
-0.25303969 -0.08068347 0.48200002
-0.25230825 -0.080850862 0.48300001
-0.25105181 -0.080850862 0.48300001
-0.24979536 -0.080850862 0.48300001
-0.24853896 -0.080850862 0.48300001
-0.24779449 -0.081018262 0.48400003
-0.24653548 -0.081018262 0.48400003
-0.24578321 -0.081185654 0.48500001
-0.24452156 -0.081185654 0.48500001
-0.24325995 -0.081185654 0.48500001
-0.2419983 -0.081185654 0.48500001
-0.24123305 -0.081353046 0.48600003
-0.23996882 -0.081353046 0.48600003
-0.23919575 -0.081520438 0.48700002
-0.2379289 -0.081520438 0.48700002
-0.23666207 -0.081520438 0.48700002
-0.2358786 -0.08168783 0.48800004
-0.23460917 -0.08168783 0.48800004
-0.23333974 -0.08168783 0.48800004
-0.2320703 -0.08168783 0.48800004
-0.23080085 -0.08168783 0.48800004
-0.22953142 -0.08168783 0.48800004
-0.22779423 -0.081520438 0.48700002
-0.22652739 -0.081520438 0.48700002
-0.22526056 -0.081520438 0.48700002
-0.22399373 -0.081520438 0.48700002
-0.2227269 -0.081520438 0.48700002
-0.22191481 -0.08168783 0.48800004
-0.22064537 -0.08168783 0.48800004
-0.21937594 -0.08168783 0.48800004
-0.21810651 -0.08168783 0.48800004
-0.2172814 -0.081855223 0.48900002
-0.21600938 -0.081855223 0.48900002
-0.21517645 -0.082022615 0.49000001
-0.21390182 -0.082022615 0.49000001
-0.21306112 -0.082190014 0.49100003
-0.21178389 -0.082190014 0.49100003
-0.21093537 -0.082357399 0.49200001
-0.20965552 -0.082357399 0.49200001
-0.20879923 -0.082524799 0.49300003
-0.2079377 -0.082692191 0.49400002
-0.20665267 -0.082692191 0.49400002
-0.20536762 -0.082692191 0.49400002
-0.2044957 -0.082859583 0.49500003
-0.20320806 -0.082859583 0.49500003
-0.20232832 -0.083026975 0.49600002
-0.20103809 -0.083026975 0.49600002
-0.19974783 -0.083026975 0.49600002
-0.19885769 -0.083194368 0.49700001
-0.19756486 -0.083194368 0.49700001
-0.19627202 -0.083194368 0.49700001
-0.19537148 -0.08336176 0.49800003
-0.19407603 -0.08336176 0.49800003
-0.19278058 -0.08336176 0.49800003
-0.19186963 -0.083529152 0.49900001
-0.19057159 -0.083529152 0.49900001
-0.18927355 -0.083529152 0.49900001
-0.18797548 -0.083529152 0.49900001
-0.18667744 -0.083529152 0.49900001
-0.18537939 -0.083529152 0.49900001
-0.18408135 -0.083529152 0.49900001
-0.18314959 -0.083696544 0.5
-0.18184893 -0.083696544 0.5
-0.18054828 -0.083696544 0.5
-0.17924763 -0.083696544 0.5
-0.17794698 -0.083696544 0.5
-0.17699963 -0.083863944 0.50100005
-0.17569639 -0.083863944 0.50100005
-0.17474122 -0.084031336 0.50200003
-0.17343538 -0.084031336 0.50200003
-0.17212951 -0.084031336 0.50200003
-0.17116393 -0.084198728 0.50300002
-0.17019317 -0.08436612 0.50400001
-0.16921718 -0.084533505 0.505
-0.16790353 -0.084533505 0.505
-0.16691978 -0.084700912 0.50600004
-0.16593078 -0.084868297 0.50700003
-0.1649366 -0.085035689 0.50800002
-0.16361514 -0.085035689 0.50800002
-0.16261315 -0.085203081 0.509
-0.16160598 -0.085370481 0.51000005
-0.1602793 -0.085370481 0.51000005
-0.15895264 -0.085370481 0.51000005
-0.15793505 -0.085537873 0.51100004
-0.1566058 -0.085537873 0.51100004
-0.15527651 -0.085537873 0.51100004
-0.15394725 -0.085537873 0.51100004
-0.15261799 -0.085537873 0.51100004
-0.15128872 -0.085537873 0.51100004
-0.14995946 -0.085537873 0.51100004
-0.14892104 -0.085705265 0.51200002
-0.14758918 -0.085705265 0.51200002
-0.14625731 -0.085705265 0.51200002
-0.14492545 -0.085705265 0.51200002
-0.14359359 -0.085705265 0.51200002
-0.14226171 -0.085705265 0.51200002
-0.14092985 -0.085705265 0.51200002
-0.13959798 -0.085705265 0.51200002
-0.13826612 -0.085705265 0.51200002
-0.1372017 -0.085872658 0.51300001
-0.13586722 -0.085872658 0.51300001
-0.134795 -0.08604005 0.514
-0.1337176 -0.086207449 0.51500005
-0.13237792 -0.086207449 0.51500005
-0.13129269 -0.086374842 0.51600003
-0.12995042 -0.086374842 0.51600003
-0.12860815 -0.086374842 0.51600003
-0.12751251 -0.086542226 0.51700002
-0.12616764 -0.086542226 0.51700002
-0.12506419 -0.086709619 0.51800001
-0.12371672 -0.086709619 0.51800001
-0.1226055 -0.086877018 0.51900005
-0.12125542 -0.086877018 0.51900005
-0.11990534 -0.086877018 0.51900005
-0.11855527 -0.086877018 0.51900005
-0.11743101 -0.08704441 0.52000004
-0.11607834 -0.08704441 0.52000004
-0.11472566 -0.08704441 0.52000004
-0.11359101 -0.087211803 0.52100003
-0.11223573 -0.087211803 0.52100003
-0.11088045 -0.087211803 0.52100003
-0.10952517 -0.087211803 0.52100003
-0.10837751 -0.087379195 0.52200001
-0.10701963 -0.087379195 0.52200001
-0.10566176 -0.087379195 0.52200001
-0.10450368 -0.087546587 0.523
-0.10314321 -0.087546587 0.523
-0.10178272 -0.087546587 0.523
-0.10042224 -0.087546587 0.523
-0.099251181 -0.087713987 0.52400005
-0.097888097 -0.087713987 0.52400005
-0.096709222 -0.087881379 0.52500004
-0.095343538 -0.087881379 0.52500004
-0.093977854 -0.087881379 0.52500004
-0.09261217 -0.087881379 0.52500004
-0.091420285 -0.088048771 0.52600002
-0.090052009 -0.088048771 0.52600002
-0.088683717 -0.088048771 0.52600002
-0.087315433 -0.088048771 0.52600002
-0.08611054 -0.088216156 0.52700001
-0.084739663 -0.088216156 0.52700001
-0.083368771 -0.088216156 0.52700001
-0.081997886 -0.088216156 0.52700001
-0.080627002 -0.088216156 0.52700001
-0.0794065 -0.088383548 0.528
-0.078033015 -0.088383548 0.528
-0.076659523 -0.088383548 0.528
-0.075428635 -0.088550948 0.52900004
-0.074052542 -0.088550948 0.52900004
-0.072813839 -0.08871834 0.53000003
-0.071435153 -0.08871834 0.53000003
-0.070188634 -0.088885732 0.53100002
-0.068807349 -0.088885732 0.53100002
-0.067553028 -0.089053124 0.53200001
-0.066169143 -0.089053124 0.53200001
-0.064907029 -0.089220524 0.53300005
-0.063639708 -0.089387916 0.53400004
-0.062250614 -0.089387916 0.53400004
-0.060975492 -0.089555308 0.53500003
-0.059583798 -0.089555308 0.53500003
-0.058300868 -0.0897227 0.53600001
-0.05690657 -0.0897227 0.53600001
-0.055512272 -0.0897227 0.53600001
-0.054117974 -0.0897227 0.53600001
-0.05272368 -0.0897227 0.53600001
-0.051329378 -0.0897227 0.53600001
-0.050028242 -0.089890085 0.537
-0.048631344 -0.089890085 0.537
-0.047234442 -0.089890085 0.537
-0.045922905 -0.090057492 0.53800005
-0.044523403 -0.090057492 0.53800005
-0.043123908 -0.090057492 0.53800005
-0.041801959 -0.090224877 0.53900003
-0.040399857 -0.090224877 0.53900003
-0.039070107 -0.090392269 0.54000002
-0.037665401 -0.090392269 0.54000002
-0.036327846 -0.090559661 0.54100001
-0.034920547 -0.090559661 0.54100001
-0.033575188 -0.090727061 0.54200006
-0.032165285 -0.090727061 0.54200006
-0.030755376 -0.090727061 0.54200006
-0.029399613 -0.090894453 0.54300004
-0.028038649 -0.091061845 0.54400003
-0.02662354 -0.091061845 0.54400003
-0.025254769 -0.091229238 0.54500002
-0.02383706 -0.091229238 0.54500002
-0.022460487 -0.09139663 0.546
-0.021040175 -0.09139663 0.546
-0.019619865 -0.09139663 0.546
-0.018232888 -0.091564029 0.54700005
-0.016809976 -0.091564029 0.54700005
-0.015415193 -0.091731422 0.54800004
-0.01398968 -0.091731422 0.54800004
-0.012564166 -0.091731422 0.54800004
-0.011158978 -0.091898806 0.54900002
-0.0097485874 -0.092066199 0.55000001
-0.008317871 -0.092066199 0.55000001
-0.0068996768 -0.092233591 0.551
-0.005476281 -0.09240099 0.55200005
-0.0040403623 -0.09240099 0.55200005
-0.0026091614 -0.092568383 0.55300003
-0.0011706414 -0.092568383 0.55300003
0.0002683631 -0.092735775 0.55400002
0.0017094845 -0.092735775 0.55400002
0.0031506058 -0.092735775 0.55400002
0.0045917272 -0.092735775 0.55400002
0.0060437378 -0.092903167 0.55500001
0.0074874605 -0.092903167 0.55500001
0.0089311833 -0.092903167 0.55500001
0.010374906 -0.092903167 0.55500001
0.011839923 -0.093070567 0.55600005
0.013286249 -0.093070567 0.55600005
0.014732572 -0.093070567 0.55600005
0.016207995 -0.093237959 0.55700004
0.01765692 -0.093237959 0.55700004
0.019105846 -0.093237959 0.55700004
0.020591673 -0.093405351 0.55800003
0.0220432 -0.093405351 0.55800003
0.023536831 -0.093572736 0.55900002
0.024990957 -0.093572736 0.55900002
0.026492393 -0.093740128 0.56
0.027949123 -0.093740128 0.56
0.029458364 -0.093907528 0.56100005
0.030972807 -0.09407492 0.56200004
0.032434739 -0.09407492 0.56200004
0.033956982 -0.094242312 0.56300002
0.035484433 -0.094409704 0.56400001
0.036951564 -0.094409704 0.56400001
0.038486816 -0.094577096 0.565
0.039956551 -0.094577096 0.565
0.04142629 -0.094577096 0.565
0.04297195 -0.094744496 0.56600004
0.044444289 -0.094744496 0.56600004
0.045916621 -0.094744496 0.56600004
0.04738896 -0.094744496 0.56600004
0.048861299 -0.094744496 0.56600004
0.050333634 -0.094744496 0.56600004
0.051805973 -0.094744496 0.56600004
0.053278312 -0.094744496 0.56600004
0.054750644 -0.094744496 0.56600004
0.056222983 -0.094744496 0.56600004
0.057695318 -0.094744496 0.56600004
0.059272192 -0.094911888 0.56700003
0.060747132 -0.094911888 0.56700003
0.062331807 -0.09507928 0.56800002
0.06380935 -0.09507928 0.56800002
0.065401822 -0.095246665 0.56900001
0.06688197 -0.095246665 0.56900001
0.068482257 -0.095414072 0.57000005
0.069964997 -0.095414072 0.57000005
0.071573086 -0.095581457 0.57100004
0.073058434 -0.095581457 0.57100004
0.074674323 -0.095748849 0.57200003
0.076162271 -0.095748849 0.57200003
0.077650212 -0.095748849 0.57200003
0.079138152 -0.095748849 0.57200003
0.080767058 -0.095916241 0.57300001
0.082257599 -0.095916241 0.57300001
0.083894305 -0.096083634 0.574
0.085387446 -0.096083634 0.574
0.087031968 -0.096251033 0.57500005
0.088527709 -0.096251033 0.57500005
0.090180017 -0.096418425 0.57600003
0.091837533 -0.096585818 0.57700002
0.093338482 -0.096585818 0.57700002
0.095168181 -0.096920609 0.57900006
0.096674331 -0.096920609 0.57900006
0.098350056 -0.097088002 0.58000004
0.10003097 -0.097255386 0.58100003
0.10154232 -0.097255386 0.58100003
0.10323106 -0.097422779 0.58200002
0.10474502 -0.097422779 0.58200002
0.10644155 -0.097590171 0.583
0.1079581 -0.097590171 0.583
0.10966244 -0.09775757 0.58400005
0.11137199 -0.097924963 0.58500004
0.11308672 -0.098092355 0.58600003
0.1146111 -0.098092355 0.58600003
0.11633363 -0.098259747 0.58700001
0.1178606 -0.098259747 0.58700001
0.11959095 -0.098427139 0.588
0.12132651 -0.098594539 0.58900005
0.12306726 -0.098761931 0.59000003
0.12460203 -0.098761931 0.59000003
0.12613679 -0.098761931 0.59000003
0.12767157 -0.098761931 0.59000003
0.12942532 -0.098929316 0.59100002
0.1309627 -0.098929316 0.59100002
0.13250007 -0.098929316 0.59100002
0.13426423 -0.099096708 0.59200001
0.13580419 -0.099096708 0.59200001
0.13734418 -0.099096708 0.59200001
0.13911876 -0.099264108 0.59300005
0.14089853 -0.0994315 0.59400004
0.1424437 -0.0994315 0.59400004
0.14398888 -0.0994315 0.59400004
0.14577906 -0.099598892 0.59500003
0.14732683 -0.099598892 0.59500003
0.1488746 -0.099598892 0.59500003
0.15042236 -0.099598892 0.59500003
0.15222557 -0.099766284 0.59600002
0.15377593 -0.099766284 0.59600002
0.15558691 -0.099933676 0.597
0.1571399 -0.099933676 0.597
0.15869288 -0.099933676 0.597
0.16024585 -0.099933676 0.597
0.16206986 -0.10010108 0.59800005
0.16362543 -0.10010108 0.59800005
0.16545723 -0.10026847 0.59900004
0.16701543 -0.10026847 0.59900004
0.16913645 -0.10060325 0.60100001
0.17069982 -0.10060325 0.60100001
0.17226321 -0.10060325 0.60100001
0.17411582 -0.10077065 0.60200006
0.17597365 -0.10093804 0.60300004
0.17783666 -0.10110543 0.60400003
0.17940784 -0.10110543 0.60400003
0.18127866 -0.10127282 0.60500002
0.18315467 -0.10144021 0.60600001
0.18503593 -0.10160761 0.60700005
0.18661492 -0.10160761 0.60700005
0.18850394 -0.10177501 0.60800004
0.19008552 -0.10177501 0.60800004
0.19166712 -0.10177501 0.60800004
0.19356655 -0.1019424 0.60900003
0.19547118 -0.10210979 0.61000001
0.19705798 -0.10210979 0.61000001
0.19897041 -0.10227717 0.611
0.20055981 -0.10227717 0.611
0.20248008 -0.10244458 0.61200005
0.20440552 -0.10261197 0.61300004
0.20633616 -0.10277936 0.61400002
0.20793335 -0.10277936 0.61400002
0.20987181 -0.10294675 0.61500001
0.21181549 -0.10311415 0.61600006
0.21376434 -0.10328154 0.61700004
0.21536933 -0.10328154 0.61700004
0.21732599 -0.10344893 0.61800003
0.21928787 -0.10361633 0.61900002
0.22089806 -0.10361633 0.61900002
0.22250827 -0.10361633 0.61900002
0.22448054 -0.10378372 0.62
0.22609335 -0.10378372 0.62
0.22770616 -0.10378372 0.62
0.22968885 -0.10395112 0.62100005
0.23130426 -0.10395112 0.62100005
0.23291966 -0.10395112 0.62100005
0.23453508 -0.10395112 0.62100005
0.23615049 -0.10395112 0.62100005
0.23776589 -0.10395112 0.62100005
0.2393813 -0.10395112 0.62100005
0.2409967 -0.10395112 0.62100005
0.24261212 -0.10395112 0.62100005
0.24422753 -0.10395112 0.62100005
0.24623881 -0.10411851 0.62200004
0.24785681 -0.10411851 0.62200004
0.2498759 -0.1042859 0.62300003
0.2519002 -0.10445329 0.62400001
0.25352341 -0.10445329 0.62400001
0.25555551 -0.10462068 0.625
0.25759283 -0.10478808 0.62600005
0.25963533 -0.10495547 0.62700003
0.26168305 -0.10512286 0.62800002
0.26331666 -0.10512286 0.62800002
0.26537216 -0.10529026 0.62900001
0.26700836 -0.10529026 0.62900001
0.26907173 -0.10545766 0.63000005
0.27114025 -0.10562505 0.63100004
0.27278167 -0.10562505 0.63100004
0.27485797 -0.10579243 0.63200003
0.27693948 -0.10595983 0.63300002
0.27858612 -0.10595983 0.63300002
0.28067544 -0.10612722 0.634
0.28277001 -0.10629462 0.63500005
0.28442183 -0.10629462 0.63500005
0.28607365 -0.10629462 0.63500005
0.28817859 -0.10646201 0.63600004
0.28983301 -0.10646201 0.63600004
0.29194576 -0.1066294 0.63700002
0.29360276 -0.1066294 0.63700002
0.2952598 -0.1066294 0.63700002
0.29691684 -0.1066294 0.63700002
0.29904258 -0.10679679 0.63800001
0.30070221 -0.10679679 0.63800001
0.30283576 -0.10696419 0.63900006
0.30402148 -0.10679679 0.63800001
0.30616024 -0.10696419 0.63900006
0.30782247 -0.10696419 0.63900006
0.30996904 -0.10713159 0.64000005
0.31163386 -0.10713159 0.64000005
-0.26474842 -0.07844089 0.47600001
-0.26406384 -0.078605682 0.47700003
-0.263374 -0.078770474 0.47800002
-0.26213059 -0.078770474 0.47800002
-0.26143295 -0.078935266 0.47900003
-0.26018691 -0.078935266 0.47900003
-0.25948149 -0.079100057 0.48000002
-0.25823286 -0.079100057 0.48000002
-0.25751963 -0.079264849 0.48100004
-0.25626841 -0.079264849 0.48100004
-0.25501716 -0.079264849 0.48100004
-0.25429353 -0.079429641 0.48200002
-0.25303969 -0.079429641 0.48200002
-0.25178587 -0.079429641 0.48200002
-0.25105181 -0.079594433 0.48300001
-0.24979536 -0.079594433 0.48300001
-0.24853896 -0.079594433 0.48300001
-0.24728252 -0.079594433 0.48300001
-0.2460261 -0.079594433 0.48300001
-0.24527644 -0.079759225 0.48400003
-0.24401739 -0.079759225 0.48400003
-0.24325995 -0.079924017 0.48500001
-0.2419983 -0.079924017 0.48500001
-0.24123305 -0.080088809 0.48600003
-0.23996882 -0.080088809 0.48600003
-0.23919575 -0.080253601 0.48700002
-0.2379289 -0.080253601 0.48700002
-0.23666207 -0.080253601 0.48700002
-0.23539524 -0.080253601 0.48700002
-0.23460917 -0.080418393 0.48800004
-0.23333974 -0.080418393 0.48800004
-0.2320703 -0.080418393 0.48800004
-0.23080085 -0.080418393 0.48800004
-0.22953142 -0.080418393 0.48800004
-0.22826199 -0.080418393 0.48800004
-0.22699255 -0.080418393 0.48800004
-0.22526056 -0.080253601 0.48700002
-0.22399373 -0.080253601 0.48700002
-0.22318424 -0.080418393 0.48800004
-0.22191481 -0.080418393 0.48800004
-0.22064537 -0.080418393 0.48800004
-0.21937594 -0.080418393 0.48800004
-0.21810651 -0.080418393 0.48800004
-0.2172814 -0.080583185 0.48900002
-0.21600938 -0.080583185 0.48900002
-0.21517645 -0.080747969 0.49000001
-0.21390182 -0.080747969 0.49000001
-0.21262719 -0.080747969 0.49000001
-0.21178389 -0.080912769 0.49100003
-0.21093537 -0.081077553 0.49200001
-0.20965552 -0.081077553 0.49200001
-0.20879923 -0.081242353 0.49300003
-0.20751679 -0.081242353 0.49300003
-0.20665267 -0.081407145 0.49400002
-0.20536762 -0.081407145 0.49400002
