# .PCD v0.7 - Point Cloud Data file format
VERSION 0.7
FIELDS x y z
SIZE 4 4 4
TYPE F F F
COUNT 1 1 1
WIDTH 248
HEIGHT 1
VIEWPOINT 0 0 0 1 0 0 0
POINTS 248
DATA ascii
-0.0056080855 -0.11026588 0.45987159
-0.022589581 -0.10232052 0.45907581
-0.014939786 -0.10368553 0.45971388
-0.0063187988 -0.10273384 0.45922035
0.0024732735 -0.10410213 0.45888138
-0.027947119 -0.092655912 0.4569096
-0.021579351 -0.096165985 0.46092653
-0.0036960039 -0.094955876 0.46028927
0.0054249107 -0.095071733 0.46016297
-0.026760215 -0.082888126 0.45692745
-0.015168282 -0.085003078 0.45946467
-0.005357442 -0.085290872 0.45998973
0.0077716224 -0.0846074 0.45984018
-0.014851808 -0.072068907 0.45958719
-0.0065013217 -0.072703876 0.45925641
0.0053609763 -0.072101258 0.4583585
0.012682537 -0.071672931 0.45918185
-0.0051851217 -0.060472623 0.46158063
0.0059823836 -0.058299594 0.46107769
0.015778346 -0.055988342 0.46184537
-0.0010481692 -0.051370613 0.45969462
0.0055534532 -0.050552417 0.45873344
0.014325345 -0.049060203 0.45880365
0.026294177 -0.048072837 0.4615742
0.0074777948 -0.042714477 0.46147397
0.019992968 -0.039076686 0.45738322
0.02821146 -0.039424419 0.45880404
0.036194883 -0.034252968 0.46191567
0.02688734 -0.029295728 0.46115309
0.027800692 -0.018109607 0.45985064
0.035906956 -0.015145727 0.46102896
-0.015727149 -0.11169954 0.46629691
-0.0042888667 -0.11205348 0.46669668
0.0018972415 -0.11070742 0.46816695
-0.035155468 -0.10113472 0.46880206
-0.025745794 -0.10560065 0.46804535
-0.015011515 -0.10611252 0.46853042
-0.0050573242 -0.10543392 0.46913084
0.0074044568 -0.10238851 0.4672865
-0.037133671 -0.09481968 0.46651682
-0.025114827 -0.095139936 0.46488819
-0.015187311 -0.09496168 0.46571434
-0.005153581 -0.09487249 0.46686247
0.0061953058 -0.093963332 0.46923536
0.011748604 -0.094303735 0.46528205
-0.038162202 -0.083487071 0.46793467
-0.024956878 -0.085169122 0.46623659
-0.014813889 -0.08530166 0.46832371
-0.0036943443 -0.08247371 0.46888697
0.0039103362 -0.085482575 0.46841264
0.014867183 -0.082187735 0.46809158
-0.034443181 -0.075640649 0.46905565
-0.025162829 -0.071406297 0.46666873
-0.017203717 -0.072788261 0.46741748
-0.0054470031 -0.074520662 0.46757174
0.0064296573 -0.073440872 0.46952236
0.018190425 -0.073214255 0.46718568
-0.014518438 -0.061532009 0.46811351
-0.0047779982 -0.060796689 0.46749863
0.0061696288 -0.062450808 0.46799454
0.015963167 -0.062934652 0.46945691
0.026609832 -0.059259392 0.46829131
-0.016664729 -0.054803718 0.47271672
-0.0050983131 -0.048198849 0.46977934
0.0042860741 -0.049145188 0.46903133
0.015875559 -0.050165575 0.46872044
0.027325911 -0.049061313 0.46924487
0.034760058 -0.044792328 0.46511465
-0.00066783029 -0.040305883 0.46956882
0.0058214017 -0.036461715 0.47009385
0.014072685 -0.03736065 0.46971443
0.025097227 -0.038354941 0.47122431
0.038475897 -0.036990311 0.46889982
0.0049426039 -0.027026106 0.47067791
0.013361764 -0.027642975 0.47000661
0.026356818 -0.026821241 0.46842843
0.03602735 -0.025463957 0.4662241
0.049584601 -0.026932856 0.46827769
0.0079728365 -0.015770774 0.46931744
0.013177627 -0.014391384 0.46918872
0.028833216 -0.016045637 0.46742049
0.037181851 -0.016959116 0.46518043
0.04838394 -0.014935672 0.4663808
0.059982028 -0.014962752 0.46808717
0.015754651 -0.0050091902 0.47035751
0.026964229 -0.0052449843 0.46762881
0.036783837 -0.0038169005 0.46491873
0.048257839 -0.0049164924 0.46576336
0.060983554 -0.0047135907 0.46861818
0.069561727 -0.0043463577 0.47215453
0.017881699 0.0037462865 0.47047773
0.025590511 0.004831655 0.46836731
0.036363531 0.0053354986 0.46718603
0.047712892 0.0056893392 0.46841311
0.059748124 0.0049058804 0.4688139
0.027912904 0.012094731 0.46719363
0.034856807 0.015451509 0.46806145
0.047958873 0.014618151 0.46771431
-0.011795457 -0.12135238 0.47887203
-0.026032073 -0.11144289 0.47704053
-0.014412477 -0.11501709 0.47744003
-0.0036365206 -0.11629132 0.4786872
0.0035736617 -0.11298128 0.47843918
-0.03869538 -0.10551238 0.47768807
0.0082202945 -0.1056421 0.47705474
-0.057524759 -0.09306176 0.48393124
-0.048797309 -0.092582598 0.47578749
-0.042295672 -0.093953356 0.47384346
0.013870304 -0.094903149 0.47798666
-0.047596183 -0.085019827 0.47534692
-0.041798338 -0.08007472 0.47576094
0.017599348 -0.082972571 0.4784295
-0.035570901 -0.071474172 0.47634074
-0.030928066 -0.069420196 0.47615322
0.018668296 -0.073473252 0.47620749
0.025754986 -0.069945663 0.47926649
-0.025397399 -0.062120933 0.47591478
-0.017698914 -0.057273977 0.47677714
0.027501807 -0.062679462 0.47800714
-0.011931757 -0.04844074 0.47499719
-0.0083129583 -0.047227751 0.47515264
0.029310109 -0.0536387 0.47598386
0.036525108 -0.047971308 0.47628513
-0.005429951 -0.036826946 0.47592831
0.014958334 -0.035716526 0.4730891
0.042128611 -0.039623357 0.47585592
0.047042683 -0.036723964 0.47830868
-0.0036737055 -0.025956079 0.47851253
0.0056362404 -0.02493697 0.47411418
0.050828829 -0.027824322 0.47784767
0.056590099 -0.026631797 0.47656432
-0.0029823014 -0.014588909 0.48079562
0.0062912595 -0.015393245 0.47484219
0.015099821 -0.015284779 0.47410598
0.024989083 -0.015526815 0.47312358
0.052142188 -0.020878751 0.47509703
0.062466513 -0.019375889 0.47550178
0.067723975 -0.015156889 0.47810018
0.0060252175 -0.0058742831 0.47831193
0.014449336 -0.0056837625 0.47498474
0.069658041 -0.0060226289 0.4782199
0.0073732631 0.0029058377 0.48014483
0.016821142 0.0048756488 0.47393578
0.051646478 0.0083263116 0.47834903
0.061499618 0.0071852896 0.47680962
0.0178177 0.012422948 0.47828239
0.025295014 0.016105771 0.47669429
0.037371926 0.017365403 0.47737524
0.047548015 0.018029228 0.47809619
0.055774279 0.01450419 0.47403824
-0.025608012 -0.12845866 0.49107963
-0.015695043 -0.12436934 0.48856744
-0.0053976844 -0.12168089 0.48725048
-0.051422894 -0.11385347 0.48891026
-0.034370825 -0.11276126 0.48718145
-0.026941273 -0.11605763 0.48845708
-0.018910356 -0.11815432 0.48533177
0.0054859058 -0.11708309 0.48801669
0.011524431 -0.11047396 0.48782736
-0.056899078 -0.10876205 0.49072528
-0.045077581 -0.1030658 0.48669001
-0.038652547 -0.10747951 0.48950562
0.0089611253 -0.10880479 0.48787856
0.014199454 -0.10457382 0.48684445
-0.066488571 -0.095313907 0.49218249
-0.062286228 -0.092863418 0.48783079
-0.047917277 -0.093913957 0.48592252
0.017847439 -0.094892956 0.48863435
0.025847767 -0.095515609 0.49391183
-0.058365081 -0.083677925 0.48773941
-0.048102666 -0.08239349 0.48585978
-0.042050943 -0.078258678 0.48529649
0.019265117 -0.085429251 0.48811588
0.026708983 -0.081565067 0.4920364
-0.047701262 -0.073063865 0.48781803
-0.037855268 -0.071271926 0.48550296
-0.031289004 -0.068787746 0.48526394
0.025661055 -0.073677778 0.48589596
-0.037149385 -0.06197302 0.48848069
-0.027104296 -0.059942577 0.48673782
-0.021448394 -0.05858206 0.48530254
0.03073968 -0.063406751 0.48645404
0.036697183 -0.058128357 0.48880598
-0.027719354 -0.052254274 0.49253598
-0.016081892 -0.050673217 0.48819098
0.040502988 -0.047594786 0.48697352
0.046802841 -0.048298907 0.49307355
-0.016217798 -0.037592735 0.48735401
-0.007782199 -0.039358571 0.48772344
0.049937338 -0.03694886 0.48592681
0.05772534 -0.034145333 0.49345675
-0.014334072 -0.024926119 0.49063748
-0.001307107 -0.028195765 0.48589396
0.0013176473 -0.02303607 0.48769617
0.051710207 -0.031466223 0.48578596
0.062137466 -0.024291536 0.48870602
0.0033555415 -0.018034378 0.48695588
0.062952712 -0.021541528 0.48594791
0.069391154 -0.013923011 0.4884752
-0.0051643346 -0.006071249 0.4899143
0.0099299252 -0.0033460013 0.48914132
0.012304077 -0.0031421846 0.48462611
0.070315488 -0.0034848182 0.48521131
0.0014366915 0.0065744426 0.49334663
0.012539369 0.0059960443 0.48787868
0.061725587 0.0081415633 0.48623085
0.069366716 0.0063306056 0.48959729
0.0095995795 0.011896692 0.48924571
0.017422017 0.0119523 0.48552451
0.024596538 0.01626518 0.48457718
0.034143791 0.020344699 0.49055737
0.049411312 0.017433142 0.48821548
0.057145648 0.016079027 0.48841912
0.028197503 0.022143548 0.48673221
0.033668801 0.022540575 0.48402584
0.016670275 -0.10530985 0.49506307
0.024571868 -0.084924519 0.49536106
0.025299186 -0.071430638 0.49534714
0.034603413 -0.074429758 0.49582699
0.036304515 -0.060350057 0.49592924
-0.014634483 -0.045010049 0.49546957
0.043015875 -0.049102318 0.49643588
0.045854952 -0.050692156 0.49527115
-0.0065395753 -0.034413557 0.4955219
0.050842553 -0.041141495 0.49600515
0.057073269 -0.036575872 0.49525473
-0.0035191621 -0.025127871 0.49620035
0.052392792 -0.032548938 0.49589577
0.060934588 -0.027731379 0.4959693
0.068844348 -0.024116546 0.49599281
0.0030064567 -0.015111727 0.49577859
0.072064333 -0.014892695 0.49715623
0.0081206691 -0.0050006961 0.49630868
0.072690763 -0.0072829612 0.49791253
-0.0063031027 0.0028168685 0.49711213
0.013275469 0.0047394261 0.49673384
0.062831141 0.0080284281 0.49623817
0.070906579 0.0039203819 0.49751315
0.0041710436 0.01355285 0.49648574
0.016507823 0.014125179 0.49657679
0.024346262 0.017883234 0.49500975
0.039082918 0.021086633 0.4964633
0.049380958 0.020358361 0.49673796
0.059211545 0.014531573 0.4961431
0.019197904 0.02247089 0.49722782
0.025408123 0.023393922 0.49649975
0.034937397 0.023915753 0.49641064
0.04557671 0.023155591 0.49655706
