# .PCD v0.7 - Point Cloud Data file format
VERSION 0.7
FIELDS x y z
SIZE 4 4 4
TYPE F F F
COUNT 1 1 1
WIDTH 453
HEIGHT 1
VIEWPOINT 0 0 0 1 0 0 0
POINTS 453
DATA ascii
-0.14117563 -0.23939931 0.48958802
-0.11997571 -0.22923291 0.4911685
-0.15797177 -0.21791404 0.489631
-0.14005016 -0.22274435 0.48982495
-0.12012192 -0.21005645 0.49221358
-0.099331357 -0.21223198 0.49112213
-0.17047465 -0.19857335 0.49029034
-0.14074348 -0.20735788 0.49095452
-0.084377721 -0.20013805 0.49295181
-0.26950881 -0.1749748 0.49350506
-0.25490084 -0.17730848 0.49246803
-0.24024823 -0.18374676 0.4929027
-0.22481549 -0.17945158 0.49305683
-0.17713505 -0.17814949 0.49316937
-0.15996173 -0.18499652 0.49354655
-0.14209893 -0.18985949 0.49306375
-0.11700971 -0.18772084 0.49390382
-0.2694169 -0.15996183 0.49333069
-0.2447755 -0.15971097 0.49396431
-0.18917415 -0.1706541 0.49259329
-0.14990184 -0.1701393 0.49373639
-0.24324638 -0.09145382 0.49375051
-0.28032091 -0.050120946 0.49213344
-0.34247482 0.041462678 0.49276155
-0.06446892 -0.1934644 0.49499792
0.16928977 -0.19330356 0.51124215
0.18905921 -0.1977824 0.51269531
-0.20991099 -0.17859933 0.4942733
-0.12988934 -0.17239651 0.49471599
-0.11002397 -0.17283571 0.49569187
-0.060864937 -0.1715 0.49938688
-0.045678459 -0.18178272 0.49923325
-0.028631257 -0.18643844 0.50050122
-0.0079904897 -0.18053807 0.50464052
0.0078376448 -0.18087888 0.50469869
0.026150603 -0.18044746 0.50626642
0.055840727 -0.18657972 0.50650311
0.071897037 -0.17995536 0.50694311
0.092535108 -0.17995146 0.5081923
0.11796626 -0.18176636 0.50900096
0.14043759 -0.17759903 0.50978929
0.15257692 -0.18698704 0.51009905
0.17820066 -0.17893533 0.5113433
0.1945205 -0.17755777 0.51218802
-0.22508456 -0.15988043 0.49405235
-0.20397028 -0.15860143 0.49560052
-0.1737507 -0.15261903 0.49674606
-0.15551332 -0.15452249 0.49549168
-0.12991862 -0.15924481 0.49831378
-0.11016844 -0.159437 0.49846882
-0.080789477 -0.16960078 0.4982985
-0.061467484 -0.15920469 0.49830702
-0.0465733 -0.15983015 0.49922869
-0.025120707 -0.16582695 0.50302029
-0.010015942 -0.15505666 0.50089198
0.021784581 -0.15991187 0.50738966
0.04771255 -0.16714412 0.50690269
0.069304064 -0.15245126 0.50874722
0.089920692 -0.15981816 0.50855041
0.10717984 -0.15337837 0.50932193
0.13000315 -0.15913372 0.5094769
0.15000749 -0.15910423 0.51104796
-0.33481479 -0.13763462 0.49485049
-0.31527889 -0.13858649 0.49606231
-0.2997458 -0.13888054 0.49580359
-0.28474182 -0.13977957 0.49590534
-0.26163888 -0.13666424 0.49513838
-0.23488219 -0.14369048 0.49623987
-0.21040931 -0.14220645 0.49523872
-0.18735549 -0.14826474 0.49432838
-0.13006243 -0.14248954 0.4963274
-0.11008283 -0.14045492 0.49767479
-0.088938072 -0.1474199 0.49746671
-0.070493698 -0.13861582 0.49960011
-0.046987183 -0.14000967 0.50120592
-0.03174632 -0.14093734 0.50335264
-0.010046098 -0.13303278 0.50116801
0.010791341 -0.1441741 0.50299686
0.030883653 -0.14034855 0.50485718
0.046980064 -0.14019483 0.50838786
0.085807964 -0.13643503 0.50862598
0.12484179 -0.13993385 0.51026726
0.14895618 -0.13555209 0.51138419
0.17072187 -0.14079657 0.51178038
0.18964063 -0.14111683 0.5120849
-0.33355534 -0.1175776 0.49620783
-0.31503892 -0.11764977 0.49664378
-0.29998863 -0.11732526 0.49588445
-0.28260761 -0.11755095 0.49631542
-0.24256399 -0.11712772 0.49596837
-0.21776825 -0.122517 0.4952974
-0.19123757 -0.12746355 0.49591005
-0.17298219 -0.13014227 0.49530196
-0.15942356 -0.12745091 0.49652812
-0.13587308 -0.1177986 0.49809313
-0.11006369 -0.1174868 0.49903494
-0.090801567 -0.12997127 0.49962735
-0.06800437 -0.12502985 0.50095928
-0.042343423 -0.12255896 0.50186944
-0.021125626 -0.12192124 0.49553531
0.007081097 -0.11637809 0.49501801
0.029624503 -0.12525073 0.506621
0.049127277 -0.12726259 0.5031299
0.066923276 -0.12739326 0.5058648
0.10392411 -0.11987431 0.50627452
0.12494168 -0.12001542 0.51023996
-0.26207572 -0.10995671 0.49640095
-0.22483587 -0.10958779 0.49659926
-0.18056211 -0.10916493 0.49585578
-0.15159836 -0.10326748 0.49749732
-0.090074919 -0.11004353 0.50010973
-0.074324161 -0.11175825 0.49975482
-0.054298267 -0.10454589 0.50032246
0.02070298 -0.11030819 0.50029427
0.038378745 -0.1076734 0.50572157
0.061691612 -0.11040122 0.50727689
0.087086298 -0.11027218 0.50598198
0.10398764 -0.097381987 0.50631857
0.12898132 -0.099081047 0.50955504
-0.33142513 -0.085610256 0.49708414
-0.30012256 -0.082497992 0.49728045
-0.27511033 -0.090084434 0.4969309
-0.24764475 -0.082694799 0.49603999
-0.2180472 -0.084124625 0.49661312
-0.18102017 -0.089724116 0.49630481
-0.14081699 -0.084584892 0.50012076
-0.11493693 -0.091752388 0.50172651
-0.087396763 -0.081337854 0.5038256
-0.067722335 -0.085817859 0.50142097
0.028179962 -0.090624332 0.5003311
0.072220348 -0.09251792 0.5071733
0.08922296 -0.089107364 0.50692421
0.15173323 -0.081210338 0.51185721
-0.31498402 -0.065630369 0.49784517
-0.28016293 -0.067575753 0.49733269
-0.2621519 -0.068435565 0.49527597
-0.24014249 -0.060422242 0.49595308
-0.21768317 -0.063052885 0.49647743
-0.18910339 -0.067049757 0.49875844
-0.17003949 -0.075041071 0.49756458
-0.15192904 -0.06655591 0.49976444
-0.1316278 -0.070655882 0.5009284
-0.1100264 -0.068087198 0.50203723
-0.041679647 -0.074710019 0.49815878
0.046775959 -0.066950291 0.50452113
0.061104741 -0.061209574 0.50655711
0.082596295 -0.064970329 0.50692111
0.11010888 -0.059431262 0.50835496
0.12372801 -0.075177401 0.50919437
0.14480858 -0.061145533 0.51255542
-0.33668998 -0.048166905 0.49848643
-0.32002181 -0.047520138 0.49892601
-0.30055493 -0.046064641 0.49937737
-0.25663397 -0.041771781 0.49643171
-0.20995207 -0.047318194 0.49691904
-0.18032074 -0.051106896 0.49937567
-0.15166354 -0.0483035 0.50035471
-0.12998289 -0.048087358 0.50199866
-0.1101632 -0.046964511 0.50212026
-0.089693725 -0.056107808 0.5042963
-0.074831426 -0.053038985 0.50321466
-0.051580019 -0.055145524 0.50226402
-0.033594638 -0.05123727 0.50491846
-0.016405845 -0.043185584 0.49976724
0.049056232 -0.038358048 0.50130433
0.066283815 -0.042657971 0.50563586
0.10250491 -0.044713948 0.50993836
0.12995997 -0.055014066 0.51182652
0.15219346 -0.044504773 0.51172352
0.23556516 -0.041913509 0.51239645
-0.33017236 -0.029968785 0.49810636
-0.30949324 -0.03153586 0.49964505
-0.29001451 -0.019705916 0.49603805
-0.27604377 -0.028062934 0.4963116
-0.2417061 -0.023204202 0.49715734
-0.22025135 -0.030891865 0.4979673
-0.17956012 -0.023930984 0.50038761
-0.15182005 -0.02629308 0.50125384
-0.13002397 -0.027436726 0.50267994
-0.10922202 -0.024396509 0.50360769
-0.090236492 -0.02984181 0.50388014
-0.071720257 -0.025724925 0.50525802
-0.048366304 -0.030805767 0.50491172
-0.025711725 -0.02424548 0.50408328
-0.0067413449 -0.031186156 0.49882233
0.081313193 -0.023950171 0.50788438
0.10849988 -0.022321971 0.51014757
0.12993248 -0.030050058 0.51177323
0.14661297 -0.021813598 0.51247001
0.24146432 -0.022687726 0.51123166
0.25621617 -0.020360332 0.51185006
-0.32988122 -0.010004867 0.49782068
-0.3113026 -0.012325658 0.49623597
-0.29325348 -0.0053776149 0.4972567
-0.26055631 -0.0082432041 0.49628469
-0.2405557 -0.005365626 0.49841952
-0.2195375 -0.0055190413 0.49977779
-0.19896592 -0.010051033 0.50024807
-0.18002257 -0.005051028 0.50148642
-0.15994005 -0.0050614611 0.50065404
-0.14002067 -0.0099518299 0.50228584
-0.12403086 -0.00461738 0.50174916
-0.10768982 -0.0044914754 0.50442362
-0.089393198 -0.010200283 0.50357926
-0.065763906 -0.01164183 0.50395799
-0.049923781 -0.010062491 0.50503707
-0.023886584 -0.0092145782 0.50515127
-0.0050941566 -0.010291973 0.50590837
0.0029103786 -0.0084078414 0.50337076
0.074119844 -0.0096587846 0.50304925
0.091667444 -0.010023335 0.51068705
0.11019477 -0.0050704782 0.51221526
0.13486667 -0.0094003407 0.51197886
0.16495454 -0.0091628926 0.51238072
0.21767621 -0.010977468 0.51056957
-0.32362658 0.0054501831 0.49662018
-0.32228988 0.018833011 0.49712807
-0.3024154 0.010236865 0.49627936
-0.2807703 0.0054066619 0.49660826
-0.26164329 0.0071791876 0.49713069
-0.24048296 0.0049364106 0.49728894
-0.22134408 0.012001168 0.49869305
-0.19935229 0.0047280528 0.50055951
-0.17740163 0.0078831753 0.5010488
-0.13512397 0.0074431207 0.50259209
-0.10712752 0.0083437646 0.50461769
-0.082550436 0.0047002481 0.50457269
-0.066923559 0.010435909 0.50581586
-0.048693743 0.011986734 0.50584376
-0.027625892 0.0081094205 0.50584793
-0.0048895273 0.0099273948 0.50565881
0.0094398484 0.0050470144 0.5030899
0.081840947 0.0077826111 0.50819767
0.12464131 0.0095457807 0.50998884
0.1543797 0.009704127 0.51200074
0.17484061 0.0038135755 0.51035947
0.19627652 0.012529995 0.51139623
0.21753445 0.0075100251 0.51176292
-0.33060554 0.030851131 0.49577063
-0.28507957 0.024994332 0.49823415
-0.26848024 0.033081293 0.4978708
-0.24782205 0.022330187 0.49761748
-0.22488694 0.030058751 0.50010741
-0.20842852 0.028223872 0.50140232
-0.18086602 0.026198022 0.50152022
-0.15280215 0.025008235 0.50214016
-0.13020119 0.029945565 0.50299585
-0.10992086 0.030455517 0.50304919
-0.084977277 0.026881266 0.50420624
-0.066941962 0.025020514 0.50598443
-0.049330398 0.031429213 0.5061928
-0.026164202 0.02588658 0.50749046
-0.0050333254 0.030007819 0.50827622
0.0042278054 0.020778695 0.50651193
0.023281164 0.027187854 0.50748563
0.047838774 0.027214985 0.50656092
0.06699717 0.023564905 0.50917089
0.090079017 0.030338071 0.51179397
0.11101634 0.031983305 0.51210207
0.15266013 0.025527168 0.51199216
0.1737458 0.022522781 0.51120663
-0.33111441 0.056444962 0.49757421
-0.32187057 0.046123877 0.49654573
-0.29988343 0.04072592 0.49870414
-0.28102055 0.048950985 0.49930498
-0.26156199 0.04904459 0.49996871
-0.23491013 0.05698641 0.50123596
-0.21849668 0.046670232 0.50015265
-0.18991929 0.048114859 0.50206816
-0.16687965 0.049840681 0.50282204
-0.15063946 0.040702693 0.50386703
-0.1302987 0.056202982 0.50446022
-0.11177047 0.052603524 0.50464177
-0.086307094 0.048405666 0.50658667
-0.066199966 0.049298793 0.50501013
-0.042102024 0.046836488 0.50542569
-0.011110045 0.050568812 0.50890177
0.0050079906 0.04511762 0.50583416
0.019975986 0.049266424 0.51042444
0.041818146 0.048641503 0.51060438
0.059983023 0.048265651 0.51059777
0.079317287 0.048695616 0.51258779
0.19375414 0.042481191 0.5129168
-0.36251694 0.074685261 0.49564835
-0.34715533 0.06786105 0.49466312
-0.31250408 0.069808766 0.49903017
-0.29992366 0.064128205 0.49815306
-0.27824104 0.065903567 0.49998078
-0.25972566 0.0704161 0.50017983
-0.24032763 0.074954912 0.50150836
-0.20965125 0.067416757 0.50202155
-0.19042549 0.067954063 0.50270295
-0.16625372 0.070892766 0.50351965
-0.11997995 0.070164129 0.50820172
-0.10012547 0.067759119 0.50736165
-0.083481252 0.066522121 0.50589919
-0.06961149 0.069475248 0.50607193
-0.046529591 0.06329532 0.507774
-0.011287235 0.066176429 0.5059436
0.0099974163 0.060665771 0.51013708
0.025037564 0.070972137 0.51089776
0.047817737 0.068706423 0.51053047
0.06740313 0.06702023 0.51150155
0.13211985 0.073433466 0.51063961
0.15297771 0.063905172 0.51287627
-0.34980184 0.090063214 0.49630034
-0.32945478 0.078570165 0.49878538
-0.31484225 0.090063326 0.4990561
-0.29974893 0.089869142 0.49886876
-0.28042123 0.088956237 0.49980453
-0.26117355 0.090087429 0.50143051
-0.24091767 0.090217635 0.50133276
-0.22164766 0.086039074 0.50151503
-0.17866704 0.088484958 0.50291049
-0.15599597 0.09143535 0.50429052
-0.14132586 0.077205196 0.50672114
-0.11960477 0.086747512 0.50771379
-0.094506569 0.081496894 0.5084514
-0.072638601 0.085280634 0.50709653
-0.054006774 0.088106856 0.50835359
-0.033125676 0.083035335 0.50770199
-0.009765299 0.084097341 0.50897956
0.0072804419 0.081631705 0.50943792
0.030213732 0.089054376 0.51147419
0.10901051 0.080617368 0.5123626
0.1299056 0.092507988 0.5124172
-0.38527438 0.10481126 0.49857992
-0.36783916 0.098597489 0.49775961
-0.35078478 0.10839908 0.49449638
-0.32772043 0.1057809 0.49834836
-0.29970291 0.10948306 0.49826494
-0.2019667 0.09766525 0.50137663
-0.18849178 0.10235077 0.50210881
-0.019173615 0.10427617 0.50586718
-0.0056818714 0.098204672 0.50704348
0.010883918 0.10596573 0.50668478
0.053150319 0.10722739 0.50998175
0.072769895 0.11011861 0.5115872
-0.31507397 0.13015306 0.50248671
-0.30016422 0.12987289 0.50321555
-0.27655786 0.11721538 0.50196052
-0.26171464 0.12485032 0.50364733
-0.24369791 0.11751135 0.50208592
-0.2188559 0.11814824 0.50324762
-0.19384539 0.12237087 0.50467777
-0.16955642 0.11711156 0.50417769
0.033802416 0.11741547 0.50972331
0.052400783 0.12487321 0.51129609
0.074230403 0.13248095 0.51044786
0.09013211 0.11747384 0.51214242
-0.324801 0.14169763 0.50301552
-0.30022129 0.15000086 0.505009
-0.27974957 0.14018059 0.50384092
-0.26098362 0.1383826 0.50353193
-0.23470563 0.14182484 0.50254011
-0.21847616 0.13670081 0.50285137
-0.18739717 0.13610366 0.50481164
0.092431471 0.14133078 0.51054657
-0.32572478 0.16746335 0.50279975
-0.28068498 0.16003346 0.5042159
-0.2569769 0.16797051 0.50281805
-0.24407339 0.15218882 0.50352418
-0.30914041 0.17995512 0.50124919
-0.2930243 0.17689882 0.50109518
-0.28018677 0.17618281 0.50531662
-0.32977015 0.19135535 0.50284004
0.21035187 -0.19859265 0.51376629
0.22897732 -0.20471561 0.51450801
0.212348 -0.17767453 0.51363742
0.23089504 -0.18133958 0.51380783
0.17785969 -0.15883458 0.51319289
0.20621854 -0.15634179 0.51342201
0.2312938 -0.15854859 0.51631814
0.23344307 -0.14223678 0.51685935
0.1701352 -0.11753223 0.51364821
0.1900501 -0.11754622 0.51468992
0.21119745 -0.12987994 0.51556242
0.2312378 -0.12495904 0.5157603
0.15005356 -0.10992873 0.51345372
0.209993 -0.11176905 0.51617771
0.23581302 -0.10691668 0.51747191
0.18085814 -0.089987732 0.51406807
0.20958745 -0.080452457 0.51592857
0.23193328 -0.089959323 0.51825625
0.17070788 -0.068086781 0.51521945
0.19061723 -0.067547023 0.51546222
0.23444906 -0.063881472 0.51637125
0.17284206 -0.043422349 0.51490331
0.21797961 -0.049046442 0.5149889
0.19478193 -0.037990358 0.51495922
0.21676561 -0.031101029 0.51331401
0.17960638 -0.015136351 0.51404685
0.2400492 -0.0050935075 0.51312637
0.26466376 -0.0093094883 0.5138979
0.28679723 -0.0042096302 0.51499259
0.25376698 0.0075308066 0.51426911
0.28003466 0.0048880624 0.51457167
0.2961885 0.010414653 0.51541603
0.130364 0.031608567 0.51327878
0.22127439 0.033793449 0.51335037
0.2475066 0.026280906 0.51467133
0.27460423 0.02737508 0.51516402
0.095005728 0.04968743 0.51321918
0.11777246 0.051451899 0.51389682
0.14207011 0.048062753 0.51404202
0.16346571 0.047418259 0.51444924
0.21625832 0.05560337 0.51461542
0.24255255 0.053733952 0.51495397
0.26164705 0.049146451 0.51468062
0.27820557 0.055423431 0.51720554
0.09126015 0.069471821 0.51371944
0.18004042 0.068458587 0.51460499
0.21006438 0.075007744 0.51431006
0.26190042 0.073912181 0.5160886
0.0664296 0.091250643 0.51432776
0.091357745 0.088527285 0.51306307
0.15248674 0.090008043 0.51317734
0.1737451 0.089572504 0.51462293
0.19198611 0.091072187 0.51623559
0.23596713 0.084793866 0.51671046
0.25800923 0.091491967 0.51674414
-0.052080255 0.10015084 0.51368874
0.11751419 0.11003946 0.51355457
0.14062206 0.11094388 0.51491499
0.17503887 0.10998634 0.51354092
0.19443947 0.1104413 0.51810086
0.21090062 0.097638398 0.51737833
0.24253182 0.10707773 0.51794785
0.25760996 0.1126271 0.51660597
0.11756014 0.12997565 0.51363981
0.14907587 0.13174143 0.5187099
0.16154626 0.11474717 0.51709163
0.17743473 0.13249266 0.51794702
0.20898727 0.13007805 0.51747775
0.22468615 0.11689793 0.5193491
0.11053392 0.14897537 0.5144453
0.13172887 0.14311345 0.51539963
0.19546308 0.14755912 0.51987112
0.13674046 0.15779519 0.51480854
0.15770163 0.15210813 0.5183537
0.17339727 0.15201189 0.51986468
0.21338384 0.1591284 0.52315569
0.16664211 0.17887966 0.5192554
0.18291484 0.17462736 0.52041507
0.12452881 0.20086616 0.5212943
0.15984794 0.19984898 0.51728046
0.16539609 0.21518427 0.51963258
0.1853143 0.21171834 0.51988602
0.16526738 0.23410186 0.51936376
0.18924421 0.23143594 0.52049351
0.20658445 0.22914895 0.52314943
0.17577186 0.24761379 0.51994085
0.19903043 0.24811167 0.52159011
