# .PCD v0.7 - Point Cloud Data file format
VERSION 0.7
FIELDS x y z
SIZE 4 4 4
TYPE F F F
COUNT 1 1 1
WIDTH 1352
HEIGHT 1
VIEWPOINT 0 0 0 1 0 0 0
POINTS 1352
DATA ascii
0.07911706 -0.098675162 0.45902276
0.085959941 -0.096525244 0.45824742
0.095204122 -0.095300578 0.45616826
0.10473958 -0.094751991 0.45294806
0.11459692 -0.095209919 0.45076156
0.12081514 -0.093107134 0.45002481
0.096699484 -0.086151145 0.45821902
0.10488115 -0.084833235 0.45564419
0.11494046 -0.085126303 0.45255598
0.1237338 -0.083854087 0.45070356
0.13205954 -0.080256276 0.45002517
0.099759065 -0.078631327 0.45902348
0.10588142 -0.075787358 0.45800707
0.11493589 -0.075085193 0.45597357
0.12481852 -0.074888408 0.45317289
0.13483696 -0.074783526 0.45108479
0.1418135 -0.07408198 0.45034704
0.10864088 -0.067911118 0.45891264
0.11503539 -0.065138265 0.45786166
0.12508465 -0.065087743 0.4548912
0.13482055 -0.065083519 0.45221022
0.14318442 -0.064305954 0.45056385
0.11765996 -0.058297463 0.45857954
0.125195 -0.055319164 0.45708841
0.13491754 -0.054722469 0.45430893
0.14483963 -0.054960981 0.45262268
0.15434548 -0.054061763 0.45087823
0.16115426 -0.050692063 0.45002615
0.12661208 -0.04543224 0.45824653
0.13486753 -0.044860967 0.45635784
0.14501686 -0.045131125 0.45429096
0.15508726 -0.045009505 0.45134059
0.16193426 -0.043037139 0.45008487
0.12844692 -0.038667023 0.45891312
0.13588133 -0.035412498 0.45748049
0.14498189 -0.035141081 0.45470983
0.15506743 -0.035067126 0.45281732
0.16472003 -0.034685709 0.45077604
0.17198351 -0.032191891 0.45002639
0.13791658 -0.026816083 0.45858008
0.14502904 -0.025293639 0.45727158
0.15498623 -0.02524111 0.45506096
0.16494451 -0.025008958 0.45239189
0.17368826 -0.024059674 0.45067048
0.1478857 -0.018666916 0.45872489
0.15519042 -0.015437734 0.45758408
0.16501282 -0.015007121 0.45525238
0.17479193 -0.015120612 0.45149302
0.18109815 -0.014323444 0.45002651
0.15712458 -0.0056647374 0.45881456
0.16432804 -0.0063088178 0.45692018
0.17194873 -0.0086839562 0.45375922
-0.0214733 -0.17597893 0.46866599
-0.014626989 -0.17420234 0.46748593
-0.0051527401 -0.1738116 0.46520501
0.0046631661 -0.17343611 0.462937
0.014308535 -0.17286654 0.46099904
0.02236825 -0.17105953 0.46002111
-0.01096401 -0.16858476 0.46901932
-0.0044890814 -0.16536312 0.46751961
0.0046772091 -0.1649138 0.46443665
0.014991887 -0.16503228 0.46228987
0.024702629 -0.164662 0.46085465
0.030420315 -0.16155119 0.46002138
-0.022733616 -0.1528545 0.46797997
-0.017211629 -0.15292421 0.46865511
-0.0021502739 -0.15537547 0.46897793
0.0047131423 -0.1551677 0.46790865
0.014842233 -0.1551071 0.46473983
0.025202764 -0.15516524 0.46219009
0.033031233 -0.15367635 0.46043161
-0.01443477 -0.14658356 0.46731603
-0.0049888762 -0.14603154 0.46825832
0.0047933171 -0.14512032 0.46889257
0.015172963 -0.14494307 0.46655878
0.025127392 -0.14518555 0.46307695
0.034714296 -0.1451779 0.46134937
0.042116549 -0.14287555 0.46006334
0.0057395012 -0.1356454 0.46697307
0.015210901 -0.13509455 0.46760342
0.02535494 -0.13493055 0.46514374
0.034811921 -0.13532783 0.46263203
0.044932816 -0.13493946 0.4613055
0.051942632 -0.1331737 0.46008077
0.01539892 -0.12505938 0.46498862
0.025517762 -0.12476911 0.46800634
0.034972206 -0.12517844 0.46556875
0.045051273 -0.1246715 0.4631466
0.054714467 -0.12460673 0.461153
0.062026821 -0.1218284 0.46022233
0.023552515 -0.11846855 0.46892023
0.036336511 -0.11705274 0.46836296
0.044738654 -0.11492515 0.46613887
0.054702692 -0.11497311 0.46297053
0.063513361 -0.11460074 0.46050122
0.037873358 -0.10365676 0.46902072
0.045098647 -0.10494878 0.46791974
0.054931097 -0.10499149 0.46480089
0.065103248 -0.10503814 0.46161437
0.07223431 -0.10288895 0.46048403
0.038963154 -0.099297501 0.46902066
0.046226487 -0.09570121 0.46870986
0.055168804 -0.094999813 0.46625841
0.06511005 -0.095141537 0.46367815
0.075012848 -0.094900578 0.46191296
0.08393909 -0.092193998 0.46029872
0.048053823 -0.086777553 0.4689098
0.055349387 -0.086010538 0.4673433
0.065155163 -0.085136846 0.4660612
0.075031333 -0.085049778 0.46390244
0.084831528 -0.08488138 0.46200874
0.092746161 -0.084020898 0.46036601
0.068090364 -0.075803801 0.4685843
0.075143211 -0.074958391 0.4659442
0.085111476 -0.075031139 0.46341503
0.095212437 -0.074826732 0.46141255
0.10219662 -0.072125889 0.46020526
0.068548627 -0.067410111 0.46835503
0.0753133 -0.064902723 0.4669376
0.084971704 -0.064959824 0.46522799
0.095066048 -0.064773209 0.4635902
0.10455426 -0.06481342 0.46135679
0.11116935 -0.060614049 0.46002373
0.078089789 -0.05894782 0.46902198
0.086473607 -0.055226672 0.46839988
0.094897904 -0.055092674 0.46532148
0.10499159 -0.055254128 0.46257558
0.11422931 -0.054130211 0.46109387
0.12084327 -0.051579665 0.46002406
0.087507449 -0.047487367 0.46896958
0.095178962 -0.045112304 0.46747187
0.10486347 -0.045015857 0.46522567
0.1149485 -0.044935592 0.46262383
0.12200553 -0.04461167 0.46035731
0.096106119 -0.035997 0.46844482
0.10502216 -0.034913592 0.46648106
0.1152123 -0.034737825 0.46317422
0.1248102 -0.034821194 0.4615387
0.13199231 -0.032044724 0.46073017
0.099487156 -0.029602623 0.46902254
0.1060501 -0.026472338 0.46802279
0.11483891 -0.025064619 0.4662661
0.12511703 -0.025067057 0.46432924
0.13405052 -0.02430379 0.46129692
0.14135031 -0.020638954 0.46002454
0.11626037 -0.018053604 0.46852311
0.12517887 -0.015225016 0.46694463
0.13497433 -0.015329774 0.46364394
0.14446835 -0.014719926 0.46134719
0.15074439 -0.012444046 0.46002486
0.12747104 -0.0048732408 0.46841374
0.13501859 -0.0055554234 0.4658213
0.14499293 -0.0062991446 0.462347
0.15225594 -0.0054983879 0.46002486
0.1278781 0.0047382889 0.46838713
0.13338226 0.0047774022 0.46619034
0.12930478 0.010735601 0.46852335
0.13119875 0.011538898 0.46802339
-0.052727673 -0.18141653 0.47812849
-0.045496084 -0.18081354 0.47501779
-0.038391978 -0.18029919 0.47301811
-0.052424479 -0.17538847 0.47817859
-0.044789042 -0.1751298 0.47511005
-0.034567881 -0.17511088 0.47271842
-0.025962152 -0.17423967 0.47095975
-0.017318171 -0.17057809 0.47001907
-0.051216979 -0.16775744 0.4784458
-0.044148654 -0.16651663 0.47546434
-0.034753252 -0.16516735 0.47383064
-0.024777204 -0.16527818 0.4721615
-0.015075068 -0.16503358 0.47047794
-0.0087409625 -0.16246031 0.47001937
-0.034004994 -0.159325 0.47371799
-0.025230872 -0.15768632 0.47068503
-0.013614414 -0.15626949 0.47006661
-0.0068134675 -0.15502706 0.47014427
-0.0081283543 -0.14974761 0.47001916
0.018512802 -0.11178844 0.47087699
0.02513128 -0.11412267 0.4708482
0.03425229 -0.11300109 0.47023287
0.015543835 -0.10406417 0.47384316
0.025053572 -0.1049907 0.47234422
0.033924215 -0.10567717 0.47006923
-0.00093995908 -0.096894279 0.47526854
0.0046782554 -0.096761242 0.47645295
0.015104833 -0.09575548 0.47806862
0.025007891 -0.095325641 0.47448462
0.034887284 -0.094707288 0.47137645
0.04237666 -0.093467683 0.470126
0.01893148 -0.088390552 0.47881943
0.024940263 -0.085247576 0.47729242
0.035160601 -0.085047647 0.47397965
0.044252332 -0.084228471 0.47087261
0.05427153 -0.080923289 0.47041002
0.027514439 -0.077888049 0.47848123
0.035230711 -0.075587533 0.47700432
0.045102548 -0.074955791 0.47429195
0.05536152 -0.07490655 0.47277471
0.063157089 -0.074831955 0.47084373
0.037772063 -0.06515824 0.47836617
0.044986676 -0.065231472 0.47581792
0.055437304 -0.065130927 0.47398961
0.064324513 -0.064364582 0.47155839
0.071272016 -0.06078906 0.47002164
0.038670693 -0.056882359 0.47864491
0.044966225 -0.055127829 0.47785574
0.054894019 -0.055123031 0.47605971
0.065159477 -0.055112083 0.47283375
0.074500144 -0.054627046 0.47048083
0.081486702 -0.054060902 0.47002217
0.047890838 -0.047697295 0.47882015
0.055565905 -0.045721639 0.47744155
0.064876057 -0.044873942 0.4749144
0.074911624 -0.045177758 0.47213104
0.084137015 -0.044103511 0.47066346
0.05915013 -0.038976222 0.4790206
0.065838598 -0.035398949 0.47790983
0.075006947 -0.034881707 0.47585663
0.085227422 -0.03553912 0.47294834
0.0925721 -0.032956909 0.47063088
0.067919627 -0.026819926 0.47859222
0.074910492 -0.024745245 0.4774541
0.085011393 -0.024870465 0.47517943
0.094934918 -0.025138155 0.47279245
0.10269248 -0.023058377 0.4706476
0.076418102 -0.016932763 0.47862113
0.085130893 -0.014629574 0.47728905
0.095271803 -0.01466429 0.47490066
0.10505875 -0.015093075 0.47238508
0.1143368 -0.013180404 0.47072512
0.12126487 -0.010795805 0.47002333
0.087184623 -0.0056780758 0.47839284
0.095055863 -0.0044712038 0.47641322
0.1049955 -0.0045880885 0.47458479
0.11498879 -0.0045677726 0.47245333
0.12247021 -0.0042800899 0.47027326
0.088704504 0.0014012294 0.4790214
0.095815286 0.0036269855 0.47816458
0.10503595 0.005467704 0.47661656
0.11509275 0.0051660915 0.47376174
0.12297535 0.0058832592 0.4710232
0.10591489 0.014280234 0.47813949
0.11505917 0.01393447 0.47566089
0.12375644 0.012880119 0.47244737
-0.10321334 -0.18350181 0.48824206
-0.095258832 -0.18273878 0.48588017
-0.084657647 -0.18248168 0.48370326
-0.074881293 -0.1820661 0.48277479
-0.065382905 -0.18211062 0.48105848
-0.05773079 -0.18171667 0.48001716
-0.10337079 -0.17668344 0.48841467
-0.094530866 -0.1762629 0.48599243
-0.08492355 -0.17599845 0.48476121
-0.074733689 -0.17535985 0.48350722
-0.064944461 -0.17551735 0.48213744
-0.057447176 -0.17451715 0.48047408
-0.062327191 -0.16916256 0.48168334
-0.056352478 -0.16818982 0.48048759
-0.0033242248 -0.091009043 0.48235163
0.0047043473 -0.091619328 0.48032305
0.012471848 -0.091115706 0.48001915
-0.01385345 -0.084580697 0.48816776
-0.0052309236 -0.084948473 0.48483613
0.0048564933 -0.085100338 0.48211238
0.01459574 -0.084617026 0.48066902
0.020981265 -0.081354819 0.48001939
-0.012151498 -0.07776539 0.48891759
-0.0049170763 -0.074993968 0.4870179
0.0048696483 -0.075258233 0.48347169
0.014907956 -0.075020619 0.4819566
0.024307935 -0.074126974 0.48101944
0.031472161 -0.07174927 0.48013088
-0.0023997934 -0.06705939 0.48858047
0.0048944182 -0.065044172 0.48617539
0.014967898 -0.065227069 0.48387814
0.02500625 -0.065096222 0.48289409
0.033008199 -0.064497665 0.48071206
0.0075899293 -0.056620728 0.48874548
0.01507189 -0.05553133 0.48734665
0.025103889 -0.055242114 0.48480049
0.034402896 -0.054515738 0.48135892
0.04091996 -0.050737381 0.4800199
0.016533414 -0.047528222 0.48866373
0.025208846 -0.045320783 0.48684701
0.035114497 -0.04500242 0.48344141
0.044400994 -0.044203669 0.48109403
0.052656151 -0.041387551 0.48025104
0.02638736 -0.035283171 0.48839873
0.035314631 -0.035120718 0.48617545
0.045235652 -0.03495032 0.48383248
0.055003259 -0.034720402 0.48162341
0.061535269 -0.032814808 0.48023483
0.026404195 -0.026332216 0.48855534
0.035414826 -0.025049783 0.48753467
0.045428742 -0.024964394 0.48589453
0.055302754 -0.024848638 0.48362955
0.064128406 -0.024087133 0.4809806
0.070536084 -0.020286763 0.48002085
0.037807982 -0.017815933 0.48896021
0.045771159 -0.015021729 0.4880197
0.055496469 -0.014815967 0.48533231
0.065186419 -0.014717228 0.48214561
0.073867053 -0.013172582 0.48040536
0.080547169 -0.010275599 0.48002118
0.04644385 -0.0054467996 0.48841935
0.054877494 -0.0046659838 0.48689073
0.064866945 -0.0047162795 0.48500523
0.075090364 -0.0045251246 0.48279691
0.0827277 -0.0037860479 0.48042747
0.05629997 0.0034648571 0.48867479
0.06459216 0.0054481011 0.48712966
0.074991167 0.0054193754 0.48458984
0.08498574 0.0055814628 0.48148021
0.093572825 0.0079005975 0.48034152
0.065972619 0.014398691 0.48816991
0.074837022 0.014803235 0.48580015
0.085078537 0.015179725 0.48389184
0.095038548 0.015421102 0.48184958
0.10183568 0.017168632 0.48009327
0.068388537 0.021904092 0.48881993
0.074682623 0.023433352 0.48754093
0.08255545 0.022112941 0.48595399
0.091990687 0.0218268 0.4842712
-0.14197364 -0.19021226 0.49901286
-0.13807085 -0.19021225 0.49901307
-0.1404559 -0.18847769 0.49901292
-0.13407244 -0.185598 0.49834645
-0.12501791 -0.1846256 0.49624568
-0.11554781 -0.18433055 0.49378964
-0.10826342 -0.18383701 0.49068123
-0.13240258 -0.17794634 0.49901313
-0.12497383 -0.17603873 0.49827886
-0.11498639 -0.17550002 0.4943918
-0.10826673 -0.17635176 0.49101436
-0.052334804 -0.082011037 0.49864057
-0.044477329 -0.081018858 0.49586213
-0.034736611 -0.083003156 0.49311328
-0.023986129 -0.084095009 0.49185425
-0.018317983 -0.083850309 0.49021739
-0.051140707 -0.076035969 0.49889043
-0.044870384 -0.074759647 0.49690863
-0.034899995 -0.075345859 0.49332908
-0.024555227 -0.075344592 0.49226698
-0.015473509 -0.074493587 0.49088687
-0.0093256012 -0.070957273 0.49001756
-0.050258946 -0.066624053 0.49901539
-0.044937301 -0.06468232 0.49847028
-0.035213772 -0.065162733 0.4966926
-0.024698058 -0.065450028 0.49511051
-0.014981401 -0.065288961 0.49389219
-0.0062606535 -0.064148374 0.4914968
0.00046822493 -0.060311724 0.49001792
-0.043103896 -0.058818474 0.49901563
-0.034013279 -0.057706486 0.49885604
-0.024641521 -0.055653945 0.49801645
-0.015065257 -0.055300839 0.4966599
-0.0053231511 -0.054931682 0.49336115
0.0036802648 -0.053645238 0.49073902
-0.021963913 -0.047679227 0.49901652
-0.015100905 -0.045048114 0.49780232
-0.0053360742 -0.044763945 0.49467364
0.0049556457 -0.044515837 0.49195534
0.013711304 -0.043355025 0.49077502
-0.013884396 -0.035322506 0.49840117
-0.0053551407 -0.0345826 0.4966577
0.004815029 -0.034805872 0.49437377
0.015384416 -0.035239253 0.49193478
0.021458035 -0.035406407 0.49008995
-0.011603062 -0.026852768 0.49901667
-0.0053691515 -0.024936538 0.49789184
0.0051546348 -0.025261961 0.49595195
0.015248949 -0.025338819 0.49315864
0.023430694 -0.023010775 0.49054009
-0.0035334264 -0.017721277 0.49876693
0.0051395795 -0.015341512 0.4977591
0.01533356 -0.015133591 0.49576783
0.025317533 -0.015210832 0.49321508
0.034182046 -0.013940475 0.49099752
0.04058031 -0.01151255 0.49001908
0.0078021227 -0.0070541636 0.4989647
0.015388042 -0.0048132264 0.49756444
0.024999354 -0.0047919201 0.49521446
0.034462504 -0.0047611417 0.4921124
0.041534837 -0.0037713167 0.49027985
0.017646402 0.0028030032 0.49859658
0.025275562 0.0047779717 0.49740109
0.034653734 0.0048925704 0.49483991
0.044760678 0.0048694578 0.49248317
0.053532775 0.0070687574 0.490843
0.026949283 0.014452467 0.49892959
0.034846388 0.014643367 0.49756533
0.04501158 0.014577272 0.49525312
0.054988258 0.015058008 0.49280873
0.061943904 0.016598135 0.49064472
0.028121408 0.021839149 0.49901786
0.035302453 0.024691686 0.49862143
0.04516324 0.02498726 0.49690941
0.055228125 0.024853159 0.4942537
0.06450773 0.02521416 0.49150127
0.072026312 0.02838934 0.49016285
0.038058989 0.031957492 0.49901813
0.045773365 0.034516752 0.4978812
0.055345543 0.035238106 0.49530038
0.065453924 0.034969002 0.49298707
0.073626123 0.034828775 0.49253279
0.048871063 0.043694768 0.49901855
0.055477343 0.045069404 0.49721882
0.063770473 0.044621602 0.49588132
0.072078608 0.044207327 0.49581972
0.049351376 0.053146668 0.4986183
0.055453602 0.053803407 0.49528283
0.064616866 0.053269293 0.49607328
0.070584811 0.051656932 0.49801949
-0.18210711 -0.19110562 0.50901079
-0.17536138 -0.19192486 0.50837117
-0.1654647 -0.19157082 0.50542343
-0.15568557 -0.19089752 0.50239682
-0.14747225 -0.19059354 0.50001258
-0.18187962 -0.18701088 0.50901073
-0.17464401 -0.18604693 0.5085761
-0.16461843 -0.18497448 0.50706428
-0.15480363 -0.18494993 0.5041846
-0.1448842 -0.18501124 0.50101274
-0.13827515 -0.18204813 0.50001287
-0.16207148 -0.17655022 0.50887829
-0.15487741 -0.17499103 0.50582325
-0.1448205 -0.17502642 0.50210172
-0.13592961 -0.17389166 0.50037664
-0.12857114 -0.17169227 0.50001329
-0.15497728 -0.1673559 0.50740302
-0.14512242 -0.1674263 0.50264198
-0.138842 -0.16833507 0.50101262
-0.083887927 -0.082903869 0.50821394
-0.074744381 -0.082942203 0.50536925
-0.065690987 -0.082204618 0.5036149
-0.0573675 -0.081071071 0.50101525
-0.08383704 -0.075457186 0.50862616
-0.07488209 -0.074982487 0.50717503
-0.065493964 -0.074830703 0.50557828
-0.056277424 -0.074812815 0.50159299
-0.082092963 -0.067653805 0.50901371
-0.074649148 -0.065672994 0.50852579
-0.065335028 -0.064978845 0.50628906
-0.055451106 -0.064955413 0.5018943
-0.049056131 -0.060239971 0.50001532
-0.0724978 -0.059998028 0.50901407
-0.063755207 -0.056227695 0.50843298
-0.054836713 -0.054926842 0.50517571
-0.045017876 -0.054103397 0.5021382
-0.035691097 -0.053107832 0.50075114
-0.029068679 -0.051549677 0.50001621
-0.060997222 -0.048939686 0.50901449
-0.054512389 -0.045068458 0.50846148
-0.044991631 -0.045089956 0.50555104
-0.034768522 -0.045150969 0.50288129
-0.025962209 -0.044476058 0.50080806
-0.053025477 -0.036632609 0.50866175
-0.045015283 -0.035353102 0.50665003
-0.035060689 -0.03516094 0.50492638
-0.02508021 -0.035004158 0.50270355
-0.01802093 -0.033435885 0.50054586
-0.04279574 -0.026102547 0.50839436
-0.035182178 -0.024713207 0.50667614
-0.025224658 -0.024663001 0.50564086
-0.01588965 -0.024699256 0.50166762
-0.033360187 -0.016197041 0.5087353
-0.025027633 -0.014967128 0.50692129
-0.01510225 -0.015196176 0.50317699
-0.006417674 -0.013864364 0.50068343
0.0011296406 -0.01070556 0.50001705
-0.023416476 -0.0062069702 0.50851578
-0.014700604 -0.0048961691 0.50629729
-0.0047699185 -0.0048641101 0.503106
0.003870534 -0.0039019787 0.5007503
-0.020745233 0.0017074677 0.50901562
-0.014296352 0.0046452475 0.50791597
-0.0047873096 0.004987672 0.50501645
0.0050618793 0.0049656145 0.50253481
0.014019891 0.0059172632 0.50087452
0.02068254 0.008195729 0.50001764
-0.011306656 0.011657723 0.50890487
-0.0043984167 0.014312368 0.50778711
0.0050931759 0.014886245 0.50568861
0.014890282 0.014794429 0.50267804
0.02187359 0.014987646 0.50045103
-0.0012827211 0.02249714 0.50901628
0.0053502675 0.024671726 0.50779021
0.014944208 0.024712007 0.50448644
0.024142841 0.025680872 0.50139266
0.031327967 0.028835028 0.50001788
0.0075085959 0.031866588 0.50884008
0.015323228 0.034521397 0.50776678
0.024785578 0.035206065 0.50408882
0.034506164 0.035562146 0.50123078
0.041769821 0.037972722 0.50018483
0.017123112 0.043936614 0.50885016
0.02507047 0.044948585 0.50628406
0.035254076 0.04499789 0.50339264
0.04433855 0.04516403 0.50099748
0.024882354 0.053881276 0.50785798
0.035174605 0.052224874 0.50349593
0.044123724 0.051734038 0.50128478
0.013092896 0.06341289 0.50901628
-0.22303997 -0.1936146 0.51891345
-0.21486458 -0.19330336 0.51822531
-0.20489906 -0.19357762 0.51549536
-0.19461878 -0.19280583 0.51191342
-0.18521969 -0.19283196 0.51020116
-0.22302721 -0.187472 0.51891774
-0.21427158 -0.18669403 0.51871955
-0.20509249 -0.18510227 0.51738447
-0.19485028 -0.18500248 0.51344854
-0.18543455 -0.18415992 0.51118827
-0.17537649 -0.18105339 0.51064253
-0.1697007 -0.18111019 0.51001132
-0.20417367 -0.17529981 0.51805097
-0.19457722 -0.17489895 0.51537734
-0.18494476 -0.17548424 0.5144437
-0.17496274 -0.17506377 0.5137431
-0.16617784 -0.17421196 0.51143628
-0.20258339 -0.16853678 0.5188843
-0.19434097 -0.16644089 0.51736689
-0.18502423 -0.16496299 0.51565313
-0.17518538 -0.16523628 0.51439863
-0.16562423 -0.16570851 0.51283342
-0.15906394 -0.16581972 0.51001155
-0.1906234 -0.15893698 0.51900983
-0.18440381 -0.15531449 0.51721001
-0.17559409 -0.15552595 0.51415336
-0.1686866 -0.15941539 0.51401085
-0.18133289 -0.14773315 0.51834339
-0.17728241 -0.14675118 0.51743126
-0.14056018 -0.10176972 0.51901138
-0.12514766 -0.083240859 0.51877844
-0.11475945 -0.084002919 0.51766944
-0.10542393 -0.082981221 0.51381272
-0.095630735 -0.081685595 0.51110417
-0.089592554 -0.082054481 0.51001364
-0.12311988 -0.075259149 0.51830214
-0.1151123 -0.074983656 0.51504922
-0.10501783 -0.0750736 0.51227784
-0.095416032 -0.074875616 0.51093149
-0.089165211 -0.074171841 0.51001352
-0.12309518 -0.067357935 0.51867825
-0.11488815 -0.066451497 0.51718694
-0.10463724 -0.065874033 0.51588053
-0.094783261 -0.065238945 0.51331127
-0.085599065 -0.064111292 0.51105893
-0.077517271 -0.061357129 0.51028663
-0.1018528 -0.058903258 0.51884586
-0.09482158 -0.055324979 0.51776791
-0.08551532 -0.054874219 0.51454169
-0.075272888 -0.054795537 0.51122957
-0.067951642 -0.053747855 0.51001424
-0.10098325 -0.041558124 0.51901233
-0.094975859 -0.044550348 0.51850104
-0.085221648 -0.044852249 0.51634055
-0.074826062 -0.045236383 0.51286614
-0.0649902 -0.044669893 0.51099545
-0.058901057 -0.042831089 0.51001453
-0.10098325 -0.039528526 0.51901227
-0.094280146 -0.037151184 0.51888752
-0.084686421 -0.035094138 0.51832771
-0.07483352 -0.035254735 0.51593184
-0.065044478 -0.03505398 0.51299357
-0.056421548 -0.033822246 0.51089323
-0.08165884 -0.026260842 0.51887965
-0.07507845 -0.025252251 0.51763827
-0.065309502 -0.025103021 0.5158385
-0.05499056 -0.025098899 0.51345879
-0.04671865 -0.023515539 0.51086664
-0.080687337 -0.01923245 0.51901293
-0.074218124 -0.016153282 0.51857197
-0.06506405 -0.014990597 0.51708764
-0.05469197 -0.015165078 0.51428866
-0.044901565 -0.014966093 0.51205546
-0.036692102 -0.013399112 0.51068181
-0.071215928 -0.0097609479 0.51901329
-0.064483427 -0.0055447845 0.51826787
-0.054673139 -0.0049931025 0.51608545
-0.045072973 -0.0049743215 0.51403242
-0.03491845 -0.0049578743 0.51246822
-0.026793951 -0.0029448241 0.51046997
-0.061406236 0.0014018873 0.51901358
-0.053943511 0.0044198972 0.51782471
-0.045236792 0.0050956276 0.51589197
-0.03499274 0.005070514 0.51356858
-0.025002819 0.0051894621 0.51114285
-0.018576341 0.0081401123 0.51018238
-0.05147187 0.012268628 0.5187282
-0.045122061 0.014693486 0.51765418
-0.035006255 0.015079253 0.51485598
-0.024927901 0.015101882 0.5131225
-0.015408776 0.015588677 0.51117927
-0.007323808 0.018829439 0.51001608
-0.042801652 0.020547846 0.51901418
-0.033429775 0.023829702 0.5181998
-0.025045428 0.025248574 0.51546389
-0.014876021 0.025096843 0.51239061
-0.005334557 0.025356008 0.51073706
0.00093076768 0.028524494 0.51001626
-0.030624116 0.034890395 0.51901454
-0.025100278 0.034728274 0.51658624
-0.014910351 0.03519972 0.51360917
-0.0048513161 0.035085566 0.51194465
0.0042821844 0.036088347 0.51067603
0.011456748 0.038607351 0.51001668
-0.03062414 0.040979199 0.51901448
-0.024589919 0.04433462 0.51799345
-0.014987158 0.045470294 0.51619375
-0.0048685521 0.045255642 0.51377064
0.0051590195 0.045116179 0.51217687
0.013154885 0.045810904 0.51041663
-0.022604026 0.054939114 0.51842362
-0.015231288 0.053854343 0.51650339
-0.004703714 0.053835463 0.51419038
0.0053288834 0.054958709 0.51277006
0.015128518 0.054957531 0.51060605
0.020697411 0.056623507 0.5100168
0.0078155724 0.060997479 0.51101607
0.014450992 0.061225522 0.51014143
-0.26359749 -0.20027135 0.52900672
-0.26115406 -0.19881648 0.52880681
-0.25446433 -0.19596003 0.52808213
-0.24527307 -0.19473757 0.52566659
-0.23504552 -0.19430022 0.52231765
-0.22770667 -0.19437794 0.5200085
-0.25198907 -0.18550251 0.52861577
-0.24459566 -0.1850438 0.52631998
-0.23474778 -0.18502969 0.52326328
-0.22580506 -0.18337519 0.52089065
-0.21588285 -0.18198743 0.52011412
-0.25049573 -0.17958425 0.52900702
-0.24380219 -0.1771206 0.5282473
-0.23511077 -0.17544393 0.52634102
-0.22514133 -0.17491734 0.52375829
-0.21521994 -0.17508872 0.52116275
-0.20940514 -0.17336494 0.52000904
-0.23319744 -0.16579507 0.52814108
-0.22476152 -0.16496156 0.52529693
-0.2147059 -0.1647801 0.52212644
-0.20516607 -0.16450106 0.52094394
-0.19701216 -0.16194226 0.52043808
-0.23118794 -0.15820754 0.52900767
-0.22499065 -0.15522568 0.5276745
-0.21506046 -0.15489267 0.52512717
-0.20522267 -0.15527545 0.52366334
-0.19550575 -0.15480578 0.52189177
-0.18858495 -0.15240452 0.52038473
-0.22186823 -0.14821771 0.52886504
-0.21392509 -0.14592157 0.52812248
-0.20498416 -0.14524938 0.5262779
-0.19502212 -0.14522138 0.5244621
-0.18542206 -0.14433381 0.52172399
-0.17819729 -0.14168675 0.5202601
-0.21084574 -0.13855477 0.52900833
-0.20474003 -0.13507383 0.52789748
-0.19488637 -0.13522528 0.52612221
-0.18530124 -0.13535236 0.52426964
-0.1778052 -0.13667865 0.52142662
-0.20314558 -0.12970527 0.52900857
-0.19401093 -0.12763032 0.52860898
-0.18580304 -0.12492239 0.52707911
-0.17646596 -0.12253161 0.52291453
-0.1917278 -0.11467212 0.52858031
-0.18506907 -0.11480232 0.52616137
-0.17489949 -0.11513767 0.52332985
-0.16707794 -0.1135882 0.52279276
-0.15547235 -0.11062946 0.52251065
-0.19119316 -0.10855845 0.52900881
-0.18426411 -0.1068442 0.52766621
-0.17497291 -0.1054047 0.52630585
-0.16496752 -0.10490368 0.52454567
-0.15492335 -0.10496393 0.52250075
-0.14593095 -0.10361896 0.52056289
-0.13913639 -0.1006102 0.52001137
-0.17275706 -0.096743248 0.5285095
-0.16504759 -0.095118053 0.52628267
-0.15478383 -0.094856314 0.52289933
-0.14481989 -0.095194399 0.52065116
-0.13588853 -0.094370872 0.52076817
-0.12595327 -0.091985077 0.52081192
-0.1170488 -0.091339521 0.52126235
-0.16406222 -0.086348891 0.5277673
-0.15510322 -0.084897377 0.5254612
-0.14491023 -0.085509643 0.52239549
-0.13527134 -0.085144661 0.52077925
-0.1254773 -0.087823041 0.52024269
-0.11650608 -0.088697121 0.5204739
-0.15324467 -0.076409355 0.52797675
-0.14496806 -0.074766569 0.52555782
-0.13534792 -0.075224943 0.52220666
-0.12833291 -0.074719034 0.5204401
-0.14442256 -0.065277785 0.52775395
-0.13500883 -0.064846314 0.5237509
-0.12589711 -0.063750513 0.52091384
-0.11490314 -0.061384328 0.52077377
-0.10847759 -0.061108053 0.52034563
-0.14394388 -0.056093302 0.52847904
-0.13513176 -0.055158909 0.52669066
-0.12522052 -0.05517197 0.52490485
-0.11546622 -0.054860339 0.52331793
-0.10572147 -0.054628808 0.52109551
-0.099434733 -0.052580476 0.52001256
-0.14062506 -0.049485236 0.52901036
-0.13411701 -0.048035696 0.52865064
-0.1245079 -0.045101222 0.52760738
-0.11523376 -0.045385532 0.52451152
-0.1056674 -0.045278229 0.5212248
-0.099370189 -0.04751284 0.52001244
-0.13051146 -0.033395268 0.52901059
-0.12460907 -0.034666885 0.52735788
-0.11472532 -0.03487017 0.52467132
-0.10508198 -0.034880038 0.52183324
-0.09532842 -0.032298155 0.52041978
-0.088298947 -0.03011499 0.52001274
-0.12364874 -0.027562503 0.52826083
-0.11471982 -0.025270766 0.52725041
-0.10505792 -0.024964593 0.52584839
-0.095014632 -0.024846388 0.52337962
-0.0862692 -0.024192469 0.52095562
-0.11230691 -0.019052166 0.52901125
-0.10444664 -0.016737379 0.52854496
-0.095523417 -0.01538125 0.52617544
-0.085409097 -0.01518681 0.52251256
-0.077739999 -0.012952374 0.52041286
-0.10269525 -0.00528542 0.52882105
-0.095434591 -0.0049591707 0.52673608
-0.085474856 -0.0052282666 0.52438283
-0.075581245 -0.0048756646 0.521263
-0.068472333 -0.0019846908 0.52001321
-0.10127389 0.0021865838 0.52901143
-0.094014235 0.003713432 0.52768821
-0.084508561 0.0051164296 0.5264706
-0.074690603 0.0051838392 0.52438015
-0.065120891 0.0054928726 0.52219105
-0.057965849 0.0072870608 0.52051365
-0.082088619 0.012116444 0.52901226
-0.075028569 0.014700767 0.52799135
-0.065197758 0.014763864 0.5249927
-0.055825897 0.015053104 0.52146578
-0.049662448 0.0186894 0.52001387
-0.074168205 0.023835715 0.52846968
-0.065251485 0.024923138 0.52645731
-0.05523653 0.025161086 0.52403021
-0.045152143 0.025261451 0.52184731
-0.036277976 0.02741475 0.52069622
-0.063342132 0.034154017 0.52856839
-0.054573029 0.035228942 0.5260523
-0.044550866 0.035200037 0.52362603
-0.03549058 0.035016395 0.52089524
-0.060597591 0.043809947 0.52867943
-0.054419179 0.045016795 0.52664572
-0.044670645 0.044881295 0.52505434
-0.0350715 0.044776957 0.52214181
-0.028285583 0.048384678 0.52023661
-0.052974768 0.052772075 0.52871305
-0.044834014 0.054656968 0.52695233
-0.035027955 0.055045988 0.52410311
-0.027423836 0.055551581 0.52101433
-0.05052191 0.061765496 0.52901298
-0.044323295 0.064045377 0.52617604
-0.035884563 0.064829826 0.52491105
-0.027831834 0.061268639 0.52241415
-0.041164905 0.070744783 0.52401328
-0.039115753 0.07074479 0.52401346
-0.30094758 -0.20252657 0.53867143
-0.29480019 -0.20184106 0.53684717
-0.28501508 -0.20153013 0.5344342
-0.27493304 -0.20080768 0.53225613
-0.26755011 -0.20064999 0.53000647
-0.29352677 -0.19563307 0.53790832
-0.28481516 -0.19487472 0.53586537
-0.27536541 -0.19486387 0.53433251
-0.26538315 -0.19487016 0.53137606
-0.25818497 -0.19251302 0.53000689
-0.29082927 -0.18813227 0.53900504
-0.28410274 -0.18536772 0.53816825
-0.27457538 -0.18542092 0.53645474
-0.26493704 -0.18480998 0.53342098
-0.25737497 -0.18484905 0.53034008
-0.28146133 -0.17782736 0.53900528
-0.27445248 -0.1755731 0.53805339
-0.26503363 -0.17496757 0.53573543
-0.25493252 -0.17498265 0.53222239
-0.24599339 -0.17303303 0.53039175
-0.23991533 -0.17025152 0.53000736
-0.27068812 -0.16892768 0.53900576
-0.26497662 -0.16512984 0.53781986
-0.25490916 -0.16493876 0.53500658
-0.24511507 -0.16480768 0.53247637
-0.23770118 -0.16412508 0.53030741
-0.26354474 -0.15555851 0.5383929
-0.25515616 -0.15536132 0.53644389
-0.24537386 -0.154934 0.53436399
-0.23560548 -0.15462852 0.53128403
-0.22886145 -0.15159795 0.5300076
-0.26120305 -0.14820084 0.53900588
-0.25504836 -0.14498532 0.53742832
-0.24528781 -0.14486998 0.53496665
-0.23481685 -0.1451253 0.53304714
-0.22546728 -0.14457096 0.53134108
-0.21742949 -0.14230104 0.53020799
-0.25423148 -0.13531598 0.53813761
-0.24473099 -0.13501127 0.53581911
-0.23520255 -0.13493845 0.53482538
-0.22480768 -0.13520974 0.53349745
-0.21491335 -0.13476716 0.53086853
-0.20905654 -0.13064142 0.53000826
-0.25148371 -0.12911339 0.53900599
-0.24441016 -0.12569994 0.53800625
-0.23487388 -0.12478404 0.53600687
-0.22505334 -0.12515508 0.53445196
-0.21520014 -0.12460455 0.53343385
-0.2053571 -0.12452288 0.5317927
-0.19606692 -0.124143 0.53041506
-0.24153022 -0.11869141 0.53900635
-0.23471016 -0.11547303 0.53761518
-0.22457092 -0.11480712 0.53604865
-0.21467549 -0.11490396 0.53570747
-0.20484339 -0.11490735 0.53438592
-0.19680955 -0.11499216 0.53093958
-0.23276053 -0.10874818 0.53867328
-0.22459334 -0.10582511 0.53786749
-0.21486568 -0.10519194 0.53645623
-0.20515668 -0.10487596 0.53484118
-0.19529566 -0.10451827 0.53190845
-0.18613222 -0.10227675 0.53030306
-0.2208035 -0.098667108 0.53900707
-0.21413693 -0.097013794 0.53790742
-0.2050166 -0.095043011 0.53666776
-0.19499663 -0.094980076 0.53460389
-0.18492483 -0.09536992 0.53225887
-0.17633875 -0.093685262 0.53058511
-0.20210233 -0.087244116 0.53847438
-0.19493693 -0.085252941 0.53734154
-0.1851808 -0.085180655 0.53514594
-0.17488073 -0.084816366 0.53248644
-0.16663514 -0.082561567 0.53034288
-0.19215232 -0.076229602 0.53878593
-0.18471937 -0.074927673 0.53728855
-0.17511839 -0.075166903 0.53538638
-0.1652381 -0.074746951 0.53257197
-0.15736189 -0.073770322 0.53025997
-0.18394168 -0.06535086 0.53852117
-0.17503123 -0.064643495 0.53653246
-0.16509186 -0.064792432 0.53429234
-0.15475434 -0.065180369 0.53115273
-0.14872068 -0.063166022 0.53001016
-0.18229999 -0.05600201 0.53862733
-0.17496371 -0.054738365 0.53700852
-0.16531287 -0.054795016 0.53544658
-0.15469173 -0.055082098 0.53204674
-0.14704597 -0.052216299 0.53019756
-0.17303476 -0.047705352 0.53875864
-0.1648183 -0.04524583 0.5377174
-0.15487897 -0.044892132 0.5345571
-0.14500675 -0.044528071 0.53125995
-0.1353019 -0.042831142 0.53017175
-0.12937635 -0.041748915 0.53001076
-0.16279599 -0.037736166 0.53847569
-0.15477985 -0.035329599 0.53652078
-0.14521991 -0.035264984 0.53372085
-0.1355871 -0.035049599 0.53082854
-0.15256679 -0.028390121 0.53870934
-0.14478786 -0.025730148 0.53679228
-0.13482815 -0.025201447 0.53287059
-0.12608443 -0.023567943 0.53068918
-0.11924365 -0.0214833 0.53001094
-0.14310911 -0.016034773 0.5382238
-0.1349421 -0.015053943 0.53593731
-0.12481704 -0.014743187 0.53347343
-0.11507206 -0.01488132 0.53066331
-0.10687379 -0.013225685 0.53001148
-0.13410215 -0.0051038554 0.53804022
-0.12504658 -0.0044826227 0.53511238
-0.11446796 -0.0049684932 0.53193694
-0.10698435 -0.0050050342 0.53012228
-0.13189404 0.0026835757 0.53888482
-0.12472807 0.0047822385 0.53751016
-0.11510959 0.0051938109 0.53471899
-0.10527571 0.0057021957 0.53161585
-0.096134052 0.0081751999 0.53051156
-0.089306004 0.0093757669 0.53001195
-0.12127063 0.012902443 0.53881013
-0.11464224 0.015206877 0.5373286
-0.10530555 0.01487689 0.53544581
-0.095378198 0.014991383 0.533032
-0.085904337 0.015541226 0.53053689
-0.079633825 0.018357139 0.53001225
-0.11262533 0.023684412 0.53855205
-0.1044414 0.024889519 0.53676587
-0.094822131 0.024751686 0.53382099
-0.085272595 0.024606204 0.53068531
-0.078252114 0.026252823 0.53001213
-0.10372841 0.034250174 0.53803712
-0.0948961 0.034763221 0.53548825
-0.085286029 0.034359675 0.53257424
-0.07513126 0.034883585 0.53121221
-0.066976577 0.036610834 0.53035873
-0.10171275 0.040800191 0.5390107
-0.094058022 0.043194033 0.53816736
-0.084766701 0.044439826 0.53623593
-0.074717775 0.045276575 0.53435892
-0.065434597 0.045728434 0.53136241
-0.083777316 0.054368287 0.53770369
-0.074806169 0.05516528 0.53399217
-0.064616106 0.055127017 0.53148198
-0.055935953 0.056433145 0.5302887
-0.082928821 0.064737126 0.53828043
-0.075145736 0.063977487 0.53434497
-0.064780653 0.062731944 0.5320121
-0.055682205 0.062497422 0.53096724
-0.088012122 0.075579137 0.53901076
-0.30169278 -0.20068246 0.54000473
-0.30241665 -0.1943703 0.54232031
-0.29787359 -0.1937293 0.54043329
-0.30275711 -0.18465757 0.54412937
-0.2953327 -0.18469068 0.5415169
-0.2882404 -0.18253726 0.54000509
-0.30349022 -0.17485866 0.54606861
-0.29473555 -0.17499472 0.5437755
-0.28540984 -0.17419596 0.54167175
-0.27716947 -0.17154376 0.54029119
-0.3031165 -0.16675115 0.54790878
-0.29481605 -0.16520227 0.54700446
-0.2852048 -0.16505723 0.54520071
-0.27540892 -0.16532074 0.54158038
-0.26978248 -0.16149817 0.54000568
-0.29213116 -0.15768558 0.54878211
-0.28424844 -0.15544353 0.54689676
-0.27502972 -0.15479207 0.54307663
-0.26797709 -0.15356663 0.54033893
-0.28153718 -0.14563313 0.54889369
-0.27529025 -0.14485623 0.54584712
-0.26571444 -0.1450232 0.54129511
-0.28000379 -0.13771179 0.54900467
-0.27417228 -0.13517606 0.54676962
-0.26484019 -0.13479778 0.54205549
-0.25904253 -0.13313393 0.54011679
-0.27204037 -0.12801351 0.54833823
-0.26469368 -0.12548411 0.54628026
-0.2551668 -0.12494224 0.54218757
-0.24795789 -0.12181099 0.54038107
-0.26163608 -0.11797738 0.54875529
-0.25477913 -0.11503536 0.54585546
-0.24512663 -0.11468877 0.54135609
-0.2383415 -0.11058209 0.54000634
-0.25222445 -0.10725233 0.54793894
-0.2451351 -0.10478754 0.54571706
-0.23538579 -0.10428224 0.54183978
-0.22748579 -0.10139431 0.54022896
-0.24338149 -0.0968678 0.54804748
-0.23500171 -0.094711788 0.54616946
-0.22510512 -0.094949156 0.54247016
-0.21608441 -0.092460342 0.54067385
-0.20924675 -0.090403304 0.54000747
-0.23326938 -0.085297942 0.54862159
-0.22497444 -0.08485274 0.54641837
-0.21475671 -0.085208505 0.54300714
-0.20569618 -0.083978757 0.5404591
-0.1993921 -0.080548562 0.54000783
-0.23191312 -0.077884167 0.5490061
-0.22479974 -0.074674942 0.54745322
-0.21429139 -0.07529106 0.54365814
-0.204817 -0.075097464 0.54131705
-0.19676219 -0.074088991 0.54026586
-0.22355318 -0.064914532 0.54836106
-0.2148888 -0.064793251 0.54632676
-0.20481655 -0.065391488 0.54326254
-0.19490007 -0.065266125 0.54089159
-0.18869276 -0.063232407 0.54000807
-0.22275303 -0.058991265 0.54900622
-0.21427107 -0.057276417 0.54835665
-0.20472363 -0.055117279 0.54613745
-0.19525667 -0.055207346 0.54255307
-0.18726803 -0.054670651 0.54037833
-0.20224977 -0.045323566 0.54817367
-0.19468783 -0.044833008 0.54489887
-0.18473469 -0.045224149 0.54165363
-0.17597857 -0.04422484 0.54036552
-0.16982813 -0.041129641 0.54000866
-0.2018386 -0.0363933 0.54878467
-0.19518247 -0.034452159 0.54682118
-0.18488272 -0.035085905 0.54357386
-0.17486298 -0.034846112 0.54228091
-0.16641425 -0.033906132 0.54135245
-0.15950422 -0.031744167 0.54000902
-0.1931317 -0.026389699 0.54820716
-0.18514557 -0.024357773 0.54639387
-0.17524962 -0.024576483 0.5442847
-0.16510588 -0.024716893 0.54352766
-0.1555894 -0.023880748 0.5413506
-0.148711 -0.020716244 0.54000938
-0.18407343 -0.017173074 0.54825747
-0.17485839 -0.014807359 0.54764444
-0.16508465 -0.014492395 0.5466333
-0.15483855 -0.014628536 0.54341805
-0.14721295 -0.013199598 0.54070938
-0.1741185 -0.0040128124 0.54883122
-0.16536781 -0.0046000578 0.54855907
-0.15520099 -0.004415974 0.54628146
-0.14488152 -0.0046921615 0.54213691
-0.13813141 -0.0023368311 0.54023176
-0.17315628 0.0018380046 0.54888266
-0.1645577 0.0043802694 0.54850793
-0.15489736 0.005397127 0.54692698
-0.14472005 0.005364696 0.54350907
-0.13558191 0.0060624708 0.54090708
-0.12787548 0.0089887222 0.54000986
-0.16120835 0.011141608 0.54900813
-0.15491791 0.01522193 0.54798651
-0.14495748 0.015534703 0.54565328
-0.13515587 0.015092098 0.54320508
-0.12585646 0.015792578 0.54106116
-0.11914706 0.019406585 0.54001015
-0.15304258 0.023061087 0.54880834
-0.14503223 0.025226032 0.54794484
-0.1350037 0.025507336 0.54607445
-0.12502652 0.024976466 0.54269856
-0.11696098 0.026304636 0.5405702
-0.14231557 0.031752087 0.54900873
-0.13439056 0.034522839 0.54800922
-0.1251241 0.035188552 0.54455721
-0.11519656 0.034976311 0.54127526
-0.10841496 0.036690928 0.54010135
-0.13237947 0.04566076 0.54845893
-0.12483095 0.045360785 0.54558384
-0.114957 0.044787224 0.54241914
-0.10555165 0.045178749 0.54103243
-0.09686251 0.047434043 0.54042262
-0.13206606 0.052156154 0.54884225
-0.1245734 0.054964554 0.54710013
-0.11496427 0.054957747 0.54350978
-0.10544234 0.054796334 0.54192853
-0.095511623 0.054773424 0.54168439
-0.088817179 0.055575594 0.54034442
-0.13115175 0.069824129 0.54900861
-0.12457851 0.065776005 0.54778409
-0.11455593 0.064619355 0.54441988
-0.10504835 0.064881988 0.54355025
-0.095356233 0.064618342 0.54294401
-0.088066719 0.064861372 0.54083711
-0.13115175 0.071255408 0.54900855
-0.12722635 0.071060836 0.54750884
-0.10070933 0.071122885 0.54434347
-0.094386287 0.072576739 0.54196882
-0.087303147 0.072189175 0.54024619
-0.30535072 -0.16234425 0.55095625
-0.29915422 -0.16090491 0.55000407
-0.30447239 -0.15477057 0.5531199
-0.29585487 -0.15424834 0.5514366
-0.28824875 -0.15186934 0.55017114
-0.30520451 -0.14486663 0.55447972
-0.29487351 -0.14467709 0.55288625
-0.28616998 -0.14511935 0.55093312
-0.31022227 -0.1317324 0.55700302
-0.30526319 -0.13495637 0.55533671
-0.29514232 -0.13468102 0.55357802
-0.28554404 -0.13485806 0.55205077
-0.27884829 -0.13192813 0.55025458
-0.31077918 -0.12760279 0.55800289
-0.30484769 -0.12540397 0.55712813
-0.29485011 -0.12473273 0.5552212
-0.28476751 -0.12487878 0.55378699
-0.2757678 -0.1240583 0.5521329
-0.26809081 -0.12199149 0.55040491
-0.30199414 -0.11720491 0.55831087
-0.29476368 -0.11494589 0.55659866
-0.28460607 -0.1146566 0.5551877
-0.27482942 -0.11481965 0.5547089
-0.26573464 -0.1145105 0.55197722
-0.25900567 -0.11071879 0.55000526
-0.29427102 -0.10565491 0.55819684
-0.28508002 -0.10491881 0.55647171
-0.27486318 -0.10444677 0.55559993
-0.26504567 -0.10522547 0.55355489
-0.25660697 -0.10430102 0.55089408
-0.29166204 -0.099415094 0.55900335
-0.28389439 -0.096048728 0.55850375
-0.27477708 -0.094806165 0.55702752
-0.26466662 -0.094970338 0.55434555
-0.25471565 -0.095214725 0.55157661
-0.24666178 -0.092870012 0.55045557
-0.28073198 -0.088484943 0.55900371
-0.27472797 -0.08512114 0.5580042
-0.26514193 -0.084587328 0.55561805
-0.25518179 -0.085225217 0.55331618
-0.24506502 -0.08533074 0.55152744
-0.23779351 -0.083932139 0.55006838
-0.27218243 -0.076749429 0.55880392
-0.26451826 -0.075073883 0.55786914
-0.25510845 -0.07505694 0.5563246
-0.24509625 -0.075191237 0.55337739
-0.23562594 -0.074549697 0.55078959
-0.2533628 -0.064666145 0.55868649
-0.24496007 -0.065403782 0.5557369
-0.23477823 -0.065072127 0.55202949
-0.22837283 -0.064052224 0.55000597
-0.25322461 -0.055262022 0.558043
-0.24506019 -0.055369597 0.55576694
-0.23505944 -0.054951347 0.55323273
-0.22503997 -0.054668121 0.55109912
-0.21568808 -0.052638665 0.55084652
-0.20881993 -0.050495408 0.55000675
-0.25214544 -0.048603185 0.55886167
-0.24435447 -0.046594474 0.55785775
-0.23503844 -0.045247622 0.55605304
-0.22476821 -0.045078877 0.55396509
-0.21486759 -0.044974037 0.55264926
-0.20728314 -0.04428884 0.55084002
-0.23389888 -0.037432827 0.55835521
-0.22502184 -0.035322323 0.55629146
-0.21516553 -0.034934942 0.55341101
-0.20616731 -0.034180276 0.55080074
-0.22292571 -0.025781382 0.55823284
-0.21505637 -0.024942009 0.55579162
-0.20509523 -0.024973853 0.55287004
-0.19679555 -0.02308888 0.55082506
-0.22098094 -0.019260645 0.55900556
-0.214066 -0.015592116 0.55818236
-0.20495717 -0.014800503 0.55591118
-0.19504452 -0.014782466 0.5527277
-0.18566066 -0.012487276 0.55088735
-0.17870851 -0.01106345 0.55000758
-0.2035066 -0.0056189611 0.55861324
-0.19473733 -0.0047265575 0.55596012
-0.18445517 -0.004725867 0.55182111
-0.17781234 -0.0071202624 0.55000758
-0.20247383 0.0050459639 0.55876601
-0.19482262 0.0054992377 0.55712551
-0.18484508 0.0056357472 0.55402964
-0.17515087 0.0062813931 0.55134082
-0.16718009 0.00861827 0.55034119
-0.19240133 0.012906818 0.55869871
-0.18436876 0.015194586 0.5567174
-0.17484446 0.015566807 0.55365008
-0.16508125 0.015781369 0.55084884
-0.18457924 0.024284752 0.55783516
-0.17517816 0.025114885 0.55514228
-0.16483521 0.025047522 0.55244952
-0.15593985 0.026965691 0.55061519
-0.14859708 0.029802393 0.55000842
-0.18280607 0.032913238 0.55869406
-0.17505619 0.034384426 0.55752867
-0.16521755 0.034833997 0.55560267
-0.15487061 0.034849141 0.552683
-0.14517932 0.036071766 0.55100852
-0.13791828 0.03814042 0.55030882
-0.17321357 0.042972643 0.55894804
-0.16512875 0.044734895 0.55739486
-0.15494859 0.044524956 0.55476981
-0.14517774 0.044852052 0.55273569
-0.13714384 0.045428213 0.55059952
-0.16404185 0.054260425 0.55821317
-0.15504795 0.054999389 0.55634093
-0.14508286 0.054394681 0.55407345
-0.13584051 0.055560946 0.55137527
-0.12938313 0.058766942 0.55000889
-0.16195866 0.060893759 0.55900717
-0.15398741 0.064051174 0.55865276
-0.14527948 0.064975135 0.556508
-0.13543671 0.064606778 0.55253124
-0.12893251 0.063191518 0.55000883
-0.15168045 0.075121008 0.55893046
-0.14585738 0.074310564 0.55661374
-0.13686518 0.071264729 0.55240822
-0.15102862 0.08129669 0.55900735
-0.14734814 0.083087146 0.55830753
-0.3119823 -0.12218709 0.56128842
-0.30867043 -0.12059058 0.56033617
-0.31275699 -0.11504503 0.56419295
-0.30634445 -0.11387233 0.56160283
-0.31262442 -0.10470664 0.56395471
-0.3050954 -0.1047167 0.56210029
-0.29791927 -0.10251294 0.56000304
-0.31324747 -0.094632581 0.56626141
-0.30505535 -0.094693959 0.56508964
-0.29543963 -0.094841413 0.56267744
-0.28745925 -0.092780985 0.56075341
-0.31276691 -0.087297 0.56866866
-0.30525902 -0.084863044 0.56819755
-0.29510584 -0.084823892 0.56545281
-0.28516513 -0.08501704 0.56163979
-0.27919021 -0.081781492 0.56000364
-0.30378187 -0.074763656 0.56846386
-0.29488206 -0.075298809 0.56568688
-0.28486249 -0.075020328 0.56266189
-0.27600527 -0.073819585 0.56028932
-0.26642609 -0.070602365 0.56000412
-0.3012358 -0.067694098 0.5686689
-0.29474491 -0.065257408 0.56716478
-0.28501743 -0.065067969 0.5641737
-0.27487156 -0.064857893 0.56211245
-0.26507062 -0.064776592 0.56107384
-0.25814402 -0.064722702 0.56005991
-0.29286855 -0.058292139 0.56870252
-0.28447464 -0.056244925 0.56753635
-0.27508807 -0.054924227 0.56579405
-0.26509824 -0.054668557 0.56268805
-0.25861984 -0.054685097 0.56015813
-0.27444312 -0.04499992 0.56810325
-0.26514775 -0.044474501 0.56459892
-0.25540107 -0.0444845 0.56136781
-0.24716008 -0.042231299 0.56020463
-0.27320597 -0.036063161 0.56861424
-0.26505536 -0.035023909 0.56650352
-0.25482681 -0.035706207 0.56404966
-0.24496792 -0.035238203 0.56256294
-0.2360598 -0.033457585 0.56086224
-0.26349691 -0.026620205 0.56863308
-0.25472236 -0.025510356 0.56688768
-0.24495351 -0.025472449 0.56528342
-0.23520096 -0.025283024 0.56338596
-0.2275193 -0.023875378 0.56094968
-0.2612206 -0.01549805 0.56900334
-0.25480184 -0.015122412 0.56778938
-0.24522626 -0.014982616 0.56646919
-0.23529857 -0.014946931 0.56491566
-0.22526772 -0.014890394 0.56195408
-0.21792546 -0.012658989 0.56000561
-0.25396261 -0.0079209767 0.56881607
-0.24428615 -0.0060991659 0.56847078
-0.23490919 -0.0047452357 0.56621879
-0.22481397 -0.0047192369 0.56312418
-0.21511616 -0.004604565 0.56141478
-0.20746379 -0.0029779568 0.56000596
-0.24125153 0.0019036771 0.56900406
-0.23478705 0.0047994531 0.56791872
-0.22470193 0.0052250545 0.56497842
-0.21526925 0.0054364051 0.5622555
-0.20774512 0.0058422838 0.5600493
-0.24125157 0.015996158 0.56900382
-0.2348239 0.014493875 0.5682596
-0.22465934 0.0147786 0.56600469
-0.21474569 0.015114648 0.56367183
-0.2049332 0.015227604 0.5623557
-0.19588737 0.01588846 0.5609262
-0.23296531 0.021266585 0.56889302
-0.22438079 0.024207864 0.56815159
-0.21481274 0.024758771 0.5657829
-0.20505184 0.024542959 0.5646646
-0.19518244 0.024608107 0.56233937
-0.1889654 0.027131557 0.56000638
-0.22145675 0.033107992 0.56873184
-0.21463448 0.035112478 0.56798035
-0.20503761 0.03524236 0.56676096
-0.19519702 0.034849912 0.56385195
-0.18653725 0.035918951 0.56075627
-0.21009988 0.04121441 0.56900495
-0.20375052 0.044003528 0.56815916
-0.19467483 0.045171149 0.56555569
-0.18507484 0.04517455 0.56281573
-0.17685939 0.046286214 0.56068671
-0.20119941 0.050114963 0.56900531
-0.19429386 0.054396465 0.56819308
-0.18487614 0.055013083 0.56595039
-0.17480792 0.05529587 0.56242126
-0.16804054 0.05744563 0.56011796
-0.19161429 0.064036317 0.56900549
-0.1848437 0.064673938 0.5666011
-0.17519732 0.064947397 0.56376326
-0.16519648 0.065163396 0.56140155
-0.15711084 0.067491435 0.56034058
-0.19081557 0.073108003 0.56900537
-0.18480572 0.074930973 0.56676173
-0.17471528 0.074845873 0.56461054
-0.16484939 0.074504495 0.56349528
-0.15665571 0.075016752 0.56108403
-0.18325275 0.082280315 0.56855106
-0.17458902 0.084224381 0.56739998
-0.16500618 0.084856823 0.56620657
-0.15521364 0.085109957 0.56290179
-0.14910886 0.085821927 0.56000733
-0.17116033 0.090538263 0.56900609
-0.1643178 0.092668958 0.56842303
-0.15713024 0.092070617 0.56588185
-0.31530276 -0.083126679 0.57057315
-0.31457651 -0.074817918 0.57150167
-0.3082763 -0.073811784 0.57011312
-0.32046998 -0.063328601 0.57540119
-0.31496409 -0.064619601 0.57356566
-0.30599141 -0.064482614 0.5709675
-0.29963028 -0.06124939 0.57000226
-0.32140756 -0.055419035 0.57785815
-0.31490332 -0.054785796 0.5766167
-0.30495691 -0.055194519 0.57409716
-0.29553437 -0.05444533 0.5717954
-0.2870042 -0.05209006 0.57060277
-0.31190854 -0.048631672 0.57900137
-0.30465204 -0.045504265 0.57764047
-0.29524088 -0.045298558 0.57502788
-0.28473109 -0.045013107 0.5714075
-0.278826 -0.043416992 0.57000303
-0.30431747 -0.035923894 0.57785332
-0.29528269 -0.034934156 0.57535195
-0.28505811 -0.03474243 0.57224637
-0.27670527 -0.03283973 0.570503
-0.2941221 -0.025519254 0.57722414
-0.28486419 -0.0248494 0.5742377
-0.27480352 -0.024903076 0.57141948
-0.26718247 -0.023824781 0.57012826
-0.29481879 -0.015378425 0.57734358
-0.28495449 -0.015181251 0.57428402
-0.27471074 -0.01532213 0.571536
-0.26614785 -0.015032779 0.57017571
-0.29291263 -0.0074877464 0.57825154
-0.28457278 -0.005606201 0.57683057
-0.27496508 -0.0047779568 0.57480735
-0.26506439 -0.0049063619 0.5718748
-0.255555 -0.003152027 0.57048732
-0.24681942 -0.0020367459 0.57000393
-0.28020948 0.0026911146 0.57900208
-0.27464768 0.0046018804 0.57693332
-0.26506016 0.0049151052 0.57397515
-0.25500271 0.0048936289 0.57155883
-0.24533392 0.0052246554 0.57038212
-0.23870349 0.0071080644 0.57000417
-0.27288914 0.011732681 0.57820231
-0.26481518 0.014470889 0.57652903
-0.25533596 0.014427328 0.5734356
-0.24555805 0.014523212 0.57074773
-0.26203567 0.024998248 0.57820249
-0.25499436 0.025086051 0.5758279
-0.24482082 0.025143463 0.57291037
-0.23538852 0.025990969 0.57124633
-0.22797996 0.027733162 0.57012939
-0.2605862 0.032126248 0.57900256
-0.25415045 0.034511898 0.57763612
-0.24477203 0.034936801 0.57553113
-0.2348379 0.03479813 0.57325381
-0.22570691 0.036031757 0.57070434
-0.21864226 0.039800726 0.57000458
-0.25156328 0.04190265 0.57850283
-0.24419548 0.043825254 0.57772189
-0.23505424 0.044761863 0.57640851
-0.22513725 0.045198772 0.57422036
-0.21505064 0.045136306 0.57164359
-0.20760682 0.047256257 0.57030499
-0.24096297 0.058542404 0.5790031
-0.23510574 0.055129576 0.57848912
-0.22535677 0.055512797 0.57719517
-0.21498577 0.055142187 0.57498068
-0.20484328 0.05492539 0.5715903
-0.19759028 0.058128465 0.57000536
-0.23449375 0.060698841 0.57900339
-0.22366297 0.0617599 0.57850391
-0.21412563 0.064691201 0.57748574
-0.20492738 0.064761095 0.57409048
-0.19643551 0.065561362 0.57076389
-0.21439551 0.07565394 0.57750404
-0.20549019 0.074672759 0.57451695
