# .PCD v0.7 - Point Cloud Data file format
VERSION 0.7
FIELDS x y z
SIZE 4 4 4
TYPE F F F
COUNT 1 1 1
WIDTH 1
HEIGHT 970
VIEWPOINT 0 0 0 1 0 0 0
POINTS 970
DATA ascii
-0.14279181 -0.10753544 0.42933419
-0.13509123 -0.10295726 0.42880014
-0.13073032 -0.098997258 0.42909548
-0.12540171 -0.096149795 0.42886186
-0.11817741 -0.091634437 0.42916709
-0.11277922 -0.085242383 0.42945346
-0.10887215 -0.081257142 0.42856097
-0.10691141 -0.076123513 0.42915022
-0.10303338 -0.065605156 0.42940456
-0.17365411 -0.11180945 0.43810359
-0.16528215 -0.11117101 0.43617371
-0.15620384 -0.11088268 0.43492356
-0.14811626 -0.11011998 0.43053648
-0.17229275 -0.10959899 0.43904772
-0.16460179 -0.10919078 0.43871775
-0.15399882 -0.10804471 0.43712103
-0.14481004 -0.10505746 0.43458557
-0.13748474 -0.10146218 0.43263772
-0.13370274 -0.097638845 0.43505424
-0.12595423 -0.092759989 0.43367597
-0.11914641 -0.090664357 0.43067756
-0.1218557 -0.088500634 0.43621531
-0.1152865 -0.084566265 0.43431497
-0.11087302 -0.076958373 0.43635163
-0.10850499 -0.073286541 0.43323937
-0.11001617 -0.069739699 0.43930295
-0.10608823 -0.064868905 0.43454006
-0.10253445 -0.055572674 0.43573186
-0.099448338 -0.053891212 0.43243736
-0.10137394 -0.046784692 0.43684992
-0.09893167 -0.043563031 0.43625203
-0.098115489 -0.037073821 0.43891552
-0.10025966 -0.027790084 0.43978256
-0.09970805 -0.026689291 0.43984455
-0.18147998 -0.11082336 0.440927
-0.17811731 -0.11098606 0.44051713
-0.20231517 -0.10305593 0.44884616
-0.19446196 -0.10538962 0.44610327
-0.18537971 -0.10726143 0.44471535
-0.17496061 -0.10832833 0.44464877
-0.16481707 -0.10752699 0.44474095
-0.15535945 -0.10541259 0.44439295
-0.14520258 -0.10284667 0.44448587
-0.13830011 -0.10051252 0.44581786
-0.13369748 -0.097999148 0.44441047
-0.12638621 -0.093354449 0.44539449
-0.12155077 -0.088464923 0.44370088
-0.11574847 -0.083941638 0.44484076
-0.11109344 -0.075361446 0.44471022
-0.1096295 -0.071460463 0.4493652
-0.1102262 -0.068534538 0.44250861
-0.10780144 -0.064402655 0.44461656
-0.10374852 -0.055213582 0.4443422
-0.10186774 -0.045108777 0.4445295
-0.099785686 -0.041186631 0.44148022
-0.10131991 -0.034607247 0.44524801
-0.099295497 -0.035616294 0.44084063
-0.10342111 -0.024781702 0.44502297
-0.099667907 -0.029730767 0.44117847
-0.1105746 -0.011706294 0.44792372
-0.1074362 -0.015532457 0.44475511
-0.11058591 -0.0075255893 0.44836235
-0.1089311 -0.0082246047 0.4449122
-0.20326795 -0.1009841 0.45177636
-0.19477127 -0.10230227 0.45416594
-0.18476237 -0.1053234 0.45506766
-0.17513713 -0.10719714 0.45458546
-0.16503197 -0.10739046 0.45482135
-0.15527894 -0.10603553 0.45470396
-0.14458722 -0.10472591 0.45502436
-0.13676204 -0.1016819 0.45556968
-0.21328129 -0.093351893 0.45703202
-0.20617463 -0.096979395 0.45583779
-0.19873458 -0.099485479 0.45780021
-0.13209666 -0.099272788 0.45477471
-0.12482139 -0.095018715 0.45518133
-0.11954964 -0.090748571 0.45730087
-0.21486732 -0.087927148 0.45943496
-0.20901749 -0.08968468 0.45997712
-0.12044653 -0.089888498 0.45046285
-0.11525499 -0.085199587 0.45480591
-0.11116716 -0.078076512 0.45386049
-0.10843986 -0.073245451 0.45551917
-0.10389622 -0.064772658 0.45548338
-0.10132447 -0.055322696 0.45463312
-0.10120264 -0.044805981 0.45480263
-0.10201483 -0.035202608 0.4551208
-0.10588027 -0.025102077 0.45517671
-0.11132239 -0.012402093 0.45505491
-0.10921034 -0.017923228 0.45506269
-0.11288079 -0.0062202918 0.45489919
-0.19260785 -0.10134219 0.46332419
-0.18497577 -0.1038587 0.46483937
-0.17482248 -0.10666458 0.46469033
-0.16470954 -0.10836619 0.46513405
-0.15495963 -0.10830443 0.465087
-0.1446816 -0.10652347 0.46514493
-0.13624859 -0.10232016 0.46510887
-0.20372723 -0.093569085 0.46395466
-0.19712609 -0.098349646 0.465891
-0.13113499 -0.099332809 0.46478701
-0.12456995 -0.095759369 0.46491545
-0.11877635 -0.090910904 0.46546325
-0.22176142 -0.08271078 0.46243268
-0.21551155 -0.083679624 0.46270764
-0.20832071 -0.087291159 0.46589708
-0.11415189 -0.084943324 0.46474701
-0.1089198 -0.080130994 0.46891016
-0.22333747 -0.076744512 0.46569473
-0.21824771 -0.079006135 0.46668482
-0.11014205 -0.079477146 0.46259362
-0.10571459 -0.075401373 0.46527833
-0.10161545 -0.067679793 0.46436882
-0.099269599 -0.063136578 0.46657053
-0.10032672 -0.050159112 0.46225604
-0.099368885 -0.055256907 0.46522838
-0.10093942 -0.044847302 0.46467847
-0.099980354 -0.049837366 0.46821564
-0.10292312 -0.035088602 0.46506327
-0.10627837 -0.025221571 0.46491933
-0.11284841 -0.013507335 0.46480554
-0.10909747 -0.018353015 0.46473241
-0.11614591 -0.0071172966 0.46306908
-0.19135533 -0.10043535 0.4713026
-0.18539758 -0.10283445 0.47484538
-0.17502804 -0.10629166 0.47485331
-0.16499434 -0.10852292 0.47488222
-0.15469594 -0.10929108 0.4751308
-0.14467709 -0.10738197 0.47504473
-0.13524537 -0.10283875 0.47492614
-0.12916447 -0.10036278 0.47821778
-0.20168027 -0.09118019 0.47361588
-0.19544847 -0.096821263 0.4751313
-0.13076279 -0.099700049 0.4712168
-0.12447158 -0.096284881 0.47448564
-0.11876934 -0.091289975 0.47506124
-0.21244445 -0.081223078 0.47316441
-0.20634353 -0.085961968 0.47510433
-0.11379196 -0.085992537 0.47437838
-0.10893141 -0.081248395 0.47618961
-0.22179145 -0.074383564 0.47420326
-0.21627957 -0.077339485 0.47594693
-0.10371421 -0.075535282 0.47481376
-0.1005208 -0.067320481 0.47535154
-0.099390909 -0.062719382 0.4740057
-0.09930522 -0.055100147 0.47507784
-0.10105676 -0.044448227 0.47488347
-0.099786028 -0.049242519 0.47798929
-0.10333139 -0.034898158 0.47466785
-0.10658208 -0.024778841 0.47449511
-0.11279103 -0.015384314 0.47454262
-0.10935383 -0.019718632 0.47272354
-0.1541343 -0.11007869 0.4867022
-0.18438572 -0.1026621 0.48511016
-0.17507437 -0.10594167 0.48518416
-0.16526505 -0.10841672 0.48471683
-0.15481557 -0.10968146 0.48517412
-0.14480528 -0.10841656 0.4847014
-0.13494352 -0.10472185 0.48529211
-0.12803538 -0.10115044 0.48536301
-0.19501391 -0.094968319 0.48524156
-0.1890292 -0.09945856 0.48843265
-0.12316781 -0.097581364 0.48471802
-0.11688805 -0.092687786 0.4848114
-0.20443322 -0.084751993 0.48438182
-0.11152963 -0.08776892 0.4846141
-0.10750108 -0.082745038 0.48518208
-0.22075912 -0.070980676 0.48305625
-0.21510449 -0.074531056 0.48337942
-0.20883873 -0.078592598 0.48703864
-0.10283567 -0.075033359 0.48445272
-0.21979764 -0.069202095 0.48674515
-0.10063615 -0.066090845 0.48484543
-0.09950076 -0.06124381 0.48436832
-0.10002789 -0.050236717 0.4802033
-0.099258408 -0.055401023 0.48506933
-0.10083117 -0.044200215 0.48423371
-0.09979175 -0.047784321 0.48745555
-0.10191782 -0.035540357 0.48489618
-0.10479137 -0.027270256 0.48485184
-0.1529427 -0.11025252 0.4963502
-0.1475108 -0.11026404 0.49667868
-0.18333295 -0.10164902 0.49468836
-0.17535064 -0.10464734 0.49481925
-0.16474833 -0.10809067 0.49470103
-0.15616368 -0.10975124 0.4943732
-0.14400178 -0.10942336 0.49405628
-0.13491705 -0.1064413 0.49514952
-0.12639599 -0.10200481 0.49525121
-0.19321965 -0.0937737 0.49414247
-0.18811296 -0.097996384 0.49607062
-0.12161198 -0.098884344 0.49397951
-0.11487251 -0.094851583 0.49515525
-0.108735 -0.09086439 0.49741846
-0.20294771 -0.082938828 0.49489638
-0.19802327 -0.087983862 0.49528041
-0.10581575 -0.084905624 0.49539095
-0.21386021 -0.073321007 0.49305391
-0.20778969 -0.07834959 0.49450436
-0.10174009 -0.075247228 0.4951162
-0.10032896 -0.067522064 0.49500316
-0.099289536 -0.062527411 0.49529079
-0.098605737 -0.055235263 0.49519596
-0.10002202 -0.045586661 0.49029386
-0.098919898 -0.045295246 0.49519593
-0.10109789 -0.033376686 0.4941127
-0.099464923 -0.038167614 0.49649206
-0.1034027 -0.027275613 0.49544069
-0.15408218 -0.11076695 0.50518531
-0.14529639 -0.11071993 0.50563002
-0.18165925 -0.10081475 0.50391591
-0.174694 -0.10432118 0.50508553
-0.1647094 -0.10818815 0.50522214
-0.15905796 -0.1096529 0.50364429
-0.14186686 -0.10970534 0.50204325
-0.13503583 -0.10771644 0.50516003
-0.12532851 -0.10279144 0.50501728
-0.11897421 -0.10033542 0.50826436
-0.19218366 -0.091542862 0.50375897
-0.18674807 -0.096528903 0.50514776
-0.12078138 -0.099663094 0.50048137
-0.11484759 -0.09731999 0.50521493
-0.10802484 -0.092571117 0.50562489
-0.20231378 -0.082057349 0.50449759
-0.19711357 -0.086408533 0.50460595
-0.10424405 -0.085215881 0.50596976
-0.21036595 -0.075927898 0.50065947
-0.20731348 -0.078048207 0.50297356
-0.10134488 -0.075195178 0.50525677
-0.10030965 -0.067685097 0.50304246
-0.099274091 -0.063722745 0.5053671
-0.097679958 -0.055218324 0.50515139
-0.098130621 -0.044791576 0.50503695
-0.10048164 -0.032078099 0.50223863
-0.099340752 -0.036321431 0.50568521
-0.10122337 -0.02782242 0.50284821
-0.16031122 -0.11029039 0.51625377
-0.15454808 -0.11128283 0.51518112
-0.14524378 -0.11093772 0.51532817
-0.18018813 -0.10038479 0.51560771
-0.17487238 -0.10383624 0.51504451
-0.16577162 -0.10812106 0.51488078
-0.14064933 -0.10979861 0.51581794
-0.13473545 -0.10767535 0.51513928
-0.12515767 -0.10286406 0.51534671
-0.11954716 -0.1003866 0.51321959
-0.19112355 -0.090883493 0.51160854
-0.18511222 -0.095978558 0.51491761
-0.12044442 -0.099442616 0.51851046
-0.11452254 -0.096559964 0.5156514
-0.10822227 -0.091659226 0.5148316
-0.20258614 -0.081413537 0.51261193
-0.19548802 -0.086112313 0.51538366
-0.10491 -0.084826738 0.51517111
-0.10173512 -0.075003996 0.51525331
-0.10058266 -0.068683065 0.51582676
-0.099113323 -0.063847117 0.51475239
-0.097309142 -0.055043891 0.51506966
-0.098728903 -0.044922218 0.51562661
-0.098535568 -0.034683332 0.51509297
-0.095709398 -0.029170085 0.51558816
-0.1609015 -0.11029376 0.52022761
-0.15426457 -0.11047106 0.52250731
-0.14703384 -0.11065126 0.52180767
-0.17381166 -0.10353684 0.52590227
-0.16443971 -0.10800157 0.52580917
-0.15505539 -0.10856954 0.52719182
-0.14420554 -0.10759788 0.52635604
-0.13533424 -0.10442574 0.52469099
-0.12744659 -0.10153817 0.52233821
-0.18434332 -0.094414279 0.52487648
-0.17900982 -0.099158093 0.52744657
-0.12485357 -0.095255919 0.52488899
-0.11601175 -0.093028434 0.52268773
-0.20286489 -0.082528867 0.52387011
-0.19470739 -0.085660927 0.52520806
-0.18923473 -0.089262031 0.52639633
-0.10772608 -0.084040888 0.52202815
-0.10553425 -0.074882038 0.52467716
-0.099588446 -0.062615775 0.52280957
-0.098805375 -0.055447366 0.52301455
-0.10168337 -0.044371597 0.52642667
-0.099508397 -0.046629831 0.52229738
-0.10123761 -0.036792755 0.52687931
-0.098583102 -0.033248823 0.52401084
-0.094751567 -0.028389096 0.52539295
-0.17297468 -0.10177983 0.53404248
-0.16484331 -0.10327394 0.53522086
-0.20563105 -0.091962323 0.53947705
-0.18323901 -0.092265457 0.53497416
-0.17675126 -0.097324073 0.53658843
-0.20403108 -0.085587457 0.53471869
-0.19423749 -0.085578762 0.53436416
-0.18763271 -0.088487878 0.53657913
-0.099600412 -0.030977651 0.53064209
-0.20804715 -0.10309811 0.54623944
-0.21095568 -0.095494784 0.54922116
-0.20804697 -0.094089955 0.54577535
-0.20528069 -0.08714357 0.54616761
-0.19348146 -0.08436206 0.54681498
-0.13308281 -0.10058511 0.42977652
-0.13331258 -0.09987998 0.42999095
-0.16554546 -0.11017257 0.43405744
-0.18120837 -0.10775004 0.43958971
-0.173879 -0.10759185 0.43820164
-0.16504009 -0.10711756 0.43679893
-0.15498835 -0.10604525 0.43606591
-0.14533149 -0.10356083 0.43523878
-0.13773718 -0.10178771 0.43232107
-0.14054883 -0.099669024 0.43744564
-0.13503455 -0.097933158 0.4355053
-0.12651253 -0.094462529 0.43533421
-0.2015533 -0.10056834 0.44757885
-0.19428025 -0.10244786 0.44566181
-0.18494472 -0.10450023 0.44434857
-0.17560494 -0.10471074 0.44386074
-0.16541487 -0.10445962 0.44413519
-0.15523244 -0.10438284 0.44427976
-0.14551401 -0.10180029 0.44383556
-0.20333672 -0.098723993 0.44901997
-0.19798537 -0.099346325 0.44907781
-0.14070064 -0.099430479 0.4424434
-0.1346789 -0.095098644 0.44509068
-0.12772027 -0.094189763 0.44462082
-0.19164251 -0.10046074 0.4522469
-0.18510365 -0.10166779 0.45473599
-0.17545751 -0.10348668 0.4550592
-0.16597556 -0.104805 0.45482513
-0.15543066 -0.10608143 0.45739445
-0.14457439 -0.10245058 0.45629904
-0.21177322 -0.092006572 0.45364749
-0.20521975 -0.094222881 0.45398352
-0.19584897 -0.098021999 0.45524499
-0.14140564 -0.097916067 0.45601439
-0.13821526 -0.095894806 0.45225543
-0.12515701 -0.094186909 0.45541781
-0.11705752 -0.093754172 0.45885268
-0.22073929 -0.081574224 0.45968422
-0.21462393 -0.085171036 0.45749819
-0.20828201 -0.087976165 0.45842421
-0.22026865 -0.079799786 0.45988569
-0.21654989 -0.079429179 0.45982984
-0.13468951 0.0098629929 0.45976409
-0.14325422 0.017952949 0.45932361
-0.13673875 0.014260918 0.45797321
-0.18275012 -0.10064497 0.46295545
-0.17514764 -0.10262753 0.46408266
-0.16505739 -0.10543402 0.46511132
-0.15441053 -0.10635599 0.46563148
-0.1474703 -0.10297599 0.4639793
-0.20187387 -0.091678008 0.46396473
-0.19492351 -0.095638439 0.46530119
-0.1869294 -0.098962694 0.46515021
-0.14427325 -0.098786138 0.46133271
-0.12348119 -0.093244299 0.46422362
-0.11770512 -0.092306986 0.46448249
-0.22189423 -0.080846108 0.46020153
-0.21268451 -0.081077918 0.46114272
-0.20684974 -0.085451111 0.46485388
-0.22317562 -0.074214108 0.46175659
-0.21567366 -0.075420909 0.46336836
-0.2244499 -0.064923204 0.46518868
-0.21811512 -0.067231543 0.46733928
-0.23078041 -0.052976612 0.46723896
-0.2263599 -0.055298574 0.46793947
-0.23108561 -0.045426469 0.46914572
-0.22817589 -0.046526134 0.46944693
-0.23078102 -0.033483811 0.46955317
-0.22868371 -0.033325214 0.46971059
-0.23018223 -0.029253766 0.46993473
-0.22902983 -0.028596297 0.46969402
-0.1368313 0.0095500099 0.46680868
-0.18301894 0.018208586 0.46925479
-0.17476296 0.018190043 0.46881703
-0.16495313 0.017835058 0.46781132
-0.15463415 0.017457772 0.46574163
-0.14554611 0.01532219 0.46375957
-0.13908297 0.012258251 0.4637962
-0.18084487 0.02031225 0.46817049
-0.17446272 0.021632286 0.46806177
-0.16513678 0.022107914 0.4662742
-0.15567881 0.022294173 0.46371678
-0.14847308 0.020806197 0.46103948
-0.18131368 -0.1005029 0.47543907
-0.17499425 -0.10274154 0.47478157
-0.16509347 -0.10541736 0.47451824
-0.15512027 -0.10584267 0.47455436
-0.14872125 -0.10357478 0.47539479
-0.19461337 -0.092556477 0.47367039
-0.1864461 -0.097974725 0.47511956
-0.12025153 -0.091715217 0.47018012
-0.20389566 -0.085078932 0.474969
-0.19800888 -0.089004427 0.4771997
-0.21145941 -0.073109485 0.47413871
-0.20849091 -0.076382652 0.47708669
-0.22040559 -0.060591176 0.47070414
-0.21446663 -0.064711407 0.47502708
-0.20951329 -0.068323702 0.47902039
-0.2215877 -0.053953223 0.47114471
-0.21727777 -0.055916652 0.4754383
-0.23074766 -0.041805845 0.47011384
-0.22393638 -0.044533964 0.47155923
-0.21895888 -0.046367176 0.47731072
-0.23056264 -0.037007358 0.47047463
-0.22479281 -0.035106108 0.47257569
-0.21958236 -0.03562285 0.47915131
-0.22413477 -0.025131384 0.47342515
-0.21812186 -0.023166103 0.47876942
-0.22230175 -0.015550314 0.47329983
-0.21601573 -0.014175963 0.47533652
-0.20907214 -0.010953724 0.47960338
-0.22120768 -0.0091188671 0.47283113
-0.2144272 -0.0054289824 0.47267151
-0.20661634 -0.003915343 0.47616264
-0.21186768 0.0012308396 0.47235501
-0.20458788 0.0045912694 0.47325519
-0.19582692 0.0072992812 0.47537586
-0.18592896 0.0094791865 0.47745612
-0.14121839 0.009381027 0.47531876
-0.13736424 0.0077903792 0.47582692
-0.20085208 0.010327805 0.47263396
-0.19389495 0.012560003 0.47253355
-0.185259 0.013718366 0.47276449
-0.17533471 0.013383153 0.47444469
-0.1653901 0.013413318 0.47405279
-0.15540126 0.012843232 0.47447982
-0.14661053 0.011205176 0.4744499
-0.18094294 -0.10062899 0.48530078
-0.17547153 -0.1025158 0.48519295
-0.16505553 -0.1056133 0.48477614
-0.15538664 -0.10642442 0.48527843
-0.1475852 -0.1061369 0.48654908
-0.19260451 -0.091837279 0.48468229
-0.18628657 -0.097081795 0.48543054
-0.2023133 -0.082586028 0.48380536
-0.19795558 -0.087023668 0.48534006
-0.20513985 -0.074803986 0.48408028
-0.21104999 -0.06202209 0.48199227
-0.20783053 -0.066234969 0.48527533
-0.21341038 -0.05515353 0.48477784
-0.21648325 -0.045164097 0.4857063
-0.2169199 -0.03503361 0.48544547
-0.21479118 -0.025292704 0.48498344
-0.21190372 -0.017367769 0.48252422
-0.20708992 -0.013819763 0.48575607
-0.20243286 -0.0062543689 0.48318711
-0.19825536 -0.0036111148 0.48732057
-0.19541991 0.0019225053 0.48378679
-0.18417434 0.0060656872 0.48547891
-0.17529193 0.0073316176 0.48564735
-0.16570766 0.0087552825 0.48611999
-0.15489864 0.0091849314 0.48598799
-0.14469858 0.0080152815 0.48508045
-0.13696286 0.0053353393 0.48633039
-0.17115054 0.010334056 0.48016882
-0.16464457 0.010617642 0.48118296
-0.1555139 0.01046149 0.48121238
-0.1497677 0.010313399 0.48075601
-0.18079528 -0.10005921 0.49017876
-0.1743204 -0.10166139 0.49407789
-0.16511653 -0.10489736 0.49418104
-0.15539765 -0.10721728 0.49512523
-0.14852101 -0.10772634 0.49455482
-0.19164445 -0.091781639 0.49532437
-0.18493156 -0.096985482 0.49520409
-0.17865315 -0.09969455 0.49811575
-0.20029896 -0.081639148 0.49157858
-0.19660644 -0.085667551 0.49537557
-0.20149748 -0.07428316 0.49404025
-0.19934538 -0.076985434 0.49839982
-0.20522335 -0.064792983 0.49469116
-0.21143629 -0.052881658 0.49311078
-0.20848814 -0.055645403 0.49691382
-0.21244419 -0.044707626 0.49344614
-0.20813532 -0.044846848 0.49773428
-0.21211986 -0.035221145 0.49370137
-0.20887233 -0.036429692 0.49852923
-0.21128239 -0.027521132 0.49323735
-0.20692106 -0.023637578 0.49687052
-0.20320486 -0.016123844 0.49450555
-0.19763397 -0.012739964 0.49701047
-0.19384493 -0.0054549202 0.49477628
-0.18665119 -0.0021788415 0.49807507
-0.17891525 -0.0005437918 0.49975604
-0.19158627 0.00060454011 0.49016806
-0.1845035 0.0019900063 0.4936043
-0.17509376 0.002992508 0.49466887
-0.16488075 0.0056911921 0.49546942
-0.15504986 0.0068581002 0.49452165
-0.14496648 0.0054016924 0.49583402
-0.13622458 0.0029896791 0.49538356
-0.14435799 -0.11009184 0.50851512
-0.17284906 -0.10090224 0.50359654
-0.16516995 -0.10426757 0.50501025
-0.15506394 -0.10783152 0.50493115
-0.14854814 -0.10897958 0.50431281
-0.19073199 -0.090763666 0.50236201
-0.18506178 -0.094953299 0.50496978
-0.17751798 -0.099016175 0.50528818
-0.19374913 -0.08488474 0.50486141
-0.1893782 -0.08962445 0.50839037
-0.19700171 -0.075587489 0.50499505
-0.20232338 -0.063954294 0.50375193
-0.19912545 -0.067373529 0.50767428
-0.20490749 -0.054977328 0.50478762
-0.20392309 -0.044677109 0.50585848
-0.20480427 -0.034641743 0.5052228
-0.20293097 -0.026156025 0.50333267
-0.19772625 -0.023624124 0.50726914
-0.20046929 -0.01808463 0.50000602
-0.19403499 -0.015839361 0.5043512
-0.18785486 -0.012659357 0.50721896
-0.19132262 -0.0096361935 0.50087726
-0.18475962 -0.0061119851 0.50364852
-0.17609921 -0.0029244351 0.5060057
-0.16868606 -0.00074051321 0.50764722
-0.14042503 -0.00014969707 0.50988126
-0.13246801 -0.00037995726 0.50620055
-0.17223816 0.00068349141 0.50176853
-0.16488811 0.0021142834 0.50465167
-0.15516992 0.0033537664 0.50565201
-0.14533228 0.0024505623 0.50545222
-0.13665327 0.00094410963 0.50473905
-0.14172989 -0.11083373 0.51536214
-0.13545449 -0.11173701 0.51807302
-0.12719636 -0.1119813 0.51971579
-0.17184123 -0.10070303 0.51456654
-0.16551602 -0.10389365 0.51606417
-0.15537378 -0.10772838 0.51501381
-0.14714868 -0.10940748 0.51489794
-0.18355294 -0.093187578 0.51475894
-0.17667417 -0.097905837 0.51506263
-0.19139384 -0.08286126 0.51316679
-0.18820928 -0.087520503 0.5158416
-0.19383222 -0.075036943 0.51504695
-0.20059796 -0.061316911 0.51069129
-0.19723769 -0.064957805 0.51541394
-0.20118335 -0.05520203 0.51296604
-0.19878349 -0.055983372 0.51774871
-0.20103526 -0.045416906 0.51221472
-0.197697 -0.044303909 0.51686186
-0.20087911 -0.036270838 0.51059848
-0.19677503 -0.035179693 0.51534855
-0.19377153 -0.02565279 0.51423448
-0.18891695 -0.02188113 0.51712704
-0.19056873 -0.019257694 0.51155168
-0.18467744 -0.015210232 0.51481169
-0.17829964 -0.011307582 0.51751941
-0.18120065 -0.009033856 0.51136822
-0.17486568 -0.0069018812 0.51418239
-0.16500704 -0.00271402 0.51476908
-0.15470102 -0.0015709965 0.51672208
-0.14460737 -0.0018577089 0.5157963
-0.13504058 -0.0018593088 0.51390046
-0.127919 -0.0027457736 0.51495683
-0.16155669 0.00032525137 0.51144224
-0.15498155 0.00077780749 0.51190758
-0.14631025 0.00031501427 0.51115841
-0.14134999 -0.11029252 0.52033782
-0.13678369 -0.1103969 0.52062708
-0.17019302 -0.10045737 0.52197075
-0.1644309 -0.10326571 0.52579188
-0.15464851 -0.10672948 0.52596974
-0.18215634 -0.091373652 0.52394176
-0.1750499 -0.09621346 0.52501053
-0.1690101 -0.099724635 0.52815139
-0.1900423 -0.081531793 0.52037442
-0.18669821 -0.085837737 0.52497423
-0.19157247 -0.074435391 0.52510637
-0.18943857 -0.079187877 0.52741903
-0.19356194 -0.065009661 0.52508944
-0.19525017 -0.054496191 0.52419323
-0.19295578 -0.045242954 0.52352178
-0.18918575 -0.04332862 0.52855778
-0.19160989 -0.035331894 0.522376
-0.18842469 -0.034878019 0.52728534
-0.19095473 -0.028578656 0.5212276
-0.18628572 -0.024853924 0.52514404
-0.18206753 -0.01820327 0.5233236
-0.17569229 -0.013942709 0.52529746
-0.1683822 -0.010645688 0.52910411
-0.17096686 -0.0084611923 0.52181721
-0.16478851 -0.0071499324 0.52442312
-0.15514548 -0.0052192821 0.52476257
-0.1454159 -0.0052960841 0.52456862
-0.13522176 -0.0059279529 0.52483201
-0.12826066 -0.0064833621 0.52769029
-0.16279592 -0.10148139 0.53188539
-0.18048432 -0.090507053 0.5320816
-0.17409378 -0.092753105 0.53490657
-0.18395491 -0.085392505 0.53486395
-0.1774755 -0.089101993 0.53834212
-0.19057326 -0.072042108 0.53098947
-0.18801874 -0.075349748 0.53554952
-0.191038 -0.064280875 0.53244644
-0.1889582 -0.065612487 0.53709543
-0.19125803 -0.055650827 0.5324232
-0.18823576 -0.053958468 0.53768504
-0.18695651 -0.045337524 0.53469843
-0.18465407 -0.035263028 0.53519851
-0.18268457 -0.026952948 0.53447986
-0.1770988 -0.021915557 0.53623343
-0.17330767 -0.017415527 0.53437078
-0.16561046 -0.012811687 0.53561091
-0.15603672 -0.011319348 0.53782207
-0.14460275 -0.011384622 0.5382219
-0.13470875 -0.012066534 0.53822899
-0.12567911 -0.012192264 0.53837597
-0.16344067 -0.0096631497 0.53091455
-0.1544304 -0.0087315058 0.53300709
-0.14514542 -0.0086858543 0.53314143
-0.13543545 -0.008805085 0.53234857
-0.12518959 -0.0086474922 0.53351194
-0.11917136 -0.0087094381 0.53910965
-0.18334059 -0.074763887 0.54320931
-0.18384913 -0.064845502 0.54513007
-0.18358058 -0.055437293 0.54594195
-0.18210915 -0.045396388 0.54363883
-0.17751542 -0.043050587 0.5482989
-0.18133265 -0.035474665 0.54149103
-0.17720577 -0.034688555 0.546947
-0.18016078 -0.029644296 0.54141814
-0.17417748 -0.026295971 0.54469216
-0.16616987 -0.023192916 0.5480448
-0.16398153 -0.017461905 0.54439169
-0.15484923 -0.016318982 0.5458011
-0.1451101 -0.016385013 0.54525101
-0.13516478 -0.016921237 0.54265475
-0.20152569 -0.10113155 0.44494355
-0.19405752 -0.10200176 0.44405422
-0.1844009 -0.1026026 0.44536591
-0.17726728 -0.10344301 0.44866654
-0.21293099 -0.092057824 0.44794542
-0.20465547 -0.094652057 0.44688976
-0.19555679 -0.097422913 0.44714811
-0.18617076 -0.098754689 0.44839802
-0.21239594 -0.089249961 0.44950145
-0.20806457 -0.089434564 0.44944569
-0.11086174 -0.045188472 0.44728389
-0.10623947 -0.042227704 0.44746706
-0.10456023 -0.03874534 0.4461658
-0.17269522 -0.10199131 0.45301154
-0.16972303 -0.10365801 0.45260885
-0.21818274 -0.090322971 0.45094588
-0.20148513 -0.091073342 0.45234528
-0.19539268 -0.093671352 0.45532763
-0.1849732 -0.096652247 0.45436493
-0.17723504 -0.09892533 0.45441949
-0.22221845 -0.082833461 0.45302719
-0.21499804 -0.084318817 0.45325357
-0.20602092 -0.08611948 0.45568871
-0.19970834 -0.089721367 0.45994544
-0.23107679 -0.070693128 0.45861629
-0.22436237 -0.074310035 0.45626825
-0.21596749 -0.076451562 0.45767239
-0.23214939 -0.068095706 0.45995003
-0.22615811 -0.0688117 0.45979595
-0.11122148 -0.053225633 0.45602614
-0.10905071 -0.052295249 0.4583779
-0.11099613 -0.048726719 0.45194998
-0.10646074 -0.047062654 0.45499012
-0.17240542 -0.10168344 0.46244264
-0.19509327 -0.092302188 0.46546212
-0.18486486 -0.095804252 0.465444
-0.17768449 -0.09850648 0.46360996
-0.20406772 -0.0845799 0.46501017
-0.19963586 -0.089522429 0.46727881
-0.21356033 -0.073646858 0.46469328
-0.2085242 -0.078156173 0.46624771
-0.23198225 -0.063287541 0.46164325
-0.22431624 -0.064014941 0.46313986
-0.21828675 -0.066512376 0.46692297
-0.11051678 -0.060848199 0.46894789
-0.23323399 -0.054763973 0.46345234
-0.22484577 -0.055106547 0.46637899
-0.21916197 -0.059077561 0.46945128
-0.11055061 -0.058987726 0.46394819
-0.1071002 -0.05470968 0.46554881
-0.23363897 -0.045117017 0.46639672
-0.22694181 -0.045723543 0.46911374
-0.10352238 -0.048643276 0.4664498
-0.23282833 -0.035221603 0.46714443
-0.22779197 -0.034559291 0.46954954
-0.23164982 -0.025447538 0.4678463
-0.22773173 -0.024740795 0.46942613
-0.23032239 -0.018569663 0.46845853
-0.22585134 -0.01511615 0.46953401
-0.22184278 -0.0056947148 0.46959382
-0.21829328 -0.0018110046 0.46996108
-0.22039045 0.00039817276 0.4694615
-0.21817061 0.0010125043 0.46996155
-0.20340146 0.013276299 0.4695704
-0.19565478 0.016496176 0.4691596
-0.18565333 0.018540934 0.46885261
-0.175713 0.01951131 0.46903023
-0.19264866 0.021501048 0.46739292
-0.184091 0.022593703 0.46615666
-0.17474075 0.022853158 0.46590337
-0.16561046 0.022948215 0.46779239
-0.15874182 0.024441307 0.46956387
-0.17609738 -0.1021804 0.47794262
-0.19383346 -0.091960937 0.47536796
-0.18509588 -0.096076913 0.47603491
-0.17954884 -0.099195845 0.47660995
-0.20315804 -0.084115103 0.47543216
-0.19856152 -0.088969208 0.47615984
-0.21195936 -0.071614273 0.47363311
-0.20759618 -0.075900987 0.47602698
-0.21433164 -0.064863935 0.47534442
-0.20964566 -0.069800965 0.47994915
-0.11141364 -0.062933303 0.47544757
-0.10737305 -0.061684001 0.47861433
-0.22085384 -0.051315371 0.47138122
-0.21639481 -0.05529207 0.47525027
-0.1034153 -0.055155922 0.47540027
-0.22211604 -0.044105604 0.4716289
-0.21816988 -0.045043804 0.4766787
-0.10313768 -0.048548639 0.47444981
-0.22274825 -0.034584194 0.47240648
-0.2186095 -0.035723504 0.4774704
-0.22274071 -0.025241373 0.47312081
-0.21858518 -0.024267277 0.47795719
-0.2217427 -0.015946539 0.47153574
-0.21674463 -0.014655678 0.4759112
-0.22047974 -0.0094422763 0.47095981
-0.21443737 -0.0056438111 0.47363147
-0.20686169 -0.0030101661 0.47746053
-0.21353638 0.0039471714 0.4714143
-0.20491973 0.004446283 0.47304174
-0.19599757 0.0063806023 0.47640413
-0.18792914 0.0087573165 0.47946203
-0.21104877 0.010651703 0.470963
-0.20694801 0.011061926 0.47096294
-0.19379105 0.011765292 0.47221273
-0.18487443 0.013432232 0.47492498
-0.1750531 0.01585131 0.47520101
-0.16541757 0.016759779 0.47619355
-0.15500881 0.016502269 0.47754395
-0.1459377 0.015968014 0.47769883
-0.16273502 0.02077996 0.47150886
-0.15531652 0.022118811 0.47352225
-0.14765383 0.020691345 0.47546294
-0.17377938 -0.10262852 0.48501945
-0.16892809 -0.10467192 0.48764196
-0.19195539 -0.091116145 0.48457
-0.1849857 -0.09528435 0.48574409
-0.17841995 -0.098965123 0.48776147
-0.20204699 -0.082769677 0.48468748
-0.19684446 -0.087145612 0.48623994
-0.20589747 -0.075087912 0.48558456
-0.21065377 -0.063519031 0.48226279
-0.20871545 -0.065784648 0.4865675
-0.11012036 -0.065996788 0.488947
-0.10523435 -0.061761305 0.48411426
-0.21280089 -0.054682404 0.48526293
-0.20931852 -0.059188474 0.48895097
-0.1017041 -0.055525821 0.48486522
-0.21553279 -0.04512519 0.48524615
-0.10415306 -0.048988584 0.48494974
-0.21501525 -0.034573931 0.48549104
-0.21364199 -0.025199234 0.48465264
-0.21216838 -0.016261866 0.48343343
-0.20799406 -0.013853755 0.48755872
-0.21008465 -0.0090137795 0.48095959
-0.20409627 -0.006246652 0.48466575
-0.19818738 -0.0019645542 0.48756048
-0.19402227 0.0023807879 0.4845199
-0.1851342 0.0059417421 0.48541048
-0.17573676 0.0082198987 0.48752677
-0.16434747 0.0089284265 0.48879471
-0.15464911 0.0087080449 0.48839858
-0.14768597 0.0090875374 0.48816094
-0.18131417 0.010467834 0.48129547
-0.17458731 0.01154428 0.48296207
-0.16482545 0.01212403 0.48384663
-0.15553032 0.011576024 0.48301163
-0.14464542 0.011844907 0.48387042
-0.17181501 -0.10074004 0.49524274
-0.16819504 -0.10354434 0.49529934
-0.19008242 -0.090636335 0.49094504
-0.18478219 -0.09293779 0.49503016
-0.17705065 -0.097885266 0.49551481
-0.20090598 -0.080859087 0.49128035
-0.19536327 -0.084979422 0.49507102
-0.18932882 -0.089287721 0.49774522
-0.20335312 -0.074960485 0.49503899
-0.19942637 -0.079405785 0.49828053
-0.11401531 -0.07410939 0.49890721
-0.1099853 -0.070745945 0.49994615
-0.20626758 -0.064782262 0.49532202
-0.11321988 -0.06873031 0.4944011
-0.10580634 -0.06498827 0.49669704
-0.21126074 -0.052497242 0.49225986
-0.20760326 -0.055168837 0.49613166
-0.10119794 -0.05450635 0.49531233
-0.21241295 -0.044872705 0.49421436
-0.20889632 -0.045726698 0.49895325
-0.21145146 -0.036102831 0.49424073
-0.20935647 -0.03379162 0.49824101
-0.21043217 -0.028099269 0.49175635
-0.20806447 -0.02404871 0.49597967
-0.20369025 -0.015389667 0.49514347
-0.19874465 -0.011312527 0.49929222
-0.20134059 -0.0085874023 0.49245939
-0.19566172 -0.0048916298 0.49522519
-0.18781708 -0.0015272619 0.49771023
-0.19072698 0.00041839364 0.49096066
-0.18389326 0.0016565556 0.49420071
-0.17558891 0.0045491541 0.49547714
-0.16570158 0.0059290379 0.49562755
-0.15549055 0.0060067503 0.49559221
-0.14666519 0.0079859979 0.49526837
-0.14300926 0.011398612 0.49446121
-0.16878603 -0.11014821 0.50394106
-0.17075811 -0.10048324 0.50434285
-0.16779667 -0.10311745 0.50619227
-0.18285312 -0.092444517 0.50530815
-0.17603916 -0.097610854 0.5057261
-0.19362426 -0.083595186 0.50488919
-0.18790311 -0.088415369 0.50625789
-0.1136642 -0.081775554 0.50761104
-0.10690432 -0.080980554 0.50781935
-0.20177479 -0.072879359 0.50442845
-0.19809514 -0.077344142 0.50611424
-0.11320295 -0.07771837 0.50225765
-0.10682207 -0.075027943 0.50577879
-0.20333523 -0.065114103 0.50502867
-0.10403545 -0.065826997 0.50555563
-0.099425048 -0.061080944 0.50828087
-0.20342927 -0.055089317 0.50529939
-0.10183764 -0.053054448 0.50569898
-0.099255577 -0.056684632 0.50854826
-0.20595376 -0.044807475 0.50530624
-0.10490456 -0.049885824 0.5069496
-0.20677876 -0.034975786 0.50543237
-0.20410797 -0.025113851 0.50489539
-0.19926818 -0.021280671 0.50895721
-0.20105846 -0.018469725 0.50235772
-0.19643559 -0.014187191 0.5061093
-0.1927397 -0.0074713491 0.5039593
-0.18519318 -0.0043785665 0.50571585
-0.17619388 -0.0016399886 0.50777245
-0.17428461 0.0014139039 0.50331032
-0.16575849 0.0019381252 0.50581747
-0.15530114 0.0033491042 0.5058549
-0.14753613 0.0061606481 0.50596046
-0.14423136 0.010897638 0.50096118
-0.17078707 -0.11300208 0.51394063
-0.16803229 -0.11160709 0.51994085
-0.16617502 -0.10310571 0.51582682
-0.18190876 -0.091666594 0.51530176
-0.17512876 -0.096749686 0.51570117
-0.1690731 -0.099289842 0.51827627
-0.19179149 -0.08252421 0.51519656
-0.18676822 -0.087504983 0.51570737
-0.12201543 -0.084761873 0.51774412
-0.11469384 -0.08660078 0.51612878
-0.10437482 -0.085010707 0.51601666
-0.20069128 -0.071039394 0.51144874
-0.19632557 -0.074937314 0.5155257
-0.10205967 -0.074657522 0.5136953
-0.2010615 -0.064876907 0.51380152
-0.19931789 -0.065897986 0.51830667
-0.10171628 -0.068038598 0.51402324
-0.096536122 -0.064661086 0.51723629
-0.201107 -0.053987127 0.51320159
-0.19916981 -0.055247914 0.51810145
-0.101585 -0.050987661 0.51361603
-0.09668044 -0.055270251 0.51653671
-0.20183142 -0.04497594 0.51465589
-0.1995026 -0.04551588 0.51917529
-0.11020494 -0.04229505 0.51945114
-0.10450204 -0.045714833 0.51792526
-0.098962784 -0.048716307 0.51919967
-0.20300573 -0.035027314 0.51536798
-0.19995281 -0.038944148 0.5199542
-0.20177856 -0.027773006 0.51424187
-0.19736633 -0.023693454 0.51605678
-0.19277866 -0.016801706 0.51430058
-0.18656188 -0.012480763 0.51641285
-0.1829292 -0.0077502467 0.51332748
-0.17526814 -0.0051122089 0.51563573
-0.16565964 -0.0019519601 0.5160504
-0.15578529 -0.0010613404 0.51862615
-0.14970054 -0.00091250218 0.51995933
-0.1626164 0.00043766762 0.51145989
-0.15425193 0.0011092401 0.51420981
-0.14779626 0.0034243644 0.51603138
-0.14805752 0.01128964 0.51896137
-0.17248404 -0.11755994 0.52681494
-0.16277939 -0.10422111 0.52399451
-0.18104221 -0.090608366 0.52419478
-0.17503016 -0.094053432 0.52537644
-0.16645263 -0.09786623 0.52671236
-0.19050886 -0.081007548 0.52261335
-0.18615584 -0.085561566 0.52566379
-0.19286056 -0.07474298 0.5250209
-0.1898338 -0.078403287 0.52961379
-0.19602901 -0.065080583 0.52526963
-0.19681461 -0.054788183 0.5258162
-0.1961468 -0.044563789 0.52499223
-0.11120361 -0.040376581 0.52095139
-0.10299207 -0.04153898 0.52188432
-0.20046566 -0.034278058 0.52128834
-0.19544064 -0.03513816 0.52564329
-0.18949354 -0.031386361 0.52995515
-0.12235367 -0.033784654 0.52855283
-0.11430523 -0.034695845 0.52504998
-0.1051477 -0.035538331 0.52532464
-0.19385125 -0.026519867 0.52384239
-0.18734229 -0.023476599 0.52718502
-0.12143084 -0.029999554 0.52995348
-0.11425696 -0.029761123 0.52923906
-0.10827974 -0.029999072 0.52995318
-0.19081227 -0.019967197 0.52095717
-0.18391317 -0.016255688 0.52449816
-0.17682521 -0.012301112 0.52706915
-0.17332909 -0.008004291 0.52378225
-0.1648712 -0.0066591981 0.52612543
-0.15486214 -0.0051566199 0.52567655
-0.14751951 -0.0029186399 0.52701449
-0.1461712 0.0026950403 0.52459621
-0.14783244 0.010010747 0.52296108
-0.17391354 -0.09146674 0.53319442
-0.18350254 -0.083739743 0.53457099
-0.19096412 -0.072556101 0.53166252
-0.18652897 -0.075979501 0.5368495
-0.19180615 -0.064403117 0.5346849
-0.18926746 -0.066484526 0.53894913
-0.19274361 -0.055182196 0.53595126
-0.19182298 -0.046207245 0.53383732
-0.1886998 -0.043265224 0.53800869
-0.19091423 -0.037629414 0.53152561
-0.18693314 -0.034279 0.53590804
-0.12586272 -0.032122176 0.53238189
-0.18304537 -0.025555922 0.53437722
-0.17759755 -0.023053257 0.53809261
-0.14384118 -0.023868941 0.53869712
-0.13602516 -0.024540382 0.53543866
-0.12444327 -0.024365827 0.53384584
-0.18060525 -0.018962774 0.53095704
-0.17432454 -0.016385224 0.5349074
-0.16533095 -0.013829643 0.53585756
-0.15475219 -0.013981261 0.53681076
-0.14487308 -0.014887879 0.53689682
-0.13560665 -0.014913945 0.53782833
-0.12564127 -0.016869774 0.53812259
-0.15387596 -0.0090885572 0.53145796
-0.14417072 -0.0059875916 0.5345059
-0.13939585 -0.008339013 0.53920776
-0.14618449 0.0036076736 0.53570992
-0.1500937 0.011550993 0.53096145
-0.14954683 0.010221596 0.53396124
-0.18458536 -0.064769372 0.54418141
-0.1852648 -0.055024337 0.54469705
-0.18385921 -0.045258004 0.54399186
-0.18240923 -0.035968985 0.5428853
-0.17514908 -0.035124708 0.54699123
-0.17372441 -0.026026016 0.54295564
-0.16501676 -0.025162619 0.5449149
-0.15482019 -0.025006173 0.54297704
-0.14747527 -0.027225681 0.54128808
-0.16461022 -0.018865781 0.54145652
-0.15678409 -0.018702542 0.54128975
-0.13263533 -0.011251749 0.54138559
-0.1412818 -0.002190396 0.54308385
-0.14473911 0.0042037084 0.54642153
-0.15313646 0.013346188 0.54762846
-0.1613692 0.0194261 0.55796313
-0.1627606 0.022928445 0.55932736
