# .PCD v0.7 - Point Cloud Data file format
VERSION 0.7
FIELDS x y z
SIZE 4 4 4
TYPE F F F
COUNT 1 1 1
WIDTH 1410
HEIGHT 1
VIEWPOINT 0 0 0 1 0 0 0
POINTS 1410
DATA ascii
-0.065070316 0.045048561 0.5158034
-0.055055071 0.044899911 0.51609242
-0.044958707 0.04489984 0.51601607
-0.035011634 0.045264315 0.51654327
-0.024845336 0.04487117 0.51644695
-0.015194103 0.044837866 0.51735336
-0.0050215768 0.045002081 0.51755148
0.005065049 0.045218073 0.51661545
0.015107413 0.045091517 0.51563007
0.025019107 0.044996366 0.51684737
0.034880079 0.045022938 0.51835024
0.045040052 0.044776618 0.5182761
0.055118345 0.045124698 0.51832485
0.065123916 0.045065716 0.51814127
0.075011365 0.044830102 0.51871085
0.085060716 0.045009498 0.51823372
0.09500517 0.045135844 0.51794946
0.10512993 0.044948641 0.51804632
0.11493121 0.045022715 0.51878572
0.12502091 0.044590157 0.51886296
0.13523446 0.044895269 0.51919436
0.14515071 0.044777498 0.51926392
0.15514068 0.044942331 0.51896411
0.1650039 0.044935353 0.51898295
0.17488004 0.044950049 0.51933992
0.1839278 0.044584371 0.51968968
0.19573009 0.04343373 0.51933259
0.20499542 0.044928648 0.51864278
0.21274765 0.045277473 0.51924878
0.23744254 0.041809734 0.51969868
0.24537994 0.044662379 0.51894671
0.25478998 0.044724062 0.51935852
0.26496094 0.044910032 0.51916909
0.27314985 0.046142444 0.5196895
0.28619272 0.045481797 0.51974851
0.29158935 0.041189507 0.51980227
-0.36164007 0.056732677 0.51257843
-0.35475022 0.055234592 0.51285541
-0.34504238 0.055219412 0.5139848
-0.33482623 0.054672059 0.5144828
-0.32452643 0.055255212 0.51370353
-0.31483057 0.055133402 0.51231831
-0.30483893 0.055044748 0.5114283
-0.29447207 0.055106584 0.5115456
-0.284655 0.054975655 0.51217324
-0.27453855 0.054941565 0.51210701
-0.26484653 0.05505091 0.51262772
-0.25482687 0.055125136 0.51345181
-0.24488248 0.05501733 0.51435363
-0.23507331 0.054629911 0.51481676
-0.22495167 0.054837048 0.51419216
-0.21527806 0.055184189 0.5143593
-0.20539431 0.055022258 0.51524991
-0.19522762 0.055288818 0.51515347
-0.18516721 0.055035047 0.51481795
-0.17474534 0.054965805 0.51501882
-0.16490108 0.055050999 0.5157817
-0.1551919 0.054836459 0.51612449
-0.14513285 0.055017561 0.51600289
-0.13493626 0.055193227 0.51539654
-0.12483829 0.05488801 0.51507324
-0.11490995 0.054947983 0.51543289
-0.10500307 0.055218954 0.51569831
-0.094935745 0.054746348 0.51504362
-0.084799103 0.055027928 0.51466209
-0.07492166 0.054966677 0.51518655
-0.064826839 0.055049803 0.51614374
-0.055115186 0.055115961 0.51755917
-0.044963434 0.054840289 0.5174318
-0.03476556 0.055100732 0.51771075
-0.024872722 0.055063583 0.51802599
-0.01478414 0.054766841 0.51787508
-0.0048311693 0.055223964 0.51748294
0.0049572862 0.054912016 0.51693863
0.014965321 0.055129282 0.51693416
0.02509965 0.054922581 0.51768309
0.035179779 0.055131432 0.51924103
0.04519156 0.054927815 0.51886159
0.054928269 0.055132058 0.51849771
0.065031432 0.055023912 0.51853043
0.074966602 0.054818612 0.51872772
0.084979787 0.055112805 0.51809585
0.095035523 0.054893058 0.51772618
0.10512776 0.054915611 0.51768243
0.11373801 0.054807216 0.51931751
0.12450834 0.05249168 0.51976234
0.13627921 0.053929012 0.51973367
0.14523582 0.055212982 0.51946872
0.15503721 0.054859087 0.5189566
0.16466187 0.054906111 0.51914817
0.17416346 0.053904578 0.51969349
0.18289623 0.052435167 0.51980072
0.19517975 0.0536865 0.51992911
0.20656183 0.053833373 0.51942998
0.21430998 0.055444364 0.51935309
0.22167784 0.055830088 0.51986116
0.24736182 0.050810087 0.51979572
0.25546438 0.051297367 0.51966166
0.26560599 0.053103432 0.51955563
0.27398196 0.051476549 0.51974857
0.28074247 0.051183164 0.51990807
-0.36365998 0.065435387 0.51196021
-0.35482627 0.064997934 0.51190603
-0.34507677 0.064940058 0.51317525
-0.3351118 0.065076075 0.5137434
-0.32490036 0.065129817 0.51349437
-0.31469908 0.065091081 0.51297444
-0.30489555 0.064901546 0.51240665
-0.29513693 0.065018661 0.51240724
-0.28525949 0.064910777 0.51293766
-0.27518195 0.065106794 0.51315415
-0.26485848 0.065006688 0.51379704
-0.25480756 0.0651531 0.51518041
-0.24523745 0.06493295 0.51601833
-0.23475897 0.064918526 0.5153029
-0.22467992 0.06528005 0.5144096
-0.21465954 0.064875446 0.51420593
-0.20468451 0.064831257 0.51437736
-0.19489375 0.0650874 0.51415509
-0.18479289 0.064990826 0.51445401
-0.1749109 0.064988278 0.51562518
-0.16517459 0.064957403 0.51680189
-0.15491042 0.064853512 0.51732898
-0.14524652 0.064978994 0.51714593
-0.13516328 0.06531655 0.51633126
-0.12491075 0.064760931 0.51580244
-0.11481643 0.065032005 0.51628876
-0.10507477 0.065282732 0.516909
-0.094790377 0.064857751 0.51620388
-0.084840253 0.064991295 0.51533109
-0.074853659 0.064907856 0.51527429
-0.064818487 0.064868316 0.51594996
-0.055020463 0.065097705 0.51754105
-0.044830482 0.065050513 0.51778102
-0.034725241 0.064899653 0.5177772
-0.024922917 0.065206006 0.51860088
-0.014971074 0.06471549 0.5187335
-0.004951098 0.065198585 0.51826596
0.0050883559 0.064907081 0.51732868
0.01487753 0.065058798 0.51705873
0.025062399 0.065011054 0.51754791
0.034838744 0.064921044 0.5186283
0.044977956 0.065067641 0.51842028
0.054838475 0.064818598 0.51814038
0.065017216 0.065099038 0.51847106
0.075125754 0.064954571 0.51891011
0.084774271 0.06489709 0.51941246
0.095190324 0.064173318 0.51892722
0.10499008 0.064413242 0.51850253
0.11393991 0.063725688 0.51940703
0.12520382 0.065926649 0.5197109
0.13505964 0.064613305 0.51964331
0.14524969 0.063306861 0.51958042
0.15541059 0.063438788 0.51947016
0.16399579 0.063134141 0.51964837
0.17671074 0.064590678 0.51961237
0.18203211 0.065876678 0.51967901
0.21476834 0.062576555 0.51968706
0.22296982 0.065569058 0.51992762
-0.3721467 0.077281334 0.51178533
-0.36523092 0.074924186 0.51068854
-0.35481581 0.071950711 0.51036096
-0.34449473 0.074427746 0.51162183
-0.33530897 0.075261734 0.51374435
-0.32497582 0.0752974 0.51459396
-0.31486538 0.074949302 0.51445901
-0.30475512 0.074841999 0.51395196
-0.2950727 0.074890859 0.51362449
-0.28510657 0.074860409 0.51336318
-0.27497754 0.075261086 0.51307684
-0.26510349 0.074660257 0.51330274
-0.25517035 0.07519114 0.51543868
-0.24492775 0.075033732 0.51701379
-0.235046 0.074994542 0.51647449
-0.22500066 0.075080052 0.51574677
-0.21477289 0.07475327 0.51587522
-0.20539278 0.075462498 0.51637292
-0.1951545 0.074748665 0.51531452
-0.18475229 0.074968398 0.51465201
-0.17470294 0.074940659 0.51556695
-0.16498506 0.074882783 0.51673961
-0.15506133 0.074993916 0.51745701
-0.14533363 0.075161912 0.51788515
-0.13500567 0.075093538 0.517524
-0.12473664 0.075058781 0.51753467
-0.11482413 0.075047687 0.51789224
-0.10505436 0.074893862 0.51869243
-0.095019616 0.07520844 0.51838261
-0.084935606 0.074973948 0.51695526
-0.074765839 0.075002477 0.51634783
-0.064962938 0.074943066 0.51717526
-0.055253588 0.07491497 0.51859045
-0.044936318 0.075120643 0.51831257
-0.034961548 0.074908368 0.51797664
-0.024886129 0.07499475 0.51828414
-0.015074938 0.074781224 0.51858324
-0.0050523616 0.075145461 0.5180825
0.0049904091 0.075072974 0.5173642
0.015099334 0.074822038 0.51736647
0.025022939 0.075028561 0.51814055
0.034739796 0.075043812 0.51919526
0.045118853 0.07489603 0.51949769
0.054928012 0.074975461 0.51876491
0.064960822 0.075011253 0.51862907
0.074921608 0.07486093 0.51867598
0.083118878 0.074309945 0.51956129
0.096698754 0.074722581 0.51978487
0.1040572 0.076566711 0.51966977
0.11249976 0.077156432 0.51984626
0.12611276 0.074148379 0.51976979
0.13304353 0.076238789 0.51980114
0.15846911 0.071449734 0.51991343
0.17807481 0.0704313 0.51987493
0.18140233 0.070983917 0.51977062
-0.38223761 0.087978572 0.51419675
-0.37516931 0.08507663 0.51306504
-0.36505246 0.085371055 0.51166975
-0.35472256 0.086566105 0.5110116
-0.34421092 0.084977247 0.5110929
-0.33509967 0.084991485 0.51323777
-0.32535508 0.085249573 0.51495045
-0.31516537 0.085254833 0.51581258
-0.30472174 0.084912986 0.51570004
-0.29508674 0.08489453 0.51536548
-0.28485006 0.085078679 0.51490551
-0.27509135 0.085235968 0.51508737
-0.26505736 0.084857509 0.51543021
-0.25525504 0.084908649 0.51667035
-0.24512357 0.085099757 0.51719254
-0.23512436 0.084745601 0.51615125
-0.22487542 0.085135825 0.51524341
-0.21484658 0.084790163 0.51543951
-0.20531237 0.085161179 0.51641339
-0.19532815 0.085046239 0.51671255
-0.18500964 0.085086524 0.51594877
-0.1750187 0.084853902 0.51571304
-0.16489838 0.085049026 0.51623887
-0.15496558 0.084980056 0.51748431
-0.14493686 0.084994204 0.51866496
-0.13501121 0.084892847 0.51820529
-0.12508109 0.085070588 0.5177474
-0.11496969 0.084916234 0.51806176
-0.10491872 0.084935762 0.51845396
-0.095187776 0.085077986 0.51810998
-0.085094698 0.0850835 0.51723522
-0.075177662 0.085043594 0.51745141
-0.064994715 0.084989749 0.51872283
-0.055121709 0.085010141 0.51943934
-0.044957735 0.084837683 0.51849639
-0.034938391 0.085203931 0.51857251
-0.02483082 0.084880129 0.51880115
-0.014798334 0.084851034 0.51883042
-0.0049236245 0.08505097 0.51887363
0.0049203848 0.084873728 0.51807743
0.015074373 0.084772855 0.51791883
0.024896497 0.085194565 0.51894945
0.035002433 0.084934019 0.51901466
0.044883441 0.084425762 0.51935846
0.054753304 0.084321707 0.51928759
0.064891592 0.083349667 0.51957983
0.075810798 0.084063418 0.51957238
0.084831215 0.085536979 0.519391
0.095378242 0.085483678 0.51913011
0.1044132 0.084673181 0.51960427
0.11377339 0.084936991 0.51970214
0.12832788 0.08197128 0.51983994
0.13320377 0.081069306 0.51979512
0.14272889 0.08217746 0.51992202
-0.38413009 0.095889911 0.5136627
-0.3753835 0.094979979 0.51452154
-0.36511078 0.095331542 0.51431304
-0.35489625 0.094945572 0.51353705
-0.34496751 0.094897285 0.51338965
-0.33499068 0.09481699 0.51410574
-0.324819 0.095056042 0.51513422
-0.3148964 0.095043339 0.51615316
-0.30551413 0.095032953 0.51696938
-0.29475784 0.095080942 0.51638377
-0.28459182 0.094859116 0.51584762
-0.27476075 0.095096178 0.5163095
-0.26507089 0.09519808 0.51740235
-0.2550973 0.094893269 0.51799607
-0.24471998 0.095088549 0.51758629
-0.23451242 0.095051333 0.5159362
-0.22455482 0.094939545 0.51488829
-0.21475188 0.095022142 0.51487696
-0.20498379 0.094719648 0.51573455
-0.19534491 0.095202774 0.51703173
-0.18489006 0.095094316 0.51694643
-0.17500599 0.094977185 0.51658726
-0.16510014 0.094795197 0.51624072
-0.15523033 0.095234945 0.51701897
-0.14527841 0.094782926 0.51870811
-0.13489585 0.095271394 0.51899642
-0.12470078 0.095061988 0.51821196
-0.11496228 0.094875984 0.51797396
-0.10522675 0.094937772 0.51847559
-0.095063716 0.095090471 0.51865971
-0.084753625 0.094877698 0.51740497
-0.074899063 0.094958365 0.51696199
-0.065056868 0.095127337 0.51835144
-0.05565038 0.094706036 0.51959562
-0.044246968 0.094160885 0.51931119
-0.035168733 0.095227227 0.5193935
-0.026103694 0.09403681 0.51969695
-0.014112615 0.093910016 0.51967508
-0.0049372562 0.095060095 0.51935595
0.0049622012 0.094951689 0.51832944
0.014971658 0.095000207 0.51792121
0.024826016 0.095009208 0.5189634
0.035217714 0.094961166 0.51854873
0.042620286 0.09550485 0.5192495
0.07823009 0.091093995 0.51977706
0.086035676 0.093526863 0.51944542
0.094858795 0.094594136 0.5191887
0.10399417 0.094574064 0.51964152
0.11518135 0.095424004 0.51977426
0.12361678 0.097106822 0.51978248
0.15262686 0.095626585 0.51986939
-0.3927668 0.1061852 0.51388878
-0.38455871 0.10512291 0.51410776
-0.375227 0.10498116 0.5154978
-0.36508784 0.10493995 0.51571989
-0.35543916 0.10498329 0.51545572
-0.34492475 0.10496862 0.51519191
-0.33515036 0.10503358 0.51564455
-0.32510641 0.10499414 0.51572347
-0.3153263 0.10496669 0.51608032
-0.30532643 0.10500111 0.51679176
-0.2950711 0.10478625 0.51655954
-0.28518003 0.10486548 0.51554263
-0.27502257 0.10508124 0.5150339
-0.26494154 0.10475073 0.51575816
-0.25532064 0.10529342 0.51770133
-0.24541596 0.10504644 0.51767522
-0.23513557 0.10507401 0.51618397
-0.22489291 0.10506652 0.51542783
-0.21530536 0.10487445 0.515692
-0.20503914 0.10478151 0.51615292
-0.1950493 0.10507208 0.51703709
-0.18500571 0.10500766 0.51731652
-0.17499502 0.10482839 0.5165996
-0.16491142 0.10498308 0.51575595
-0.15477504 0.10501509 0.51590884
-0.14499457 0.10471893 0.51685488
-0.13514087 0.10525884 0.51756799
-0.12536032 0.10512493 0.51836413
-0.11506335 0.10498238 0.51826394
-0.10576118 0.1045414 0.51929253
-0.094607249 0.10243946 0.5195694
-0.084713437 0.10502226 0.51832592
-0.074794002 0.10504496 0.51738203
-0.064866535 0.10477912 0.5176962
-0.054756861 0.10514254 0.51882702
-0.045308806 0.10527956 0.51964986
-0.034890562 0.10478099 0.51945937
-0.025306743 0.10538636 0.51920217
-0.014862364 0.10613909 0.51957428
-0.0049202917 0.10333682 0.51954615
0.0056388685 0.1037579 0.51902074
0.015123254 0.10484726 0.51856273
0.024518982 0.10463896 0.51918304
0.035084162 0.1036834 0.51908106
0.043130573 0.10303617 0.51927656
0.087636933 0.10493759 0.51994979
0.095205128 0.10481591 0.51972771
0.10263038 0.10280069 0.5198102
0.11778457 0.10426711 0.51976562
0.12313617 0.10439278 0.51972347
-0.40175587 0.1177788 0.515697
-0.39512783 0.11506025 0.5158416
-0.38514489 0.11500996 0.51615429
-0.37485656 0.1149968 0.51630586
-0.36502638 0.11513411 0.51647401
-0.35494092 0.11487068 0.51648664
-0.34531686 0.11515862 0.51667029
-0.33502632 0.11486693 0.51649404
-0.32486948 0.11505251 0.51633072
-0.31489235 0.11498448 0.51628757
-0.30495346 0.11507814 0.51744854
-0.2950049 0.11504328 0.51731569
-0.2848011 0.1152154 0.51583499
-0.27479863 0.11484357 0.5147593
-0.26454026 0.11468291 0.51499259
-0.25488496 0.11500796 0.51685214
-0.24533583 0.11524829 0.51766968
-0.23550627 0.11493256 0.51699275
-0.22520536 0.11493523 0.51681942
-0.21492179 0.11491981 0.51699388
-0.20452544 0.11493479 0.51670599
-0.19454277 0.11482767 0.51702642
-0.1851065 0.11501635 0.51794744
-0.17506613 0.11490686 0.51756293
-0.16500562 0.11493212 0.51685601
-0.15520488 0.11505354 0.51680487
-0.14499576 0.1150345 0.51645577
-0.13479865 0.11495026 0.51694447
-0.12518652 0.11492295 0.51819879
-0.11487339 0.114956 0.51851773
-0.10690739 0.11475624 0.5194242
-0.09130542 0.11430262 0.51998854
-0.083274394 0.11359428 0.51939309
-0.07536608 0.11322355 0.51917231
-0.064698346 0.11396726 0.51908833
-0.055299714 0.11458586 0.51902241
-0.047265414 0.113122 0.51962572
-0.033026706 0.11216193 0.51963001
-0.024501851 0.11485297 0.51911688
-0.015150823 0.11497135 0.51930726
-0.0072419122 0.11629377 0.51983064
0.016728064 0.11185254 0.51960963
0.023684008 0.11268342 0.51971018
0.087955251 0.11632826 0.51957691
0.095004283 0.11533563 0.51928312
0.1006533 0.1158563 0.51968694
0.12329066 0.11083259 0.51989722
-0.40346032 0.12554842 0.51470274
-0.39499247 0.12487392 0.51563674
-0.38507205 0.12497088 0.51631844
-0.37520429 0.12499537 0.51639402
-0.36521265 0.12510741 0.51641572
-0.35483181 0.12522845 0.51717293
-0.34530294 0.12510562 0.51780516
-0.33525914 0.12490135 0.51719308
-0.3251175 0.12509792 0.51624793
-0.31503123 0.12488662 0.51566446
-0.30519077 0.12505312 0.5162217
-0.29549143 0.1250744 0.51699978
-0.28506663 0.1249565 0.51628262
-0.27480245 0.12504192 0.51594508
-0.26467249 0.12508856 0.5164603
-0.25511897 0.12506065 0.51775187
-0.24502721 0.12487323 0.51881772
-0.23469165 0.12472917 0.51902771
-0.22483675 0.12482233 0.51882017
-0.21480161 0.12490421 0.51824641
-0.20513481 0.12511685 0.51756608
-0.19500142 0.12479658 0.5177483
-0.18520544 0.12499359 0.51896101
-0.17508316 0.12513669 0.51886433
-0.16500047 0.12500054 0.51833183
-0.15505694 0.12526852 0.51867813
-0.14501636 0.1239984 0.5189321
-0.13565674 0.12277614 0.51935554
-0.12550238 0.12146404 0.51938426
-0.11387414 0.12192118 0.51936257
-0.10719773 0.12233501 0.51958084
-0.082043335 0.12100818 0.51998758
-0.053047925 0.12159038 0.51994991
-0.045911822 0.12675223 0.51983672
-0.024054032 0.12444165 0.51960766
-0.015386395 0.12496862 0.51955527
-0.0056426874 0.12567227 0.5196085
0.00041361651 0.12639467 0.51987821
0.087994665 0.12165479 0.51964653
0.094283931 0.12144428 0.51956064
0.10156816 0.12099707 0.51980996
-0.41228741 0.13654163 0.51481122
-0.40498832 0.13440827 0.51470429
-0.39509377 0.13499716 0.51499701
-0.38509822 0.13524033 0.51563853
-0.37519729 0.13489519 0.51616269
-0.36513719 0.13503526 0.51601803
-0.35476941 0.13473605 0.51536888
-0.34472167 0.13480453 0.51549947
-0.33514112 0.13508527 0.51599485
-0.32523882 0.13530925 0.51620942
-0.31496033 0.13517341 0.51590431
-0.30475402 0.13478832 0.51599395
-0.29500699 0.13502121 0.51637119
-0.28522056 0.13495162 0.51626575
-0.27490574 0.13500147 0.51627916
-0.26504108 0.13489196 0.51693195
-0.25470236 0.13493466 0.51776743
-0.24508537 0.13520257 0.51888865
-0.23467933 0.13550261 0.51947129
-0.22504415 0.13485509 0.51904434
-0.2152134 0.13502227 0.51850092
-0.2050419 0.13496521 0.51799047
-0.19491453 0.13506769 0.51827538
-0.1853788 0.1345122 0.51930887
-0.17500578 0.13455908 0.51932043
-0.16491754 0.13471988 0.51882941
-0.15524377 0.13516875 0.51930404
-0.14907457 0.1334939 0.51980132
-0.1343216 0.13809684 0.51982599
-0.12508945 0.13752487 0.51962948
-0.11999653 0.13894871 0.51985145
-0.042882159 0.13408731 0.5198791
-0.034513999 0.13413326 0.51978874
-0.025281236 0.13404208 0.51982576
-0.014745315 0.13260093 0.51972598
-0.0049147201 0.13276467 0.51972926
0.0011510998 0.13135931 0.51994193
-0.42275682 0.14705126 0.51674908
-0.41500676 0.1451347 0.51619363
-0.40491116 0.14489882 0.51612729
-0.39508608 0.14485957 0.5162884
-0.38486007 0.14504632 0.51609659
-0.37515035 0.14481719 0.51624137
-0.3651436 0.14493401 0.51596773
-0.35462922 0.14521687 0.51504332
-0.34454703 0.14478716 0.51449633
-0.33515984 0.14484671 0.51493239
-0.32551864 0.14509803 0.51628321
-0.31491604 0.1450683 0.51738292
-0.30484998 0.14506152 0.51802021
-0.29520658 0.14511105 0.51791286
-0.28503308 0.14496905 0.51702875
-0.27487198 0.14501227 0.51659977
-0.26520863 0.14500408 0.51740533
-0.25521719 0.14461179 0.5179159
-0.24497724 0.14496371 0.51870197
-0.2354034 0.1436647 0.51940471
-0.22497806 0.1449766 0.5189262
-0.21468371 0.14477415 0.51843256
-0.20472424 0.14501743 0.51850682
-0.19509041 0.14497827 0.51925886
-0.18802981 0.14463013 0.51984864
-0.17627241 0.14027251 0.51993191
-0.16381273 0.14178999 0.51975882
-0.15461071 0.14146587 0.51977205
-0.13389817 0.14396635 0.51967841
-0.12461604 0.14467297 0.51941454
-0.11576354 0.14590307 0.51978785
-0.10589716 0.14767146 0.51962918
-0.09627372 0.14833644 0.51984787
-0.43047982 0.15820813 0.5183413
-0.42482135 0.15500133 0.518089
-0.41490871 0.15496197 0.51789153
-0.40504405 0.15511422 0.51757157
-0.3950628 0.1551857 0.51735985
-0.38493016 0.15480272 0.51669323
-0.37470087 0.15490019 0.51587969
-0.36466175 0.15486433 0.51525462
-0.35522363 0.15521809 0.51516104
-0.34494492 0.15491892 0.51507938
-0.33455208 0.15504856 0.5155139
-0.32511333 0.15507551 0.51677793
-0.31530055 0.15487573 0.51798987
-0.30502599 0.15491872 0.51887381
-0.29495549 0.15526707 0.51856905
-0.28507504 0.15502955 0.51759732
-0.27494332 0.15493234 0.51711392
-0.26498353 0.15487139 0.51801723
-0.25617111 0.15464552 0.51938206
-0.24623035 0.15060015 0.51980346
-0.22349733 0.15399829 0.51952064
-0.21518379 0.15506208 0.51879549
-0.20477639 0.15501574 0.51837486
-0.19466709 0.15484622 0.51853734
-0.18501113 0.15531541 0.5191223
-0.17649239 0.15824452 0.51945984
-0.12333226 0.15185563 0.51981562
-0.11467913 0.15197085 0.51975107
-0.10511699 0.15374941 0.51965368
-0.097982384 0.152135 0.51975119
-0.42402011 0.16018319 0.51855636
-0.41288066 0.16085197 0.51774287
-0.40479976 0.16214626 0.517479
-0.39458084 0.16327178 0.51714605
-0.38457692 0.16475213 0.5166167
-0.37497628 0.16510771 0.51571643
-0.36488438 0.16476028 0.51511431
-0.35530609 0.16514519 0.5157426
-0.34540516 0.16493012 0.51648837
-0.3347902 0.16457224 0.51627892
-0.32497296 0.16497877 0.51749229
-0.31512424 0.16515827 0.51861817
-0.30524719 0.16514733 0.51876998
-0.29471347 0.16493186 0.5180282
-0.28478187 0.16487566 0.51711786
-0.27464664 0.16494451 0.51690304
-0.2642943 0.16477568 0.51744765
-0.25485963 0.16532581 0.51883954
-0.24556862 0.16817093 0.51929277
-0.2354895 0.16858268 0.51960552
-0.22379081 0.16535382 0.51979613
-0.2150526 0.16459557 0.51957917
-0.20495206 0.16398439 0.51912647
-0.19484572 0.16377585 0.51920873
-0.18428448 0.16441007 0.51914632
-0.17480245 0.1651092 0.51923949
-0.16461344 0.16549672 0.51946169
-0.15486443 0.16489968 0.51961172
-0.14834549 0.16537546 0.51976651
-0.027502105 0.16959809 0.51976562
-0.013188094 0.1660175 0.5199787
-0.0056090015 0.16652489 0.51983958
-0.37346661 0.17091751 0.51579207
-0.36420187 0.17284289 0.51692623
-0.35587427 0.17361899 0.51867074
-0.34452039 0.17352746 0.51892442
-0.33480319 0.17492443 0.51865047
-0.32465553 0.17503718 0.51874286
-0.31568199 0.17468622 0.51948452
-0.30589008 0.17236879 0.5197075
-0.29476327 0.17480123 0.519144
-0.28488329 0.17476915 0.51806343
-0.27471444 0.17505445 0.5173251
-0.26491633 0.17515387 0.51761758
-0.25524178 0.1749932 0.51855278
-0.24462132 0.1749613 0.51873541
-0.23464347 0.17510279 0.51916134
-0.22494553 0.17490584 0.51951694
-0.21574624 0.17481743 0.51973701
-0.20533901 0.17053664 0.51994479
-0.1814604 0.17181957 0.51981604
-0.17478332 0.17226411 0.5194388
-0.16527347 0.17177683 0.51960278
-0.15621424 0.17115633 0.51975322
-0.14997055 0.1715495 0.51995516
-0.031588033 0.17336845 0.51948529
-0.026236223 0.17270811 0.51939601
-0.33427468 0.1814414 0.51965737
-0.32480997 0.18260401 0.51940233
-0.31736428 0.18257295 0.51979142
-0.29227984 0.1827786 0.51973689
-0.28456631 0.1826334 0.51935834
-0.27481356 0.18360098 0.5191077
-0.26469773 0.18443398 0.51904589
-0.25505385 0.18438347 0.51928723
-0.24531174 0.18464294 0.51936144
-0.23548542 0.18396078 0.51934254
-0.22576272 0.1836389 0.51963252
-0.2171589 0.18417378 0.5198819
-0.294781 0.19408703 0.5199073
-0.24425431 0.19114652 0.51986456
-0.23417874 0.19054359 0.51995236
-0.21193519 0.1964286 0.51980907
-0.20556994 0.19666772 0.51979619
-0.19443604 0.1961133 0.51965231
-0.18524984 0.1955118 0.51911902
-0.17679463 0.1958098 0.51960403
-0.16995715 0.19652018 0.51988268
-0.21273574 0.2041494 0.51965386
-0.20500582 0.20231153 0.51964152
-0.19550838 0.20160535 0.51942486
-0.18544 0.2016708 0.51862526
-0.17970078 0.20022884 0.51925093
0.29793766 -0.014380643 0.5205496
0.30354062 -0.012652482 0.52044272
0.31109968 -0.0113553 0.52017522
0.29702044 -0.0085166218 0.52020174
0.30433765 -0.0082552852 0.52020979
0.31142694 -0.0081891008 0.52016175
0.2280208 0.0074889101 0.52007055
0.2331803 0.0074618082 0.52017283
0.24606857 0.0083110202 0.52016628
0.25269398 0.0051426901 0.52007818
0.27635601 0.0087425411 0.52008826
0.28460443 0.0078312233 0.52003413
0.29890478 0.0079792142 0.52008057
0.20494324 0.018137118 0.52011913
0.23534918 0.013453136 0.52015579
0.24420603 0.013153991 0.52018905
0.25185862 0.015225558 0.52018201
0.26823571 0.019105623 0.5201382
0.27599549 0.015832664 0.52058816
0.28393695 0.015907256 0.52054328
0.29923591 0.011183288 0.52006698
0.19775116 0.026641363 0.520199
0.20479651 0.025977002 0.52056813
0.21360399 0.02629686 0.52029228
0.22233346 0.025394605 0.52008903
0.23576896 0.028961184 0.52023399
0.24568298 0.02824818 0.52033025
0.2536172 0.026354367 0.52032888
0.26786798 0.025030108 0.52025551
0.27501813 0.024937242 0.5204407
0.2844328 0.025137106 0.52065122
0.29468405 0.028428156 0.52048498
0.18671121 0.037087478 0.52014863
0.19978443 0.030421447 0.52017939
0.20628594 0.032415822 0.5204491
0.21549673 0.034912772 0.52044547
0.22419812 0.037458636 0.52053857
0.23602259 0.034508914 0.52042079
0.24412972 0.033607855 0.52043384
0.25469753 0.033103842 0.52024275
0.26880991 0.033251479 0.52045602
0.27526587 0.03503054 0.5210132
0.28489608 0.034905925 0.52079725
0.29394761 0.034318708 0.52094615
0.11946134 0.049806356 0.52002263
0.12519188 0.049685527 0.52005291
0.13230045 0.049535558 0.52007014
0.14411591 0.049174462 0.52016288
0.17928496 0.048817053 0.52019787
0.18635221 0.045518231 0.52033585
0.19411783 0.047116067 0.5203473
0.21769668 0.044986267 0.52090853
0.22506385 0.044947043 0.5217945
0.23464471 0.045502875 0.52100587
0.24191532 0.048653305 0.52046168
0.25661948 0.046965122 0.52017856
0.26540065 0.048761651 0.52010143
0.2758722 0.044619743 0.52072984
0.28464645 0.044876575 0.52048725
0.2918413 0.044157241 0.52060103
0.034187485 0.053826541 0.52008706
0.040851399 0.053274207 0.52013206
0.1168858 0.055769108 0.52037078
0.12510008 0.055583283 0.52056527
0.13391578 0.055605941 0.52047706
0.14196466 0.054100957 0.52013546
0.16842787 0.058569212 0.52016765
0.17575504 0.055951703 0.52030623
0.18523613 0.055435665 0.52050298
0.19499311 0.055012457 0.52059799
0.20295118 0.056565888 0.52063298
0.21819673 0.053305365 0.5203836
0.22506322 0.054914366 0.52109402
0.23501259 0.055070996 0.52183014
0.24480945 0.055245418 0.52160484
0.25492361 0.055486213 0.52124524
0.26434189 0.057036303 0.5205735
0.27506003 0.055480849 0.52094179
0.28475651 0.054868776 0.52138817
0.29024583 0.051210012 0.52082235
0.087360546 0.068010755 0.52016008
0.094873831 0.068341933 0.5202024
0.10568664 0.069065854 0.52040434
0.11621656 0.066257015 0.52036244
0.12496931 0.063985221 0.52034831
0.13499419 0.065204382 0.52044517
0.14490913 0.067691192 0.52055967
0.15423457 0.067353256 0.52031869
0.16573338 0.066475183 0.52049255
0.17398094 0.065045923 0.52039951
0.18605445 0.064769924 0.52060378
0.19501835 0.064970098 0.52143025
0.20508839 0.064996086 0.52158034
0.21505715 0.065900296 0.52062744
0.22504224 0.065079562 0.52094007
0.23501456 0.064987972 0.52241945
0.24499276 0.065011293 0.52205026
0.25498945 0.064975202 0.52279896
0.26497078 0.06498006 0.52182239
0.27498972 0.065042265 0.52230591
0.28336769 0.064498045 0.52324277
0.037591938 0.074322246 0.52012926
0.042743795 0.075786918 0.52019334
0.086696602 0.075884201 0.52035528
0.09428969 0.075170249 0.52041578
0.10583564 0.073787987 0.52035064
0.11529123 0.074966393 0.5206058
0.1247711 0.075430252 0.52038425
0.13587613 0.074638419 0.52060169
0.14503853 0.074867226 0.52087331
0.15503922 0.075148664 0.52063084
0.16505015 0.0749861 0.52099568
0.17486893 0.075170495 0.52106142
0.1852099 0.075183839 0.52126235
0.19501162 0.075058989 0.52320021
0.20510519 0.074964508 0.52333122
0.21509449 0.074943796 0.52274907
0.22507969 0.074946418 0.52209204
0.23492612 0.074901231 0.52269244
0.24493809 0.075040981 0.5219456
0.25510395 0.074991167 0.52270877
0.26502714 0.075067155 0.52185708
0.27486378 0.074935675 0.52278167
0.28154609 0.073756076 0.52355844
-0.017544389 0.089769788 0.52002895
-0.0064599365 0.088012785 0.52001297
0.046703484 0.088934079 0.52034062
0.056798246 0.088669628 0.52034461
0.065086924 0.086975642 0.52033961
0.073057905 0.087102666 0.52026939
0.085373737 0.082614392 0.52022767
0.09269017 0.081269585 0.52049392
0.1066407 0.085557185 0.5202198
0.11592516 0.08507511 0.5204289
0.12485909 0.085211255 0.52077872
0.13530168 0.085314676 0.52068669
0.14513403 0.085021667 0.52077544
0.15507099 0.085099943 0.52154016
0.16514373 0.085069783 0.52127784
0.17512827 0.084918082 0.52121651
0.18507245 0.084977232 0.52184206
0.19499469 0.08504191 0.52309704
0.20489515 0.084886871 0.5240171
0.21492389 0.085041262 0.52396786
0.22496971 0.084961176 0.5237062
0.23508084 0.085044086 0.52356368
0.24501593 0.08501333 0.52240342
0.2550267 0.084965922 0.52216947
0.26503235 0.084952019 0.52225757
0.27437937 0.084515266 0.52243519
0.28016227 0.080039434 0.52378893
-0.05345327 0.095834695 0.52019161
-0.046572875 0.097792841 0.52027005
-0.030926839 0.094413638 0.52012175
-0.023819704 0.096061245 0.52032816
-0.016161326 0.096298046 0.52031976
0.047008727 0.094562098 0.52074724
0.054727688 0.095114201 0.52189642
0.064953163 0.094890758 0.52179807
0.074874319 0.095207781 0.52102822
0.083469898 0.097265057 0.52037096
0.096120797 0.09785419 0.5201295
0.10637783 0.095225222 0.52027726
0.11493215 0.094724379 0.52029955
0.12532057 0.094719209 0.52066201
0.13500161 0.095060125 0.52120781
0.14517193 0.094947241 0.52097136
0.15530929 0.094953209 0.52085906
0.16503586 0.094964616 0.52148974
0.17494355 0.095109329 0.52204478
0.1848965 0.094933584 0.52280712
0.19498189 0.094977394 0.5231933
0.20506123 0.09505444 0.52330267
0.21508461 0.095079549 0.52355969
0.22505781 0.095038816 0.52353466
0.23508669 0.094952047 0.52359909
0.24502522 0.095038563 0.52296484
0.25503924 0.094946988 0.52271378
0.26493454 0.095020711 0.52299815
0.27286208 0.094512373 0.52404666
-0.10262967 0.1073273 0.52029192
-0.095757484 0.10722022 0.52060014
-0.04464484 0.1048188 0.52017272
-0.035398103 0.10559176 0.52008843
-0.021586239 0.10174225 0.52033746
-0.015124727 0.10321591 0.52022719
-0.0049892096 0.10734105 0.52032024
0.003779785 0.10812462 0.52042508
0.027649738 0.10857001 0.52041847
0.03515704 0.10836788 0.520446
0.046552274 0.105908 0.52073091
0.055133924 0.10492721 0.52216333
0.064910829 0.10514466 0.52309984
0.07490769 0.10494104 0.5218243
0.084790632 0.10495345 0.52060705
0.094807714 0.10539496 0.52024955
0.10525639 0.10547855 0.52069831
0.11373043 0.10521642 0.52051413
0.12588689 0.10525145 0.52044779
0.13496736 0.1050021 0.52165681
0.14488421 0.10508385 0.52160376
0.15496619 0.10494389 0.5216592
0.16505007 0.10504866 0.52239937
0.17502005 0.10505241 0.5223
0.18500984 0.1050306 0.52321196
0.1950554 0.10499916 0.52331442
0.2050312 0.10484246 0.52279139
0.21497397 0.10512027 0.52300638
0.22499959 0.10506156 0.52339262
0.23490682 0.10499086 0.52456456
0.24499398 0.10499776 0.52456778
0.25500223 0.10504494 0.52416104
0.26499131 0.10495541 0.52383977
0.271258 0.10323646 0.5239011
-0.1027015 0.11531807 0.52040035
-0.095026106 0.11496661 0.52063608
-0.086558267 0.11658877 0.52036124
-0.074477233 0.11794326 0.52070498
-0.066267706 0.11842084 0.52070975
-0.052314878 0.118499 0.52020013
-0.04358799 0.11581352 0.52053636
-0.035707813 0.11626288 0.52061772
-0.028442129 0.11697959 0.52008355
-0.011480153 0.11450314 0.52017921
-0.0042060907 0.11465321 0.52052081
0.0049309866 0.11512201 0.52142644
0.014731556 0.11561993 0.52055281
0.025775684 0.11605942 0.52040011
0.034912147 0.11509701 0.52109641
0.044880722 0.1150709 0.52158028
0.054995295 0.11487047 0.52143031
0.064928181 0.11505894 0.52192342
0.074905977 0.11503585 0.52206707
0.08373712 0.11442368 0.52079111
0.094713792 0.11145341 0.52020144
0.10556801 0.11505341 0.52107477
0.11478738 0.1150367 0.52158022
0.12521285 0.11503199 0.52152926
0.13515285 0.11506412 0.52226949
0.14497547 0.11515862 0.52232808
0.15502405 0.11495681 0.52220958
0.16497245 0.11503029 0.52297992
0.17502634 0.11502108 0.52277744
0.18500389 0.11496022 0.52278203
0.19508806 0.11493594 0.52359182
0.20505661 0.11495165 0.52322197
0.2150169 0.1149848 0.52314973
0.22503392 0.114902 0.52377248
0.23510237 0.11502983 0.52410114
0.24503985 0.11489848 0.52409685
0.2550202 0.11508864 0.52509046
0.2640419 0.11458538 0.52463275
-0.24222235 0.12901144 0.52011234
-0.23666662 0.12902126 0.52007103
-0.14485052 0.12811889 0.5202924
-0.13469455 0.12742239 0.52057517
-0.12459711 0.12620865 0.52072549
-0.11544792 0.12676644 0.52068681
-0.10425152 0.12580989 0.52070832
-0.095036365 0.12509367 0.52112949
-0.084973298 0.12500232 0.5211767
-0.074907355 0.12493364 0.5215739
-0.064937033 0.12516408 0.52126753
-0.055177499 0.12522727 0.52053326
-0.044816162 0.12479305 0.52052748
-0.035268396 0.12492483 0.52077794
-0.027077768 0.12607543 0.52027208
-0.013384792 0.12524612 0.52006453
-0.0034394285 0.12295797 0.520329
0.0052046166 0.12497956 0.52106637
0.015016577 0.12517364 0.52139586
0.024979685 0.12486212 0.52104634
0.034865297 0.12498645 0.52132934
0.045127299 0.12505613 0.52171081
0.055027448 0.125057 0.52203047
0.064954698 0.12510101 0.52254212
0.074914701 0.12503023 0.52272582
0.084511064 0.12552048 0.52119452
0.095288105 0.1260449 0.52121818
0.10528616 0.12512457 0.5215112
0.11509053 0.12507707 0.52206701
0.12489731 0.12494001 0.52301538
0.1349958 0.1251335 0.52346021
0.14498383 0.12494498 0.52304137
0.15504044 0.12509499 0.52307165
0.16509506 0.124848 0.52311379
0.17501928 0.12511076 0.5235908
0.18509789 0.1250048 0.52323341
0.19500966 0.12504134 0.52332062
0.20501909 0.12493654 0.52321315
0.21500836 0.12493177 0.52350992
0.22504191 0.124979 0.5250926
0.23504826 0.1249253 0.52400446
0.24496217 0.12501734 0.52254504
0.25500196 0.12496109 0.52397424
0.26214921 0.12448423 0.52440572
-0.23832498 0.13167089 0.52013218
-0.19019382 0.1391679 0.52006996
-0.18202786 0.13909517 0.5203051
-0.17862748 0.13872166 0.52017927
-0.16192435 0.13995369 0.52001667
-0.15081076 0.13435106 0.5201782
-0.14495943 0.13501458 0.52053082
-0.13521318 0.13405058 0.52050489
-0.12451415 0.13305241 0.52072585
-0.11481903 0.13516724 0.52092928
-0.10495868 0.13516788 0.52113497
-0.095085755 0.13504967 0.5215674
-0.084986195 0.13503316 0.52215672
-0.07505694 0.13500452 0.52278095
-0.064963408 0.13499072 0.52211815
-0.054930873 0.13494399 0.52112114
-0.045162063 0.1353572 0.52046072
-0.035166439 0.13524389 0.52030605
-0.024959352 0.13526098 0.52034038
-0.015171962 0.13634819 0.52048022
-0.0047627245 0.13591819 0.52041918
0.0050310232 0.13500269 0.52156848
0.014864279 0.13500604 0.52270842
0.024969125 0.13498077 0.52236372
0.035000417 0.13506675 0.52178264
0.044967342 0.13516229 0.5217154
0.05503786 0.13494232 0.52181458
0.06514357 0.13489507 0.52235591
0.075093463 0.135102 0.52274966
0.085176177 0.13501114 0.5220542
0.094964162 0.13504633 0.52280712
0.105037 0.13494395 0.52280909
0.11487325 0.1351485 0.52306151
0.12507097 0.13490021 0.52373713
0.1349414 0.13511002 0.52428108
0.14502652 0.1348498 0.52397799
0.15510514 0.13505669 0.52354789
0.16503684 0.13502392 0.5241192
0.17509018 0.1349314 0.52352917
0.18489234 0.13500765 0.52331823
0.19489896 0.13496351 0.52335823
0.20491801 0.13496208 0.52466029
0.21500376 0.13498762 0.52479511
0.22495005 0.13499457 0.52521867
0.23494627 0.13486202 0.52485228
0.24501863 0.13499202 0.52333176
0.25495043 0.13485232 0.52439761
0.2610364 0.13221402 0.52500379
-0.24304523 0.14869568 0.52001929
-0.23517035 0.14843255 0.52033085
-0.19199972 0.14567199 0.52017617
-0.1847612 0.14519738 0.52059072
-0.17478998 0.14516802 0.52078158
-0.16525103 0.14561412 0.52077359
-0.15499334 0.14543533 0.52069271
-0.14504449 0.14475015 0.52077168
-0.13651562 0.14633246 0.52028108
-0.12783659 0.14817025 0.52005672
-0.1144379 0.14383075 0.52037293
-0.10437761 0.14377287 0.52039176
-0.094783522 0.1448029 0.52070838
-0.084982008 0.14483392 0.52168775
-0.075392425 0.14501031 0.52321869
-0.065044791 0.14517291 0.52223575
-0.054957274 0.14511263 0.52140039
-0.044917293 0.14518802 0.52132481
-0.034840547 0.14501746 0.52122772
-0.024776781 0.14494449 0.52100408
-0.014860311 0.14507233 0.52108037
-0.0050320947 0.14511679 0.52140617
0.0051335003 0.14491004 0.52251679
0.014834673 0.14487973 0.52383637
0.024951873 0.14513743 0.52287096
0.035293885 0.14506099 0.52193338
0.045208234 0.14508069 0.52258658
0.055069368 0.14519671 0.52313954
0.065073051 0.14509784 0.52287954
0.075016744 0.14500223 0.5228796
0.085045546 0.14500064 0.52305251
0.095055275 0.145018 0.52371955
0.10494908 0.14503703 0.52312225
0.11512237 0.14503223 0.52296031
0.12494519 0.14498474 0.52400577
0.13503881 0.1449268 0.52372533
0.14501858 0.14496061 0.52333212
0.15495361 0.1449858 0.52352625
0.1650113 0.14491165 0.52425772
0.17492069 0.14500061 0.5245409
0.18518573 0.14493802 0.52411884
0.19511861 0.14504249 0.52490389
0.20504586 0.14493659 0.52537513
0.21501055 0.14501743 0.52564555
0.224998 0.14493874 0.52580208
0.23506308 0.14507721 0.52637583
0.24501216 0.14495735 0.52529651
0.2537061 0.14458327 0.52610761
-0.25308245 0.1566221 0.52029753
-0.24502112 0.1556183 0.52107722
-0.23486747 0.1549575 0.52110922
-0.22698645 0.15600054 0.52042025
-0.18470667 0.15078761 0.52030253
-0.17468505 0.15380602 0.5208627
-0.1649617 0.15512322 0.52108598
-0.15522785 0.15515 0.52098083
-0.14507191 0.15511575 0.52094042
-0.13461915 0.15499954 0.52083838
-0.12515868 0.15535758 0.52100676
-0.11488242 0.15607283 0.52054828
-0.10386204 0.1574782 0.52033001
-0.094531231 0.15535878 0.52055877
-0.085017055 0.15487635 0.52104062
-0.075061657 0.15474071 0.52199978
-0.064948231 0.15516692 0.52146816
-0.054918069 0.15479033 0.52086568
-0.045015693 0.15508722 0.52138817
-0.035043232 0.15498291 0.52144682
-0.024927251 0.15504144 0.52137983
-0.014782208 0.15496358 0.52116799
-0.0047991993 0.15499571 0.52110958
0.0049858927 0.15501639 0.52222794
0.014944551 0.1549302 0.52346891
0.024927536 0.15489753 0.52295977
0.035039332 0.1551557 0.52193201
0.044957772 0.15488666 0.5225516
0.054834917 0.15505199 0.52342659
0.064959861 0.15517908 0.52365732
0.075049698 0.1550263 0.52371317
0.084929079 0.15504341 0.52400047
0.094851851 0.15494306 0.5242666
0.10500489 0.1551142 0.52401364
0.11501276 0.15485458 0.5231176
0.12497302 0.15491928 0.52428925
0.13511069 0.15501307 0.52399743
0.14502642 0.15493679 0.52360332
0.1550238 0.15504012 0.52386969
0.16508222 0.1549259 0.52421421
0.17505367 0.15483029 0.52442122
0.18491477 0.15497395 0.52394068
0.19495811 0.15497066 0.52474773
0.2049894 0.15498964 0.52553487
0.21504509 0.15506624 0.52501851
0.22502813 0.15497601 0.52595061
0.23496716 0.15504654 0.52702034
0.24501401 0.15485843 0.52544546
0.251724 0.15405582 0.52531004
-0.25183287 0.16076662 0.52045637
-0.24487184 0.16320294 0.52079451
-0.23508225 0.16413076 0.52106649
-0.22544904 0.16532068 0.52033007
-0.21428956 0.16632645 0.52013361
-0.20465113 0.16822957 0.52022809
-0.19555907 0.16846545 0.52045989
-0.1881994 0.16873126 0.52025694
-0.17144771 0.16232519 0.52008671
-0.16685297 0.16167824 0.52020997
-0.15432654 0.1650445 0.52013659
-0.14415196 0.16495806 0.52076256
-0.13511491 0.16492161 0.5217436
-0.12507994 0.16507596 0.52226818
-0.11493481 0.16502421 0.52188808
-0.10483842 0.16483073 0.52143097
-0.094884336 0.16513364 0.52153188
-0.084939741 0.16488293 0.52172393
-0.075147733 0.16501629 0.52226669
-0.065113679 0.1650269 0.52247494
-0.054880921 0.16507296 0.52231336
-0.044898156 0.16490448 0.52215302
-0.034738425 0.16494082 0.52097809
-0.024844073 0.16479959 0.52071613
-0.015155231 0.16490223 0.52057546
-0.0045016292 0.16402061 0.52047133
0.0051963762 0.16475706 0.52149266
0.014818395 0.16523805 0.52363825
0.024940507 0.16499059 0.52340728
0.034924962 0.16509217 0.52245849
0.044835269 0.16496368 0.52267575
0.05490705 0.16487974 0.52300781
0.064821795 0.16512011 0.52335799
0.075022675 0.16514029 0.52330756
0.08495339 0.16512205 0.5245381
0.094922639 0.1651088 0.52544653
0.10486224 0.16509391 0.52525336
0.11505263 0.16490695 0.52414554
0.12491086 0.16518089 0.52568179
0.13485584 0.16500099 0.52599043
0.14501421 0.16512419 0.52511877
0.15514304 0.16487275 0.52438384
0.16503341 0.16499574 0.52514714
0.1752087 0.16497669 0.52451199
0.18515411 0.16491202 0.52382433
0.19506729 0.16501139 0.52484202
0.20504074 0.16503575 0.52523768
0.2149393 0.16483061 0.52504194
0.22498547 0.16496731 0.52623457
0.23493277 0.16501975 0.52714556
0.24481899 0.16499275 0.52727747
0.25056404 0.16228104 0.52616519
-0.35385227 0.17775199 0.52046043
-0.34631726 0.17839991 0.52055329
-0.31216913 0.17623992 0.52022463
-0.30500695 0.17647938 0.52037263
-0.29610327 0.17779773 0.52011287
-0.22108583 0.1749482 0.520046
-0.21372002 0.17450315 0.52035147
-0.20507975 0.17559263 0.52087647
-0.19530407 0.17503551 0.52132982
-0.18559034 0.17553054 0.52107555
-0.17497452 0.17691578 0.52047223
-0.16489545 0.17684714 0.52078593
-0.15474752 0.17575063 0.52089012
-0.1448752 0.1748939 0.52128947
-0.13490967 0.17481272 0.52186012
-0.12476572 0.17492053 0.52215159
-0.11502669 0.17505725 0.52267212
-0.10501532 0.17510509 0.52276599
-0.094785012 0.17519851 0.52213001
-0.084842101 0.17487425 0.52168024
-0.074850924 0.17499439 0.52198547
-0.065242574 0.17447625 0.52334398
-0.054936145 0.17406592 0.52354449
-0.045091361 0.17314914 0.52273452
-0.036117874 0.1723381 0.52092129
-0.021272933 0.17174865 0.52042091
-0.016656548 0.17119215 0.52076244
0.0070079714 0.17047401 0.52153099
0.016014507 0.17185111 0.52449167
0.024918254 0.17161576 0.52366239
0.035019271 0.17145272 0.52236527
0.045100816 0.17191215 0.52217609
0.055082005 0.17234714 0.52245188
0.06496989 0.17247091 0.52293116
0.07524962 0.17327827 0.52227676
0.085500911 0.17410538 0.52303499
0.095059164 0.17495628 0.52397978
0.10502222 0.1750028 0.52398109
0.11511197 0.17492944 0.52437484
0.12502514 0.17498337 0.52559757
0.13497603 0.17513311 0.52614707
0.14485653 0.1751847 0.52591801
0.15484674 0.17501384 0.52576119
0.16496257 0.17499325 0.52640897
0.17488416 0.17511229 0.52537149
0.18487124 0.17500062 0.52433473
0.1949476 0.1749374 0.52545363
0.20494044 0.17497028 0.52623785
0.21496475 0.17500624 0.52709675
0.22505619 0.17502014 0.52667624
0.23508863 0.17507717 0.52667695
0.24343777 0.17444864 0.52733499
-0.35097617 0.18037188 0.52066934
-0.34259024 0.18079644 0.52060932
-0.33492413 0.18275148 0.52021116
-0.32397616 0.18542084 0.52021945
-0.31410062 0.18514222 0.52043647
-0.3050513 0.184909 0.52070415
-0.29633749 0.18593369 0.5205816
-0.28534064 0.18728726 0.52046919
-0.27569237 0.18877023 0.52057272
-0.26570177 0.1886684 0.52016103
-0.25546435 0.18963395 0.5203312
-0.24561173 0.1893795 0.52014142
-0.23414956 0.18829186 0.52023917
-0.22401437 0.18716788 0.52038831
-0.21470019 0.18484455 0.52039754
-0.20520879 0.18509442 0.52090555
-0.19482669 0.18501544 0.52119529
-0.18470226 0.18540373 0.52121282
-0.17502832 0.18520713 0.52130973
-0.16512352 0.18501262 0.52188003
-0.15493777 0.18497579 0.52234322
-0.14503108 0.1848613 0.52224791
-0.13534309 0.18507199 0.52200067
-0.12500495 0.18425985 0.52180105
-0.11551236 0.18348531 0.52275056
-0.1058327 0.18322423 0.52297968
-0.095971949 0.18194033 0.5221625
-0.087806918 0.18089108 0.52163708
-0.07729125 0.18010506 0.52136421
0.099192791 0.18033715 0.5238328
0.10577767 0.18182372 0.52399045
0.11443067 0.18222836 0.52444607
0.12543149 0.18316466 0.5241009
0.13521978 0.18453282 0.52370328
0.14494962 0.18496446 0.52444214
0.15491204 0.18516164 0.52560723
0.16509357 0.1849041 0.52631801
0.17506151 0.18501623 0.52521545
0.18501991 0.18499507 0.52591413
0.19511487 0.1851144 0.52681023
0.205099 0.18498811 0.52710474
0.21498998 0.1848473 0.52729225
0.22502182 0.18499418 0.52595669
0.23495634 0.18497401 0.52584857
0.24141236 0.18354757 0.5270803
-0.3101576 0.19015451 0.52068782
-0.30437389 0.1912899 0.52086216
-0.29409263 0.19232179 0.52049059
-0.28451535 0.19472799 0.52150315
-0.27493465 0.19504777 0.52238405
-0.26454902 0.19492829 0.52191961
-0.25443697 0.1949839 0.52115828
-0.2450376 0.19545589 0.52107602
-0.23512828 0.19488238 0.5211634
-0.22497681 0.19493897 0.52097517
-0.21608429 0.19447717 0.52045435
-0.20459133 0.19434604 0.52033609
-0.19593053 0.1931069 0.520293
-0.18285687 0.19158138 0.52021605
-0.17432795 0.19299273 0.52058697
-0.16536422 0.19304155 0.52148926
-0.15535097 0.19205365 0.52238429
-0.14613387 0.19113104 0.52251828
-0.13786216 0.19006978 0.52158785
-0.081704244 0.19974564 0.52205646
-0.074574336 0.19934794 0.52262747
-0.064845279 0.19857061 0.52366173
-0.054174088 0.19818735 0.52445132
-0.048631996 0.19929603 0.52601063
0.064118616 0.19961001 0.5254398
0.074377172 0.1990969 0.52570629
0.083575964 0.19906074 0.5263235
0.14623049 0.19070838 0.52317965
0.15551661 0.19255288 0.52496737
0.16525587 0.19401722 0.52643669
0.17513473 0.19508925 0.52567971
0.18519378 0.19501983 0.52641195
0.19508207 0.19512025 0.52680945
0.20495123 0.19496542 0.52683693
0.21507509 0.19488469 0.52648652
0.22491549 0.19483635 0.52613735
0.23454793 0.19483563 0.5266431
-0.27442127 0.20062009 0.52330375
-0.26522544 0.20167264 0.52298754
-0.25470066 0.2027656 0.52170062
-0.24460624 0.2044884 0.52205789
-0.23496796 0.20520756 0.52239496
-0.22519125 0.20479955 0.52145475
-0.2163801 0.20374003 0.52036327
-0.20576765 0.20176741 0.52003568
-0.12033425 0.20930573 0.52630681
-0.11437039 0.20741089 0.5269835
-0.10522693 0.20689754 0.52793169
-0.094521619 0.20601155 0.52493888
-0.084971339 0.2054462 0.52200192
-0.074962541 0.20472561 0.52217501
-0.065195851 0.2051121 0.5232895
-0.055056278 0.20399395 0.52448845
-0.048645642 0.20219493 0.52572715
-0.0028200746 0.2099831 0.52680647
0.0056627728 0.20952035 0.52494925
0.015148717 0.20771679 0.52310103
0.025198551 0.20655745 0.52382016
0.034848765 0.20689332 0.52518737
0.045097131 0.20663081 0.52579576
0.055374265 0.20540251 0.52578306
0.065073729 0.20490189 0.52561349
0.074944906 0.20487377 0.5259034
0.084914431 0.20483172 0.52599674
0.094951458 0.205145 0.52582335
0.10481986 0.20523681 0.52655888
0.11477288 0.20684314 0.5265801
0.12454416 0.20791748 0.52674305
0.13402823 0.20805402 0.52562904
0.14466454 0.20896225 0.5257296
0.15567131 0.20795725 0.52587843
0.16420428 0.20881687 0.52716118
0.17624383 0.20217183 0.52578354
0.18526436 0.20276746 0.52507335
0.19526082 0.20452274 0.52608705
0.20508559 0.20522785 0.52729577
0.21497554 0.20509122 0.52766132
0.22504699 0.20508458 0.52785754
0.23302147 0.20443921 0.5283314
-0.23458599 0.21074229 0.5218662
-0.22780548 0.21064143 0.52148992
-0.18248431 0.21908219 0.52112776
-0.17468661 0.21744376 0.52230185
-0.16533051 0.2172942 0.52301693
-0.1550968 0.21684153 0.52319026
-0.14477065 0.21668506 0.5227862
-0.13465409 0.21597643 0.52286273
-0.1247556 0.21591096 0.52450347
-0.11508217 0.2148944 0.52643043
-0.10552722 0.21505412 0.5272193
-0.095734596 0.21477075 0.52499664
-0.08553832 0.21322203 0.52187252
-0.076186813 0.21169801 0.52201855
-0.069863901 0.21058516 0.52285051
-0.030062154 0.21931176 0.52467036
-0.024094021 0.21763667 0.52491111
-0.014622474 0.21597141 0.52553236
-0.0051074587 0.21519689 0.52569342
0.0049755578 0.21529479 0.52544111
0.015168387 0.21489157 0.52454358
0.025074709 0.21503229 0.52463621
0.035210256 0.21489283 0.52467263
0.0450253 0.21504013 0.52514786
0.055077087 0.21509498 0.52593154
0.065196075 0.21498245 0.5266934
0.075165212 0.21510679 0.52735144
0.085202269 0.21489313 0.52652115
0.095107503 0.21508518 0.52599323
0.10494453 0.21490194 0.52723259
0.11497456 0.2149372 0.52764171
0.12491836 0.21501429 0.52713656
0.13504577 0.21478754 0.52606922
0.14503759 0.21482407 0.52629441
0.15503751 0.21496533 0.52768791
0.16513482 0.21495908 0.5279519
0.17457062 0.21577714 0.52881271
0.18399957 0.21747276 0.52896559
0.19442745 0.21580157 0.52789021
0.20584095 0.21262379 0.52622604
0.21546815 0.21434283 0.52625781
0.2249423 0.21513954 0.52818131
0.2312388 0.2131736 0.52873564
-0.18348089 0.22206107 0.52105999
-0.17464785 0.22354004 0.52173215
-0.16514507 0.2247986 0.52261615
-0.1549947 0.22513583 0.52352363
-0.14485134 0.22462155 0.52347863
-0.13508952 0.22493616 0.52354884
-0.12492047 0.22487172 0.52478302
-0.11508771 0.22373226 0.52628863
-0.10604458 0.2220134 0.52672261
-0.095491871 0.2202356 0.5245198
-0.063372716 0.22914644 0.52578294
-0.053407159 0.22770827 0.52572787
-0.044646088 0.22587667 0.52516627
-0.034779318 0.22515795 0.52514023
-0.024869904 0.2250891 0.52587354
-0.015146107 0.22479874 0.52602309
-0.0048437659 0.22513784 0.52543455
0.0049590748 0.22499996 0.52583688
0.01498781 0.22508687 0.52598262
0.02491755 0.22519161 0.52583277
0.034972128 0.22486906 0.5254364
0.045023166 0.22488175 0.52504599
0.05505684 0.22493674 0.52529377
0.064999871 0.22490512 0.52650791
0.0748569 0.22512639 0.52767855
0.084886387 0.22507237 0.52729118
0.095062256 0.22499341 0.5269962
0.105142 0.22504675 0.52811068
0.11516637 0.22488976 0.52933574
0.12497965 0.22496137 0.52780247
0.13494816 0.22499081 0.52720463
0.14515656 0.22513527 0.52806753
0.15456353 0.22506887 0.52946478
0.16540396 0.22514921 0.52879709
0.17502105 0.22478573 0.52822095
0.18492712 0.22501996 0.52849442
0.19437292 0.22534631 0.52915245
0.20344661 0.22816016 0.52848762
0.21918045 0.22057116 0.5235545
0.22467591 0.22297201 0.52634764
-0.16254482 0.23079854 0.52360618
-0.15470296 0.23250325 0.52502376
-0.14453393 0.23313725 0.52508622
-0.1353685 0.23245111 0.52465999
-0.12757836 0.23087604 0.52513272
-0.092343912 0.23947346 0.52541107
-0.085149974 0.23881374 0.52560145
-0.073403947 0.23624536 0.52534407
-0.064946413 0.23503052 0.52596796
-0.055249516 0.23517965 0.52704638
-0.045088794 0.23524904 0.52653575
-0.034879021 0.23469585 0.5259161
-0.024981104 0.23501556 0.5262903
-0.014975081 0.23517057 0.52630717
-0.0051078089 0.23522554 0.52632684
0.0049045193 0.23486385 0.52628881
0.01510779 0.23492675 0.52590996
0.025212934 0.23493373 0.52625507
