# .PCD v0.7 - Point Cloud Data file format
VERSION 0.7
FIELDS x y z
SIZE 4 4 4
TYPE F F F
COUNT 1 1 1
WIDTH 1382
HEIGHT 1
VIEWPOINT 0 0 0 1 0 0 0
POINTS 1382
DATA ascii
-0.0039627096 0.15546368 0.39850888
0.0049796589 0.15512866 0.39526197
0.015109267 0.15485488 0.39207247
0.021752944 0.15547121 0.39064768
-0.010093573 0.16905718 0.39952445
-0.0048382417 0.16508622 0.39748088
0.0050380495 0.16503826 0.39333194
0.015070662 0.16505398 0.3918941
0.021235524 0.1643938 0.39081743
-0.01116397 0.17459904 0.39987716
-0.0049258964 0.17519902 0.39687309
0.0051274225 0.17504436 0.392259
0.014243014 0.1744372 0.39119741
0.020397909 0.17119145 0.39009675
-0.013765775 0.18632051 0.39906085
-0.0050402 0.18497501 0.39567456
0.0048204041 0.18487723 0.39196742
0.011982139 0.18189158 0.39043361
-0.03100235 0.19960755 0.39994758
-0.023971744 0.19611275 0.39914626
-0.014866795 0.19510201 0.3969
-0.0048959302 0.19513884 0.39254138
0.0034460106 0.19320089 0.39088821
-0.032702174 0.20636237 0.39898425
-0.024819968 0.20514907 0.39815071
-0.014977051 0.2048731 0.39493912
-0.007305562 0.20450017 0.39082479
-0.040898312 0.21912272 0.39941874
-0.034678288 0.21516308 0.39797625
-0.025076168 0.21522942 0.39612669
-0.015027571 0.21483721 0.39337644
-0.009397164 0.21406412 0.39058918
-0.041848429 0.22596601 0.39932245
-0.035090394 0.22509125 0.39708427
-0.025017275 0.22498213 0.39406386
-0.016263289 0.22436628 0.39164352
-0.042659264 0.23572205 0.39856273
-0.035137992 0.23516357 0.39544207
-0.0250617 0.23493949 0.392414
-0.018677564 0.23350619 0.39064685
-0.044281758 0.24521263 0.39814883
-0.035061944 0.24514215 0.39449644
-0.026113665 0.24457315 0.39149702
-0.050924808 0.25748497 0.39929655
-0.044904381 0.25482136 0.39665446
-0.034804814 0.25509027 0.39354697
-0.027199497 0.25420153 0.39106536
-0.052816741 0.26598522 0.39814526
-0.045070801 0.26495251 0.39442113
-0.035189517 0.26484093 0.3917484
-0.028043201 0.26261944 0.39055654
-0.062225375 0.27723053 0.39911634
-0.054789923 0.27517056 0.39671758
-0.046136752 0.2742745 0.39206558
-0.038615294 0.27089065 0.39065015
-0.064066254 0.28537965 0.3980476
-0.055058368 0.28498816 0.39441407
-0.048661109 0.28458458 0.39107043
-0.073082961 0.29699087 0.39934286
-0.064995736 0.2949172 0.39632708
-0.055310205 0.29482311 0.39208144
-0.049325764 0.29142606 0.39010584
-0.081845276 0.30587259 0.39909729
-0.074977025 0.30505234 0.39755088
-0.065099657 0.3050279 0.39380911
-0.057900131 0.30307522 0.39094228
-0.084032111 0.31534064 0.39810947
-0.075018987 0.31494024 0.3947311
-0.066243283 0.31433767 0.39158738
-0.091856524 0.32740906 0.39946347
-0.084880531 0.32525155 0.39690366
-0.075040005 0.32475749 0.3926914
-0.068778932 0.32199836 0.39052165
-0.10112068 0.33928162 0.3997359
-0.093870401 0.33560207 0.39799091
-0.084810942 0.33511844 0.39557126
-0.076874256 0.33453199 0.39225188
-0.10234661 0.34651142 0.39851946
-0.095080234 0.34496787 0.39569953
-0.085392073 0.34477326 0.39296421
-0.077885807 0.34309891 0.39087725
-0.11183716 0.35705093 0.39926708
-0.10500728 0.3549732 0.39677024
-0.095133513 0.35510942 0.392643
-0.086747773 0.35335806 0.39075753
-0.12154137 0.3675448 0.39948201
-0.11456885 0.36546162 0.39785996
-0.10477481 0.36493152 0.39389259
-0.095265128 0.36444512 0.39104238
-0.08897052 0.36161736 0.39035454
-0.12192766 0.3750596 0.39912263
-0.11497067 0.37475413 0.39688924
-0.10517322 0.37521318 0.39279616
-0.097989477 0.37175679 0.39052376
-0.12362942 0.3857196 0.39870393
-0.11491302 0.38496614 0.39529032
-0.10534205 0.38463858 0.39189109
-0.099656366 0.38263816 0.39010456
-0.13184403 0.39738789 0.39944559
-0.12484001 0.39485431 0.39696163
-0.11525063 0.39507461 0.39234272
-0.10788117 0.39179975 0.39108804
-0.13351789 0.40620938 0.39895296
-0.12505819 0.40496781 0.39437971
-0.11802936 0.40259501 0.39078408
-0.15123649 0.41957349 0.39973384
-0.14407432 0.41725114 0.39894214
-0.1349901 0.41496435 0.39678955
-0.12595588 0.41440907 0.39247453
-0.15196308 0.42607203 0.39916143
-0.14497325 0.42483258 0.39719307
-0.13490392 0.42521435 0.39327681
-0.12785381 0.42363837 0.39110547
-0.15349305 0.43554038 0.39862055
-0.1448894 0.43502221 0.39552093
-0.13567027 0.43459782 0.39193144
-0.16093469 0.44817334 0.39998597
-0.15464407 0.44561324 0.39746985
-0.1451133 0.44481719 0.39400041
-0.13730511 0.44413805 0.391828
-0.16220121 0.45590615 0.39878911
-0.15506384 0.45499787 0.394916
-0.1465863 0.45310426 0.39131108
-0.13886634 0.45091242 0.39010191
-0.16234222 0.46421987 0.39599997
-0.15688066 0.46372473 0.39245629
-0.16210999 0.47189289 0.39090481
-0.15971592 0.47067866 0.3905648
0.059521675 -0.00085356832 0.40935242
0.064879678 -0.0047815726 0.4081232
0.071161136 -0.0078782439 0.40762693
0.057570368 0.0064086057 0.40765908
0.062663868 0.004532076 0.4045845
0.056016561 0.015188677 0.40706897
0.061153397 0.011023387 0.40247163
0.054609198 0.021509936 0.4091948
0.045901477 0.047299769 0.40917137
0.036571857 0.056057487 0.40894568
0.043903701 0.05470014 0.40690616
0.028915038 0.066266887 0.40943259
0.035051592 0.065059073 0.4069573
0.04348084 0.064996846 0.40314737
0.027645867 0.075676382 0.40892124
0.035237428 0.074909255 0.4055104
0.042233534 0.075112559 0.4017233
0.016984627 0.086457275 0.40924281
0.025121851 0.085016049 0.40796265
0.03515425 0.085005283 0.40508154
0.041221112 0.084901638 0.40117204
0.0090952441 0.098210037 0.40905428
0.015278819 0.095429644 0.40736717
0.025093194 0.095106848 0.40484911
0.035109654 0.095105566 0.40353981
0.040794503 0.093621813 0.40084335
0.0068420321 0.10553747 0.40881658
0.014788795 0.10518573 0.4059661
0.024847938 0.10521898 0.40293187
0.034231201 0.10452043 0.40155309
0.0062896693 0.11524414 0.40828985
0.014933968 0.1150799 0.40498897
0.023616003 0.11425854 0.40136012
0.031382486 0.11111169 0.40055454
-0.0015178877 0.1264454 0.40955323
0.0052477401 0.12494309 0.4074589
0.014398891 0.12459793 0.40314671
-0.012257356 0.13717046 0.40901574
-0.0048418692 0.13517876 0.40805945
0.0047973776 0.13472517 0.40498087
0.011864681 0.13323516 0.40115759
-0.021179482 0.14864095 0.40990537
-0.014860205 0.14531127 0.40686232
-0.0052623651 0.14503941 0.40290055
0.0029516839 0.14285542 0.40154865
-0.023168502 0.15633303 0.40860724
-0.014929497 0.15523945 0.40421936
-0.0084424159 0.15386292 0.40073365
-0.032834813 0.1664312 0.40880403
-0.024765652 0.1652675 0.40732995
-0.015001376 0.16477913 0.40349147
-0.009628389 0.16584529 0.40017149
-0.040672839 0.17789488 0.40995485
-0.034829784 0.17527859 0.40752193
-0.025103496 0.17514838 0.40501347
-0.015161616 0.17463282 0.40243056
-0.041251607 0.18643403 0.40899134
-0.035078164 0.1851472 0.40537041
-0.024949813 0.18499266 0.40202343
-0.016788103 0.18303363 0.4009203
-0.050800357 0.1993141 0.40963921
-0.043708321 0.19578853 0.40775579
-0.035076741 0.19491647 0.40312722
-0.027524615 0.19268498 0.40073407
-0.052058209 0.20630869 0.40889332
-0.045277171 0.20502004 0.40574804
-0.03669475 0.20385151 0.40162772
-0.054173395 0.21539257 0.40800887
-0.045279741 0.2149353 0.40285558
-0.03896803 0.21119033 0.40039539
-0.06211935 0.22621351 0.40943268
-0.054956492 0.22481555 0.40744293
-0.046439979 0.22480831 0.40240705
-0.063527718 0.23577209 0.40808725
-0.054837774 0.2350093 0.40550494
-0.047309916 0.23432545 0.40139773
-0.071573466 0.2474259 0.40923619
-0.065080591 0.24518768 0.40671951
-0.054977514 0.24501836 0.40344766
-0.048791945 0.24300721 0.40070462
-0.074052453 0.2555711 0.40820828
-0.065107375 0.25510898 0.40515718
-0.055619147 0.25464246 0.40264317
-0.081659235 0.26694313 0.40933716
-0.074713014 0.26497585 0.40685222
-0.064873226 0.26499817 0.40305769
-0.057264324 0.26433644 0.40147808
-0.091412231 0.278696 0.40925759
-0.084899239 0.27513087 0.40817884
-0.074865259 0.2749595 0.40534472
-0.066028461 0.27401552 0.40144643
-0.058797501 0.27135342 0.40022445
-0.093226254 0.28540275 0.40876177
-0.085214794 0.28511888 0.40541044
-0.07511273 0.28512642 0.40276599
-0.068679385 0.28327838 0.40088108
-0.10150049 0.29829362 0.40955329
-0.094546914 0.29528481 0.40743715
-0.084953047 0.29487738 0.40320945
-0.076287694 0.29409519 0.40098253
-0.11116426 0.30625999 0.40981424
-0.10476805 0.3056016 0.40863863
-0.095027119 0.30505097 0.40571493
-0.086276703 0.30435109 0.40180609
-0.11171843 0.3155629 0.40899426
-0.10480889 0.31504276 0.40760529
-0.094960168 0.31504667 0.40385455
-0.088766329 0.31369531 0.40066367
-0.11373097 0.32555607 0.4081223
-0.10494243 0.32513934 0.40600628
-0.095445469 0.32438424 0.40277755
-0.089125358 0.3219198 0.4000771
-0.12221427 0.33626482 0.40909573
-0.11487675 0.33502761 0.40627331
-0.10521159 0.33508858 0.40296277
-0.098049 0.33239797 0.4012275
-0.13301285 0.34738424 0.40865812
-0.12485694 0.34534419 0.40688816
-0.11480008 0.34482571 0.40385076
-0.10655358 0.3442409 0.40123245
-0.14072733 0.35859904 0.4096874
-0.13452674 0.35505036 0.40742186
-0.12505645 0.35487121 0.40460235
-0.11638043 0.35447311 0.40190592
-0.10974566 0.35129604 0.40034223
-0.14181341 0.36538488 0.40941077
-0.13524058 0.36512083 0.40669858
-0.1255435 0.36446014 0.40229362
-0.11802457 0.3617568 0.40054202
-0.1437052 0.375471 0.40863475
-0.13478784 0.37504169 0.40509889
-0.12706964 0.37526503 0.40146738
-0.15232334 0.38669467 0.40870839
-0.14495543 0.38507032 0.4066211
-0.13511705 0.38503858 0.40281293
-0.12794994 0.38381743 0.40085953
-0.16122012 0.39874583 0.40987757
-0.15474507 0.39573807 0.40711913
-0.14507739 0.39485168 0.40405312
-0.13596065 0.39436239 0.40141124
-0.12958977 0.39074591 0.40035194
-0.16290905 0.40582526 0.40818512
-0.15472311 0.40492156 0.40457472
-0.14504272 0.40512493 0.40244567
-0.13710451 0.40353295 0.40082616
-0.17079188 0.41873625 0.40933254
-0.1649875 0.41532946 0.40697077
-0.1550421 0.41481516 0.40280309
-0.14575522 0.41289496 0.40080369
-0.1710183 0.42572904 0.40939027
-0.16480334 0.42476019 0.40547985
-0.15654567 0.42457151 0.40148774
-0.17315987 0.43640822 0.40849489
-0.16511428 0.43480706 0.40395311
-0.15828399 0.43424511 0.40092432
-0.17430709 0.44452444 0.40696529
-0.16494919 0.4446733 0.40269172
-0.15890975 0.44332764 0.40020272
-0.17042693 0.45008487 0.40392268
-0.16597797 0.45322776 0.4015784
0.055315282 -0.012327059 0.41771829
0.061882675 -0.011008638 0.4127039
0.046415012 -0.0045057051 0.41903287
0.054882947 -0.0049602897 0.41522276
0.061481107 -0.0075231432 0.41145784
0.03632151 0.0071394183 0.4189668
0.045156132 0.0048771556 0.41712525
0.052846789 0.005032721 0.41281021
0.026395584 0.015983284 0.41892415
0.034879297 0.015299893 0.41712326
0.044871718 0.014666473 0.41475955
0.051602684 0.015872419 0.41154674
0.024817545 0.024901152 0.41802436
0.034927662 0.025095308 0.41489267
0.045073297 0.024719911 0.41315669
0.05253214 0.025139809 0.41180614
0.019293282 0.034770787 0.41960791
0.024922494 0.034931965 0.4166103
0.035093285 0.035112418 0.41289157
0.044870134 0.035299376 0.41164994
0.050822444 0.035180755 0.41152015
0.017800972 0.045540288 0.41872174
0.025167253 0.044981163 0.41496104
0.034760874 0.045094419 0.41188678
0.043959782 0.04316419 0.41074431
0.0069558867 0.058124065 0.41910237
0.015345837 0.055146873 0.41750911
0.025034286 0.054961473 0.41323197
0.032666411 0.05373339 0.41070452
-0.0020322565 0.068146743 0.4192555
0.0049456796 0.065126933 0.41782984
0.014937417 0.065011226 0.41470084
0.024276465 0.065002881 0.41179398
0.030072853 0.061377734 0.41009444
-0.010377165 0.076663867 0.41983655
-0.0046421522 0.075090237 0.41856593
0.0050610011 0.074923933 0.41648167
0.015093622 0.074944995 0.41285798
0.02304017 0.074263416 0.41123202
-0.011119587 0.085479759 0.41933578
-0.0050445003 0.084845677 0.41710395
0.0050000623 0.084804632 0.41500995
0.01311522 0.084166735 0.41118699
0.021668121 0.080152929 0.41024846
-0.012039386 0.095619075 0.41848201
-0.0050807828 0.094805554 0.41558295
0.0048063323 0.094745755 0.41229501
0.011057537 0.091718689 0.41015485
-0.013360132 0.10538074 0.41778621
-0.005066711 0.10484868 0.41431066
0.0021989506 0.10466225 0.41139734
-0.021774484 0.1192758 0.41961679
-0.014718154 0.11511824 0.41714492
-0.0049386788 0.11508727 0.41295105
0.001529865 0.11403259 0.41049096
-0.03141012 0.12812734 0.41889781
-0.024580004 0.12553763 0.41826618
-0.014887378 0.12519024 0.41428065
-0.0059191016 0.12458071 0.411347
0.00022217631 0.12003052 0.41058761
-0.033645235 0.13509861 0.41816452
-0.025102979 0.13499904 0.41551331
-0.016002839 0.13411361 0.41184562
-0.0087107457 0.13145062 0.4101761
-0.041495509 0.14789674 0.41965064
-0.034964707 0.14499888 0.41711387
-0.025106933 0.14500239 0.41296387
-0.019162675 0.14180258 0.41096482
-0.044109039 0.15600902 0.41814572
-0.034998555 0.15495314 0.41450113
-0.026595885 0.15363434 0.41123086
-0.052940201 0.16589651 0.41815767
-0.044905726 0.16507545 0.41474906
-0.036608007 0.16379863 0.41163102
-0.029828027 0.16017027 0.41047245
-0.054545414 0.17539404 0.41695315
-0.045136999 0.17482279 0.4127962
-0.039411556 0.17125237 0.41048884
-0.062462211 0.18819959 0.41892061
-0.055079781 0.18513565 0.41579586
-0.045903429 0.18439047 0.41219762
-0.072144918 0.19706367 0.41872942
-0.064912386 0.19510071 0.41708222
-0.055448957 0.19501917 0.41325793
-0.048103336 0.19311117 0.41071069
-0.073081464 0.20497335 0.41767195
-0.065064266 0.20502375 0.41431841
-0.056492127 0.20455959 0.4116056
-0.080793016 0.21869917 0.41989124
-0.074264243 0.21514139 0.41751438
-0.064951256 0.21501687 0.41251448
-0.058322579 0.2128408 0.41047284
-0.083404198 0.22595611 0.41880155
-0.075032674 0.22496384 0.41654265
-0.066627219 0.2243201 0.41186625
-0.093020044 0.23999318 0.41994572
-0.085036159 0.23506427 0.4177973
-0.075032145 0.23513435 0.41448304
-0.06830506 0.23380627 0.41113773
-0.10223603 0.2483319 0.41956359
-0.094448775 0.24569935 0.41892585
-0.084981769 0.24501757 0.41613704
-0.075789683 0.24472915 0.41224769
-0.11048403 0.25839454 0.41967091
-0.10409583 0.25588107 0.41845462
-0.094958723 0.25497732 0.41632184
-0.084859513 0.25502264 0.4134326
-0.078132786 0.25334188 0.41083595
-0.11171286 0.26554155 0.41943803
-0.10514943 0.26513654 0.41708016
-0.09502954 0.26498273 0.41373625
-0.086038157 0.2644164 0.41124964
-0.079677425 0.26058644 0.41019112
-0.11270836 0.27541229 0.41881895
-0.10496604 0.2750774 0.41557741
-0.095416553 0.27457893 0.41187334
-0.12246098 0.28670749 0.41949493
-0.1147463 0.28512311 0.41807982
-0.10489092 0.28488809 0.41405839
-0.09773729 0.28404009 0.4110159
-0.12325887 0.29559192 0.41842079
-0.11529759 0.29511893 0.41522703
-0.10566653 0.29470333 0.41197112
-0.099104449 0.29151696 0.41037932
-0.13094871 0.30688789 0.4195863
-0.12466609 0.30505061 0.41665575
-0.11520302 0.30496448 0.41215456
-0.10789116 0.30172145 0.41044411
-0.14228901 0.31883156 0.41965914
-0.13429908 0.31555909 0.41859382
-0.12514068 0.31518391 0.4148232
-0.11657079 0.31461427 0.41140175
-0.14304006 0.3257454 0.41911557
-0.13483053 0.32506144 0.41713008
-0.12505773 0.32510939 0.41346151
-0.11843344 0.32413355 0.41097337
-0.15108338 0.33650842 0.41978517
-0.14513834 0.33517048 0.41823179
-0.13498671 0.33502793 0.41553465
-0.12622234 0.3341707 0.41172001
-0.15270196 0.34582067 0.41812018
-0.14472313 0.34500548 0.41484338
-0.13593569 0.34394339 0.41188046
-0.12923697 0.34132609 0.41012833
-0.16236597 0.35762754 0.41883606
-0.15501744 0.35513824 0.41601312
-0.14528097 0.35492975 0.41214663
-0.13977556 0.35276484 0.41035032
-0.17006104 0.36762628 0.41990852
-0.16431727 0.36541936 0.41766819
-0.15470105 0.36485156 0.41377041
-0.14635955 0.36474428 0.41097146
-0.17286609 0.37596574 0.41854915
-0.16498676 0.37497291 0.41618645
-0.15524957 0.37513125 0.41306984
-0.14811678 0.37301147 0.4108589
-0.18161845 0.38853732 0.41980696
-0.17505585 0.3852424 0.41777959
-0.1649382 0.38480237 0.41517037
-0.15601802 0.38400626 0.4118686
-0.18129604 0.39474061 0.41877577
-0.17467602 0.39492726 0.41626364
-0.16519612 0.39478263 0.41314435
-0.15874526 0.39225531 0.41088507
-0.18079373 0.40433806 0.41641372
-0.17531927 0.40517607 0.41425967
-0.167487 0.40347171 0.41115513
-0.18110524 0.41544414 0.41579276
-0.17484953 0.41469082 0.41306108
-0.16892087 0.41113585 0.41034988
-0.18148509 0.42473355 0.41344658
-0.17615451 0.42509177 0.41256472
-0.18138146 0.43439078 0.41227508
-0.17693304 0.43399078 0.41157487
-0.2207474 0.48647073 0.41718504
-0.21911728 0.48986295 0.41838443
-0.22049069 0.49330956 0.41307694
-0.21747586 0.49632278 0.41552964
-0.22089911 0.50585258 0.41538444
0.029071212 -0.021032661 0.42939407
0.03128127 -0.020448551 0.42853492
0.019252449 -0.012171462 0.42993367
0.025895152 -0.013974589 0.42848328
0.035105858 -0.014838473 0.42557755
0.044722062 -0.013939126 0.42212999
0.050672788 -0.013243218 0.42038903
0.016358266 -0.0041759172 0.42838588
0.025095023 -0.0047895401 0.42575127
0.035063185 -0.0050218003 0.42298216
0.042307649 -0.0063176081 0.42100063
0.0081648557 0.0068846601 0.42928836
0.014895865 0.0049043875 0.42605358
0.024954602 0.0050406856 0.422315
0.033977665 0.0030211601 0.42097282
0.0070038582 0.015321326 0.42833877
0.01494291 0.014934482 0.4237968
0.022528423 0.013524617 0.42050424
0.0065186163 0.0247258 0.42838591
0.014807716 0.024792705 0.42329225
0.020095959 0.028731197 0.42019439
-0.0034642904 0.037997212 0.42892465
0.0056609507 0.034745537 0.42734283
0.014545384 0.035036337 0.42273626
-0.01185479 0.045996118 0.42857072
-0.0049530035 0.045523293 0.42607418
0.0050425637 0.044595618 0.42441714
0.013059098 0.044605721 0.42169428
-0.013535255 0.05563746 0.42748371
-0.0051660892 0.055506222 0.42305425
0.0041625397 0.053723637 0.42145875
0.011385493 0.050254852 0.42065114
-0.020889379 0.067024231 0.42944989
-0.014490767 0.065313257 0.42580506
-0.0056622326 0.064371623 0.42134386
0.0023721084 0.060042113 0.42010742
-0.022345403 0.075725488 0.42794061
-0.015435879 0.074852169 0.42359838
-0.009416597 0.072331436 0.4205479
-0.031736441 0.088183299 0.42941648
-0.024596788 0.085138217 0.42755809
-0.016099133 0.08485917 0.42251983
-0.040998697 0.098802149 0.42943013
-0.034757994 0.09580452 0.42802694
-0.025167791 0.094959401 0.42572564
-0.016960302 0.094741262 0.42214778
-0.042831108 0.10570513 0.42871407
-0.034888767 0.10505976 0.42592406
-0.024969971 0.10490122 0.42390409
-0.018188262 0.1043597 0.42136517
-0.050634041 0.11804436 0.42984962
-0.044438429 0.11549638 0.42764485
-0.035171799 0.11490434 0.42388085
-0.025059225 0.11474509 0.42170089
-0.018216141 0.11076274 0.42024553
-0.052932359 0.12597138 0.42847541
-0.045091752 0.1251328 0.42598575
-0.035607748 0.12432686 0.42204508
-0.027491948 0.12151263 0.42051628
-0.054716054 0.13518949 0.42775616
-0.045066591 0.13507351 0.42454919
-0.038500685 0.13450395 0.42112029
-0.06146523 0.14554736 0.42944363
-0.0551733 0.14491642 0.42657992
-0.045117963 0.14478791 0.42267638
-0.06327033 0.15547888 0.42804232
-0.055064876 0.15515198 0.42331523
-0.047203597 0.15233269 0.42108631
-0.071710467 0.16766854 0.42939472
-0.064726144 0.16504148 0.42640734
-0.057486966 0.1642312 0.4218224
-0.081642509 0.17881329 0.42946792
-0.074067369 0.17554612 0.42829338
-0.064865321 0.1749704 0.42414701
-0.059146173 0.1723709 0.42072108
-0.090517335 0.18651077 0.42998654
-0.084443845 0.18531722 0.42860112
-0.075260319 0.18477845 0.42546362
-0.065811619 0.18405388 0.42218623
-0.091063976 0.19528311 0.42940089
-0.085057653 0.19492213 0.42727983
-0.07635536 0.19414674 0.42242533
-0.069182336 0.1908453 0.42037916
-0.092696853 0.2050861 0.4288063
-0.085067146 0.20508394 0.42554137
-0.077966884 0.20497544 0.42156187
-0.10177495 0.21924447 0.42936316
-0.094277799 0.21531953 0.42657441
-0.084839761 0.2152133 0.42203763
-0.079022601 0.21294145 0.42068443
-0.10442965 0.22592337 0.42815027
-0.09494736 0.22506359 0.42418796
-0.087777942 0.22367983 0.42097014
-0.11266389 0.2363774 0.42897046
-0.10518251 0.23502521 0.42545721
-0.095118858 0.23502484 0.42189762
-0.089569792 0.23426542 0.4203344
-0.12183813 0.24667183 0.42914781
-0.11500967 0.24509531 0.42678711
-0.1054169 0.24431738 0.42245197
-0.096966743 0.2419354 0.42058212
-0.13122249 0.25946069 0.42965558
-0.12406189 0.25534865 0.42801139
-0.11511723 0.2549006 0.42342931
-0.10798389 0.25236923 0.4207156
-0.13390717 0.26649916 0.42920926
-0.12524116 0.26482105 0.42696622
-0.11647144 0.26472023 0.42202702
-0.14102054 0.27641776 0.42955908
-0.13472837 0.27508929 0.42752782
-0.12479129 0.27499315 0.42397937
-0.11737535 0.27445391 0.42106822
-0.14221139 0.28622186 0.42891017
-0.13491258 0.28505182 0.42541978
-0.12660588 0.28404409 0.42159852
-0.11904407 0.28145719 0.42023867
-0.15257056 0.29847294 0.42949104
-0.144655 0.29569718 0.42810446
-0.13523534 0.29493874 0.42443451
-0.12784038 0.29430413 0.42090249
-0.16073206 0.30836165 0.42946494
-0.15423219 0.30539778 0.42771408
-0.14478964 0.30498096 0.42496902
-0.13531998 0.30461273 0.42214343
-0.12993902 0.30044675 0.42086434
-0.16263254 0.31567025 0.42904627
-0.15510008 0.31500757 0.42549443
-0.14538549 0.31466129 0.4217017
-0.13841243 0.31350151 0.4206014
-0.17138031 0.32847089 0.42945406
-0.16426839 0.32549906 0.42818993
-0.1547223 0.32501668 0.42380017
-0.14693606 0.32356569 0.42069703
-0.1737453 0.33530608 0.42892408
-0.16521871 0.33490446 0.42691448
-0.15554225 0.33496666 0.4224537
-0.14938149 0.33247733 0.42013389
-0.1822051 0.34779117 0.42927811
-0.17495264 0.34493804 0.42777967
-0.16492428 0.34485278 0.42467806
-0.15692519 0.34391025 0.42142692
-0.1950471 0.35660869 0.4286921
-0.18454923 0.35534129 0.42820069
-0.1751328 0.35486108 0.4258838
-0.16577169 0.3543638 0.42201805
-0.15922354 0.35092559 0.42051953
-0.1945689 0.36392987 0.42616326
-0.18549579 0.36496678 0.4268544
-0.17544661 0.36504549 0.42302269
-0.16915509 0.36263394 0.42089847
-0.1900904 0.37097204 0.42792881
-0.18373179 0.37448183 0.42400479
-0.17677774 0.3736501 0.42097461
-0.18290234 0.38435772 0.42098224
-0.17938185 0.38226381 0.42036706
-0.18322432 0.39108992 0.42032823
-0.2204047 0.48224854 0.42065439
0.0059902216 -0.022925058 0.43794385
0.015090308 -0.022495104 0.43420702
0.023598714 -0.021938801 0.4315536
-0.0014029486 -0.014329731 0.43946758
0.0049580988 -0.014789088 0.43617195
0.014753188 -0.015249606 0.43220556
0.02276412 -0.017569453 0.43062434
-0.0028637599 -0.0045033009 0.43795642
0.004980518 -0.0047416571 0.43356514
0.012054547 -0.006602223 0.43111399
-0.011417095 0.0078189671 0.43959782
-0.00497984 0.0053639291 0.43679449
0.0038823818 0.0047323261 0.43157157
-0.020756988 0.01677572 0.43980396
-0.014007168 0.015960999 0.43922275
-0.0046937368 0.015219396 0.43570057
0.0019623116 0.014795821 0.43122661
-0.022199303 0.025554359 0.43881476
-0.015039876 0.025254641 0.43713665
-0.0048429193 0.024885684 0.43469825
0.0015843362 0.02516163 0.43117979
-0.023532012 0.035258617 0.43793133
-0.015210164 0.035022397 0.43402839
-0.005724607 0.033522788 0.43159837
0.00064128265 0.032340616 0.43017471
-0.024246851 0.045065042 0.43706989
-0.016550111 0.044416457 0.43204021
-0.040551864 0.05802533 0.43996662
-0.033584744 0.055981562 0.43862474
-0.02487479 0.055098187 0.43517375
-0.018031046 0.053989168 0.43157747
-0.051021259 0.068467736 0.43974626
-0.044320695 0.065812595 0.43809417
-0.034793079 0.06464199 0.43619221
-0.025502486 0.064895652 0.43268344
-0.019087881 0.061308324 0.43024117
-0.05400908 0.076476984 0.43803325
-0.045033768 0.075177431 0.43495405
-0.03512384 0.075008735 0.43357489
-0.027317733 0.074302569 0.43142509
-0.061960019 0.085221492 0.43915838
-0.054937743 0.085233793 0.43653283
-0.045108695 0.085007645 0.43276921
-0.03556164 0.084610067 0.43135306
-0.029854544 0.081877261 0.43047535
-0.063293822 0.095337525 0.43850529
-0.054998659 0.094961129 0.4353931
-0.04510016 0.094634928 0.43176618
-0.037839137 0.091357134 0.43022734
-0.064523436 0.10511285 0.43814775
-0.055025227 0.10505748 0.43470237
-0.047490988 0.104389 0.43133843
-0.070999101 0.11683774 0.43981719
-0.064800031 0.11476336 0.43748435
-0.055225179 0.11511852 0.43288618
-0.049084105 0.11251427 0.43070325
-0.07329987 0.1256137 0.4391962
-0.064874806 0.12528083 0.43578354
-0.057509169 0.12409934 0.43158284
-0.090176955 0.13811426 0.43985718
-0.084055416 0.13717403 0.43922755
-0.074833758 0.13536514 0.43753728
-0.064818166 0.13523149 0.43384072
-0.059583489 0.13196613 0.43136668
-0.091313899 0.14664061 0.43960604
-0.084894754 0.14505117 0.43777627
-0.074779525 0.14502963 0.43524483
-0.066106297 0.14452776 0.43274584
-0.10392813 0.15740389 0.43928799
-0.094589695 0.15521218 0.43805662
-0.084881082 0.15523283 0.43415159
-0.075199477 0.15479895 0.4325406
-0.067598194 0.15379739 0.43098065
-0.11092773 0.16752738 0.43963918
-0.10472414 0.16545625 0.43784082
-0.095024921 0.16475648 0.43525156
-0.085041918 0.16519436 0.43156946
-0.075493485 0.16414863 0.43125534
-0.068877697 0.16317445 0.4300794
-0.11051808 0.17488354 0.43971616
-0.10521688 0.17522633 0.43716076
-0.094951466 0.17475337 0.43332902
-0.085298136 0.1747431 0.43085334
-0.078152306 0.1719934 0.43038893
-0.11294105 0.18874843 0.43970251
-0.10468233 0.18515782 0.43702921
-0.095092013 0.18510772 0.43222192
-0.0887051 0.1831352 0.43054423
-0.1220782 0.19670321 0.43940523
-0.1148663 0.19508295 0.43831232
-0.10462695 0.19509302 0.43597874
-0.095922478 0.1948849 0.43184137
-0.12340152 0.20537373 0.43805668
-0.11493491 0.20531018 0.43526191
-0.10517503 0.20472366 0.43453565
-0.097652376 0.20455302 0.43161851
-0.1306874 0.21684659 0.43950078
-0.12481178 0.21503551 0.436643
-0.11523481 0.21512182 0.4328219
-0.10536973 0.21466668 0.43225014
-0.098329209 0.21227677 0.43045744
-0.14073367 0.22884905 0.439854
-0.13337918 0.22578375 0.43900779
-0.12492234 0.22503197 0.43597341
-0.11495482 0.22511955 0.43162006
-0.10730094 0.22159342 0.43035945
-0.1425083 0.23578772 0.43884832
-0.13477664 0.23518358 0.43765685
-0.12479008 0.23503903 0.43473852
-0.11672077 0.23370735 0.43155038
-0.15023294 0.24687436 0.43962929
-0.14469357 0.24535248 0.43810686
-0.13533044 0.24479631 0.43553731
-0.12634003 0.24449189 0.43237427
-0.11897527 0.24003765 0.43078607
-0.15214016 0.25550711 0.43905142
-0.14486602 0.25487515 0.43609747
-0.13479386 0.2547783 0.43230358
-0.12831111 0.25314832 0.43059984
-0.16074985 0.26893243 0.43995196
-0.15438524 0.26563111 0.43811297
-0.14514874 0.26488012 0.4336929
-0.13743505 0.2628758 0.43086442
-0.16341017 0.27585363 0.43848637
-0.15518431 0.2748971 0.43634996
-0.14558591 0.27483019 0.43211615
-0.13890745 0.27094197 0.43004334
-0.17063946 0.28570193 0.43968514
-0.16471501 0.28506377 0.43675497
-0.1547049 0.28503653 0.4336375
-0.14679179 0.28421628 0.43132237
-0.172125 0.29598156 0.43883875
-0.16527912 0.2948584 0.43516049
-0.15563437 0.29457858 0.43170887
-0.14836825 0.29233164 0.43039751
-0.18128334 0.30832863 0.43957186
-0.17425193 0.30538076 0.43717101
-0.16509739 0.30484346 0.43279597
-0.15877968 0.3021251 0.43050507
-0.19087487 0.31922448 0.43974307
-0.18449813 0.31555548 0.43781364
-0.17510171 0.31496826 0.43382502
-0.16710225 0.31459245 0.4309637
-0.1929305 0.32644969 0.43823585
-0.18476665 0.32520664 0.43482402
-0.17547688 0.32435715 0.43145189
-0.16815169 0.32165951 0.43044153
-0.20067354 0.33517244 0.43700513
-0.19491394 0.33526698 0.43549979
-0.18493912 0.33504948 0.43257847
-0.17833714 0.33403832 0.43056244
-0.20128976 0.34484586 0.4329007
-0.19519535 0.34526226 0.43327442
-0.1861393 0.34414381 0.4311412
-0.17970484 0.34005082 0.43040407
-0.20125832 0.35160232 0.4302561
-0.19476719 0.35185194 0.43108648
-0.18850601 0.35134858 0.43072289
-0.0069016269 -0.031445388 0.44796443
-0.011465701 -0.022820208 0.44898599
-0.0051441658 -0.025308236 0.44509837
0.0014410084 -0.02517204 0.44080013
-0.031812347 -0.01084365 0.44953158
-0.024544971 -0.012438131 0.44886991
-0.014713317 -0.014823299 0.4473528
-0.0058843163 -0.015744843 0.44311467
-0.040060557 -0.00095641613 0.44987822
-0.034653299 -0.0047107595 0.44883054
-0.024936857 -0.0049435957 0.44618016
-0.014660904 -0.0048019844 0.44352442
-0.0072760042 -0.0063894708 0.44159821
-0.041905992 0.0067960881 0.44925255
-0.034965191 0.005220551 0.44695735
-0.025027841 0.005162756 0.44344184
-0.015655151 0.0047003427 0.44126049
-0.0089138746 0.00030001998 0.44025248
-0.043498963 0.015125032 0.44819412
-0.034832846 0.015061641 0.44490746
-0.025638802 0.015246144 0.44179666
-0.016926836 0.012185112 0.44043007
-0.044343617 0.025278753 0.44762227
-0.035110392 0.024750136 0.44488415
-0.027023062 0.025161287 0.44145325
-0.051937755 0.036566954 0.44954309
-0.044945151 0.034842599 0.44794556
-0.034815006 0.035055783 0.44449764
-0.028292499 0.03404291 0.44162667
-0.054451562 0.045929108 0.44883147
-0.045051873 0.044887807 0.44646147
-0.035007097 0.044913556 0.44305208
-0.028946752 0.0429716 0.44041625
-0.062694781 0.057233453 0.44888294
-0.055032615 0.054655794 0.44697535
-0.045338068 0.055031214 0.44326562
-0.037180301 0.053024326 0.44128522
-0.071570337 0.066344589 0.44895628
-0.065143667 0.065264873 0.4466829
-0.055279385 0.064758606 0.4433428
-0.04774804 0.06255921 0.44083115
-0.073362738 0.0757946 0.44748342
-0.065093003 0.074899428 0.44312069
-0.057221316 0.072986796 0.44081497
-0.08113829 0.087994546 0.44935337
-0.074522205 0.085137963 0.44641069
-0.066864841 0.084574044 0.4415881
-0.083366953 0.095508374 0.44843566
-0.074914694 0.094732203 0.44430274
-0.068024367 0.094770432 0.44082713
-0.091117375 0.10855202 0.44961351
-0.084361777 0.10490188 0.44753259
-0.07509011 0.10522147 0.44317186
-0.069354333 0.10309563 0.44068044
-0.10085035 0.11835025 0.44920146
-0.094321176 0.1155418 0.44768146
-0.084772781 0.11496034 0.44540083
-0.075155228 0.11484967 0.44211707
-0.069595404 0.11438278 0.44010666
-0.10369325 0.12550214 0.44836673
-0.095076993 0.12495331 0.44476733
-0.085276529 0.12511975 0.44258845
-0.078066915 0.12390003 0.44097084
-0.11222141 0.13617127 0.44906643
-0.1050199 0.13487351 0.4462685
-0.095032603 0.13516875 0.44229436
-0.08600077 0.13297617 0.44082302
-0.078849621 0.1306356 0.44018817
-0.1135284 0.1452357 0.44787037
-0.10471073 0.14523804 0.4433257
-0.095492214 0.1444817 0.44100508
-0.089130923 0.1428005 0.44008857
-0.12367868 0.15737998 0.44929528
-0.1148381 0.1553659 0.44619128
-0.10609607 0.15312424 0.44154766
-0.097842783 0.151256 0.44039077
-0.13083948 0.16600068 0.44954664
-0.12480616 0.16527958 0.44823152
-0.11528941 0.16488093 0.44405994
-0.10879136 0.16049108 0.44014889
-0.13386117 0.17585862 0.44845304
-0.12505686 0.17492102 0.44629583
-0.11539339 0.17520757 0.44242322
-0.14228366 0.18599434 0.44906992
-0.13500227 0.18506233 0.44692948
-0.12496156 0.18517949 0.44374868
-0.11529934 0.18432775 0.44138014
-0.10944489 0.18290013 0.44024214
-0.14396332 0.19542146 0.44830847
-0.13491426 0.19507845 0.44581032
-0.1257066 0.19420429 0.44190156
-0.15156694 0.20698354 0.44893637
-0.14500186 0.20504388 0.44649422
-0.13505556 0.20487536 0.44369051
-0.12818669 0.20423289 0.44104609
-0.16089882 0.21825808 0.44945157
-0.15452535 0.21537124 0.44756913
-0.14494881 0.21495865 0.44421113
-0.13552429 0.21490589 0.44162193
-0.12974721 0.21138147 0.44036901
-0.16333042 0.22567691 0.44877484
-0.15491363 0.22513857 0.44518179
-0.14537507 0.22463487 0.44220942
-0.13773505 0.22373152 0.4407098
-0.17090008 0.23797314 0.44946992
-0.16463387 0.2353688 0.44776189
-0.15496492 0.2347369 0.44364089
-0.14710121 0.23432662 0.44092643
-0.17275795 0.24564236 0.44927526
-0.16512395 0.24496084 0.44653153
-0.15522753 0.24499123 0.44243199
-0.14911598 0.24156749 0.44047958
-0.18102062 0.25960365 0.44993722
-0.1740685 0.25556517 0.44864222
-0.16487095 0.25517872 0.44541565
-0.15698324 0.25436422 0.44133267
-0.18312162 0.26651412 0.44870839
-0.17541862 0.26493418 0.44642872
-0.16510594 0.26493976 0.44294685
-0.15819408 0.26230389 0.44049501
-0.19193442 0.2769635 0.44922936
-0.18449463 0.27506 0.44722757
-0.17465438 0.27511695 0.44389161
-0.16731912 0.27340546 0.44115064
-0.19377111 0.28538603 0.44848615
-0.18541086 0.28503153 0.44577488
-0.17532595 0.28490409 0.44260737
-0.20105644 0.29781637 0.44953045
-0.19463734 0.29526722 0.44724634
-0.18486299 0.29522264 0.44450009
-0.17658137 0.29453307 0.44178727
-0.20216393 0.30604568 0.44882211
-0.19488411 0.30476108 0.44529259
-0.18551508 0.30476832 0.44240516
-0.17876987 0.3027941 0.44082841
-0.20179145 0.31463322 0.44730747
-0.1953579 0.31478643 0.44384143
-0.18839408 0.31244341 0.44083667
-0.20112807 0.32392105 0.44361496
-0.19683635 0.32356957 0.44185433
-0.042220078 -0.03433463 0.45941082
-0.03513442 -0.033890191 0.45736787
-0.024976157 -0.033961214 0.45573401
-0.015446458 -0.03367741 0.45354936
-0.043308418 -0.024845758 0.4576
-0.035317298 -0.024866018 0.45455548
-0.024828574 -0.02505151 0.45337954
-0.01551963 -0.026088268 0.45183352
-0.051514253 -0.010345131 0.45927703
-0.044760447 -0.014766367 0.45561203
-0.035101816 -0.015414814 0.45168585
-0.025685586 -0.017234121 0.45104116
-0.017841011 -0.019773215 0.4502722
-0.051487971 -0.0044763586 0.4580994
-0.04506129 -0.0049525681 0.45324087
-0.039083805 -0.0062588602 0.45024434
-0.060008496 0.0098705292 0.45957685
-0.053923339 0.0056650536 0.45747223
-0.0459892 0.0041459445 0.45216975
-0.062782384 0.016386241 0.45886138
-0.054920051 0.015028313 0.45519453
-0.048607159 0.01477355 0.4510828
-0.06453374 0.025421809 0.45722216
-0.054920651 0.024632843 0.45283785
-0.049075227 0.02457583 0.45034251
-0.071463913 0.035590138 0.45914707
-0.065066814 0.03528085 0.45508179
-0.056312136 0.034202784 0.45129833
-0.081503838 0.049724072 0.45992273
-0.07415913 0.046265479 0.45746136
-0.064838037 0.044705857 0.45290318
-0.057393748 0.042180356 0.45055702
-0.082293242 0.056525938 0.45840165
-0.074940547 0.055474326 0.45476446
-0.066377506 0.05350025 0.45124707
-0.092279099 0.067088142 0.45936012
-0.084894985 0.065444306 0.45724085
-0.076223314 0.06499394 0.45252731
-0.10109177 0.078028955 0.45939386
-0.094887897 0.07560423 0.45769829
-0.084899761 0.074946657 0.45491523
-0.078256182 0.074740686 0.45163429
-0.10199216 0.084503129 0.45911923
-0.094840303 0.085180745 0.45584053
-0.085570164 0.084713735 0.45229721
-0.079217896 0.081737131 0.45065257
-0.10300657 0.09568698 0.45891789
-0.09508884 0.094698593 0.45558438
-0.087904461 0.094354264 0.45128506
-0.11304676 0.10734145 0.4592174
-0.10487366 0.10512802 0.45744786
-0.09498965 0.1048844 0.45298225
-0.088918611 0.10172445 0.4506408
-0.12063209 0.11761297 0.4595305
-0.11470697 0.11500916 0.45737541
-0.10554986 0.11503264 0.45336193
-0.09788017 0.11141513 0.45139089
-0.1237607 0.12562959 0.458507
-0.11508282 0.12510394 0.45392454
-0.10779447 0.12357793 0.45102566
-0.1419619 0.13852866 0.45929965
-0.13455337 0.13630985 0.45817116
-0.12489283 0.1348332 0.45552164
-0.11632438 0.1344699 0.45155418
-0.14437988 0.14579666 0.45825362
-0.13505429 0.14504516 0.45485839
-0.12481071 0.14534146 0.45209795
-0.11855309 0.14395393 0.45071661
-0.15250526 0.1579069 0.45908016
-0.14476787 0.15506715 0.4568221
-0.13517515 0.15485919 0.4532775
-0.12630861 0.15361655 0.45079005
-0.11863973 0.15011331 0.45018744
-0.15392187 0.16512269 0.45884231
-0.14517982 0.1648681 0.45605916
-0.13551551 0.16463228 0.4521209
-0.12873441 0.16219538 0.45004648
-0.16182454 0.17785835 0.45976114
-0.15474822 0.17534226 0.45847639
-0.14490949 0.17478423 0.45369354
-0.13765964 0.17293556 0.45100093
-0.16415378 0.18597911 0.45886356
-0.15506159 0.18521751 0.45625171
-0.14658143 0.18439274 0.45180598
-0.17120998 0.19722666 0.45955142
-0.16484754 0.19497816 0.45772696
-0.15496297 0.19515674 0.45372093
-0.14870027 0.19348627 0.45059168
-0.17275485 0.2057194 0.45831218
-0.165034 0.20483576 0.4553996
-0.15604363 0.20466785 0.4519144
-0.18027925 0.21830136 0.45935273
-0.17431951 0.21503061 0.45663512
-0.16548306 0.21489622 0.4524526
-0.15882058 0.21221602 0.45082644
-0.18180549 0.22601849 0.45870838
-0.17506827 0.22503243 0.45451164
-0.16798456 0.22405462 0.45087725
-0.19179252 0.23756751 0.45970741
-0.18470778 0.23540887 0.45777369
-0.17546304 0.23483007 0.4525865
-0.16907133 0.23088209 0.45028567
-0.20060985 0.24821413 0.45961347
-0.1942872 0.24552491 0.45825332
-0.18483259 0.24509221 0.4547112
-0.17685367 0.24434666 0.45124036
-0.20213722 0.25536215 0.45878455
-0.19487655 0.2552599 0.4561193
-0.18520227 0.25469738 0.45286572
-0.17777973 0.25210398 0.45045978
-0.20434624 0.26519179 0.45731741
-0.19494021 0.26504281 0.45379364
-0.18656793 0.26399413 0.45156142
-0.21158496 0.27674258 0.45952427
-0.20512204 0.27518493 0.4560076
-0.19613178 0.27428791 0.45143631
-0.18911761 0.27075806 0.45037037
-0.21194093 0.28459078 0.45874804
-0.2049066 0.28491357 0.45470101
-0.19812027 0.28435972 0.45079565
-0.21159452 0.29011449 0.457214
-0.20470729 0.29431489 0.45247591
-0.19932508 0.29201734 0.45039502
-0.20533478 0.30313429 0.45095587
-0.052801736 -0.042643428 0.46855879
-0.047904555 -0.040965971 0.46471059
-0.062760063 -0.032520276 0.46897224
-0.054689396 -0.034931287 0.467089
-0.046513826 -0.034712858 0.46203092
-0.064876027 -0.02437765 0.46790105
-0.05513249 -0.02468285 0.46492144
-0.048188951 -0.026071047 0.46161842
-0.071705632 -0.013774154 0.46886015
-0.064792745 -0.015066455 0.46652055
-0.055311162 -0.014874442 0.46324566
-0.049015604 -0.018595204 0.4601219
-0.082282551 -0.0027199138 0.4691225
-0.075180925 -0.0046584075 0.4674114
-0.064970091 -0.0052118059 0.4650524
-0.056341313 -0.005355678 0.46208656
-0.084240206 0.0052532456 0.46813551
-0.074988201 0.0052749068 0.46469033
-0.065275274 0.0049480312 0.46251404
-0.058286317 0.0032309555 0.46109021
-0.091022775 0.015672427 0.469201
-0.085046127 0.015207884 0.46699423
-0.074954674 0.015124341 0.46358585
-0.066621013 0.013779418 0.46096832
-0.10127813 0.028220803 0.46974334
-0.091758847 0.024648912 0.46964875
-0.084899612 0.024973234 0.46717453
-0.075146459 0.024896234 0.46326953
-0.068909466 0.022865728 0.46032155
-0.10288563 0.035312165 0.46949166
-0.095279679 0.035092071 0.46932846
-0.085192546 0.035124995 0.46671373
-0.076434165 0.034396365 0.46264359
-0.10415155 0.045720719 0.46927062
-0.094919153 0.044732209 0.46845269
-0.085119627 0.044927943 0.46416152
-0.077868104 0.042983226 0.46095192
-0.11395635 0.056283601 0.46866262
-0.1050634 0.055268567 0.46735343
-0.095148601 0.055138234 0.4649967
-0.086667567 0.053956665 0.46183205
-0.1226454 0.066723324 0.46827489
-0.11514465 0.064992331 0.46582627
-0.10508483 0.065111063 0.46398187
-0.09592364 0.064058177 0.46170148
-0.088914543 0.061029017 0.46024472
-0.12444758 0.075310618 0.46714836
-0.11465636 0.074481979 0.46352264
-0.10562468 0.074986175 0.4614411
-0.098769069 0.071076654 0.46055746
-0.13147229 0.086839959 0.46950233
-0.1249791 0.085002288 0.46642876
-0.11514811 0.084879138 0.4628436
-0.10689732 0.085460626 0.46094659
-0.14203127 0.098398432 0.46957999
-0.1346738 0.096157759 0.46888104
-0.12500463 0.094828628 0.4655652
-0.1149331 0.094560407 0.46238795
-0.10776169 0.094674669 0.46084386
-0.1433921 0.10568158 0.46926621
-0.13474591 0.10480042 0.46729377
-0.12497052 0.10496414 0.46363166
-0.11642569 0.10385588 0.46113449
-0.10908478 0.10069185 0.46033287
-0.15139396 0.1160627 0.46940002
-0.14481744 0.11500761 0.46784043
-0.13523105 0.11506229 0.46547055
-0.12527196 0.11439838 0.46231914
-0.11866403 0.11260912 0.46008348
-0.15360285 0.12508194 0.46869409
-0.14501995 0.12525345 0.46527085
-0.13474908 0.12462881 0.46292779
-0.12735872 0.12297944 0.46149001
-0.16146703 0.13662983 0.46916792
-0.15501107 0.13500948 0.46692762
-0.14529079 0.13425149 0.46254668
-0.13665704 0.13173689 0.46060783
-0.1714139 0.14898209 0.46987468
-0.16441572 0.14586976 0.46759486
-0.15505287 0.14478311 0.46388948
-0.14788732 0.14307041 0.46086088
-0.17276959 0.15634431 0.46829593
-0.16493629 0.15479164 0.46492445
-0.15585692 0.15403062 0.46153796
-0.18129328 0.1693131 0.46941611
-0.17423363 0.16527486 0.46702862
-0.16507089 0.1652021 0.46287778
-0.15891114 0.16463467 0.46054253
-0.19033071 0.17889923 0.46987909
-0.18395098 0.17598133 0.46894759
-0.17515516 0.17510037 0.46544898
-0.16534443 0.17462264 0.46164683
-0.15838562 0.17336051 0.46017751
-0.19193578 0.18667419 0.46899915
-0.18495847 0.18520829 0.46735144
-0.17486569 0.18482199 0.46361855
-0.16687927 0.18257657 0.46066293
-0.1932469 0.19584677 0.46874934
-0.18499614 0.19479384 0.46625814
-0.17535037 0.19483145 0.46209776
-0.16941148 0.19250979 0.46016097
-0.20157242 0.20924231 0.46954796
-0.19483399 0.20531884 0.46825892
-0.18498123 0.20480467 0.4650048
-0.17761926 0.20410414 0.46156672
-0.21138637 0.21782939 0.46955192
-0.20432305 0.21584548 0.46813431
-0.19487646 0.21511967 0.46602604
-0.18559101 0.21496457 0.46335214
-0.17914167 0.21109074 0.46079344
-0.21253769 0.22570579 0.46879312
-0.2052196 0.22504842 0.46586579
-0.1946914 0.224995 0.46374214
-0.1862375 0.22473367 0.46164128
-0.21418603 0.23559994 0.46678874
-0.20517965 0.23480253 0.46365041
-0.19554298 0.23457055 0.46167508
-0.1885301 0.23237766 0.46058673
-0.21446069 0.24513981 0.46517542
-0.20523697 0.24485828 0.46219283
-0.19834463 0.2420077 0.4605388
-0.21450458 0.25498539 0.46484685
-0.20748313 0.2545552 0.46155974
-0.21433195 0.26487455 0.46320146
-0.20871076 0.26372641 0.46069431
-0.21550043 0.27434221 0.4618372
-0.21597603 0.28253758 0.46120572
-0.068349868 -0.05059284 0.47810185
-0.07277225 -0.044902436 0.47811311
-0.064897813 -0.045035888 0.47446465
-0.05739576 -0.043882288 0.47124293
-0.090077072 -0.030580819 0.47976667
-0.08432395 -0.031548303 0.47920147
-0.074929476 -0.034728527 0.47634003
-0.066510722 -0.036362085 0.47173515
-0.057974886 -0.039883822 0.47003812
-0.10085698 -0.020058244 0.47960991
-0.09416692 -0.023892945 0.47846735
-0.084570877 -0.024823654 0.4769035
-0.075001739 -0.024921091 0.47335398
-0.068993717 -0.027926823 0.47039393
-0.10307272 -0.013234466 0.47850683
-0.095376119 -0.01480769 0.47648644
-0.085390605 -0.014695543 0.47374576
-0.076383471 -0.015740618 0.47152263
-0.1105631 -0.0029169619 0.47985339
-0.10436577 -0.0047462555 0.47754285
-0.094726562 -0.0050099031 0.47428718
-0.085824944 -0.0052860118 0.4711988
-0.11319423 0.0062427004 0.47911423
-0.10542785 0.0051205475 0.47630417
-0.095237166 0.0050906688 0.47302824
-0.089136347 0.0023559988 0.47092587
-0.12064014 0.019482344 0.4796167
-0.11436418 0.01564954 0.47779197
-0.10475133 0.014922089 0.4743129
-0.095686555 0.015323765 0.47168568
-0.12162804 0.025431911 0.47945657
-0.11536935 0.02512132 0.47634351
-0.10562261 0.025031865 0.47184423
-0.096389726 0.025034945 0.47070244
-0.13249123 0.037831701 0.47904658
-0.1242473 0.035420433 0.47815165
-0.11461309 0.034810018 0.47406986
-0.10715094 0.035008878 0.47071904
-0.14067176 0.0479469 0.47969294
-0.13450667 0.045289937 0.47764301
-0.12521231 0.045258753 0.47617945
-0.11528376 0.045114886 0.47275615
-0.10761456 0.043151025 0.47070646
-0.14299384 0.055290196 0.47879443
-0.1352769 0.054926455 0.47680447
-0.12492181 0.054952014 0.47376347
-0.11582456 0.052318551 0.47087938
-0.15076293 0.068080656 0.47925511
-0.14453273 0.064944401 0.47700667
-0.13467567 0.064942516 0.47470048
-0.12636951 0.064118303 0.47145805
-0.15212938 0.075515829 0.47834989
-0.14488113 0.074938007 0.47517228
-0.13519657 0.075409122 0.47259724
-0.12965299 0.073550791 0.47047091
-0.16132292 0.08747527 0.47985631
-0.15489601 0.085044146 0.47737953
-0.14514722 0.085255727 0.4729957
-0.13571674 0.084611185 0.47120646
-0.16229494 0.096197329 0.47830036
-0.15463108 0.094769418 0.47454497
-0.14502862 0.094286218 0.4712778
-0.1375311 0.092146263 0.47041592
-0.16345306 0.10530023 0.47719344
-0.15493585 0.10515996 0.47232792
-0.14793257 0.10389529 0.47046599
-0.17003912 0.11783894 0.4795785
-0.16444388 0.11555244 0.47624308
-0.15643033 0.11460171 0.47153172
-0.14992321 0.11007465 0.470635
-0.17192025 0.12564304 0.47887284
-0.16462217 0.12514038 0.47411957
-0.15809995 0.12399903 0.47065151
-0.18305908 0.13717732 0.47915468
-0.17498896 0.13492198 0.47738943
-0.16590588 0.13476977 0.47258851
-0.19273032 0.1470045 0.47910765
-0.1850971 0.14530741 0.47751391
-0.17560643 0.14476649 0.47392395
-0.16853093 0.14246789 0.4713161
-0.20065464 0.15770236 0.47954124
-0.19453588 0.15536515 0.47748625
-0.18521498 0.15531616 0.47528708
-0.17726223 0.15388241 0.47177443
-0.20250621 0.16567524 0.47906402
-0.19523796 0.16500202 0.47567183
-0.18524836 0.1648348 0.47287783
-0.17821932 0.16198954 0.47049493
-0.21174987 0.17839414 0.47950602
-0.20484149 0.17571254 0.47787639
-0.19532554 0.1748511 0.47337866
-0.18727975 0.17256881 0.47098181
-0.21401206 0.18556346 0.47815129
-0.20501637 0.18517783 0.47492212
-0.1960424 0.18417996 0.47154835
-0.21393956 0.19486067 0.47576725
-0.2048258 0.19497471 0.47267547
-0.19794621 0.19425403 0.47074816
-0.21361606 0.20496328 0.47342429
-0.20545731 0.20471863 0.47120717
-0.19929507 0.20218655 0.47028542
-0.2144137 0.21461003 0.47198528
-0.20714124 0.21119335 0.47058916
-0.21645989 0.22440714 0.47115499
-0.21724889 0.23077163 0.47025016
-0.10147775 -0.053274125 0.48999995
-0.095452346 -0.052919962 0.48761091
-0.085643001 -0.052298665 0.48457563
-0.077409491 -0.051266015 0.48172754
-0.1024179 -0.043979343 0.48880896
-0.094641805 -0.044930335 0.48550019
-0.084488198 -0.045399006 0.48331058
-0.077666968 -0.045270503 0.48113617
-0.1118713 -0.032497834 0.4889946
-0.10534637 -0.034764409 0.48699081
-0.095468946 -0.035186514 0.48276487
-0.08599171 -0.03660636 0.48138267
-0.07951989 -0.037882596 0.48025346
-0.12211978 -0.022922225 0.48922306
-0.11477672 -0.024788937 0.48772147
-0.10463122 -0.024890075 0.48307893
-0.096843503 -0.028582189 0.48088384
-0.13138461 -0.012310962 0.48925266
-0.12535799 -0.014928677 0.4878011
-0.11516976 -0.015216993 0.48508641
-0.10727004 -0.015656332 0.48135063
-0.13163796 -0.005018828 0.48898643
-0.12469738 -0.0048917467 0.48558229
-0.11494713 -0.0052351533 0.4825457
-0.10846718 -0.0081962049 0.48001826
-0.13305922 0.0059733773 0.4884558
-0.12536068 0.0051229857 0.48425159
-0.11708571 0.0039374572 0.48138243
-0.14088543 0.017594874 0.48924625
-0.13416407 0.015178324 0.48659152
-0.12478644 0.014774363 0.48221749
-0.11830561 0.010874681 0.48045927
-0.14318848 0.025734125 0.48835588
-0.13520092 0.024709705 0.48444307
-0.1261972 0.024529094 0.48120239
-0.15090147 0.037985139 0.48922595
-0.14475363 0.034971472 0.48649147
-0.13584806 0.033974409 0.48190767
-0.1285015 0.031405855 0.48068839
-0.1542124 0.04549383 0.48840865
-0.14480823 0.044501051 0.48333612
-0.13854292 0.040698081 0.48069507
-0.16200502 0.057059627 0.48965898
-0.15539464 0.054793332 0.48633996
-0.14769959 0.054186754 0.48153061
-0.16366515 0.066185541 0.48829231
-0.15527453 0.064717397 0.48336214
-0.14981383 0.06160678 0.4805412
-0.17252745 0.07694371 0.48910701
-0.1649619 0.075184055 0.4860605
-0.15683663 0.074345157 0.48164189
-0.18143237 0.089003354 0.48976827
-0.17490828 0.085672475 0.48779118
-0.16554484 0.084981464 0.48345986
-0.15941758 0.082153119 0.48073217
-0.18097353 0.095373452 0.48944157
-0.17472337 0.095501803 0.48643321
-0.16703731 0.093920365 0.48192725
-0.1822356 0.10591542 0.48930934
-0.17511795 0.10485382 0.48615092
-0.1684203 0.10461016 0.48110941
-0.20095743 0.11971492 0.48995459
-0.19436349 0.1178342 0.48905152
-0.18510573 0.11533516 0.48783347
-0.17553909 0.11468782 0.48415229
-0.16909793 0.11234906 0.48064843
-0.20354678 0.12642254 0.48859066
-0.19558941 0.1249551 0.48635796
-0.18512399 0.12499976 0.48406777
-0.17650722 0.12477211 0.48129624
-0.21235353 0.13898563 0.48967615
-0.2053307 0.13561371 0.48731014
-0.19500677 0.13497865 0.48347995
-0.18581684 0.13315941 0.48132494
-0.21315707 0.14523216 0.48883441
-0.20459884 0.14511326 0.48554125
-0.19594097 0.14373967 0.48145971
-0.18882272 0.14027984 0.48041683
-0.21391912 0.15524258 0.486743
-0.20497076 0.15479507 0.48318842
-0.19880641 0.15194218 0.48021799
-0.21418388 0.16519833 0.48434898
-0.20714481 0.16448632 0.48178929
-0.21467119 0.17469189 0.4821237
-0.2082217 0.17199731 0.48081651
-0.21717235 0.18292199 0.48062602
-0.12289426 -0.061314613 0.49928883
-0.11491176 -0.061185099 0.4981057
-0.10855754 -0.061026022 0.49620059
-0.12372958 -0.05452494 0.49810767
-0.11480933 -0.054655861 0.49580711
-0.1054896 -0.05525424 0.49295849
-0.099478751 -0.057064116 0.49031633
-0.13340016 -0.043493416 0.49948364
-0.12499625 -0.045031764 0.49684951
-0.11506609 -0.045080993 0.49338698
-0.10664795 -0.04611038 0.49113685
-0.14245424 -0.033691388 0.4994224
-0.13495819 -0.035052899 0.49775904
-0.12516616 -0.035013277 0.49402183
-0.11615465 -0.035699319 0.49122968
-0.10940463 -0.039449126 0.49064237
-0.14311132 -0.024429234 0.49834216
-0.13487948 -0.025104305 0.49455661
