# .PCD v0.7 - Point Cloud Data file format
VERSION 0.7
FIELDS x y z
SIZE 4 4 4
TYPE F F F
COUNT 1 1 1
WIDTH 458
HEIGHT 1
VIEWPOINT 0 0 0 1 0 0 0
POINTS 458
DATA ascii
-0.077092804 -0.035333149 -0.044146523
-0.075027801 -0.035394914 -0.044850532
-0.059454862 -0.035364144 -0.044809557
-0.077336542 -0.029575765 -0.044274226
-0.070079692 -0.025683822 -0.0450087
-0.058638211 -0.032508731 -0.044766925
-0.077300109 -0.017294535 -0.044294659
-0.069557808 -0.020093206 -0.04502194
-0.049699996 -0.015000002 -0.045000002
-0.077252626 -0.0019714381 -0.044331331
-0.075609744 -0.0041899714 -0.044876922
-0.058625035 -2.1283419e-10 -0.044767927
-0.077085488 0.0059143021 -0.044438064
-0.075387985 0.0024561924 -0.04495544
-0.077300064 0.017294517 -0.044294681
-0.069558024 0.020093206 -0.045021947
-0.049699996 0.014999998 -0.045000002
-0.077356189 0.030607788 -0.044261094
-0.07112851 0.027011838 -0.044989213
-0.058772132 0.032527372 -0.044788614
-0.077033579 0.0334692 -0.044436499
-0.07128562 0.037822511 -0.044967316
-0.062133882 0.037175734 -0.044965923
-0.068373241 -0.04441271 -0.03572515
-0.064600699 -0.044405114 -0.035907697
-0.078459568 -0.035848863 -0.036920972
-0.0724971 -0.039686028 -0.036236279
-0.060729556 -0.038801968 -0.036367334
-0.054917119 -0.034005024 -0.039684545
-0.078569233 -0.02716344 -0.036364205
-0.067300081 -0.023072859 -0.043445513
-0.056448106 -0.027001772 -0.036096454
-0.054875508 -0.027452758 -0.037726257
-0.078472704 -0.016494241 -0.036170717
-0.067300193 -0.02150772 -0.043445475
-0.056551166 -0.016493265 -0.035550132
-0.05489213 -0.016477527 -0.037999
-0.078871913 -0.0065652835 -0.038259428
-0.057193425 -0.0056476365 -0.035589736
-0.052764989 -0.0046871593 -0.036987055
-0.078900643 0.0064540002 -0.038364459
-0.057188991 0.0057103075 -0.035558902
-0.05279275 0.0047115833 -0.037000723
-0.078472637 0.016494218 -0.036170766
-0.067300163 0.021507831 -0.043445487
-0.056553751 0.01628834 -0.035668351
-0.054892171 0.0164777 -0.037998974
-0.078526415 0.027182978 -0.036308739
-0.067328878 0.025968278 -0.035866931
-0.056451358 0.026402596 -0.036218762
-0.054876015 0.027459843 -0.03776852
-0.078320555 0.036136348 -0.039672907
-0.07268995 0.041972544 -0.038597792
-0.059947249 0.040157173 -0.038907692
-0.054900695 0.033813573 -0.040549971
-0.068348765 0.044409096 -0.039905664
-0.064657092 0.044387393 -0.039962437
-0.0018323654 -0.088465251 -0.023649432
0.0025101665 -0.088394195 -0.023627542
-0.0029918829 -0.081238076 -0.024484061
0.0027927062 -0.081580579 -0.024367398
-0.0024562762 -0.070970275 -0.023958595
0.0026689656 -0.070942312 -0.023843899
-0.00239711 -0.062734887 -0.024426153
0.0026768276 -0.062897258 -0.024194486
-0.067885853 -0.044204365 -0.030170597
-0.06554243 -0.044125699 -0.030170597
-0.0026542975 -0.049530864 -0.024055865
0.0028880502 -0.0496599 -0.023910236
-0.077586144 -0.034902994 -0.028922124
-0.069714591 -0.036946967 -0.027212979
-0.063124068 -0.036238927 -0.02696432
-0.078647077 -0.027440583 -0.030604094
-0.069257118 -0.028732903 -0.027311344
-0.06289798 -0.029781289 -0.027058356
-0.054881532 -0.026938844 -0.030156659
-0.078909062 -0.016500214 -0.030563399
-0.069508784 -0.014054606 -0.026168862
-0.063544147 -0.013955763 -0.025873939
-0.054893546 -0.016488744 -0.030465724
-0.078861795 -0.0050648241 -0.030617591
-0.069636747 -0.0081160814 -0.026237532
-0.063017108 -0.004973128 -0.028120039
-0.053374272 -0.0042911698 -0.031018144
-0.078802034 0.0049215611 -0.030652428
-0.070002086 0.0088319071 -0.028471434
-0.063235402 0.0040845405 -0.029533835
-0.053433862 0.0042413725 -0.030961892
-0.078909159 0.016499786 -0.030563384
-0.069406867 0.017109584 -0.026733726
-0.063767977 0.017003769 -0.026730727
-0.054893576 0.016488707 -0.030465724
-0.078676239 0.027318265 -0.030596517
-0.069719546 0.028131014 -0.026239766
-0.062432084 0.028457969 -0.026629724
-0.054881353 0.026932389 -0.030152282
-0.077674441 0.035061479 -0.028005634
-0.069605924 0.038257048 -0.026498485
-0.062721685 0.036961857 -0.025931114
-0.067885853 0.044204365 -0.030170599
-0.06554243 0.044125699 -0.030170601
-0.0023260808 -0.10054111 -0.013433843
0.0022328242 -0.10046937 -0.013568662
-0.0019722732 -0.093131587 -0.017071312
0.0016915891 -0.093836904 -0.01676942
-0.0036751528 -0.081644811 -0.017599281
0.0037394569 -0.08174292 -0.017506273
-0.0033408534 -0.070893474 -0.017814185
0.0033498849 -0.070923425 -0.017838057
-0.0034591875 -0.062028442 -0.017959559
0.0033105302 -0.061938018 -0.017895374
-0.0027641724 -0.050463647 -0.018279804
0.0029790855 -0.050366782 -0.018374005
-0.077142119 -0.03400882 -0.02134932
-0.071039028 -0.037238091 -0.020792268
-0.062222179 -0.036849756 -0.020737506
-0.077199385 -0.032500099 -0.021077905
-0.070088886 -0.029512573 -0.021333899
-0.063195385 -0.029827176 -0.021360628
-0.071058966 -0.019143406 -0.02080496
-0.062494084 -0.018544262 -0.020804981
-0.071341202 -0.0036512825 -0.020765079
-0.062477693 -0.0044678105 -0.020804983
-0.072953679 0.0051589301 -0.021926939
-0.061458763 0.0049125794 -0.021836679
-0.069748998 0.01691658 -0.021300508
-0.063683629 0.017156595 -0.021330636
-0.077199392 0.032500099 -0.02107789
-0.069947764 0.027562823 -0.021544002
-0.063199319 0.028771143 -0.021546129
-0.077143475 0.034000918 -0.02134932
-0.071425252 0.03767927 -0.020627143
-0.061844941 0.037263252 -0.020556672
-0.0018760305 -0.10148816 -0.0083955554
0.0017224835 -0.10137322 -0.0084439786
-0.014792328 -0.089133583 -0.001991336
-0.002880302 -0.093053885 -0.0047572586
0.0040003061 -0.090134941 -0.0018104526
0.014792329 -0.089133583 -0.001991336
-0.015544692 -0.083316967 -0.004896163
-0.0040003061 -0.083405063 -0.0063221804
0.0040003061 -0.083405063 -0.0063221813
0.015544692 -0.083316959 -0.004896163
-0.015512105 -0.074977279 -0.0072353282
-0.0040003061 -0.072998881 -0.0084189773
0.0040003061 -0.072998881 -0.0084189773
0.015512104 -0.074977279 -0.0072353282
-0.0040003061 -0.04506981 -0.0084301233
0.0020001531 -0.045034759 -0.0084650517
-0.013658075 -0.03518407 -0.0055079102
-0.0039961333 -0.03322437 -0.0084302425
0.002664089 -0.033314362 -0.0084534883
0.013658075 -0.03518407 -0.0055079102
-0.014817658 -0.028617447 -0.0064098635
-0.0057273819 -0.031305186 -0.0060557113
0.0048993663 -0.031447016 -0.0061350651
0.015143245 -0.028258434 -0.0059168111
-0.044473194 -0.015000002 -0.0082767997
-0.04013478 -0.015000004 -0.0022383071
-0.02680617 -0.01476359 -1.5981099e-07
-0.02151536 -0.02176249 -1.82759e-07
-0.0063260905 -0.01366293 -0.0018971085
0.0050867717 -0.014144514 -0.0018312233
0.02506119 -0.01756376 -1.7459701e-07
-0.029893151 -0.0065514441 -1.36875e-07
-0.01410892 -0.0045854608 -0.0019990203
0.013629214 -0.0060259844 -0.001999716
0.029014939 -0.0097318878 -1.4752e-07
-0.029584549 0.0064838221 -1.33695e-07
-0.013873048 0.0060910941 -0.0018995523
-0.01020991 0.01067572 -0.002499938
0.01021087 0.01067572 -0.002499938
0.014243324 0.004996819 -0.0018989323
0.02963924 0.0076218839 -1.36824e-07
-0.044473205 0.015 -0.0082767997
-0.040134769 0.014999992 -0.0022383071
-0.02441293 0.018453291 -1.82938e-07
-0.0054287547 0.014066599 -0.0019020198
0.0060680374 0.013770145 -0.0018980263
0.026258521 0.015717801 -1.42093e-07
-0.024807956 0.032776199 -0.0047735865
-0.018316219 0.030095277 -0.0064876322
-0.0063933469 0.031190854 -0.006122476
0.0049727233 0.031218899 -0.005540662
0.018389061 0.029865788 -0.0062910407
0.024807956 0.032776199 -0.0047735865
-0.026650652 0.036279023 -0.0061607668
-0.019526299 0.034135278 -0.0081307879
-0.004749238 0.033184338 -0.008417069
0.002374619 0.033350639 -0.0084585538
0.019526299 0.034135278 -0.0081307879
0.026650652 0.036279023 -0.0061607668
-0.024641486 0.074088708 -0.0066794553
0 0.074534975 -0.0083028972
0.024641486 0.074088708 -0.0066794553
-0.023843084 0.082574904 -0.0043283305
-0.0216712 0.085211441 -0.0042213947
0 0.08289893 -0.005972683
0.0216712 0.085211441 -0.0042213942
0.023843084 0.082574911 -0.0043283305
-0.022792093 0.088689566 -0.00064761401
-0.021020435 0.08875221 -0.001495135
0 0.089089096 -0.001649451
0.021020435 0.08875221 -0.001495135
0.022792093 0.088689566 -0.00064761401
-0.0018585336 -0.10163525 0.0078292992
0.00176866 -0.10128305 0.0076506245
-0.015611556 -0.091841489 0.0045665479
-0.0024047713 -0.09602464 0.0072352244
0.0016228585 -0.096918054 0.0082607912
0.015611556 -0.091841504 0.0045665479
-0.018249005 -0.08185181 0.0067543685
0.018249005 -0.08185181 0.0067543685
-0.017918743 -0.070021801 0.0072118402
0.017918743 -0.070021808 0.0072118402
-0.017579909 -0.065900557 0.01085335
0.017579909 -0.065900557 0.01085335
-0.01252752 -0.054511659 0.001057982
-0.007269084 -0.053964611 0.001057982
0.005090713 -0.0539658 0.001058518
0.01245743 -0.05484914 0.001058518
-0.012514673 -0.034601219 0.0042237923
-0.0058402834 -0.034395605 0.0022865839
0.0052683363 -0.034466308 0.0024002339
0.012553431 -0.034579832 0.0035886525
-0.024466751 -0.024960002 0.0024999997
-0.016840164 -0.029062072 0.0039329021
-0.0023023065 -0.025383024 0.0024374973
0.0021301343 -0.02544098 0.0024741348
0.01684149 -0.029073423 0.0039194589
0.024713747 -0.024713747 0.0024999997
-0.045600001 -0.015000003 0.0049999999
-0.034699999 -0.015000001 0
-0.028934425 -0.018210962 0.0028977194
-0.013535691 -0.013469002 0.0034014278
-0.0053945971 -0.017545065 0.0023809522
0.0045076427 -0.01797254 0.0023999994
0.013767629 -0.013687227 0.0035152787
0.029614955 -0.017339375 0.0027550904
0.033075001 -0.011446998 0.0024999999
-0.025690688 -0.0023582547 0.0027043703
-0.018169491 -0.0043112333 0.0028254027
0.017828556 -0.0050254082 0.0028309484
0.025591599 -0.0024890292 0.0027499495
0.034401502 -0.0057849977 0.0025000002
-0.02555453 0.0025074694 0.0028037992
-0.017840402 0.0050655426 0.0028933233
0.018041659 0.0044046659 0.0028652926
0.025655273 0.0023600892 0.002773717
0.034487002 0.0049585705 0.0025000002
-0.045600001 0.014999998 0.0049999999
-0.034699999 0.014999998 0
-0.029154545 0.01819215 0.0027023654
-0.01377143 0.013912048 0.0035337959
-0.0044722366 0.017994156 0.0023999994
0.0053946325 0.017545067 0.0023809522
0.015432835 0.015578004 0.0028790913
0.029532783 0.017308392 0.0028499905
0.033075001 0.011447001 0.0024999999
-0.024240294 0.026438929 0.0025074619
-0.017224791 0.029130621 0.0044460441
-0.0023157392 0.025973581 0.0023464565
0.0025116669 0.025942216 0.0023171233
0.017346956 0.029134434 0.0045269793
0.024437899 0.026241932 0.0025074622
-0.025392491 0.035759218 0.0027608082
-0.015527868 0.034691747 0.005209574
-0.0048965719 0.034499846 0.0025000002
0.0057849977 0.03440151 0.0025000002
0.015589379 0.034657173 0.005673856
0.025392491 0.035759218 0.0027608084
-0.027987121 0.049337622 0.00099994498
-0.015925195 0.051044106 0.004544735
-0.0050895209 0.053966582 0.001058876
0.007270216 0.053963721 0.001057624
0.015961375 0.050874561 0.0045441086
0.027987121 0.049337622 0.00099994498
-0.02424123 0.057946473 0.0035494266
-0.019054547 0.062872544 0.0086843958
0.019054547 0.062872544 0.0086843958
0.02424123 0.057946473 0.0035494266
-0.024554007 0.073457919 0.0033541557
-0.019161722 0.06957671 0.0090740127
0.019161722 0.069576703 0.0090740127
0.024554009 0.073457919 0.0033541557
-0.024971707 0.082778946 0.0055124182
-0.021490511 0.077531748 0.0094960919
0.021490511 0.077531748 0.0094960919
0.024971707 0.082778938 0.0055124182
-0.023285108 0.090491742 0.0046599177
-0.0210019 0.092734016 0.0052557699
0 0.09359701 0.0057129264
0.021001898 0.092734031 0.0052557699
0.023285108 0.090491757 0.0046599177
-0.0021661029 -0.10030988 0.01343327
0.0022085155 -0.10049789 0.013075638
-0.015919663 -0.095055982 0.017377546
-0.0017419938 -0.096807972 0.015499234
0.0015340151 -0.096793495 0.015651409
0.015919665 -0.095055982 0.017377546
-0.016351221 -0.069198199 0.014278991
0.016351221 -0.069198191 0.014278991
-0.016691122 0.069567673 0.013760131
0.01669112 0.069567673 0.013760129
-0.0237779 0.08681199 0.016430615
-0.02123636 0.078946047 0.01174789
0.02123636 0.078946047 0.01174789
0.0237779 0.08681199 0.016430615
-0.022749893 0.093265139 0.012229557
-0.020897733 0.095343351 0.015216859
0 0.096734308 0.01715669
0.020897733 0.095343359 0.015216858
0.022749893 0.093265139 0.012229557
-0.016129866 -0.096176021 0.029121485
0 -0.09843009 0.02715712
0.016129866 -0.096176028 0.029121488
-0.01780122 -0.077763431 0.026048601
0.01780122 -0.077763431 0.026048601
-0.016720638 -0.07092046 0.025149286
0.016720638 -0.07092046 0.025149286
-0.017603271 -0.056092851 0.026619131
0.017603271 -0.056092851 0.026619131
-0.016476918 0.070841931 0.025140181
0.016476918 0.070841923 0.025140179
-0.019058507 0.08106073 0.026160832
0.019058507 0.08106073 0.026160832
-0.02211022 0.090426743 0.03104621
-0.020066205 0.096750267 0.028011769
0.020066205 0.096750267 0.028011769
0.02211022 0.090426743 0.03104621
0 0.099124007 0.03232187
-0.014750079 -0.09938395 0.039794162
0 -0.099742278 0.039011296
0.014750079 -0.09938395 0.039794162
-0.016241567 -0.098276913 0.037729859
0.016241567 -0.098276913 0.037729859
-0.018944975 0.085816883 0.037487414
0.018944975 0.085816883 0.037487414
-0.019603128 0.097018927 0.038897198
0.019603128 0.097018927 0.038897198
-0.017309539 0.099492013 0.041028582
0.017309539 0.099492013 0.041028582
-0.01498436 -0.099838637 0.052340079
0 -0.1005471 0.05282706
0.014984359 -0.099838637 0.052340079
-0.017361354 -0.096694775 0.050340399
0.017361356 -0.096694767 0.050340399
-0.0183126 0.082152098 0.04807606
0.0183126 0.082152098 0.04807606
-0.018992784 0.096541137 0.050238665
0.018992784 0.096541137 0.050238669
-0.016712375 0.099635392 0.05109005
0 0.1003436 0.048123837
0.016712375 0.0996354 0.05109005
-0.013544983 -0.099727333 0.056653608
-0.0074838698 -0.1000751 0.058108401
0.0049892464 -0.10018343 0.058058117
0.013544983 -0.099727333 0.056653604
-0.015463045 -0.092786975 0.062231641
-0.0078462008 -0.095747069 0.063228741
0.0039231004 -0.095610216 0.063486382
0.015463044 -0.092786975 0.062231641
-0.016466336 -0.083673254 0.063759573
0.016466336 -0.083673254 0.063759573
-0.01609006 -0.069225602 0.064670563
-0.0090751275 -0.066494375 0.061205391
0.0072612665 -0.066599518 0.061424531
0.016090062 -0.069225609 0.064670563
-0.01145249 -0.065812878 0.062100165
-0.0083956486 -0.060870204 0.062329799
0.0082656471 -0.061125416 0.062249377
0.01145249 -0.065812878 0.062100165
-0.0080844415 -0.048254054 0.061756212
0.0081618782 -0.048271425 0.061568983
-0.015581861 -0.034119442 0.065069251
-0.0076164794 -0.042529736 0.060284734
0.007612892 -0.042539548 0.06029243
0.01558186 -0.034119438 0.065069258
-0.01538306 -0.02485287 0.065290451
0.01538306 -0.02485287 0.065290451
-0.01713904 -0.01906362 0.063319892
0.01713904 -0.01906362 0.063319892
-0.01568047 -0.0062401094 0.065044403
0.01568047 -0.0062401094 0.065044403
-0.015102236 0.011724975 0.065399021
0.015102236 0.011724975 0.065399021
-0.01666086 0.02990281 0.064199202
0.01666086 0.02990281 0.064199202
-0.016146133 0.041126199 0.064305633
-0.0076128985 0.04253953 0.060292434
0.0076164734 0.042529754 0.060284734
0.016146133 0.041126199 0.064305633
-0.01671157 0.04844455 0.064026989
-0.0081618996 0.048271399 0.061568983
0.008084421 0.048254069 0.061756212
0.01671157 0.04844455 0.064026989
-0.01277049 0.064347722 0.063171737
-0.0082657011 0.061125383 0.062249385
0.0083955945 0.060870238 0.062329803
0.01277049 0.064347722 0.063171737
-0.012382507 0.066463485 0.063277006
-0.0086012958 0.066444643 0.060902074
0.0064494498 0.066578478 0.061251257
0.012382507 0.066463493 0.063277006
-0.016406538 0.08364442 0.063810408
0.016406538 0.083644412 0.063810408
-0.015676076 0.092730977 0.062359694
-0.009160039 0.095853925 0.063085757
0.0040711286 0.095567793 0.063508891
0.015676076 0.092730977 0.062359706
-0.014087756 0.099800095 0.056212176
-0.0084179621 0.10013781 0.057737775
0.00601283 0.100201 0.057837401
0.014087756 0.099800095 0.056212168
-0.0065007019 -0.058404859 0.070721865
0.0062245904 -0.058353439 0.070876591
-0.010409079 -0.051616911 0.076118551
0.01037493 -0.051576916 0.076172732
-0.01037496 0.05157689 0.076172732
0.01040905 0.051616937 0.076118551
-0.0062246369 0.058353428 0.070876576
0.0065006553 0.058404878 0.070721857
-0.010349139 -0.059094988 0.077521913
0.010348359 -0.059128165 0.077547371
-0.010382742 -0.052611891 0.077199899
0.010379038 -0.052792247 0.077252053
-0.01037907 0.052792221 0.077252053
0.01038271 0.052611917 0.077199899
-0.010348408 0.059128135 0.077547371
0.01034909 0.05909501 0.077521913
-0.0089299772 -0.055567872 0.094208688
0.0089288242 -0.055559903 0.094216757
-0.0078620119 -0.050210852 0.094621755
0.0077240756 -0.050473575 0.094688453
-0.0038565614 -0.040884446 0.095211282
0.0048236614 -0.04071901 0.095364653
-0.0048236628 0.040718995 0.095364645
0.0038565591 0.040884458 0.095211282
-0.0077241026 0.050473552 0.094688453
0.0078619868 0.050210875 0.094621755
-0.0089288643 0.055559881 0.094216757
0.0089299381 0.055567894 0.094208688
-0.0029431996 -0.04997221 0.10399487
0.0031283512 -0.050026041 0.10420962
-0.0045530526 -0.041104615 0.10424128
0.0046739988 -0.041063406 0.10399837
-0.0046740025 0.041063394 0.10399838
0.0045530503 0.041104626 0.10424129
-0.003128377 0.050026026 0.10420962
0.0029431747 0.04997221 0.10399488
-0.0055998517 -0.050888352 0.11144419
0.0055762441 -0.050629184 0.11135198
-0.0033379877 -0.040727884 0.11150452
0.0043570227 -0.040562041 0.11116491
-0.0043570241 0.04056203 0.11116491
0.0033379861 0.040727887 0.11150452
-0.0055762716 0.050629165 0.11135198
0.0055998242 0.050888367 0.11144419
